5.000000000000000000e+00,5.000000000000000000e+00,5.000000000000000000e+00,5.000000000000000000e+00,5.000000000000000000e+00,5.000000000000000000e+00,5.000000000000000000e+00,5.000000000000000000e+00,5.000000000000000000e+00,5.000000000000000000e+00,5.000000000000000000e+00,5.000000000000000000e+00,5.000000000000000000e+00,5.000000000000000000e+00,5.000000000000000000e+00,5.000000000000000000e+00,5.000000000000000000e+00,5.000000000000000000e+00,5.000000000000000000e+00,5.000000000000000000e+00,5.000000000000000000e+00,5.000000000000000000e+00,3.715345144271850586e+00,3.710123777389526367e+00,3.684767484664916992e+00,3.679095029830932617e+00,3.685705661773681641e+00,3.697252988815307617e+00,3.723485946655273438e+00,3.740869522094726562e+00,5.000000000000000000e+00,5.000000000000000000e+00,5.000000000000000000e+00,5.000000000000000000e+00,5.000000000000000000e+00,5.000000000000000000e+00,5.000000000000000000e+00,5.000000000000000000e+00,5.000000000000000000e+00,4.852746486663818359e+00,4.662567138671875000e+00,4.486732006072998047e+00,4.323677062988281250e+00,4.172058105468750000e+00,4.030712604522705078e+00,3.898630857467651367e+00,3.774930000305175781e+00,3.658838033676147461e+00,3.549673557281494141e+00,3.446834325790405273e+00,3.349786043167114258e+00,3.258053302764892578e+00,3.171210527420043945e+00,3.088877201080322266e+00,3.010710716247558594e+00,2.936403036117553711e+00,2.865674734115600586e+00,2.798273324966430664e+00,2.733969926834106445e+00,2.672555685043334961e+00,2.613839626312255859e+00,2.557648181915283203e+00,2.503822088241577148e+00,2.452214717864990234e+00,2.402691602706909180e+00,2.355129480361938477e+00,2.309413433074951172e+00,2.265438795089721680e+00,2.223107099533081055e+00,2.182328701019287109e+00,2.143019437789916992e+00,2.105101108551025391e+00,2.068501234054565430e+00,2.033152341842651367e+00,1.998991250991821289e+00,1.965959429740905762e+00,1.934001088142395020e+00,1.903065443038940430e+00,1.873103737831115723e+00,1.844070792198181152e+00
5.000000000000000000e+00,5.000000000000000000e+00,5.000000000000000000e+00,5.000000000000000000e+00,5.000000000000000000e+00,5.000000000000000000e+00,5.000000000000000000e+00,5.000000000000000000e+00,5.000000000000000000e+00,5.000000000000000000e+00,5.000000000000000000e+00,5.000000000000000000e+00,5.000000000000000000e+00,5.000000000000000000e+00,5.000000000000000000e+00,5.000000000000000000e+00,5.000000000000000000e+00,5.000000000000000000e+00,5.000000000000000000e+00,5.000000000000000000e+00,5.000000000000000000e+00,5.000000000000000000e+00,3.707633256912231445e+00,3.693839550018310547e+00,3.646486282348632812e+00,3.639694929122924805e+00,3.648219823837280273e+00,3.670982837677001953e+00,3.724443674087524414e+00,3.756039381027221680e+00,5.000000000000000000e+00,5.000000000000000000e+00,5.000000000000000000e+00,5.000000000000000000e+00,5.000000000000000000e+00,5.000000000000000000e+00,5.000000000000000000e+00,5.000000000000000000e+00,5.000000000000000000e+00,4.852884292602539062e+00,4.662694454193115234e+00,4.486850261688232422e+00,4.323787212371826172e+00,4.172160148620605469e+00,4.030807971954345703e+00,3.898719549179077148e+00,3.775013685226440430e+00,3.658916711807250977e+00,3.549747467041015625e+00,3.446903944015502930e+00,3.349851846694946289e+00,3.258115530014038086e+00,3.171269416809082031e+00,3.088933229446411133e+00,3.010763645172119141e+00,2.936453342437744141e+00,2.865722656250000000e+00,2.798319339752197266e+00,2.734013795852661133e+00,2.672597646713256836e+00,2.613879919052124023e+00,2.557686805725097656e+00,2.503858804702758789e+00,2.452250003814697266e+00,2.402725458145141602e+00,2.355161905288696289e+00,2.309444665908813477e+00,2.265468835830688477e+00,2.223136186599731445e+00,2.182356834411621094e+00,2.143046379089355469e+00,2.105127096176147461e+00,2.068526268005371094e+00,2.033176660537719727e+00,1.999014854431152344e+00,1.965981960296630859e+00,1.934023022651672363e+00,1.903086662292480469e+00,1.873124241828918457e+00,1.844090819358825684e+00
5.000000000000000000e+00,5.000000000000000000e+00,5.000000000000000000e+00,5.000000000000000000e+00,5.000000000000000000e+00,5.000000000000000000e+00,5.000000000000000000e+00,5.000000000000000000e+00,5.000000000000000000e+00,5.000000000000000000e+00,5.000000000000000000e+00,5.000000000000000000e+00,5.000000000000000000e+00,5.000000000000000000e+00,5.000000000000000000e+00,5.000000000000000000e+00,5.000000000000000000e+00,5.000000000000000000e+00,5.000000000000000000e+00,5.000000000000000000e+00,5.000000000000000000e+00,5.000000000000000000e+00,3.763168334960937500e+00,3.733247280120849609e+00,3.655874967575073242e+00,3.637834072113037109e+00,3.643518447875976562e+00,3.678931951522827148e+00,3.745278120040893555e+00,3.759684562683105469e+00,5.000000000000000000e+00,5.000000000000000000e+00,5.000000000000000000e+00,5.000000000000000000e+00,5.000000000000000000e+00,5.000000000000000000e+00,5.000000000000000000e+00,5.000000000000000000e+00,5.000000000000000000e+00,4.853022575378417969e+00,4.662821769714355469e+00,4.486968040466308594e+00,4.323896408081054688e+00,4.172262668609619141e+00,4.030903339385986328e+00,3.898808956146240234e+00,3.775097370147705078e+00,3.658995389938354492e+00,3.549821615219116211e+00,3.446973800659179688e+00,3.349917888641357422e+00,3.258177518844604492e+00,3.171328306198120117e+00,3.088988780975341797e+00,3.010817050933837891e+00,2.936503887176513672e+00,2.865771055221557617e+00,2.798365354537963867e+00,2.734057664871215820e+00,2.672639369964599609e+00,2.613919973373413086e+00,2.557725191116333008e+00,2.503895521163940430e+00,2.452285051345825195e+00,2.402759313583374023e+00,2.355194330215454102e+00,2.309475898742675781e+00,2.265498638153076172e+00,2.223165273666381836e+00,2.182384729385375977e+00,2.143073320388793945e+00,2.105153083801269531e+00,2.068551301956176758e+00,2.033200740814208984e+00,1.999038219451904297e+00,1.966004610061645508e+00,1.934045076370239258e+00,1.903107762336730957e+00,1.873144865036010742e+00,1.844110727310180664e+00
5.000000000000000000e+00,5.000000000000000000e+00,5.000000000000000000e+00,5.000000000000000000e+00,5.000000000000000000e+00,5.000000000000000000e+00,5.000000000000000000e+00,5.000000000000000000e+00,5.000000000000000000e+00,5.000000000000000000e+00,5.000000000000000000e+00,5.000000000000000000e+00,5.000000000000000000e+00,5.000000000000000000e+00,5.000000000000000000e+00,5.000000000000000000e+00,5.000000000000000000e+00,5.000000000000000000e+00,5.000000000000000000e+00,5.000000000000000000e+00,5.000000000000000000e+00,5.000000000000000000e+00,5.000000000000000000e+00,3.729639291763305664e+00,3.651877164840698242e+00,3.633686542510986328e+00,3.642172813415527344e+00,3.678890943527221680e+00,3.780368804931640625e+00,3.761775016784667969e+00,5.000000000000000000e+00,5.000000000000000000e+00,5.000000000000000000e+00,5.000000000000000000e+00,5.000000000000000000e+00,5.000000000000000000e+00,5.000000000000000000e+00,5.000000000000000000e+00,5.000000000000000000e+00,4.853160858154296875e+00,4.662949562072753906e+00,4.487086296081542969e+00,4.324006080627441406e+00,4.172364234924316406e+00,4.030998229980468750e+00,3.898898124694824219e+00,3.775181055068969727e+00,3.659073829650878906e+00,3.549895048141479492e+00,3.447043180465698242e+00,3.349983453750610352e+00,3.258239746093750000e+00,3.171387195587158203e+00,3.089044809341430664e+00,3.010870218276977539e+00,2.936554670333862305e+00,2.865819215774536133e+00,2.798411369323730469e+00,2.734101533889770508e+00,2.672681093215942383e+00,2.613959789276123047e+00,2.557763338088989258e+00,2.503932237625122070e+00,2.452320337295532227e+00,2.402793169021606445e+00,2.355226993560791016e+00,2.309507369995117188e+00,2.265528917312622070e+00,2.223194122314453125e+00,2.182412624359130859e+00,2.143100023269653320e+00,2.105179071426391602e+00,2.068576335906982422e+00,2.033225059509277344e+00,1.999061465263366699e+00,1.966027379035949707e+00,1.934066891670227051e+00,1.903129220008850098e+00,1.873165369033813477e+00,1.844130754470825195e+00
5.000000000000000000e+00,5.000000000000000000e+00,5.000000000000000000e+00,5.000000000000000000e+00,5.000000000000000000e+00,5.000000000000000000e+00,5.000000000000000000e+00,5.000000000000000000e+00,5.000000000000000000e+00,5.000000000000000000e+00,5.000000000000000000e+00,5.000000000000000000e+00,5.000000000000000000e+00,5.000000000000000000e+00,5.000000000000000000e+00,5.000000000000000000e+00,5.000000000000000000e+00,5.000000000000000000e+00,5.000000000000000000e+00,5.000000000000000000e+00,5.000000000000000000e+00,5.000000000000000000e+00,5.000000000000000000e+00,3.733916282653808594e+00,3.643292903900146484e+00,3.636641740798950195e+00,3.646111726760864258e+00,3.681039094924926758e+00,5.000000000000000000e+00,3.768682479858398438e+00,5.000000000000000000e+00,5.000000000000000000e+00,5.000000000000000000e+00,5.000000000000000000e+00,5.000000000000000000e+00,5.000000000000000000e+00,5.000000000000000000e+00,5.000000000000000000e+00,5.000000000000000000e+00,4.853299140930175781e+00,4.663076877593994141e+00,4.487204551696777344e+00,4.324115753173828125e+00,4.172466754913330078e+00,4.031093597412109375e+00,3.898987054824829102e+00,3.775264263153076172e+00,3.659152030944824219e+00,3.549969196319580078e+00,3.447113037109375000e+00,3.350049257278442383e+00,3.258302211761474609e+00,3.171446323394775391e+00,3.089100837707519531e+00,3.010923385620117188e+00,2.936605215072631836e+00,2.865867137908935547e+00,2.798457145690917969e+00,2.734145402908325195e+00,2.672723054885864258e+00,2.614000082015991211e+00,2.557801723480224609e+00,2.503968954086303711e+00,2.452355623245239258e+00,2.402827024459838867e+00,2.355259418487548828e+00,2.309538602828979492e+00,2.265558958053588867e+00,2.223222970962524414e+00,2.182440519332885742e+00,2.143126964569091797e+00,2.105205059051513672e+00,2.068601369857788086e+00,2.033249378204345703e+00,1.999085068702697754e+00,1.966049909591674805e+00,1.934088945388793945e+00,1.903150320053100586e+00,1.873185873031616211e+00,1.844150662422180176e+00
5.000000000000000000e+00,5.000000000000000000e+00,5.000000000000000000e+00,5.000000000000000000e+00,5.000000000000000000e+00,5.000000000000000000e+00,5.000000000000000000e+00,5.000000000000000000e+00,5.000000000000000000e+00,5.000000000000000000e+00,5.000000000000000000e+00,5.000000000000000000e+00,5.000000000000000000e+00,5.000000000000000000e+00,5.000000000000000000e+00,5.000000000000000000e+00,5.000000000000000000e+00,5.000000000000000000e+00,5.000000000000000000e+00,5.000000000000000000e+00,5.000000000000000000e+00,5.000000000000000000e+00,5.000000000000000000e+00,3.757569551467895508e+00,3.628808021545410156e+00,3.624392271041870117e+00,3.636033773422241211e+00,3.667814016342163086e+00,5.000000000000000000e+00,3.772195816040039062e+00,5.000000000000000000e+00,5.000000000000000000e+00,5.000000000000000000e+00,5.000000000000000000e+00,5.000000000000000000e+00,5.000000000000000000e+00,5.000000000000000000e+00,5.000000000000000000e+00,5.000000000000000000e+00,4.853436946868896484e+00,4.663204669952392578e+00,4.487322807312011719e+00,4.324225425720214844e+00,4.172568798065185547e+00,4.031188964843750000e+00,3.899076223373413086e+00,3.775347948074340820e+00,3.659230709075927734e+00,3.550043106079101562e+00,3.447182655334472656e+00,3.350115060806274414e+00,3.258364439010620117e+00,3.171505451202392578e+00,3.089156627655029297e+00,3.010976314544677734e+00,2.936655521392822266e+00,2.865915298461914062e+00,2.798503160476684570e+00,2.734189271926879883e+00,2.672765016555786133e+00,2.614040136337280273e+00,2.557840108871459961e+00,2.504005908966064453e+00,2.452390909194946289e+00,2.402860641479492188e+00,2.355291843414306641e+00,2.309569835662841797e+00,2.265588998794555664e+00,2.223252058029174805e+00,2.182468414306640625e+00,2.143154144287109375e+00,2.105231046676635742e+00,2.068626642227172852e+00,2.033273696899414062e+00,1.999108433723449707e+00,1.966072559356689453e+00,1.934110879898071289e+00,1.903171539306640625e+00,1.873206615447998047e+00,1.844170451164245605e+00
5.000000000000000000e+00,5.000000000000000000e+00,5.000000000000000000e+00,5.000000000000000000e+00,5.000000000000000000e+00,5.000000000000000000e+00,5.000000000000000000e+00,5.000000000000000000e+00,5.000000000000000000e+00,5.000000000000000000e+00,5.000000000000000000e+00,5.000000000000000000e+00,5.000000000000000000e+00,5.000000000000000000e+00,5.000000000000000000e+00,5.000000000000000000e+00,5.000000000000000000e+00,5.000000000000000000e+00,5.000000000000000000e+00,5.000000000000000000e+00,5.000000000000000000e+00,5.000000000000000000e+00,5.000000000000000000e+00,3.750590324401855469e+00,3.642808437347412109e+00,3.633466720581054688e+00,3.648906230926513672e+00,3.682765483856201172e+00,3.800520658493041992e+00,3.740524768829345703e+00,5.000000000000000000e+00,5.000000000000000000e+00,5.000000000000000000e+00,5.000000000000000000e+00,5.000000000000000000e+00,5.000000000000000000e+00,5.000000000000000000e+00,5.000000000000000000e+00,5.000000000000000000e+00,4.853574752807617188e+00,4.663331985473632812e+00,4.487440586090087891e+00,4.324335098266601562e+00,4.172670841217041016e+00,4.031284332275390625e+00,3.899165391921997070e+00,3.775431632995605469e+00,3.659309387207031250e+00,3.550117015838623047e+00,3.447252511978149414e+00,3.350180625915527344e+00,3.258426427841186523e+00,3.171564102172851562e+00,3.089212656021118164e+00,3.011029720306396484e+00,2.936706304550170898e+00,2.865963697433471680e+00,2.798548936843872070e+00,2.734233140945434570e+00,2.672806978225708008e+00,2.614080190658569336e+00,2.557878255844116211e+00,2.504042387008666992e+00,2.452426195144653320e+00,2.402894735336303711e+00,2.355324506759643555e+00,2.309601068496704102e+00,2.265619039535522461e+00,2.223281145095825195e+00,2.182496309280395508e+00,2.143181085586547852e+00,2.105256795883178711e+00,2.068651676177978516e+00,2.033297777175903320e+00,1.999131798744201660e+00,1.966095328330993652e+00,1.934132695198059082e+00,1.903192877769470215e+00,1.873227119445800781e+00,1.844190597534179688e+00
5.000000000000000000e+00,5.000000000000000000e+00,5.000000000000000000e+00,5.000000000000000000e+00,5.000000000000000000e+00,5.000000000000000000e+00,5.000000000000000000e+00,5.000000000000000000e+00,5.000000000000000000e+00,5.000000000000000000e+00,5.000000000000000000e+00,5.000000000000000000e+00,5.000000000000000000e+00,5.000000000000000000e+00,5.000000000000000000e+00,5.000000000000000000e+00,5.000000000000000000e+00,5.000000000000000000e+00,5.000000000000000000e+00,5.000000000000000000e+00,5.000000000000000000e+00,5.000000000000000000e+00,5.000000000000000000e+00,3.696988344192504883e+00,3.631310701370239258e+00,3.668812751770019531e+00,3.674633264541625977e+00,3.674541473388671875e+00,5.000000000000000000e+00,3.714240074157714844e+00,5.000000000000000000e+00,5.000000000000000000e+00,5.000000000000000000e+00,5.000000000000000000e+00,5.000000000000000000e+00,5.000000000000000000e+00,5.000000000000000000e+00,5.000000000000000000e+00,5.000000000000000000e+00,4.853713035583496094e+00,4.663459777832031250e+00,4.487558841705322266e+00,4.324444770812988281e+00,4.172772884368896484e+00,4.031379699707031250e+00,3.899254798889160156e+00,3.775515317916870117e+00,3.659387588500976562e+00,3.550190687179565430e+00,3.447321891784667969e+00,3.350246667861938477e+00,3.258488893508911133e+00,3.171623229980468750e+00,3.089268684387207031e+00,3.011082887649536133e+00,2.936756849288940430e+00,2.866011857986450195e+00,2.798594951629638672e+00,2.734276771545410156e+00,2.672848701477050781e+00,2.614120006561279297e+00,2.557916879653930664e+00,2.504079341888427734e+00,2.452461481094360352e+00,2.402928590774536133e+00,2.355357170104980469e+00,2.309632301330566406e+00,2.265649318695068359e+00,2.223309993743896484e+00,2.182524204254150391e+00,2.143207788467407227e+00,2.105283021926879883e+00,2.068676710128784180e+00,2.033322095870971680e+00,1.999155402183532715e+00,1.966117858886718750e+00,1.934154748916625977e+00,1.903213977813720703e+00,1.873247861862182617e+00,1.844210386276245117e+00
5.000000000000000000e+00,5.000000000000000000e+00,5.000000000000000000e+00,5.000000000000000000e+00,5.000000000000000000e+00,5.000000000000000000e+00,5.000000000000000000e+00,5.000000000000000000e+00,5.000000000000000000e+00,5.000000000000000000e+00,5.000000000000000000e+00,5.000000000000000000e+00,5.000000000000000000e+00,5.000000000000000000e+00,5.000000000000000000e+00,5.000000000000000000e+00,5.000000000000000000e+00,5.000000000000000000e+00,5.000000000000000000e+00,5.000000000000000000e+00,5.000000000000000000e+00,5.000000000000000000e+00,5.000000000000000000e+00,3.627420902252197266e+00,3.603550434112548828e+00,3.634162187576293945e+00,3.652144432067871094e+00,3.644311428070068359e+00,3.713908910751342773e+00,3.686634063720703125e+00,5.000000000000000000e+00,5.000000000000000000e+00,5.000000000000000000e+00,5.000000000000000000e+00,5.000000000000000000e+00,5.000000000000000000e+00,5.000000000000000000e+00,5.000000000000000000e+00,5.000000000000000000e+00,4.853851318359375000e+00,4.663587093353271484e+00,4.487676620483398438e+00,4.324554443359375000e+00,4.172874927520751953e+00,4.031474590301513672e+00,3.899343490600585938e+00,3.775598526000976562e+00,3.659466266632080078e+00,3.550264835357666016e+00,3.447391748428344727e+00,3.350312471389770508e+00,3.258551120758056641e+00,3.171682357788085938e+00,3.089324712753295898e+00,3.011136054992675781e+00,2.936807394027709961e+00,2.866059780120849609e+00,2.798640727996826172e+00,2.734320640563964844e+00,2.672890663146972656e+00,2.614160299301147461e+00,2.557955265045166016e+00,2.504116058349609375e+00,2.452496767044067383e+00,2.402962446212768555e+00,2.355389356613159180e+00,2.309663534164428711e+00,2.265679359436035156e+00,2.223339080810546875e+00,2.182552099227905273e+00,2.143234729766845703e+00,2.105309009552001953e+00,2.068701744079589844e+00,2.033346176147460938e+00,1.999178647994995117e+00,1.966140747070312500e+00,1.934176564216613770e+00,1.903235197067260742e+00,1.873268365859985352e+00,1.844230294227600098e+00
5.000000000000000000e+00,5.000000000000000000e+00,5.000000000000000000e+00,5.000000000000000000e+00,5.000000000000000000e+00,5.000000000000000000e+00,5.000000000000000000e+00,5.000000000000000000e+00,5.000000000000000000e+00,5.000000000000000000e+00,5.000000000000000000e+00,5.000000000000000000e+00,5.000000000000000000e+00,5.000000000000000000e+00,5.000000000000000000e+00,5.000000000000000000e+00,5.000000000000000000e+00,5.000000000000000000e+00,5.000000000000000000e+00,5.000000000000000000e+00,5.000000000000000000e+00,5.000000000000000000e+00,5.000000000000000000e+00,3.650816679000854492e+00,3.596621513366699219e+00,3.624037981033325195e+00,3.638941049575805664e+00,3.633629083633422852e+00,3.680303573608398438e+00,5.000000000000000000e+00,3.690209388732910156e+00,5.000000000000000000e+00,5.000000000000000000e+00,5.000000000000000000e+00,5.000000000000000000e+00,5.000000000000000000e+00,5.000000000000000000e+00,5.000000000000000000e+00,5.000000000000000000e+00,4.853989601135253906e+00,4.663714885711669922e+00,4.487794399261474609e+00,4.324664115905761719e+00,4.172976970672607422e+00,4.031569957733154297e+00,3.899432897567749023e+00,3.775682210922241211e+00,3.659544706344604492e+00,3.550338745117187500e+00,3.447461366653442383e+00,3.350378274917602539e+00,3.258613586425781250e+00,3.171741008758544922e+00,3.089380502700805664e+00,3.011188983917236328e+00,2.936857938766479492e+00,2.866107940673828125e+00,2.798686742782592773e+00,2.734364509582519531e+00,2.672932624816894531e+00,2.614200353622436523e+00,2.557993650436401367e+00,2.504152774810791016e+00,2.452531814575195312e+00,2.402996063232421875e+00,2.355422019958496094e+00,2.309694766998291016e+00,2.265709400177001953e+00,2.223367929458618164e+00,2.182580232620239258e+00,2.143261671066284180e+00,2.105334997177124023e+00,2.068727016448974609e+00,2.033370494842529297e+00,1.999202013015747070e+00,1.966163277626037598e+00,1.934198498725891113e+00,1.903256535530090332e+00,1.873288750648498535e+00,1.844250321388244629e+00
5.000000000000000000e+00,5.000000000000000000e+00,5.000000000000000000e+00,5.000000000000000000e+00,5.000000000000000000e+00,5.000000000000000000e+00,5.000000000000000000e+00,5.000000000000000000e+00,5.000000000000000000e+00,5.000000000000000000e+00,5.000000000000000000e+00,5.000000000000000000e+00,5.000000000000000000e+00,5.000000000000000000e+00,5.000000000000000000e+00,5.000000000000000000e+00,5.000000000000000000e+00,5.000000000000000000e+00,5.000000000000000000e+00,5.000000000000000000e+00,5.000000000000000000e+00,5.000000000000000000e+00,5.000000000000000000e+00,3.688076496124267578e+00,3.592191696166992188e+00,3.615387678146362305e+00,3.634430885314941406e+00,3.626770257949829102e+00,3.710839271545410156e+00,5.000000000000000000e+00,3.664002656936645508e+00,5.000000000000000000e+00,5.000000000000000000e+00,5.000000000000000000e+00,5.000000000000000000e+00,5.000000000000000000e+00,5.000000000000000000e+00,5.000000000000000000e+00,5.000000000000000000e+00,4.854127407073974609e+00,4.663842201232910156e+00,4.487912654876708984e+00,4.324773788452148438e+00,4.173079013824462891e+00,4.031665325164794922e+00,3.899522066116333008e+00,3.775765895843505859e+00,3.659623384475708008e+00,3.550412654876708984e+00,3.447530984878540039e+00,3.350444078445434570e+00,3.258675575256347656e+00,3.171800136566162109e+00,3.089436531066894531e+00,3.011242151260375977e+00,2.936908483505249023e+00,2.866156339645385742e+00,2.798732757568359375e+00,2.734408378601074219e+00,2.672974348068237305e+00,2.614240169525146484e+00,2.558031797409057617e+00,2.504189491271972656e+00,2.452567100524902344e+00,2.403030157089233398e+00,2.355454683303833008e+00,2.309726238250732422e+00,2.265739440917968750e+00,2.223397016525268555e+00,2.182608127593994141e+00,2.143288612365722656e+00,2.105360746383666992e+00,2.068752050399780273e+00,2.033394813537597656e+00,1.999225616455078125e+00,1.966185927391052246e+00,1.934220552444458008e+00,1.903277754783630371e+00,1.873309493064880371e+00,1.844270229339599609e+00
5.000000000000000000e+00,5.000000000000000000e+00,5.000000000000000000e+00,5.000000000000000000e+00,5.000000000000000000e+00,5.000000000000000000e+00,5.000000000000000000e+00,5.000000000000000000e+00,5.000000000000000000e+00,5.000000000000000000e+00,5.000000000000000000e+00,5.000000000000000000e+00,5.000000000000000000e+00,5.000000000000000000e+00,5.000000000000000000e+00,5.000000000000000000e+00,5.000000000000000000e+00,5.000000000000000000e+00,5.000000000000000000e+00,5.000000000000000000e+00,5.000000000000000000e+00,5.000000000000000000e+00,3.695292472839355469e+00,5.000000000000000000e+00,3.585120439529418945e+00,3.606343030929565430e+00,3.628776073455810547e+00,3.619476079940795898e+00,5.000000000000000000e+00,5.000000000000000000e+00,5.000000000000000000e+00,5.000000000000000000e+00,5.000000000000000000e+00,5.000000000000000000e+00,5.000000000000000000e+00,5.000000000000000000e+00,5.000000000000000000e+00,5.000000000000000000e+00,5.000000000000000000e+00,4.854265689849853516e+00,4.663969516754150391e+00,4.488030910491943359e+00,4.324883460998535156e+00,4.173181056976318359e+00,4.031760692596435547e+00,3.899611473083496094e+00,3.775849342346191406e+00,3.659701585769653320e+00,3.550486326217651367e+00,3.447600603103637695e+00,3.350509881973266602e+00,3.258737802505493164e+00,3.171859264373779297e+00,3.089492559432983398e+00,3.011295557022094727e+00,2.936959266662597656e+00,2.866204261779785156e+00,2.798778533935546875e+00,2.734452009201049805e+00,2.673016309738159180e+00,2.614280462265014648e+00,2.558070182800292969e+00,2.504226446151733398e+00,2.452602386474609375e+00,2.403064012527465820e+00,2.355487108230590820e+00,2.309757471084594727e+00,2.265769481658935547e+00,2.223425865173339844e+00,2.182636022567749023e+00,2.143315553665161133e+00,2.105386972427368164e+00,2.068777084350585938e+00,2.033418893814086914e+00,1.999248981475830078e+00,1.966208696365356445e+00,1.934242367744445801e+00,1.903299093246459961e+00,1.873329997062683105e+00,1.844290137290954590e+00
5.000000000000000000e+00,5.000000000000000000e+00,5.000000000000000000e+00,5.000000000000000000e+00,5.000000000000000000e+00,5.000000000000000000e+00,5.000000000000000000e+00,5.000000000000000000e+00,5.000000000000000000e+00,5.000000000000000000e+00,5.000000000000000000e+00,5.000000000000000000e+00,5.000000000000000000e+00,5.000000000000000000e+00,5.000000000000000000e+00,5.000000000000000000e+00,5.000000000000000000e+00,5.000000000000000000e+00,5.000000000000000000e+00,5.000000000000000000e+00,5.000000000000000000e+00,5.000000000000000000e+00,5.000000000000000000e+00,5.000000000000000000e+00,3.576658487319946289e+00,3.593175172805786133e+00,3.629112482070922852e+00,3.613405227661132812e+00,5.000000000000000000e+00,5.000000000000000000e+00,5.000000000000000000e+00,5.000000000000000000e+00,5.000000000000000000e+00,5.000000000000000000e+00,5.000000000000000000e+00,5.000000000000000000e+00,5.000000000000000000e+00,5.000000000000000000e+00,5.000000000000000000e+00,4.854403972625732422e+00,4.664097309112548828e+00,4.488149166107177734e+00,4.324993133544921875e+00,4.173283100128173828e+00,4.031856060028076172e+00,3.899700164794921875e+00,3.775933027267456055e+00,3.659780263900756836e+00,3.550560474395751953e+00,3.447670459747314453e+00,3.350575685501098633e+00,3.258800268173217773e+00,3.171918153762817383e+00,3.089548349380493164e+00,3.011348485946655273e+00,2.937009572982788086e+00,2.866252422332763672e+00,2.798824548721313477e+00,2.734496116638183594e+00,2.673058271408081055e+00,2.614320516586303711e+00,2.558108568191528320e+00,2.504263162612915039e+00,2.452637672424316406e+00,2.403097629547119141e+00,2.355519533157348633e+00,2.309788703918457031e+00,2.265799760818481445e+00,2.223454952239990234e+00,2.182663917541503906e+00,2.143342494964599609e+00,2.105412960052490234e+00,2.068802118301391602e+00,2.033443212509155273e+00,1.999272584915161133e+00,1.966231226921081543e+00,1.934264183044433594e+00,1.903320312500000000e+00,1.873350501060485840e+00,1.844310164451599121e+00
5.000000000000000000e+00,5.000000000000000000e+00,5.000000000000000000e+00,5.000000000000000000e+00,5.000000000000000000e+00,5.000000000000000000e+00,5.000000000000000000e+00,5.000000000000000000e+00,5.000000000000000000e+00,5.000000000000000000e+00,5.000000000000000000e+00,5.000000000000000000e+00,5.000000000000000000e+00,5.000000000000000000e+00,5.000000000000000000e+00,5.000000000000000000e+00,5.000000000000000000e+00,5.000000000000000000e+00,5.000000000000000000e+00,5.000000000000000000e+00,5.000000000000000000e+00,5.000000000000000000e+00,5.000000000000000000e+00,5.000000000000000000e+00,3.584742307662963867e+00,3.589151144027709961e+00,3.634853363037109375e+00,3.612816572189331055e+00,5.000000000000000000e+00,5.000000000000000000e+00,5.000000000000000000e+00,5.000000000000000000e+00,5.000000000000000000e+00,5.000000000000000000e+00,5.000000000000000000e+00,5.000000000000000000e+00,5.000000000000000000e+00,5.000000000000000000e+00,5.000000000000000000e+00,4.854542255401611328e+00,4.664224624633789062e+00,4.488266944885253906e+00,4.325102806091308594e+00,4.173385620117187500e+00,4.031951427459716797e+00,3.899789571762084961e+00,3.776016712188720703e+00,3.659858942031860352e+00,3.550634384155273438e+00,3.447740316390991211e+00,3.350641250610351562e+00,3.258862257003784180e+00,3.171977043151855469e+00,3.089604377746582031e+00,3.011401653289794922e+00,2.937060117721557617e+00,2.866300582885742188e+00,2.798870563507080078e+00,2.734539985656738281e+00,2.673100233078002930e+00,2.614360570907592773e+00,2.558146953582763672e+00,2.504299879074096680e+00,2.452672958374023438e+00,2.403131723403930664e+00,2.355552196502685547e+00,2.309819936752319336e+00,2.265829801559448242e+00,2.223484039306640625e+00,2.182691812515258789e+00,2.143369436264038086e+00,2.105438947677612305e+00,2.068827152252197266e+00,2.033467531204223633e+00,1.999295949935913086e+00,1.966253876686096191e+00,1.934286355972290039e+00,1.903341412544250488e+00,1.873371243476867676e+00,1.844330072402954102e+00
5.000000000000000000e+00,5.000000000000000000e+00,5.000000000000000000e+00,5.000000000000000000e+00,5.000000000000000000e+00,5.000000000000000000e+00,5.000000000000000000e+00,5.000000000000000000e+00,5.000000000000000000e+00,5.000000000000000000e+00,5.000000000000000000e+00,5.000000000000000000e+00,5.000000000000000000e+00,5.000000000000000000e+00,5.000000000000000000e+00,5.000000000000000000e+00,5.000000000000000000e+00,5.000000000000000000e+00,5.000000000000000000e+00,5.000000000000000000e+00,5.000000000000000000e+00,5.000000000000000000e+00,5.000000000000000000e+00,5.000000000000000000e+00,3.621437072753906250e+00,3.615202665328979492e+00,5.000000000000000000e+00,3.638008832931518555e+00,5.000000000000000000e+00,5.000000000000000000e+00,5.000000000000000000e+00,5.000000000000000000e+00,5.000000000000000000e+00,5.000000000000000000e+00,5.000000000000000000e+00,5.000000000000000000e+00,5.000000000000000000e+00,5.000000000000000000e+00,5.000000000000000000e+00,4.854680061340332031e+00,4.664352416992187500e+00,4.488385200500488281e+00,4.325212001800537109e+00,4.173487186431884766e+00,4.032046318054199219e+00,3.899878740310668945e+00,3.776100397109985352e+00,3.659937143325805664e+00,3.550708055496215820e+00,3.447809696197509766e+00,3.350707292556762695e+00,3.258924722671508789e+00,3.172036170959472656e+00,3.089660406112670898e+00,3.011455059051513672e+00,2.937110900878906250e+00,2.866348981857299805e+00,2.798916578292846680e+00,2.734583616256713867e+00,2.673141956329345703e+00,2.614400625228881836e+00,2.558185338973999023e+00,2.504336595535278320e+00,2.452708244323730469e+00,2.403165578842163086e+00,2.355584859848022461e+00,2.309851408004760742e+00,2.265859842300415039e+00,2.223513126373291016e+00,2.182719707489013672e+00,2.143396377563476562e+00,2.105464935302734375e+00,2.068852424621582031e+00,2.033491611480712891e+00,1.999319314956665039e+00,1.966276645660400391e+00,1.934308171272277832e+00,1.903362751007080078e+00,1.873391747474670410e+00,1.844349861145019531e+00
5.000000000000000000e+00,5.000000000000000000e+00,5.000000000000000000e+00,5.000000000000000000e+00,5.000000000000000000e+00,5.000000000000000000e+00,5.000000000000000000e+00,5.000000000000000000e+00,5.000000000000000000e+00,5.000000000000000000e+00,5.000000000000000000e+00,5.000000000000000000e+00,5.000000000000000000e+00,5.000000000000000000e+00,5.000000000000000000e+00,5.000000000000000000e+00,5.000000000000000000e+00,5.000000000000000000e+00,5.000000000000000000e+00,5.000000000000000000e+00,5.000000000000000000e+00,5.000000000000000000e+00,5.000000000000000000e+00,5.000000000000000000e+00,3.659891605377197266e+00,3.645696401596069336e+00,5.000000000000000000e+00,3.753917217254638672e+00,5.000000000000000000e+00,5.000000000000000000e+00,5.000000000000000000e+00,5.000000000000000000e+00,5.000000000000000000e+00,5.000000000000000000e+00,5.000000000000000000e+00,5.000000000000000000e+00,5.000000000000000000e+00,5.000000000000000000e+00,5.000000000000000000e+00,4.854818344116210938e+00,4.664479732513427734e+00,4.488503456115722656e+00,4.325322151184082031e+00,4.173589706420898438e+00,4.032141685485839844e+00,3.899967670440673828e+00,3.776183605194091797e+00,3.660015821456909180e+00,3.550781965255737305e+00,3.447879552841186523e+00,3.350773096084594727e+00,3.258986949920654297e+00,3.172095060348510742e+00,3.089716434478759766e+00,3.011508226394653320e+00,2.937161207199096680e+00,2.866396903991699219e+00,2.798962354660034180e+00,2.734627485275268555e+00,2.673183917999267578e+00,2.614440679550170898e+00,2.558223724365234375e+00,2.504373550415039062e+00,2.452743530273437500e+00,2.403199434280395508e+00,2.355617284774780273e+00,2.309882402420043945e+00,2.265889883041381836e+00,2.223541975021362305e+00,2.182747602462768555e+00,2.143423318862915039e+00,2.105490922927856445e+00,2.068877458572387695e+00,2.033515930175781250e+00,1.999342799186706543e+00,1.966299295425415039e+00,1.934329986572265625e+00,1.903383970260620117e+00,1.873412251472473145e+00,1.844370007514953613e+00
5.000000000000000000e+00,5.000000000000000000e+00,5.000000000000000000e+00,5.000000000000000000e+00,5.000000000000000000e+00,5.000000000000000000e+00,5.000000000000000000e+00,5.000000000000000000e+00,5.000000000000000000e+00,5.000000000000000000e+00,5.000000000000000000e+00,5.000000000000000000e+00,5.000000000000000000e+00,5.000000000000000000e+00,5.000000000000000000e+00,5.000000000000000000e+00,5.000000000000000000e+00,5.000000000000000000e+00,5.000000000000000000e+00,5.000000000000000000e+00,5.000000000000000000e+00,5.000000000000000000e+00,5.000000000000000000e+00,5.000000000000000000e+00,3.696402788162231445e+00,3.649332046508789062e+00,5.000000000000000000e+00,3.835070848464965820e+00,5.000000000000000000e+00,5.000000000000000000e+00,5.000000000000000000e+00,5.000000000000000000e+00,5.000000000000000000e+00,5.000000000000000000e+00,5.000000000000000000e+00,5.000000000000000000e+00,5.000000000000000000e+00,5.000000000000000000e+00,5.000000000000000000e+00,4.854956150054931641e+00,4.664607048034667969e+00,4.488621234893798828e+00,4.325431823730468750e+00,4.173691749572753906e+00,4.032237052917480469e+00,3.900056838989257812e+00,3.776267290115356445e+00,3.660094499588012695e+00,3.550856113433837891e+00,3.447949171066284180e+00,3.350839138031005859e+00,3.259049415588378906e+00,3.172153949737548828e+00,3.089772224426269531e+00,3.011561155319213867e+00,2.937211990356445312e+00,2.866445064544677734e+00,2.799008131027221680e+00,2.734671354293823242e+00,2.673225879669189453e+00,2.614480733871459961e+00,2.558262109756469727e+00,2.504410266876220703e+00,2.452778816223144531e+00,2.403233051300048828e+00,2.355649709701538086e+00,2.309913873672485352e+00,2.265920162200927734e+00,2.223570823669433594e+00,2.182775735855102539e+00,2.143450260162353516e+00,2.105516910552978516e+00,2.068902492523193359e+00,2.033540010452270508e+00,1.999366164207458496e+00,1.966321825981140137e+00,1.934352159500122070e+00,1.903405070304870605e+00,1.873432874679565430e+00,1.844389915466308594e+00
5.000000000000000000e+00,5.000000000000000000e+00,5.000000000000000000e+00,5.000000000000000000e+00,5.000000000000000000e+00,5.000000000000000000e+00,5.000000000000000000e+00,5.000000000000000000e+00,5.000000000000000000e+00,5.000000000000000000e+00,5.000000000000000000e+00,5.000000000000000000e+00,5.000000000000000000e+00,5.000000000000000000e+00,5.000000000000000000e+00,5.000000000000000000e+00,5.000000000000000000e+00,5.000000000000000000e+00,5.000000000000000000e+00,5.000000000000000000e+00,5.000000000000000000e+00,5.000000000000000000e+00,5.000000000000000000e+00,5.000000000000000000e+00,5.000000000000000000e+00,3.652346849441528320e+00,5.000000000000000000e+00,3.918740272521972656e+00,5.000000000000000000e+00,5.000000000000000000e+00,5.000000000000000000e+00,5.000000000000000000e+00,5.000000000000000000e+00,5.000000000000000000e+00,5.000000000000000000e+00,5.000000000000000000e+00,5.000000000000000000e+00,5.000000000000000000e+00,5.000000000000000000e+00,4.855093955993652344e+00,4.664734363555908203e+00,4.488739490509033203e+00,4.325541496276855469e+00,4.173793792724609375e+00,4.032332420349121094e+00,3.900146245956420898e+00,3.776351213455200195e+00,3.660173177719116211e+00,3.550930023193359375e+00,3.448018789291381836e+00,3.350904703140258789e+00,3.259111404418945312e+00,3.172213077545166016e+00,3.089828252792358398e+00,3.011614322662353516e+00,2.937262535095214844e+00,2.866493463516235352e+00,2.799054145812988281e+00,2.734715223312377930e+00,2.673267841339111328e+00,2.614520788192749023e+00,2.558300495147705078e+00,2.504446983337402344e+00,2.452814102172851562e+00,2.403267145156860352e+00,2.355682373046875000e+00,2.309945106506347656e+00,2.265950202941894531e+00,2.223599910736083984e+00,2.182803630828857422e+00,2.143477201461791992e+00,2.105542659759521484e+00,2.068927526473999023e+00,2.033564329147338867e+00,1.999389529228210449e+00,1.966344714164733887e+00,1.934373974800109863e+00,1.903426527976989746e+00,1.873453378677368164e+00,1.844409942626953125e+00
5.000000000000000000e+00,5.000000000000000000e+00,5.000000000000000000e+00,5.000000000000000000e+00,5.000000000000000000e+00,5.000000000000000000e+00,5.000000000000000000e+00,5.000000000000000000e+00,5.000000000000000000e+00,5.000000000000000000e+00,5.000000000000000000e+00,5.000000000000000000e+00,5.000000000000000000e+00,5.000000000000000000e+00,5.000000000000000000e+00,5.000000000000000000e+00,5.000000000000000000e+00,5.000000000000000000e+00,5.000000000000000000e+00,5.000000000000000000e+00,5.000000000000000000e+00,5.000000000000000000e+00,5.000000000000000000e+00,5.000000000000000000e+00,5.000000000000000000e+00,3.666008234024047852e+00,5.000000000000000000e+00,3.998014450073242188e+00,5.000000000000000000e+00,5.000000000000000000e+00,5.000000000000000000e+00,5.000000000000000000e+00,5.000000000000000000e+00,5.000000000000000000e+00,5.000000000000000000e+00,5.000000000000000000e+00,5.000000000000000000e+00,5.000000000000000000e+00,5.000000000000000000e+00,4.855231761932373047e+00,4.664862155914306641e+00,4.488857746124267578e+00,4.325651168823242188e+00,4.173895835876464844e+00,4.032427787780761719e+00,3.900235652923583984e+00,3.776434421539306641e+00,3.660251379013061523e+00,3.551003694534301758e+00,3.448088407516479492e+00,3.350970506668090820e+00,3.259173870086669922e+00,3.172272205352783203e+00,3.089884281158447266e+00,3.011667728424072266e+00,2.937313318252563477e+00,2.866541624069213867e+00,2.799099922180175781e+00,2.734759092330932617e+00,2.673309564590454102e+00,2.614560842514038086e+00,2.558338880538940430e+00,2.504483699798583984e+00,2.452849388122558594e+00,2.403301000595092773e+00,2.355714797973632812e+00,2.309976577758789062e+00,2.265980243682861328e+00,2.223628759384155273e+00,2.182831525802612305e+00,2.143504142761230469e+00,2.105568885803222656e+00,2.068952798843383789e+00,2.033588647842407227e+00,1.999413132667541504e+00,1.966367244720458984e+00,1.934396028518676758e+00,1.903447628021240234e+00,1.873473882675170898e+00,1.844429850578308105e+00
5.000000000000000000e+00,5.000000000000000000e+00,5.000000000000000000e+00,5.000000000000000000e+00,5.000000000000000000e+00,5.000000000000000000e+00,5.000000000000000000e+00,5.000000000000000000e+00,5.000000000000000000e+00,5.000000000000000000e+00,5.000000000000000000e+00,5.000000000000000000e+00,5.000000000000000000e+00,5.000000000000000000e+00,5.000000000000000000e+00,5.000000000000000000e+00,5.000000000000000000e+00,5.000000000000000000e+00,5.000000000000000000e+00,5.000000000000000000e+00,5.000000000000000000e+00,5.000000000000000000e+00,5.000000000000000000e+00,5.000000000000000000e+00,5.000000000000000000e+00,3.681407690048217773e+00,5.000000000000000000e+00,3.997126579284667969e+00,5.000000000000000000e+00,5.000000000000000000e+00,5.000000000000000000e+00,5.000000000000000000e+00,5.000000000000000000e+00,5.000000000000000000e+00,5.000000000000000000e+00,5.000000000000000000e+00,5.000000000000000000e+00,5.000000000000000000e+00,5.000000000000000000e+00,4.855370044708251953e+00,4.664989471435546875e+00,4.488975048065185547e+00,4.325760841369628906e+00,4.173997879028320312e+00,4.032523155212402344e+00,3.900324344635009766e+00,3.776518106460571289e+00,3.660330057144165039e+00,3.551077842712402344e+00,3.448158264160156250e+00,3.351036548614501953e+00,3.259236097335815430e+00,3.172331094741821289e+00,3.089940309524536133e+00,3.011720657348632812e+00,2.937363624572753906e+00,2.866589546203613281e+00,2.799145936965942383e+00,2.734802961349487305e+00,2.673351526260375977e+00,2.614601135253906250e+00,2.558377265930175781e+00,2.504520654678344727e+00,2.452884674072265625e+00,2.403334856033325195e+00,2.355747222900390625e+00,2.310007572174072266e+00,2.266010284423828125e+00,2.223657846450805664e+00,2.182859420776367188e+00,2.143531084060668945e+00,2.105594873428344727e+00,2.068977832794189453e+00,2.033612966537475586e+00,1.999436497688293457e+00,1.966389894485473633e+00,1.934417843818664551e+00,1.903468847274780273e+00,1.873494625091552734e+00,1.844449639320373535e+00
4.875540256500244141e+00,4.874329566955566406e+00,4.873119831085205078e+00,4.871910572052001953e+00,4.870701789855957031e+00,4.869493484497070312e+00,4.868286132812500000e+00,4.867078781127929688e+00,4.865872383117675781e+00,4.864666461944580078e+00,4.863461494445800781e+00,4.862257003784179688e+00,4.861052989959716797e+00,4.859849452972412109e+00,4.858646869659423828e+00,4.857444286346435547e+00,4.856243133544921875e+00,4.855041980743408203e+00,4.853841781616210938e+00,4.852641582489013672e+00,4.851442813873291016e+00,4.850244045257568359e+00,4.849045753479003906e+00,4.847848415374755859e+00,4.846651554107666016e+00,3.697090625762939453e+00,4.844259738922119141e+00,3.980483055114746094e+00,4.841869831085205078e+00,4.840675830841064453e+00,4.839482784271240234e+00,4.838289737701416016e+00,4.837097644805908203e+00,4.835906028747558594e+00,4.834715366363525391e+00,4.833524703979492188e+00,4.832334995269775391e+00,4.831145763397216797e+00,4.829957008361816406e+00,4.828768730163574219e+00,4.665116786956787109e+00,4.489093303680419922e+00,4.325870037078857422e+00,4.174100399017333984e+00,4.032618522644042969e+00,3.900413751602172852e+00,3.776601791381835938e+00,3.660408735275268555e+00,3.551151752471923828e+00,3.448228120803833008e+00,3.351102590560913086e+00,3.259298086166381836e+00,3.172389984130859375e+00,3.089996099472045898e+00,3.011773824691772461e+00,2.937414169311523438e+00,2.866637945175170898e+00,2.799191951751708984e+00,2.734846830368041992e+00,2.673393487930297852e+00,2.614641189575195312e+00,2.558415651321411133e+00,2.504557132720947266e+00,2.452919721603393555e+00,2.403368711471557617e+00,2.355779886245727539e+00,2.310039043426513672e+00,2.266040563583374023e+00,2.223686933517456055e+00,2.182887315750122070e+00,2.143558025360107422e+00,2.105620861053466797e+00,2.069002866744995117e+00,2.033637046813964844e+00,1.999459862709045410e+00,1.966412663459777832e+00,1.934439778327941895e+00,1.903490185737609863e+00,1.873515129089355469e+00,1.844469785690307617e+00
3.778371334075927734e+00,3.777644395828247070e+00,3.776917695999145508e+00,3.776191234588623047e+00,3.775464773178100586e+00,3.774738788604736328e+00,3.774013280868530273e+00,3.773288011550903320e+00,3.772562503814697266e+00,3.771837711334228516e+00,3.771113395690917969e+00,3.770389080047607422e+00,3.769664764404296875e+00,3.768941164016723633e+00,3.768217802047729492e+00,3.767494916915893555e+00,3.766771554946899414e+00,3.766049146652221680e+00,3.765326976776123047e+00,3.764604806900024414e+00,3.763882637023925781e+00,3.763161420822143555e+00,3.762440204620361328e+00,3.761719465255737305e+00,3.760998487472534180e+00,3.590777397155761719e+00,3.572710752487182617e+00,3.758838415145874023e+00,3.758118867874145508e+00,3.757399320602416992e+00,3.756680250167846680e+00,3.755961656570434570e+00,3.755243301391601562e+00,3.754524707794189453e+00,3.753806829452514648e+00,3.753089427947998047e+00,3.752372026443481445e+00,3.751654624938964844e+00,3.750937938690185547e+00,3.750221490859985352e+00,3.749505281448364258e+00,3.748788833618164062e+00,3.748073339462280273e+00,3.747357845306396484e+00,3.746642827987670898e+00,3.745927572250366211e+00,3.745213031768798828e+00,3.660487413406372070e+00,3.551225423812866211e+00,3.448297500610351562e+00,3.351168155670166016e+00,3.259360551834106445e+00,3.172449111938476562e+00,3.090052127838134766e+00,3.011827230453491211e+00,2.937464952468872070e+00,2.866686105728149414e+00,2.799237966537475586e+00,2.734890699386596680e+00,2.673435211181640625e+00,2.614681005477905273e+00,2.558453798294067383e+00,2.504594087600708008e+00,2.452955245971679688e+00,2.403402566909790039e+00,2.355812549591064453e+00,2.310070276260375977e+00,2.266070604324340820e+00,2.223716020584106445e+00,2.182915210723876953e+00,2.143584966659545898e+00,2.105646848678588867e+00,2.069027900695800781e+00,2.033661365509033203e+00,1.999483466148376465e+00,1.966435194015502930e+00,1.934461832046508789e+00,1.903511404991149902e+00,1.873535871505737305e+00,1.844489574432373047e+00
3.084295988082885742e+00,3.083811521530151367e+00,3.083327293395996094e+00,3.082843065261840820e+00,3.082358837127685547e+00,3.081875085830688477e+00,3.081391334533691406e+00,3.080907821655273438e+00,3.080424308776855469e+00,3.079941034317016602e+00,3.079457998275756836e+00,3.078974962234497070e+00,3.078491926193237305e+00,3.078009366989135742e+00,3.077526807785034180e+00,3.077044486999511719e+00,3.076562166213989258e+00,3.076080083847045898e+00,3.075598239898681641e+00,3.075116634368896484e+00,3.074634790420532227e+00,3.074153184890747070e+00,3.073672056198120117e+00,3.073190927505493164e+00,3.072709560394287109e+00,3.072228908538818359e+00,3.071748256683349609e+00,3.071267604827880859e+00,3.070786952972412109e+00,3.070306777954101562e+00,3.069826841354370117e+00,3.069346904754638672e+00,3.068866968154907227e+00,3.068387269973754883e+00,3.067907810211181641e+00,3.067428588867187500e+00,3.066949129104614258e+00,3.066470146179199219e+00,3.065991163253784180e+00,3.065512657165527344e+00,3.065033674240112305e+00,3.064555406570434570e+00,3.064077138900756836e+00,3.063599109649658203e+00,3.063120841979980469e+00,3.062643051147460938e+00,3.062165260314941406e+00,3.061687707901000977e+00,3.061210155487060547e+00,3.060732841491699219e+00,3.060256004333496094e+00,3.059778928756713867e+00,3.059301853179931641e+00,3.058825254440307617e+00,3.011880397796630859e+00,2.937515497207641602e+00,2.866734027862548828e+00,2.799283742904663086e+00,2.734934329986572266e+00,2.673477172851562500e+00,2.614721298217773438e+00,2.558492422103881836e+00,2.504630804061889648e+00,2.452990531921386719e+00,2.403436422348022461e+00,2.355844974517822266e+00,2.310101509094238281e+00,2.266100645065307617e+00,2.223744869232177734e+00,2.182943344116210938e+00,2.143611907958984375e+00,2.105672836303710938e+00,2.069053173065185547e+00,2.033685684204101562e+00,1.999506831169128418e+00,1.966458082199096680e+00,1.934483647346496582e+00,1.903532505035400391e+00,1.873556375503540039e+00,1.844509482383728027e+00
2.605646610260009766e+00,2.605300903320312500e+00,2.604955196380615234e+00,2.604609251022338867e+00,2.604263782501220703e+00,2.603918552398681641e+00,2.603573083877563477e+00,2.603227853775024414e+00,2.602882623672485352e+00,2.602537631988525391e+00,2.602192640304565430e+00,2.601847648620605469e+00,2.601502895355224609e+00,2.601158380508422852e+00,2.600813627243041992e+00,2.600469112396240234e+00,2.600124597549438477e+00,2.599780321121215820e+00,2.599436283111572266e+00,2.599092006683349609e+00,2.598747730255126953e+00,2.598403930664062500e+00,2.598060131072998047e+00,2.597716331481933594e+00,2.597372531890869141e+00,2.597028970718383789e+00,2.596685409545898438e+00,2.596342086791992188e+00,2.595998525619506836e+00,2.595655441284179688e+00,2.595312356948852539e+00,2.594969272613525391e+00,2.594626188278198242e+00,2.594283342361450195e+00,2.593940496444702148e+00,2.593597888946533203e+00,2.593255043029785156e+00,2.592912673950195312e+00,2.592570304870605469e+00,2.592227935791015625e+00,2.591885566711425781e+00,2.591543436050415039e+00,2.591201543807983398e+00,2.590859413146972656e+00,2.590517520904541016e+00,2.590175628662109375e+00,2.589833974838256836e+00,2.589492559432983398e+00,2.589150905609130859e+00,2.588809490203857422e+00,2.588468074798583984e+00,2.588126897811889648e+00,2.587785720825195312e+00,2.587444543838500977e+00,2.587103605270385742e+00,2.586762905120849609e+00,2.586421966552734375e+00,2.586081266403198242e+00,2.585740566253662109e+00,2.585400104522705078e+00,2.585059642791748047e+00,2.558530807495117188e+00,2.504667758941650391e+00,2.453025579452514648e+00,2.403470277786254883e+00,2.355877399444580078e+00,2.310132741928100586e+00,2.266130924224853516e+00,2.223773717880249023e+00,2.182971239089965820e+00,2.143638849258422852e+00,2.105698823928833008e+00,2.069078207015991211e+00,2.033710002899169922e+00,1.999530196189880371e+00,1.966480612754821777e+00,1.934505581855773926e+00,1.903553962707519531e+00,1.873576879501342773e+00,1.844529509544372559e+00
2.255609750747680664e+00,2.255350351333618164e+00,2.255090951919555664e+00,2.254831552505493164e+00,2.254572391510009766e+00,2.254312992095947266e+00,2.254053831100463867e+00,2.253794670104980469e+00,2.253535509109497070e+00,2.253276586532592773e+00,2.253017663955688477e+00,2.252758741378784180e+00,2.252499818801879883e+00,2.252241134643554688e+00,2.251982450485229492e+00,2.251723766326904297e+00,2.251465082168579102e+00,2.251206636428833008e+00,2.250948190689086914e+00,2.250689744949340820e+00,2.250431299209594727e+00,2.250172853469848633e+00,2.249914884567260742e+00,2.249656438827514648e+00,2.249398708343505859e+00,2.249140977859497070e+00,2.248883485794067383e+00,2.248625755310058594e+00,2.248368263244628906e+00,2.248110771179199219e+00,2.247853279113769531e+00,2.247595787048339844e+00,2.247338533401489258e+00,2.247081518173217773e+00,2.246824264526367188e+00,2.246567010879516602e+00,2.246309995651245117e+00,2.246052980422973633e+00,2.245796203613281250e+00,2.245539188385009766e+00,2.245282173156738281e+00,2.245025634765625000e+00,2.244768857955932617e+00,2.244512081146240234e+00,2.244255542755126953e+00,2.243999004364013672e+00,2.243742704391479492e+00,2.243486166000366211e+00,2.243229866027832031e+00,2.242973566055297852e+00,2.242717266082763672e+00,2.242460966110229492e+00,2.242204904556274414e+00,2.241948843002319336e+00,2.241692781448364258e+00,2.241436719894409180e+00,2.241180896759033203e+00,2.240925073623657227e+00,2.240669488906860352e+00,2.240413665771484375e+00,2.240158081054687500e+00,2.239902496337890625e+00,2.239646911621093750e+00,2.239391565322875977e+00,2.239135980606079102e+00,2.238880634307861328e+00,2.238625288009643555e+00,2.238370180130004883e+00,2.223802804946899414e+00,2.182999134063720703e+00,2.143665790557861328e+00,2.105724811553955078e+00,2.069103240966796875e+00,2.033734083175659180e+00,1.999553680419921875e+00,1.966503262519836426e+00,1.934527635574340820e+00,1.903575062751770020e+00,1.873597621917724609e+00,1.844549417495727539e+00
1.988497257232666016e+00,1.988295793533325195e+00,1.988094091415405273e+00,1.987892389297485352e+00,1.987690806388854980e+00,1.987489223480224609e+00,1.987287998199462891e+00,1.987086534500122070e+00,1.986885070800781250e+00,1.986683726310729980e+00,1.986482262611389160e+00,1.986281275749206543e+00,1.986079931259155273e+00,1.985878705978393555e+00,1.985677599906921387e+00,1.985476374626159668e+00,1.985275506973266602e+00,1.985074520111083984e+00,1.984873414039611816e+00,1.984672427177429199e+00,1.984471440315246582e+00,1.984270811080932617e+00,1.984069943428039551e+00,1.983869075775146484e+00,1.983668327331542969e+00,1.983467578887939453e+00,1.983267068862915039e+00,1.983066439628601074e+00,1.982865810394287109e+00,1.982665300369262695e+00,1.982464671134948730e+00,1.982264399528503418e+00,1.982064008712768555e+00,1.981863498687744141e+00,1.981663227081298828e+00,1.981462836265563965e+00,1.981262803077697754e+00,1.981062531471252441e+00,1.980862259864807129e+00,1.980662107467651367e+00,1.980461955070495605e+00,1.980262160301208496e+00,1.980062007904052734e+00,1.979862093925476074e+00,1.979662060737609863e+00,1.979462146759033203e+00,1.979262232780456543e+00,1.979062557220458984e+00,1.978862762451171875e+00,1.978662967681884766e+00,1.978463292121887207e+00,1.978263616561889648e+00,1.978064179420471191e+00,1.977864503860473633e+00,1.977664947509765625e+00,1.977465391159057617e+00,1.977265954017639160e+00,1.977066636085510254e+00,1.976867318153381348e+00,1.976667881011962891e+00,1.976468563079833984e+00,1.976269245147705078e+00,1.976070284843444824e+00,1.975871086120605469e+00,1.975671887397766113e+00,1.975472688674926758e+00,1.975273609161376953e+00,1.975074768066406250e+00,1.974875807762145996e+00,1.974676847457885742e+00,1.974477887153625488e+00,1.974279046058654785e+00,1.974080324172973633e+00,1.973881602287292480e+00,1.973682761192321777e+00,1.966526031494140625e+00,1.934549450874328613e+00,1.903596401214599609e+00,1.873618125915527344e+00,1.844569325447082520e+00
1.777949929237365723e+00,1.777788758277893066e+00,1.777627468109130859e+00,1.777466416358947754e+00,1.777305245399475098e+00,1.777144074440002441e+00,1.776983022689819336e+00,1.776821851730346680e+00,1.776661038398742676e+00,1.776499986648559570e+00,1.776338934898376465e+00,1.776178002357482910e+00,1.776017069816589355e+00,1.775856375694274902e+00,1.775695443153381348e+00,1.775534629821777344e+00,1.775373697280883789e+00,1.775213003158569336e+00,1.775052309036254883e+00,1.774891614913940430e+00,1.774730920791625977e+00,1.774570226669311523e+00,1.774409532546997070e+00,1.774249076843261719e+00,1.774088501930236816e+00,1.773927927017211914e+00,1.773767352104187012e+00,1.773606896400451660e+00,1.773446559906005859e+00,1.773286104202270508e+00,1.773125767707824707e+00,1.772965312004089355e+00,1.772804975509643555e+00,1.772644758224487305e+00,1.772484421730041504e+00,1.772324204444885254e+00,1.772163987159729004e+00,1.772003769874572754e+00,1.771843671798706055e+00,1.771683573722839355e+00,1.771523356437683105e+00,1.771363258361816406e+00,1.771203279495239258e+00,1.771043300628662109e+00,1.770883321762084961e+00,1.770723342895507812e+00,1.770563364028930664e+00,1.770403385162353516e+00,1.770243763923645020e+00,1.770083904266357422e+00,1.769924044609069824e+00,1.769764184951782227e+00,1.769604444503784180e+00,1.769444823265075684e+00,1.769285082817077637e+00,1.769125342369079590e+00,1.768965721130371094e+00,1.768806099891662598e+00,1.768646478652954102e+00,1.768487095832824707e+00,1.768327474594116211e+00,1.768167972564697266e+00,1.768008470535278320e+00,1.767848968505859375e+00,1.767689704895019531e+00,1.767530322074890137e+00,1.767370939254760742e+00,1.767211556434631348e+00,1.767052173614501953e+00,1.766893148422241211e+00,1.766733884811401367e+00,1.766574621200561523e+00,1.766415357589721680e+00,1.766256213188171387e+00,1.766097187995910645e+00,1.765938162803649902e+00,1.765779018402099609e+00,1.765619993209838867e+00,1.765460968017578125e+00,1.765302181243896484e+00
1.607720375061035156e+00,1.607588529586791992e+00,1.607456684112548828e+00,1.607324838638305664e+00,1.607192993164062500e+00,1.607061386108398438e+00,1.606929659843444824e+00,1.606797933578491211e+00,1.606666207313537598e+00,1.606534481048583984e+00,1.606402993202209473e+00,1.606271266937255859e+00,1.606139659881591797e+00,1.606008052825927734e+00,1.605876445770263672e+00,1.605745077133178711e+00,1.605613470077514648e+00,1.605481982231140137e+00,1.605350494384765625e+00,1.605219006538391113e+00,1.605087757110595703e+00,1.604956269264221191e+00,1.604824900627136230e+00,1.604693412780761719e+00,1.604562044143676758e+00,1.604430913925170898e+00,1.604299545288085938e+00,1.604168295860290527e+00,1.604036927223205566e+00,1.603905677795410156e+00,1.603774666786193848e+00,1.603643417358398438e+00,1.603512167930603027e+00,1.603381037712097168e+00,1.603249907493591309e+00,1.603118896484375000e+00,1.602987766265869141e+00,1.602856636047363281e+00,1.602725625038146973e+00,1.602594614028930664e+00,1.602463722229003906e+00,1.602332711219787598e+00,1.602201700210571289e+00,1.602070689201354980e+00,1.601939797401428223e+00,1.601809024810791016e+00,1.601678133010864258e+00,1.601547241210937500e+00,1.601416349411010742e+00,1.601285576820373535e+00,1.601154923439025879e+00,1.601024150848388672e+00,1.600893378257751465e+00,1.600762605667114258e+00,1.600631833076477051e+00,1.600501298904418945e+00,1.600370645523071289e+00,1.600239992141723633e+00,1.600109338760375977e+00,1.599978685379028320e+00,1.599848151206970215e+00,1.599717617034912109e+00,1.599587082862854004e+00,1.599456548690795898e+00,1.599326014518737793e+00,1.599195718765258789e+00,1.599065184593200684e+00,1.598934769630432129e+00,1.598804354667663574e+00,1.598673939704895020e+00,1.598543524742126465e+00,1.598413348197937012e+00,1.598282933235168457e+00,1.598152637481689453e+00,1.598022341728210449e+00,1.597892045974731445e+00,1.597761988639831543e+00,1.597631692886352539e+00,1.597501516342163086e+00,1.597371339797973633e+00
1.467239499092102051e+00,1.467129707336425781e+00,1.467020034790039062e+00,1.466910243034362793e+00,1.466800451278686523e+00,1.466690659523010254e+00,1.466580867767333984e+00,1.466471314430236816e+00,1.466361641883850098e+00,1.466251850128173828e+00,1.466142177581787109e+00,1.466032505035400391e+00,1.465922951698303223e+00,1.465813398361206055e+00,1.465703725814819336e+00,1.465594172477722168e+00,1.465484619140625000e+00,1.465375185012817383e+00,1.465265512466430664e+00,1.465156078338623047e+00,1.465046525001525879e+00,1.464936971664428711e+00,1.464827656745910645e+00,1.464718222618103027e+00,1.464608669281005859e+00,1.464499235153198242e+00,1.464389920234680176e+00,1.464280605316162109e+00,1.464171171188354492e+00,1.464061856269836426e+00,1.463952422142028809e+00,1.463843107223510742e+00,1.463733911514282227e+00,1.463624596595764160e+00,1.463515281677246094e+00,1.463406085968017578e+00,1.463296771049499512e+00,1.463187694549560547e+00,1.463078498840332031e+00,1.462969303131103516e+00,1.462860107421875000e+00,1.462750911712646484e+00,1.462641835212707520e+00,1.462532758712768555e+00,1.462423563003540039e+00,1.462314486503601074e+00,1.462205410003662109e+00,1.462096452713012695e+00,1.461987376213073730e+00,1.461878299713134766e+00,1.461769342422485352e+00,1.461660265922546387e+00,1.461551427841186523e+00,1.461442470550537109e+00,1.461333513259887695e+00,1.461224555969238281e+00,1.461115598678588867e+00,1.461006879806518555e+00,1.460897922515869141e+00,1.460789084434509277e+00,1.460680127143859863e+00,1.460571289062500000e+00,1.460462570190429688e+00,1.460353851318359375e+00,1.460245013236999512e+00,1.460136175155639648e+00,1.460027456283569336e+00,1.459918856620788574e+00,1.459810137748718262e+00,1.459701418876647949e+00,1.459592700004577637e+00,1.459483981132507324e+00,1.459375381469726562e+00,1.459266781806945801e+00,1.459158182144165039e+00,1.459049463272094727e+00,1.458940863609313965e+00,1.458832263946533203e+00,1.458723902702331543e+00,1.458615303039550781e+00
1.349336147308349609e+00,1.349243164062500000e+00,1.349150300025939941e+00,1.349057555198669434e+00,1.348964691162109375e+00,1.348871827125549316e+00,1.348779082298278809e+00,1.348686218261718750e+00,1.348593473434448242e+00,1.348500728607177734e+00,1.348407983779907227e+00,1.348315238952636719e+00,1.348222494125366211e+00,1.348129749298095703e+00,1.348037123680114746e+00,1.347944378852844238e+00,1.347851753234863281e+00,1.347759008407592773e+00,1.347666382789611816e+00,1.347573876380920410e+00,1.347481131553649902e+00,1.347388505935668945e+00,1.347295999526977539e+00,1.347203373908996582e+00,1.347110867500305176e+00,1.347018241882324219e+00,1.346925735473632812e+00,1.346833109855651855e+00,1.346740603446960449e+00,1.346648216247558594e+00,1.346555709838867188e+00,1.346463203430175781e+00,1.346370697021484375e+00,1.346278190612792969e+00,1.346185803413391113e+00,1.346093416213989258e+00,1.346000909805297852e+00,1.345908522605895996e+00,1.345816135406494141e+00,1.345723748207092285e+00,1.345631361007690430e+00,1.345538973808288574e+00,1.345446705818176270e+00,1.345354318618774414e+00,1.345262050628662109e+00,1.345169782638549805e+00,1.345077395439147949e+00,1.344985127449035645e+00,1.344892859458923340e+00,1.344800710678100586e+00,1.344708442687988281e+00,1.344616174697875977e+00,1.344523906707763672e+00,1.344431638717651367e+00,1.344339609146118164e+00,1.344247341156005859e+00,1.344155192375183105e+00,1.344062924385070801e+00,1.343970775604248047e+00,1.343878746032714844e+00,1.343786597251892090e+00,1.343694448471069336e+00,1.343602418899536133e+00,1.343510270118713379e+00,1.343418359756469727e+00,1.343326210975646973e+00,1.343234181404113770e+00,1.343142151832580566e+00,1.343050122261047363e+00,1.342958092689514160e+00,1.342866182327270508e+00,1.342774152755737305e+00,1.342682123184204102e+00,1.342590212821960449e+00,1.342498302459716797e+00,1.342406392097473145e+00,1.342314362525939941e+00,1.342222452163696289e+00,1.342130541801452637e+00,1.342038750648498535e+00
1.248972058296203613e+00,1.248892426490783691e+00,1.248812913894653320e+00,1.248733401298522949e+00,1.248653769493103027e+00,1.248574376106262207e+00,1.248494863510131836e+00,1.248415350914001465e+00,1.248335838317871094e+00,1.248256325721740723e+00,1.248176932334899902e+00,1.248097419738769531e+00,1.248017907142639160e+00,1.247938513755798340e+00,1.247859001159667969e+00,1.247779607772827148e+00,1.247700214385986328e+00,1.247620820999145508e+00,1.247541427612304688e+00,1.247462034225463867e+00,1.247382640838623047e+00,1.247303247451782227e+00,1.247223973274230957e+00,1.247144579887390137e+00,1.247065186500549316e+00,1.246985912322998047e+00,1.246906638145446777e+00,1.246827363967895508e+00,1.246747970581054688e+00,1.246668696403503418e+00,1.246589422225952148e+00,1.246510267257690430e+00,1.246430993080139160e+00,1.246351718902587891e+00,1.246272444725036621e+00,1.246193170547485352e+00,1.246114015579223633e+00,1.246034860610961914e+00,1.245955586433410645e+00,1.245876431465148926e+00,1.245797276496887207e+00,1.245718121528625488e+00,1.245638966560363770e+00,1.245559811592102051e+00,1.245480656623840332e+00,1.245401501655578613e+00,1.245322465896606445e+00,1.245243310928344727e+00,1.245164275169372559e+00,1.245085120201110840e+00,1.245006084442138672e+00,1.244927048683166504e+00,1.244848012924194336e+00,1.244768977165222168e+00,1.244689822196960449e+00,1.244610786437988281e+00,1.244531869888305664e+00,1.244452834129333496e+00,1.244373917579650879e+00,1.244294881820678711e+00,1.244215846061706543e+00,1.244137048721313477e+00,1.244058012962341309e+00,1.243979096412658691e+00,1.243900060653686523e+00,1.243821144104003906e+00,1.243742346763610840e+00,1.243663430213928223e+00,1.243584513664245605e+00,1.243505597114562988e+00,1.243426680564880371e+00,1.243347883224487305e+00,1.243269085884094238e+00,1.243190169334411621e+00,1.243111371994018555e+00,1.243032574653625488e+00,1.242953777313232422e+00,1.242874979972839355e+00,1.242796182632446289e+00,1.242717385292053223e+00
1.162504553794860840e+00,1.162435650825500488e+00,1.162366747856140137e+00,1.162297844886779785e+00,1.162228941917419434e+00,1.162160038948059082e+00,1.162091135978698730e+00,1.162022352218627930e+00,1.161953449249267578e+00,1.161884546279907227e+00,1.161815643310546875e+00,1.161746740341186523e+00,1.161677956581115723e+00,1.161609172821044922e+00,1.161540269851684570e+00,1.161471486091613770e+00,1.161402702331542969e+00,1.161333918571472168e+00,1.161265134811401367e+00,1.161196351051330566e+00,1.161127567291259766e+00,1.161058783531188965e+00,1.160989999771118164e+00,1.160921216011047363e+00,1.160852551460266113e+00,1.160783767700195312e+00,1.160714983940124512e+00,1.160646319389343262e+00,1.160577654838562012e+00,1.160508871078491211e+00,1.160440206527709961e+00,1.160371541976928711e+00,1.160302758216857910e+00,1.160234212875366211e+00,1.160165548324584961e+00,1.160096883773803711e+00,1.160028219223022461e+00,1.159959554672241211e+00,1.159891009330749512e+00,1.159822344779968262e+00,1.159753680229187012e+00,1.159685015678405762e+00,1.159616470336914062e+00,1.159547924995422363e+00,1.159479379653930664e+00,1.159410715103149414e+00,1.159342169761657715e+00,1.159273624420166016e+00,1.159205079078674316e+00,1.159136533737182617e+00,1.159067988395690918e+00,1.158999443054199219e+00,1.158930897712707520e+00,1.158862471580505371e+00,1.158793926239013672e+00,1.158725380897521973e+00,1.158656954765319824e+00,1.158588409423828125e+00,1.158519983291625977e+00,1.158451557159423828e+00,1.158383131027221680e+00,1.158314704895019531e+00,1.158246159553527832e+00,1.158177852630615234e+00,1.158109426498413086e+00,1.158041000366210938e+00,1.157972574234008789e+00,1.157904148101806641e+00,1.157835841178894043e+00,1.157767415046691895e+00,1.157699108123779297e+00,1.157630681991577148e+00,1.157562255859375000e+00,1.157494068145751953e+00,1.157425642013549805e+00,1.157357335090637207e+00,1.157289028167724609e+00,1.157220602035522461e+00,1.157152414321899414e+00,1.157084107398986816e+00
1.087234377861022949e+00,1.087174057960510254e+00,1.087113738059997559e+00,1.087053537368774414e+00,1.086993217468261719e+00,1.086933016777038574e+00,1.086872696876525879e+00,1.086812496185302734e+00,1.086752176284790039e+00,1.086691975593566895e+00,1.086631774902343750e+00,1.086571455001831055e+00,1.086511254310607910e+00,1.086451053619384766e+00,1.086390852928161621e+00,1.086330652236938477e+00,1.086270451545715332e+00,1.086210250854492188e+00,1.086150050163269043e+00,1.086089968681335449e+00,1.086029767990112305e+00,1.085969567298889160e+00,1.085909485816955566e+00,1.085849285125732422e+00,1.085789203643798828e+00,1.085729002952575684e+00,1.085668921470642090e+00,1.085608720779418945e+00,1.085548639297485352e+00,1.085488557815551758e+00,1.085428476333618164e+00,1.085368394851684570e+00,1.085308313369750977e+00,1.085248231887817383e+00,1.085188150405883789e+00,1.085128068923950195e+00,1.085067987442016602e+00,1.085007905960083008e+00,1.084947943687438965e+00,1.084887862205505371e+00,1.084827899932861328e+00,1.084767818450927734e+00,1.084707736968994141e+00,1.084647774696350098e+00,1.084587693214416504e+00,1.084527730941772461e+00,1.084467768669128418e+00,1.084407806396484375e+00,1.084347724914550781e+00,1.084287762641906738e+00,1.084227919578552246e+00,1.084167957305908203e+00,1.084107875823974609e+00,1.084047913551330566e+00,1.083988070487976074e+00,1.083928108215332031e+00,1.083868145942687988e+00,1.083808302879333496e+00,1.083748340606689453e+00,1.083688378334045410e+00,1.083628535270690918e+00,1.083568692207336426e+00,1.083508729934692383e+00,1.083448886871337891e+00,1.083388924598693848e+00,1.083329200744628906e+00,1.083269238471984863e+00,1.083209395408630371e+00,1.083149552345275879e+00,1.083089709281921387e+00,1.083029866218566895e+00,1.082970023155212402e+00,1.082910180091857910e+00,1.082850456237792969e+00,1.082790613174438477e+00,1.082730889320373535e+00,1.082671046257019043e+00,1.082611203193664551e+00,1.082551479339599609e+00,1.082491636276245117e+00
1.021118640899658203e+00,1.021065473556518555e+00,1.021012306213378906e+00,1.020959138870239258e+00,1.020905971527099609e+00,1.020852804183959961e+00,1.020799636840820312e+00,1.020746469497680664e+00,1.020693302154541016e+00,1.020640134811401367e+00,1.020587086677551270e+00,1.020533919334411621e+00,1.020480871200561523e+00,1.020427703857421875e+00,1.020374536514282227e+00,1.020321488380432129e+00,1.020268440246582031e+00,1.020215272903442383e+00,1.020162224769592285e+00,1.020109057426452637e+00,1.020056009292602539e+00,1.020002961158752441e+00,1.019949913024902344e+00,1.019896864891052246e+00,1.019843816757202148e+00,1.019790649414062500e+00,1.019737720489501953e+00,1.019684672355651855e+00,1.019631624221801758e+00,1.019578576087951660e+00,1.019525527954101562e+00,1.019472599029541016e+00,1.019419550895690918e+00,1.019366502761840820e+00,1.019313454627990723e+00,1.019260525703430176e+00,1.019207596778869629e+00,1.019154548645019531e+00,1.019101619720458984e+00,1.019048571586608887e+00,1.018995642662048340e+00,1.018942713737487793e+00,1.018889665603637695e+00,1.018836736679077148e+00,1.018783807754516602e+00,1.018730878829956055e+00,1.018677830696105957e+00,1.018625020980834961e+00,1.018572092056274414e+00,1.018519163131713867e+00,1.018466234207153320e+00,1.018413305282592773e+00,1.018360495567321777e+00,1.018307566642761230e+00,1.018254637718200684e+00,1.018201708793640137e+00,1.018148779869079590e+00,1.018095970153808594e+00,1.018043160438537598e+00,1.017990231513977051e+00,1.017937421798706055e+00,1.017884492874145508e+00,1.017831683158874512e+00,1.017778873443603516e+00,1.017726063728332520e+00,1.017673134803771973e+00,1.017620325088500977e+00,1.017567515373229980e+00,1.017514705657958984e+00,1.017461895942687988e+00,1.017409086227416992e+00,1.017356276512145996e+00,1.017303586006164551e+00,1.017250776290893555e+00,1.017197966575622559e+00,1.017145156860351562e+00,1.017092347145080566e+00,1.017039656639099121e+00,1.016986846923828125e+00,1.016934156417846680e+00
9.625831842422485352e-01,9.625359177589416504e-01,9.624886512756347656e-01,9.624413847923278809e-01,9.623941183090209961e-01,9.623468518257141113e-01,9.622995853424072266e-01,9.622523188591003418e-01,9.622052311897277832e-01,9.621579647064208984e-01,9.621107578277587891e-01,9.620635509490966797e-01,9.620162844657897949e-01,9.619690775871276855e-01,9.619218707084655762e-01,9.618746638298034668e-01,9.618274569511413574e-01,9.617802500724792480e-01,9.617331624031066895e-01,9.616860151290893555e-01,9.616388082504272461e-01,9.615916609764099121e-01,9.615444540977478027e-01,9.614973068237304688e-01,9.614500999450683594e-01,9.614029526710510254e-01,9.613558053970336914e-01,9.613086581230163574e-01,9.612616300582885742e-01,9.612144827842712402e-01,9.611673355102539062e-01,9.611201882362365723e-01,9.610731005668640137e-01,9.610259532928466797e-01,9.609788656234741211e-01,9.609317183494567871e-01,9.608846306800842285e-01,9.608374834060668945e-01,9.607905149459838867e-01,9.607434272766113281e-01,9.606963396072387695e-01,9.606492519378662109e-01,9.606021642684936523e-01,9.605550765991210938e-01,9.605079889297485352e-01,9.604609608650207520e-01,9.604138731956481934e-01,9.603668451309204102e-01,9.603198766708374023e-01,9.602727890014648438e-01,9.602257609367370605e-01,9.601787328720092773e-01,9.601317048072814941e-01,9.600846767425537109e-01,9.600376486778259277e-01,9.599906206130981445e-01,9.599435925483703613e-01,9.598965644836425781e-01,9.598495960235595703e-01,9.598026871681213379e-01,9.597556591033935547e-01,9.597086906433105469e-01,9.596616625785827637e-01,9.596146941184997559e-01,9.595677256584167480e-01,9.595207571983337402e-01,9.594737887382507324e-01,9.594268202781677246e-01,9.593798518180847168e-01,9.593330025672912598e-01,9.592860341072082520e-01,9.592390656471252441e-01,9.591921567916870117e-01,9.591451883316040039e-01,9.590982794761657715e-01,9.590513110160827637e-01,9.590044021606445312e-01,9.589574933052062988e-01,9.589105844497680664e-01,9.588637351989746094e-01
9.103947877883911133e-01,9.103525280952453613e-01,9.103102087974548340e-01,9.102679491043090820e-01,9.102256894111633301e-01,9.101834893226623535e-01,9.101412296295166016e-01,9.100989699363708496e-01,9.100567102432250977e-01,9.100144505500793457e-01,9.099721908569335938e-01,9.099299907684326172e-01,9.098877310752868652e-01,9.098454713821411133e-01,9.098032712936401367e-01,9.097611308097839355e-01,9.097188711166381836e-01,9.096766710281372070e-01,9.096344709396362305e-01,9.095922112464904785e-01,9.095500111579895020e-01,9.095078110694885254e-01,9.094656109809875488e-01,9.094234108924865723e-01,9.093812108039855957e-01,9.093391299247741699e-01,9.092969298362731934e-01,9.092547297477722168e-01,9.092125892639160156e-01,9.091703891754150391e-01,9.091282486915588379e-01,9.090860486030578613e-01,9.090439081192016602e-01,9.090017676353454590e-01,9.089595675468444824e-01,9.089175462722778320e-01,9.088754057884216309e-01,9.088332056999206543e-01,9.087910652160644531e-01,9.087489843368530273e-01,9.087068438529968262e-01,9.086647033691406250e-01,9.086225628852844238e-01,9.085804224014282227e-01,9.085383415222167969e-01,9.084963202476501465e-01,9.084542393684387207e-01,9.084120988845825195e-01,9.083700180053710938e-01,9.083278775215148926e-01,9.082857966423034668e-01,9.082437157630920410e-01,9.082016348838806152e-01,9.081595540046691895e-01,9.081174731254577637e-01,9.080755114555358887e-01,9.080334305763244629e-01,9.079913496971130371e-01,9.079493284225463867e-01,9.079072475433349609e-01,9.078651666641235352e-01,9.078231453895568848e-01,9.077810645103454590e-01,9.077390432357788086e-01,9.076970219612121582e-01,9.076550602912902832e-01,9.076130390167236328e-01,9.075710177421569824e-01,9.075289964675903320e-01,9.074869751930236816e-01,9.074449539184570312e-01,9.074029326438903809e-01,9.073609113693237305e-01,9.073189496994018555e-01,9.072769284248352051e-01,9.072349667549133301e-01,9.071930646896362305e-01,9.071510434150695801e-01,9.071090817451477051e-01,9.070670604705810547e-01
8.635743856430053711e-01,8.635363578796386719e-01,8.634983897209167480e-01,8.634603619575500488e-01,8.634223341941833496e-01,8.633843064308166504e-01,8.633462786674499512e-01,8.633082509040832520e-01,8.632702231407165527e-01,8.632321953773498535e-01,8.631941676139831543e-01,8.631561398506164551e-01,8.631182312965393066e-01,8.630802035331726074e-01,8.630422353744506836e-01,8.630042076110839844e-01,8.629661798477172852e-01,8.629282116889953613e-01,8.628902435302734375e-01,8.628522157669067383e-01,8.628142476081848145e-01,8.627762794494628906e-01,8.627383708953857422e-01,8.627004027366638184e-01,8.626624345779418945e-01,8.626244664192199707e-01,8.625864982604980469e-01,8.625485301017761230e-01,8.625105619430541992e-01,8.624725937843322754e-01,8.624346852302551270e-01,8.623967170715332031e-01,8.623588681221008301e-01,8.623208999633789062e-01,8.622829914093017578e-01,8.622450828552246094e-01,8.622071146965026855e-01,8.621692061424255371e-01,8.621312975883483887e-01,8.620933294296264648e-01,8.620554208755493164e-01,8.620175123214721680e-01,8.619797229766845703e-01,8.619418144226074219e-01,8.619039058685302734e-01,8.618659973144531250e-01,8.618280887603759766e-01,8.617901802062988281e-01,8.617522716522216797e-01,8.617144227027893066e-01,8.616765141487121582e-01,8.616386651992797852e-01,8.616008758544921875e-01,8.615629673004150391e-01,8.615251183509826660e-01,8.614872694015502930e-01,8.614493608474731445e-01,8.614115118980407715e-01,8.613736629486083984e-01,8.613358139991760254e-01,8.612979650497436523e-01,8.612601161003112793e-01,8.612223267555236816e-01,8.611844778060913086e-01,8.611466884613037109e-01,8.611088395118713379e-01,8.610709905624389648e-01,8.610332012176513672e-01,8.609953522682189941e-01,8.609575033187866211e-01,8.609197139739990234e-01,8.608818650245666504e-01,8.608441948890686035e-01,8.608063459396362305e-01,8.607685565948486328e-01,8.607307672500610352e-01,8.606929779052734375e-01,8.606551885604858398e-01,8.606173992156982422e-01,8.605796098709106445e-01
8.213343620300292969e-01,8.212999105453491211e-01,8.212655186653137207e-01,8.212311267852783203e-01,8.211966753005981445e-01,8.211622834205627441e-01,8.211278915405273438e-01,8.210934996604919434e-01,8.210591077804565430e-01,8.210247755050659180e-01,8.209903836250305176e-01,8.209559917449951172e-01,8.209215998649597168e-01,8.208872079849243164e-01,8.208528757095336914e-01,8.208184838294982910e-01,8.207840919494628906e-01,8.207497596740722656e-01,8.207153677940368652e-01,8.206810951232910156e-01,8.206467032432556152e-01,8.206123709678649902e-01,8.205779790878295898e-01,8.205436468124389648e-01,8.205093145370483398e-01,8.204749822616577148e-01,8.204405903816223145e-01,8.204062581062316895e-01,8.203719258308410645e-01,8.203376531600952148e-01,8.203033208847045898e-01,8.202689886093139648e-01,8.202346563339233398e-01,8.202003836631774902e-01,8.201660513877868652e-01,8.201317191123962402e-01,8.200973868370056152e-01,8.200630545616149902e-01,8.200287818908691406e-01,8.199945688247680664e-01,8.199602365493774414e-01,8.199259638786315918e-01,8.198916316032409668e-01,8.198573589324951172e-01,8.198230266571044922e-01,8.197887539863586426e-01,8.197544813156127930e-01,8.197202086448669434e-01,8.196858763694763184e-01,8.196517229080200195e-01,8.196174502372741699e-01,8.195831775665283203e-01,8.195489048957824707e-01,8.195146322250366211e-01,8.194803595542907715e-01,8.194460868835449219e-01,8.194118142127990723e-01,8.193776011466979980e-01,8.193433284759521484e-01,8.193091750144958496e-01,8.192749023437500000e-01,8.192406296730041504e-01,8.192064166069030762e-01,8.191722035408020020e-01,8.191379308700561523e-01,8.191037178039550781e-01,8.190695047378540039e-01,8.190352320671081543e-01,8.190010190010070801e-01,8.189668655395507812e-01,8.189326524734497070e-01,8.188984394073486328e-01,8.188642263412475586e-01,8.188300132751464844e-01,8.187958002090454102e-01,8.187615871429443359e-01,8.187273740768432617e-01,8.186932206153869629e-01,8.186590075492858887e-01,8.186249136924743652e-01
7.830337285995483398e-01,7.830024361610412598e-01,7.829711437225341797e-01,7.829399108886718750e-01,7.829086184501647949e-01,7.828773856163024902e-01,7.828461527824401855e-01,7.828148603439331055e-01,7.827836275100708008e-01,7.827523350715637207e-01,7.827211022377014160e-01,7.826898097991943359e-01,7.826585769653320312e-01,7.826273441314697266e-01,7.825960516929626465e-01,7.825648784637451172e-01,7.825336456298828125e-01,7.825024127960205078e-01,7.824711799621582031e-01,7.824399471282958984e-01,7.824087142944335938e-01,7.823774814605712891e-01,7.823462486267089844e-01,7.823150157928466797e-01,7.822837829589843750e-01,7.822525501251220703e-01,7.822213768959045410e-01,7.821902036666870117e-01,7.821589708328247070e-01,7.821277379989624023e-01,7.820965647697448730e-01,7.820653319358825684e-01,7.820341587066650391e-01,7.820029258728027344e-01,7.819717526435852051e-01,7.819405198097229004e-01,7.819094061851501465e-01,7.818782329559326172e-01,7.818470001220703125e-01,7.818158268928527832e-01,7.817846536636352539e-01,7.817534804344177246e-01,7.817223072052001953e-01,7.816911339759826660e-01,7.816599607467651367e-01,7.816287875175476074e-01,7.815976738929748535e-01,7.815665006637573242e-01,7.815353274345397949e-01,7.815041542053222656e-01,7.814730405807495117e-01,7.814418673515319824e-01,7.814106941223144531e-01,7.813795208930969238e-01,7.813484072685241699e-01,7.813172340393066406e-01,7.812861800193786621e-01,7.812550067901611328e-01,7.812238931655883789e-01,7.811927795410156250e-01,7.811616063117980957e-01,7.811304926872253418e-01,7.810993790626525879e-01,7.810682058334350586e-01,7.810370922088623047e-01,7.810059785842895508e-01,7.809749245643615723e-01,7.809438109397888184e-01,7.809126973152160645e-01,7.808815836906433105e-01,7.808504700660705566e-01,7.808193564414978027e-01,7.807882428169250488e-01,7.807571291923522949e-01,7.807260751724243164e-01,7.806949615478515625e-01,7.806639075279235840e-01,7.806328535079956055e-01,7.806017398834228516e-01,7.805706858634948730e-01
7.481459975242614746e-01,7.481174468994140625e-01,7.480889558792114258e-01,7.480604052543640137e-01,7.480318546295166016e-01,7.480033040046691895e-01,7.479747533798217773e-01,7.479462027549743652e-01,7.479177117347717285e-01,7.478891611099243164e-01,7.478606104850769043e-01,7.478320598602294922e-01,7.478036284446716309e-01,7.477750778198242188e-01,7.477465271949768066e-01,7.477180361747741699e-01,7.476894855499267578e-01,7.476609945297241211e-01,7.476324439048767090e-01,7.476039528846740723e-01,7.475754022598266602e-01,7.475469112396240234e-01,7.475184798240661621e-01,7.474899291992187500e-01,7.474614381790161133e-01,7.474329471588134766e-01,7.474044561386108398e-01,7.473759651184082031e-01,7.473474144935607910e-01,7.473189234733581543e-01,7.472904324531555176e-01,7.472619414329528809e-01,7.472334504127502441e-01,7.472050786018371582e-01,7.471765875816345215e-01,7.471480965614318848e-01,7.471196055412292480e-01,7.470911145210266113e-01,7.470626235008239746e-01,7.470341920852661133e-01,7.470057010650634766e-01,7.469772100448608398e-01,7.469487786293029785e-01,7.469203472137451172e-01,7.468919157981872559e-01,7.468634247779846191e-01,7.468349933624267578e-01,7.468065023422241211e-01,7.467780709266662598e-01,7.467496395111083984e-01,7.467211484909057617e-01,7.466927170753479004e-01,7.466642856597900391e-01,7.466359138488769531e-01,7.466074228286743164e-01,7.465789914131164551e-01,7.465505599975585938e-01,7.465221285820007324e-01,7.464936971664428711e-01,7.464652657508850098e-01,7.464368343353271484e-01,7.464084029197692871e-01,7.463799715042114258e-01,7.463516592979431152e-01,7.463232278823852539e-01,7.462947964668273926e-01,7.462663650512695312e-01,7.462379932403564453e-01,7.462095618247985840e-01,7.461811304092407227e-01,7.461527585983276367e-01,7.461243271827697754e-01,7.460959553718566895e-01,7.460675835609436035e-01,7.460392117500305176e-01,7.460107803344726562e-01,7.459824085235595703e-01,7.459540367126464844e-01,7.459256052970886230e-01,7.458972334861755371e-01
7.162345647811889648e-01,7.162083983421325684e-01,7.161822319030761719e-01,7.161560654640197754e-01,7.161298990249633789e-01,7.161037325859069824e-01,7.160775661468505859e-01,7.160513997077941895e-01,7.160252332687377930e-01,7.159991264343261719e-01,7.159730195999145508e-01,7.159468531608581543e-01,7.159206867218017578e-01,7.158945202827453613e-01,7.158684134483337402e-01,7.158422470092773438e-01,7.158160805702209473e-01,7.157899737358093262e-01,7.157638072967529297e-01,7.157377600669860840e-01,7.157115936279296875e-01,7.156854867935180664e-01,7.156593203544616699e-01,7.156332135200500488e-01,7.156070470809936523e-01,7.155809402465820312e-01,7.155548334121704102e-01,7.155287265777587891e-01,7.155025601387023926e-01,7.154765129089355469e-01,7.154504060745239258e-01,7.154242992401123047e-01,7.153981924057006836e-01,7.153720855712890625e-01,7.153459787368774414e-01,7.153198719024658203e-01,7.152937650680541992e-01,7.152676582336425781e-01,7.152415513992309570e-01,7.152154445648193359e-01,7.151893973350524902e-01,7.151632905006408691e-01,7.151371836662292480e-01,7.151111364364624023e-01,7.150850296020507812e-01,7.150589227676391602e-01,7.150328755378723145e-01,7.150067687034606934e-01,7.149806618690490723e-01,7.149546146392822266e-01,7.149285674095153809e-01,7.149025201797485352e-01,7.148764133453369141e-01,7.148503661155700684e-01,7.148243188858032227e-01,7.147982120513916016e-01,7.147721648216247559e-01,7.147461175918579102e-01,7.147200107574462891e-01,7.146939635276794434e-01,7.146679759025573730e-01,7.146419286727905273e-01,7.146158218383789062e-01,7.145897746086120605e-01,7.145637273788452148e-01,7.145376801490783691e-01,7.145116329193115234e-01,7.144855856895446777e-01,7.144595384597778320e-01,7.144334912300109863e-01,7.144075036048889160e-01,7.143815159797668457e-01,7.143554687500000000e-01,7.143294215202331543e-01,7.143033742904663086e-01,7.142773270606994629e-01,7.142513394355773926e-01,7.142252922058105469e-01,7.141992449760437012e-01,7.141732573509216309e-01
6.869339942932128906e-01,6.869099736213684082e-01,6.868858933448791504e-01,6.868618130683898926e-01,6.868377327919006348e-01,6.868136525154113770e-01,6.867896318435668945e-01,6.867656111717224121e-01,6.867415308952331543e-01,6.867174506187438965e-01,6.866934299468994141e-01,6.866693496704101562e-01,6.866452693939208984e-01,6.866212487220764160e-01,6.865971684455871582e-01,6.865731477737426758e-01,6.865491271018981934e-01,6.865251064300537109e-01,6.865010261535644531e-01,6.864770054817199707e-01,6.864529252052307129e-01,6.864289045333862305e-01,6.864048838615417480e-01,6.863808035850524902e-01,6.863567829132080078e-01,6.863327622413635254e-01,6.863088011741638184e-01,6.862847805023193359e-01,6.862607002258300781e-01,6.862366795539855957e-01,6.862126588821411133e-01,6.861886382102966309e-01,6.861646175384521484e-01,6.861405968666076660e-01,6.861165761947631836e-01,6.860925555229187012e-01,6.860685944557189941e-01,6.860445737838745117e-01,6.860205531120300293e-01,6.859965324401855469e-01,6.859725713729858398e-01,6.859485507011413574e-01,6.859245300292968750e-01,6.859005093574523926e-01,6.858765482902526855e-01,6.858525276184082031e-01,6.858285069465637207e-01,6.858046054840087891e-01,6.857805848121643066e-01,6.857566237449645996e-01,6.857326030731201172e-01,6.857086420059204102e-01,6.856846213340759277e-01,6.856606602668762207e-01,6.856366395950317383e-01,6.856126785278320312e-01,6.855886578559875488e-01,6.855647563934326172e-01,6.855407953262329102e-01,6.855167746543884277e-01,6.854928135871887207e-01,6.854688525199890137e-01,6.854448914527893066e-01,6.854209303855895996e-01,6.853969693183898926e-01,6.853729486465454102e-01,6.853489875793457031e-01,6.853250861167907715e-01,6.853011250495910645e-01,6.852771639823913574e-01,6.852532029151916504e-01,6.852292418479919434e-01,6.852052807807922363e-01,6.851813197135925293e-01,6.851574182510375977e-01,6.851334571838378906e-01,6.851094961166381836e-01,6.850855946540832520e-01,6.850616335868835449e-01,6.850377321243286133e-01
6.599365472793579102e-01,6.599143743515014648e-01,6.598921418190002441e-01,6.598699688911437988e-01,6.598477363586425781e-01,6.598255634307861328e-01,6.598033308982849121e-01,6.597810983657836914e-01,6.597589254379272461e-01,6.597366929054260254e-01,6.597144603729248047e-01,6.596922874450683594e-01,6.596700549125671387e-01,6.596479415893554688e-01,6.596257090568542480e-01,6.596035361289978027e-01,6.595813632011413574e-01,6.595591306686401367e-01,6.595369577407836914e-01,6.595147252082824707e-01,6.594925522804260254e-01,6.594703793525695801e-01,6.594482064247131348e-01,6.594260334968566895e-01,6.594038605690002441e-01,6.593816876411437988e-01,6.593595147132873535e-01,6.593373417854309082e-01,6.593151092529296875e-01,6.592929363250732422e-01,6.592707633972167969e-01,6.592485904693603516e-01,6.592264175415039062e-01,6.592043042182922363e-01,6.591821312904357910e-01,6.591599583625793457e-01,6.591377854347229004e-01,6.591156125068664551e-01,6.590934991836547852e-01,6.590713262557983398e-01,6.590491533279418945e-01,6.590269804000854492e-01,6.590048074722290039e-01,6.589827537536621094e-01,6.589605808258056641e-01,6.589384078979492188e-01,6.589162945747375488e-01,6.588941216468811035e-01,6.588719487190246582e-01,6.588498353958129883e-01,6.588276624679565430e-01,6.588055491447448730e-01,6.587833762168884277e-01,6.587612628936767578e-01,6.587391495704650879e-01,6.587170362472534180e-01,6.586948633193969727e-01,6.586727499961853027e-01,6.586505770683288574e-01,6.586284637451171875e-01,6.586063504219055176e-01,6.585841774940490723e-01,6.585620641708374023e-01,6.585399508476257324e-01,6.585178971290588379e-01,6.584957242012023926e-01,6.584736108779907227e-01,6.584514975547790527e-01,6.584293842315673828e-01,6.584072709083557129e-01,6.583851575851440430e-01,6.583630442619323730e-01,6.583409309387207031e-01,6.583188176155090332e-01,6.582967638969421387e-01,6.582746505737304688e-01,6.582525372505187988e-01,6.582304239273071289e-01,6.582083106040954590e-01,6.581861972808837891e-01
6.349809765815734863e-01,6.349604129791259766e-01,6.349398493766784668e-01,6.349192857742309570e-01,6.348987221717834473e-01,6.348781585693359375e-01,6.348575949668884277e-01,6.348370313644409180e-01,6.348164677619934082e-01,6.347959041595458984e-01,6.347754001617431641e-01,6.347548365592956543e-01,6.347342729568481445e-01,6.347137093544006348e-01,6.346931457519531250e-01,6.346725821495056152e-01,6.346520185470581055e-01,6.346315145492553711e-01,6.346109509468078613e-01,6.345903873443603516e-01,6.345698833465576172e-01,6.345493793487548828e-01,6.345288157463073730e-01,6.345082521438598633e-01,6.344877481460571289e-01,6.344671845436096191e-01,6.344466805458068848e-01,6.344261169433593750e-01,6.344055533409118652e-01,6.343850493431091309e-01,6.343645453453063965e-01,6.343440413475036621e-01,6.343234777450561523e-01,6.343029737472534180e-01,6.342824697494506836e-01,6.342619061470031738e-01,6.342414021492004395e-01,6.342208981513977051e-01,6.342003345489501953e-01,6.341798305511474609e-01,6.341593861579895020e-01,6.341388225555419922e-01,6.341183185577392578e-01,6.340978145599365234e-01,6.340773105621337891e-01,6.340568065643310547e-01,6.340362429618835449e-01,6.340157389640808105e-01,6.339952349662780762e-01,6.339747309684753418e-01,6.339542865753173828e-01,6.339337825775146484e-01,6.339132785797119141e-01,6.338927745819091797e-01,6.338722705841064453e-01,6.338517665863037109e-01,6.338312625885009766e-01,6.338107585906982422e-01,6.337903141975402832e-01,6.337698101997375488e-01,6.337493658065795898e-01,6.337288618087768555e-01,6.337083578109741211e-01,6.336878538131713867e-01,6.336674094200134277e-01,6.336469054222106934e-01,6.336264014244079590e-01,6.336058974266052246e-01,6.335854530334472656e-01,6.335649490356445312e-01,6.335445046424865723e-01,6.335240602493286133e-01,6.335035562515258789e-01,6.334831118583679199e-01,6.334626078605651855e-01,6.334421634674072266e-01,6.334216594696044922e-01,6.334012150764465332e-01,6.333807706832885742e-01,6.333602666854858398e-01
6.118440032005310059e-01,6.118248701095581055e-01,6.118057966232299805e-01,6.117867231369018555e-01,6.117675900459289551e-01,6.117485165596008301e-01,6.117294430732727051e-01,6.117103695869445801e-01,6.116912961006164551e-01,6.116721630096435547e-01,6.116530895233154297e-01,6.116340160369873047e-01,6.116149425506591797e-01,6.115958690643310547e-01,6.115767359733581543e-01,6.115576624870300293e-01,6.115385890007019043e-01,6.115195751190185547e-01,6.115005016326904297e-01,6.114814281463623047e-01,6.114622950553894043e-01,6.114432215690612793e-01,6.114241480827331543e-01,6.114050745964050293e-01,6.113860011100769043e-01,6.113669276237487793e-01,6.113479137420654297e-01,6.113288402557373047e-01,6.113097667694091797e-01,6.112907528877258301e-01,6.112716794013977051e-01,6.112526059150695801e-01,6.112335324287414551e-01,6.112144589424133301e-01,6.111954450607299805e-01,6.111763715744018555e-01,6.111572980880737305e-01,6.111382842063903809e-01,6.111192107200622559e-01,6.111001968383789062e-01,6.110811233520507812e-01,6.110620498657226562e-01,6.110430359840393066e-01,6.110239624977111816e-01,6.110049486160278320e-01,6.109858751296997070e-01,6.109668016433715820e-01,6.109478473663330078e-01,6.109287738800048828e-01,6.109097599983215332e-01,6.108906865119934082e-01,6.108716726303100586e-01,6.108525991439819336e-01,6.108335852622985840e-01,6.108145713806152344e-01,6.107954978942871094e-01,6.107764840126037598e-01,6.107574701309204102e-01,6.107384562492370605e-01,6.107194423675537109e-01,6.107003688812255859e-01,6.106813549995422363e-01,6.106623411178588867e-01,6.106433272361755371e-01,6.106243133544921875e-01,6.106052398681640625e-01,6.105862259864807129e-01,6.105672717094421387e-01,6.105482578277587891e-01,6.105292439460754395e-01,6.105102300643920898e-01,6.104912161827087402e-01,6.104722023010253906e-01,6.104531884193420410e-01,6.104341745376586914e-01,6.104151606559753418e-01,6.103961467742919922e-01,6.103771328926086426e-01,6.103581786155700684e-01,6.103391647338867188e-01
5.903338193893432617e-01,5.903159976005554199e-01,5.902982354164123535e-01,5.902805328369140625e-01,5.902627110481262207e-01,5.902449488639831543e-01,5.902271866798400879e-01,5.902094244956970215e-01,5.901916623115539551e-01,5.901738405227661133e-01,5.901560783386230469e-01,5.901383161544799805e-01,5.901205539703369141e-01,5.901027917861938477e-01,5.900850892066955566e-01,5.900673270225524902e-01,5.900495648384094238e-01,5.900317430496215820e-01,5.900140404701232910e-01,5.899962782859802246e-01,5.899785161018371582e-01,5.899607539176940918e-01,5.899429917335510254e-01,5.899252295494079590e-01,5.899075269699096680e-01,5.898897647857666016e-01,5.898720026016235352e-01,5.898542404174804688e-01,5.898365378379821777e-01,5.898187756538391113e-01,5.898010134696960449e-01,5.897832512855529785e-01,5.897654891014099121e-01,5.897477865219116211e-01,5.897300839424133301e-01,5.897123217582702637e-01,5.896945595741271973e-01,5.896768569946289062e-01,5.896590948104858398e-01,5.896413326263427734e-01,5.896236300468444824e-01,5.896058678627014160e-01,5.895881652832031250e-01,5.895704030990600586e-01,5.895527005195617676e-01,5.895349979400634766e-01,5.895172357559204102e-01,5.894995331764221191e-01,5.894817709922790527e-01,5.894640684127807617e-01,5.894463658332824707e-01,5.894286036491394043e-01,5.894109010696411133e-01,5.893931388854980469e-01,5.893754959106445312e-01,5.893577337265014648e-01,5.893400311470031738e-01,5.893223285675048828e-01,5.893046259880065918e-01,5.892868638038635254e-01,5.892691612243652344e-01,5.892514586448669434e-01,5.892337560653686523e-01,5.892159938812255859e-01,5.891983509063720703e-01,5.891806483268737793e-01,5.891629457473754883e-01,5.891451835632324219e-01,5.891274809837341309e-01,5.891097784042358398e-01,5.890920758247375488e-01,5.890743732452392578e-01,5.890566706657409668e-01,5.890389680862426758e-01,5.890213251113891602e-01,5.890036225318908691e-01,5.889859199523925781e-01,5.889682173728942871e-01,5.889505147933959961e-01,5.889328122138977051e-01
5.702847242355346680e-01,5.702681541442871094e-01,5.702515840530395508e-01,5.702349543571472168e-01,5.702183842658996582e-01,5.702018141746520996e-01,5.701851844787597656e-01,5.701686143875122070e-01,5.701520442962646484e-01,5.701354742050170898e-01,5.701189041137695312e-01,5.701023340225219727e-01,5.700857639312744141e-01,5.700691342353820801e-01,5.700525641441345215e-01,5.700359940528869629e-01,5.700194239616394043e-01,5.700028538703918457e-01,5.699862837791442871e-01,5.699696540832519531e-01,5.699530839920043945e-01,5.699365735054016113e-01,5.699200034141540527e-01,5.699034333229064941e-01,5.698868632316589355e-01,5.698702931404113770e-01,5.698537230491638184e-01,5.698371529579162598e-01,5.698205828666687012e-01,5.698040127754211426e-01,5.697874426841735840e-01,5.697709321975708008e-01,5.697543621063232422e-01,5.697377920150756836e-01,5.697212219238281250e-01,5.697046518325805664e-01,5.696881413459777832e-01,5.696715712547302246e-01,5.696550011634826660e-01,5.696384310722351074e-01,5.696218609809875488e-01,5.696053504943847656e-01,5.695888400077819824e-01,5.695722699165344238e-01,5.695556998252868652e-01,5.695391893386840820e-01,5.695226192474365234e-01,5.695060491561889648e-01,5.694895386695861816e-01,5.694729685783386230e-01,5.694563984870910645e-01,5.694399476051330566e-01,5.694233775138854980e-01,5.694068074226379395e-01,5.693902969360351562e-01,5.693737268447875977e-01,5.693572163581848145e-01,5.693406462669372559e-01,5.693241357803344727e-01,5.693075656890869141e-01,5.692910552024841309e-01,5.692745447158813477e-01,5.692580342292785645e-01,5.692414641380310059e-01,5.692249536514282227e-01,5.692084431648254395e-01,5.691918730735778809e-01,5.691753625869750977e-01,5.691588521003723145e-01,5.691422820091247559e-01,5.691257715225219727e-01,5.691093206405639648e-01,5.690927505493164062e-01,5.690762400627136230e-01,5.690597295761108398e-01,5.690432190895080566e-01,5.690267086029052734e-01,5.690101385116577148e-01,5.689936280250549316e-01,5.689771175384521484e-01
