5.000000000000000000e+00,5.000000000000000000e+00,5.000000000000000000e+00,5.000000000000000000e+00,5.000000000000000000e+00,5.000000000000000000e+00,5.000000000000000000e+00,5.000000000000000000e+00,5.000000000000000000e+00,5.000000000000000000e+00,5.000000000000000000e+00,5.000000000000000000e+00,5.000000000000000000e+00,5.000000000000000000e+00,5.000000000000000000e+00,5.000000000000000000e+00,5.000000000000000000e+00,5.000000000000000000e+00,5.000000000000000000e+00,5.000000000000000000e+00,5.000000000000000000e+00,5.000000000000000000e+00,5.000000000000000000e+00,5.000000000000000000e+00,5.000000000000000000e+00,5.000000000000000000e+00,5.000000000000000000e+00,5.000000000000000000e+00,5.000000000000000000e+00,5.000000000000000000e+00,5.000000000000000000e+00,5.000000000000000000e+00,5.000000000000000000e+00,5.000000000000000000e+00,5.000000000000000000e+00,5.000000000000000000e+00,5.000000000000000000e+00,5.000000000000000000e+00,5.000000000000000000e+00,4.861144542694091797e+00,4.670260429382324219e+00,4.493801116943359375e+00,4.330190658569335938e+00,4.178074836730957031e+00,4.036283969879150391e+00,3.903801679611206055e+00,3.779739379882812500e+00,3.663319587707519531e+00,3.553857088088989258e+00,3.450746536254882812e+00,3.353450536727905273e+00,3.261490821838378906e+00,3.174439907073974609e+00,3.091914892196655273e+00,3.013572216033935547e+00,2.939101457595825195e+00,2.868222236633300781e+00,2.800681352615356445e+00,2.736248254776000977e+00,2.674713134765625000e+00,2.615885019302368164e+00,2.559588670730590820e+00,2.505664587020874023e+00,2.453965663909912109e+00,2.404356956481933594e+00,2.356714487075805664e+00,2.310923099517822266e+00,2.266877412796020508e+00,2.224479198455810547e+00,2.183638095855712891e+00,2.144269466400146484e+00,2.106295347213745117e+00,2.069642543792724609e+00,2.034243822097778320e+00,2.000035524368286133e+00,1.966958761215209961e+00,1.934958219528198242e+00,1.903982281684875488e+00,1.873982429504394531e+00,1.844913363456726074e+00
5.000000000000000000e+00,5.000000000000000000e+00,5.000000000000000000e+00,5.000000000000000000e+00,5.000000000000000000e+00,5.000000000000000000e+00,5.000000000000000000e+00,5.000000000000000000e+00,5.000000000000000000e+00,5.000000000000000000e+00,5.000000000000000000e+00,5.000000000000000000e+00,5.000000000000000000e+00,5.000000000000000000e+00,5.000000000000000000e+00,5.000000000000000000e+00,5.000000000000000000e+00,5.000000000000000000e+00,5.000000000000000000e+00,5.000000000000000000e+00,5.000000000000000000e+00,5.000000000000000000e+00,5.000000000000000000e+00,5.000000000000000000e+00,5.000000000000000000e+00,5.000000000000000000e+00,5.000000000000000000e+00,5.000000000000000000e+00,5.000000000000000000e+00,5.000000000000000000e+00,5.000000000000000000e+00,5.000000000000000000e+00,5.000000000000000000e+00,5.000000000000000000e+00,5.000000000000000000e+00,5.000000000000000000e+00,5.000000000000000000e+00,5.000000000000000000e+00,5.000000000000000000e+00,4.861283779144287109e+00,4.670388698577880859e+00,4.493919849395751953e+00,4.330300807952880859e+00,4.178177833557128906e+00,4.036379814147949219e+00,3.903891086578369141e+00,3.779823303222656250e+00,3.663398265838623047e+00,3.553931236267089844e+00,3.450816631317138672e+00,3.353516578674316406e+00,3.261553287506103516e+00,3.174499034881591797e+00,3.091971158981323242e+00,3.013625383377075195e+00,2.939152002334594727e+00,2.868270635604858398e+00,2.800727605819702148e+00,2.736292123794555664e+00,2.674755334854125977e+00,2.615925073623657227e+00,2.559627294540405273e+00,2.505701541900634766e+00,2.454000949859619141e+00,2.404390811920166016e+00,2.356746912002563477e+00,2.310954332351684570e+00,2.266907453536987305e+00,2.224508285522460938e+00,2.183665990829467773e+00,2.144296407699584961e+00,2.106321334838867188e+00,2.069667577743530273e+00,2.034268140792846680e+00,2.000059127807617188e+00,1.966981649398803711e+00,1.934980392456054688e+00,1.904003739356994629e+00,1.874003171920776367e+00,1.844933390617370605e+00
5.000000000000000000e+00,5.000000000000000000e+00,5.000000000000000000e+00,5.000000000000000000e+00,5.000000000000000000e+00,5.000000000000000000e+00,5.000000000000000000e+00,5.000000000000000000e+00,5.000000000000000000e+00,5.000000000000000000e+00,5.000000000000000000e+00,5.000000000000000000e+00,5.000000000000000000e+00,5.000000000000000000e+00,5.000000000000000000e+00,5.000000000000000000e+00,5.000000000000000000e+00,5.000000000000000000e+00,5.000000000000000000e+00,5.000000000000000000e+00,5.000000000000000000e+00,5.000000000000000000e+00,5.000000000000000000e+00,5.000000000000000000e+00,5.000000000000000000e+00,5.000000000000000000e+00,5.000000000000000000e+00,5.000000000000000000e+00,5.000000000000000000e+00,5.000000000000000000e+00,5.000000000000000000e+00,5.000000000000000000e+00,5.000000000000000000e+00,5.000000000000000000e+00,5.000000000000000000e+00,5.000000000000000000e+00,5.000000000000000000e+00,5.000000000000000000e+00,5.000000000000000000e+00,4.861423015594482422e+00,4.670517444610595703e+00,4.494039058685302734e+00,4.330411434173583984e+00,4.178280830383300781e+00,4.036476135253906250e+00,3.903980970382690430e+00,3.779907464981079102e+00,3.663477420806884766e+00,3.554005861282348633e+00,3.450886726379394531e+00,3.353582859039306641e+00,3.261615991592407227e+00,3.174558401107788086e+00,3.092027425765991211e+00,3.013679027557373047e+00,2.939203023910522461e+00,2.868319272994995117e+00,2.800773859024047852e+00,2.736336469650268555e+00,2.674797534942626953e+00,2.615965604782104492e+00,2.559665918350219727e+00,2.505738496780395508e+00,2.454036474227905273e+00,2.404425144195556641e+00,2.356779813766479492e+00,2.310986042022705078e+00,2.266937732696533203e+00,2.224537611007690430e+00,2.183694124221801758e+00,2.144323587417602539e+00,2.106347560882568359e+00,2.069692850112915039e+00,2.034292459487915039e+00,2.000082731246948242e+00,1.967004418373107910e+00,1.935002446174621582e+00,1.904025077819824219e+00,1.874023914337158203e+00,1.844953536987304688e+00
5.000000000000000000e+00,5.000000000000000000e+00,5.000000000000000000e+00,5.000000000000000000e+00,5.000000000000000000e+00,5.000000000000000000e+00,5.000000000000000000e+00,5.000000000000000000e+00,5.000000000000000000e+00,5.000000000000000000e+00,5.000000000000000000e+00,5.000000000000000000e+00,5.000000000000000000e+00,5.000000000000000000e+00,5.000000000000000000e+00,5.000000000000000000e+00,5.000000000000000000e+00,5.000000000000000000e+00,5.000000000000000000e+00,5.000000000000000000e+00,5.000000000000000000e+00,5.000000000000000000e+00,5.000000000000000000e+00,5.000000000000000000e+00,5.000000000000000000e+00,5.000000000000000000e+00,5.000000000000000000e+00,5.000000000000000000e+00,5.000000000000000000e+00,5.000000000000000000e+00,5.000000000000000000e+00,5.000000000000000000e+00,5.000000000000000000e+00,5.000000000000000000e+00,5.000000000000000000e+00,5.000000000000000000e+00,5.000000000000000000e+00,5.000000000000000000e+00,5.000000000000000000e+00,4.861562252044677734e+00,4.670646190643310547e+00,4.494157791137695312e+00,4.330522060394287109e+00,4.178383350372314453e+00,4.036571979522705078e+00,3.904071092605590820e+00,3.779991865158081055e+00,3.663556814193725586e+00,3.554080486297607422e+00,3.450957059860229492e+00,3.353649377822875977e+00,3.261678695678710938e+00,3.174618005752563477e+00,3.092083930969238281e+00,3.013732671737670898e+00,2.939254045486450195e+00,2.868367671966552734e+00,2.800820112228393555e+00,2.736380577087402344e+00,2.674839735031127930e+00,2.616005897521972656e+00,2.559704542160034180e+00,2.505775690078735352e+00,2.454071998596191406e+00,2.404459238052368164e+00,2.356812477111816406e+00,2.311017513275146484e+00,2.266968250274658203e+00,2.224566698074340820e+00,2.183722257614135742e+00,2.144350767135620117e+00,2.106373548507690430e+00,2.069718122482299805e+00,2.034317016601562500e+00,2.000106334686279297e+00,1.967027306556701660e+00,1.935024499893188477e+00,1.904046535491943359e+00,1.874044656753540039e+00,1.844973564147949219e+00
5.000000000000000000e+00,5.000000000000000000e+00,5.000000000000000000e+00,5.000000000000000000e+00,5.000000000000000000e+00,5.000000000000000000e+00,5.000000000000000000e+00,5.000000000000000000e+00,5.000000000000000000e+00,5.000000000000000000e+00,5.000000000000000000e+00,5.000000000000000000e+00,5.000000000000000000e+00,5.000000000000000000e+00,5.000000000000000000e+00,5.000000000000000000e+00,5.000000000000000000e+00,5.000000000000000000e+00,5.000000000000000000e+00,5.000000000000000000e+00,5.000000000000000000e+00,5.000000000000000000e+00,5.000000000000000000e+00,5.000000000000000000e+00,5.000000000000000000e+00,5.000000000000000000e+00,5.000000000000000000e+00,5.000000000000000000e+00,5.000000000000000000e+00,5.000000000000000000e+00,5.000000000000000000e+00,5.000000000000000000e+00,5.000000000000000000e+00,5.000000000000000000e+00,5.000000000000000000e+00,5.000000000000000000e+00,5.000000000000000000e+00,5.000000000000000000e+00,5.000000000000000000e+00,4.861701488494873047e+00,4.670774459838867188e+00,4.494277000427246094e+00,4.330632209777832031e+00,4.178486347198486328e+00,4.036667823791503906e+00,3.904160499572753906e+00,3.780075788497924805e+00,3.663635492324829102e+00,3.554154634475708008e+00,3.451026916503906250e+00,3.353715419769287109e+00,3.261741161346435547e+00,3.174677133560180664e+00,3.092139959335327148e+00,3.013785839080810547e+00,2.939304828643798828e+00,2.868416070938110352e+00,2.800866127014160156e+00,2.736424446105957031e+00,2.674881696701049805e+00,2.616046190261840820e+00,2.559742927551269531e+00,2.505812406539916992e+00,2.454107522964477539e+00,2.404493093490600586e+00,2.356845140457153320e+00,2.311048746109008789e+00,2.266998291015625000e+00,2.224595785140991211e+00,2.183750391006469727e+00,2.144377708435058594e+00,2.106399774551391602e+00,2.069743394851684570e+00,2.034341335296630859e+00,2.000129699707031250e+00,1.967049837112426758e+00,1.935046434402465820e+00,1.904067635536193848e+00,1.874065160751342773e+00,1.844993472099304199e+00
5.000000000000000000e+00,5.000000000000000000e+00,5.000000000000000000e+00,5.000000000000000000e+00,5.000000000000000000e+00,5.000000000000000000e+00,5.000000000000000000e+00,5.000000000000000000e+00,5.000000000000000000e+00,5.000000000000000000e+00,5.000000000000000000e+00,5.000000000000000000e+00,5.000000000000000000e+00,5.000000000000000000e+00,5.000000000000000000e+00,5.000000000000000000e+00,5.000000000000000000e+00,5.000000000000000000e+00,5.000000000000000000e+00,5.000000000000000000e+00,5.000000000000000000e+00,5.000000000000000000e+00,5.000000000000000000e+00,5.000000000000000000e+00,5.000000000000000000e+00,5.000000000000000000e+00,5.000000000000000000e+00,5.000000000000000000e+00,5.000000000000000000e+00,5.000000000000000000e+00,5.000000000000000000e+00,5.000000000000000000e+00,5.000000000000000000e+00,5.000000000000000000e+00,5.000000000000000000e+00,5.000000000000000000e+00,5.000000000000000000e+00,5.000000000000000000e+00,5.000000000000000000e+00,4.861840724945068359e+00,4.670903205871582031e+00,4.494396209716796875e+00,4.330742835998535156e+00,4.178589344024658203e+00,4.036764144897460938e+00,3.904250383377075195e+00,3.780159950256347656e+00,3.663714647293090820e+00,3.554229021072387695e+00,3.451097249984741211e+00,3.353781700134277344e+00,3.261804103851318359e+00,3.174736499786376953e+00,3.092196464538574219e+00,3.013839483261108398e+00,2.939355611801147461e+00,2.868464469909667969e+00,2.800912380218505859e+00,2.736468791961669922e+00,2.674923896789550781e+00,2.616086483001708984e+00,2.559781789779663086e+00,2.505849599838256836e+00,2.454143047332763672e+00,2.404527187347412109e+00,2.356878042221069336e+00,2.311080217361450195e+00,2.267028570175170898e+00,2.224624872207641602e+00,2.183778524398803711e+00,2.144404888153076172e+00,2.106425762176513672e+00,2.069768667221069336e+00,2.034365653991699219e+00,2.000153303146362305e+00,1.967072725296020508e+00,1.935068488121032715e+00,1.904089093208312988e+00,1.874085903167724609e+00,1.845013618469238281e+00
5.000000000000000000e+00,5.000000000000000000e+00,5.000000000000000000e+00,5.000000000000000000e+00,5.000000000000000000e+00,5.000000000000000000e+00,5.000000000000000000e+00,5.000000000000000000e+00,5.000000000000000000e+00,5.000000000000000000e+00,5.000000000000000000e+00,5.000000000000000000e+00,5.000000000000000000e+00,5.000000000000000000e+00,5.000000000000000000e+00,5.000000000000000000e+00,5.000000000000000000e+00,5.000000000000000000e+00,5.000000000000000000e+00,5.000000000000000000e+00,5.000000000000000000e+00,5.000000000000000000e+00,5.000000000000000000e+00,5.000000000000000000e+00,5.000000000000000000e+00,5.000000000000000000e+00,5.000000000000000000e+00,5.000000000000000000e+00,5.000000000000000000e+00,5.000000000000000000e+00,5.000000000000000000e+00,5.000000000000000000e+00,5.000000000000000000e+00,5.000000000000000000e+00,5.000000000000000000e+00,5.000000000000000000e+00,5.000000000000000000e+00,5.000000000000000000e+00,5.000000000000000000e+00,4.861979961395263672e+00,4.671031475067138672e+00,4.494514942169189453e+00,4.330853462219238281e+00,4.178692340850830078e+00,4.036859989166259766e+00,3.904340267181396484e+00,3.780244350433349609e+00,3.663794040679931641e+00,3.554303646087646484e+00,3.451167583465576172e+00,3.353847980499267578e+00,3.261866807937622070e+00,3.174796104431152344e+00,3.092252969741821289e+00,3.013893127441406250e+00,2.939406633377075195e+00,2.868513107299804688e+00,2.800958633422851562e+00,2.736512899398803711e+00,2.674966096878051758e+00,2.616126775741577148e+00,2.559820413589477539e+00,2.505886554718017578e+00,2.454178571701049805e+00,2.404561281204223633e+00,2.356910705566406250e+00,2.311111927032470703e+00,2.267059087753295898e+00,2.224654197692871094e+00,2.183806657791137695e+00,2.144431829452514648e+00,2.106451988220214844e+00,2.069793939590454102e+00,2.034390211105346680e+00,2.000176906585693359e+00,1.967095613479614258e+00,1.935090541839599609e+00,1.904110431671142578e+00,1.874106526374816895e+00,1.845033645629882812e+00
5.000000000000000000e+00,5.000000000000000000e+00,5.000000000000000000e+00,5.000000000000000000e+00,5.000000000000000000e+00,5.000000000000000000e+00,5.000000000000000000e+00,5.000000000000000000e+00,5.000000000000000000e+00,5.000000000000000000e+00,5.000000000000000000e+00,5.000000000000000000e+00,5.000000000000000000e+00,5.000000000000000000e+00,5.000000000000000000e+00,5.000000000000000000e+00,5.000000000000000000e+00,5.000000000000000000e+00,5.000000000000000000e+00,5.000000000000000000e+00,5.000000000000000000e+00,5.000000000000000000e+00,5.000000000000000000e+00,5.000000000000000000e+00,5.000000000000000000e+00,5.000000000000000000e+00,5.000000000000000000e+00,5.000000000000000000e+00,5.000000000000000000e+00,5.000000000000000000e+00,5.000000000000000000e+00,5.000000000000000000e+00,5.000000000000000000e+00,5.000000000000000000e+00,5.000000000000000000e+00,5.000000000000000000e+00,5.000000000000000000e+00,5.000000000000000000e+00,5.000000000000000000e+00,4.862119197845458984e+00,4.671159744262695312e+00,4.494633674621582031e+00,4.330964088439941406e+00,4.178794860839843750e+00,4.036955833435058594e+00,3.904429912567138672e+00,3.780328273773193359e+00,3.663872718811035156e+00,3.554377794265747070e+00,3.451237440109252930e+00,3.353914022445678711e+00,3.261929273605346680e+00,3.174855232238769531e+00,3.092308998107910156e+00,3.013946533203125000e+00,2.939457416534423828e+00,2.868561506271362305e+00,2.801004886627197266e+00,2.736556768417358398e+00,2.675008058547973633e+00,2.616167068481445312e+00,2.559858798980712891e+00,2.505923509597778320e+00,2.454213857650756836e+00,2.404595375061035156e+00,2.356943368911743164e+00,2.311143159866333008e+00,2.267089128494262695e+00,2.224683284759521484e+00,2.183834552764892578e+00,2.144459009170532227e+00,2.106478214263916016e+00,2.069818973541259766e+00,2.034414291381835938e+00,2.000200510025024414e+00,1.967118382453918457e+00,1.935112714767456055e+00,1.904131889343261719e+00,1.874127268791198730e+00,1.845053672790527344e+00
5.000000000000000000e+00,5.000000000000000000e+00,5.000000000000000000e+00,5.000000000000000000e+00,5.000000000000000000e+00,5.000000000000000000e+00,5.000000000000000000e+00,5.000000000000000000e+00,5.000000000000000000e+00,5.000000000000000000e+00,5.000000000000000000e+00,5.000000000000000000e+00,5.000000000000000000e+00,5.000000000000000000e+00,5.000000000000000000e+00,5.000000000000000000e+00,5.000000000000000000e+00,5.000000000000000000e+00,5.000000000000000000e+00,5.000000000000000000e+00,5.000000000000000000e+00,5.000000000000000000e+00,5.000000000000000000e+00,5.000000000000000000e+00,5.000000000000000000e+00,5.000000000000000000e+00,5.000000000000000000e+00,5.000000000000000000e+00,5.000000000000000000e+00,5.000000000000000000e+00,5.000000000000000000e+00,5.000000000000000000e+00,5.000000000000000000e+00,5.000000000000000000e+00,5.000000000000000000e+00,5.000000000000000000e+00,5.000000000000000000e+00,5.000000000000000000e+00,5.000000000000000000e+00,4.862258434295654297e+00,4.671288967132568359e+00,4.494752883911132812e+00,4.331074714660644531e+00,4.178897857666015625e+00,4.037052154541015625e+00,3.904519796371459961e+00,3.780412673950195312e+00,3.663951873779296875e+00,3.554452419281005859e+00,3.451307773590087891e+00,3.353980541229248047e+00,3.261991977691650391e+00,3.174914598464965820e+00,3.092365503311157227e+00,3.014000177383422852e+00,2.939508438110351562e+00,2.868609905242919922e+00,2.801051139831542969e+00,2.736601114273071289e+00,2.675050258636474609e+00,2.616207361221313477e+00,2.559897422790527344e+00,2.505960464477539062e+00,2.454249382019042969e+00,2.404629468917846680e+00,2.356976032257080078e+00,2.311174631118774414e+00,2.267119407653808594e+00,2.224712371826171875e+00,2.183862686157226562e+00,2.144485950469970703e+00,2.106504201889038086e+00,2.069844245910644531e+00,2.034438848495483398e+00,2.000224113464355469e+00,1.967141270637512207e+00,1.935134768486022949e+00,1.904153227806091309e+00,1.874148011207580566e+00,1.845073819160461426e+00
5.000000000000000000e+00,5.000000000000000000e+00,5.000000000000000000e+00,5.000000000000000000e+00,5.000000000000000000e+00,5.000000000000000000e+00,5.000000000000000000e+00,5.000000000000000000e+00,5.000000000000000000e+00,5.000000000000000000e+00,5.000000000000000000e+00,5.000000000000000000e+00,5.000000000000000000e+00,5.000000000000000000e+00,5.000000000000000000e+00,5.000000000000000000e+00,5.000000000000000000e+00,5.000000000000000000e+00,5.000000000000000000e+00,5.000000000000000000e+00,5.000000000000000000e+00,5.000000000000000000e+00,5.000000000000000000e+00,5.000000000000000000e+00,5.000000000000000000e+00,5.000000000000000000e+00,5.000000000000000000e+00,5.000000000000000000e+00,5.000000000000000000e+00,5.000000000000000000e+00,5.000000000000000000e+00,5.000000000000000000e+00,5.000000000000000000e+00,5.000000000000000000e+00,5.000000000000000000e+00,5.000000000000000000e+00,5.000000000000000000e+00,5.000000000000000000e+00,5.000000000000000000e+00,4.862397670745849609e+00,4.671417236328125000e+00,4.494872093200683594e+00,4.331184864044189453e+00,4.179000854492187500e+00,4.037147998809814453e+00,3.904609918594360352e+00,3.780496835708618164e+00,3.664031267166137695e+00,3.554527044296264648e+00,3.451378107070922852e+00,3.354046821594238281e+00,3.262054920196533203e+00,3.174974203109741211e+00,3.092422008514404297e+00,3.014053583145141602e+00,2.939559459686279297e+00,2.868658542633056641e+00,2.801097393035888672e+00,2.736645221710205078e+00,2.675092697143554688e+00,2.616247892379760742e+00,2.559936046600341797e+00,2.505997419357299805e+00,2.454284906387329102e+00,2.404663562774658203e+00,2.357008934020996094e+00,2.311206340789794922e+00,2.267149925231933594e+00,2.224741697311401367e+00,2.183890819549560547e+00,2.144513130187988281e+00,2.106530427932739258e+00,2.069869518280029297e+00,2.034463167190551758e+00,2.000247716903686523e+00,1.967164039611816406e+00,1.935156822204589844e+00,1.904174685478210449e+00,1.874168753623962402e+00,1.845093846321105957e+00
5.000000000000000000e+00,5.000000000000000000e+00,5.000000000000000000e+00,5.000000000000000000e+00,5.000000000000000000e+00,5.000000000000000000e+00,5.000000000000000000e+00,5.000000000000000000e+00,5.000000000000000000e+00,5.000000000000000000e+00,5.000000000000000000e+00,5.000000000000000000e+00,5.000000000000000000e+00,5.000000000000000000e+00,5.000000000000000000e+00,5.000000000000000000e+00,5.000000000000000000e+00,5.000000000000000000e+00,5.000000000000000000e+00,5.000000000000000000e+00,5.000000000000000000e+00,5.000000000000000000e+00,5.000000000000000000e+00,5.000000000000000000e+00,5.000000000000000000e+00,5.000000000000000000e+00,5.000000000000000000e+00,5.000000000000000000e+00,5.000000000000000000e+00,5.000000000000000000e+00,5.000000000000000000e+00,5.000000000000000000e+00,5.000000000000000000e+00,5.000000000000000000e+00,5.000000000000000000e+00,5.000000000000000000e+00,5.000000000000000000e+00,5.000000000000000000e+00,5.000000000000000000e+00,4.862536907196044922e+00,4.671545505523681641e+00,4.494990825653076172e+00,4.331295490264892578e+00,4.179103374481201172e+00,4.037243843078613281e+00,3.904699325561523438e+00,3.780580759048461914e+00,3.664109945297241211e+00,3.554601192474365234e+00,3.451447963714599609e+00,3.354112863540649414e+00,3.262117385864257812e+00,3.175033330917358398e+00,3.092478036880493164e+00,3.014106988906860352e+00,2.939610242843627930e+00,2.868706941604614258e+00,2.801143407821655273e+00,2.736689329147338867e+00,2.675134658813476562e+00,2.616287946701049805e+00,2.559974670410156250e+00,2.506034374237060547e+00,2.454320430755615234e+00,2.404697418212890625e+00,2.357041597366333008e+00,2.311237573623657227e+00,2.267179965972900391e+00,2.224770784378051758e+00,2.183918952941894531e+00,2.144540071487426758e+00,2.106556415557861328e+00,2.069894790649414062e+00,2.034487485885620117e+00,2.000271081924438477e+00,1.967186689376831055e+00,1.935178756713867188e+00,1.904195785522460938e+00,1.874189257621765137e+00,1.845113754272460938e+00
5.000000000000000000e+00,5.000000000000000000e+00,5.000000000000000000e+00,5.000000000000000000e+00,5.000000000000000000e+00,5.000000000000000000e+00,5.000000000000000000e+00,5.000000000000000000e+00,5.000000000000000000e+00,5.000000000000000000e+00,5.000000000000000000e+00,5.000000000000000000e+00,5.000000000000000000e+00,5.000000000000000000e+00,5.000000000000000000e+00,5.000000000000000000e+00,5.000000000000000000e+00,5.000000000000000000e+00,5.000000000000000000e+00,5.000000000000000000e+00,5.000000000000000000e+00,5.000000000000000000e+00,5.000000000000000000e+00,5.000000000000000000e+00,5.000000000000000000e+00,5.000000000000000000e+00,5.000000000000000000e+00,5.000000000000000000e+00,5.000000000000000000e+00,5.000000000000000000e+00,5.000000000000000000e+00,5.000000000000000000e+00,5.000000000000000000e+00,5.000000000000000000e+00,5.000000000000000000e+00,5.000000000000000000e+00,5.000000000000000000e+00,5.000000000000000000e+00,5.000000000000000000e+00,4.862676620483398438e+00,4.671674251556396484e+00,4.495110034942626953e+00,4.331406116485595703e+00,4.179206371307373047e+00,4.037340164184570312e+00,3.904789209365844727e+00,3.780665159225463867e+00,3.664189338684082031e+00,3.554675579071044922e+00,3.451518297195434570e+00,3.354179382324218750e+00,3.262180089950561523e+00,3.175092935562133789e+00,3.092534542083740234e+00,3.014160633087158203e+00,2.939661026000976562e+00,2.868755340576171875e+00,2.801189661026000977e+00,2.736733436584472656e+00,2.675176858901977539e+00,2.616328477859497070e+00,2.560013294219970703e+00,2.506071567535400391e+00,2.454355955123901367e+00,2.404731512069702148e+00,2.357074260711669922e+00,2.311269044876098633e+00,2.267210245132446289e+00,2.224799871444702148e+00,2.183947086334228516e+00,2.144567251205444336e+00,2.106582641601562500e+00,2.069920063018798828e+00,2.034512042999267578e+00,2.000294685363769531e+00,1.967209458351135254e+00,1.935200810432434082e+00,1.904217243194580078e+00,1.874210000038146973e+00,1.845133900642395020e+00
5.000000000000000000e+00,5.000000000000000000e+00,5.000000000000000000e+00,5.000000000000000000e+00,5.000000000000000000e+00,5.000000000000000000e+00,5.000000000000000000e+00,5.000000000000000000e+00,5.000000000000000000e+00,5.000000000000000000e+00,5.000000000000000000e+00,5.000000000000000000e+00,5.000000000000000000e+00,5.000000000000000000e+00,5.000000000000000000e+00,5.000000000000000000e+00,5.000000000000000000e+00,5.000000000000000000e+00,5.000000000000000000e+00,5.000000000000000000e+00,5.000000000000000000e+00,5.000000000000000000e+00,5.000000000000000000e+00,5.000000000000000000e+00,5.000000000000000000e+00,5.000000000000000000e+00,5.000000000000000000e+00,5.000000000000000000e+00,5.000000000000000000e+00,5.000000000000000000e+00,5.000000000000000000e+00,5.000000000000000000e+00,5.000000000000000000e+00,5.000000000000000000e+00,5.000000000000000000e+00,5.000000000000000000e+00,5.000000000000000000e+00,5.000000000000000000e+00,5.000000000000000000e+00,4.862815380096435547e+00,4.671802997589111328e+00,4.495229244232177734e+00,4.331516742706298828e+00,4.179309368133544922e+00,4.037436008453369141e+00,3.904879331588745117e+00,3.780749559402465820e+00,3.664268493652343750e+00,3.554750204086303711e+00,3.451588630676269531e+00,3.354245662689208984e+00,3.262242794036865234e+00,3.175152301788330078e+00,3.092590808868408203e+00,3.014214277267456055e+00,2.939712047576904297e+00,2.868803977966308594e+00,2.801236152648925781e+00,2.736777544021606445e+00,2.675219058990478516e+00,2.616368770599365234e+00,2.560051918029785156e+00,2.506108522415161133e+00,2.454391479492187500e+00,2.404765605926513672e+00,2.357107162475585938e+00,2.311300754547119141e+00,2.267240762710571289e+00,2.224829196929931641e+00,2.183975219726562500e+00,2.144594430923461914e+00,2.106608867645263672e+00,2.069945335388183594e+00,2.034536361694335938e+00,2.000318288803100586e+00,1.967232346534729004e+00,1.935222983360290527e+00,1.904238581657409668e+00,1.874230742454528809e+00,1.845153927803039551e+00
5.000000000000000000e+00,5.000000000000000000e+00,5.000000000000000000e+00,5.000000000000000000e+00,5.000000000000000000e+00,5.000000000000000000e+00,5.000000000000000000e+00,5.000000000000000000e+00,5.000000000000000000e+00,5.000000000000000000e+00,5.000000000000000000e+00,5.000000000000000000e+00,5.000000000000000000e+00,5.000000000000000000e+00,5.000000000000000000e+00,5.000000000000000000e+00,5.000000000000000000e+00,5.000000000000000000e+00,5.000000000000000000e+00,5.000000000000000000e+00,5.000000000000000000e+00,5.000000000000000000e+00,5.000000000000000000e+00,5.000000000000000000e+00,5.000000000000000000e+00,5.000000000000000000e+00,5.000000000000000000e+00,5.000000000000000000e+00,5.000000000000000000e+00,5.000000000000000000e+00,5.000000000000000000e+00,5.000000000000000000e+00,5.000000000000000000e+00,5.000000000000000000e+00,5.000000000000000000e+00,5.000000000000000000e+00,5.000000000000000000e+00,5.000000000000000000e+00,5.000000000000000000e+00,4.862954616546630859e+00,4.671931266784667969e+00,4.495347976684570312e+00,4.331626892089843750e+00,4.179412364959716797e+00,4.037532329559326172e+00,3.904968738555908203e+00,3.780833482742309570e+00,3.664347171783447266e+00,3.554824352264404297e+00,3.451658487319946289e+00,3.354311704635620117e+00,3.262305498123168945e+00,3.175211429595947266e+00,3.092647075653076172e+00,3.014267444610595703e+00,2.939762830734252930e+00,2.868852376937866211e+00,2.801282167434692383e+00,2.736821651458740234e+00,2.675261020660400391e+00,2.616409063339233398e+00,2.560090541839599609e+00,2.506145477294921875e+00,2.454426765441894531e+00,2.404799699783325195e+00,2.357139825820922852e+00,2.311331987380981445e+00,2.267270803451538086e+00,2.224858045578002930e+00,2.184003114700317383e+00,2.144621372222900391e+00,2.106634855270385742e+00,2.069970607757568359e+00,2.034560680389404297e+00,2.000341892242431641e+00,1.967255115509033203e+00,1.935245037078857422e+00,1.904260039329528809e+00,1.874251484870910645e+00,1.845174074172973633e+00
5.000000000000000000e+00,5.000000000000000000e+00,5.000000000000000000e+00,5.000000000000000000e+00,5.000000000000000000e+00,5.000000000000000000e+00,5.000000000000000000e+00,5.000000000000000000e+00,5.000000000000000000e+00,5.000000000000000000e+00,5.000000000000000000e+00,5.000000000000000000e+00,5.000000000000000000e+00,5.000000000000000000e+00,5.000000000000000000e+00,5.000000000000000000e+00,5.000000000000000000e+00,5.000000000000000000e+00,5.000000000000000000e+00,5.000000000000000000e+00,5.000000000000000000e+00,5.000000000000000000e+00,5.000000000000000000e+00,5.000000000000000000e+00,5.000000000000000000e+00,5.000000000000000000e+00,5.000000000000000000e+00,5.000000000000000000e+00,5.000000000000000000e+00,5.000000000000000000e+00,5.000000000000000000e+00,5.000000000000000000e+00,5.000000000000000000e+00,5.000000000000000000e+00,5.000000000000000000e+00,5.000000000000000000e+00,5.000000000000000000e+00,5.000000000000000000e+00,5.000000000000000000e+00,4.863094329833984375e+00,4.672060012817382812e+00,4.495467185974121094e+00,4.331737518310546875e+00,4.179515361785888672e+00,4.037628173828125000e+00,3.905058860778808594e+00,3.780917882919311523e+00,3.664426565170288086e+00,3.554898977279663086e+00,3.451728820800781250e+00,3.354378223419189453e+00,3.262368202209472656e+00,3.175271034240722656e+00,3.092703580856323242e+00,3.014321088790893555e+00,2.939813852310180664e+00,2.868900775909423828e+00,2.801328420639038086e+00,2.736865758895874023e+00,2.675303220748901367e+00,2.616449356079101562e+00,2.560129165649414062e+00,2.506182432174682617e+00,2.454462289810180664e+00,2.404833793640136719e+00,2.357172489166259766e+00,2.311363458633422852e+00,2.267301082611083984e+00,2.224887371063232422e+00,2.184031248092651367e+00,2.144648551940917969e+00,2.106661081314086914e+00,2.069995880126953125e+00,2.034585237503051758e+00,2.000365495681762695e+00,1.967278003692626953e+00,1.935267210006713867e+00,1.904281377792358398e+00,1.874272227287292480e+00,1.845194101333618164e+00
5.000000000000000000e+00,5.000000000000000000e+00,5.000000000000000000e+00,5.000000000000000000e+00,5.000000000000000000e+00,5.000000000000000000e+00,5.000000000000000000e+00,5.000000000000000000e+00,5.000000000000000000e+00,5.000000000000000000e+00,5.000000000000000000e+00,5.000000000000000000e+00,5.000000000000000000e+00,5.000000000000000000e+00,5.000000000000000000e+00,5.000000000000000000e+00,5.000000000000000000e+00,5.000000000000000000e+00,5.000000000000000000e+00,5.000000000000000000e+00,5.000000000000000000e+00,5.000000000000000000e+00,5.000000000000000000e+00,5.000000000000000000e+00,5.000000000000000000e+00,5.000000000000000000e+00,5.000000000000000000e+00,5.000000000000000000e+00,5.000000000000000000e+00,5.000000000000000000e+00,5.000000000000000000e+00,5.000000000000000000e+00,5.000000000000000000e+00,5.000000000000000000e+00,5.000000000000000000e+00,5.000000000000000000e+00,5.000000000000000000e+00,5.000000000000000000e+00,5.000000000000000000e+00,4.863233566284179688e+00,4.672188758850097656e+00,4.495586395263671875e+00,4.331848144531250000e+00,4.179618358612060547e+00,4.037724494934082031e+00,3.905148744583129883e+00,3.781002283096313477e+00,3.664505720138549805e+00,3.554973602294921875e+00,3.451799154281616211e+00,3.354444503784179688e+00,3.262430906295776367e+00,3.175330638885498047e+00,3.092759847640991211e+00,3.014374732971191406e+00,2.939864873886108398e+00,2.868949413299560547e+00,2.801374673843383789e+00,2.736909866333007812e+00,2.675345659255981445e+00,2.616489887237548828e+00,2.560167789459228516e+00,2.506219625473022461e+00,2.454497814178466797e+00,2.404867887496948242e+00,2.357205390930175781e+00,2.311395168304443359e+00,2.267331600189208984e+00,2.224916696548461914e+00,2.184059381484985352e+00,2.144675731658935547e+00,2.106687307357788086e+00,2.070021152496337891e+00,2.034609556198120117e+00,2.000389099121093750e+00,1.967300891876220703e+00,1.935289263725280762e+00,1.904302835464477539e+00,1.874292969703674316e+00,1.845214247703552246e+00
5.000000000000000000e+00,5.000000000000000000e+00,5.000000000000000000e+00,5.000000000000000000e+00,5.000000000000000000e+00,5.000000000000000000e+00,5.000000000000000000e+00,5.000000000000000000e+00,5.000000000000000000e+00,5.000000000000000000e+00,5.000000000000000000e+00,5.000000000000000000e+00,5.000000000000000000e+00,5.000000000000000000e+00,5.000000000000000000e+00,5.000000000000000000e+00,5.000000000000000000e+00,5.000000000000000000e+00,5.000000000000000000e+00,5.000000000000000000e+00,5.000000000000000000e+00,5.000000000000000000e+00,5.000000000000000000e+00,5.000000000000000000e+00,5.000000000000000000e+00,5.000000000000000000e+00,5.000000000000000000e+00,5.000000000000000000e+00,5.000000000000000000e+00,5.000000000000000000e+00,5.000000000000000000e+00,5.000000000000000000e+00,5.000000000000000000e+00,5.000000000000000000e+00,5.000000000000000000e+00,5.000000000000000000e+00,5.000000000000000000e+00,5.000000000000000000e+00,5.000000000000000000e+00,4.863371849060058594e+00,4.672317028045654297e+00,4.495705127716064453e+00,4.331958770751953125e+00,4.179720878601074219e+00,4.037820339202880859e+00,3.905238389968872070e+00,3.781086206436157227e+00,3.664584636688232422e+00,3.555047750473022461e+00,3.451869010925292969e+00,3.354510545730590820e+00,3.262493371963500977e+00,3.175389766693115234e+00,3.092816114425659180e+00,3.014428138732910156e+00,2.939915657043457031e+00,2.868997812271118164e+00,2.801420688629150391e+00,2.736953973770141602e+00,2.675387620925903320e+00,2.616529941558837891e+00,2.560206174850463867e+00,2.506256341934204102e+00,2.454533338546752930e+00,2.404901981353759766e+00,2.357237815856933594e+00,2.311426401138305664e+00,2.267361640930175781e+00,2.224945545196533203e+00,2.184087514877319336e+00,2.144702672958374023e+00,2.106713294982910156e+00,2.070046186447143555e+00,2.034633874893188477e+00,2.000412702560424805e+00,1.967323422431945801e+00,1.935311079025268555e+00,1.904323935508728027e+00,1.874313473701477051e+00,1.845234155654907227e+00
5.000000000000000000e+00,5.000000000000000000e+00,5.000000000000000000e+00,5.000000000000000000e+00,5.000000000000000000e+00,5.000000000000000000e+00,5.000000000000000000e+00,5.000000000000000000e+00,5.000000000000000000e+00,5.000000000000000000e+00,5.000000000000000000e+00,5.000000000000000000e+00,5.000000000000000000e+00,5.000000000000000000e+00,5.000000000000000000e+00,5.000000000000000000e+00,5.000000000000000000e+00,5.000000000000000000e+00,5.000000000000000000e+00,5.000000000000000000e+00,5.000000000000000000e+00,5.000000000000000000e+00,5.000000000000000000e+00,5.000000000000000000e+00,5.000000000000000000e+00,5.000000000000000000e+00,5.000000000000000000e+00,5.000000000000000000e+00,5.000000000000000000e+00,5.000000000000000000e+00,5.000000000000000000e+00,5.000000000000000000e+00,5.000000000000000000e+00,5.000000000000000000e+00,5.000000000000000000e+00,5.000000000000000000e+00,5.000000000000000000e+00,5.000000000000000000e+00,5.000000000000000000e+00,4.863510131835937500e+00,4.672445297241210938e+00,4.495824337005615234e+00,4.332069396972656250e+00,4.179824352264404297e+00,4.037916660308837891e+00,3.905328273773193359e+00,3.781170606613159180e+00,3.664663791656494141e+00,3.555122375488281250e+00,3.451939344406127930e+00,3.354577064514160156e+00,3.262556314468383789e+00,3.175449132919311523e+00,3.092872619628906250e+00,3.014481782913208008e+00,2.939966678619384766e+00,2.869046449661254883e+00,2.801467180252075195e+00,2.736998081207275391e+00,2.675429821014404297e+00,2.616570472717285156e+00,2.560245037078857422e+00,2.506293535232543945e+00,2.454568862915039062e+00,2.404936075210571289e+00,2.357270717620849609e+00,2.311457872390747070e+00,2.267391920089721680e+00,2.224974870681762695e+00,2.184115648269653320e+00,2.144729852676391602e+00,2.106739521026611328e+00,2.070071458816528320e+00,2.034658193588256836e+00,2.000436305999755859e+00,1.967346310615539551e+00,1.935333251953125000e+00,1.904345393180847168e+00,1.874334216117858887e+00,1.845254182815551758e+00
5.000000000000000000e+00,5.000000000000000000e+00,5.000000000000000000e+00,5.000000000000000000e+00,5.000000000000000000e+00,5.000000000000000000e+00,5.000000000000000000e+00,5.000000000000000000e+00,5.000000000000000000e+00,5.000000000000000000e+00,5.000000000000000000e+00,5.000000000000000000e+00,5.000000000000000000e+00,5.000000000000000000e+00,5.000000000000000000e+00,5.000000000000000000e+00,5.000000000000000000e+00,5.000000000000000000e+00,5.000000000000000000e+00,5.000000000000000000e+00,5.000000000000000000e+00,5.000000000000000000e+00,5.000000000000000000e+00,5.000000000000000000e+00,5.000000000000000000e+00,5.000000000000000000e+00,5.000000000000000000e+00,5.000000000000000000e+00,5.000000000000000000e+00,5.000000000000000000e+00,5.000000000000000000e+00,5.000000000000000000e+00,5.000000000000000000e+00,5.000000000000000000e+00,5.000000000000000000e+00,5.000000000000000000e+00,5.000000000000000000e+00,5.000000000000000000e+00,5.000000000000000000e+00,4.863648414611816406e+00,4.672572612762451172e+00,4.495943546295166016e+00,4.332180023193359375e+00,4.179926872253417969e+00,4.038012504577636719e+00,3.905418157577514648e+00,3.781254768371582031e+00,3.664743185043334961e+00,3.555197000503540039e+00,3.452009677886962891e+00,3.354643344879150391e+00,3.262619018554687500e+00,3.175508737564086914e+00,3.092928886413574219e+00,3.014535427093505859e+00,2.940017700195312500e+00,2.869094848632812500e+00,2.801513433456420898e+00,2.737042427062988281e+00,2.675472021102905273e+00,2.616610765457153320e+00,2.560283660888671875e+00,2.506330490112304688e+00,2.454604387283325195e+00,2.404970169067382812e+00,2.357303619384765625e+00,2.311489582061767578e+00,2.267422437667846680e+00,2.225003957748413086e+00,2.184143781661987305e+00,2.144757032394409180e+00,2.106765747070312500e+00,2.070096731185913086e+00,2.034682750701904297e+00,2.000459909439086914e+00,1.967369079589843750e+00,1.935355305671691895e+00,1.904366731643676758e+00,1.874354958534240723e+00,1.845274329185485840e+00
5.000000000000000000e+00,5.000000000000000000e+00,5.000000000000000000e+00,5.000000000000000000e+00,5.000000000000000000e+00,5.000000000000000000e+00,5.000000000000000000e+00,5.000000000000000000e+00,5.000000000000000000e+00,5.000000000000000000e+00,5.000000000000000000e+00,5.000000000000000000e+00,5.000000000000000000e+00,5.000000000000000000e+00,5.000000000000000000e+00,5.000000000000000000e+00,5.000000000000000000e+00,5.000000000000000000e+00,5.000000000000000000e+00,5.000000000000000000e+00,5.000000000000000000e+00,5.000000000000000000e+00,5.000000000000000000e+00,5.000000000000000000e+00,5.000000000000000000e+00,5.000000000000000000e+00,5.000000000000000000e+00,5.000000000000000000e+00,5.000000000000000000e+00,5.000000000000000000e+00,5.000000000000000000e+00,5.000000000000000000e+00,5.000000000000000000e+00,5.000000000000000000e+00,5.000000000000000000e+00,5.000000000000000000e+00,5.000000000000000000e+00,5.000000000000000000e+00,5.000000000000000000e+00,4.863786697387695312e+00,4.672700881958007812e+00,4.496061325073242188e+00,4.332290172576904297e+00,4.180029869079589844e+00,4.038108348846435547e+00,3.905507802963256836e+00,3.781338691711425781e+00,3.664821863174438477e+00,3.555271148681640625e+00,3.452079772949218750e+00,3.354709386825561523e+00,3.262681484222412109e+00,3.175567865371704102e+00,3.092985153198242188e+00,3.014588832855224609e+00,2.940068244934082031e+00,2.869143247604370117e+00,2.801559448242187500e+00,2.737086296081542969e+00,2.675513982772827148e+00,2.616651058197021484e+00,2.560322046279907227e+00,2.506367444992065430e+00,2.454639673233032227e+00,2.405004024505615234e+00,2.357336044311523438e+00,2.311520814895629883e+00,2.267452478408813477e+00,2.225033044815063477e+00,2.184171676635742188e+00,2.144783973693847656e+00,2.106791734695434570e+00,2.070122003555297852e+00,2.034707069396972656e+00,2.000483274459838867e+00,1.967391967773437500e+00,1.935377478599548340e+00,1.904388189315795898e+00,1.874375581741333008e+00,1.845294356346130371e+00
5.000000000000000000e+00,5.000000000000000000e+00,5.000000000000000000e+00,5.000000000000000000e+00,5.000000000000000000e+00,5.000000000000000000e+00,5.000000000000000000e+00,5.000000000000000000e+00,5.000000000000000000e+00,5.000000000000000000e+00,5.000000000000000000e+00,5.000000000000000000e+00,5.000000000000000000e+00,5.000000000000000000e+00,5.000000000000000000e+00,5.000000000000000000e+00,5.000000000000000000e+00,5.000000000000000000e+00,5.000000000000000000e+00,5.000000000000000000e+00,5.000000000000000000e+00,5.000000000000000000e+00,5.000000000000000000e+00,5.000000000000000000e+00,5.000000000000000000e+00,5.000000000000000000e+00,5.000000000000000000e+00,5.000000000000000000e+00,5.000000000000000000e+00,5.000000000000000000e+00,5.000000000000000000e+00,5.000000000000000000e+00,5.000000000000000000e+00,5.000000000000000000e+00,5.000000000000000000e+00,5.000000000000000000e+00,5.000000000000000000e+00,5.000000000000000000e+00,5.000000000000000000e+00,4.863924980163574219e+00,4.672828197479248047e+00,4.496179580688476562e+00,4.332400321960449219e+00,4.180132865905761719e+00,4.038204669952392578e+00,3.905597925186157227e+00,3.781423091888427734e+00,3.664901256561279297e+00,3.555345773696899414e+00,3.452150106430053711e+00,3.354775905609130859e+00,3.262744426727294922e+00,3.175627470016479492e+00,3.093041658401489258e+00,3.014642477035522461e+00,2.940119266510009766e+00,2.869191884994506836e+00,2.801605939865112305e+00,2.737130641937255859e+00,2.675556421279907227e+00,2.616691350936889648e+00,2.560360908508300781e+00,2.506404399871826172e+00,2.454675197601318359e+00,2.405038118362426758e+00,2.357368946075439453e+00,2.311552286148071289e+00,2.267482995986938477e+00,2.225062370300292969e+00,2.184200048446655273e+00,2.144811153411865234e+00,2.106817960739135742e+00,2.070147275924682617e+00,2.034731388092041016e+00,2.000506877899169922e+00,1.967414855957031250e+00,1.935399532318115234e+00,1.904409646987915039e+00,1.874396324157714844e+00,1.845314502716064453e+00
5.000000000000000000e+00,5.000000000000000000e+00,5.000000000000000000e+00,5.000000000000000000e+00,5.000000000000000000e+00,5.000000000000000000e+00,5.000000000000000000e+00,5.000000000000000000e+00,5.000000000000000000e+00,5.000000000000000000e+00,5.000000000000000000e+00,5.000000000000000000e+00,5.000000000000000000e+00,5.000000000000000000e+00,5.000000000000000000e+00,5.000000000000000000e+00,5.000000000000000000e+00,5.000000000000000000e+00,5.000000000000000000e+00,5.000000000000000000e+00,5.000000000000000000e+00,5.000000000000000000e+00,5.000000000000000000e+00,5.000000000000000000e+00,5.000000000000000000e+00,5.000000000000000000e+00,5.000000000000000000e+00,5.000000000000000000e+00,5.000000000000000000e+00,5.000000000000000000e+00,5.000000000000000000e+00,5.000000000000000000e+00,5.000000000000000000e+00,5.000000000000000000e+00,5.000000000000000000e+00,5.000000000000000000e+00,5.000000000000000000e+00,5.000000000000000000e+00,5.000000000000000000e+00,4.864063262939453125e+00,4.672955989837646484e+00,4.496297836303710938e+00,4.332509994506835938e+00,4.180235385894775391e+00,4.038300514221191406e+00,3.905687808990478516e+00,3.781507492065429688e+00,3.664980411529541016e+00,3.555420398712158203e+00,3.452220201492309570e+00,3.354842424392700195e+00,3.262807130813598633e+00,3.175687074661254883e+00,3.093098163604736328e+00,3.014695882797241211e+00,2.940170288085937500e+00,2.869240283966064453e+00,2.801652193069458008e+00,2.737174749374389648e+00,2.675598621368408203e+00,2.616731882095336914e+00,2.560399532318115234e+00,2.506441593170166016e+00,2.454710960388183594e+00,2.405072450637817383e+00,2.357401609420776367e+00,2.311583995819091797e+00,2.267513275146484375e+00,2.225091457366943359e+00,2.184228181838989258e+00,2.144838333129882812e+00,2.106844186782836914e+00,2.070172548294067383e+00,2.034755945205688477e+00,2.000530481338500977e+00,1.967437624931335449e+00,1.935421705245971680e+00,1.904430985450744629e+00,1.874417066574096680e+00,1.845334649085998535e+00
4.875089168548583984e+00,4.873878002166748047e+00,4.872667789459228516e+00,4.871457576751708984e+00,4.870248794555664062e+00,4.869039535522460938e+00,4.867831707000732422e+00,4.866624355316162109e+00,4.865417480468750000e+00,4.864211082458496094e+00,4.863005161285400391e+00,4.861800193786621094e+00,4.860595703125000000e+00,4.859392166137695312e+00,4.858188629150390625e+00,4.856986045837402344e+00,4.855783939361572266e+00,4.854582309722900391e+00,4.853381633758544922e+00,4.852181434631347656e+00,4.850981712341308594e+00,4.849782466888427734e+00,4.848583698272705078e+00,4.847385883331298828e+00,4.846188545227050781e+00,4.844991683959960938e+00,4.843795776367187500e+00,4.842599868774414062e+00,4.841404914855957031e+00,4.840210437774658203e+00,4.839016914367675781e+00,4.837823390960693359e+00,4.836630821228027344e+00,4.835438728332519531e+00,4.834247112274169922e+00,4.833056449890136719e+00,4.831865787506103516e+00,4.830676555633544922e+00,4.829487323760986328e+00,4.828299045562744141e+00,4.673083305358886719e+00,4.496415615081787109e+00,4.332619667053222656e+00,4.180337429046630859e+00,4.038396358489990234e+00,3.905777454376220703e+00,3.781591415405273438e+00,3.665059328079223633e+00,3.555494546890258789e+00,3.452290296554565430e+00,3.354908466339111328e+00,3.262869834899902344e+00,3.175746202468872070e+00,3.093154191970825195e+00,3.014749288558959961e+00,2.940221071243286133e+00,2.869288682937622070e+00,2.801698207855224609e+00,2.737218856811523438e+00,2.675640583038330078e+00,2.616771936416625977e+00,2.560437917709350586e+00,2.506478548049926758e+00,2.454746246337890625e+00,2.405106306076049805e+00,2.357434272766113281e+00,2.311615228652954102e+00,2.267543315887451172e+00,2.225120544433593750e+00,2.184256076812744141e+00,2.144865274429321289e+00,2.106870174407958984e+00,2.070197582244873047e+00,2.034780263900756836e+00,2.000554084777832031e+00,1.967460274696350098e+00,1.935443520545959473e+00,1.904452204704284668e+00,1.874437570571899414e+00,1.845354437828063965e+00
3.777876615524291992e+00,3.777149438858032227e+00,3.776422500610351562e+00,3.775695800781250000e+00,3.774969100952148438e+00,3.774242877960205078e+00,3.773517131805419922e+00,3.772791147232055664e+00,3.772065877914428711e+00,3.771340847015380859e+00,3.770616292953491211e+00,3.769891500473022461e+00,3.769167184829711914e+00,3.768443346023559570e+00,3.767719984054565430e+00,3.766996145248413086e+00,3.766273260116577148e+00,3.765550374984741211e+00,3.764827489852905273e+00,3.764105319976806641e+00,3.763383388519287109e+00,3.762661695480346680e+00,3.761940002441406250e+00,3.761218786239624023e+00,3.760498046875000000e+00,3.759777545928955078e+00,3.759056806564331055e+00,3.758337020874023438e+00,3.757617235183715820e+00,3.756897449493408203e+00,3.756178140640258789e+00,3.755459308624267578e+00,3.754740715026855469e+00,3.754021883010864258e+00,3.753304004669189453e+00,3.752586126327514648e+00,3.751868724822998047e+00,3.751150846481323242e+00,3.750433921813964844e+00,3.749717235565185547e+00,3.749000549316406250e+00,3.748284339904785156e+00,3.747568368911743164e+00,3.746852874755859375e+00,3.746137142181396484e+00,3.745422124862670898e+00,3.744707345962524414e+00,3.665138483047485352e+00,3.555569171905517578e+00,3.452360630035400391e+00,3.354974746704101562e+00,3.262932538986206055e+00,3.175805568695068359e+00,3.093210697174072266e+00,3.014802932739257812e+00,2.940272092819213867e+00,2.869337320327758789e+00,2.801744461059570312e+00,2.737262964248657227e+00,2.675682783126831055e+00,2.616812467575073242e+00,2.560476541519165039e+00,2.506515502929687500e+00,2.454781770706176758e+00,2.405140399932861328e+00,2.357467174530029297e+00,2.311646938323974609e+00,2.267573833465576172e+00,2.225149869918823242e+00,2.184284210205078125e+00,2.144892454147338867e+00,2.106896400451660156e+00,2.070223093032836914e+00,2.034804582595825195e+00,2.000577688217163086e+00,1.967483043670654297e+00,1.935465693473815918e+00,1.904473543167114258e+00,1.874458312988281250e+00,1.845374584197998047e+00
3.083817243576049805e+00,3.083332538604736328e+00,3.082848072052001953e+00,3.082363605499267578e+00,3.081879615783691406e+00,3.081395626068115234e+00,3.080911636352539062e+00,3.080427885055541992e+00,3.079944372177124023e+00,3.079461097717285156e+00,3.078977584838867188e+00,3.078494548797607422e+00,3.078011512756347656e+00,3.077528476715087891e+00,3.077045917510986328e+00,3.076563596725463867e+00,3.076081275939941406e+00,3.075598716735839844e+00,3.075116872787475586e+00,3.074635028839111328e+00,3.074153184890747070e+00,3.073671340942382812e+00,3.073189973831176758e+00,3.072708845138549805e+00,3.072227478027343750e+00,3.071746587753295898e+00,3.071265697479248047e+00,3.070785045623779297e+00,3.070304393768310547e+00,3.069823980331420898e+00,3.069343805313110352e+00,3.068863868713378906e+00,3.068383693695068359e+00,3.067903995513916016e+00,3.067424297332763672e+00,3.066944599151611328e+00,3.066465377807617188e+00,3.065986156463623047e+00,3.065507173538208008e+00,3.065028190612792969e+00,3.064549446105957031e+00,3.064070940017700195e+00,3.063592672348022461e+00,3.063114166259765625e+00,3.062635898590087891e+00,3.062158107757568359e+00,3.061680316925048828e+00,3.061202287673950195e+00,3.060724973678588867e+00,3.060247421264648438e+00,3.059770107269287109e+00,3.059293031692504883e+00,3.058816194534301758e+00,3.058339357376098633e+00,3.014856576919555664e+00,2.940323114395141602e+00,2.869385957717895508e+00,2.801790952682495117e+00,2.737307071685791016e+00,2.675724983215332031e+00,2.616852760314941406e+00,2.560515403747558594e+00,2.506552696228027344e+00,2.454817295074462891e+00,2.405174493789672852e+00,2.357499837875366211e+00,2.311678409576416016e+00,2.267604112625122070e+00,2.225178956985473633e+00,2.184312343597412109e+00,2.144919633865356445e+00,2.106922626495361328e+00,2.070248365402221680e+00,2.034829139709472656e+00,2.000601291656494141e+00,1.967505931854248047e+00,1.935487747192382812e+00,1.904495000839233398e+00,1.874479055404663086e+00,1.845394730567932129e+00
2.605198383331298828e+00,2.604852437973022461e+00,2.604506731033325195e+00,2.604161024093627930e+00,2.603815317153930664e+00,2.603469848632812500e+00,2.603124380111694336e+00,2.602779150009155273e+00,2.602433681488037109e+00,2.602088689804077148e+00,2.601743698120117188e+00,2.601398706436157227e+00,2.601053714752197266e+00,2.600708961486816406e+00,2.600364208221435547e+00,2.600019693374633789e+00,2.599674940109252930e+00,2.599330663681030273e+00,2.598986387252807617e+00,2.598641872406005859e+00,2.598297834396362305e+00,2.597953796386718750e+00,2.597609996795654297e+00,2.597265958786010742e+00,2.596922159194946289e+00,2.596578598022460938e+00,2.596235036849975586e+00,2.595891237258911133e+00,2.595547914505004883e+00,2.595204591751098633e+00,2.594861268997192383e+00,2.594518184661865234e+00,2.594175100326538086e+00,2.593832254409790039e+00,2.593489170074462891e+00,2.593146562576293945e+00,2.592803955078125000e+00,2.592461347579956055e+00,2.592118740081787109e+00,2.591776371002197266e+00,2.591434001922607422e+00,2.591091632843017578e+00,2.590749502182006836e+00,2.590407371520996094e+00,2.590065479278564453e+00,2.589723587036132812e+00,2.589381694793701172e+00,2.589040040969848633e+00,2.588698625564575195e+00,2.588356971740722656e+00,2.588015556335449219e+00,2.587674379348754883e+00,2.587332963943481445e+00,2.586991786956787109e+00,2.586650848388671875e+00,2.586309909820556641e+00,2.585968732833862305e+00,2.585628032684326172e+00,2.585287332534790039e+00,2.584946870803833008e+00,2.584606170654296875e+00,2.560553789138793945e+00,2.506589412689208984e+00,2.454852819442749023e+00,2.405208587646484375e+00,2.357532501220703125e+00,2.311709642410278320e+00,2.267634391784667969e+00,2.225208044052124023e+00,2.184340476989746094e+00,2.144946575164794922e+00,2.106948614120483398e+00,2.070273399353027344e+00,2.034853458404541016e+00,2.000624656677246094e+00,1.967528820037841797e+00,1.935509800910949707e+00,1.904516339302062988e+00,1.874499797821044922e+00,1.845414757728576660e+00
2.255218267440795898e+00,2.254957675933837891e+00,2.254697084426879883e+00,2.254436492919921875e+00,2.254176139831542969e+00,2.253915786743164062e+00,2.253655433654785156e+00,2.253395080566406250e+00,2.253134965896606445e+00,2.252874851226806641e+00,2.252614736557006836e+00,2.252354621887207031e+00,2.252094507217407227e+00,2.251834869384765625e+00,2.251574993133544922e+00,2.251315116882324219e+00,2.251055240631103516e+00,2.250795841217041016e+00,2.250535964965820312e+00,2.250276565551757812e+00,2.250016927719116211e+00,2.249757528305053711e+00,2.249498128890991211e+00,2.249239444732666016e+00,2.248981714248657227e+00,2.248723745346069336e+00,2.248466014862060547e+00,2.248208522796630859e+00,2.247951030731201172e+00,2.247693300247192383e+00,2.247435808181762695e+00,2.247178554534912109e+00,2.246921062469482422e+00,2.246663808822631836e+00,2.246406555175781250e+00,2.246149301528930664e+00,2.245892286300659180e+00,2.245635271072387695e+00,2.245378255844116211e+00,2.245121240615844727e+00,2.244864225387573242e+00,2.244607448577880859e+00,2.244350671768188477e+00,2.244094133377075195e+00,2.243837356567382812e+00,2.243580818176269531e+00,2.243324279785156250e+00,2.243067741394042969e+00,2.242811203002929688e+00,2.242554903030395508e+00,2.242298603057861328e+00,2.242042303085327148e+00,2.241786241531372070e+00,2.241530179977416992e+00,2.241274118423461914e+00,2.241018056869506836e+00,2.240761995315551758e+00,2.240506172180175781e+00,2.240250349044799805e+00,2.239994525909423828e+00,2.239738941192626953e+00,2.239483118057250977e+00,2.239227533340454102e+00,2.238971948623657227e+00,2.238716602325439453e+00,2.238461256027221680e+00,2.238205671310424805e+00,2.237950563430786133e+00,2.225237369537353516e+00,2.184368610382080078e+00,2.144973754882812500e+00,2.106974840164184570e+00,2.070298671722412109e+00,2.034877777099609375e+00,2.000648498535156250e+00,1.967551589012145996e+00,1.935531973838806152e+00,1.904537796974182129e+00,1.874520540237426758e+00,1.845434904098510742e+00
1.988197445869445801e+00,1.987994909286499023e+00,1.987792611122131348e+00,1.987590074539184570e+00,1.987387537956237793e+00,1.987185120582580566e+00,1.986982703208923340e+00,1.986780405044555664e+00,1.986578106880187988e+00,1.986375808715820312e+00,1.986173748970031738e+00,1.985971570014953613e+00,1.985769391059875488e+00,1.985567331314086914e+00,1.985365271568298340e+00,1.985163211822509766e+00,1.984961271286010742e+00,1.984759330749511719e+00,1.984557628631591797e+00,1.984355807304382324e+00,1.984153985977172852e+00,1.983952164649963379e+00,1.983750462532043457e+00,1.983548760414123535e+00,1.983347058296203613e+00,1.983145475387573242e+00,1.982944130897521973e+00,1.982742547988891602e+00,1.982541084289550781e+00,1.982339620590209961e+00,1.982138276100158691e+00,1.981936812400817871e+00,1.981735467910766602e+00,1.981534242630004883e+00,1.981333255767822266e+00,1.981132030487060547e+00,1.980930805206298828e+00,1.980729699134826660e+00,1.980528593063354492e+00,1.980327606201171875e+00,1.980126619338989258e+00,1.979925632476806641e+00,1.979724884033203125e+00,1.979524016380310059e+00,1.979323148727416992e+00,1.979122400283813477e+00,1.978921651840209961e+00,1.978720903396606445e+00,1.978520154953002930e+00,1.978319525718688965e+00,1.978119134902954102e+00,1.977918624877929688e+00,1.977718114852905273e+00,1.977517604827880859e+00,1.977317214012145996e+00,1.977116823196411133e+00,1.976916432380676270e+00,1.976716160774230957e+00,1.976515889167785645e+00,1.976315855979919434e+00,1.976115584373474121e+00,1.975915431976318359e+00,1.975715398788452148e+00,1.975515246391296387e+00,1.975315213203430176e+00,1.975115299224853516e+00,1.974915266036987305e+00,1.974715590476989746e+00,1.974515795707702637e+00,1.974316000938415527e+00,1.974116206169128418e+00,1.973916411399841309e+00,1.973716735839843750e+00,1.973517060279846191e+00,1.973317384719848633e+00,1.967574477195739746e+00,1.935554027557373047e+00,1.904559254646301270e+00,1.874541282653808594e+00,1.845454931259155273e+00
1.777713894844055176e+00,1.777551889419555664e+00,1.777390003204345703e+00,1.777228236198425293e+00,1.777066349983215332e+00,1.776904463768005371e+00,1.776742696762084961e+00,1.776580929756164551e+00,1.776419162750244141e+00,1.776257395744323730e+00,1.776095628738403320e+00,1.775934100151062012e+00,1.775772452354431152e+00,1.775610923767089844e+00,1.775449275970458984e+00,1.775287747383117676e+00,1.775126218795776367e+00,1.774964690208435059e+00,1.774803161621093750e+00,1.774641871452331543e+00,1.774480462074279785e+00,1.774319052696228027e+00,1.774157762527465820e+00,1.773996353149414062e+00,1.773835062980651855e+00,1.773673772811889648e+00,1.773512601852416992e+00,1.773351550102233887e+00,1.773190379142761230e+00,1.773029208183288574e+00,1.772868037223815918e+00,1.772706985473632812e+00,1.772545933723449707e+00,1.772384881973266602e+00,1.772223830223083496e+00,1.772063016891479492e+00,1.771902084350585938e+00,1.771741151809692383e+00,1.771580338478088379e+00,1.771419405937194824e+00,1.771258592605590820e+00,1.771097779273986816e+00,1.770936965942382812e+00,1.770776391029357910e+00,1.770615696907043457e+00,1.770455002784729004e+00,1.770294308662414551e+00,1.770133733749389648e+00,1.769973158836364746e+00,1.769812583923339844e+00,1.769652009010314941e+00,1.769491672515869141e+00,1.769331216812133789e+00,1.769170761108398438e+00,1.769010305404663086e+00,1.768849849700927734e+00,1.768689513206481934e+00,1.768529176712036133e+00,1.768368840217590332e+00,1.768208622932434082e+00,1.768048524856567383e+00,1.767888307571411133e+00,1.767728090286254883e+00,1.767567873001098633e+00,1.767407774925231934e+00,1.767247676849365234e+00,1.767087578773498535e+00,1.766927599906921387e+00,1.766767740249633789e+00,1.766607761383056641e+00,1.766447782516479492e+00,1.766287803649902344e+00,1.766127943992614746e+00,1.765968084335327148e+00,1.765808224678039551e+00,1.765648365020751953e+00,1.765488862991333008e+00,1.765329003334045410e+00,1.765169382095336914e+00,1.765009641647338867e+00
1.607530236244201660e+00,1.607397794723510742e+00,1.607265353202819824e+00,1.607132911682128906e+00,1.607000708580017090e+00,1.606868386268615723e+00,1.606736063957214355e+00,1.606603741645812988e+00,1.606471419334411621e+00,1.606339097023010254e+00,1.606206893920898438e+00,1.606074690818786621e+00,1.605942606925964355e+00,1.605810403823852539e+00,1.605678200721740723e+00,1.605546116828918457e+00,1.605413913726806641e+00,1.605281829833984375e+00,1.605149745941162109e+00,1.605017662048339844e+00,1.604885816574096680e+00,1.604753851890563965e+00,1.604621767997741699e+00,1.604489803314208984e+00,1.604357838630676270e+00,1.604225993156433105e+00,1.604094028472900391e+00,1.603962182998657227e+00,1.603830456733703613e+00,1.603698611259460449e+00,1.603566765785217285e+00,1.603434920310974121e+00,1.603303194046020508e+00,1.603171467781066895e+00,1.603039741516113281e+00,1.602908015251159668e+00,1.602776408195495605e+00,1.602644801139831543e+00,1.602513074874877930e+00,1.602381467819213867e+00,1.602249860763549805e+00,1.602118253707885742e+00,1.601986765861511230e+00,1.601855158805847168e+00,1.601723790168762207e+00,1.601592302322387695e+00,1.601460814476013184e+00,1.601329445838928223e+00,1.601197957992553711e+00,1.601066589355468750e+00,1.600935220718383789e+00,1.600803852081298828e+00,1.600672602653503418e+00,1.600541353225708008e+00,1.600409984588623047e+00,1.600278735160827637e+00,1.600147485733032227e+00,1.600016236305236816e+00,1.599884986877441406e+00,1.599753737449645996e+00,1.599622607231140137e+00,1.599491596221923828e+00,1.599360466003417969e+00,1.599229335784912109e+00,1.599098324775695801e+00,1.598967194557189941e+00,1.598836183547973633e+00,1.598705172538757324e+00,1.598574161529541016e+00,1.598443269729614258e+00,1.598312377929687500e+00,1.598181366920471191e+00,1.598050475120544434e+00,1.597919583320617676e+00,1.597788691520690918e+00,1.597657918930053711e+00,1.597527027130126953e+00,1.597396373748779297e+00,1.597265601158142090e+00,1.597134828567504883e+00
1.467083811759948730e+00,1.466973423957824707e+00,1.466863155364990234e+00,1.466752886772155762e+00,1.466642618179321289e+00,1.466532468795776367e+00,1.466422200202941895e+00,1.466311931610107422e+00,1.466201782226562500e+00,1.466091632843017578e+00,1.465981364250183105e+00,1.465871214866638184e+00,1.465761065483093262e+00,1.465651154518127441e+00,1.465541005134582520e+00,1.465430974960327148e+00,1.465320825576782227e+00,1.465210795402526855e+00,1.465100765228271484e+00,1.464990735054016113e+00,1.464880704879760742e+00,1.464770913124084473e+00,1.464660882949829102e+00,1.464550971984863281e+00,1.464440941810607910e+00,1.464331030845642090e+00,1.464221119880676270e+00,1.464111328125000000e+00,1.464001417160034180e+00,1.463891625404357910e+00,1.463781833648681641e+00,1.463672041893005371e+00,1.463562250137329102e+00,1.463452339172363281e+00,1.463342666625976562e+00,1.463232874870300293e+00,1.463123083114624023e+00,1.463013529777526855e+00,1.462903857231140137e+00,1.462794184684753418e+00,1.462684512138366699e+00,1.462574839591979980e+00,1.462465167045593262e+00,1.462355494499206543e+00,1.462245941162109375e+00,1.462136507034301758e+00,1.462026834487915039e+00,1.461917281150817871e+00,1.461807727813720703e+00,1.461698293685913086e+00,1.461588740348815918e+00,1.461479306221008301e+00,1.461369752883911133e+00,1.461260437965393066e+00,1.461151003837585449e+00,1.461041569709777832e+00,1.460932135581970215e+00,1.460822701454162598e+00,1.460713386535644531e+00,1.460603952407836914e+00,1.460494637489318848e+00,1.460385322570800781e+00,1.460276126861572266e+00,1.460166811943054199e+00,1.460057616233825684e+00,1.459948301315307617e+00,1.459838986396789551e+00,1.459729790687561035e+00,1.459620594978332520e+00,1.459511399269104004e+00,1.459402322769165039e+00,1.459293127059936523e+00,1.459184050559997559e+00,1.459074854850769043e+00,1.458965778350830078e+00,1.458856701850891113e+00,1.458747625350952148e+00,1.458638548851013184e+00,1.458529591560363770e+00,1.458420515060424805e+00
1.349206447601318359e+00,1.349113106727600098e+00,1.349019765853881836e+00,1.348926544189453125e+00,1.348833322525024414e+00,1.348739981651306152e+00,1.348646879196166992e+00,1.348553657531738281e+00,1.348460435867309570e+00,1.348367214202880859e+00,1.348274111747741699e+00,1.348180890083312988e+00,1.348087668418884277e+00,1.347994565963745117e+00,1.347901582717895508e+00,1.347808361053466797e+00,1.347715258598327637e+00,1.347622156143188477e+00,1.347529172897338867e+00,1.347436070442199707e+00,1.347343087196350098e+00,1.347249984741210938e+00,1.347157001495361328e+00,1.347064018249511719e+00,1.346971035003662109e+00,1.346878051757812500e+00,1.346785068511962891e+00,1.346692085266113281e+00,1.346599102020263672e+00,1.346506237983703613e+00,1.346413373947143555e+00,1.346320390701293945e+00,1.346227526664733887e+00,1.346134662628173828e+00,1.346041798591613770e+00,1.345948934555053711e+00,1.345856070518493652e+00,1.345763206481933594e+00,1.345670461654663086e+00,1.345577597618103027e+00,1.345484852790832520e+00,1.345392107963562012e+00,1.345299243927001953e+00,1.345206499099731445e+00,1.345113754272460938e+00,1.345021009445190430e+00,1.344928383827209473e+00,1.344835638999938965e+00,1.344743013381958008e+00,1.344650268554687500e+00,1.344557642936706543e+00,1.344464898109436035e+00,1.344372272491455078e+00,1.344279646873474121e+00,1.344187021255493164e+00,1.344094514846801758e+00,1.344001889228820801e+00,1.343909382820129395e+00,1.343816757202148438e+00,1.343724250793457031e+00,1.343631625175476074e+00,1.343539118766784668e+00,1.343446612358093262e+00,1.343354225158691406e+00,1.343261718750000000e+00,1.343169212341308594e+00,1.343076705932617188e+00,1.342984318733215332e+00,1.342891812324523926e+00,1.342799425125122070e+00,1.342706918716430664e+00,1.342614650726318359e+00,1.342522263526916504e+00,1.342429876327514648e+00,1.342337489128112793e+00,1.342245101928710938e+00,1.342152833938598633e+00,1.342060446739196777e+00,1.341968178749084473e+00,1.341875910758972168e+00
1.248862743377685547e+00,1.248782753944396973e+00,1.248702883720397949e+00,1.248623013496398926e+00,1.248543024063110352e+00,1.248463153839111328e+00,1.248383283615112305e+00,1.248303413391113281e+00,1.248223543167114258e+00,1.248143792152404785e+00,1.248063921928405762e+00,1.247984051704406738e+00,1.247904181480407715e+00,1.247824430465698242e+00,1.247744560241699219e+00,1.247664928436279297e+00,1.247585058212280273e+00,1.247505307197570801e+00,1.247425556182861328e+00,1.247345805168151855e+00,1.247266054153442383e+00,1.247186303138732910e+00,1.247106552124023438e+00,1.247026920318603516e+00,1.246947169303894043e+00,1.246867537498474121e+00,1.246787786483764648e+00,1.246708154678344727e+00,1.246628522872924805e+00,1.246548891067504883e+00,1.246469140052795410e+00,1.246389627456665039e+00,1.246309995651245117e+00,1.246230363845825195e+00,1.246150732040405273e+00,1.246071219444274902e+00,1.245991587638854980e+00,1.245912075042724609e+00,1.245832443237304688e+00,1.245753049850463867e+00,1.245673418045043945e+00,1.245593905448913574e+00,1.245514392852783203e+00,1.245434880256652832e+00,1.245355367660522461e+00,1.245275855064392090e+00,1.245196342468261719e+00,1.245117068290710449e+00,1.245037555694580078e+00,1.244958043098449707e+00,1.244878649711608887e+00,1.244799256324768066e+00,1.244719743728637695e+00,1.244640350341796875e+00,1.244560956954956055e+00,1.244481563568115234e+00,1.244402289390563965e+00,1.244322896003723145e+00,1.244243502616882324e+00,1.244164228439331055e+00,1.244084835052490234e+00,1.244005560874938965e+00,1.243926167488098145e+00,1.243846893310546875e+00,1.243767738342285156e+00,1.243688344955444336e+00,1.243609070777893066e+00,1.243529796600341797e+00,1.243450641632080078e+00,1.243371367454528809e+00,1.243292093276977539e+00,1.243212819099426270e+00,1.243133783340454102e+00,1.243054509162902832e+00,1.242975354194641113e+00,1.242896199226379395e+00,1.242816925048828125e+00,1.242737770080566406e+00,1.242658615112304688e+00,1.242579460144042969e+00
1.162411451339721680e+00,1.162342190742492676e+00,1.162272930145263672e+00,1.162203788757324219e+00,1.162134528160095215e+00,1.162065267562866211e+00,1.161996006965637207e+00,1.161926865577697754e+00,1.161857724189758301e+00,1.161788582801818848e+00,1.161719322204589844e+00,1.161650180816650391e+00,1.161581039428710938e+00,1.161511898040771484e+00,1.161442756652832031e+00,1.161373615264892578e+00,1.161304473876953125e+00,1.161235332489013672e+00,1.161166310310363770e+00,1.161097168922424316e+00,1.161028027534484863e+00,1.160959005355834961e+00,1.160889863967895508e+00,1.160820841789245605e+00,1.160751819610595703e+00,1.160682678222656250e+00,1.160613656044006348e+00,1.160544633865356445e+00,1.160475611686706543e+00,1.160406589508056641e+00,1.160337567329406738e+00,1.160268545150756836e+00,1.160199642181396484e+00,1.160130620002746582e+00,1.160061597824096680e+00,1.159992694854736328e+00,1.159923672676086426e+00,1.159854650497436523e+00,1.159785747528076172e+00,1.159716844558715820e+00,1.159647941589355469e+00,1.159579038619995117e+00,1.159510135650634766e+00,1.159441232681274414e+00,1.159372329711914062e+00,1.159303426742553711e+00,1.159234523773193359e+00,1.159165620803833008e+00,1.159096837043762207e+00,1.159027934074401855e+00,1.158959031105041504e+00,1.158890247344970703e+00,1.158821344375610352e+00,1.158752560615539551e+00,1.158683776855468750e+00,1.158614873886108398e+00,1.158546090126037598e+00,1.158477425575256348e+00,1.158408641815185547e+00,1.158339858055114746e+00,1.158271074295043945e+00,1.158202290534973145e+00,1.158133506774902344e+00,1.158064842224121094e+00,1.157996058464050293e+00,1.157927393913269043e+00,1.157858729362487793e+00,1.157789945602416992e+00,1.157721281051635742e+00,1.157652616500854492e+00,1.157583832740783691e+00,1.157515168190002441e+00,1.157446503639221191e+00,1.157377958297729492e+00,1.157309293746948242e+00,1.157240629196166992e+00,1.157171964645385742e+00,1.157103300094604492e+00,1.157034754753112793e+00,1.156966090202331543e+00
1.087154269218444824e+00,1.087093710899353027e+00,1.087033152580261230e+00,1.086972594261169434e+00,1.086912035942077637e+00,1.086851477622985840e+00,1.086790919303894043e+00,1.086730360984802246e+00,1.086669802665710449e+00,1.086609363555908203e+00,1.086548805236816406e+00,1.086488366127014160e+00,1.086427807807922363e+00,1.086367368698120117e+00,1.086306810379028320e+00,1.086246371269226074e+00,1.086185812950134277e+00,1.086125493049621582e+00,1.086065053939819336e+00,1.086004495620727539e+00,1.085944056510925293e+00,1.085883617401123047e+00,1.085823178291320801e+00,1.085762739181518555e+00,1.085702300071716309e+00,1.085641980171203613e+00,1.085581541061401367e+00,1.085521221160888672e+00,1.085460782051086426e+00,1.085400342941284180e+00,1.085340023040771484e+00,1.085279583930969238e+00,1.085219264030456543e+00,1.085158944129943848e+00,1.085098624229431152e+00,1.085038304328918457e+00,1.084977865219116211e+00,1.084917545318603516e+00,1.084857225418090820e+00,1.084796905517578125e+00,1.084736585617065430e+00,1.084676384925842285e+00,1.084616065025329590e+00,1.084555745124816895e+00,1.084495425224304199e+00,1.084435224533081055e+00,1.084374904632568359e+00,1.084314584732055664e+00,1.084254384040832520e+00,1.084194183349609375e+00,1.084133863449096680e+00,1.084073662757873535e+00,1.084013462066650391e+00,1.083953261375427246e+00,1.083892941474914551e+00,1.083832740783691406e+00,1.083772540092468262e+00,1.083712339401245117e+00,1.083652257919311523e+00,1.083592057228088379e+00,1.083531856536865234e+00,1.083471655845642090e+00,1.083411455154418945e+00,1.083351373672485352e+00,1.083291172981262207e+00,1.083230972290039062e+00,1.083170890808105469e+00,1.083110809326171875e+00,1.083050727844238281e+00,1.082990527153015137e+00,1.082930445671081543e+00,1.082870364189147949e+00,1.082810163497924805e+00,1.082750082015991211e+00,1.082690119743347168e+00,1.082630038261413574e+00,1.082569956779479980e+00,1.082509875297546387e+00,1.082449793815612793e+00,1.082389712333679199e+00
1.021049141883850098e+00,1.020995736122131348e+00,1.020942330360412598e+00,1.020888924598693848e+00,1.020835518836975098e+00,1.020782113075256348e+00,1.020728707313537598e+00,1.020675301551818848e+00,1.020621895790100098e+00,1.020568490028381348e+00,1.020515203475952148e+00,1.020461797714233398e+00,1.020408391952514648e+00,1.020354986190795898e+00,1.020301699638366699e+00,1.020248293876647949e+00,1.020194888114929199e+00,1.020141601562500000e+00,1.020088315010070801e+00,1.020035028457641602e+00,1.019981622695922852e+00,1.019928336143493652e+00,1.019875049591064453e+00,1.019821643829345703e+00,1.019768357276916504e+00,1.019715070724487305e+00,1.019661784172058105e+00,1.019608497619628906e+00,1.019555211067199707e+00,1.019501924514770508e+00,1.019448757171630859e+00,1.019395470619201660e+00,1.019342184066772461e+00,1.019288897514343262e+00,1.019235730171203613e+00,1.019182443618774414e+00,1.019129276275634766e+00,1.019075989723205566e+00,1.019022822380065918e+00,1.018969535827636719e+00,1.018916368484497070e+00,1.018863081932067871e+00,1.018809914588928223e+00,1.018756747245788574e+00,1.018703579902648926e+00,1.018650412559509277e+00,1.018597126007080078e+00,1.018543958663940430e+00,1.018490791320800781e+00,1.018437623977661133e+00,1.018384575843811035e+00,1.018331408500671387e+00,1.018278241157531738e+00,1.018225073814392090e+00,1.018171906471252441e+00,1.018118858337402344e+00,1.018065690994262695e+00,1.018012523651123047e+00,1.017959475517272949e+00,1.017906427383422852e+00,1.017853260040283203e+00,1.017800211906433105e+00,1.017747044563293457e+00,1.017693996429443359e+00,1.017640829086303711e+00,1.017587780952453613e+00,1.017534732818603516e+00,1.017481684684753418e+00,1.017428636550903320e+00,1.017375588417053223e+00,1.017322540283203125e+00,1.017269492149353027e+00,1.017216444015502930e+00,1.017163395881652832e+00,1.017110347747802734e+00,1.017057418823242188e+00,1.017004370689392090e+00,1.016951322555541992e+00,1.016898393630981445e+00,1.016845345497131348e+00
9.625224471092224121e-01,9.624749422073364258e-01,9.624274373054504395e-01,9.623800516128540039e-01,9.623326063156127930e-01,9.622851014137268066e-01,9.622376561164855957e-01,9.621902108192443848e-01,9.621427655220031738e-01,9.620953202247619629e-01,9.620478749275207520e-01,9.620004296302795410e-01,9.619529843330383301e-01,9.619055390357971191e-01,9.618581533432006836e-01,9.618107080459594727e-01,9.617633223533630371e-01,9.617158770561218262e-01,9.616684913635253906e-01,9.616211652755737305e-01,9.615737795829772949e-01,9.615263938903808594e-01,9.614790081977844238e-01,9.614316225051879883e-01,9.613842368125915527e-01,9.613368511199951172e-01,9.612894654273986816e-01,9.612421393394470215e-01,9.611947536468505859e-01,9.611474275588989258e-01,9.611000418663024902e-01,9.610527157783508301e-01,9.610053896903991699e-01,9.609580039978027344e-01,9.609106779098510742e-01,9.608634710311889648e-01,9.608161449432373047e-01,9.607688188552856445e-01,9.607215523719787598e-01,9.606742262840270996e-01,9.606269001960754395e-01,9.605796337127685547e-01,9.605323076248168945e-01,9.604850411415100098e-01,9.604377150535583496e-01,9.603904485702514648e-01,9.603431820869445801e-01,9.602959156036376953e-01,9.602486491203308105e-01,9.602013826370239258e-01,9.601541161537170410e-01,9.601069688796997070e-01,9.600597023963928223e-01,9.600124955177307129e-01,9.599652290344238281e-01,9.599180221557617188e-01,9.598707556724548340e-01,9.598235487937927246e-01,9.597763419151306152e-01,9.597290754318237305e-01,9.596818685531616211e-01,9.596346616744995117e-01,9.595874547958374023e-01,9.595402479171752930e-01,9.594931006431579590e-01,9.594458937644958496e-01,9.593986868858337402e-01,9.593515396118164062e-01,9.593044519424438477e-01,9.592573046684265137e-01,9.592100977897644043e-01,9.591629505157470703e-01,9.591158032417297363e-01,9.590686559677124023e-01,9.590215086936950684e-01,9.589743614196777344e-01,9.589272141456604004e-01,9.588800668716430664e-01,9.588329792022705078e-01,9.587858319282531738e-01
9.103414416313171387e-01,9.102989435195922852e-01,9.102565050125122070e-01,9.102140069007873535e-01,9.101716876029968262e-01,9.101291894912719727e-01,9.100867509841918945e-01,9.100443124771118164e-01,9.100018143653869629e-01,9.099593758583068848e-01,9.099169373512268066e-01,9.098744988441467285e-01,9.098320603370666504e-01,9.097896218299865723e-01,9.097471833229064941e-01,9.097048044204711914e-01,9.096623659133911133e-01,9.096199274063110352e-01,9.095775485038757324e-01,9.095351099967956543e-01,9.094928503036499023e-01,9.094504117965698242e-01,9.094080328941345215e-01,9.093656539916992188e-01,9.093232750892639160e-01,9.092808961868286133e-01,9.092385172843933105e-01,9.091961383819580078e-01,9.091537594795227051e-01,9.091113805770874023e-01,9.090690016746520996e-01,9.090266823768615723e-01,9.089843034744262695e-01,9.089419245719909668e-01,9.088996052742004395e-01,9.088572859764099121e-01,9.088150262832641602e-01,9.087727069854736328e-01,9.087303280830383301e-01,9.086880087852478027e-01,9.086456894874572754e-01,9.086033701896667480e-01,9.085610508918762207e-01,9.085187315940856934e-01,9.084764719009399414e-01,9.084341526031494141e-01,9.083918333053588867e-01,9.083495736122131348e-01,9.083072543144226074e-01,9.082649350166320801e-01,9.082226753234863281e-01,9.081804156303405762e-01,9.081382155418395996e-01,9.080959558486938477e-01,9.080536961555480957e-01,9.080114364624023438e-01,9.079691767692565918e-01,9.079269170761108398e-01,9.078846573829650879e-01,9.078423976898193359e-01,9.078001379966735840e-01,9.077578783035278320e-01,9.077156782150268555e-01,9.076734185218811035e-01,9.076312184333801270e-01,9.075889587402343750e-01,9.075467586517333984e-01,9.075045585632324219e-01,9.074622988700866699e-01,9.074202179908752441e-01,9.073780179023742676e-01,9.073358178138732910e-01,9.072936177253723145e-01,9.072514176368713379e-01,9.072092175483703613e-01,9.071670174598693848e-01,9.071248769760131836e-01,9.070826768875122070e-01,9.070405364036560059e-01,9.069983363151550293e-01
8.635272979736328125e-01,8.634890317916870117e-01,8.634508252143859863e-01,8.634126186370849609e-01,8.633744120597839355e-01,8.633363246917724609e-01,8.632981181144714355e-01,8.632599115371704102e-01,8.632217049598693848e-01,8.631834983825683594e-01,8.631452918052673340e-01,8.631071448326110840e-01,8.630689382553100586e-01,8.630307316780090332e-01,8.629925847053527832e-01,8.629543781280517578e-01,8.629162311553955078e-01,8.628780841827392578e-01,8.628398776054382324e-01,8.628017306327819824e-01,8.627635836601257324e-01,8.627254962921142578e-01,8.626873493194580078e-01,8.626492023468017578e-01,8.626110553741455078e-01,8.625729084014892578e-01,8.625347614288330078e-01,8.624966740608215332e-01,8.624585270881652832e-01,8.624203801155090332e-01,8.623822927474975586e-01,8.623441457748413086e-01,8.623060584068298340e-01,8.622679114341735840e-01,8.622298240661621094e-01,8.621916770935058594e-01,8.621535897254943848e-01,8.621155619621276855e-01,8.620774745941162109e-01,8.620393872261047363e-01,8.620012998580932617e-01,8.619632124900817871e-01,8.619251251220703125e-01,8.618870377540588379e-01,8.618490099906921387e-01,8.618109226226806641e-01,8.617728352546691895e-01,8.617347478866577148e-01,8.616967201232910156e-01,8.616586327552795410e-01,8.616206049919128418e-01,8.615825176239013672e-01,8.615444898605346680e-01,8.615065217018127441e-01,8.614684939384460449e-01,8.614304661750793457e-01,8.613923788070678711e-01,8.613543510437011719e-01,8.613163232803344727e-01,8.612782955169677734e-01,8.612402677536010742e-01,8.612022995948791504e-01,8.611642718315124512e-01,8.611262440681457520e-01,8.610882163047790527e-01,8.610502481460571289e-01,8.610122203826904297e-01,8.609742522239685059e-01,8.609362244606018066e-01,8.608982563018798828e-01,8.608603477478027344e-01,8.608223199844360352e-01,8.607843518257141113e-01,8.607463836669921875e-01,8.607084155082702637e-01,8.606704473495483398e-01,8.606324791908264160e-01,8.605945110321044922e-01,8.605565428733825684e-01,8.605185747146606445e-01
8.212924599647521973e-01,8.212578892707824707e-01,8.212233185768127441e-01,8.211887478828430176e-01,8.211541771888732910e-01,8.211196064949035645e-01,8.210850954055786133e-01,8.210505843162536621e-01,8.210160136222839355e-01,8.209814429283142090e-01,8.209469318389892578e-01,8.209123611450195312e-01,8.208778500556945801e-01,8.208432793617248535e-01,8.208087682723999023e-01,8.207741975784301758e-01,8.207396864891052246e-01,8.207051753997802734e-01,8.206706643104553223e-01,8.206361532211303711e-01,8.206015825271606445e-01,8.205670714378356934e-01,8.205326795578002930e-01,8.204981684684753418e-01,8.204636573791503906e-01,8.204291462898254395e-01,8.203946352005004883e-01,8.203601241111755371e-01,8.203256130218505859e-01,8.202911615371704102e-01,8.202566504478454590e-01,8.202221989631652832e-01,8.201876878738403320e-01,8.201531767845153809e-01,8.201187252998352051e-01,8.200842738151550293e-01,8.200497627258300781e-01,8.200153112411499023e-01,8.199809193611145020e-01,8.199464678764343262e-01,8.199120163917541504e-01,8.198775649070739746e-01,8.198430538177490234e-01,8.198086023330688477e-01,8.197741508483886719e-01,8.197397589683532715e-01,8.197053074836730957e-01,8.196708559989929199e-01,8.196364045143127441e-01,8.196019530296325684e-01,8.195675611495971680e-01,8.195331096649169922e-01,8.194986581802368164e-01,8.194642663002014160e-01,8.194298148155212402e-01,8.193954825401306152e-01,8.193610906600952148e-01,8.193266987800598145e-01,8.192922472953796387e-01,8.192578554153442383e-01,8.192234635353088379e-01,8.191890716552734375e-01,8.191546797752380371e-01,8.191202878952026367e-01,8.190858960151672363e-01,8.190515041351318359e-01,8.190171122550964355e-01,8.189827203750610352e-01,8.189483284950256348e-01,8.189139366149902344e-01,8.188796043395996094e-01,8.188452720642089844e-01,8.188109397888183594e-01,8.187765479087829590e-01,8.187422156333923340e-01,8.187078237533569336e-01,8.186734914779663086e-01,8.186390995979309082e-01,8.186047673225402832e-01,8.185704350471496582e-01
7.829963564872741699e-01,7.829649448394775391e-01,7.829335331916809082e-01,7.829021215438842773e-01,7.828707098960876465e-01,7.828392982482910156e-01,7.828078866004943848e-01,7.827765345573425293e-01,7.827451229095458984e-01,7.827137112617492676e-01,7.826822996139526367e-01,7.826508879661560059e-01,7.826194763183593750e-01,7.825881242752075195e-01,7.825567126274108887e-01,7.825253009796142578e-01,7.824939489364624023e-01,7.824625372886657715e-01,7.824311852455139160e-01,7.823997735977172852e-01,7.823684215545654297e-01,7.823370099067687988e-01,7.823056578636169434e-01,7.822743654251098633e-01,7.822430133819580078e-01,7.822116017341613770e-01,7.821802496910095215e-01,7.821488976478576660e-01,7.821175456047058105e-01,7.820861935615539551e-01,7.820548415184020996e-01,7.820234894752502441e-01,7.819921374320983887e-01,7.819607853889465332e-01,7.819294333457946777e-01,7.818981409072875977e-01,7.818667888641357422e-01,7.818354368209838867e-01,7.818040847778320312e-01,7.817728519439697266e-01,7.817414999008178711e-01,7.817102074623107910e-01,7.816788554191589355e-01,7.816475629806518555e-01,7.816162109375000000e-01,7.815849184989929199e-01,7.815536260604858398e-01,7.815222740173339844e-01,7.814909815788269043e-01,7.814596891403198242e-01,7.814283967018127441e-01,7.813971042633056641e-01,7.813658118247985840e-01,7.813345193862915039e-01,7.813032269477844238e-01,7.812719345092773438e-01,7.812407016754150391e-01,7.812094092369079590e-01,7.811781167984008789e-01,7.811468243598937988e-01,7.811155915260314941e-01,7.810842990875244141e-01,7.810530066490173340e-01,7.810217738151550293e-01,7.809904813766479492e-01,7.809592485427856445e-01,7.809279561042785645e-01,7.808967232704162598e-01,7.808654308319091797e-01,7.808341979980468750e-01,7.808029651641845703e-01,7.807716727256774902e-01,7.807404994964599609e-01,7.807092666625976562e-01,7.806780338287353516e-01,7.806468009948730469e-01,7.806155681610107422e-01,7.805843353271484375e-01,7.805531024932861328e-01,7.805218696594238281e-01
7.481125593185424805e-01,7.480838894844055176e-01,7.480552196502685547e-01,7.480265498161315918e-01,7.479978203773498535e-01,7.479691505432128906e-01,7.479404807090759277e-01,7.479118108749389648e-01,7.478832006454467773e-01,7.478545308113098145e-01,7.478258609771728516e-01,7.477971911430358887e-01,7.477685213088989258e-01,7.477399110794067383e-01,7.477112412452697754e-01,7.476825714111328125e-01,7.476539015769958496e-01,7.476252317428588867e-01,7.475966215133666992e-01,7.475679516792297363e-01,7.475393414497375488e-01,7.475106716156005859e-01,7.474820017814636230e-01,7.474533915519714355e-01,7.474248409271240234e-01,7.473961710929870605e-01,7.473675608634948730e-01,7.473389506340026855e-01,7.473102807998657227e-01,7.472816705703735352e-01,7.472530603408813477e-01,7.472243905067443848e-01,7.471957802772521973e-01,7.471671700477600098e-01,7.471385598182678223e-01,7.471099495887756348e-01,7.470813393592834473e-01,7.470527291297912598e-01,7.470241189002990723e-01,7.469955086708068848e-01,7.469669580459594727e-01,7.469384074211120605e-01,7.469097971916198730e-01,7.468811869621276855e-01,7.468525767326354980e-01,7.468240261077880859e-01,7.467954158782958984e-01,7.467668056488037109e-01,7.467382550239562988e-01,7.467096447944641113e-01,7.466810941696166992e-01,7.466524839401245117e-01,7.466239333152770996e-01,7.465953826904296875e-01,7.465667724609375000e-01,7.465382218360900879e-01,7.465096712112426758e-01,7.464811205863952637e-01,7.464525699615478516e-01,7.464240193367004395e-01,7.463954687118530273e-01,7.463669180870056152e-01,7.463383674621582031e-01,7.463098168373107910e-01,7.462812662124633789e-01,7.462527155876159668e-01,7.462241649627685547e-01,7.461956143379211426e-01,7.461670637130737305e-01,7.461385130882263184e-01,7.461100220680236816e-01,7.460814714431762695e-01,7.460529208183288574e-01,7.460244894027709961e-01,7.459959387779235840e-01,7.459673881530761719e-01,7.459388971328735352e-01,7.459103465080261230e-01,7.458818554878234863e-01,7.458533048629760742e-01
7.162044644355773926e-01,7.161781787872314453e-01,7.161518931388854980e-01,7.161256074905395508e-01,7.160993218421936035e-01,7.160730361938476562e-01,7.160467505455017090e-01,7.160204648971557617e-01,7.159941792488098145e-01,7.159679532051086426e-01,7.159417271614074707e-01,7.159154415130615234e-01,7.158891558647155762e-01,7.158628702163696289e-01,7.158366441726684570e-01,7.158103585243225098e-01,7.157840728759765625e-01,7.157578468322753906e-01,7.157315611839294434e-01,7.157053351402282715e-01,7.156790494918823242e-01,7.156528234481811523e-01,7.156265377998352051e-01,7.156003117561340332e-01,7.155740261077880859e-01,7.155478596687316895e-01,7.155216336250305176e-01,7.154954075813293457e-01,7.154691219329833984e-01,7.154428958892822266e-01,7.154166698455810547e-01,7.153904438018798828e-01,7.153642177581787109e-01,7.153379917144775391e-01,7.153117656707763672e-01,7.152855396270751953e-01,7.152593135833740234e-01,7.152330875396728516e-01,7.152068614959716797e-01,7.151806354522705078e-01,7.151544094085693359e-01,7.151282429695129395e-01,7.151020169258117676e-01,7.150758504867553711e-01,7.150496244430541992e-01,7.150233983993530273e-01,7.149971723556518555e-01,7.149710059165954590e-01,7.149447798728942871e-01,7.149186134338378906e-01,7.148923873901367188e-01,7.148662209510803223e-01,7.148399949073791504e-01,7.148138284683227539e-01,7.147876024246215820e-01,7.147614359855651855e-01,7.147352695465087891e-01,7.147090435028076172e-01,7.146829366683959961e-01,7.146567702293395996e-01,7.146306037902832031e-01,7.146043777465820312e-01,7.145782113075256348e-01,7.145520448684692383e-01,7.145258784294128418e-01,7.144997119903564453e-01,7.144735455513000488e-01,7.144473791122436523e-01,7.144212126731872559e-01,7.143950462341308594e-01,7.143688797950744629e-01,7.143427133560180664e-01,7.143166065216064453e-01,7.142904400825500488e-01,7.142643332481384277e-01,7.142381668090820312e-01,7.142120599746704102e-01,7.141858935356140137e-01,7.141597270965576172e-01,7.141336202621459961e-01
6.869069337844848633e-01,6.868827342987060547e-01,6.868585348129272461e-01,6.868343353271484375e-01,6.868101954460144043e-01,6.867859959602355957e-01,6.867617964744567871e-01,6.867376565933227539e-01,6.867134571075439453e-01,6.866893172264099121e-01,6.866651773452758789e-01,6.866410374641418457e-01,6.866168379783630371e-01,6.865926980972290039e-01,6.865684986114501953e-01,6.865443587303161621e-01,6.865202188491821289e-01,6.864960193634033203e-01,6.864718794822692871e-01,6.864477396011352539e-01,6.864235997200012207e-01,6.863994002342224121e-01,6.863752603530883789e-01,6.863511204719543457e-01,6.863269805908203125e-01,6.863028407096862793e-01,6.862787604331970215e-01,6.862546205520629883e-01,6.862304806709289551e-01,6.862063407897949219e-01,6.861822009086608887e-01,6.861580610275268555e-01,6.861339211463928223e-01,6.861097812652587891e-01,6.860856413841247559e-01,6.860615015029907227e-01,6.860374212265014648e-01,6.860132813453674316e-01,6.859891414642333984e-01,6.859650611877441406e-01,6.859409213066101074e-01,6.859167814254760742e-01,6.858927607536315918e-01,6.858686208724975586e-01,6.858444809913635254e-01,6.858204007148742676e-01,6.857962608337402344e-01,6.857721805572509766e-01,6.857481002807617188e-01,6.857239603996276855e-01,6.856998801231384277e-01,6.856757402420043945e-01,6.856516599655151367e-01,6.856275796890258789e-01,6.856034994125366211e-01,6.855793595314025879e-01,6.855552792549133301e-01,6.855311989784240723e-01,6.855071187019348145e-01,6.854830980300903320e-01,6.854590177536010742e-01,6.854349374771118164e-01,6.854107975959777832e-01,6.853867769241333008e-01,6.853626966476440430e-01,6.853386163711547852e-01,6.853145360946655273e-01,6.852904558181762695e-01,6.852663755416870117e-01,6.852422952651977539e-01,6.852182149887084961e-01,6.851941347122192383e-01,6.851701140403747559e-01,6.851460337638854980e-01,6.851219534873962402e-01,6.850979924201965332e-01,6.850739121437072754e-01,6.850498318672180176e-01,6.850258111953735352e-01,6.850017309188842773e-01
6.599120497703552246e-01,6.598897576332092285e-01,6.598674058914184570e-01,6.598451137542724609e-01,6.598227620124816895e-01,6.598004698753356934e-01,6.597781777381896973e-01,6.597558259963989258e-01,6.597335338592529297e-01,6.597112417221069336e-01,6.596888899803161621e-01,6.596666574478149414e-01,6.596443653106689453e-01,6.596220731735229492e-01,6.595997214317321777e-01,6.595774292945861816e-01,6.595551371574401855e-01,6.595328450202941895e-01,6.595105528831481934e-01,6.594882607460021973e-01,6.594659686088562012e-01,6.594436764717102051e-01,6.594213843345642090e-01,6.593990921974182129e-01,6.593768000602722168e-01,6.593545079231262207e-01,6.593322157859802246e-01,6.593099832534790039e-01,6.592877507209777832e-01,6.592654585838317871e-01,6.592431664466857910e-01,6.592208743095397949e-01,6.591986417770385742e-01,6.591763496398925781e-01,6.591540575027465820e-01,6.591318249702453613e-01,6.591095328330993652e-01,6.590872406959533691e-01,6.590650081634521484e-01,6.590427160263061523e-01,6.590204834938049316e-01,6.589981913566589355e-01,6.589759588241577148e-01,6.589537262916564941e-01,6.589314937591552734e-01,6.589092016220092773e-01,6.588869690895080566e-01,6.588647365570068359e-01,6.588424444198608398e-01,6.588202118873596191e-01,6.587979793548583984e-01,6.587757468223571777e-01,6.587534546852111816e-01,6.587312221527099609e-01,6.587089896202087402e-01,6.586867570877075195e-01,6.586645245552062988e-01,6.586422920227050781e-01,6.586200594902038574e-01,6.585978269577026367e-01,6.585755944252014160e-01,6.585533618927001953e-01,6.585311293601989746e-01,6.585089564323425293e-01,6.584867238998413086e-01,6.584644913673400879e-01,6.584422588348388672e-01,6.584200263023376465e-01,6.583977937698364258e-01,6.583755612373352051e-01,6.583533883094787598e-01,6.583311557769775391e-01,6.583089232444763184e-01,6.582866907119750977e-01,6.582645177841186523e-01,6.582422852516174316e-01,6.582201123237609863e-01,6.581979393959045410e-01,6.581757068634033203e-01,6.581535339355468750e-01
6.349587440490722656e-01,6.349380612373352051e-01,6.349173784255981445e-01,6.348967552185058594e-01,6.348760724067687988e-01,6.348553895950317383e-01,6.348347663879394531e-01,6.348140835762023926e-01,6.347934603691101074e-01,6.347727775573730469e-01,6.347520947456359863e-01,6.347314715385437012e-01,6.347108483314514160e-01,6.346902251243591309e-01,6.346695423126220703e-01,6.346489191055297852e-01,6.346282958984375000e-01,6.346076130867004395e-01,6.345869898796081543e-01,6.345663666725158691e-01,6.345456838607788086e-01,6.345250606536865234e-01,6.345044374465942383e-01,6.344838142395019531e-01,6.344631314277648926e-01,6.344425082206726074e-01,6.344218850135803223e-01,6.344012618064880371e-01,6.343806982040405273e-01,6.343600749969482422e-01,6.343394517898559570e-01,6.343188285827636719e-01,6.342982053756713867e-01,6.342775821685791016e-01,6.342569589614868164e-01,6.342363357543945312e-01,6.342157125473022461e-01,6.341950893402099609e-01,6.341744661331176758e-01,6.341538429260253906e-01,6.341332197189331055e-01,6.341125965118408203e-01,6.340920329093933105e-01,6.340714097023010254e-01,6.340508460998535156e-01,6.340302228927612305e-01,6.340095996856689453e-01,6.339890360832214355e-01,6.339684128761291504e-01,6.339478492736816406e-01,6.339272260665893555e-01,6.339066028594970703e-01,6.338860392570495605e-01,6.338654160499572754e-01,6.338448524475097656e-01,6.338242292404174805e-01,6.338036656379699707e-01,6.337830424308776855e-01,6.337624788284301758e-01,6.337418556213378906e-01,6.337212920188903809e-01,6.337007284164428711e-01,6.336801648139953613e-01,6.336596012115478516e-01,6.336389780044555664e-01,6.336184144020080566e-01,6.335978507995605469e-01,6.335772871971130371e-01,6.335566639900207520e-01,6.335361003875732422e-01,6.335155367851257324e-01,6.334949731826782227e-01,6.334744095802307129e-01,6.334538459777832031e-01,6.334332823753356934e-01,6.334127187728881836e-01,6.333921551704406738e-01,6.333715915679931641e-01,6.333510279655456543e-01,6.333304643630981445e-01
6.118237972259521484e-01,6.118046045303344727e-01,6.117854118347167969e-01,6.117662191390991211e-01,6.117470264434814453e-01,6.117278337478637695e-01,6.117087006568908691e-01,6.116895079612731934e-01,6.116703152656555176e-01,6.116511225700378418e-01,6.116319894790649414e-01,6.116127967834472656e-01,6.115936040878295898e-01,6.115744709968566895e-01,6.115553379058837891e-01,6.115361452102661133e-01,6.115169525146484375e-01,6.114978194236755371e-01,6.114786267280578613e-01,6.114594936370849609e-01,6.114403009414672852e-01,6.114211678504943848e-01,6.114019751548767090e-01,6.113828420639038086e-01,6.113636493682861328e-01,6.113445162773132324e-01,6.113253235816955566e-01,6.113061904907226562e-01,6.112870573997497559e-01,6.112679243087768555e-01,6.112487912178039551e-01,6.112295985221862793e-01,6.112104654312133789e-01,6.111913323402404785e-01,6.111721992492675781e-01,6.111530065536499023e-01,6.111338734626770020e-01,6.111147403717041016e-01,6.110956072807312012e-01,6.110764741897583008e-01,6.110572814941406250e-01,6.110381484031677246e-01,6.110190153121948242e-01,6.109998822212219238e-01,6.109807491302490234e-01,6.109616756439208984e-01,6.109425425529479980e-01,6.109234094619750977e-01,6.109042763710021973e-01,6.108851432800292969e-01,6.108660101890563965e-01,6.108468770980834961e-01,6.108277440071105957e-01,6.108086109161376953e-01,6.107894778251647949e-01,6.107704043388366699e-01,6.107512712478637695e-01,6.107321381568908691e-01,6.107130050659179688e-01,6.106939315795898438e-01,6.106747984886169434e-01,6.106556653976440430e-01,6.106365919113159180e-01,6.106174588203430176e-01,6.105983853340148926e-01,6.105792522430419922e-01,6.105601787567138672e-01,6.105410456657409668e-01,6.105219125747680664e-01,6.105028390884399414e-01,6.104837059974670410e-01,6.104646325111389160e-01,6.104454994201660156e-01,6.104264259338378906e-01,6.104072928428649902e-01,6.103882193565368652e-01,6.103691458702087402e-01,6.103500127792358398e-01,6.103309988975524902e-01,6.103118658065795898e-01
