5.000000000000000000e+00,5.000000000000000000e+00,5.000000000000000000e+00,5.000000000000000000e+00,5.000000000000000000e+00,5.000000000000000000e+00,5.000000000000000000e+00,5.000000000000000000e+00,5.000000000000000000e+00,5.000000000000000000e+00,5.000000000000000000e+00,5.000000000000000000e+00,5.000000000000000000e+00,5.000000000000000000e+00,5.000000000000000000e+00,5.000000000000000000e+00,5.000000000000000000e+00,5.000000000000000000e+00,5.000000000000000000e+00,5.000000000000000000e+00,5.000000000000000000e+00,5.000000000000000000e+00,5.000000000000000000e+00,5.000000000000000000e+00,5.000000000000000000e+00,5.000000000000000000e+00,5.000000000000000000e+00,5.000000000000000000e+00,5.000000000000000000e+00,5.000000000000000000e+00,5.000000000000000000e+00,5.000000000000000000e+00,5.000000000000000000e+00,5.000000000000000000e+00,5.000000000000000000e+00,5.000000000000000000e+00,5.000000000000000000e+00,5.000000000000000000e+00,5.000000000000000000e+00,4.849353313446044922e+00,4.659449100494384766e+00,4.483858585357666016e+00,4.321021080017089844e+00,4.169596672058105469e+00,4.028425693511962891e+00,3.896501779556274414e+00,3.772943496704101562e+00,3.656980514526367188e+00,3.547933816909790039e+00,3.445201635360717773e+00,3.348251819610595703e+00,3.256608724594116211e+00,3.169848918914794922e+00,3.087591409683227539e+00,3.009495735168457031e+00,2.935252666473388672e+00,2.864584922790527344e+00,2.797239542007446289e+00,2.732988119125366211e+00,2.671622037887573242e+00,2.612951517105102539e+00,2.556802034378051758e+00,2.503015041351318359e+00,2.451444864273071289e+00,2.401956319808959961e+00,2.354426860809326172e+00,2.308741331100463867e+00,2.264795541763305664e+00,2.222491025924682617e+00,2.181738376617431641e+00,2.142452955245971680e+00,2.104557514190673828e+00,2.067978858947753906e+00,2.032650709152221680e+00,1.998509168624877930e+00,1.965495705604553223e+00,1.933554768562316895e+00,1.902635693550109863e+00,1.872689843177795410e+00,1.843671798706054688e+00
5.000000000000000000e+00,5.000000000000000000e+00,5.000000000000000000e+00,5.000000000000000000e+00,5.000000000000000000e+00,5.000000000000000000e+00,5.000000000000000000e+00,5.000000000000000000e+00,5.000000000000000000e+00,5.000000000000000000e+00,5.000000000000000000e+00,5.000000000000000000e+00,5.000000000000000000e+00,5.000000000000000000e+00,5.000000000000000000e+00,5.000000000000000000e+00,5.000000000000000000e+00,5.000000000000000000e+00,5.000000000000000000e+00,5.000000000000000000e+00,5.000000000000000000e+00,5.000000000000000000e+00,5.000000000000000000e+00,5.000000000000000000e+00,5.000000000000000000e+00,5.000000000000000000e+00,5.000000000000000000e+00,5.000000000000000000e+00,5.000000000000000000e+00,5.000000000000000000e+00,5.000000000000000000e+00,5.000000000000000000e+00,5.000000000000000000e+00,5.000000000000000000e+00,5.000000000000000000e+00,5.000000000000000000e+00,5.000000000000000000e+00,5.000000000000000000e+00,5.000000000000000000e+00,4.849491596221923828e+00,4.659576892852783203e+00,4.483976840972900391e+00,4.321130752563476562e+00,4.169699192047119141e+00,4.028521537780761719e+00,3.896590709686279297e+00,3.773026943206787109e+00,3.657059431076049805e+00,3.548007726669311523e+00,3.445271730422973633e+00,3.348317623138427734e+00,3.256671428680419922e+00,3.169907808303833008e+00,3.087647676467895508e+00,3.009548902511596680e+00,2.935303688049316406e+00,2.864633083343505859e+00,2.797285556793212891e+00,2.733031988143920898e+00,2.671664237976074219e+00,2.612991571426391602e+00,2.556840658187866211e+00,2.503051996231079102e+00,2.451480150222778320e+00,2.401990413665771484e+00,2.354459285736083984e+00,2.308772802352905273e+00,2.264825582504272461e+00,2.222520112991333008e+00,2.181766271591186523e+00,2.142480134963989258e+00,2.104583263397216797e+00,2.068004131317138672e+00,2.032675027847290039e+00,1.998532772064208984e+00,1.965518236160278320e+00,1.933576822280883789e+00,1.902657032012939453e+00,1.872710347175598145e+00,1.843691945075988770e+00
5.000000000000000000e+00,5.000000000000000000e+00,5.000000000000000000e+00,5.000000000000000000e+00,5.000000000000000000e+00,5.000000000000000000e+00,5.000000000000000000e+00,5.000000000000000000e+00,5.000000000000000000e+00,5.000000000000000000e+00,5.000000000000000000e+00,5.000000000000000000e+00,5.000000000000000000e+00,5.000000000000000000e+00,5.000000000000000000e+00,5.000000000000000000e+00,5.000000000000000000e+00,5.000000000000000000e+00,5.000000000000000000e+00,5.000000000000000000e+00,5.000000000000000000e+00,5.000000000000000000e+00,5.000000000000000000e+00,5.000000000000000000e+00,5.000000000000000000e+00,5.000000000000000000e+00,5.000000000000000000e+00,5.000000000000000000e+00,5.000000000000000000e+00,5.000000000000000000e+00,5.000000000000000000e+00,5.000000000000000000e+00,5.000000000000000000e+00,5.000000000000000000e+00,5.000000000000000000e+00,5.000000000000000000e+00,5.000000000000000000e+00,5.000000000000000000e+00,5.000000000000000000e+00,4.849629878997802734e+00,4.659704685211181641e+00,4.484095096588134766e+00,4.321240901947021484e+00,4.169801235198974609e+00,4.028616905212402344e+00,3.896680355072021484e+00,3.773111104965209961e+00,3.657138109207153320e+00,3.548082113265991211e+00,3.445341348648071289e+00,3.348383665084838867e+00,3.256733655929565430e+00,3.169967174530029297e+00,3.087703704833984375e+00,3.009602308273315430e+00,2.935354232788085938e+00,2.864681482315063477e+00,2.797331571578979492e+00,2.733076095581054688e+00,2.671706199645996094e+00,2.613031864166259766e+00,2.556879043579101562e+00,2.503088951110839844e+00,2.451515436172485352e+00,2.402024269104003906e+00,2.354491949081420898e+00,2.308804035186767578e+00,2.264855861663818359e+00,2.222549200057983398e+00,2.181794404983520508e+00,2.142506837844848633e+00,2.104609489440917969e+00,2.068029403686523438e+00,2.032699346542358398e+00,1.998556017875671387e+00,1.965541005134582520e+00,1.933598875999450684e+00,1.902678370475769043e+00,1.872730970382690430e+00,1.843711972236633301e+00
5.000000000000000000e+00,5.000000000000000000e+00,5.000000000000000000e+00,5.000000000000000000e+00,5.000000000000000000e+00,5.000000000000000000e+00,5.000000000000000000e+00,5.000000000000000000e+00,5.000000000000000000e+00,5.000000000000000000e+00,5.000000000000000000e+00,5.000000000000000000e+00,5.000000000000000000e+00,5.000000000000000000e+00,5.000000000000000000e+00,5.000000000000000000e+00,5.000000000000000000e+00,5.000000000000000000e+00,5.000000000000000000e+00,5.000000000000000000e+00,5.000000000000000000e+00,5.000000000000000000e+00,5.000000000000000000e+00,5.000000000000000000e+00,5.000000000000000000e+00,5.000000000000000000e+00,5.000000000000000000e+00,5.000000000000000000e+00,5.000000000000000000e+00,5.000000000000000000e+00,5.000000000000000000e+00,5.000000000000000000e+00,5.000000000000000000e+00,5.000000000000000000e+00,5.000000000000000000e+00,5.000000000000000000e+00,5.000000000000000000e+00,5.000000000000000000e+00,5.000000000000000000e+00,4.849768638610839844e+00,4.659832477569580078e+00,4.484213352203369141e+00,4.321350574493408203e+00,4.169903755187988281e+00,4.028712272644042969e+00,3.896769523620605469e+00,3.773195028305053711e+00,3.657217025756835938e+00,3.548156023025512695e+00,3.445411443710327148e+00,3.348449707031250000e+00,3.256796121597290039e+00,3.170026063919067383e+00,3.087759971618652344e+00,3.009655475616455078e+00,2.935405015945434570e+00,2.864729642868041992e+00,2.797377824783325195e+00,2.733119964599609375e+00,2.671748161315917969e+00,2.613071918487548828e+00,2.556917667388916016e+00,2.503125905990600586e+00,2.451550722122192383e+00,2.402058362960815430e+00,2.354524612426757812e+00,2.308835506439208984e+00,2.264885902404785156e+00,2.222578287124633789e+00,2.181822061538696289e+00,2.142534017562866211e+00,2.104635477066040039e+00,2.068054437637329102e+00,2.032723665237426758e+00,1.998579621315002441e+00,1.965563774108886719e+00,1.933620929718017578e+00,1.902699589729309082e+00,1.872751712799072266e+00,1.843731999397277832e+00
5.000000000000000000e+00,5.000000000000000000e+00,5.000000000000000000e+00,5.000000000000000000e+00,5.000000000000000000e+00,5.000000000000000000e+00,5.000000000000000000e+00,5.000000000000000000e+00,5.000000000000000000e+00,5.000000000000000000e+00,5.000000000000000000e+00,5.000000000000000000e+00,5.000000000000000000e+00,5.000000000000000000e+00,5.000000000000000000e+00,5.000000000000000000e+00,5.000000000000000000e+00,5.000000000000000000e+00,5.000000000000000000e+00,5.000000000000000000e+00,5.000000000000000000e+00,5.000000000000000000e+00,5.000000000000000000e+00,5.000000000000000000e+00,5.000000000000000000e+00,5.000000000000000000e+00,5.000000000000000000e+00,5.000000000000000000e+00,5.000000000000000000e+00,5.000000000000000000e+00,5.000000000000000000e+00,5.000000000000000000e+00,5.000000000000000000e+00,5.000000000000000000e+00,5.000000000000000000e+00,5.000000000000000000e+00,5.000000000000000000e+00,5.000000000000000000e+00,5.000000000000000000e+00,4.849906921386718750e+00,4.659960269927978516e+00,4.484332084655761719e+00,4.321460723876953125e+00,4.170006275177001953e+00,4.028808116912841797e+00,3.896859169006347656e+00,3.773278713226318359e+00,3.657295942306518555e+00,3.548230409622192383e+00,3.445481061935424805e+00,3.348515748977661133e+00,3.256858587265014648e+00,3.170085430145263672e+00,3.087815999984741211e+00,3.009708881378173828e+00,2.935455560684204102e+00,2.864778041839599609e+00,2.797423601150512695e+00,2.733164072036743164e+00,2.671790122985839844e+00,2.613112211227416992e+00,2.556956052780151367e+00,2.503162860870361328e+00,2.451586246490478516e+00,2.402092218399047852e+00,2.354557275772094727e+00,2.308866739273071289e+00,2.264916181564331055e+00,2.222607135772705078e+00,2.181850194931030273e+00,2.142560958862304688e+00,2.104661703109741211e+00,2.068079710006713867e+00,2.032747983932495117e+00,1.998603224754333496e+00,1.965586662292480469e+00,1.933642864227294922e+00,1.902720928192138672e+00,1.872772455215454102e+00,1.843752026557922363e+00
5.000000000000000000e+00,5.000000000000000000e+00,5.000000000000000000e+00,5.000000000000000000e+00,5.000000000000000000e+00,5.000000000000000000e+00,5.000000000000000000e+00,5.000000000000000000e+00,5.000000000000000000e+00,5.000000000000000000e+00,5.000000000000000000e+00,5.000000000000000000e+00,5.000000000000000000e+00,5.000000000000000000e+00,5.000000000000000000e+00,5.000000000000000000e+00,5.000000000000000000e+00,5.000000000000000000e+00,5.000000000000000000e+00,5.000000000000000000e+00,5.000000000000000000e+00,5.000000000000000000e+00,5.000000000000000000e+00,5.000000000000000000e+00,5.000000000000000000e+00,5.000000000000000000e+00,5.000000000000000000e+00,5.000000000000000000e+00,5.000000000000000000e+00,5.000000000000000000e+00,5.000000000000000000e+00,5.000000000000000000e+00,5.000000000000000000e+00,5.000000000000000000e+00,5.000000000000000000e+00,5.000000000000000000e+00,5.000000000000000000e+00,5.000000000000000000e+00,5.000000000000000000e+00,4.850045204162597656e+00,4.660088062286376953e+00,4.484450340270996094e+00,4.321570396423339844e+00,4.170108318328857422e+00,4.028903484344482422e+00,3.896948337554931641e+00,3.773362636566162109e+00,3.657374620437622070e+00,3.548304319381713867e+00,3.445551156997680664e+00,3.348581552505493164e+00,3.256921052932739258e+00,3.170144319534301758e+00,3.087872266769409180e+00,3.009762048721313477e+00,2.935506343841552734e+00,2.864826202392578125e+00,2.797469854354858398e+00,2.733207941055297852e+00,2.671832323074340820e+00,2.613152265548706055e+00,2.556994676589965820e+00,2.503199577331542969e+00,2.451621770858764648e+00,2.402126312255859375e+00,2.354589700698852539e+00,2.308898210525512695e+00,2.264946222305297852e+00,2.222636222839355469e+00,2.181878089904785156e+00,2.142587900161743164e+00,2.104687690734863281e+00,2.068104982376098633e+00,2.032772302627563477e+00,1.998626828193664551e+00,1.965609192848205566e+00,1.933664917945861816e+00,1.902742266654968262e+00,1.872793078422546387e+00,1.843771934509277344e+00
5.000000000000000000e+00,5.000000000000000000e+00,5.000000000000000000e+00,5.000000000000000000e+00,5.000000000000000000e+00,5.000000000000000000e+00,5.000000000000000000e+00,5.000000000000000000e+00,5.000000000000000000e+00,5.000000000000000000e+00,5.000000000000000000e+00,5.000000000000000000e+00,5.000000000000000000e+00,5.000000000000000000e+00,5.000000000000000000e+00,5.000000000000000000e+00,5.000000000000000000e+00,5.000000000000000000e+00,5.000000000000000000e+00,5.000000000000000000e+00,5.000000000000000000e+00,5.000000000000000000e+00,5.000000000000000000e+00,5.000000000000000000e+00,5.000000000000000000e+00,5.000000000000000000e+00,3.870595693588256836e+00,5.000000000000000000e+00,5.000000000000000000e+00,5.000000000000000000e+00,5.000000000000000000e+00,5.000000000000000000e+00,5.000000000000000000e+00,5.000000000000000000e+00,5.000000000000000000e+00,5.000000000000000000e+00,5.000000000000000000e+00,5.000000000000000000e+00,5.000000000000000000e+00,4.850183963775634766e+00,4.660215854644775391e+00,4.484568595886230469e+00,4.321680545806884766e+00,4.170210838317871094e+00,4.028999328613281250e+00,3.897037982940673828e+00,3.773446321487426758e+00,3.657453536987304688e+00,3.548378467559814453e+00,3.445621013641357422e+00,3.348647832870483398e+00,3.256983280181884766e+00,3.170203685760498047e+00,3.087928295135498047e+00,3.009815692901611328e+00,2.935557126998901367e+00,2.864874601364135742e+00,2.797515869140625000e+00,2.733252048492431641e+00,2.671874284744262695e+00,2.613192558288574219e+00,2.557033061981201172e+00,2.503236532211303711e+00,2.451657056808471680e+00,2.402160167694091797e+00,2.354622602462768555e+00,2.308929443359375000e+00,2.264976501464843750e+00,2.222665309906005859e+00,2.181906223297119141e+00,2.142614841461181641e+00,2.104713678359985352e+00,2.068130016326904297e+00,2.032796621322631836e+00,1.998650074005126953e+00,1.965631961822509766e+00,1.933686971664428711e+00,1.902763605117797852e+00,1.872813582420349121e+00,1.843791961669921875e+00
5.000000000000000000e+00,5.000000000000000000e+00,5.000000000000000000e+00,5.000000000000000000e+00,5.000000000000000000e+00,5.000000000000000000e+00,5.000000000000000000e+00,5.000000000000000000e+00,5.000000000000000000e+00,5.000000000000000000e+00,5.000000000000000000e+00,5.000000000000000000e+00,5.000000000000000000e+00,5.000000000000000000e+00,5.000000000000000000e+00,5.000000000000000000e+00,5.000000000000000000e+00,5.000000000000000000e+00,5.000000000000000000e+00,5.000000000000000000e+00,5.000000000000000000e+00,5.000000000000000000e+00,5.000000000000000000e+00,5.000000000000000000e+00,5.000000000000000000e+00,3.919700145721435547e+00,3.868234395980834961e+00,3.899642705917358398e+00,5.000000000000000000e+00,5.000000000000000000e+00,5.000000000000000000e+00,5.000000000000000000e+00,5.000000000000000000e+00,5.000000000000000000e+00,5.000000000000000000e+00,5.000000000000000000e+00,5.000000000000000000e+00,5.000000000000000000e+00,5.000000000000000000e+00,4.850322246551513672e+00,4.660344123840332031e+00,4.484686851501464844e+00,4.321790695190429688e+00,4.170313358306884766e+00,4.029094696044921875e+00,3.897127151489257812e+00,3.773530244827270508e+00,3.657531976699829102e+00,3.548452854156494141e+00,3.445690870285034180e+00,3.348713636398315430e+00,3.257045984268188477e+00,3.170262813568115234e+00,3.087984561920166016e+00,3.009868860244750977e+00,2.935607910156250000e+00,2.864922761917114258e+00,2.797561883926391602e+00,2.733295917510986328e+00,2.671916246414184570e+00,2.613232612609863281e+00,2.557071447372436523e+00,2.503273487091064453e+00,2.451692581176757812e+00,2.402194261550903320e+00,2.354654788970947266e+00,2.308960914611816406e+00,2.265006542205810547e+00,2.222694396972656250e+00,2.181934118270874023e+00,2.142642021179199219e+00,2.104739904403686523e+00,2.068155288696289062e+00,2.032820940017700195e+00,1.998673677444458008e+00,1.965654730796813965e+00,1.933709025382995605e+00,1.902784824371337891e+00,1.872834324836730957e+00,1.843812108039855957e+00
5.000000000000000000e+00,5.000000000000000000e+00,5.000000000000000000e+00,5.000000000000000000e+00,5.000000000000000000e+00,5.000000000000000000e+00,5.000000000000000000e+00,5.000000000000000000e+00,5.000000000000000000e+00,5.000000000000000000e+00,5.000000000000000000e+00,5.000000000000000000e+00,5.000000000000000000e+00,5.000000000000000000e+00,5.000000000000000000e+00,5.000000000000000000e+00,5.000000000000000000e+00,5.000000000000000000e+00,5.000000000000000000e+00,5.000000000000000000e+00,5.000000000000000000e+00,5.000000000000000000e+00,5.000000000000000000e+00,5.000000000000000000e+00,5.000000000000000000e+00,5.000000000000000000e+00,3.886976003646850586e+00,3.922596693038940430e+00,5.000000000000000000e+00,5.000000000000000000e+00,5.000000000000000000e+00,5.000000000000000000e+00,5.000000000000000000e+00,5.000000000000000000e+00,5.000000000000000000e+00,5.000000000000000000e+00,5.000000000000000000e+00,5.000000000000000000e+00,5.000000000000000000e+00,4.850461006164550781e+00,4.660471916198730469e+00,4.484805583953857422e+00,4.321900367736816406e+00,4.170415401458740234e+00,4.029190063476562500e+00,3.897216796875000000e+00,3.773613929748535156e+00,3.657610893249511719e+00,3.548526763916015625e+00,3.445760965347290039e+00,3.348779678344726562e+00,3.257108211517333984e+00,3.170321941375732422e+00,3.088040590286254883e+00,3.009922266006469727e+00,2.935658454895019531e+00,2.864971399307250977e+00,2.797607898712158203e+00,2.733340024948120117e+00,2.671958208084106445e+00,2.613272905349731445e+00,2.557109832763671875e+00,2.503310441970825195e+00,2.451727867126464844e+00,2.402227878570556641e+00,2.354687452316284180e+00,2.308992147445678711e+00,2.265036821365356445e+00,2.222723484039306641e+00,2.181962251663208008e+00,2.142668962478637695e+00,2.104765892028808594e+00,2.068180322647094727e+00,2.032845258712768555e+00,1.998697280883789062e+00,1.965677618980407715e+00,1.933730840682983398e+00,1.902806162834167480e+00,1.872854948043823242e+00,1.843832135200500488e+00
5.000000000000000000e+00,5.000000000000000000e+00,5.000000000000000000e+00,5.000000000000000000e+00,5.000000000000000000e+00,5.000000000000000000e+00,5.000000000000000000e+00,5.000000000000000000e+00,5.000000000000000000e+00,5.000000000000000000e+00,5.000000000000000000e+00,5.000000000000000000e+00,5.000000000000000000e+00,5.000000000000000000e+00,5.000000000000000000e+00,5.000000000000000000e+00,5.000000000000000000e+00,5.000000000000000000e+00,5.000000000000000000e+00,5.000000000000000000e+00,5.000000000000000000e+00,5.000000000000000000e+00,5.000000000000000000e+00,5.000000000000000000e+00,5.000000000000000000e+00,5.000000000000000000e+00,3.953168630599975586e+00,5.000000000000000000e+00,5.000000000000000000e+00,5.000000000000000000e+00,5.000000000000000000e+00,5.000000000000000000e+00,5.000000000000000000e+00,5.000000000000000000e+00,5.000000000000000000e+00,5.000000000000000000e+00,5.000000000000000000e+00,5.000000000000000000e+00,5.000000000000000000e+00,4.850599288940429688e+00,4.660599708557128906e+00,4.484923839569091797e+00,4.322010517120361328e+00,4.170517921447753906e+00,4.029285907745361328e+00,3.897305965423583984e+00,3.773697853088378906e+00,3.657689571380615234e+00,3.548601150512695312e+00,3.445830821990966797e+00,3.348845481872558594e+00,3.257170915603637695e+00,3.170381069183349609e+00,3.088096857070922852e+00,3.009975433349609375e+00,2.935709238052368164e+00,2.865019559860229492e+00,2.797654151916503906e+00,2.733383893966674805e+00,2.672000408172607422e+00,2.613312959671020508e+00,2.557148456573486328e+00,2.503347158432006836e+00,2.451762914657592773e+00,2.402261734008789062e+00,2.354720354080200195e+00,2.309023618698120117e+00,2.265066862106323242e+00,2.222752571105957031e+00,2.181990146636962891e+00,2.142696142196655273e+00,2.104791879653930664e+00,2.068205595016479492e+00,2.032869577407836914e+00,1.998720884323120117e+00,1.965700149536132812e+00,1.933752894401550293e+00,1.902827501296997070e+00,1.872875690460205078e+00,1.843851923942565918e+00
5.000000000000000000e+00,5.000000000000000000e+00,5.000000000000000000e+00,5.000000000000000000e+00,5.000000000000000000e+00,5.000000000000000000e+00,5.000000000000000000e+00,5.000000000000000000e+00,5.000000000000000000e+00,5.000000000000000000e+00,5.000000000000000000e+00,5.000000000000000000e+00,5.000000000000000000e+00,5.000000000000000000e+00,5.000000000000000000e+00,5.000000000000000000e+00,5.000000000000000000e+00,5.000000000000000000e+00,5.000000000000000000e+00,5.000000000000000000e+00,5.000000000000000000e+00,5.000000000000000000e+00,5.000000000000000000e+00,3.813565731048583984e+00,3.849262237548828125e+00,3.861724376678466797e+00,3.895256280899047852e+00,3.918048858642578125e+00,4.020933151245117188e+00,4.067763805389404297e+00,5.000000000000000000e+00,5.000000000000000000e+00,5.000000000000000000e+00,5.000000000000000000e+00,5.000000000000000000e+00,5.000000000000000000e+00,5.000000000000000000e+00,5.000000000000000000e+00,5.000000000000000000e+00,4.850737571716308594e+00,4.660727500915527344e+00,4.485042095184326172e+00,4.322120189666748047e+00,4.170620441436767578e+00,4.029381275177001953e+00,3.897395610809326172e+00,3.773781538009643555e+00,3.657768487930297852e+00,3.548675060272216797e+00,3.445900917053222656e+00,3.348911762237548828e+00,3.257233142852783203e+00,3.170440435409545898e+00,3.088152647018432617e+00,3.010028839111328125e+00,2.935760021209716797e+00,2.865067958831787109e+00,2.797700166702270508e+00,2.733427762985229492e+00,2.672042369842529297e+00,2.613353252410888672e+00,2.557186841964721680e+00,2.503383874893188477e+00,2.451798200607299805e+00,2.402295827865600586e+00,2.354752779006958008e+00,2.309054851531982422e+00,2.265097141265869141e+00,2.222781658172607422e+00,2.182018280029296875e+00,2.142723083496093750e+00,2.104818105697631836e+00,2.068230628967285156e+00,2.032893896102905273e+00,1.998744130134582520e+00,1.965722918510437012e+00,1.933774948120117188e+00,1.902848839759826660e+00,1.872896194458007812e+00,1.843872070312500000e+00
5.000000000000000000e+00,5.000000000000000000e+00,5.000000000000000000e+00,5.000000000000000000e+00,5.000000000000000000e+00,5.000000000000000000e+00,5.000000000000000000e+00,5.000000000000000000e+00,5.000000000000000000e+00,5.000000000000000000e+00,5.000000000000000000e+00,5.000000000000000000e+00,5.000000000000000000e+00,5.000000000000000000e+00,5.000000000000000000e+00,5.000000000000000000e+00,5.000000000000000000e+00,5.000000000000000000e+00,5.000000000000000000e+00,5.000000000000000000e+00,5.000000000000000000e+00,5.000000000000000000e+00,5.000000000000000000e+00,3.828582763671875000e+00,3.837801694869995117e+00,3.831118822097778320e+00,3.847482919692993164e+00,3.887057781219482422e+00,3.957267999649047852e+00,4.065214157104492188e+00,5.000000000000000000e+00,5.000000000000000000e+00,5.000000000000000000e+00,5.000000000000000000e+00,5.000000000000000000e+00,5.000000000000000000e+00,5.000000000000000000e+00,5.000000000000000000e+00,5.000000000000000000e+00,4.850876331329345703e+00,4.660855293273925781e+00,4.485160350799560547e+00,4.322230339050292969e+00,4.170722961425781250e+00,4.029477119445800781e+00,3.897484779357910156e+00,3.773865461349487305e+00,3.657846927642822266e+00,3.548749208450317383e+00,3.445970535278320312e+00,3.348978042602539062e+00,3.257295846939086914e+00,3.170499324798583984e+00,3.088208913803100586e+00,3.010082006454467773e+00,2.935810804367065430e+00,2.865116119384765625e+00,2.797746181488037109e+00,2.733471632003784180e+00,2.672084331512451172e+00,2.613393545150756836e+00,2.557225465774536133e+00,2.503420591354370117e+00,2.451833724975585938e+00,2.402329683303833008e+00,2.354785442352294922e+00,2.309086322784423828e+00,2.265127420425415039e+00,2.222810745239257812e+00,2.182046175003051758e+00,2.142750024795532227e+00,2.104844093322753906e+00,2.068255901336669922e+00,2.032918214797973633e+00,1.998767733573913574e+00,1.965745806694030762e+00,1.933797001838684082e+00,1.902870059013366699e+00,1.872916817665100098e+00,1.843892097473144531e+00
5.000000000000000000e+00,5.000000000000000000e+00,5.000000000000000000e+00,5.000000000000000000e+00,5.000000000000000000e+00,5.000000000000000000e+00,5.000000000000000000e+00,5.000000000000000000e+00,5.000000000000000000e+00,5.000000000000000000e+00,5.000000000000000000e+00,5.000000000000000000e+00,5.000000000000000000e+00,5.000000000000000000e+00,5.000000000000000000e+00,5.000000000000000000e+00,5.000000000000000000e+00,5.000000000000000000e+00,5.000000000000000000e+00,5.000000000000000000e+00,5.000000000000000000e+00,5.000000000000000000e+00,5.000000000000000000e+00,3.855797767639160156e+00,3.862686157226562500e+00,3.840253829956054688e+00,3.846407651901245117e+00,3.889905214309692383e+00,3.953975915908813477e+00,4.069051265716552734e+00,5.000000000000000000e+00,5.000000000000000000e+00,5.000000000000000000e+00,5.000000000000000000e+00,5.000000000000000000e+00,5.000000000000000000e+00,5.000000000000000000e+00,5.000000000000000000e+00,5.000000000000000000e+00,4.851014614105224609e+00,4.660983085632324219e+00,4.485279083251953125e+00,4.322340011596679688e+00,4.170825004577636719e+00,4.029572486877441406e+00,3.897574424743652344e+00,3.773949146270751953e+00,3.657925844192504883e+00,3.548823118209838867e+00,3.446040630340576172e+00,3.349043846130371094e+00,3.257358074188232422e+00,3.170558691024780273e+00,3.088264942169189453e+00,3.010135650634765625e+00,2.935861349105834961e+00,2.865164518356323242e+00,2.797792196273803711e+00,2.733515739440917969e+00,2.672126293182373047e+00,2.613433599472045898e+00,2.557263612747192383e+00,2.503457546234130859e+00,2.451869010925292969e+00,2.402363777160644531e+00,2.354818105697631836e+00,2.309117794036865234e+00,2.265157699584960938e+00,2.222839832305908203e+00,2.182074308395385742e+00,2.142776966094970703e+00,2.104870319366455078e+00,2.068281173706054688e+00,2.032942533493041992e+00,1.998791337013244629e+00,1.965768575668334961e+00,1.933818936347961426e+00,1.902891397476196289e+00,1.872937560081481934e+00,1.843912124633789062e+00
5.000000000000000000e+00,5.000000000000000000e+00,5.000000000000000000e+00,5.000000000000000000e+00,5.000000000000000000e+00,5.000000000000000000e+00,5.000000000000000000e+00,5.000000000000000000e+00,5.000000000000000000e+00,5.000000000000000000e+00,5.000000000000000000e+00,5.000000000000000000e+00,5.000000000000000000e+00,5.000000000000000000e+00,5.000000000000000000e+00,5.000000000000000000e+00,5.000000000000000000e+00,5.000000000000000000e+00,5.000000000000000000e+00,5.000000000000000000e+00,5.000000000000000000e+00,5.000000000000000000e+00,5.000000000000000000e+00,3.868297815322875977e+00,3.885092258453369141e+00,3.838619470596313477e+00,3.847062349319458008e+00,3.881923437118530273e+00,3.973949432373046875e+00,4.058265209197998047e+00,5.000000000000000000e+00,5.000000000000000000e+00,5.000000000000000000e+00,5.000000000000000000e+00,5.000000000000000000e+00,5.000000000000000000e+00,5.000000000000000000e+00,5.000000000000000000e+00,5.000000000000000000e+00,4.851153373718261719e+00,4.661110877990722656e+00,4.485397338867187500e+00,4.322450160980224609e+00,4.170927524566650391e+00,4.029667854309082031e+00,3.897663593292236328e+00,3.774033308029174805e+00,3.658004522323608398e+00,3.548897504806518555e+00,3.446110248565673828e+00,3.349109888076782227e+00,3.257420539855957031e+00,3.170617818832397461e+00,3.088321208953857422e+00,3.010188817977905273e+00,2.935912370681762695e+00,2.865212678909301758e+00,2.797838449478149414e+00,2.733559608459472656e+00,2.672168493270874023e+00,2.613473653793334961e+00,2.557302236557006836e+00,2.503494501113891602e+00,2.451904535293579102e+00,2.402397632598876953e+00,2.354850769042968750e+00,2.309149026870727539e+00,2.265187978744506836e+00,2.222868919372558594e+00,2.182102203369140625e+00,2.142804145812988281e+00,2.104896306991577148e+00,2.068306207656860352e+00,2.032966852188110352e+00,1.998814940452575684e+00,1.965791106224060059e+00,1.933840990066528320e+00,1.902912735939025879e+00,1.872958302497863770e+00,1.843932032585144043e+00
5.000000000000000000e+00,5.000000000000000000e+00,5.000000000000000000e+00,5.000000000000000000e+00,5.000000000000000000e+00,5.000000000000000000e+00,5.000000000000000000e+00,5.000000000000000000e+00,5.000000000000000000e+00,5.000000000000000000e+00,5.000000000000000000e+00,5.000000000000000000e+00,5.000000000000000000e+00,5.000000000000000000e+00,5.000000000000000000e+00,5.000000000000000000e+00,5.000000000000000000e+00,5.000000000000000000e+00,5.000000000000000000e+00,5.000000000000000000e+00,5.000000000000000000e+00,5.000000000000000000e+00,5.000000000000000000e+00,3.882741212844848633e+00,3.891484022140502930e+00,3.833017587661743164e+00,3.844369411468505859e+00,3.889829397201538086e+00,3.997756481170654297e+00,4.065158367156982422e+00,5.000000000000000000e+00,5.000000000000000000e+00,5.000000000000000000e+00,5.000000000000000000e+00,5.000000000000000000e+00,5.000000000000000000e+00,5.000000000000000000e+00,5.000000000000000000e+00,5.000000000000000000e+00,4.851291656494140625e+00,4.661239147186279297e+00,4.485515594482421875e+00,4.322560310363769531e+00,4.171030044555664062e+00,4.029763698577880859e+00,3.897753238677978516e+00,3.774116992950439453e+00,3.658083438873291016e+00,3.548971414566040039e+00,3.446180343627929688e+00,3.349175930023193359e+00,3.257483243942260742e+00,3.170676946640014648e+00,3.088377237319946289e+00,3.010242223739624023e+00,2.935962915420532227e+00,2.865261316299438477e+00,2.797884464263916016e+00,2.733603477478027344e+00,2.672210216522216797e+00,2.613513946533203125e+00,2.557340621948242188e+00,2.503531455993652344e+00,2.451939821243286133e+00,2.402431726455688477e+00,2.354883432388305664e+00,2.309180498123168945e+00,2.265218019485473633e+00,2.222898006439208984e+00,2.182130336761474609e+00,2.142831087112426758e+00,2.104922294616699219e+00,2.068331480026245117e+00,2.032991170883178711e+00,1.998838186264038086e+00,1.965813875198364258e+00,1.933863043785095215e+00,1.902934074401855469e+00,1.872978806495666504e+00,1.843952059745788574e+00
5.000000000000000000e+00,5.000000000000000000e+00,5.000000000000000000e+00,5.000000000000000000e+00,5.000000000000000000e+00,5.000000000000000000e+00,5.000000000000000000e+00,5.000000000000000000e+00,5.000000000000000000e+00,5.000000000000000000e+00,5.000000000000000000e+00,5.000000000000000000e+00,5.000000000000000000e+00,5.000000000000000000e+00,5.000000000000000000e+00,5.000000000000000000e+00,5.000000000000000000e+00,5.000000000000000000e+00,5.000000000000000000e+00,5.000000000000000000e+00,5.000000000000000000e+00,5.000000000000000000e+00,5.000000000000000000e+00,3.896150350570678711e+00,3.868563175201416016e+00,3.827513217926025391e+00,3.833514213562011719e+00,3.872675418853759766e+00,3.940782070159912109e+00,4.078235149383544922e+00,5.000000000000000000e+00,5.000000000000000000e+00,5.000000000000000000e+00,5.000000000000000000e+00,5.000000000000000000e+00,5.000000000000000000e+00,5.000000000000000000e+00,5.000000000000000000e+00,5.000000000000000000e+00,4.851430416107177734e+00,4.661366939544677734e+00,4.485634326934814453e+00,4.322669982910156250e+00,4.171132087707519531e+00,4.029859066009521484e+00,3.897842407226562500e+00,3.774200916290283203e+00,3.658162117004394531e+00,3.549045801162719727e+00,3.446250200271606445e+00,3.349241971969604492e+00,3.257545471191406250e+00,3.170736074447631836e+00,3.088433504104614258e+00,3.010295391082763672e+00,2.936013698577880859e+00,2.865309476852416992e+00,2.797930717468261719e+00,2.733647346496582031e+00,2.672252178192138672e+00,2.613554000854492188e+00,2.557379245758056641e+00,2.503568172454833984e+00,2.451975345611572266e+00,2.402465581893920898e+00,2.354916095733642578e+00,2.309211969375610352e+00,2.265248298645019531e+00,2.222927093505859375e+00,2.182158470153808594e+00,2.142858266830444336e+00,2.104948520660400391e+00,2.068356752395629883e+00,2.033015489578247070e+00,1.998861789703369141e+00,1.965836763381958008e+00,1.933885097503662109e+00,1.902955293655395508e+00,1.872999429702758789e+00,1.843972206115722656e+00
5.000000000000000000e+00,5.000000000000000000e+00,5.000000000000000000e+00,5.000000000000000000e+00,5.000000000000000000e+00,5.000000000000000000e+00,5.000000000000000000e+00,5.000000000000000000e+00,5.000000000000000000e+00,5.000000000000000000e+00,5.000000000000000000e+00,5.000000000000000000e+00,5.000000000000000000e+00,5.000000000000000000e+00,5.000000000000000000e+00,5.000000000000000000e+00,5.000000000000000000e+00,5.000000000000000000e+00,5.000000000000000000e+00,5.000000000000000000e+00,5.000000000000000000e+00,5.000000000000000000e+00,5.000000000000000000e+00,3.872385740280151367e+00,3.880223989486694336e+00,3.841141939163208008e+00,3.854933977127075195e+00,3.882839679718017578e+00,3.954381465911865234e+00,4.062250137329101562e+00,4.073286533355712891e+00,5.000000000000000000e+00,5.000000000000000000e+00,5.000000000000000000e+00,5.000000000000000000e+00,5.000000000000000000e+00,5.000000000000000000e+00,5.000000000000000000e+00,5.000000000000000000e+00,4.851568698883056641e+00,4.661494731903076172e+00,4.485752582550048828e+00,4.322780132293701172e+00,4.171234607696533203e+00,4.029954910278320312e+00,3.897932052612304688e+00,3.774284601211547852e+00,3.658241033554077148e+00,3.549119710922241211e+00,3.446320295333862305e+00,3.349308013916015625e+00,3.257608175277709961e+00,3.170795440673828125e+00,3.088489532470703125e+00,3.010348796844482422e+00,2.936064481735229492e+00,2.865357875823974609e+00,2.797976493835449219e+00,2.733691453933715820e+00,2.672294139862060547e+00,2.613594293594360352e+00,2.557417631149291992e+00,2.503605127334594727e+00,2.452010631561279297e+00,2.402499675750732422e+00,2.354948759078979492e+00,2.309243440628051758e+00,2.265278339385986328e+00,2.222956180572509766e+00,2.182186365127563477e+00,2.142885208129882812e+00,2.104974508285522461e+00,2.068381786346435547e+00,2.033039808273315430e+00,1.998885393142700195e+00,1.965859532356262207e+00,1.933906912803649902e+00,1.902976632118225098e+00,1.873020172119140625e+00,1.843992233276367188e+00
5.000000000000000000e+00,5.000000000000000000e+00,5.000000000000000000e+00,5.000000000000000000e+00,5.000000000000000000e+00,5.000000000000000000e+00,5.000000000000000000e+00,5.000000000000000000e+00,5.000000000000000000e+00,5.000000000000000000e+00,5.000000000000000000e+00,5.000000000000000000e+00,5.000000000000000000e+00,5.000000000000000000e+00,5.000000000000000000e+00,5.000000000000000000e+00,5.000000000000000000e+00,5.000000000000000000e+00,5.000000000000000000e+00,5.000000000000000000e+00,5.000000000000000000e+00,5.000000000000000000e+00,5.000000000000000000e+00,3.860075950622558594e+00,3.848011970520019531e+00,3.771989583969116211e+00,3.788634538650512695e+00,3.926652669906616211e+00,3.939445972442626953e+00,5.000000000000000000e+00,4.035341739654541016e+00,5.000000000000000000e+00,5.000000000000000000e+00,5.000000000000000000e+00,5.000000000000000000e+00,5.000000000000000000e+00,5.000000000000000000e+00,5.000000000000000000e+00,5.000000000000000000e+00,4.851707458496093750e+00,4.661622524261474609e+00,4.485871315002441406e+00,4.322890281677246094e+00,4.171337127685546875e+00,4.030050277709960938e+00,3.898021221160888672e+00,3.774368524551391602e+00,3.658319473266601562e+00,3.549194097518920898e+00,3.446389913558959961e+00,3.349374055862426758e+00,3.257670402526855469e+00,3.170854806900024414e+00,3.088545799255371094e+00,3.010401964187622070e+00,2.936115264892578125e+00,2.865405797958374023e+00,2.798022508621215820e+00,2.733735322952270508e+00,2.672336339950561523e+00,2.613634347915649414e+00,2.557456254959106445e+00,2.503642082214355469e+00,2.452046155929565430e+00,2.402533531188964844e+00,2.354981422424316406e+00,2.309274673461914062e+00,2.265308618545532227e+00,2.222985267639160156e+00,2.182214498519897461e+00,2.142912149429321289e+00,2.105000495910644531e+00,2.068407058715820312e+00,2.033064126968383789e+00,1.998908996582031250e+00,1.965882062911987305e+00,1.933928966522216797e+00,1.902997970581054688e+00,1.873040795326232910e+00,1.844012022018432617e+00
5.000000000000000000e+00,5.000000000000000000e+00,5.000000000000000000e+00,5.000000000000000000e+00,5.000000000000000000e+00,5.000000000000000000e+00,5.000000000000000000e+00,5.000000000000000000e+00,5.000000000000000000e+00,5.000000000000000000e+00,5.000000000000000000e+00,5.000000000000000000e+00,5.000000000000000000e+00,5.000000000000000000e+00,5.000000000000000000e+00,5.000000000000000000e+00,5.000000000000000000e+00,5.000000000000000000e+00,5.000000000000000000e+00,5.000000000000000000e+00,5.000000000000000000e+00,5.000000000000000000e+00,5.000000000000000000e+00,3.849913120269775391e+00,3.878999233245849609e+00,3.740883588790893555e+00,3.742603540420532227e+00,3.903489828109741211e+00,3.916455507278442383e+00,5.000000000000000000e+00,4.016497611999511719e+00,5.000000000000000000e+00,5.000000000000000000e+00,5.000000000000000000e+00,5.000000000000000000e+00,5.000000000000000000e+00,5.000000000000000000e+00,5.000000000000000000e+00,5.000000000000000000e+00,4.851845741271972656e+00,4.661750316619873047e+00,4.485989570617675781e+00,4.322999954223632812e+00,4.171439647674560547e+00,4.030146121978759766e+00,3.898110866546630859e+00,3.774452209472656250e+00,3.658398389816284180e+00,3.549268007278442383e+00,3.446460008621215820e+00,3.349439859390258789e+00,3.257733106613159180e+00,3.170913696289062500e+00,3.088602066040039062e+00,3.010455608367919922e+00,2.936165571212768555e+00,2.865454196929931641e+00,2.798068523406982422e+00,2.733779430389404297e+00,2.672378301620483398e+00,2.613674879074096680e+00,2.557494640350341797e+00,2.503679037094116211e+00,2.452081441879272461e+00,2.402567625045776367e+00,2.355013847351074219e+00,2.309306144714355469e+00,2.265338897705078125e+00,2.223014354705810547e+00,2.182242393493652344e+00,2.142939090728759766e+00,2.105026721954345703e+00,2.068432092666625977e+00,2.033088445663452148e+00,1.998932361602783203e+00,1.965904951095581055e+00,1.933951020240783691e+00,1.903019428253173828e+00,1.873061299324035645e+00,1.844032168388366699e+00
5.000000000000000000e+00,5.000000000000000000e+00,5.000000000000000000e+00,5.000000000000000000e+00,5.000000000000000000e+00,5.000000000000000000e+00,5.000000000000000000e+00,5.000000000000000000e+00,5.000000000000000000e+00,5.000000000000000000e+00,5.000000000000000000e+00,5.000000000000000000e+00,5.000000000000000000e+00,5.000000000000000000e+00,5.000000000000000000e+00,5.000000000000000000e+00,5.000000000000000000e+00,5.000000000000000000e+00,5.000000000000000000e+00,5.000000000000000000e+00,5.000000000000000000e+00,5.000000000000000000e+00,5.000000000000000000e+00,3.843205690383911133e+00,3.814652204513549805e+00,3.715595006942749023e+00,3.706185102462768555e+00,3.900959730148315430e+00,3.914123058319091797e+00,5.000000000000000000e+00,5.000000000000000000e+00,5.000000000000000000e+00,5.000000000000000000e+00,5.000000000000000000e+00,5.000000000000000000e+00,5.000000000000000000e+00,5.000000000000000000e+00,5.000000000000000000e+00,5.000000000000000000e+00,4.851984500885009766e+00,4.661878585815429688e+00,4.486107826232910156e+00,4.323110103607177734e+00,4.171542167663574219e+00,4.030241489410400391e+00,3.898200035095214844e+00,3.774536371231079102e+00,3.658477067947387695e+00,3.549342393875122070e+00,3.446529865264892578e+00,3.349506139755249023e+00,3.257795333862304688e+00,3.170973062515258789e+00,3.088658094406127930e+00,3.010508537292480469e+00,2.936216592788696289e+00,2.865502357482910156e+00,2.798114776611328125e+00,2.733823299407958984e+00,2.672420501708984375e+00,2.613714933395385742e+00,2.557533264160156250e+00,2.503715753555297852e+00,2.452116966247558594e+00,2.402601480484008789e+00,2.355046749114990234e+00,2.309337377548217773e+00,2.265369176864624023e+00,2.223043441772460938e+00,2.182270526885986328e+00,2.142966270446777344e+00,2.105052709579467773e+00,2.068457365036010742e+00,2.033112764358520508e+00,1.998955845832824707e+00,1.965927720069885254e+00,1.933973193168640137e+00,1.903040528297424316e+00,1.873082041740417480e+00,1.844052195549011230e+00
5.000000000000000000e+00,5.000000000000000000e+00,5.000000000000000000e+00,5.000000000000000000e+00,5.000000000000000000e+00,5.000000000000000000e+00,5.000000000000000000e+00,5.000000000000000000e+00,5.000000000000000000e+00,5.000000000000000000e+00,5.000000000000000000e+00,5.000000000000000000e+00,5.000000000000000000e+00,5.000000000000000000e+00,5.000000000000000000e+00,5.000000000000000000e+00,5.000000000000000000e+00,5.000000000000000000e+00,5.000000000000000000e+00,5.000000000000000000e+00,5.000000000000000000e+00,5.000000000000000000e+00,5.000000000000000000e+00,3.841363906860351562e+00,5.000000000000000000e+00,3.727530956268310547e+00,3.673803329467773438e+00,3.749974727630615234e+00,3.917638301849365234e+00,5.000000000000000000e+00,5.000000000000000000e+00,5.000000000000000000e+00,5.000000000000000000e+00,5.000000000000000000e+00,5.000000000000000000e+00,5.000000000000000000e+00,5.000000000000000000e+00,5.000000000000000000e+00,5.000000000000000000e+00,4.852123260498046875e+00,4.662006378173828125e+00,4.486226558685302734e+00,4.323220252990722656e+00,4.171644210815429688e+00,4.030337333679199219e+00,3.898289918899536133e+00,3.774620056152343750e+00,3.658555984497070312e+00,3.549416303634643555e+00,3.446599960327148438e+00,3.349571943283081055e+00,3.257858037948608398e+00,3.171032190322875977e+00,3.088714122772216797e+00,3.010561943054199219e+00,2.936267137527465820e+00,2.865550994873046875e+00,2.798160791397094727e+00,2.733867406845092773e+00,2.672462224960327148e+00,2.613755226135253906e+00,2.557571649551391602e+00,2.503752708435058594e+00,2.452152252197265625e+00,2.402635574340820312e+00,2.355079174041748047e+00,2.309368848800659180e+00,2.265399217605590820e+00,2.223072528839111328e+00,2.182298660278320312e+00,2.142993450164794922e+00,2.105078935623168945e+00,2.068482637405395508e+00,2.033137321472167969e+00,1.998979449272155762e+00,1.965950489044189453e+00,1.933995008468627930e+00,1.903061866760253906e+00,1.873102784156799316e+00,1.844072222709655762e+00
5.000000000000000000e+00,5.000000000000000000e+00,5.000000000000000000e+00,5.000000000000000000e+00,5.000000000000000000e+00,5.000000000000000000e+00,5.000000000000000000e+00,5.000000000000000000e+00,5.000000000000000000e+00,5.000000000000000000e+00,5.000000000000000000e+00,5.000000000000000000e+00,5.000000000000000000e+00,5.000000000000000000e+00,5.000000000000000000e+00,5.000000000000000000e+00,5.000000000000000000e+00,5.000000000000000000e+00,5.000000000000000000e+00,5.000000000000000000e+00,5.000000000000000000e+00,5.000000000000000000e+00,5.000000000000000000e+00,5.000000000000000000e+00,5.000000000000000000e+00,5.000000000000000000e+00,3.650617599487304688e+00,3.685010194778442383e+00,3.918341875076293945e+00,5.000000000000000000e+00,5.000000000000000000e+00,5.000000000000000000e+00,5.000000000000000000e+00,5.000000000000000000e+00,5.000000000000000000e+00,5.000000000000000000e+00,5.000000000000000000e+00,5.000000000000000000e+00,5.000000000000000000e+00,4.852261543273925781e+00,4.662134170532226562e+00,4.486344814300537109e+00,4.323330402374267578e+00,4.171746730804443359e+00,4.030432701110839844e+00,3.898379087448120117e+00,3.774703979492187500e+00,3.658634662628173828e+00,3.549490690231323242e+00,3.446669578552246094e+00,3.349638223648071289e+00,3.257920265197753906e+00,3.171091318130493164e+00,3.088770151138305664e+00,3.010615587234497070e+00,2.936317920684814453e+00,2.865599155426025391e+00,2.798206806182861328e+00,2.733911275863647461e+00,2.672504425048828125e+00,2.613795280456542969e+00,2.557610273361206055e+00,2.503789663314819336e+00,2.452187776565551758e+00,2.402669429779052734e+00,2.355112075805664062e+00,2.309400320053100586e+00,2.265429496765136719e+00,2.223101615905761719e+00,2.182326793670654297e+00,2.143020391464233398e+00,2.105104923248291016e+00,2.068507671356201172e+00,2.033161401748657227e+00,1.999003052711486816e+00,1.965973138809204102e+00,1.934017062187194824e+00,1.903083324432373047e+00,1.873123407363891602e+00,1.844092130661010742e+00
5.000000000000000000e+00,5.000000000000000000e+00,5.000000000000000000e+00,5.000000000000000000e+00,5.000000000000000000e+00,5.000000000000000000e+00,5.000000000000000000e+00,5.000000000000000000e+00,5.000000000000000000e+00,5.000000000000000000e+00,5.000000000000000000e+00,5.000000000000000000e+00,5.000000000000000000e+00,5.000000000000000000e+00,5.000000000000000000e+00,5.000000000000000000e+00,5.000000000000000000e+00,5.000000000000000000e+00,5.000000000000000000e+00,5.000000000000000000e+00,5.000000000000000000e+00,5.000000000000000000e+00,5.000000000000000000e+00,5.000000000000000000e+00,5.000000000000000000e+00,5.000000000000000000e+00,3.654119014739990234e+00,3.684713363647460938e+00,3.919402837753295898e+00,5.000000000000000000e+00,5.000000000000000000e+00,5.000000000000000000e+00,5.000000000000000000e+00,5.000000000000000000e+00,5.000000000000000000e+00,5.000000000000000000e+00,5.000000000000000000e+00,5.000000000000000000e+00,5.000000000000000000e+00,4.852400779724121094e+00,4.662262439727783203e+00,4.486463546752929688e+00,4.323440074920654297e+00,4.171849250793457031e+00,4.030528545379638672e+00,3.898468732833862305e+00,3.774787664413452148e+00,3.658713579177856445e+00,3.549564599990844727e+00,3.446739673614501953e+00,3.349704027175903320e+00,3.257982730865478516e+00,3.171150207519531250e+00,3.088826417922973633e+00,3.010668754577636719e+00,2.936368942260742188e+00,2.865647554397583008e+00,2.798252820968627930e+00,2.733955383300781250e+00,2.672546386718750000e+00,2.613835573196411133e+00,2.557648658752441406e+00,2.503826618194580078e+00,2.452223062515258789e+00,2.402703523635864258e+00,2.355144500732421875e+00,2.309431791305541992e+00,2.265459537506103516e+00,2.223130702972412109e+00,2.182354688644409180e+00,2.143047571182250977e+00,2.105131149291992188e+00,2.068532943725585938e+00,2.033185958862304688e+00,1.999026417732238770e+00,1.965995907783508301e+00,1.934039115905761719e+00,1.903104662895202637e+00,1.873143911361694336e+00,1.844112157821655273e+00
5.000000000000000000e+00,5.000000000000000000e+00,5.000000000000000000e+00,5.000000000000000000e+00,5.000000000000000000e+00,5.000000000000000000e+00,5.000000000000000000e+00,5.000000000000000000e+00,5.000000000000000000e+00,5.000000000000000000e+00,5.000000000000000000e+00,5.000000000000000000e+00,5.000000000000000000e+00,5.000000000000000000e+00,5.000000000000000000e+00,5.000000000000000000e+00,5.000000000000000000e+00,5.000000000000000000e+00,5.000000000000000000e+00,5.000000000000000000e+00,5.000000000000000000e+00,5.000000000000000000e+00,5.000000000000000000e+00,5.000000000000000000e+00,5.000000000000000000e+00,5.000000000000000000e+00,3.693861007690429688e+00,3.909473896026611328e+00,5.000000000000000000e+00,5.000000000000000000e+00,5.000000000000000000e+00,5.000000000000000000e+00,5.000000000000000000e+00,5.000000000000000000e+00,5.000000000000000000e+00,5.000000000000000000e+00,5.000000000000000000e+00,5.000000000000000000e+00,5.000000000000000000e+00,4.852537631988525391e+00,4.662390232086181641e+00,4.486581802368164062e+00,4.323550224304199219e+00,4.171951770782470703e+00,4.030623912811279297e+00,3.898557901382446289e+00,3.774871826171875000e+00,3.658792257308959961e+00,3.549638986587524414e+00,3.446809530258178711e+00,3.349770069122314453e+00,3.258044958114624023e+00,3.171209573745727539e+00,3.088882446289062500e+00,3.010722160339355469e+00,2.936419486999511719e+00,2.865695714950561523e+00,2.798299074172973633e+00,2.733999252319335938e+00,2.672588586807250977e+00,2.613875627517700195e+00,2.557687282562255859e+00,2.503863334655761719e+00,2.452258348464965820e+00,2.402737379074096680e+00,2.355177164077758789e+00,2.309463024139404297e+00,2.265489816665649414e+00,2.223159790039062500e+00,2.182382822036743164e+00,2.143074512481689453e+00,2.105157136917114258e+00,2.068558216094970703e+00,2.033210039138793945e+00,1.999049901962280273e+00,1.966018676757812500e+00,1.934061169624328613e+00,1.903125762939453125e+00,1.873164653778076172e+00,1.844132304191589355e+00
5.000000000000000000e+00,5.000000000000000000e+00,5.000000000000000000e+00,5.000000000000000000e+00,5.000000000000000000e+00,5.000000000000000000e+00,5.000000000000000000e+00,5.000000000000000000e+00,5.000000000000000000e+00,5.000000000000000000e+00,5.000000000000000000e+00,5.000000000000000000e+00,5.000000000000000000e+00,5.000000000000000000e+00,5.000000000000000000e+00,5.000000000000000000e+00,5.000000000000000000e+00,5.000000000000000000e+00,5.000000000000000000e+00,5.000000000000000000e+00,5.000000000000000000e+00,5.000000000000000000e+00,5.000000000000000000e+00,5.000000000000000000e+00,5.000000000000000000e+00,3.759312152862548828e+00,3.719806432723999023e+00,3.958501815795898438e+00,5.000000000000000000e+00,5.000000000000000000e+00,5.000000000000000000e+00,5.000000000000000000e+00,5.000000000000000000e+00,5.000000000000000000e+00,5.000000000000000000e+00,5.000000000000000000e+00,5.000000000000000000e+00,5.000000000000000000e+00,5.000000000000000000e+00,4.852674961090087891e+00,4.662518501281738281e+00,4.486700534820556641e+00,4.323660373687744141e+00,4.172054290771484375e+00,4.030719757080078125e+00,3.898647546768188477e+00,3.774955511093139648e+00,3.658871173858642578e+00,3.549712896347045898e+00,3.446879386901855469e+00,3.349835872650146484e+00,3.258107662200927734e+00,3.171268701553344727e+00,3.088938951492309570e+00,3.010775327682495117e+00,2.936470270156860352e+00,2.865744352340698242e+00,2.798345088958740234e+00,2.734043359756469727e+00,2.672630548477172852e+00,2.613915920257568359e+00,2.557725667953491211e+00,2.503900527954101562e+00,2.452293872833251953e+00,2.402771472930908203e+00,2.355209827423095703e+00,2.309494495391845703e+00,2.265519857406616211e+00,2.223188877105712891e+00,2.182410717010498047e+00,2.143101453781127930e+00,2.105183124542236328e+00,2.068583488464355469e+00,2.033234596252441406e+00,1.999073505401611328e+00,1.966041564941406250e+00,1.934083104133605957e+00,1.903147220611572266e+00,1.873185396194458008e+00,1.844152331352233887e+00
5.000000000000000000e+00,5.000000000000000000e+00,5.000000000000000000e+00,5.000000000000000000e+00,5.000000000000000000e+00,5.000000000000000000e+00,5.000000000000000000e+00,5.000000000000000000e+00,5.000000000000000000e+00,5.000000000000000000e+00,5.000000000000000000e+00,5.000000000000000000e+00,5.000000000000000000e+00,5.000000000000000000e+00,5.000000000000000000e+00,5.000000000000000000e+00,5.000000000000000000e+00,5.000000000000000000e+00,5.000000000000000000e+00,5.000000000000000000e+00,5.000000000000000000e+00,5.000000000000000000e+00,5.000000000000000000e+00,5.000000000000000000e+00,5.000000000000000000e+00,5.000000000000000000e+00,3.737121105194091797e+00,3.990552663803100586e+00,5.000000000000000000e+00,5.000000000000000000e+00,5.000000000000000000e+00,5.000000000000000000e+00,5.000000000000000000e+00,5.000000000000000000e+00,5.000000000000000000e+00,5.000000000000000000e+00,5.000000000000000000e+00,5.000000000000000000e+00,5.000000000000000000e+00,4.852812290191650391e+00,4.662643909454345703e+00,4.486818790435791016e+00,4.323770523071289062e+00,4.172156810760498047e+00,4.030815124511718750e+00,3.898736953735351562e+00,3.775039672851562500e+00,3.658949851989746094e+00,3.549787044525146484e+00,3.446949005126953125e+00,3.349902153015136719e+00,3.258170127868652344e+00,3.171328067779541016e+00,3.088994741439819336e+00,3.010828971862792969e+00,2.936521053314208984e+00,2.865792751312255859e+00,2.798391342163085938e+00,2.734087467193603516e+00,2.672672748565673828e+00,2.613956212997436523e+00,2.557764291763305664e+00,2.503937244415283203e+00,2.452329158782958984e+00,2.402805566787719727e+00,2.355242490768432617e+00,2.309525728225708008e+00,2.265550136566162109e+00,2.223217964172363281e+00,2.182438850402832031e+00,2.143128395080566406e+00,2.105209350585937500e+00,2.068608522415161133e+00,2.033258914947509766e+00,1.999097108840942383e+00,1.966064095497131348e+00,1.934105157852172852e+00,1.903168559074401855e+00,1.873206019401550293e+00,1.844172239303588867e+00
5.000000000000000000e+00,5.000000000000000000e+00,5.000000000000000000e+00,5.000000000000000000e+00,5.000000000000000000e+00,5.000000000000000000e+00,5.000000000000000000e+00,5.000000000000000000e+00,5.000000000000000000e+00,5.000000000000000000e+00,5.000000000000000000e+00,5.000000000000000000e+00,5.000000000000000000e+00,5.000000000000000000e+00,5.000000000000000000e+00,5.000000000000000000e+00,5.000000000000000000e+00,5.000000000000000000e+00,5.000000000000000000e+00,5.000000000000000000e+00,5.000000000000000000e+00,5.000000000000000000e+00,5.000000000000000000e+00,5.000000000000000000e+00,5.000000000000000000e+00,5.000000000000000000e+00,3.762253046035766602e+00,5.000000000000000000e+00,5.000000000000000000e+00,5.000000000000000000e+00,5.000000000000000000e+00,5.000000000000000000e+00,5.000000000000000000e+00,5.000000000000000000e+00,5.000000000000000000e+00,5.000000000000000000e+00,5.000000000000000000e+00,5.000000000000000000e+00,5.000000000000000000e+00,4.852949619293212891e+00,4.662771224975585938e+00,4.486936092376708984e+00,4.323880195617675781e+00,4.172258853912353516e+00,4.030910968780517578e+00,3.898826599121093750e+00,3.775123119354248047e+00,3.659028530120849609e+00,3.549861192703247070e+00,3.447019338607788086e+00,3.349967956542968750e+00,3.258232593536376953e+00,3.171386957168579102e+00,3.089051246643066406e+00,3.010882139205932617e+00,2.936571836471557617e+00,2.865840911865234375e+00,2.798437356948852539e+00,2.734131574630737305e+00,2.672714710235595703e+00,2.613996505737304688e+00,2.557802677154541016e+00,2.503974199295043945e+00,2.452364444732666016e+00,2.402839422225952148e+00,2.355275154113769531e+00,2.309557199478149414e+00,2.265580415725708008e+00,2.223247051239013672e+00,2.182466745376586914e+00,2.143155574798583984e+00,2.105235338211059570e+00,2.068633794784545898e+00,2.033283233642578125e+00,1.999120473861694336e+00,1.966086864471435547e+00,1.934127211570739746e+00,1.903189897537231445e+00,1.873226523399353027e+00,1.844192266464233398e+00
5.000000000000000000e+00,5.000000000000000000e+00,5.000000000000000000e+00,5.000000000000000000e+00,5.000000000000000000e+00,5.000000000000000000e+00,5.000000000000000000e+00,5.000000000000000000e+00,5.000000000000000000e+00,5.000000000000000000e+00,5.000000000000000000e+00,5.000000000000000000e+00,5.000000000000000000e+00,5.000000000000000000e+00,5.000000000000000000e+00,5.000000000000000000e+00,5.000000000000000000e+00,5.000000000000000000e+00,5.000000000000000000e+00,5.000000000000000000e+00,5.000000000000000000e+00,5.000000000000000000e+00,5.000000000000000000e+00,5.000000000000000000e+00,5.000000000000000000e+00,5.000000000000000000e+00,3.796182155609130859e+00,5.000000000000000000e+00,5.000000000000000000e+00,5.000000000000000000e+00,5.000000000000000000e+00,5.000000000000000000e+00,5.000000000000000000e+00,5.000000000000000000e+00,5.000000000000000000e+00,5.000000000000000000e+00,5.000000000000000000e+00,5.000000000000000000e+00,5.000000000000000000e+00,4.853086948394775391e+00,4.662897586822509766e+00,4.487053394317626953e+00,4.323989391326904297e+00,4.172361373901367188e+00,4.031006336212158203e+00,3.898915767669677734e+00,3.775207042694091797e+00,3.659107208251953125e+00,3.549935579299926758e+00,3.447088956832885742e+00,3.350034236907958984e+00,3.258295059204101562e+00,3.171446323394775391e+00,3.089107275009155273e+00,3.010935544967651367e+00,2.936622381210327148e+00,2.865889310836791992e+00,2.798483371734619141e+00,2.734175443649291992e+00,2.672756671905517578e+00,2.614036560058593750e+00,2.557841300964355469e+00,2.504010915756225586e+00,2.452399969100952148e+00,2.402873516082763672e+00,2.355307817459106445e+00,2.309588670730590820e+00,2.265610694885253906e+00,2.223276138305664062e+00,2.182494878768920898e+00,2.143182516098022461e+00,2.105261564254760742e+00,2.068658828735351562e+00,2.033307552337646484e+00,1.999144077301025391e+00,1.966109752655029297e+00,1.934149265289306641e+00,1.903211116790771484e+00,1.873247265815734863e+00,1.844212293624877930e+00
5.000000000000000000e+00,5.000000000000000000e+00,5.000000000000000000e+00,5.000000000000000000e+00,5.000000000000000000e+00,5.000000000000000000e+00,5.000000000000000000e+00,5.000000000000000000e+00,5.000000000000000000e+00,5.000000000000000000e+00,5.000000000000000000e+00,5.000000000000000000e+00,5.000000000000000000e+00,5.000000000000000000e+00,5.000000000000000000e+00,5.000000000000000000e+00,5.000000000000000000e+00,5.000000000000000000e+00,5.000000000000000000e+00,5.000000000000000000e+00,5.000000000000000000e+00,5.000000000000000000e+00,5.000000000000000000e+00,5.000000000000000000e+00,5.000000000000000000e+00,5.000000000000000000e+00,3.819811582565307617e+00,5.000000000000000000e+00,5.000000000000000000e+00,5.000000000000000000e+00,5.000000000000000000e+00,5.000000000000000000e+00,5.000000000000000000e+00,5.000000000000000000e+00,5.000000000000000000e+00,5.000000000000000000e+00,5.000000000000000000e+00,5.000000000000000000e+00,5.000000000000000000e+00,4.853224277496337891e+00,4.663024425506591797e+00,4.487170696258544922e+00,4.324098110198974609e+00,4.172463893890380859e+00,4.031102180480957031e+00,3.899005413055419922e+00,3.775290727615356445e+00,3.659186124801635742e+00,3.550009489059448242e+00,3.447159051895141602e+00,3.350100278854370117e+00,3.258357524871826172e+00,3.171505451202392578e+00,3.089163541793823242e+00,3.010988950729370117e+00,2.936673402786254883e+00,2.865937709808349609e+00,2.798529624938964844e+00,2.734219551086425781e+00,2.672798633575439453e+00,2.614076852798461914e+00,2.557879686355590820e+00,2.504048109054565430e+00,2.452435255050659180e+00,2.402907371520996094e+00,2.355340480804443359e+00,2.309620141983032227e+00,2.265640735626220703e+00,2.223305225372314453e+00,2.182522773742675781e+00,2.143209695816040039e+00,2.105287551879882812e+00,2.068684101104736328e+00,2.033331871032714844e+00,1.999167680740356445e+00,1.966132521629333496e+00,1.934171080589294434e+00,1.903232455253601074e+00,1.873268008232116699e+00,1.844232439994812012e+00
4.875246524810791016e+00,4.874035835266113281e+00,4.872826099395751953e+00,4.871616840362548828e+00,4.870408535003662109e+00,4.869200229644775391e+00,4.867992877960205078e+00,4.866786003112792969e+00,4.865579605102539062e+00,4.864374160766601562e+00,4.863168716430664062e+00,4.861964225769042969e+00,4.860760211944580078e+00,4.859557151794433594e+00,4.858354568481445312e+00,4.857152462005615234e+00,4.855950832366943359e+00,4.854750156402587891e+00,4.853549957275390625e+00,4.852350234985351562e+00,4.851150989532470703e+00,4.849952697753906250e+00,4.848754882812500000e+00,4.847557544708251953e+00,4.846360683441162109e+00,4.117990970611572266e+00,3.760442495346069336e+00,4.842773914337158203e+00,4.841579914093017578e+00,4.840385913848876953e+00,4.839192390441894531e+00,4.837999820709228516e+00,4.836807727813720703e+00,4.835616588592529297e+00,4.834425449371337891e+00,4.833235263824462891e+00,4.832045555114746094e+00,4.830856800079345703e+00,4.829668045043945312e+00,4.828480243682861328e+00,4.663151264190673828e+00,4.487287998199462891e+00,4.324207305908203125e+00,4.172564983367919922e+00,4.031198024749755859e+00,3.899094581604003906e+00,3.775374889373779297e+00,3.659264802932739258e+00,3.550083875656127930e+00,3.447228908538818359e+00,3.350166320800781250e+00,3.258419990539550781e+00,3.171564817428588867e+00,3.089219570159912109e+00,3.011042356491088867e+00,2.936723947525024414e+00,2.865986108779907227e+00,2.798575639724731445e+00,2.734263658523559570e+00,2.672840833663940430e+00,2.614117145538330078e+00,2.557918310165405273e+00,2.504084825515747070e+00,2.452470779418945312e+00,2.402941465377807617e+00,2.355373144149780273e+00,2.309651374816894531e+00,2.265671014785766602e+00,2.223334312438964844e+00,2.182550907135009766e+00,2.143236637115478516e+00,2.105313777923583984e+00,2.068709373474121094e+00,2.033356189727783203e+00,1.999191164970397949e+00,1.966155171394348145e+00,1.934193253517150879e+00,1.903253793716430664e+00,1.873288631439208984e+00,1.844252228736877441e+00
3.778074502944946289e+00,3.777347564697265625e+00,3.776621103286743164e+00,3.775894165039062500e+00,3.775168180465698242e+00,3.774442434310913086e+00,3.773716926574707031e+00,3.772991418838500977e+00,3.772266626358032227e+00,3.771541833877563477e+00,3.770817041397094727e+00,3.770092964172363281e+00,3.769369363784790039e+00,3.768645763397216797e+00,3.767922163009643555e+00,3.767199277877807617e+00,3.766476392745971680e+00,3.765753984451293945e+00,3.765031576156616211e+00,3.764309644699096680e+00,3.763588190078735352e+00,3.762866497039794922e+00,3.762145280838012695e+00,3.761424541473388672e+00,3.760704278945922852e+00,3.759983539581298828e+00,3.759263753890991211e+00,3.758543968200683594e+00,3.757824659347534180e+00,3.757105112075805664e+00,3.756386280059814453e+00,3.755667686462402344e+00,3.754949092864990234e+00,3.754231214523315430e+00,3.753513336181640625e+00,3.752795934677124023e+00,3.752078294754028320e+00,3.751361370086669922e+00,3.750644922256469727e+00,3.749928474426269531e+00,3.749212026596069336e+00,3.748496294021606445e+00,3.747780799865722656e+00,3.747065067291259766e+00,3.746350049972534180e+00,3.745635271072387695e+00,3.744920969009399414e+00,3.659343719482421875e+00,3.550157785415649414e+00,3.447299003601074219e+00,3.350232362747192383e+00,3.258482694625854492e+00,3.171623945236206055e+00,3.089275836944580078e+00,3.011095523834228516e+00,2.936774969100952148e+00,2.866034269332885742e+00,2.798621892929077148e+00,2.734307527542114258e+00,2.672882795333862305e+00,2.614157438278198242e+00,2.557956695556640625e+00,2.504121780395507812e+00,2.452506065368652344e+00,2.402975559234619141e+00,2.355405807495117188e+00,2.309682846069335938e+00,2.265701293945312500e+00,2.223363637924194336e+00,2.182579040527343750e+00,2.143263816833496094e+00,2.105339765548706055e+00,2.068734407424926758e+00,2.033380508422851562e+00,1.999214768409729004e+00,1.966177940368652344e+00,1.934215307235717773e+00,1.903275251388549805e+00,1.873309135437011719e+00,1.844272375106811523e+00
3.084017992019653320e+00,3.083533287048339844e+00,3.083049058914184570e+00,3.082565069198608398e+00,3.082081079483032227e+00,3.081597089767456055e+00,3.081113576889038086e+00,3.080630064010620117e+00,3.080146789550781250e+00,3.079663515090942383e+00,3.079180479049682617e+00,3.078697681427001953e+00,3.078214645385742188e+00,3.077732086181640625e+00,3.077249765396118164e+00,3.076767444610595703e+00,3.076285123825073242e+00,3.075803279876708984e+00,3.075321435928344727e+00,3.074839830398559570e+00,3.074357986450195312e+00,3.073876619338989258e+00,3.073395490646362305e+00,3.072914123535156250e+00,3.072433471679687500e+00,3.071952581405639648e+00,3.071472167968750000e+00,3.070991277694702148e+00,3.070511102676391602e+00,3.070030927658081055e+00,3.069550752639770508e+00,3.069070816040039062e+00,3.068591356277465820e+00,3.068111658096313477e+00,3.067632198333740234e+00,3.067152976989746094e+00,3.066673755645751953e+00,3.066195011138916016e+00,3.065716028213500977e+00,3.065237283706665039e+00,3.064758777618408203e+00,3.064280271530151367e+00,3.063802003860473633e+00,3.063323974609375000e+00,3.062846183776855469e+00,3.062368154525756836e+00,3.061890602111816406e+00,3.061413288116455078e+00,3.060935735702514648e+00,3.060458421707153320e+00,3.059981584548950195e+00,3.059504747390747070e+00,3.059027671813964844e+00,3.058551311492919922e+00,3.011149168014526367e+00,2.936825513839721680e+00,2.866082906723022461e+00,2.798667907714843750e+00,2.734351634979248047e+00,2.672924995422363281e+00,2.614197492599487305e+00,2.557995319366455078e+00,2.504158735275268555e+00,2.452541589736938477e+00,2.403009414672851562e+00,2.355438470840454102e+00,2.309714078903198242e+00,2.265731573104858398e+00,2.223392486572265625e+00,2.182606935501098633e+00,2.143290758132934570e+00,2.105365991592407227e+00,2.068759679794311523e+00,2.033404827117919922e+00,1.999238133430480957e+00,1.966200709342956543e+00,1.934237360954284668e+00,1.903296351432800293e+00,1.873329877853393555e+00,1.844292402267456055e+00
2.605390548706054688e+00,2.605044841766357422e+00,2.604699373245239258e+00,2.604353666305541992e+00,2.604008197784423828e+00,2.603662967681884766e+00,2.603317737579345703e+00,2.602972269058227539e+00,2.602627277374267578e+00,2.602282285690307617e+00,2.601937294006347656e+00,2.601592540740966797e+00,2.601247787475585938e+00,2.600903272628784180e+00,2.600558519363403320e+00,2.600214242935180664e+00,2.599869728088378906e+00,2.599525690078735352e+00,2.599181175231933594e+00,2.598837137222290039e+00,2.598493337631225586e+00,2.598149299621582031e+00,2.597805500030517578e+00,2.597461700439453125e+00,2.597118139266967773e+00,2.596774578094482422e+00,2.596431016921997070e+00,2.596087694168090820e+00,2.595744609832763672e+00,2.595401287078857422e+00,2.595058202743530273e+00,2.594715118408203125e+00,2.594372272491455078e+00,2.594029426574707031e+00,2.593686819076538086e+00,2.593344211578369141e+00,2.593001365661621094e+00,2.592658996582031250e+00,2.592316627502441406e+00,2.591974496841430664e+00,2.591632127761840820e+00,2.591289997100830078e+00,2.590948104858398438e+00,2.590605974197387695e+00,2.590264320373535156e+00,2.589922666549682617e+00,2.589581012725830078e+00,2.589239358901977539e+00,2.588897943496704102e+00,2.588556528091430664e+00,2.588215112686157227e+00,2.587873935699462891e+00,2.587532997131347656e+00,2.587192058563232422e+00,2.586850881576538086e+00,2.586510181427001953e+00,2.586169481277465820e+00,2.585829019546508789e+00,2.585488080978393555e+00,2.585147857666015625e+00,2.584807395935058594e+00,2.558033704757690430e+00,2.504195690155029297e+00,2.452576875686645508e+00,2.403043508529663086e+00,2.355471134185791016e+00,2.309745788574218750e+00,2.265761613845825195e+00,2.223421812057495117e+00,2.182635068893432617e+00,2.143317699432373047e+00,2.105391979217529297e+00,2.068784952163696289e+00,2.033429145812988281e+00,1.999261736869812012e+00,1.966223597526550293e+00,1.934259176254272461e+00,1.903317809104919434e+00,1.873350620269775391e+00,1.844312429428100586e+00
2.255388021469116211e+00,2.255127906799316406e+00,2.254868030548095703e+00,2.254608154296875000e+00,2.254348516464233398e+00,2.254088640213012695e+00,2.253829002380371094e+00,2.253569364547729492e+00,2.253309726715087891e+00,2.253050088882446289e+00,2.252790689468383789e+00,2.252531290054321289e+00,2.252272129058837891e+00,2.252012729644775391e+00,2.251753568649291992e+00,2.251494407653808594e+00,2.251235246658325195e+00,2.250976085662841797e+00,2.250717163085937500e+00,2.250458240509033203e+00,2.250199556350708008e+00,2.249940633773803711e+00,2.249681949615478516e+00,2.249423265457153320e+00,2.249165058135986328e+00,2.248907566070556641e+00,2.248649835586547852e+00,2.248392343521118164e+00,2.248134851455688477e+00,2.247877359390258789e+00,2.247619867324829102e+00,2.247362613677978516e+00,2.247105598449707031e+00,2.246848344802856445e+00,2.246591091156005859e+00,2.246334075927734375e+00,2.246077060699462891e+00,2.245820283889770508e+00,2.245563030242919922e+00,2.245306253433227539e+00,2.245049476623535156e+00,2.244792699813842773e+00,2.244536161422729492e+00,2.244279623031616211e+00,2.244023084640502930e+00,2.243766546249389648e+00,2.243510007858276367e+00,2.243253707885742188e+00,2.242997407913208008e+00,2.242741107940673828e+00,2.242485046386718750e+00,2.242228984832763672e+00,2.241972684860229492e+00,2.241716623306274414e+00,2.241460800170898438e+00,2.241204977035522461e+00,2.240948915481567383e+00,2.240693330764770508e+00,2.240437507629394531e+00,2.240181684494018555e+00,2.239926099777221680e+00,2.239670753479003906e+00,2.239415168762207031e+00,2.239159584045410156e+00,2.238904237747192383e+00,2.238649129867553711e+00,2.238393783569335938e+00,2.238138437271118164e+00,2.223450660705566406e+00,2.182663202285766602e+00,2.143344879150390625e+00,2.105417966842651367e+00,2.068809986114501953e+00,2.033453702926635742e+00,1.999285340309143066e+00,1.966246366500854492e+00,1.934281229972839355e+00,1.903339147567749023e+00,1.873371362686157227e+00,1.844332337379455566e+00
1.988325476646423340e+00,1.988123297691345215e+00,1.987921118736267090e+00,1.987719297409057617e+00,1.987517237663269043e+00,1.987315297126770020e+00,1.987113595008850098e+00,1.986911654472351074e+00,1.986710071563720703e+00,1.986508250236511230e+00,1.986306428909301758e+00,1.986104846000671387e+00,1.985903143882751465e+00,1.985701799392700195e+00,1.985500097274780273e+00,1.985298514366149902e+00,1.985097289085388184e+00,1.984895706176757812e+00,1.984694361686706543e+00,1.984493017196655273e+00,1.984291672706604004e+00,1.984090566635131836e+00,1.983889341354370117e+00,1.983687996864318848e+00,1.983487010002136230e+00,1.983285903930664062e+00,1.983084797859191895e+00,1.982883930206298828e+00,1.982682824134826660e+00,1.982482075691223145e+00,1.982281088829040527e+00,1.982080101966857910e+00,1.981879472732543945e+00,1.981678605079650879e+00,1.981477856636047363e+00,1.981277227401733398e+00,1.981076598167419434e+00,1.980876088142395020e+00,1.980675458908081055e+00,1.980474829673767090e+00,1.980274558067321777e+00,1.980073928833007812e+00,1.979873538017272949e+00,1.979673266410827637e+00,1.979472875595092773e+00,1.979272723197937012e+00,1.979072451591491699e+00,1.978872060775756836e+00,1.978672146797180176e+00,1.978471875190734863e+00,1.978271722793579102e+00,1.978071808815002441e+00,1.977871775627136230e+00,1.977671980857849121e+00,1.977471947669982910e+00,1.977272033691406250e+00,1.977072238922119141e+00,1.976872444152832031e+00,1.976672530174255371e+00,1.976472973823547363e+00,1.976273179054260254e+00,1.976073741912841797e+00,1.975874066352844238e+00,1.975674390792846680e+00,1.975475072860717773e+00,1.975275516510009766e+00,1.975075960159301758e+00,1.974876761436462402e+00,1.974677324295043945e+00,1.974478125572204590e+00,1.974278807640075684e+00,1.974079489707946777e+00,1.973880410194396973e+00,1.973681211471557617e+00,1.973482251167297363e+00,1.966269016265869141e+00,1.934303402900695801e+00,1.903360486030578613e+00,1.873391866683959961e+00,1.844352483749389648e+00
1.777812838554382324e+00,1.777651429176330566e+00,1.777489781379699707e+00,1.777328252792358398e+00,1.777166843414306641e+00,1.777005434036254883e+00,1.776843905448913574e+00,1.776682615280151367e+00,1.776521205902099609e+00,1.776360034942626953e+00,1.776198744773864746e+00,1.776037335395812988e+00,1.775876283645629883e+00,1.775714993476867676e+00,1.775553703308105469e+00,1.775392770767211914e+00,1.775231599807739258e+00,1.775070548057556152e+00,1.774909496307373047e+00,1.774748325347900391e+00,1.774587512016296387e+00,1.774426460266113281e+00,1.774265408515930176e+00,1.774104595184326172e+00,1.773943662643432617e+00,1.773782968521118164e+00,1.773622035980224609e+00,1.773461222648620605e+00,1.773300528526306152e+00,1.773139715194702148e+00,1.772979021072387695e+00,1.772818446159362793e+00,1.772657752037048340e+00,1.772497177124023438e+00,1.772336602210998535e+00,1.772175908088684082e+00,1.772015452384948730e+00,1.771854877471923828e+00,1.771694421768188477e+00,1.771534085273742676e+00,1.771373629570007324e+00,1.771213293075561523e+00,1.771052837371826172e+00,1.770892500877380371e+00,1.770732283592224121e+00,1.770571947097778320e+00,1.770411849021911621e+00,1.770251512527465820e+00,1.770091295242309570e+00,1.769931316375732422e+00,1.769771099090576172e+00,1.769610881805419922e+00,1.769451022148132324e+00,1.769290924072265625e+00,1.769130945205688477e+00,1.768970966339111328e+00,1.768810868263244629e+00,1.768651127815246582e+00,1.768491148948669434e+00,1.768331170082092285e+00,1.768171429634094238e+00,1.768011569976806641e+00,1.767851948738098145e+00,1.767692089080810547e+00,1.767532348632812500e+00,1.767372727394104004e+00,1.767213106155395508e+00,1.767053365707397461e+00,1.766893863677978516e+00,1.766734242439270020e+00,1.766574740409851074e+00,1.766415238380432129e+00,1.766255617141723633e+00,1.766096353530883789e+00,1.765936851501464844e+00,1.765777349472045898e+00,1.765618085861206055e+00,1.765458703041076660e+00,1.765299558639526367e+00,1.765140175819396973e+00
1.607608556747436523e+00,1.607476353645324707e+00,1.607344269752502441e+00,1.607212305068969727e+00,1.607080221176147461e+00,1.606948256492614746e+00,1.606816172599792480e+00,1.606684207916259766e+00,1.606552362442016602e+00,1.606420397758483887e+00,1.606288433074951172e+00,1.606156587600708008e+00,1.606024622917175293e+00,1.605892896652221680e+00,1.605761051177978516e+00,1.605629205703735352e+00,1.605497479438781738e+00,1.605365753173828125e+00,1.605234026908874512e+00,1.605102300643920898e+00,1.604970574378967285e+00,1.604838967323303223e+00,1.604707241058349609e+00,1.604575634002685547e+00,1.604444146156311035e+00,1.604312419891357422e+00,1.604181051254272461e+00,1.604049444198608398e+00,1.603917837142944336e+00,1.603786468505859375e+00,1.603654861450195312e+00,1.603523373603820801e+00,1.603392004966735840e+00,1.603260636329650879e+00,1.603129267692565918e+00,1.602997899055480957e+00,1.602866530418395996e+00,1.602735280990600586e+00,1.602603912353515625e+00,1.602472543716430664e+00,1.602341413497924805e+00,1.602210164070129395e+00,1.602079033851623535e+00,1.601947784423828125e+00,1.601816534996032715e+00,1.601685404777526855e+00,1.601554274559020996e+00,1.601423144340515137e+00,1.601292133331298828e+00,1.601161003112792969e+00,1.601030111312866211e+00,1.600898981094360352e+00,1.600767970085144043e+00,1.600637078285217285e+00,1.600506067276000977e+00,1.600375056266784668e+00,1.600244283676147461e+00,1.600113272666931152e+00,1.599982500076293945e+00,1.599851489067077637e+00,1.599720716476440430e+00,1.599589943885803223e+00,1.599459171295166016e+00,1.599328398704528809e+00,1.599197626113891602e+00,1.599066853523254395e+00,1.598936319351196289e+00,1.598805546760559082e+00,1.598674774169921875e+00,1.598544239997863770e+00,1.598413586616516113e+00,1.598283171653747559e+00,1.598152518272399902e+00,1.598021864891052246e+00,1.597891449928283691e+00,1.597760915756225586e+00,1.597630381584167480e+00,1.597499966621398926e+00,1.597369432449340820e+00,1.597239136695861816e+00
1.467146635055541992e+00,1.467036724090576172e+00,1.466926574707031250e+00,1.466816544532775879e+00,1.466706633567810059e+00,1.466596722602844238e+00,1.466486811637878418e+00,1.466376781463623047e+00,1.466266870498657227e+00,1.466157078742980957e+00,1.466047167778015137e+00,1.465937256813049316e+00,1.465827465057373047e+00,1.465717554092407227e+00,1.465607881546020508e+00,1.465497970581054688e+00,1.465388178825378418e+00,1.465278506278991699e+00,1.465168714523315430e+00,1.465058922767639160e+00,1.464949250221252441e+00,1.464839577674865723e+00,1.464729905128479004e+00,1.464620232582092285e+00,1.464510560035705566e+00,1.464401006698608398e+00,1.464291334152221680e+00,1.464181661605834961e+00,1.464072227478027344e+00,1.463962554931640625e+00,1.463853120803833008e+00,1.463743567466735840e+00,1.463633894920349121e+00,1.463524580001831055e+00,1.463415026664733887e+00,1.463305473327636719e+00,1.463196158409118652e+00,1.463086605072021484e+00,1.462977290153503418e+00,1.462867856025695801e+00,1.462758421897888184e+00,1.462649106979370117e+00,1.462539792060852051e+00,1.462430477142333984e+00,1.462321162223815918e+00,1.462211728096008301e+00,1.462102532386779785e+00,1.461993217468261719e+00,1.461883902549743652e+00,1.461774826049804688e+00,1.461665511131286621e+00,1.461556434631347656e+00,1.461447119712829590e+00,1.461337924003601074e+00,1.461228847503662109e+00,1.461119651794433594e+00,1.461010575294494629e+00,1.460901498794555664e+00,1.460792303085327148e+00,1.460683345794677734e+00,1.460574269294738770e+00,1.460465192794799805e+00,1.460356235504150391e+00,1.460247159004211426e+00,1.460138082504272461e+00,1.460029244422912598e+00,1.459920167922973633e+00,1.459811329841613770e+00,1.459702372550964355e+00,1.459593415260314941e+00,1.459484577178955078e+00,1.459375739097595215e+00,1.459266781806945801e+00,1.459157943725585938e+00,1.459049105644226074e+00,1.458940386772155762e+00,1.458831548690795898e+00,1.458722710609436035e+00,1.458613991737365723e+00,1.458505272865295410e+00
1.349257707595825195e+00,1.349164605140686035e+00,1.349071621894836426e+00,1.348978638648986816e+00,1.348885536193847656e+00,1.348792672157287598e+00,1.348699569702148438e+00,1.348606586456298828e+00,1.348513722419738770e+00,1.348420619964599609e+00,1.348327755928039551e+00,1.348234891891479492e+00,1.348141908645629883e+00,1.348049044609069824e+00,1.347956180572509766e+00,1.347863316535949707e+00,1.347770452499389648e+00,1.347677469253540039e+00,1.347584724426269531e+00,1.347491860389709473e+00,1.347398996353149414e+00,1.347306370735168457e+00,1.347213506698608398e+00,1.347120761871337891e+00,1.347028017044067383e+00,1.346935272216796875e+00,1.346842527389526367e+00,1.346749782562255859e+00,1.346657037734985352e+00,1.346564412117004395e+00,1.346471667289733887e+00,1.346379160881042480e+00,1.346286416053771973e+00,1.346193671226501465e+00,1.346101164817810059e+00,1.346008539199829102e+00,1.345915794372558594e+00,1.345823287963867188e+00,1.345730662345886230e+00,1.345638155937194824e+00,1.345545649528503418e+00,1.345453023910522461e+00,1.345360517501831055e+00,1.345268011093139648e+00,1.345175504684448242e+00,1.345082998275756836e+00,1.344990491867065430e+00,1.344898104667663574e+00,1.344805598258972168e+00,1.344713091850280762e+00,1.344620704650878906e+00,1.344528317451477051e+00,1.344435811042785645e+00,1.344343543052673340e+00,1.344251155853271484e+00,1.344158768653869629e+00,1.344066381454467773e+00,1.343973994255065918e+00,1.343881726264953613e+00,1.343789458274841309e+00,1.343697071075439453e+00,1.343604803085327148e+00,1.343512535095214844e+00,1.343420386314392090e+00,1.343327999114990234e+00,1.343235731124877930e+00,1.343143582344055176e+00,1.343051314353942871e+00,1.342959165573120117e+00,1.342867016792297363e+00,1.342774748802185059e+00,1.342682719230651855e+00,1.342590451240539551e+00,1.342498302459716797e+00,1.342406272888183594e+00,1.342314124107360840e+00,1.342222094535827637e+00,1.342129945755004883e+00,1.342037796974182129e+00,1.341945767402648926e+00
1.248905062675476074e+00,1.248825311660766602e+00,1.248745679855346680e+00,1.248666048049926758e+00,1.248586297035217285e+00,1.248506546020507812e+00,1.248426914215087891e+00,1.248347163200378418e+00,1.248267531394958496e+00,1.248187899589538574e+00,1.248108267784118652e+00,1.248028755187988281e+00,1.247949004173278809e+00,1.247869372367858887e+00,1.247789859771728516e+00,1.247710227966308594e+00,1.247630596160888672e+00,1.247551083564758301e+00,1.247471570968627930e+00,1.247392058372497559e+00,1.247312426567077637e+00,1.247232913970947266e+00,1.247153520584106445e+00,1.247073888778686523e+00,1.246994376182556152e+00,1.246914982795715332e+00,1.246835470199584961e+00,1.246756076812744141e+00,1.246676564216613770e+00,1.246597051620483398e+00,1.246517658233642578e+00,1.246438264846801758e+00,1.246358752250671387e+00,1.246279478073120117e+00,1.246200084686279297e+00,1.246120691299438477e+00,1.246041297912597656e+00,1.245961904525756836e+00,1.245882630348205566e+00,1.245803236961364746e+00,1.245723843574523926e+00,1.245644569396972656e+00,1.245565295219421387e+00,1.245486021041870117e+00,1.245406627655029297e+00,1.245327353477478027e+00,1.245248198509216309e+00,1.245168805122375488e+00,1.245089650154113770e+00,1.245010375976562500e+00,1.244931101799011230e+00,1.244851946830749512e+00,1.244772672653198242e+00,1.244693517684936523e+00,1.244614362716674805e+00,1.244535088539123535e+00,1.244456052780151367e+00,1.244376778602600098e+00,1.244297623634338379e+00,1.244218587875366211e+00,1.244139432907104492e+00,1.244060277938842773e+00,1.243981242179870605e+00,1.243902087211608887e+00,1.243823051452636719e+00,1.243743896484375000e+00,1.243664741516113281e+00,1.243585824966430664e+00,1.243506669998168945e+00,1.243427634239196777e+00,1.243348717689514160e+00,1.243269562721252441e+00,1.243190646171569824e+00,1.243111610412597656e+00,1.243032574653625488e+00,1.242953658103942871e+00,1.242874741554260254e+00,1.242795705795288086e+00,1.242716789245605469e+00,1.242637872695922852e+00
1.162446737289428711e+00,1.162377715110778809e+00,1.162308692932128906e+00,1.162239551544189453e+00,1.162170529365539551e+00,1.162101507186889648e+00,1.162032485008239746e+00,1.161963462829589844e+00,1.161894440650939941e+00,1.161825418472290039e+00,1.161756396293640137e+00,1.161687374114990234e+00,1.161618351936340332e+00,1.161549448966979980e+00,1.161480545997619629e+00,1.161411643028259277e+00,1.161342620849609375e+00,1.161273598670959473e+00,1.161204695701599121e+00,1.161135792732238770e+00,1.161066889762878418e+00,1.160997986793518066e+00,1.160929083824157715e+00,1.160860180854797363e+00,1.160791277885437012e+00,1.160722374916076660e+00,1.160653591156005859e+00,1.160584688186645508e+00,1.160515904426574707e+00,1.160447001457214355e+00,1.160378098487854004e+00,1.160309433937072754e+00,1.160240530967712402e+00,1.160171747207641602e+00,1.160102963447570801e+00,1.160034060478210449e+00,1.159965395927429199e+00,1.159896612167358398e+00,1.159827828407287598e+00,1.159759044647216797e+00,1.159690260887145996e+00,1.159621477127075195e+00,1.159552812576293945e+00,1.159484028816223145e+00,1.159415364265441895e+00,1.159346580505371094e+00,1.159277915954589844e+00,1.159209251403808594e+00,1.159140586853027344e+00,1.159071803092956543e+00,1.159003257751464844e+00,1.158934473991394043e+00,1.158865928649902344e+00,1.158797264099121094e+00,1.158728599548339844e+00,1.158659934997558594e+00,1.158591270446777344e+00,1.158522725105285645e+00,1.158454060554504395e+00,1.158385515213012695e+00,1.158316969871520996e+00,1.158248305320739746e+00,1.158179759979248047e+00,1.158111214637756348e+00,1.158042669296264648e+00,1.157974123954772949e+00,1.157905578613281250e+00,1.157837033271789551e+00,1.157768607139587402e+00,1.157700061798095703e+00,1.157631516456604004e+00,1.157562971115112305e+00,1.157494544982910156e+00,1.157426118850708008e+00,1.157357573509216309e+00,1.157289028167724609e+00,1.157220602035522461e+00,1.157152175903320312e+00,1.157083749771118164e+00,1.157015323638916016e+00
1.087183952331542969e+00,1.087123513221740723e+00,1.087063074111938477e+00,1.087002754211425781e+00,1.086942315101623535e+00,1.086881875991821289e+00,1.086821556091308594e+00,1.086761116981506348e+00,1.086700797080993652e+00,1.086640357971191406e+00,1.086580038070678711e+00,1.086519718170166016e+00,1.086459398269653320e+00,1.086398959159851074e+00,1.086338758468627930e+00,1.086278319358825684e+00,1.086218118667602539e+00,1.086157798767089844e+00,1.086097359657287598e+00,1.086037158966064453e+00,1.085976839065551758e+00,1.085916519165039062e+00,1.085856318473815918e+00,1.085795998573303223e+00,1.085735797882080078e+00,1.085675477981567383e+00,1.085615277290344238e+00,1.085555076599121094e+00,1.085494756698608398e+00,1.085434556007385254e+00,1.085374355316162109e+00,1.085314154624938965e+00,1.085253953933715820e+00,1.085193753242492676e+00,1.085133552551269531e+00,1.085073351860046387e+00,1.085013151168823242e+00,1.084953069686889648e+00,1.084892868995666504e+00,1.084832668304443359e+00,1.084772467613220215e+00,1.084712266921997070e+00,1.084652185440063477e+00,1.084592103958129883e+00,1.084531903266906738e+00,1.084471821784973145e+00,1.084411740303039551e+00,1.084351539611816406e+00,1.084291458129882812e+00,1.084231376647949219e+00,1.084171295166015625e+00,1.084111213684082031e+00,1.084051132202148438e+00,1.083991050720214844e+00,1.083930969238281250e+00,1.083870887756347656e+00,1.083810925483703613e+00,1.083750844001770020e+00,1.083690762519836426e+00,1.083630800247192383e+00,1.083570718765258789e+00,1.083510756492614746e+00,1.083450794219970703e+00,1.083390712738037109e+00,1.083330750465393066e+00,1.083270788192749023e+00,1.083210706710815430e+00,1.083150863647460938e+00,1.083090782165527344e+00,1.083030939102172852e+00,1.082970857620239258e+00,1.082910895347595215e+00,1.082851052284240723e+00,1.082791090011596680e+00,1.082731127738952637e+00,1.082671284675598145e+00,1.082611322402954102e+00,1.082551479339599609e+00,1.082491517066955566e+00,1.082431554794311523e+00
1.021074295043945312e+00,1.021020889282226562e+00,1.020967721939086914e+00,1.020914435386657715e+00,1.020861148834228516e+00,1.020807862281799316e+00,1.020754575729370117e+00,1.020701289176940918e+00,1.020648121833801270e+00,1.020594835281372070e+00,1.020541548728942871e+00,1.020488381385803223e+00,1.020435094833374023e+00,1.020381927490234375e+00,1.020328640937805176e+00,1.020275473594665527e+00,1.020222187042236328e+00,1.020169019699096680e+00,1.020115852355957031e+00,1.020062685012817383e+00,1.020009517669677734e+00,1.019956231117248535e+00,1.019903063774108887e+00,1.019850015640258789e+00,1.019796729087829590e+00,1.019743680953979492e+00,1.019690513610839844e+00,1.019637346267700195e+00,1.019584178924560547e+00,1.019531011581420898e+00,1.019477844238281250e+00,1.019424796104431152e+00,1.019371628761291504e+00,1.019318580627441406e+00,1.019265413284301758e+00,1.019212365150451660e+00,1.019159197807312012e+00,1.019106149673461914e+00,1.019052982330322266e+00,1.018999934196472168e+00,1.018946886062622070e+00,1.018893837928771973e+00,1.018840789794921875e+00,1.018787741661071777e+00,1.018734693527221680e+00,1.018681645393371582e+00,1.018628478050231934e+00,1.018575549125671387e+00,1.018522500991821289e+00,1.018469452857971191e+00,1.018416404724121094e+00,1.018363356590270996e+00,1.018310427665710449e+00,1.018257379531860352e+00,1.018204331398010254e+00,1.018151402473449707e+00,1.018098473548889160e+00,1.018045425415039062e+00,1.017992496490478516e+00,1.017939448356628418e+00,1.017886519432067871e+00,1.017833590507507324e+00,1.017780542373657227e+00,1.017727732658386230e+00,1.017674684524536133e+00,1.017621755599975586e+00,1.017568826675415039e+00,1.017515897750854492e+00,1.017462968826293945e+00,1.017410039901733398e+00,1.017357230186462402e+00,1.017304301261901855e+00,1.017251372337341309e+00,1.017198443412780762e+00,1.017145633697509766e+00,1.017092704772949219e+00,1.017039895057678223e+00,1.016986966133117676e+00,1.016934156417846680e+00,1.016881227493286133e+00
9.625438451766967773e-01,9.624964594841003418e-01,9.624490737915039062e-01,9.624016880989074707e-01,9.623543620109558105e-01,9.623070955276489258e-01,9.622597098350524902e-01,9.622123837471008301e-01,9.621650576591491699e-01,9.621177315711975098e-01,9.620703458786010742e-01,9.620231389999389648e-01,9.619758129119873047e-01,9.619284868240356445e-01,9.618811607360839844e-01,9.618338942527770996e-01,9.617866873741149902e-01,9.617393612861633301e-01,9.616920948028564453e-01,9.616447687149047852e-01,9.615975022315979004e-01,9.615502953529357910e-01,9.615030288696289062e-01,9.614557623863220215e-01,9.614084959030151367e-01,9.613612294197082520e-01,9.613139629364013672e-01,9.612668156623840332e-01,9.612195491790771484e-01,9.611722826957702637e-01,9.611250758171081543e-01,9.610778093338012695e-01,9.610307216644287109e-01,9.609834551811218262e-01,9.609362483024597168e-01,9.608890414237976074e-01,9.608417749404907227e-01,9.607946872711181641e-01,9.607474803924560547e-01,9.607002735137939453e-01,9.606530666351318359e-01,9.606059193611145020e-01,9.605588316917419434e-01,9.605116248130798340e-01,9.604644775390625000e-01,9.604172706604003906e-01,9.603701233863830566e-01,9.603229165077209473e-01,9.602758884429931641e-01,9.602287411689758301e-01,9.601815938949584961e-01,9.601344466209411621e-01,9.600872993469238281e-01,9.600402712821960449e-01,9.599931240081787109e-01,9.599460363388061523e-01,9.598988890647888184e-01,9.598517417907714844e-01,9.598047733306884766e-01,9.597576260566711426e-01,9.597105383872985840e-01,9.596634507179260254e-01,9.596163630485534668e-01,9.595692753791809082e-01,9.595223069190979004e-01,9.594752192497253418e-01,9.594281315803527832e-01,9.593810439109802246e-01,9.593339562416076660e-01,9.592870473861694336e-01,9.592399597167968750e-01,9.591929316520690918e-01,9.591458439826965332e-01,9.590988159179687500e-01,9.590519070625305176e-01,9.590048193931579590e-01,9.589577913284301758e-01,9.589107632637023926e-01,9.588637351989746094e-01,9.588167667388916016e-01
9.103597402572631836e-01,9.103173613548278809e-01,9.102749824523925781e-01,9.102326035499572754e-01,9.101903438568115234e-01,9.101479649543762207e-01,9.101055860519409180e-01,9.100632667541503906e-01,9.100208878517150879e-01,9.099786281585693359e-01,9.099363088607788086e-01,9.098939299583435059e-01,9.098516106605529785e-01,9.098092913627624512e-01,9.097669720649719238e-01,9.097247123718261719e-01,9.096823930740356445e-01,9.096400737762451172e-01,9.095977544784545898e-01,9.095554351806640625e-01,9.095132350921630859e-01,9.094709157943725586e-01,9.094286561012268066e-01,9.093863368034362793e-01,9.093440771102905273e-01,9.093018770217895508e-01,9.092595577239990234e-01,9.092172980308532715e-01,9.091750383377075195e-01,9.091327786445617676e-01,9.090905785560607910e-01,9.090483188629150391e-01,9.090060591697692871e-01,9.089637994766235352e-01,9.089215397834777832e-01,9.088793396949768066e-01,9.088371992111206055e-01,9.087949395179748535e-01,9.087526798248291016e-01,9.087104797363281250e-01,9.086682200431823730e-01,9.086261391639709473e-01,9.085838794708251953e-01,9.085416793823242188e-01,9.084994792938232422e-01,9.084572792053222656e-01,9.084151387214660645e-01,9.083729386329650879e-01,9.083307385444641113e-01,9.082885980606079102e-01,9.082463979721069336e-01,9.082041978836059570e-01,9.081621170043945312e-01,9.081199169158935547e-01,9.080777764320373535e-01,9.080355763435363770e-01,9.079934358596801758e-01,9.079513549804687500e-01,9.079092144966125488e-01,9.078670740127563477e-01,9.078249335289001465e-01,9.077827334403991699e-01,9.077407121658325195e-01,9.076985716819763184e-01,9.076564311981201172e-01,9.076142907142639160e-01,9.075722098350524902e-01,9.075301885604858398e-01,9.074880480766296387e-01,9.074459671974182129e-01,9.074038267135620117e-01,9.073617458343505859e-01,9.073196053504943848e-01,9.072776436805725098e-01,9.072355031967163086e-01,9.071934223175048828e-01,9.071513414382934570e-01,9.071092605590820312e-01,9.070672988891601562e-01,9.070252180099487305e-01
8.635429143905639648e-01,8.635047674179077148e-01,8.634667396545410156e-01,8.634286522865295410e-01,8.633905053138732910e-01,8.633523583412170410e-01,8.633142709732055664e-01,8.632761240005493164e-01,8.632380962371826172e-01,8.632000088691711426e-01,8.631619215011596680e-01,8.631238341331481934e-01,8.630856871604919434e-01,8.630477190017700195e-01,8.630096316337585449e-01,8.629715442657470703e-01,8.629334568977355957e-01,8.628953695297241211e-01,8.628574013710021973e-01,8.628193140029907227e-01,8.627812266349792480e-01,8.627431392669677734e-01,8.627051115036010742e-01,8.626670241355895996e-01,8.626290559768676758e-01,8.625910282135009766e-01,8.625530004501342773e-01,8.625149130821228027e-01,8.624768853187561035e-01,8.624389171600341797e-01,8.624008893966674805e-01,8.623628616333007812e-01,8.623248338699340820e-01,8.622868061065673828e-01,8.622488379478454590e-01,8.622108697891235352e-01,8.621728420257568359e-01,8.621348142623901367e-01,8.620967864990234375e-01,8.620588779449462891e-01,8.620209097862243652e-01,8.619828820228576660e-01,8.619449138641357422e-01,8.619068861007690430e-01,8.618689179420471191e-01,8.618310093879699707e-01,8.617930412292480469e-01,8.617550134658813477e-01,8.617170453071594238e-01,8.616790771484375000e-01,8.616412281990051270e-01,8.616032600402832031e-01,8.615652918815612793e-01,8.615273237228393555e-01,8.614893555641174316e-01,8.614515066146850586e-01,8.614135384559631348e-01,8.613756299018859863e-01,8.613376617431640625e-01,8.612996935844421387e-01,8.612617850303649902e-01,8.612239360809326172e-01,8.611860275268554688e-01,8.611480593681335449e-01,8.611101508140563965e-01,8.610722422599792480e-01,8.610343933105468750e-01,8.609964847564697266e-01,8.609585762023925781e-01,8.609206676483154297e-01,8.608827590942382812e-01,8.608449697494506836e-01,8.608070611953735352e-01,8.607691526412963867e-01,8.607313036918640137e-01,8.606933951377868652e-01,8.606555461883544922e-01,8.606176972389221191e-01,8.605798482894897461e-01,8.605419993400573730e-01
8.213058710098266602e-01,8.212714791297912598e-01,8.212369680404663086e-01,8.212024569511413574e-01,8.211680054664611816e-01,8.211334943771362305e-01,8.210991024971008301e-01,8.210646510124206543e-01,8.210301399230957031e-01,8.209956884384155273e-01,8.209612369537353516e-01,8.209268450736999512e-01,8.208923935890197754e-01,8.208578824996948242e-01,8.208234310150146484e-01,8.207889795303344727e-01,8.207545280456542969e-01,8.207201957702636719e-01,8.206857442855834961e-01,8.206512928009033203e-01,8.206168413162231445e-01,8.205823898315429688e-01,8.205480575561523438e-01,8.205136060714721680e-01,8.204792141914367676e-01,8.204447627067565918e-01,8.204103708267211914e-01,8.203760385513305664e-01,8.203415870666503906e-01,8.203071951866149902e-01,8.202728033065795898e-01,8.202383518218994141e-01,8.202039599418640137e-01,8.201696276664733887e-01,8.201352357864379883e-01,8.201008439064025879e-01,8.200664520263671875e-01,8.200320601463317871e-01,8.199977278709411621e-01,8.199633955955505371e-01,8.199290037155151367e-01,8.198946118354797363e-01,8.198602199554443359e-01,8.198259472846984863e-01,8.197915554046630859e-01,8.197572231292724609e-01,8.197228312492370605e-01,8.196884393692016602e-01,8.196541070938110352e-01,8.196198344230651855e-01,8.195855021476745605e-01,8.195511102676391602e-01,8.195167779922485352e-01,8.194824457168579102e-01,8.194481730461120605e-01,8.194138407707214355e-01,8.193795084953308105e-01,8.193451762199401855e-01,8.193108439445495605e-01,8.192765712738037109e-01,8.192422389984130859e-01,8.192079067230224609e-01,8.191736340522766113e-01,8.191393017768859863e-01,8.191049695014953613e-01,8.190707564353942871e-01,8.190364241600036621e-01,8.190021514892578125e-01,8.189678192138671875e-01,8.189335465431213379e-01,8.188993334770202637e-01,8.188650012016296387e-01,8.188307285308837891e-01,8.187964558601379395e-01,8.187621831893920898e-01,8.187279701232910156e-01,8.186936974525451660e-01,8.186594247817993164e-01,8.186251521110534668e-01,8.185908794403076172e-01
