5.000000000000000000e+00,5.000000000000000000e+00,5.000000000000000000e+00,5.000000000000000000e+00,5.000000000000000000e+00,5.000000000000000000e+00,5.000000000000000000e+00,5.000000000000000000e+00,5.000000000000000000e+00,5.000000000000000000e+00,5.000000000000000000e+00,5.000000000000000000e+00,5.000000000000000000e+00,5.000000000000000000e+00,5.000000000000000000e+00,5.000000000000000000e+00,5.000000000000000000e+00,5.000000000000000000e+00,5.000000000000000000e+00,5.000000000000000000e+00,5.000000000000000000e+00,5.000000000000000000e+00,5.000000000000000000e+00,5.000000000000000000e+00,5.000000000000000000e+00,2.999276638031005859e+00,3.007093191146850586e+00,2.986616373062133789e+00,2.984421491622924805e+00,2.990597963333129883e+00,3.007801771163940430e+00,3.044905900955200195e+00,3.050401210784912109e+00,3.065155982971191406e+00,5.000000000000000000e+00,5.000000000000000000e+00,5.000000000000000000e+00,5.000000000000000000e+00,5.000000000000000000e+00,4.852195262908935547e+00,4.662059307098388672e+00,4.486263275146484375e+00,4.323242664337158203e+00,4.171654224395751953e+00,4.030336380004882812e+00,3.898279428482055664e+00,3.774601697921752930e+00,3.658530235290527344e+00,3.549384355545043945e+00,3.446562290191650391e+00,3.349529504776000977e+00,3.257811307907104492e+00,3.170981407165527344e+00,3.088660478591918945e+00,3.010505199432373047e+00,2.936208009719848633e+00,2.865489482879638672e+00,2.798097372055053711e+00,2.733802318572998047e+00,2.672395467758178711e+00,2.613687038421630859e+00,2.557502508163452148e+00,2.503682374954223633e+00,2.452081203460693359e+00,2.402563571929931641e+00,2.355006694793701172e+00,2.309295892715454102e+00,2.265325784683227539e+00,2.222998857498168945e+00,2.182224512100219727e+00,2.142919063568115234e+00,2.105004549026489258e+00,2.068408012390136719e+00,2.033062696456909180e+00,1.998904824256896973e+00,1.965875744819641113e+00,1.933920621871948242e+00,1.902987599372863770e+00,1.873028397560119629e+00,1.843997955322265625e+00
5.000000000000000000e+00,5.000000000000000000e+00,5.000000000000000000e+00,5.000000000000000000e+00,5.000000000000000000e+00,5.000000000000000000e+00,5.000000000000000000e+00,5.000000000000000000e+00,5.000000000000000000e+00,5.000000000000000000e+00,5.000000000000000000e+00,5.000000000000000000e+00,5.000000000000000000e+00,5.000000000000000000e+00,5.000000000000000000e+00,5.000000000000000000e+00,5.000000000000000000e+00,5.000000000000000000e+00,5.000000000000000000e+00,5.000000000000000000e+00,5.000000000000000000e+00,5.000000000000000000e+00,5.000000000000000000e+00,5.000000000000000000e+00,3.000799417495727539e+00,2.989655017852783203e+00,2.962431669235229492e+00,2.950744390487670898e+00,2.953114509582519531e+00,2.958283662796020508e+00,2.965703725814819336e+00,2.992299318313598633e+00,3.045614719390869141e+00,3.057124614715576172e+00,5.000000000000000000e+00,5.000000000000000000e+00,5.000000000000000000e+00,5.000000000000000000e+00,5.000000000000000000e+00,4.852332115173339844e+00,4.662186145782470703e+00,4.486380100250244141e+00,4.323351383209228516e+00,4.171755790710449219e+00,4.030430793762207031e+00,3.898367643356323242e+00,3.774684429168701172e+00,3.658608436584472656e+00,3.549457550048828125e+00,3.446631431579589844e+00,3.349594831466674805e+00,3.257872819900512695e+00,3.171040296554565430e+00,3.088715791702270508e+00,3.010558128356933594e+00,2.936258077621459961e+00,2.865537166595458984e+00,2.798142910003662109e+00,2.733845710754394531e+00,2.672437191009521484e+00,2.613726615905761719e+00,2.557540416717529297e+00,2.503719091415405273e+00,2.452116012573242188e+00,2.402597427368164062e+00,2.355038881301879883e+00,2.309326887130737305e+00,2.265355825424194336e+00,2.223027467727661133e+00,2.182252168655395508e+00,2.142945766448974609e+00,2.105030298233032227e+00,2.068433046340942383e+00,2.033086776733398438e+00,1.998928189277648926e+00,1.965898394584655762e+00,1.933942317962646484e+00,1.903008460998535156e+00,1.873048901557922363e+00,1.844017863273620605e+00
5.000000000000000000e+00,5.000000000000000000e+00,5.000000000000000000e+00,5.000000000000000000e+00,5.000000000000000000e+00,5.000000000000000000e+00,5.000000000000000000e+00,5.000000000000000000e+00,5.000000000000000000e+00,5.000000000000000000e+00,5.000000000000000000e+00,5.000000000000000000e+00,5.000000000000000000e+00,5.000000000000000000e+00,5.000000000000000000e+00,5.000000000000000000e+00,5.000000000000000000e+00,5.000000000000000000e+00,5.000000000000000000e+00,5.000000000000000000e+00,5.000000000000000000e+00,5.000000000000000000e+00,5.000000000000000000e+00,5.000000000000000000e+00,3.028255939483642578e+00,3.003376722335815430e+00,2.970018625259399414e+00,2.938259363174438477e+00,2.936891794204711914e+00,2.946505308151245117e+00,2.953791141510009766e+00,2.986048221588134766e+00,3.044568777084350586e+00,3.073725700378417969e+00,5.000000000000000000e+00,5.000000000000000000e+00,5.000000000000000000e+00,5.000000000000000000e+00,5.000000000000000000e+00,4.852469444274902344e+00,4.662312507629394531e+00,4.486497402191162109e+00,4.323460102081298828e+00,4.171856880187988281e+00,4.030525684356689453e+00,3.898456573486328125e+00,3.774767398834228516e+00,3.658686161041259766e+00,3.549531221389770508e+00,3.446700334548950195e+00,3.349660396575927734e+00,3.257934570312500000e+00,3.171098709106445312e+00,3.088771581649780273e+00,3.010610818862915039e+00,2.936308383941650391e+00,2.865584850311279297e+00,2.798188447952270508e+00,2.733889341354370117e+00,2.672478675842285156e+00,2.613766670227050781e+00,2.557578563690185547e+00,2.503755569458007812e+00,2.452151060104370117e+00,2.402630805969238281e+00,2.355071306228637695e+00,2.309357881546020508e+00,2.265385627746582031e+00,2.223056316375732422e+00,2.182279825210571289e+00,2.142972469329833984e+00,2.105056047439575195e+00,2.068457841873168945e+00,2.033110618591308594e+00,1.998951196670532227e+00,1.965920925140380859e+00,1.933964133262634277e+00,1.903029680252075195e+00,1.873069167137145996e+00,1.844037771224975586e+00
5.000000000000000000e+00,5.000000000000000000e+00,5.000000000000000000e+00,5.000000000000000000e+00,5.000000000000000000e+00,5.000000000000000000e+00,5.000000000000000000e+00,5.000000000000000000e+00,5.000000000000000000e+00,5.000000000000000000e+00,5.000000000000000000e+00,5.000000000000000000e+00,5.000000000000000000e+00,5.000000000000000000e+00,5.000000000000000000e+00,5.000000000000000000e+00,5.000000000000000000e+00,5.000000000000000000e+00,5.000000000000000000e+00,5.000000000000000000e+00,5.000000000000000000e+00,5.000000000000000000e+00,5.000000000000000000e+00,5.000000000000000000e+00,5.000000000000000000e+00,3.014746427536010742e+00,2.984601974487304688e+00,2.950893402099609375e+00,2.929243803024291992e+00,2.939257621765136719e+00,2.960214853286743164e+00,2.996876955032348633e+00,3.080432653427124023e+00,3.076915264129638672e+00,5.000000000000000000e+00,5.000000000000000000e+00,5.000000000000000000e+00,5.000000000000000000e+00,5.000000000000000000e+00,4.852606773376464844e+00,4.662438869476318359e+00,4.486614704132080078e+00,4.323568820953369141e+00,4.171957969665527344e+00,4.030620098114013672e+00,3.898544788360595703e+00,3.774850606918334961e+00,3.658763885498046875e+00,3.549604415893554688e+00,3.446769714355468750e+00,3.349725484848022461e+00,3.257996559143066406e+00,3.171157121658325195e+00,3.088827133178710938e+00,3.010663747787475586e+00,2.936358451843261719e+00,2.865633010864257812e+00,2.798233985900878906e+00,2.733932733535766602e+00,2.672520160675048828e+00,2.613806247711181641e+00,2.557616710662841797e+00,2.503791809082031250e+00,2.452186107635498047e+00,2.402664422988891602e+00,2.355103731155395508e+00,2.309389114379882812e+00,2.265415430068969727e+00,2.223085165023803711e+00,2.182307720184326172e+00,2.142999172210693359e+00,2.105081796646118164e+00,2.068482875823974609e+00,2.033134937286376953e+00,1.998974561691284180e+00,1.965943217277526855e+00,1.933985948562622070e+00,1.903050780296325684e+00,1.873089671134948730e+00,1.844057440757751465e+00
5.000000000000000000e+00,5.000000000000000000e+00,5.000000000000000000e+00,5.000000000000000000e+00,5.000000000000000000e+00,5.000000000000000000e+00,5.000000000000000000e+00,5.000000000000000000e+00,5.000000000000000000e+00,5.000000000000000000e+00,5.000000000000000000e+00,5.000000000000000000e+00,5.000000000000000000e+00,5.000000000000000000e+00,5.000000000000000000e+00,5.000000000000000000e+00,5.000000000000000000e+00,5.000000000000000000e+00,5.000000000000000000e+00,5.000000000000000000e+00,5.000000000000000000e+00,5.000000000000000000e+00,5.000000000000000000e+00,5.000000000000000000e+00,5.000000000000000000e+00,3.021131753921508789e+00,3.017443418502807617e+00,2.943659782409667969e+00,2.930523633956909180e+00,2.936351299285888672e+00,2.955596446990966797e+00,2.999371528625488281e+00,3.077535629272460938e+00,3.077113628387451172e+00,5.000000000000000000e+00,5.000000000000000000e+00,5.000000000000000000e+00,5.000000000000000000e+00,5.000000000000000000e+00,4.852743625640869141e+00,4.662565708160400391e+00,4.486732006072998047e+00,4.323678016662597656e+00,4.172059535980224609e+00,4.030714511871337891e+00,3.898633480072021484e+00,3.774933338165283203e+00,3.658842086791992188e+00,3.549677610397338867e+00,3.446838855743408203e+00,3.349790811538696289e+00,3.258058309555053711e+00,3.171215772628784180e+00,3.088882446289062500e+00,3.010716438293457031e+00,2.936408758163452148e+00,2.865680694580078125e+00,2.798279762268066406e+00,2.733976125717163086e+00,2.672561883926391602e+00,2.613846063613891602e+00,2.557654619216918945e+00,2.503828525543212891e+00,2.452221155166625977e+00,2.402698040008544922e+00,2.355135917663574219e+00,2.309420108795166016e+00,2.265445232391357422e+00,2.223113775253295898e+00,2.182335376739501953e+00,2.143025875091552734e+00,2.105107545852661133e+00,2.068507671356201172e+00,2.033158779144287109e+00,1.998997926712036133e+00,1.965965867042541504e+00,1.934007644653320312e+00,1.903071999549865723e+00,1.873110175132751465e+00,1.844077229499816895e+00
5.000000000000000000e+00,5.000000000000000000e+00,5.000000000000000000e+00,5.000000000000000000e+00,5.000000000000000000e+00,5.000000000000000000e+00,5.000000000000000000e+00,5.000000000000000000e+00,5.000000000000000000e+00,5.000000000000000000e+00,5.000000000000000000e+00,5.000000000000000000e+00,5.000000000000000000e+00,5.000000000000000000e+00,5.000000000000000000e+00,5.000000000000000000e+00,5.000000000000000000e+00,5.000000000000000000e+00,5.000000000000000000e+00,5.000000000000000000e+00,5.000000000000000000e+00,5.000000000000000000e+00,5.000000000000000000e+00,5.000000000000000000e+00,5.000000000000000000e+00,3.028160333633422852e+00,3.024016618728637695e+00,2.941508769989013672e+00,2.931579113006591797e+00,2.938479900360107422e+00,2.958857536315917969e+00,3.006184339523315430e+00,3.091253280639648438e+00,3.077997684478759766e+00,5.000000000000000000e+00,5.000000000000000000e+00,5.000000000000000000e+00,5.000000000000000000e+00,5.000000000000000000e+00,4.852880477905273438e+00,4.662692070007324219e+00,4.486848831176757812e+00,4.323786735534667969e+00,4.172161102294921875e+00,4.030809402465820312e+00,3.898721933364868164e+00,3.775016307830810547e+00,3.658919811248779297e+00,3.549751281738281250e+00,3.446907997131347656e+00,3.349856376647949219e+00,3.258120059967041016e+00,3.171274185180664062e+00,3.088938236236572266e+00,3.010769128799438477e+00,2.936459064483642578e+00,2.865728378295898438e+00,2.798325300216674805e+00,2.734019756317138672e+00,2.672603607177734375e+00,2.613885879516601562e+00,2.557692766189575195e+00,2.503865003585815430e+00,2.452256202697753906e+00,2.402731657028198242e+00,2.355168342590332031e+00,2.309451103210449219e+00,2.265475273132324219e+00,2.223142623901367188e+00,2.182363033294677734e+00,2.143052816390991211e+00,2.105133295059204102e+00,2.068532705307006836e+00,2.033182859420776367e+00,1.999021053314208984e+00,1.965988397598266602e+00,1.934029459953308105e+00,1.903092861175537109e+00,1.873130440711975098e+00,1.844097137451171875e+00
5.000000000000000000e+00,5.000000000000000000e+00,5.000000000000000000e+00,5.000000000000000000e+00,5.000000000000000000e+00,5.000000000000000000e+00,5.000000000000000000e+00,5.000000000000000000e+00,5.000000000000000000e+00,5.000000000000000000e+00,5.000000000000000000e+00,5.000000000000000000e+00,5.000000000000000000e+00,5.000000000000000000e+00,5.000000000000000000e+00,5.000000000000000000e+00,5.000000000000000000e+00,5.000000000000000000e+00,5.000000000000000000e+00,5.000000000000000000e+00,5.000000000000000000e+00,5.000000000000000000e+00,5.000000000000000000e+00,5.000000000000000000e+00,5.000000000000000000e+00,3.042381286621093750e+00,2.986782789230346680e+00,2.927188396453857422e+00,2.920388221740722656e+00,2.931435108184814453e+00,2.944529056549072266e+00,2.988384723663330078e+00,5.000000000000000000e+00,3.090881347656250000e+00,5.000000000000000000e+00,5.000000000000000000e+00,5.000000000000000000e+00,5.000000000000000000e+00,5.000000000000000000e+00,4.853017807006835938e+00,4.662818908691406250e+00,4.486966133117675781e+00,4.323895454406738281e+00,4.172262191772460938e+00,4.030903816223144531e+00,3.898810386657714844e+00,3.775099515914916992e+00,3.658997774124145508e+00,3.549824476242065430e+00,3.446977376937866211e+00,3.349921464920043945e+00,3.258182048797607422e+00,3.171332836151123047e+00,3.088993787765502930e+00,3.010822057723999023e+00,2.936509132385253906e+00,2.865776300430297852e+00,2.798370838165283203e+00,2.734063386917114258e+00,2.672645092010498047e+00,2.613925695419311523e+00,2.557730913162231445e+00,2.503901481628417969e+00,2.452291011810302734e+00,2.402765274047851562e+00,2.355200529098510742e+00,2.309482097625732422e+00,2.265504837036132812e+00,2.223171472549438477e+00,2.182390689849853516e+00,2.143079519271850586e+00,2.105159282684326172e+00,2.068557500839233398e+00,2.033206939697265625e+00,1.999044418334960938e+00,1.966010808944702148e+00,1.934051275253295898e+00,1.903114080429077148e+00,1.873150944709777832e+00,1.844116806983947754e+00
5.000000000000000000e+00,5.000000000000000000e+00,5.000000000000000000e+00,5.000000000000000000e+00,5.000000000000000000e+00,5.000000000000000000e+00,5.000000000000000000e+00,5.000000000000000000e+00,5.000000000000000000e+00,5.000000000000000000e+00,5.000000000000000000e+00,5.000000000000000000e+00,5.000000000000000000e+00,5.000000000000000000e+00,5.000000000000000000e+00,5.000000000000000000e+00,5.000000000000000000e+00,5.000000000000000000e+00,5.000000000000000000e+00,5.000000000000000000e+00,5.000000000000000000e+00,5.000000000000000000e+00,5.000000000000000000e+00,5.000000000000000000e+00,5.000000000000000000e+00,3.052690982818603516e+00,2.988189220428466797e+00,2.942247390747070312e+00,2.928022146224975586e+00,2.930714130401611328e+00,2.950522184371948242e+00,2.993421316146850586e+00,5.000000000000000000e+00,3.081560611724853516e+00,3.120280742645263672e+00,5.000000000000000000e+00,5.000000000000000000e+00,5.000000000000000000e+00,5.000000000000000000e+00,4.853154659271240234e+00,4.662945270538330078e+00,4.487083435058593750e+00,4.324004173278808594e+00,4.172363758087158203e+00,4.030998229980468750e+00,3.898899078369140625e+00,3.775182247161865234e+00,3.659075975418090820e+00,3.549897670745849609e+00,3.447046279907226562e+00,3.349987030029296875e+00,3.258243560791015625e+00,3.171391487121582031e+00,3.089049100875854492e+00,3.010874748229980469e+00,2.936559200286865234e+00,2.865823984146118164e+00,2.798416376113891602e+00,2.734106779098510742e+00,2.672686815261840820e+00,2.613965272903442383e+00,2.557769060134887695e+00,2.503937959671020508e+00,2.452326059341430664e+00,2.402798891067504883e+00,2.355232715606689453e+00,2.309513092041015625e+00,2.265534877777099609e+00,2.223200082778930664e+00,2.182418584823608398e+00,2.143106222152709961e+00,2.105185031890869141e+00,2.068582534790039062e+00,2.033231019973754883e+00,1.999067664146423340e+00,1.966033339500427246e+00,1.934072971343994141e+00,1.903135180473327637e+00,1.873171448707580566e+00,1.844136595726013184e+00
5.000000000000000000e+00,5.000000000000000000e+00,5.000000000000000000e+00,5.000000000000000000e+00,5.000000000000000000e+00,5.000000000000000000e+00,5.000000000000000000e+00,5.000000000000000000e+00,5.000000000000000000e+00,5.000000000000000000e+00,5.000000000000000000e+00,5.000000000000000000e+00,5.000000000000000000e+00,5.000000000000000000e+00,5.000000000000000000e+00,5.000000000000000000e+00,5.000000000000000000e+00,5.000000000000000000e+00,5.000000000000000000e+00,5.000000000000000000e+00,5.000000000000000000e+00,5.000000000000000000e+00,5.000000000000000000e+00,5.000000000000000000e+00,5.000000000000000000e+00,3.009875774383544922e+00,3.009838104248046875e+00,2.940407752990722656e+00,2.937894105911254883e+00,2.939883470535278320e+00,2.955004930496215820e+00,2.984283924102783203e+00,5.000000000000000000e+00,3.066422700881958008e+00,3.094357252120971680e+00,5.000000000000000000e+00,5.000000000000000000e+00,5.000000000000000000e+00,5.000000000000000000e+00,4.853291988372802734e+00,4.663071632385253906e+00,4.487200260162353516e+00,4.324113368988037109e+00,4.172464847564697266e+00,4.031093120574951172e+00,3.898987293243408203e+00,3.775264978408813477e+00,3.659153699874877930e+00,3.549971342086791992e+00,3.447115421295166016e+00,3.350052356719970703e+00,3.258305311203002930e+00,3.171449899673461914e+00,3.089104890823364258e+00,3.010927438735961914e+00,2.936609745025634766e+00,2.865871667861938477e+00,2.798461914062500000e+00,2.734150409698486328e+00,2.672728300094604492e+00,2.614005327224731445e+00,2.557806968688964844e+00,2.503974437713623047e+00,2.452361106872558594e+00,2.402832508087158203e+00,2.355265140533447266e+00,2.309544086456298828e+00,2.265564680099487305e+00,2.223228931427001953e+00,2.182446241378784180e+00,2.143132925033569336e+00,2.105210781097412109e+00,2.068607330322265625e+00,2.033255100250244141e+00,1.999090790748596191e+00,1.966055870056152344e+00,1.934094786643981934e+00,1.903156161308288574e+00,1.873191714286804199e+00,1.844156503677368164e+00
5.000000000000000000e+00,5.000000000000000000e+00,5.000000000000000000e+00,5.000000000000000000e+00,5.000000000000000000e+00,5.000000000000000000e+00,5.000000000000000000e+00,5.000000000000000000e+00,5.000000000000000000e+00,5.000000000000000000e+00,5.000000000000000000e+00,5.000000000000000000e+00,5.000000000000000000e+00,5.000000000000000000e+00,5.000000000000000000e+00,5.000000000000000000e+00,5.000000000000000000e+00,5.000000000000000000e+00,5.000000000000000000e+00,5.000000000000000000e+00,5.000000000000000000e+00,5.000000000000000000e+00,5.000000000000000000e+00,5.000000000000000000e+00,5.000000000000000000e+00,2.988921642303466797e+00,2.902083873748779297e+00,2.882720708847045898e+00,2.932478427886962891e+00,2.964990854263305664e+00,2.962834119796752930e+00,2.968089103698730469e+00,5.000000000000000000e+00,3.059623241424560547e+00,3.068309783935546875e+00,5.000000000000000000e+00,5.000000000000000000e+00,5.000000000000000000e+00,5.000000000000000000e+00,4.853429317474365234e+00,4.663198471069335938e+00,4.487317562103271484e+00,4.324222087860107422e+00,4.172566413879394531e+00,4.031187534332275391e+00,3.899075746536254883e+00,3.775348424911499023e+00,3.659231424331665039e+00,3.550044536590576172e+00,3.447184801101684570e+00,3.350117444992065430e+00,3.258367300033569336e+00,3.171508312225341797e+00,3.089160442352294922e+00,3.010980367660522461e+00,2.936659812927246094e+00,2.865919828414916992e+00,2.798507452011108398e+00,2.734193801879882812e+00,2.672770023345947266e+00,2.614044904708862305e+00,2.557845115661621094e+00,2.504010915756225586e+00,2.452396154403686523e+00,2.402866125106811523e+00,2.355297327041625977e+00,2.309575319290161133e+00,2.265594482421875000e+00,2.223257780075073242e+00,2.182473897933959961e+00,2.143159627914428711e+00,2.105236768722534180e+00,2.068632125854492188e+00,2.033279180526733398e+00,1.999114155769348145e+00,1.966078281402587891e+00,1.934116601943969727e+00,1.903177380561828613e+00,1.873212218284606934e+00,1.844176173210144043e+00
5.000000000000000000e+00,5.000000000000000000e+00,5.000000000000000000e+00,5.000000000000000000e+00,5.000000000000000000e+00,5.000000000000000000e+00,5.000000000000000000e+00,5.000000000000000000e+00,5.000000000000000000e+00,5.000000000000000000e+00,5.000000000000000000e+00,5.000000000000000000e+00,5.000000000000000000e+00,5.000000000000000000e+00,5.000000000000000000e+00,5.000000000000000000e+00,5.000000000000000000e+00,5.000000000000000000e+00,5.000000000000000000e+00,5.000000000000000000e+00,5.000000000000000000e+00,5.000000000000000000e+00,5.000000000000000000e+00,5.000000000000000000e+00,5.000000000000000000e+00,2.960883378982543945e+00,2.870215415954589844e+00,2.854409694671630859e+00,2.883405685424804688e+00,2.991314888000488281e+00,2.935741901397705078e+00,2.945855617523193359e+00,3.017993927001953125e+00,5.000000000000000000e+00,3.058962583541870117e+00,5.000000000000000000e+00,5.000000000000000000e+00,5.000000000000000000e+00,5.000000000000000000e+00,4.853566169738769531e+00,4.663325309753417969e+00,4.487435340881347656e+00,4.324330806732177734e+00,4.172667503356933594e+00,4.031281948089599609e+00,3.899164676666259766e+00,3.775431156158447266e+00,3.659309625625610352e+00,3.550117969512939453e+00,3.447253942489624023e+00,3.350183010101318359e+00,3.258429050445556641e+00,3.171567201614379883e+00,3.089215755462646484e+00,3.011033058166503906e+00,2.936709880828857422e+00,2.865967512130737305e+00,2.798553228378295898e+00,2.734237194061279297e+00,2.672811508178710938e+00,2.614084720611572266e+00,2.557883262634277344e+00,2.504047632217407227e+00,2.452431201934814453e+00,2.402899742126464844e+00,2.355329513549804688e+00,2.309606313705444336e+00,2.265624523162841797e+00,2.223286390304565430e+00,2.182501792907714844e+00,2.143186330795288086e+00,2.105262517929077148e+00,2.068657159805297852e+00,2.033303260803222656e+00,1.999137520790100098e+00,1.966100811958312988e+00,1.934138298034667969e+00,1.903198480606079102e+00,1.873232722282409668e+00,1.844196081161499023e+00
5.000000000000000000e+00,5.000000000000000000e+00,5.000000000000000000e+00,5.000000000000000000e+00,5.000000000000000000e+00,5.000000000000000000e+00,5.000000000000000000e+00,5.000000000000000000e+00,5.000000000000000000e+00,5.000000000000000000e+00,5.000000000000000000e+00,5.000000000000000000e+00,5.000000000000000000e+00,5.000000000000000000e+00,5.000000000000000000e+00,5.000000000000000000e+00,5.000000000000000000e+00,5.000000000000000000e+00,5.000000000000000000e+00,5.000000000000000000e+00,5.000000000000000000e+00,5.000000000000000000e+00,5.000000000000000000e+00,5.000000000000000000e+00,5.000000000000000000e+00,2.949003696441650391e+00,2.845213890075683594e+00,2.836685895919799805e+00,2.867820501327514648e+00,2.974651336669921875e+00,2.926825046539306641e+00,2.939123630523681641e+00,2.981180667877197266e+00,3.024668216705322266e+00,3.030851602554321289e+00,5.000000000000000000e+00,5.000000000000000000e+00,5.000000000000000000e+00,5.000000000000000000e+00,4.853703498840332031e+00,4.663451671600341797e+00,4.487552642822265625e+00,4.324440002441406250e+00,4.172769069671630859e+00,4.031376838684082031e+00,3.899252891540527344e+00,3.775514125823974609e+00,3.659387588500976562e+00,3.550191402435302734e+00,3.447322845458984375e+00,3.350248336791992188e+00,3.258490800857543945e+00,3.171625614166259766e+00,3.089271545410156250e+00,3.011085748672485352e+00,2.936760187149047852e+00,2.866015195846557617e+00,2.798598766326904297e+00,2.734281063079833984e+00,2.672852993011474609e+00,2.614124536514282227e+00,2.557921171188354492e+00,2.504083871841430664e+00,2.452466249465942383e+00,2.402933359146118164e+00,2.355361938476562500e+00,2.309637308120727539e+00,2.265654325485229492e+00,2.223315238952636719e+00,2.182529449462890625e+00,2.143213272094726562e+00,2.105288267135620117e+00,2.068682193756103516e+00,2.033327341079711914e+00,1.999160647392272949e+00,1.966123461723327637e+00,1.934160113334655762e+00,1.903219461441040039e+00,1.873252987861633301e+00,1.844215869903564453e+00
5.000000000000000000e+00,5.000000000000000000e+00,5.000000000000000000e+00,5.000000000000000000e+00,5.000000000000000000e+00,5.000000000000000000e+00,5.000000000000000000e+00,5.000000000000000000e+00,5.000000000000000000e+00,5.000000000000000000e+00,5.000000000000000000e+00,5.000000000000000000e+00,5.000000000000000000e+00,5.000000000000000000e+00,5.000000000000000000e+00,5.000000000000000000e+00,5.000000000000000000e+00,5.000000000000000000e+00,5.000000000000000000e+00,5.000000000000000000e+00,5.000000000000000000e+00,5.000000000000000000e+00,5.000000000000000000e+00,5.000000000000000000e+00,5.000000000000000000e+00,2.918451786041259766e+00,2.822864055633544922e+00,2.817030668258666992e+00,2.857072830200195312e+00,2.972293376922607422e+00,2.924091577529907227e+00,2.935999870300292969e+00,5.000000000000000000e+00,2.999511241912841797e+00,3.003420829772949219e+00,5.000000000000000000e+00,5.000000000000000000e+00,5.000000000000000000e+00,5.000000000000000000e+00,4.853840351104736328e+00,4.663578510284423828e+00,4.487669467926025391e+00,4.324548721313476562e+00,4.172870635986328125e+00,4.031471729278564453e+00,3.899341344833374023e+00,3.775597333908081055e+00,3.659465312957763672e+00,3.550264835357666016e+00,3.447392463684082031e+00,3.350313425064086914e+00,3.258552789688110352e+00,3.171684026718139648e+00,3.089327096939086914e+00,3.011138677597045898e+00,2.936810255050659180e+00,2.866063117980957031e+00,2.798644304275512695e+00,2.734324455261230469e+00,2.672894716262817383e+00,2.614164352416992188e+00,2.557959556579589844e+00,2.504120349884033203e+00,2.452501296997070312e+00,2.402966976165771484e+00,2.355394363403320312e+00,2.309668540954589844e+00,2.265684127807617188e+00,2.223344087600708008e+00,2.182557106018066406e+00,2.143239974975585938e+00,2.105314016342163086e+00,2.068706989288330078e+00,2.033351421356201172e+00,1.999183893203735352e+00,1.966145753860473633e+00,1.934181928634643555e+00,1.903240561485290527e+00,1.873273491859436035e+00,1.844235539436340332e+00
5.000000000000000000e+00,5.000000000000000000e+00,5.000000000000000000e+00,5.000000000000000000e+00,5.000000000000000000e+00,5.000000000000000000e+00,5.000000000000000000e+00,5.000000000000000000e+00,5.000000000000000000e+00,5.000000000000000000e+00,5.000000000000000000e+00,5.000000000000000000e+00,5.000000000000000000e+00,5.000000000000000000e+00,5.000000000000000000e+00,5.000000000000000000e+00,5.000000000000000000e+00,5.000000000000000000e+00,5.000000000000000000e+00,5.000000000000000000e+00,5.000000000000000000e+00,5.000000000000000000e+00,5.000000000000000000e+00,5.000000000000000000e+00,5.000000000000000000e+00,5.000000000000000000e+00,2.795888662338256836e+00,2.799101114273071289e+00,2.842515707015991211e+00,2.967804670333862305e+00,2.919059991836547852e+00,2.934671878814697266e+00,5.000000000000000000e+00,5.000000000000000000e+00,2.980889320373535156e+00,5.000000000000000000e+00,5.000000000000000000e+00,5.000000000000000000e+00,5.000000000000000000e+00,4.853977680206298828e+00,4.663704872131347656e+00,4.487786769866943359e+00,4.324657440185546875e+00,4.172971725463867188e+00,4.031566143035888672e+00,3.899430036544799805e+00,3.775680065155029297e+00,3.659543514251708984e+00,3.550338029861450195e+00,3.447461366653442383e+00,3.350378990173339844e+00,3.258614540100097656e+00,3.171742916107177734e+00,3.089382410049438477e+00,3.011191368103027344e+00,2.936860799789428711e+00,2.866111040115356445e+00,2.798690080642700195e+00,2.734367847442626953e+00,2.672936201095581055e+00,2.614203929901123047e+00,2.557997465133666992e+00,2.504157066345214844e+00,2.452536106109619141e+00,2.403000593185424805e+00,2.355426549911499023e+00,2.309699535369873047e+00,2.265714168548583984e+00,2.223372697830200195e+00,2.182585000991821289e+00,2.143266677856445312e+00,2.105339765548706055e+00,2.068732023239135742e+00,2.033375501632690430e+00,1.999207258224487305e+00,1.966168403625488281e+00,1.934203624725341797e+00,1.903261780738830566e+00,1.873293995857238770e+00,1.844255447387695312e+00
5.000000000000000000e+00,5.000000000000000000e+00,5.000000000000000000e+00,5.000000000000000000e+00,5.000000000000000000e+00,5.000000000000000000e+00,5.000000000000000000e+00,5.000000000000000000e+00,5.000000000000000000e+00,5.000000000000000000e+00,5.000000000000000000e+00,5.000000000000000000e+00,5.000000000000000000e+00,5.000000000000000000e+00,5.000000000000000000e+00,5.000000000000000000e+00,5.000000000000000000e+00,5.000000000000000000e+00,5.000000000000000000e+00,5.000000000000000000e+00,5.000000000000000000e+00,5.000000000000000000e+00,5.000000000000000000e+00,5.000000000000000000e+00,5.000000000000000000e+00,5.000000000000000000e+00,2.769335269927978516e+00,2.778150320053100586e+00,2.824653625488281250e+00,2.956944704055786133e+00,2.914628744125366211e+00,2.928323745727539062e+00,5.000000000000000000e+00,5.000000000000000000e+00,5.000000000000000000e+00,5.000000000000000000e+00,5.000000000000000000e+00,5.000000000000000000e+00,5.000000000000000000e+00,4.854114532470703125e+00,4.663831233978271484e+00,4.487904071807861328e+00,4.324766635894775391e+00,4.173073291778564453e+00,4.031660556793212891e+00,3.899518489837646484e+00,3.775763511657714844e+00,3.659621477127075195e+00,3.550411701202392578e+00,3.447530508041381836e+00,3.350444316864013672e+00,3.258676290512084961e+00,3.171801328659057617e+00,3.089438199996948242e+00,3.011244058609008789e+00,2.936910867691040039e+00,2.866158723831176758e+00,2.798735618591308594e+00,2.734411478042602539e+00,2.672977685928344727e+00,2.614243984222412109e+00,2.558035612106323242e+00,2.504193544387817383e+00,2.452571392059326172e+00,2.403034210205078125e+00,2.355458974838256836e+00,2.309730529785156250e+00,2.265743970870971680e+00,2.223401546478271484e+00,2.182612657546997070e+00,2.143293380737304688e+00,2.105365514755249023e+00,2.068756818771362305e+00,2.033399581909179688e+00,1.999230384826660156e+00,1.966190934181213379e+00,1.934225440025329590e+00,1.903282642364501953e+00,1.873314499855041504e+00,1.844275355339050293e+00
5.000000000000000000e+00,5.000000000000000000e+00,5.000000000000000000e+00,5.000000000000000000e+00,5.000000000000000000e+00,5.000000000000000000e+00,5.000000000000000000e+00,5.000000000000000000e+00,5.000000000000000000e+00,5.000000000000000000e+00,5.000000000000000000e+00,5.000000000000000000e+00,5.000000000000000000e+00,5.000000000000000000e+00,5.000000000000000000e+00,5.000000000000000000e+00,5.000000000000000000e+00,5.000000000000000000e+00,5.000000000000000000e+00,5.000000000000000000e+00,5.000000000000000000e+00,5.000000000000000000e+00,5.000000000000000000e+00,5.000000000000000000e+00,5.000000000000000000e+00,5.000000000000000000e+00,2.752991199493408203e+00,2.762334108352661133e+00,2.812343597412109375e+00,2.944936275482177734e+00,2.908164978027343750e+00,2.923090457916259766e+00,5.000000000000000000e+00,5.000000000000000000e+00,5.000000000000000000e+00,5.000000000000000000e+00,5.000000000000000000e+00,5.000000000000000000e+00,5.000000000000000000e+00,4.854251861572265625e+00,4.663958072662353516e+00,4.488021373748779297e+00,4.324875354766845703e+00,4.173174858093261719e+00,4.031755447387695312e+00,3.899606943130493164e+00,3.775846242904663086e+00,3.659699201583862305e+00,3.550484895706176758e+00,3.447599887847900391e+00,3.350509643554687500e+00,3.258738279342651367e+00,3.171859741210937500e+00,3.089493751525878906e+00,3.011297225952148438e+00,2.936960935592651367e+00,2.866206645965576172e+00,2.798781156539916992e+00,2.734455108642578125e+00,2.673019409179687500e+00,2.614283561706542969e+00,2.558073759078979492e+00,2.504230022430419922e+00,2.452606201171875000e+00,2.403067827224731445e+00,2.355491161346435547e+00,2.309761762619018555e+00,2.265773773193359375e+00,2.223430395126342773e+00,2.182640552520751953e+00,2.143320083618164062e+00,2.105391502380371094e+00,2.068781614303588867e+00,2.033423662185668945e+00,1.999253749847412109e+00,1.966213345527648926e+00,1.934247255325317383e+00,1.903303861618041992e+00,1.873334765434265137e+00,1.844295024871826172e+00
5.000000000000000000e+00,5.000000000000000000e+00,5.000000000000000000e+00,5.000000000000000000e+00,5.000000000000000000e+00,5.000000000000000000e+00,5.000000000000000000e+00,5.000000000000000000e+00,5.000000000000000000e+00,5.000000000000000000e+00,5.000000000000000000e+00,5.000000000000000000e+00,5.000000000000000000e+00,5.000000000000000000e+00,5.000000000000000000e+00,5.000000000000000000e+00,5.000000000000000000e+00,5.000000000000000000e+00,5.000000000000000000e+00,5.000000000000000000e+00,5.000000000000000000e+00,5.000000000000000000e+00,5.000000000000000000e+00,5.000000000000000000e+00,5.000000000000000000e+00,5.000000000000000000e+00,2.757462739944458008e+00,2.765406131744384766e+00,2.817850112915039062e+00,2.940396308898925781e+00,2.903291463851928711e+00,2.927457571029663086e+00,5.000000000000000000e+00,5.000000000000000000e+00,5.000000000000000000e+00,5.000000000000000000e+00,5.000000000000000000e+00,5.000000000000000000e+00,5.000000000000000000e+00,4.854389190673828125e+00,4.664084911346435547e+00,4.488138675689697266e+00,4.324984073638916016e+00,4.173275947570800781e+00,4.031849861145019531e+00,3.899695634841918945e+00,3.775929212570190430e+00,3.659777402877807617e+00,3.550558090209960938e+00,3.447669029235839844e+00,3.350575208663940430e+00,3.258800029754638672e+00,3.171918630599975586e+00,3.089549064636230469e+00,3.011349916458129883e+00,2.937011480331420898e+00,2.866254329681396484e+00,2.798826932907104492e+00,2.734498500823974609e+00,2.673061132431030273e+00,2.614323616027832031e+00,2.558111667633056641e+00,2.504266500473022461e+00,2.452641248703002930e+00,2.403101444244384766e+00,2.355523347854614258e+00,2.309792757034301758e+00,2.265803813934326172e+00,2.223459005355834961e+00,2.182668209075927734e+00,2.143346786499023438e+00,2.105417251586914062e+00,2.068806648254394531e+00,2.033447742462158203e+00,1.999277114868164062e+00,1.966235876083374023e+00,1.934268951416015625e+00,1.903324961662292480e+00,1.873355269432067871e+00,1.844314813613891602e+00
5.000000000000000000e+00,5.000000000000000000e+00,5.000000000000000000e+00,5.000000000000000000e+00,5.000000000000000000e+00,5.000000000000000000e+00,5.000000000000000000e+00,5.000000000000000000e+00,5.000000000000000000e+00,5.000000000000000000e+00,5.000000000000000000e+00,5.000000000000000000e+00,5.000000000000000000e+00,5.000000000000000000e+00,5.000000000000000000e+00,5.000000000000000000e+00,5.000000000000000000e+00,5.000000000000000000e+00,5.000000000000000000e+00,5.000000000000000000e+00,5.000000000000000000e+00,5.000000000000000000e+00,5.000000000000000000e+00,5.000000000000000000e+00,5.000000000000000000e+00,5.000000000000000000e+00,2.824486017227172852e+00,2.803303480148315430e+00,2.883868932723999023e+00,2.964763402938842773e+00,2.917204141616821289e+00,2.963689565658569336e+00,5.000000000000000000e+00,5.000000000000000000e+00,5.000000000000000000e+00,5.000000000000000000e+00,5.000000000000000000e+00,5.000000000000000000e+00,5.000000000000000000e+00,4.854526519775390625e+00,4.664211273193359375e+00,4.488255977630615234e+00,4.325093269348144531e+00,4.173377513885498047e+00,4.031944751739501953e+00,3.899784088134765625e+00,3.776012420654296875e+00,3.659855365753173828e+00,3.550631761550903320e+00,3.447738170623779297e+00,3.350640296936035156e+00,3.258862018585205078e+00,3.171977043151855469e+00,3.089604854583740234e+00,3.011402606964111328e+00,2.937061548233032227e+00,2.866302251815795898e+00,2.798872470855712891e+00,2.734542131423950195e+00,2.673102617263793945e+00,2.614363193511962891e+00,2.558149814605712891e+00,2.504302978515625000e+00,2.452676296234130859e+00,2.403135061264038086e+00,2.355555772781372070e+00,2.309823751449584961e+00,2.265833616256713867e+00,2.223487854003906250e+00,2.182695865631103516e+00,2.143373727798461914e+00,2.105443000793457031e+00,2.068831443786621094e+00,2.033471822738647461e+00,1.999300241470336914e+00,1.966258525848388672e+00,1.934290766716003418e+00,1.903345942497253418e+00,1.873375773429870605e+00,1.844334721565246582e+00
5.000000000000000000e+00,5.000000000000000000e+00,5.000000000000000000e+00,5.000000000000000000e+00,5.000000000000000000e+00,5.000000000000000000e+00,5.000000000000000000e+00,5.000000000000000000e+00,5.000000000000000000e+00,5.000000000000000000e+00,5.000000000000000000e+00,5.000000000000000000e+00,5.000000000000000000e+00,5.000000000000000000e+00,5.000000000000000000e+00,5.000000000000000000e+00,5.000000000000000000e+00,5.000000000000000000e+00,5.000000000000000000e+00,5.000000000000000000e+00,5.000000000000000000e+00,5.000000000000000000e+00,5.000000000000000000e+00,5.000000000000000000e+00,5.000000000000000000e+00,5.000000000000000000e+00,2.931005716323852539e+00,2.863533020019531250e+00,2.911590576171875000e+00,3.005430698394775391e+00,2.949283123016357422e+00,3.001244783401489258e+00,5.000000000000000000e+00,5.000000000000000000e+00,5.000000000000000000e+00,5.000000000000000000e+00,5.000000000000000000e+00,5.000000000000000000e+00,5.000000000000000000e+00,4.854663372039794922e+00,4.664338111877441406e+00,4.488372802734375000e+00,4.325201988220214844e+00,4.173479080200195312e+00,4.032039165496826172e+00,3.899872541427612305e+00,3.776095151901245117e+00,3.659933090209960938e+00,3.550704956054687500e+00,3.447807550430297852e+00,3.350705623626708984e+00,3.258923768997192383e+00,3.172035455703735352e+00,3.089660406112670898e+00,3.011455535888671875e+00,2.937111616134643555e+00,2.866350173950195312e+00,2.798917770385742188e+00,2.734585523605346680e+00,2.673144340515136719e+00,2.614403009414672852e+00,2.558187961578369141e+00,2.504339456558227539e+00,2.452711343765258789e+00,2.403168678283691406e+00,2.355587959289550781e+00,2.309854745864868164e+00,2.265863418579101562e+00,2.223516702651977539e+00,2.182723760604858398e+00,2.143400430679321289e+00,2.105468988418579102e+00,2.068856477737426758e+00,2.033495903015136719e+00,1.999323606491088867e+00,1.966280817985534668e+00,1.934312582015991211e+00,1.903367161750793457e+00,1.873396158218383789e+00,1.844354391098022461e+00
5.000000000000000000e+00,5.000000000000000000e+00,5.000000000000000000e+00,5.000000000000000000e+00,5.000000000000000000e+00,5.000000000000000000e+00,5.000000000000000000e+00,5.000000000000000000e+00,5.000000000000000000e+00,5.000000000000000000e+00,5.000000000000000000e+00,5.000000000000000000e+00,5.000000000000000000e+00,5.000000000000000000e+00,5.000000000000000000e+00,5.000000000000000000e+00,5.000000000000000000e+00,5.000000000000000000e+00,5.000000000000000000e+00,5.000000000000000000e+00,5.000000000000000000e+00,5.000000000000000000e+00,5.000000000000000000e+00,5.000000000000000000e+00,5.000000000000000000e+00,5.000000000000000000e+00,5.000000000000000000e+00,2.899417877197265625e+00,2.937287092208862305e+00,3.015004634857177734e+00,2.981301784515380859e+00,3.043598651885986328e+00,5.000000000000000000e+00,5.000000000000000000e+00,5.000000000000000000e+00,5.000000000000000000e+00,5.000000000000000000e+00,5.000000000000000000e+00,5.000000000000000000e+00,4.854801654815673828e+00,4.664464950561523438e+00,4.488490581512451172e+00,4.325310707092285156e+00,4.173580169677734375e+00,4.032134056091308594e+00,3.899961233139038086e+00,3.776178121566772461e+00,3.660011529922485352e+00,3.550778388977050781e+00,3.447876691818237305e+00,3.350771188735961914e+00,3.258985519409179688e+00,3.172094345092773438e+00,3.089715957641601562e+00,3.011508226394653320e+00,2.937161922454833984e+00,2.866397857666015625e+00,2.798963546752929688e+00,2.734629154205322266e+00,2.673185825347900391e+00,2.614443063735961914e+00,2.558226108551025391e+00,2.504376173019409180e+00,2.452746152877807617e+00,2.403202295303344727e+00,2.355620384216308594e+00,2.309885740280151367e+00,2.265893459320068359e+00,2.223545312881469727e+00,2.182751417160034180e+00,2.143427133560180664e+00,2.105494737625122070e+00,2.068881511688232422e+00,2.033519983291625977e+00,1.999346852302551270e+00,1.966303467750549316e+00,1.934334278106689453e+00,1.903388261795043945e+00,1.873416662216186523e+00,1.844374299049377441e+00
5.000000000000000000e+00,5.000000000000000000e+00,5.000000000000000000e+00,5.000000000000000000e+00,5.000000000000000000e+00,5.000000000000000000e+00,5.000000000000000000e+00,5.000000000000000000e+00,5.000000000000000000e+00,5.000000000000000000e+00,5.000000000000000000e+00,5.000000000000000000e+00,5.000000000000000000e+00,5.000000000000000000e+00,5.000000000000000000e+00,5.000000000000000000e+00,5.000000000000000000e+00,5.000000000000000000e+00,5.000000000000000000e+00,5.000000000000000000e+00,5.000000000000000000e+00,5.000000000000000000e+00,5.000000000000000000e+00,5.000000000000000000e+00,5.000000000000000000e+00,5.000000000000000000e+00,5.000000000000000000e+00,2.935094833374023438e+00,2.968494176864624023e+00,3.019052982330322266e+00,2.994146823883056641e+00,5.000000000000000000e+00,5.000000000000000000e+00,5.000000000000000000e+00,5.000000000000000000e+00,5.000000000000000000e+00,5.000000000000000000e+00,5.000000000000000000e+00,5.000000000000000000e+00,4.854939460754394531e+00,4.664591789245605469e+00,4.488607883453369141e+00,4.325419902801513672e+00,4.173681735992431641e+00,4.032228469848632812e+00,3.900049686431884766e+00,3.776261329650878906e+00,3.660089254379272461e+00,3.550852060317993164e+00,3.447945594787597656e+00,3.350836515426635742e+00,3.259047508239746094e+00,3.172152757644653320e+00,3.089771747589111328e+00,3.011560916900634766e+00,2.937212228775024414e+00,2.866445779800415039e+00,2.799009084701538086e+00,2.734672784805297852e+00,2.673227310180664062e+00,2.614482641220092773e+00,2.558264017105102539e+00,2.504412651062011719e+00,2.452781438827514648e+00,2.403235912322998047e+00,2.355652809143066406e+00,2.309916734695434570e+00,2.265923261642456055e+00,2.223574399948120117e+00,2.182779073715209961e+00,2.143453836441040039e+00,2.105520486831665039e+00,2.068906307220458984e+00,2.033544063568115234e+00,1.999369978904724121e+00,1.966325998306274414e+00,1.934356093406677246e+00,1.903409242630004883e+00,1.873437166213989258e+00,1.844394087791442871e+00
5.000000000000000000e+00,5.000000000000000000e+00,5.000000000000000000e+00,5.000000000000000000e+00,5.000000000000000000e+00,5.000000000000000000e+00,5.000000000000000000e+00,5.000000000000000000e+00,5.000000000000000000e+00,5.000000000000000000e+00,5.000000000000000000e+00,5.000000000000000000e+00,5.000000000000000000e+00,5.000000000000000000e+00,5.000000000000000000e+00,5.000000000000000000e+00,5.000000000000000000e+00,5.000000000000000000e+00,5.000000000000000000e+00,5.000000000000000000e+00,5.000000000000000000e+00,5.000000000000000000e+00,5.000000000000000000e+00,5.000000000000000000e+00,5.000000000000000000e+00,5.000000000000000000e+00,5.000000000000000000e+00,3.002519130706787109e+00,3.009309053421020508e+00,3.025135993957519531e+00,3.007102727890014648e+00,5.000000000000000000e+00,5.000000000000000000e+00,5.000000000000000000e+00,5.000000000000000000e+00,5.000000000000000000e+00,5.000000000000000000e+00,5.000000000000000000e+00,5.000000000000000000e+00,4.855077743530273438e+00,4.664719581604003906e+00,4.488725185394287109e+00,4.325529098510742188e+00,4.173783302307128906e+00,4.032323360443115234e+00,3.900138139724731445e+00,3.776344299316406250e+00,3.660167455673217773e+00,3.550925254821777344e+00,3.448015213012695312e+00,3.350901603698730469e+00,3.259109258651733398e+00,3.172211170196533203e+00,3.089827060699462891e+00,3.011613845825195312e+00,2.937262296676635742e+00,2.866493701934814453e+00,2.799054622650146484e+00,2.734716176986694336e+00,2.673269033432006836e+00,2.614522457122802734e+00,2.558302402496337891e+00,2.504448890686035156e+00,2.452816247940063477e+00,2.403269767761230469e+00,2.355684995651245117e+00,2.309947967529296875e+00,2.265953063964843750e+00,2.223603010177612305e+00,2.182806968688964844e+00,2.143480539321899414e+00,2.105546236038208008e+00,2.068931102752685547e+00,2.033568143844604492e+00,1.999393343925476074e+00,1.966348409652709961e+00,1.934378027915954590e+00,1.903430342674255371e+00,1.873457431793212891e+00,1.844413995742797852e+00
5.000000000000000000e+00,5.000000000000000000e+00,5.000000000000000000e+00,5.000000000000000000e+00,5.000000000000000000e+00,5.000000000000000000e+00,5.000000000000000000e+00,5.000000000000000000e+00,5.000000000000000000e+00,5.000000000000000000e+00,5.000000000000000000e+00,5.000000000000000000e+00,5.000000000000000000e+00,5.000000000000000000e+00,5.000000000000000000e+00,5.000000000000000000e+00,5.000000000000000000e+00,5.000000000000000000e+00,5.000000000000000000e+00,5.000000000000000000e+00,5.000000000000000000e+00,5.000000000000000000e+00,5.000000000000000000e+00,5.000000000000000000e+00,5.000000000000000000e+00,5.000000000000000000e+00,5.000000000000000000e+00,5.000000000000000000e+00,3.071057081222534180e+00,3.040069103240966797e+00,3.036288261413574219e+00,5.000000000000000000e+00,5.000000000000000000e+00,5.000000000000000000e+00,5.000000000000000000e+00,5.000000000000000000e+00,5.000000000000000000e+00,5.000000000000000000e+00,5.000000000000000000e+00,4.855216026306152344e+00,4.664846897125244141e+00,4.488843441009521484e+00,4.325637817382812500e+00,4.173884391784667969e+00,4.032417774200439453e+00,3.900226831436157227e+00,3.776427268981933594e+00,3.660245418548583984e+00,3.550998449325561523e+00,3.448084115982055664e+00,3.350967168807983398e+00,3.259171009063720703e+00,3.172270059585571289e+00,3.089882612228393555e+00,3.011666536331176758e+00,2.937312602996826172e+00,2.866541385650634766e+00,2.799100399017333984e+00,2.734759569168090820e+00,2.673310518264770508e+00,2.614562273025512695e+00,2.558340311050415039e+00,2.504485607147216797e+00,2.452851295471191406e+00,2.403303146362304688e+00,2.355717420578002930e+00,2.309978961944580078e+00,2.265983104705810547e+00,2.223631858825683594e+00,2.182834625244140625e+00,2.143507242202758789e+00,2.105572223663330078e+00,2.068956136703491211e+00,2.033592224121093750e+00,1.999416708946228027e+00,1.966370940208435059e+00,1.934399604797363281e+00,1.903451561927795410e+00,1.873477935791015625e+00,1.844433665275573730e+00
5.000000000000000000e+00,5.000000000000000000e+00,5.000000000000000000e+00,5.000000000000000000e+00,5.000000000000000000e+00,5.000000000000000000e+00,5.000000000000000000e+00,5.000000000000000000e+00,5.000000000000000000e+00,5.000000000000000000e+00,5.000000000000000000e+00,5.000000000000000000e+00,5.000000000000000000e+00,5.000000000000000000e+00,5.000000000000000000e+00,5.000000000000000000e+00,5.000000000000000000e+00,5.000000000000000000e+00,5.000000000000000000e+00,5.000000000000000000e+00,5.000000000000000000e+00,5.000000000000000000e+00,5.000000000000000000e+00,5.000000000000000000e+00,5.000000000000000000e+00,5.000000000000000000e+00,5.000000000000000000e+00,5.000000000000000000e+00,3.065830707550048828e+00,3.055339813232421875e+00,3.058387279510498047e+00,5.000000000000000000e+00,5.000000000000000000e+00,5.000000000000000000e+00,5.000000000000000000e+00,5.000000000000000000e+00,5.000000000000000000e+00,5.000000000000000000e+00,5.000000000000000000e+00,4.855354309082031250e+00,4.664974689483642578e+00,4.488961696624755859e+00,4.325747489929199219e+00,4.173985958099365234e+00,4.032512664794921875e+00,3.900315284729003906e+00,3.776510477066040039e+00,3.660323143005371094e+00,3.551072120666503906e+00,3.448153257369995117e+00,3.351032495498657227e+00,3.259232997894287109e+00,3.172328472137451172e+00,3.089938402175903320e+00,3.011719226837158203e+00,2.937362909317016602e+00,2.866589307785034180e+00,2.799145936965942383e+00,2.734803438186645508e+00,2.673352241516113281e+00,2.614602088928222656e+00,2.558378696441650391e+00,2.504522085189819336e+00,2.452886581420898438e+00,2.403336763381958008e+00,2.355749607086181641e+00,2.310009956359863281e+00,2.266012907028198242e+00,2.223660707473754883e+00,2.182862281799316406e+00,2.143534183502197266e+00,2.105597972869873047e+00,2.068981170654296875e+00,2.033616304397583008e+00,1.999439835548400879e+00,1.966393470764160156e+00,1.934421420097351074e+00,1.903472542762756348e+00,1.873498439788818359e+00,1.844453573226928711e+00
4.874399662017822266e+00,4.873202800750732422e+00,4.872006416320800781e+00,4.870810508728027344e+00,4.869615077972412109e+00,4.868420124053955078e+00,4.867226123809814453e+00,4.866032600402832031e+00,4.864839553833007812e+00,4.863646984100341797e+00,4.862455368041992188e+00,4.861263751983642578e+00,4.860073089599609375e+00,4.858883380889892578e+00,4.857694149017333984e+00,4.856505393981933594e+00,4.855317115783691406e+00,4.854129314422607422e+00,4.852941989898681641e+00,4.851755619049072266e+00,4.850569725036621094e+00,4.849384307861328125e+00,4.848199367523193359e+00,4.847014904022216797e+00,4.845831394195556641e+00,4.844648361206054688e+00,4.843465805053710938e+00,3.058182716369628906e+00,3.039173603057861328e+00,3.087758302688598633e+00,3.125612974166870117e+00,4.837562084197998047e+00,4.836382865905761719e+00,4.835204124450683594e+00,4.834026336669921875e+00,4.832849025726318359e+00,4.831672191619873047e+00,4.830495834350585938e+00,4.829320430755615234e+00,4.828145503997802734e+00,4.665102005004882812e+00,4.489079475402832031e+00,4.325857162475585938e+00,4.174088001251220703e+00,4.032607078552246094e+00,3.900403738021850586e+00,3.776593446731567383e+00,3.660401582717895508e+00,3.551145553588867188e+00,3.448222875595092773e+00,3.351097822189331055e+00,3.259294748306274414e+00,3.172386884689331055e+00,3.089993953704833984e+00,3.011772394180297852e+00,2.937412977218627930e+00,2.866637229919433594e+00,2.799191474914550781e+00,2.734846830368041992e+00,2.673393964767456055e+00,2.614641666412353516e+00,2.558416604995727539e+00,2.504558563232421875e+00,2.452921390533447266e+00,2.403370618820190430e+00,2.355781793594360352e+00,2.310041189193725586e+00,2.266042709350585938e+00,2.223689317703247070e+00,2.182890176773071289e+00,2.143560886383056641e+00,2.105623722076416016e+00,2.069005966186523438e+00,2.033640384674072266e+00,1.999463200569152832e+00,1.966415882110595703e+00,1.934443354606628418e+00,1.903493642807006836e+00,1.873518705368041992e+00,1.844473361968994141e+00
3.777448892593383789e+00,3.776729822158813477e+00,3.776011228561401367e+00,3.775292634963989258e+00,3.774574518203735352e+00,3.773856639862060547e+00,3.773138999938964844e+00,3.772421836853027344e+00,3.771704673767089844e+00,3.770987987518310547e+00,3.770271778106689453e+00,3.769555568695068359e+00,3.768839597702026367e+00,3.768123865127563477e+00,3.767408609390258789e+00,3.766693353652954102e+00,3.765978574752807617e+00,3.765264034271240234e+00,3.764549493789672852e+00,3.763835430145263672e+00,3.763121604919433594e+00,3.762408256530761719e+00,3.761694908142089844e+00,3.760982036590576172e+00,3.760269165039062500e+00,3.759556770324707031e+00,3.758844614028930664e+00,3.758132696151733398e+00,3.003371715545654297e+00,3.016853570938110352e+00,3.755998611450195312e+00,3.755287885665893555e+00,3.754577159881591797e+00,3.753866910934448242e+00,3.753156900405883789e+00,3.752447128295898438e+00,3.751737833023071289e+00,3.751028537750244141e+00,3.750319480895996094e+00,3.749610900878906250e+00,3.748902559280395508e+00,3.748194217681884766e+00,3.747486829757690430e+00,3.746779203414916992e+00,3.746071815490722656e+00,3.745364904403686523e+00,3.744657993316650391e+00,3.660479307174682617e+00,3.551218748092651367e+00,3.448291778564453125e+00,3.351163387298583984e+00,3.259356498718261719e+00,3.172445774078369141e+00,3.090049266815185547e+00,3.011825084686279297e+00,2.937463283538818359e+00,2.866684913635253906e+00,2.799237251281738281e+00,2.734890222549438477e+00,2.673435449600219727e+00,2.614681720733642578e+00,2.558454751968383789e+00,2.504595279693603516e+00,2.452956438064575195e+00,2.403403997421264648e+00,2.355814218521118164e+00,2.310072183609008789e+00,2.266072750091552734e+00,2.223718166351318359e+00,2.182917833328247070e+00,2.143587589263916016e+00,2.105649471282958984e+00,2.069031000137329102e+00,2.033664464950561523e+00,1.999486565589904785e+00,1.966438412666320801e+00,1.934464931488037109e+00,1.903514862060546875e+00,1.873539209365844727e+00,1.844493031501770020e+00
3.083522796630859375e+00,3.083043575286865234e+00,3.082564830780029297e+00,3.082085847854614258e+00,3.081607341766357422e+00,3.081128835678100586e+00,3.080650806427001953e+00,3.080172538757324219e+00,3.079694509506225586e+00,3.079216480255126953e+00,3.078738927841186523e+00,3.078261137008666992e+00,3.077783823013305664e+00,3.077306509017944336e+00,3.076829195022583008e+00,3.076352357864379883e+00,3.075875282287597656e+00,3.075398683547973633e+00,3.074922084808349609e+00,3.074445724487304688e+00,3.073969364166259766e+00,3.073493242263793945e+00,3.073017358779907227e+00,3.072541475296020508e+00,3.072065830230712891e+00,3.071590185165405273e+00,3.071114778518676758e+00,3.070639610290527344e+00,3.070164442062377930e+00,2.949598312377929688e+00,3.069214582443237305e+00,3.068739891052246094e+00,3.068265438079833984e+00,3.067791223526000977e+00,3.067317008972167969e+00,3.066842794418334961e+00,3.066368818283081055e+00,3.065895080566406250e+00,3.065421819686889648e+00,3.064948320388793945e+00,3.064475059509277344e+00,3.064001798629760742e+00,3.063528776168823242e+00,3.063055992126464844e+00,3.062583208084106445e+00,3.062110662460327148e+00,3.061638116836547852e+00,3.061165809631347656e+00,3.060693502426147461e+00,3.060221672058105469e+00,3.059749603271484375e+00,3.059278011322021484e+00,3.058806419372558594e+00,3.058334827423095703e+00,3.011877775192260742e+00,2.937513589859008789e+00,2.866732835769653320e+00,2.799282789230346680e+00,2.734933853149414062e+00,2.673476934432983398e+00,2.614721536636352539e+00,2.558492898941040039e+00,2.504631519317626953e+00,2.452991485595703125e+00,2.403437614440917969e+00,2.355846643447875977e+00,2.310103178024291992e+00,2.266102552413940430e+00,2.223747014999389648e+00,2.182945489883422852e+00,2.143614292144775391e+00,2.105675220489501953e+00,2.069055795669555664e+00,2.033688545227050781e+00,1.999509692192077637e+00,1.966461062431335449e+00,1.934486865997314453e+00,1.903535723686218262e+00,1.873559713363647461e+00,1.844512939453125000e+00
2.604981660842895508e+00,2.604639768600463867e+00,2.604298114776611328e+00,2.603956222534179688e+00,2.603614568710327148e+00,2.603272914886474609e+00,2.602931499481201172e+00,2.602590084075927734e+00,2.602248907089233398e+00,2.601907491683959961e+00,2.601566553115844727e+00,2.601225376129150391e+00,2.600884437561035156e+00,2.600543737411499023e+00,2.600202798843383789e+00,2.599862098693847656e+00,2.599521636962890625e+00,2.599181175231933594e+00,2.598840713500976562e+00,2.598500251770019531e+00,2.598160028457641602e+00,2.597819805145263672e+00,2.597479820251464844e+00,2.597139835357666016e+00,2.596800088882446289e+00,2.596460103988647461e+00,2.596120595932006836e+00,2.595780849456787109e+00,2.595441341400146484e+00,2.595101833343505859e+00,2.594762563705444336e+00,2.594423294067382812e+00,2.594084024429321289e+00,2.593744993209838867e+00,2.593406200408935547e+00,2.593067407608032227e+00,2.592728614807128906e+00,2.592389822006225586e+00,2.592051267623901367e+00,2.591712713241577148e+00,2.591374158859252930e+00,2.591035842895507812e+00,2.590697526931762695e+00,2.590359210968017578e+00,2.590021133422851562e+00,2.589683055877685547e+00,2.589345216751098633e+00,2.589007377624511719e+00,2.588669538497924805e+00,2.588331937789916992e+00,2.587994337081909180e+00,2.587656974792480469e+00,2.587319612503051758e+00,2.586982250213623047e+00,2.586644887924194336e+00,2.586307764053344727e+00,2.585970878601074219e+00,2.585633754730224609e+00,2.585296869277954102e+00,2.584960222244262695e+00,2.584623575210571289e+00,2.558531045913696289e+00,2.504667997360229492e+00,2.453026533126831055e+00,2.403471469879150391e+00,2.355878829956054688e+00,2.310134410858154297e+00,2.266132593154907227e+00,2.223775863647460938e+00,2.182973384857177734e+00,2.143640995025634766e+00,2.105701208114624023e+00,2.069080591201782227e+00,2.033712625503540039e+00,1.999533057212829590e+00,1.966483354568481445e+00,1.934508681297302246e+00,1.903556942939758301e+00,1.873579978942871094e+00,1.844532847404479980e+00
2.255052804946899414e+00,2.254795074462890625e+00,2.254537343978881836e+00,2.254279851913452148e+00,2.254022359848022461e+00,2.253764867782592773e+00,2.253507614135742188e+00,2.253250122070312500e+00,2.252992868423461914e+00,2.252735614776611328e+00,2.252478361129760742e+00,2.252221345901489258e+00,2.251964330673217773e+00,2.251707315444946289e+00,2.251450300216674805e+00,2.251193523406982422e+00,2.250936746597290039e+00,2.250679969787597656e+00,2.250423192977905273e+00,2.250166654586791992e+00,2.249909877777099609e+00,2.249653577804565430e+00,2.249397039413452148e+00,2.249140501022338867e+00,2.248885154724121094e+00,2.248630285263061523e+00,2.248375415802001953e+00,2.248120784759521484e+00,2.247865915298461914e+00,2.247611284255981445e+00,2.247356891632080078e+00,2.247102499008178711e+00,2.246848106384277344e+00,2.246593713760375977e+00,2.246339321136474609e+00,2.246085166931152344e+00,2.245830774307250977e+00,2.245576620101928711e+00,2.245322465896606445e+00,2.245068550109863281e+00,2.244814634323120117e+00,2.244560718536376953e+00,2.244306802749633789e+00,2.244052886962890625e+00,2.243799209594726562e+00,2.243545532226562500e+00,2.243291854858398438e+00,2.243038177490234375e+00,2.242784738540649414e+00,2.242531299591064453e+00,2.242277860641479492e+00,2.242024421691894531e+00,2.241771221160888672e+00,2.241518020629882812e+00,2.241264820098876953e+00,2.241011619567871094e+00,2.240758657455444336e+00,2.240505695343017578e+00,2.240252733230590820e+00,2.239999771118164062e+00,2.239746809005737305e+00,2.239494085311889648e+00,2.239241600036621094e+00,2.238988876342773438e+00,2.238736391067504883e+00,2.238483667373657227e+00,2.238231182098388672e+00,2.237978696823120117e+00,2.223804473876953125e+00,2.183001041412353516e+00,2.143667936325073242e+00,2.105726957321166992e+00,2.069105625152587891e+00,2.033736705780029297e+00,1.999556303024291992e+00,1.966506004333496094e+00,1.934530258178710938e+00,1.903578042984008789e+00,1.873600482940673828e+00,1.844552516937255859e+00
1.988066792488098145e+00,1.987866282463073730e+00,1.987666130065917969e+00,1.987465977668762207e+00,1.987265825271606445e+00,1.987065553665161133e+00,1.986865520477294922e+00,1.986665606498718262e+00,1.986465334892272949e+00,1.986265540122985840e+00,1.986065626144409180e+00,1.985865592956542969e+00,1.985665798187255859e+00,1.985466003417968750e+00,1.985266327857971191e+00,1.985066533088684082e+00,1.984866857528686523e+00,1.984667301177978516e+00,1.984467506408691406e+00,1.984267950057983398e+00,1.984068512916564941e+00,1.983868837356567383e+00,1.983669519424438477e+00,1.983470201492309570e+00,1.983270645141601562e+00,1.983071327209472656e+00,1.982872128486633301e+00,1.982672929763793945e+00,1.982473611831665039e+00,1.982274532318115234e+00,1.982075452804565430e+00,1.981876254081726074e+00,1.981677174568176270e+00,1.981478333473205566e+00,1.981279134750366211e+00,1.981080293655395508e+00,1.980881452560424805e+00,1.980682730674743652e+00,1.980483770370483398e+00,1.980285048484802246e+00,1.980086326599121094e+00,1.979887485504150391e+00,1.979688882827758789e+00,1.979490399360656738e+00,1.979291677474975586e+00,1.979093194007873535e+00,1.978894710540771484e+00,1.978696346282958984e+00,1.978497743606567383e+00,1.978299498558044434e+00,1.978101253509521484e+00,1.977902770042419434e+00,1.977704524993896484e+00,1.977506399154663086e+00,1.977308154106140137e+00,1.977110028266906738e+00,1.976912021636962891e+00,1.976714015007019043e+00,1.976515889167785645e+00,1.976317882537841797e+00,1.976120114326477051e+00,1.975921988487243652e+00,1.975724220275878906e+00,1.975526452064514160e+00,1.975328564643859863e+00,1.975130796432495117e+00,1.974933266639709473e+00,1.974735379219055176e+00,1.974537849426269531e+00,1.974340319633483887e+00,1.974142909049987793e+00,1.973945260047912598e+00,1.973747849464416504e+00,1.973550438880920410e+00,1.973352909088134766e+00,1.966528534889221191e+00,1.934552192687988281e+00,1.903599023818969727e+00,1.873620986938476562e+00,1.844572305679321289e+00
1.777607440948486328e+00,1.777447462081909180e+00,1.777287125587463379e+00,1.777127146720886230e+00,1.776967167854309082e+00,1.776807188987731934e+00,1.776647090911865234e+00,1.776487231254577637e+00,1.776327371597290039e+00,1.776167273521423340e+00,1.776007413864135742e+00,1.775847673416137695e+00,1.775687694549560547e+00,1.775527954101562500e+00,1.775368332862854004e+00,1.775208592414855957e+00,1.775048732757568359e+00,1.774889111518859863e+00,1.774729609489440918e+00,1.774569869041442871e+00,1.774410247802734375e+00,1.774250745773315430e+00,1.774091124534606934e+00,1.773931741714477539e+00,1.773772239685058594e+00,1.773612856864929199e+00,1.773453354835510254e+00,1.773293972015380859e+00,1.773134708404541016e+00,1.772975206375122070e+00,1.772815942764282227e+00,1.772656798362731934e+00,1.772497415542602539e+00,1.772338271141052246e+00,1.772179126739501953e+00,1.772019863128662109e+00,1.771860718727111816e+00,1.771701693534851074e+00,1.771542668342590332e+00,1.771383523941040039e+00,1.771224498748779297e+00,1.771065592765808105e+00,1.770906567573547363e+00,1.770747661590576172e+00,1.770588755607604980e+00,1.770429730415344238e+00,1.770270943641662598e+00,1.770112276077270508e+00,1.769953489303588867e+00,1.769794583320617676e+00,1.769635915756225586e+00,1.769477248191833496e+00,1.769318461418151855e+00,1.769159913063049316e+00,1.769001364707946777e+00,1.768842577934265137e+00,1.768684148788452148e+00,1.768525600433349609e+00,1.768367171287536621e+00,1.768208622932434082e+00,1.768050193786621094e+00,1.767891764640808105e+00,1.767733335494995117e+00,1.767575025558471680e+00,1.767416715621948242e+00,1.767258286476135254e+00,1.767100095748901367e+00,1.766941905021667480e+00,1.766783475875854492e+00,1.766625404357910156e+00,1.766467332839965820e+00,1.766309142112731934e+00,1.766150951385498047e+00,1.765992999076843262e+00,1.765834927558898926e+00,1.765676856040954590e+00,1.765518903732299805e+00,1.765360951423645020e+00,1.765202999114990234e+00,1.765045046806335449e+00
1.607441663742065430e+00,1.607310771942138672e+00,1.607179880142211914e+00,1.607048869132995605e+00,1.606918096542358398e+00,1.606787323951721191e+00,1.606656432151794434e+00,1.606525540351867676e+00,1.606394767761230469e+00,1.606264114379882812e+00,1.606133222579956055e+00,1.606002569198608398e+00,1.605871915817260742e+00,1.605741024017333984e+00,1.605610489845275879e+00,1.605479836463928223e+00,1.605349302291870117e+00,1.605218529701232910e+00,1.605087995529174805e+00,1.604957461357116699e+00,1.604826807975769043e+00,1.604696393013000488e+00,1.604565978050231934e+00,1.604435324668884277e+00,1.604304909706115723e+00,1.604174494743347168e+00,1.604044198989868164e+00,1.603913664817810059e+00,1.603783369064331055e+00,1.603653073310852051e+00,1.603522658348083496e+00,1.603392362594604492e+00,1.603262066841125488e+00,1.603131771087646484e+00,1.603001594543457031e+00,1.602871417999267578e+00,1.602741122245788574e+00,1.602610945701599121e+00,1.602480769157409668e+00,1.602350711822509766e+00,1.602220535278320312e+00,1.602090477943420410e+00,1.601960420608520508e+00,1.601830244064331055e+00,1.601700305938720703e+00,1.601570367813110352e+00,1.601440191268920898e+00,1.601310253143310547e+00,1.601180434226989746e+00,1.601050496101379395e+00,1.600920557975769043e+00,1.600790739059448242e+00,1.600660920143127441e+00,1.600530862808227539e+00,1.600401163101196289e+00,1.600271344184875488e+00,1.600141525268554688e+00,1.600011825561523438e+00,1.599882006645202637e+00,1.599752426147460938e+00,1.599622607231140137e+00,1.599492907524108887e+00,1.599363327026367188e+00,1.599233627319335938e+00,1.599104046821594238e+00,1.598974466323852539e+00,1.598844885826110840e+00,1.598715305328369141e+00,1.598585844039916992e+00,1.598456382751464844e+00,1.598326802253723145e+00,1.598197340965270996e+00,1.598067998886108398e+00,1.597938418388366699e+00,1.597809076309204102e+00,1.597679734230041504e+00,1.597550272941589355e+00,1.597421050071716309e+00,1.597291707992553711e+00,1.597162365913391113e+00
1.467008829116821289e+00,1.466899633407592773e+00,1.466790676116943359e+00,1.466681718826293945e+00,1.466572523117065430e+00,1.466463565826416016e+00,1.466354608535766602e+00,1.466245770454406738e+00,1.466136693954467773e+00,1.466027736663818359e+00,1.465918898582458496e+00,1.465809941291809082e+00,1.465701103210449219e+00,1.465592265129089355e+00,1.465483307838439941e+00,1.465374469757080078e+00,1.465265750885009766e+00,1.465156912803649902e+00,1.465048074722290039e+00,1.464939355850219727e+00,1.464830636978149414e+00,1.464721798896789551e+00,1.464613080024719238e+00,1.464504361152648926e+00,1.464395642280578613e+00,1.464286923408508301e+00,1.464178323745727539e+00,1.464069724082946777e+00,1.463961005210876465e+00,1.463852405548095703e+00,1.463743925094604492e+00,1.463635206222534180e+00,1.463526725769042969e+00,1.463418245315551758e+00,1.463309526443481445e+00,1.463201045989990234e+00,1.463092684745788574e+00,1.462984204292297363e+00,1.462875604629516602e+00,1.462767243385314941e+00,1.462658882141113281e+00,1.462550282478332520e+00,1.462441921234130859e+00,1.462333559989929199e+00,1.462225198745727539e+00,1.462116837501525879e+00,1.462008595466613770e+00,1.461900115013122559e+00,1.461791872978210449e+00,1.461683630943298340e+00,1.461575388908386230e+00,1.461467027664184570e+00,1.461358785629272461e+00,1.461250662803649902e+00,1.461142301559448242e+00,1.461034178733825684e+00,1.460926055908203125e+00,1.460817813873291016e+00,1.460709691047668457e+00,1.460601568222045898e+00,1.460493564605712891e+00,1.460385322570800781e+00,1.460277318954467773e+00,1.460169315338134766e+00,1.460061073303222656e+00,1.459953069686889648e+00,1.459845185279846191e+00,1.459737062454223633e+00,1.459629058837890625e+00,1.459521174430847168e+00,1.459413290023803711e+00,1.459305286407470703e+00,1.459197402000427246e+00,1.459089517593383789e+00,1.458981513977050781e+00,1.458873629570007324e+00,1.458765864372253418e+00,1.458657860755920410e+00,1.458550095558166504e+00,1.458442330360412598e+00
1.349141955375671387e+00,1.349049806594848633e+00,1.348957419395446777e+00,1.348865270614624023e+00,1.348773121833801270e+00,1.348680853843688965e+00,1.348588705062866211e+00,1.348496556282043457e+00,1.348404407501220703e+00,1.348312139511108398e+00,1.348220109939575195e+00,1.348127961158752441e+00,1.348035812377929688e+00,1.347943782806396484e+00,1.347851753234863281e+00,1.347759604454040527e+00,1.347667574882507324e+00,1.347575545310974121e+00,1.347483515739440918e+00,1.347391486167907715e+00,1.347299575805664062e+00,1.347207546234130859e+00,1.347115516662597656e+00,1.347023606300354004e+00,1.346931695938110352e+00,1.346839666366577148e+00,1.346747756004333496e+00,1.346655845642089844e+00,1.346564054489135742e+00,1.346472024917602539e+00,1.346380233764648438e+00,1.346288323402404785e+00,1.346196413040161133e+00,1.346104621887207031e+00,1.346012830734252930e+00,1.345920920372009277e+00,1.345829129219055176e+00,1.345737338066101074e+00,1.345645666122436523e+00,1.345553755760192871e+00,1.345462083816528320e+00,1.345370411872863770e+00,1.345278620719909668e+00,1.345186829566955566e+00,1.345095157623291016e+00,1.345003485679626465e+00,1.344911813735961914e+00,1.344820141792297363e+00,1.344728469848632812e+00,1.344636797904968262e+00,1.344545245170593262e+00,1.344453692436218262e+00,1.344361901283264160e+00,1.344270348548889160e+00,1.344178795814514160e+00,1.344087243080139160e+00,1.343995690345764160e+00,1.343904137611389160e+00,1.343812584877014160e+00,1.343721032142639160e+00,1.343629598617553711e+00,1.343538165092468262e+00,1.343446612358093262e+00,1.343355178833007812e+00,1.343263745307922363e+00,1.343172192573547363e+00,1.343080759048461914e+00,1.342989444732666016e+00,1.342897891998291016e+00,1.342806577682495117e+00,1.342715263366699219e+00,1.342623949050903320e+00,1.342532515525817871e+00,1.342441201210021973e+00,1.342349886894226074e+00,1.342258453369140625e+00,1.342167139053344727e+00,1.342075943946838379e+00,1.341984629631042480e+00,1.341893315315246582e+00
1.248806595802307129e+00,1.248727560043334961e+00,1.248648643493652344e+00,1.248569488525390625e+00,1.248490571975708008e+00,1.248411536216735840e+00,1.248332619667053223e+00,1.248253583908081055e+00,1.248174667358398438e+00,1.248095750808715820e+00,1.248016715049743652e+00,1.247937798500061035e+00,1.247858881950378418e+00,1.247779965400695801e+00,1.247701048851013184e+00,1.247622251510620117e+00,1.247543215751647949e+00,1.247464418411254883e+00,1.247385621070861816e+00,1.247306704521179199e+00,1.247227787971496582e+00,1.247148990631103516e+00,1.247070193290710449e+00,1.246991395950317383e+00,1.246912598609924316e+00,1.246833801269531250e+00,1.246755003929138184e+00,1.246676206588745117e+00,1.246597409248352051e+00,1.246518731117248535e+00,1.246439933776855469e+00,1.246361255645751953e+00,1.246282577514648438e+00,1.246203780174255371e+00,1.246125102043151855e+00,1.246046423912048340e+00,1.245967626571655273e+00,1.245888948440551758e+00,1.245810389518737793e+00,1.245731711387634277e+00,1.245653033256530762e+00,1.245574355125427246e+00,1.245495796203613281e+00,1.245417118072509766e+00,1.245338559150695801e+00,1.245260000228881836e+00,1.245181322097778320e+00,1.245102763175964355e+00,1.245024204254150391e+00,1.244945764541625977e+00,1.244867086410522461e+00,1.244788646697998047e+00,1.244710087776184082e+00,1.244631528854370117e+00,1.244553089141845703e+00,1.244474530220031738e+00,1.244395971298217773e+00,1.244317531585693359e+00,1.244239091873168945e+00,1.244160652160644531e+00,1.244082212448120117e+00,1.244003772735595703e+00,1.243925333023071289e+00,1.243846893310546875e+00,1.243768572807312012e+00,1.243690133094787598e+00,1.243611693382263184e+00,1.243533372879028320e+00,1.243455052375793457e+00,1.243376612663269043e+00,1.243298292160034180e+00,1.243219971656799316e+00,1.243141651153564453e+00,1.243063330650329590e+00,1.242985010147094727e+00,1.242906689643859863e+00,1.242828369140625000e+00,1.242750167846679688e+00,1.242671847343444824e+00,1.242593526840209961e+00
1.162362098693847656e+00,1.162293553352355957e+00,1.162225127220153809e+00,1.162156701087951660e+00,1.162088274955749512e+00,1.162019848823547363e+00,1.161951422691345215e+00,1.161882996559143066e+00,1.161814570426940918e+00,1.161746144294738770e+00,1.161677718162536621e+00,1.161609292030334473e+00,1.161540985107421875e+00,1.161472558975219727e+00,1.161404132843017578e+00,1.161335825920104980e+00,1.161267518997192383e+00,1.161199092864990234e+00,1.161130785942077637e+00,1.161062479019165039e+00,1.160994172096252441e+00,1.160925865173339844e+00,1.160857558250427246e+00,1.160789251327514648e+00,1.160720944404602051e+00,1.160652756690979004e+00,1.160584449768066406e+00,1.160516142845153809e+00,1.160447955131530762e+00,1.160379648208618164e+00,1.160311460494995117e+00,1.160243153572082520e+00,1.160174965858459473e+00,1.160106778144836426e+00,1.160038471221923828e+00,1.159970402717590332e+00,1.159902215003967285e+00,1.159833908081054688e+00,1.159765839576721191e+00,1.159697651863098145e+00,1.159629464149475098e+00,1.159561276435852051e+00,1.159493207931518555e+00,1.159425020217895508e+00,1.159356832504272461e+00,1.159288763999938965e+00,1.159220695495605469e+00,1.159152507781982422e+00,1.159084439277648926e+00,1.159016370773315430e+00,1.158948302268981934e+00,1.158880233764648438e+00,1.158812165260314941e+00,1.158744215965270996e+00,1.158676028251647949e+00,1.158608078956604004e+00,1.158540010452270508e+00,1.158471941947937012e+00,1.158403992652893066e+00,1.158336043357849121e+00,1.158267974853515625e+00,1.158200025558471680e+00,1.158132076263427734e+00,1.158064126968383789e+00,1.157996058464050293e+00,1.157928109169006348e+00,1.157860159873962402e+00,1.157792210578918457e+00,1.157724261283874512e+00,1.157656431198120117e+00,1.157588481903076172e+00,1.157520532608032227e+00,1.157452702522277832e+00,1.157384753227233887e+00,1.157316803932189941e+00,1.157248973846435547e+00,1.157181143760681152e+00,1.157113194465637207e+00,1.157045364379882812e+00,1.156977534294128418e+00
1.087110400199890137e+00,1.087050557136535645e+00,1.086990594863891602e+00,1.086930751800537109e+00,1.086870908737182617e+00,1.086810946464538574e+00,1.086751103401184082e+00,1.086691260337829590e+00,1.086631417274475098e+00,1.086571574211120605e+00,1.086511731147766113e+00,1.086452007293701172e+00,1.086392045021057129e+00,1.086332321166992188e+00,1.086272478103637695e+00,1.086212635040283203e+00,1.086152911186218262e+00,1.086093068122863770e+00,1.086033344268798828e+00,1.085973501205444336e+00,1.085913777351379395e+00,1.085854053497314453e+00,1.085794210433959961e+00,1.085734486579895020e+00,1.085674762725830078e+00,1.085615038871765137e+00,1.085555315017700195e+00,1.085495591163635254e+00,1.085435867309570312e+00,1.085376143455505371e+00,1.085316538810729980e+00,1.085256814956665039e+00,1.085197091102600098e+00,1.085137367248535156e+00,1.085077762603759766e+00,1.085018038749694824e+00,1.084958434104919434e+00,1.084898829460144043e+00,1.084839105606079102e+00,1.084779500961303711e+00,1.084719777107238770e+00,1.084660172462463379e+00,1.084600567817687988e+00,1.084540963172912598e+00,1.084481358528137207e+00,1.084421753883361816e+00,1.084362149238586426e+00,1.084302544593811035e+00,1.084242939949035645e+00,1.084183335304260254e+00,1.084123849868774414e+00,1.084064245223999023e+00,1.084004640579223633e+00,1.083945155143737793e+00,1.083885669708251953e+00,1.083826065063476562e+00,1.083766579627990723e+00,1.083706974983215332e+00,1.083647489547729492e+00,1.083588004112243652e+00,1.083528518676757812e+00,1.083468914031982422e+00,1.083409428596496582e+00,1.083350062370300293e+00,1.083290576934814453e+00,1.083230972290039062e+00,1.083171606063842773e+00,1.083112120628356934e+00,1.083052635192871094e+00,1.082993268966674805e+00,1.082933783531188965e+00,1.082874298095703125e+00,1.082814931869506836e+00,1.082755446434020996e+00,1.082696080207824707e+00,1.082636594772338867e+00,1.082577228546142578e+00,1.082517862319946289e+00,1.082458496093750000e+00,1.082399129867553711e+00
1.021009922027587891e+00,1.020957112312316895e+00,1.020904302597045898e+00,1.020851373672485352e+00,1.020798563957214355e+00,1.020745754241943359e+00,1.020692944526672363e+00,1.020640134811401367e+00,1.020587444305419922e+00,1.020534634590148926e+00,1.020481824874877930e+00,1.020429015159606934e+00,1.020376324653625488e+00,1.020323514938354492e+00,1.020270705223083496e+00,1.020218014717102051e+00,1.020165205001831055e+00,1.020112514495849609e+00,1.020059823989868164e+00,1.020007133483886719e+00,1.019954323768615723e+00,1.019901633262634277e+00,1.019848942756652832e+00,1.019796133041381836e+00,1.019743442535400391e+00,1.019690752029418945e+00,1.019638061523437500e+00,1.019585371017456055e+00,1.019532680511474609e+00,1.019479990005493164e+00,1.019427299499511719e+00,1.019374728202819824e+00,1.019322037696838379e+00,1.019269347190856934e+00,1.019216656684875488e+00,1.019164085388183594e+00,1.019111394882202148e+00,1.019058823585510254e+00,1.019006133079528809e+00,1.018953561782836914e+00,1.018900871276855469e+00,1.018848299980163574e+00,1.018795728683471680e+00,1.018743038177490234e+00,1.018690466880798340e+00,1.018637895584106445e+00,1.018585324287414551e+00,1.018532752990722656e+00,1.018480181694030762e+00,1.018427610397338867e+00,1.018375039100646973e+00,1.018322467803955078e+00,1.018269896507263184e+00,1.018217325210571289e+00,1.018164873123168945e+00,1.018112301826477051e+00,1.018059730529785156e+00,1.018007278442382812e+00,1.017954707145690918e+00,1.017902135848999023e+00,1.017849683761596680e+00,1.017797231674194336e+00,1.017744660377502441e+00,1.017692208290100098e+00,1.017639756202697754e+00,1.017587304115295410e+00,1.017534732818603516e+00,1.017482280731201172e+00,1.017429828643798828e+00,1.017377376556396484e+00,1.017324924468994141e+00,1.017272472381591797e+00,1.017220020294189453e+00,1.017167568206787109e+00,1.017115116119384766e+00,1.017062664031982422e+00,1.017010211944580078e+00,1.016957879066467285e+00,1.016905426979064941e+00,1.016852974891662598e+00
9.624871015548706055e-01,9.624400734901428223e-01,9.623931050300598145e-01,9.623461961746215820e-01,9.622992277145385742e-01,9.622523188591003418e-01,9.622054100036621094e-01,9.621584415435791016e-01,9.621115326881408691e-01,9.620646238327026367e-01,9.620177149772644043e-01,9.619708657264709473e-01,9.619239568710327148e-01,9.618771076202392578e-01,9.618301391601562500e-01,9.617832303047180176e-01,9.617363810539245605e-01,9.616895318031311035e-01,9.616426825523376465e-01,9.615958333015441895e-01,9.615489840507507324e-01,9.615020155906677246e-01,9.614552259445190430e-01,9.614083766937255859e-01,9.613615274429321289e-01,9.613147377967834473e-01,9.612678885459899902e-01,9.612209796905517578e-01,9.611741900444030762e-01,9.611273407936096191e-01,9.610805511474609375e-01,9.610337615013122559e-01,9.609869718551635742e-01,9.609401822090148926e-01,9.608933329582214355e-01,9.608465433120727539e-01,9.607997536659240723e-01,9.607530236244201660e-01,9.607062339782714844e-01,9.606594443321228027e-01,9.606125950813293457e-01,9.605658650398254395e-01,9.605191349983215332e-01,9.604724049568176270e-01,9.604256153106689453e-01,9.603788852691650391e-01,9.603321552276611328e-01,9.602853655815124512e-01,9.602386355400085449e-01,9.601919054985046387e-01,9.601452350616455078e-01,9.600985050201416016e-01,9.600518345832824707e-01,9.600051045417785645e-01,9.599583148956298828e-01,9.599116444587707520e-01,9.598649740219116211e-01,9.598182439804077148e-01,9.597715735435485840e-01,9.597249031066894531e-01,9.596781730651855469e-01,9.596315026283264160e-01,9.595848321914672852e-01,9.595381617546081543e-01,9.594915509223937988e-01,9.594448804855346680e-01,9.593982696533203125e-01,9.593515396118164062e-01,9.593049287796020508e-01,9.592582583427429199e-01,9.592116475105285645e-01,9.591650366783142090e-01,9.591184258460998535e-01,9.590716958045959473e-01,9.590251445770263672e-01,9.589785337448120117e-01,9.589319229125976562e-01,9.588853716850280762e-01,9.588387608528137207e-01,9.587922096252441406e-01
9.103093147277832031e-01,9.102673530578613281e-01,9.102252721786499023e-01,9.101833105087280273e-01,9.101413488388061523e-01,9.100993871688842773e-01,9.100574254989624023e-01,9.100154638290405273e-01,9.099733829498291016e-01,9.099314808845520020e-01,9.098895192146301270e-01,9.098475575447082520e-01,9.098055958747863770e-01,9.097636938095092773e-01,9.097217321395874023e-01,9.096797108650207520e-01,9.096378087997436523e-01,9.095959067344665527e-01,9.095539450645446777e-01,9.095120429992675781e-01,9.094701409339904785e-01,9.094282388687133789e-01,9.093862771987915039e-01,9.093443751335144043e-01,9.093024730682373047e-01,9.092605710029602051e-01,9.092186689376831055e-01,9.091768264770507812e-01,9.091348052024841309e-01,9.090929627418518066e-01,9.090510606765747070e-01,9.090092182159423828e-01,9.089673757553100586e-01,9.089254736900329590e-01,9.088836312294006348e-01,9.088417291641235352e-01,9.087998867034912109e-01,9.087580442428588867e-01,9.087162017822265625e-01,9.086743593215942383e-01,9.086325168609619141e-01,9.085906147956848145e-01,9.085487723350524902e-01,9.085069298744201660e-01,9.084651470184326172e-01,9.084233045578002930e-01,9.083815217018127441e-01,9.083397388458251953e-01,9.082978367805480957e-01,9.082559943199157715e-01,9.082142114639282227e-01,9.081724286079406738e-01,9.081306457519531250e-01,9.080888628959655762e-01,9.080470800399780273e-01,9.080052375793457031e-01,9.079634547233581543e-01,9.079216718673706055e-01,9.078799486160278320e-01,9.078381657600402832e-01,9.077964425086975098e-01,9.077545404434204102e-01,9.077128171920776367e-01,9.076710939407348633e-01,9.076293110847473145e-01,9.075875878334045410e-01,9.075458645820617676e-01,9.075041413307189941e-01,9.074622988700866699e-01,9.074206352233886719e-01,9.073789119720458984e-01,9.073371887207031250e-01,9.072954654693603516e-01,9.072538018226623535e-01,9.072119593620300293e-01,9.071702957153320312e-01,9.071285724639892578e-01,9.070869088172912598e-01,9.070452451705932617e-01,9.070035219192504883e-01
8.634979724884033203e-01,8.634601831436157227e-01,8.634223937988281250e-01,8.633845448493957520e-01,8.633467555046081543e-01,8.633090257644653320e-01,8.632712364196777344e-01,8.632335066795349121e-01,8.631957769393920898e-01,8.631579279899597168e-01,8.631201982498168945e-01,8.630824089050292969e-01,8.630446791648864746e-01,8.630069494247436523e-01,8.629692196846008301e-01,8.629314899444580078e-01,8.628937005996704102e-01,8.628559708595275879e-01,8.628182411193847656e-01,8.627805113792419434e-01,8.627428412437438965e-01,8.627051115036010742e-01,8.626673817634582520e-01,8.626295924186706543e-01,8.625919222831726074e-01,8.625541925430297852e-01,8.625165224075317383e-01,8.624788522720336914e-01,8.624411225318908691e-01,8.624033927917480469e-01,8.623657226562500000e-01,8.623279929161071777e-01,8.622903227806091309e-01,8.622526526451110840e-01,8.622149825096130371e-01,8.621773719787597656e-01,8.621395826339721680e-01,8.621019721031188965e-01,8.620643019676208496e-01,8.620266318321228027e-01,8.619890213012695312e-01,8.619513511657714844e-01,8.619136214256286621e-01,8.618760108947753906e-01,8.618383407592773438e-01,8.618007302284240723e-01,8.617631196975708008e-01,8.617254495620727539e-01,8.616878390312194824e-01,8.616501688957214355e-01,8.616125583648681641e-01,8.615749478340148926e-01,8.615373373031616211e-01,8.614997267723083496e-01,8.614621162414550781e-01,8.614245057106018066e-01,8.613868355751037598e-01,8.613492250442504883e-01,8.613116741180419922e-01,8.612740635871887207e-01,8.612365126609802246e-01,8.611989021301269531e-01,8.611612319946289062e-01,8.611236810684204102e-01,8.610861301422119141e-01,8.610485196113586426e-01,8.610109686851501465e-01,8.609734177589416504e-01,8.609358668327331543e-01,8.608982563018798828e-01,8.608607053756713867e-01,8.608231544494628906e-01,8.607856035232543945e-01,8.607480525970458984e-01,8.607105016708374023e-01,8.606730103492736816e-01,8.606353998184204102e-01,8.605978488922119141e-01,8.605603575706481934e-01,8.605228066444396973e-01
8.212655186653137207e-01,8.212313652038574219e-01,8.211971521377563477e-01,8.211629986763000488e-01,8.211287856101989746e-01,8.210946321487426758e-01,8.210604786872863770e-01,8.210263252258300781e-01,8.209921717643737793e-01,8.209580183029174805e-01,8.209238052368164062e-01,8.208896517753601074e-01,8.208554983139038086e-01,8.208213448524475098e-01,8.207872509956359863e-01,8.207530975341796875e-01,8.207190036773681641e-01,8.206847906112670898e-01,8.206506371498107910e-01,8.206165432929992676e-01,8.205823898315429688e-01,8.205482959747314453e-01,8.205142021179199219e-01,8.204801082611083984e-01,8.204458951950073242e-01,8.204118013381958008e-01,8.203777074813842773e-01,8.203436136245727539e-01,8.203095197677612305e-01,8.202754259109497070e-01,8.202412724494934082e-01,8.202071785926818848e-01,8.201730847358703613e-01,8.201389908790588379e-01,8.201049566268920898e-01,8.200708627700805664e-01,8.200367689132690430e-01,8.200026154518127441e-01,8.199685811996459961e-01,8.199344873428344727e-01,8.199004530906677246e-01,8.198664188385009766e-01,8.198323249816894531e-01,8.197982907295227051e-01,8.197641372680664062e-01,8.197301030158996582e-01,8.196960687637329102e-01,8.196620345115661621e-01,8.196280002593994141e-01,8.195939660072326660e-01,8.195598721504211426e-01,8.195258378982543945e-01,8.194918036460876465e-01,8.194577693939208984e-01,8.194237351417541504e-01,8.193897604942321777e-01,8.193557262420654297e-01,8.193216323852539062e-01,8.192875981330871582e-01,8.192536234855651855e-01,8.192195892333984375e-01,8.191856145858764648e-01,8.191516399383544922e-01,8.191175460815429688e-01,8.190835714340209961e-01,8.190495371818542480e-01,8.190155625343322754e-01,8.189815878868103027e-01,8.189476132392883301e-01,8.189136385917663574e-01,8.188796043395996094e-01,8.188456296920776367e-01,8.188116550445556641e-01,8.187776803970336914e-01,8.187437057495117188e-01,8.187097311019897461e-01,8.186757564544677734e-01,8.186417222023010254e-01,8.186078071594238281e-01,8.185738325119018555e-01
7.829715013504028320e-01,7.829404473304748535e-01,7.829093933105468750e-01,7.828783392906188965e-01,7.828472852706909180e-01,7.828161716461181641e-01,7.827851176261901855e-01,7.827541232109069824e-01,7.827230691909790039e-01,7.826920151710510254e-01,7.826609611511230469e-01,7.826298475265502930e-01,7.825988531112670898e-01,7.825677990913391113e-01,7.825368046760559082e-01,7.825057506561279297e-01,7.824747562408447266e-01,7.824437022209167480e-01,7.824126482009887695e-01,7.823815941810607910e-01,7.823505997657775879e-01,7.823196053504943848e-01,7.822886109352111816e-01,7.822575569152832031e-01,7.822265625000000000e-01,7.821955084800720215e-01,7.821645140647888184e-01,7.821335196495056152e-01,7.821025252342224121e-01,7.820715308189392090e-01,7.820405364036560059e-01,7.820094823837280273e-01,7.819784879684448242e-01,7.819475531578063965e-01,7.819165587425231934e-01,7.818855643272399902e-01,7.818546295166015625e-01,7.818236351013183594e-01,7.817925810813903809e-01,7.817616462707519531e-01,7.817306518554687500e-01,7.816997170448303223e-01,7.816687822341918945e-01,7.816377878189086914e-01,7.816068530082702637e-01,7.815757989883422852e-01,7.815448641777038574e-01,7.815139293670654297e-01,7.814829945564270020e-01,7.814520597457885742e-01,7.814211249351501465e-01,7.813900709152221680e-01,7.813591361045837402e-01,7.813282608985900879e-01,7.812973260879516602e-01,7.812663912773132324e-01,7.812354564666748047e-01,7.812045216560363770e-01,7.811735272407531738e-01,7.811426520347595215e-01,7.811117172241210938e-01,7.810807824134826660e-01,7.810499072074890137e-01,7.810189723968505859e-01,7.809880375862121582e-01,7.809571027755737305e-01,7.809262275695800781e-01,7.808952927589416504e-01,7.808644175529479980e-01,7.808335423469543457e-01,7.808026671409606934e-01,7.807716727256774902e-01,7.807407975196838379e-01,7.807099223136901855e-01,7.806790471076965332e-01,7.806481719017028809e-01,7.806172966957092285e-01,7.805864214897155762e-01,7.805554866790771484e-01,7.805246114730834961e-01
7.480895519256591797e-01,7.480612397193908691e-01,7.480328679084777832e-01,7.480044960975646973e-01,7.479761838912963867e-01,7.479478120803833008e-01,7.479194402694702148e-01,7.478910684585571289e-01,7.478627562522888184e-01,7.478343844413757324e-01,7.478060722351074219e-01,7.477777600288391113e-01,7.477493286132812500e-01,7.477210164070129395e-01,7.476927042007446289e-01,7.476643919944763184e-01,7.476360797882080078e-01,7.476077079772949219e-01,7.475793957710266113e-01,7.475510239601135254e-01,7.475227117538452148e-01,7.474943995475769043e-01,7.474660873413085938e-01,7.474378347396850586e-01,7.474095225334167480e-01,7.473812103271484375e-01,7.473528385162353516e-01,7.473245263099670410e-01,7.472962737083435059e-01,7.472679615020751953e-01,7.472396492958068848e-01,7.472113966941833496e-01,7.471830248832702637e-01,7.471547126770019531e-01,7.471264600753784180e-01,7.470981478691101074e-01,7.470698952674865723e-01,7.470416426658630371e-01,7.470133304595947266e-01,7.469850182533264160e-01,7.469567656517028809e-01,7.469284534454345703e-01,7.469002008438110352e-01,7.468719482421875000e-01,7.468436956405639648e-01,7.468154430389404297e-01,7.467871308326721191e-01,7.467588782310485840e-01,7.467306256294250488e-01,7.467023730278015137e-01,7.466741204261779785e-01,7.466458678245544434e-01,7.466175556182861328e-01,7.465893030166625977e-01,7.465610504150390625e-01,7.465328574180603027e-01,7.465046048164367676e-01,7.464763522148132324e-01,7.464481592178344727e-01,7.464198470115661621e-01,7.463915944099426270e-01,7.463634014129638672e-01,7.463351488113403320e-01,7.463069558143615723e-01,7.462787032127380371e-01,7.462504506111145020e-01,7.462222576141357422e-01,7.461940050125122070e-01,7.461658120155334473e-01,7.461376190185546875e-01,7.461094260215759277e-01,7.460811734199523926e-01,7.460529208183288574e-01,7.460247278213500977e-01,7.459965348243713379e-01,7.459683418273925781e-01,7.459401488304138184e-01,7.459119558334350586e-01,7.458837628364562988e-01,7.458555102348327637e-01
7.161830663681030273e-01,7.161570787429809570e-01,7.161310911178588867e-01,7.161051034927368164e-01,7.160791754722595215e-01,7.160531878471374512e-01,7.160272002220153809e-01,7.160011529922485352e-01,7.159751653671264648e-01,7.159492373466491699e-01,7.159232497215270996e-01,7.158972620964050293e-01,7.158713340759277344e-01,7.158453464508056641e-01,7.158193588256835938e-01,7.157933712005615234e-01,7.157674431800842285e-01,7.157414555549621582e-01,7.157155275344848633e-01,7.156895399093627930e-01,7.156635522842407227e-01,7.156376242637634277e-01,7.156116366386413574e-01,7.155857086181640625e-01,7.155597805976867676e-01,7.155338525772094727e-01,7.155078649520874023e-01,7.154818773269653320e-01,7.154559493064880371e-01,7.154300212860107422e-01,7.154040932655334473e-01,7.153781652450561523e-01,7.153522372245788574e-01,7.153262495994567871e-01,7.153003215789794922e-01,7.152743935585021973e-01,7.152484655380249023e-01,7.152225971221923828e-01,7.151966691017150879e-01,7.151707410812377930e-01,7.151447534561157227e-01,7.151188850402832031e-01,7.150929570198059082e-01,7.150670289993286133e-01,7.150411605834960938e-01,7.150152325630187988e-01,7.149893641471862793e-01,7.149633765220642090e-01,7.149375081062316895e-01,7.149115800857543945e-01,7.148857116699218750e-01,7.148597836494445801e-01,7.148339152336120605e-01,7.148079872131347656e-01,7.147820591926574707e-01,7.147561907768249512e-01,7.147303223609924316e-01,7.147044539451599121e-01,7.146785855293273926e-01,7.146526575088500977e-01,7.146267294883728027e-01,7.146008610725402832e-01,7.145749926567077637e-01,7.145491242408752441e-01,7.145232558250427246e-01,7.144973874092102051e-01,7.144714593887329102e-01,7.144455909729003906e-01,7.144197821617126465e-01,7.143939137458801270e-01,7.143680453300476074e-01,7.143421769142150879e-01,7.143163084983825684e-01,7.142904400825500488e-01,7.142645716667175293e-01,7.142387032508850098e-01,7.142128944396972656e-01,7.141870260238647461e-01,7.141612172126770020e-01,7.141353487968444824e-01
6.868870258331298828e-01,6.868630647659301758e-01,6.868391633033752441e-01,6.868152618408203125e-01,6.867913603782653809e-01,6.867674589157104492e-01,6.867435574531555176e-01,6.867196559906005859e-01,6.866956949234008789e-01,6.866717934608459473e-01,6.866479516029357910e-01,6.866240501403808594e-01,6.866001486778259277e-01,6.865762472152709961e-01,6.865524053573608398e-01,6.865284442901611328e-01,6.865046024322509766e-01,6.864807009696960449e-01,6.864567995071411133e-01,6.864329576492309570e-01,6.864090561866760254e-01,6.863851547241210938e-01,6.863613128662109375e-01,6.863374114036560059e-01,6.863135695457458496e-01,6.862896680831909180e-01,6.862658262252807617e-01,6.862419843673706055e-01,6.862180829048156738e-01,6.861941814422607422e-01,6.861703395843505859e-01,6.861464977264404297e-01,6.861226558685302734e-01,6.860988140106201172e-01,6.860749125480651855e-01,6.860510110855102539e-01,6.860271692276000977e-01,6.860033273696899414e-01,6.859794855117797852e-01,6.859556436538696289e-01,6.859318017959594727e-01,6.859079599380493164e-01,6.858841180801391602e-01,6.858602762222290039e-01,6.858364343643188477e-01,6.858125925064086914e-01,6.857887506484985352e-01,6.857649683952331543e-01,6.857410669326782227e-01,6.857172250747680664e-01,6.856934428215026855e-01,6.856696009635925293e-01,6.856457591056823730e-01,6.856219768524169922e-01,6.855980753898620605e-01,6.855742931365966797e-01,6.855504512786865234e-01,6.855266690254211426e-01,6.855028271675109863e-01,6.854790449142456055e-01,6.854552626609802246e-01,6.854313611984252930e-01,6.854075789451599121e-01,6.853837966918945312e-01,6.853599548339843750e-01,6.853361725807189941e-01,6.853123903274536133e-01,6.852885484695434570e-01,6.852647662162780762e-01,6.852409839630126953e-01,6.852171421051025391e-01,6.851933598518371582e-01,6.851695775985717773e-01,6.851457953453063965e-01,6.851219534873962402e-01,6.850981712341308594e-01,6.850743889808654785e-01,6.850506663322448730e-01,6.850268840789794922e-01,6.850031018257141113e-01
6.598934531211853027e-01,6.598713397979736328e-01,6.598492264747619629e-01,6.598271727561950684e-01,6.598051190376281738e-01,6.597830653190612793e-01,6.597610116004943848e-01,6.597389578819274902e-01,6.597169041633605957e-01,6.596948504447937012e-01,6.596727967262268066e-01,6.596507430076599121e-01,6.596286892890930176e-01,6.596066355705261230e-01,6.595845818519592285e-01,6.595625877380371094e-01,6.595404744148254395e-01,6.595184206962585449e-01,6.594964265823364258e-01,6.594743728637695312e-01,6.594523191452026367e-01,6.594303250312805176e-01,6.594082117080688477e-01,6.593862175941467285e-01,6.593641638755798340e-01,6.593421101570129395e-01,6.593201160430908203e-01,6.592980623245239258e-01,6.592760682106018066e-01,6.592540144920349121e-01,6.592319607734680176e-01,6.592099666595458984e-01,6.591879725456237793e-01,6.591659188270568848e-01,6.591439247131347656e-01,6.591218709945678711e-01,6.590998172760009766e-01,6.590778231620788574e-01,6.590558290481567383e-01,6.590338349342346191e-01,6.590118408203125000e-01,6.589898467063903809e-01,6.589677929878234863e-01,6.589457392692565918e-01,6.589237451553344727e-01,6.589017510414123535e-01,6.588797569274902344e-01,6.588577628135681152e-01,6.588357686996459961e-01,6.588137745857238770e-01,6.587917804718017578e-01,6.587697863578796387e-01,6.587477922439575195e-01,6.587257981300354004e-01,6.587038040161132812e-01,6.586818099021911621e-01,6.586598157882690430e-01,6.586378216743469238e-01,6.586158275604248047e-01,6.585938930511474609e-01,6.585718989372253418e-01,6.585499048233032227e-01,6.585279107093811035e-01,6.585059165954589844e-01,6.584839820861816406e-01,6.584619879722595215e-01,6.584400534629821777e-01,6.584180593490600586e-01,6.583960652351379395e-01,6.583740711212158203e-01,6.583521366119384766e-01,6.583301424980163574e-01,6.583082079887390137e-01,6.582862734794616699e-01,6.582642793655395508e-01,6.582422852516174316e-01,6.582203507423400879e-01,6.581984162330627441e-01,6.581764221191406250e-01,6.581544876098632812e-01
