5.000000000000000000e+00,5.000000000000000000e+00,5.000000000000000000e+00,5.000000000000000000e+00,5.000000000000000000e+00,5.000000000000000000e+00,5.000000000000000000e+00,5.000000000000000000e+00,5.000000000000000000e+00,5.000000000000000000e+00,5.000000000000000000e+00,5.000000000000000000e+00,5.000000000000000000e+00,5.000000000000000000e+00,5.000000000000000000e+00,5.000000000000000000e+00,5.000000000000000000e+00,5.000000000000000000e+00,5.000000000000000000e+00,5.000000000000000000e+00,5.000000000000000000e+00,5.000000000000000000e+00,5.000000000000000000e+00,5.000000000000000000e+00,5.000000000000000000e+00,5.000000000000000000e+00,5.000000000000000000e+00,5.000000000000000000e+00,5.000000000000000000e+00,5.000000000000000000e+00,5.000000000000000000e+00,5.000000000000000000e+00,5.000000000000000000e+00,5.000000000000000000e+00,5.000000000000000000e+00,1.749526023864746094e+00,1.708195447921752930e+00,1.705834865570068359e+00,1.611817598342895508e+00,1.583729267120361328e+00,1.581046342849731445e+00,1.585012197494506836e+00,1.604363441467285156e+00,1.604737997055053711e+00,1.611418843269348145e+00,1.616539716720581055e+00,1.629045963287353516e+00,1.660222053527832031e+00,3.555429220199584961e+00,3.452214717864990234e+00,1.700608611106872559e+00,1.645527243614196777e+00,1.617237448692321777e+00,1.609875917434692383e+00,3.014637708663940430e+00,2.940104722976684570e+00,2.869168043136596680e+00,2.801573753356933594e+00,2.737091064453125000e+00,2.675509929656982422e+00,2.616639137268066406e+00,2.560302972793579102e+00,2.506341695785522461e+00,2.454607725143432617e+00,2.404966592788696289e+00,2.357293367385864258e+00,2.311473369598388672e+00,2.267400741577148438e+00,2.224977493286132812e+00,2.184112548828125000e+00,2.144721508026123047e+00,2.106726169586181641e+00,2.070053339004516602e+00,2.034635782241821289e+00,2.000409841537475586e+00,1.967316031455993652e+00,1.935299754142761230e+00,1.904308676719665527e+00,1.874294400215148926e+00,1.845211625099182129e+00
5.000000000000000000e+00,5.000000000000000000e+00,5.000000000000000000e+00,5.000000000000000000e+00,5.000000000000000000e+00,5.000000000000000000e+00,5.000000000000000000e+00,5.000000000000000000e+00,5.000000000000000000e+00,5.000000000000000000e+00,5.000000000000000000e+00,5.000000000000000000e+00,5.000000000000000000e+00,5.000000000000000000e+00,5.000000000000000000e+00,5.000000000000000000e+00,5.000000000000000000e+00,5.000000000000000000e+00,5.000000000000000000e+00,5.000000000000000000e+00,5.000000000000000000e+00,5.000000000000000000e+00,5.000000000000000000e+00,5.000000000000000000e+00,5.000000000000000000e+00,5.000000000000000000e+00,5.000000000000000000e+00,5.000000000000000000e+00,5.000000000000000000e+00,5.000000000000000000e+00,5.000000000000000000e+00,5.000000000000000000e+00,5.000000000000000000e+00,5.000000000000000000e+00,5.000000000000000000e+00,1.739203095436096191e+00,1.703336000442504883e+00,1.702831387519836426e+00,1.576571345329284668e+00,1.547959446907043457e+00,1.537888765335083008e+00,1.527948260307312012e+00,1.583147644996643066e+00,1.614155411720275879e+00,1.629016757011413574e+00,1.634250044822692871e+00,1.633645892143249512e+00,1.661810159683227539e+00,3.555503845214843750e+00,3.452285289764404297e+00,3.354890346527099609e+00,1.664285182952880859e+00,1.635819435119628906e+00,1.605667829513549805e+00,3.014691352844238281e+00,2.940155744552612305e+00,2.869216680526733398e+00,2.801620244979858398e+00,2.737135410308837891e+00,2.675552368164062500e+00,2.616679430007934570e+00,2.560341596603393555e+00,2.506378650665283203e+00,2.454643249511718750e+00,2.405000686645507812e+00,2.357326269149780273e+00,2.311505079269409180e+00,2.267431259155273438e+00,2.225006818771362305e+00,2.184140682220458984e+00,2.144748449325561523e+00,2.106752157211303711e+00,2.070078611373901367e+00,2.034660339355468750e+00,2.000433444976806641e+00,1.967339158058166504e+00,1.935321807861328125e+00,1.904330015182495117e+00,1.874315142631530762e+00,1.845231652259826660e+00
5.000000000000000000e+00,5.000000000000000000e+00,5.000000000000000000e+00,5.000000000000000000e+00,5.000000000000000000e+00,5.000000000000000000e+00,5.000000000000000000e+00,5.000000000000000000e+00,5.000000000000000000e+00,5.000000000000000000e+00,5.000000000000000000e+00,5.000000000000000000e+00,5.000000000000000000e+00,5.000000000000000000e+00,5.000000000000000000e+00,5.000000000000000000e+00,5.000000000000000000e+00,5.000000000000000000e+00,5.000000000000000000e+00,5.000000000000000000e+00,5.000000000000000000e+00,5.000000000000000000e+00,5.000000000000000000e+00,5.000000000000000000e+00,5.000000000000000000e+00,5.000000000000000000e+00,5.000000000000000000e+00,5.000000000000000000e+00,5.000000000000000000e+00,5.000000000000000000e+00,5.000000000000000000e+00,5.000000000000000000e+00,5.000000000000000000e+00,5.000000000000000000e+00,5.000000000000000000e+00,1.734063744544982910e+00,1.698438882827758789e+00,1.700134396553039551e+00,1.553303122520446777e+00,1.534511089324951172e+00,1.524357199668884277e+00,1.514336824417114258e+00,1.530208587646484375e+00,1.565430045127868652e+00,1.647003054618835449e+00,1.641547799110412598e+00,1.637911796569824219e+00,1.665603876113891602e+00,3.555578947067260742e+00,3.452355623245239258e+00,3.354956626892089844e+00,3.262902736663818359e+00,1.577810406684875488e+00,1.561153292655944824e+00,1.558139443397521973e+00,2.940207004547119141e+00,2.869265317916870117e+00,2.801666736602783203e+00,2.737179756164550781e+00,2.675594806671142578e+00,2.616719961166381836e+00,2.560380220413208008e+00,2.506415843963623047e+00,2.454679012298583984e+00,2.405035018920898438e+00,2.357359170913696289e+00,2.311536550521850586e+00,2.267461538314819336e+00,2.225035905838012695e+00,2.184168815612792969e+00,2.144775867462158203e+00,2.106778621673583984e+00,2.070104122161865234e+00,2.034684896469116211e+00,2.000457048416137695e+00,1.967361927032470703e+00,1.935343980789184570e+00,1.904351472854614258e+00,1.874335885047912598e+00,1.845251798629760742e+00
5.000000000000000000e+00,5.000000000000000000e+00,5.000000000000000000e+00,5.000000000000000000e+00,5.000000000000000000e+00,5.000000000000000000e+00,5.000000000000000000e+00,5.000000000000000000e+00,5.000000000000000000e+00,5.000000000000000000e+00,5.000000000000000000e+00,5.000000000000000000e+00,5.000000000000000000e+00,5.000000000000000000e+00,5.000000000000000000e+00,5.000000000000000000e+00,5.000000000000000000e+00,5.000000000000000000e+00,5.000000000000000000e+00,5.000000000000000000e+00,5.000000000000000000e+00,5.000000000000000000e+00,5.000000000000000000e+00,5.000000000000000000e+00,5.000000000000000000e+00,5.000000000000000000e+00,5.000000000000000000e+00,5.000000000000000000e+00,5.000000000000000000e+00,5.000000000000000000e+00,5.000000000000000000e+00,5.000000000000000000e+00,5.000000000000000000e+00,5.000000000000000000e+00,5.000000000000000000e+00,1.728954792022705078e+00,1.688715577125549316e+00,1.698300361633300781e+00,1.541028380393981934e+00,1.523299336433410645e+00,1.513716459274291992e+00,1.504253506660461426e+00,1.514572381973266602e+00,1.544650435447692871e+00,1.649526596069335938e+00,1.643131256103515625e+00,1.643089413642883301e+00,1.669267296791076660e+00,3.555653572082519531e+00,3.452425956726074219e+00,3.355023145675659180e+00,3.262965440750122070e+00,3.175825119018554688e+00,1.532470226287841797e+00,1.542186617851257324e+00,2.940258026123046875e+00,2.869313955307006836e+00,2.801712989807128906e+00,2.737223863601684570e+00,2.675637006759643555e+00,2.616760492324829102e+00,2.560419321060180664e+00,2.506453037261962891e+00,2.454714536666870117e+00,2.405069112777709961e+00,2.357391834259033203e+00,2.311568260192871094e+00,2.267492055892944336e+00,2.225065231323242188e+00,2.184197187423706055e+00,2.144803047180175781e+00,2.106804847717285156e+00,2.070129394531250000e+00,2.034709215164184570e+00,2.000480651855468750e+00,1.967384815216064453e+00,1.935366034507751465e+00,1.904372811317443848e+00,1.874356627464294434e+00,1.845271944999694824e+00
5.000000000000000000e+00,5.000000000000000000e+00,4.428765296936035156e+00,5.000000000000000000e+00,5.000000000000000000e+00,5.000000000000000000e+00,5.000000000000000000e+00,5.000000000000000000e+00,5.000000000000000000e+00,5.000000000000000000e+00,5.000000000000000000e+00,5.000000000000000000e+00,5.000000000000000000e+00,5.000000000000000000e+00,5.000000000000000000e+00,5.000000000000000000e+00,5.000000000000000000e+00,5.000000000000000000e+00,5.000000000000000000e+00,5.000000000000000000e+00,5.000000000000000000e+00,5.000000000000000000e+00,5.000000000000000000e+00,5.000000000000000000e+00,5.000000000000000000e+00,5.000000000000000000e+00,5.000000000000000000e+00,5.000000000000000000e+00,5.000000000000000000e+00,5.000000000000000000e+00,5.000000000000000000e+00,5.000000000000000000e+00,5.000000000000000000e+00,5.000000000000000000e+00,5.000000000000000000e+00,1.715128779411315918e+00,1.681606411933898926e+00,1.695423960685729980e+00,1.547427892684936523e+00,1.514107823371887207e+00,1.503782391548156738e+00,1.494442820549011230e+00,1.501400470733642578e+00,1.529981136322021484e+00,1.650316357612609863e+00,1.643424391746520996e+00,1.648663401603698730e+00,1.670372486114501953e+00,3.555728197097778320e+00,3.452496767044067383e+00,3.355089902877807617e+00,3.263028621673583984e+00,3.175884723663330078e+00,3.093274354934692383e+00,1.586229562759399414e+00,1.501159310340881348e+00,2.869362592697143555e+00,2.801759481430053711e+00,2.737268209457397461e+00,2.675679445266723633e+00,2.616801023483276367e+00,2.560457944869995117e+00,2.506489992141723633e+00,2.454750299453735352e+00,2.405103206634521484e+00,2.357424974441528320e+00,2.311599731445312500e+00,2.267522335052490234e+00,2.225094556808471680e+00,2.184225320816040039e+00,2.144830226898193359e+00,2.106831073760986328e+00,2.070154666900634766e+00,2.034733772277832031e+00,2.000504493713378906e+00,1.967407703399658203e+00,1.935388207435607910e+00,1.904394268989562988e+00,1.874377250671386719e+00,1.845291972160339355e+00
5.000000000000000000e+00,5.000000000000000000e+00,4.413956165313720703e+00,4.484994411468505859e+00,5.000000000000000000e+00,5.000000000000000000e+00,5.000000000000000000e+00,5.000000000000000000e+00,5.000000000000000000e+00,5.000000000000000000e+00,5.000000000000000000e+00,5.000000000000000000e+00,5.000000000000000000e+00,5.000000000000000000e+00,5.000000000000000000e+00,5.000000000000000000e+00,5.000000000000000000e+00,5.000000000000000000e+00,5.000000000000000000e+00,5.000000000000000000e+00,5.000000000000000000e+00,5.000000000000000000e+00,5.000000000000000000e+00,5.000000000000000000e+00,5.000000000000000000e+00,5.000000000000000000e+00,5.000000000000000000e+00,5.000000000000000000e+00,5.000000000000000000e+00,5.000000000000000000e+00,5.000000000000000000e+00,5.000000000000000000e+00,5.000000000000000000e+00,5.000000000000000000e+00,5.000000000000000000e+00,1.707877397537231445e+00,1.678170680999755859e+00,1.706824064254760742e+00,1.553880810737609863e+00,1.505648732185363770e+00,1.494934082031250000e+00,1.484759330749511719e+00,1.488455533981323242e+00,1.514393687248229980e+00,1.653326272964477539e+00,1.644770145416259766e+00,1.652016162872314453e+00,1.675680756568908691e+00,3.555803060531616211e+00,3.452567100524902344e+00,3.355156421661376953e+00,3.263091564178466797e+00,3.175944328308105469e+00,3.093330860137939453e+00,3.014906406402587891e+00,1.567805409431457520e+00,2.869411468505859375e+00,2.801805734634399414e+00,2.737312555313110352e+00,2.675721645355224609e+00,2.616841316223144531e+00,2.560496568679809570e+00,2.506527423858642578e+00,2.454785823822021484e+00,2.405137538909912109e+00,2.357457637786865234e+00,2.311631441116333008e+00,2.267552852630615234e+00,2.225123643875122070e+00,2.184253454208374023e+00,2.144857406616210938e+00,2.106857299804687500e+00,2.070180177688598633e+00,2.034758329391479492e+00,2.000528097152709961e+00,1.967430472373962402e+00,1.935410261154174805e+00,1.904415607452392578e+00,1.874398231506347656e+00,1.845312237739562988e+00
5.000000000000000000e+00,5.000000000000000000e+00,4.423360347747802734e+00,4.491230010986328125e+00,5.000000000000000000e+00,5.000000000000000000e+00,5.000000000000000000e+00,5.000000000000000000e+00,5.000000000000000000e+00,5.000000000000000000e+00,5.000000000000000000e+00,5.000000000000000000e+00,5.000000000000000000e+00,5.000000000000000000e+00,5.000000000000000000e+00,5.000000000000000000e+00,5.000000000000000000e+00,5.000000000000000000e+00,5.000000000000000000e+00,5.000000000000000000e+00,5.000000000000000000e+00,5.000000000000000000e+00,5.000000000000000000e+00,5.000000000000000000e+00,5.000000000000000000e+00,5.000000000000000000e+00,5.000000000000000000e+00,5.000000000000000000e+00,5.000000000000000000e+00,5.000000000000000000e+00,5.000000000000000000e+00,5.000000000000000000e+00,5.000000000000000000e+00,5.000000000000000000e+00,5.000000000000000000e+00,5.000000000000000000e+00,1.687903761863708496e+00,5.000000000000000000e+00,1.560387730598449707e+00,1.497549295425415039e+00,1.486687302589416504e+00,1.476239800453186035e+00,1.474772572517395020e+00,1.499120593070983887e+00,1.658000946044921875e+00,1.649785757064819336e+00,1.660765528678894043e+00,1.685640096664428711e+00,3.555877685546875000e+00,3.452637434005737305e+00,3.355222702026367188e+00,3.263154745101928711e+00,3.176004171371459961e+00,3.093387603759765625e+00,3.014960050582885742e+00,2.940411329269409180e+00,1.545912384986877441e+00,2.801852226257324219e+00,2.737356662750244141e+00,2.675764083862304688e+00,2.616882085800170898e+00,2.560535430908203125e+00,2.506564378738403320e+00,2.454821586608886719e+00,2.405171632766723633e+00,2.357490539550781250e+00,2.311662912368774414e+00,2.267583370208740234e+00,2.225153207778930664e+00,2.184281587600708008e+00,2.144884586334228516e+00,2.106883525848388672e+00,2.070205450057983398e+00,2.034782648086547852e+00,2.000551700592041016e+00,1.967453598976135254e+00,1.935432553291320801e+00,1.904437303543090820e+00,1.874418973922729492e+00,1.845332384109497070e+00
5.000000000000000000e+00,4.518450736999511719e+00,4.496458530426025391e+00,4.541480064392089844e+00,5.000000000000000000e+00,5.000000000000000000e+00,5.000000000000000000e+00,5.000000000000000000e+00,5.000000000000000000e+00,5.000000000000000000e+00,5.000000000000000000e+00,5.000000000000000000e+00,5.000000000000000000e+00,5.000000000000000000e+00,5.000000000000000000e+00,5.000000000000000000e+00,5.000000000000000000e+00,5.000000000000000000e+00,5.000000000000000000e+00,5.000000000000000000e+00,5.000000000000000000e+00,5.000000000000000000e+00,5.000000000000000000e+00,5.000000000000000000e+00,5.000000000000000000e+00,5.000000000000000000e+00,5.000000000000000000e+00,5.000000000000000000e+00,5.000000000000000000e+00,5.000000000000000000e+00,5.000000000000000000e+00,5.000000000000000000e+00,5.000000000000000000e+00,5.000000000000000000e+00,5.000000000000000000e+00,1.704083085060119629e+00,1.669312119483947754e+00,1.667884945869445801e+00,1.588090896606445312e+00,1.504736065864562988e+00,1.475614547729492188e+00,1.464498996734619141e+00,1.460583806037902832e+00,1.484306216239929199e+00,1.665319800376892090e+00,1.656293988227844238e+00,1.671611547470092773e+00,1.697302341461181641e+00,3.555952787399291992e+00,3.452708005905151367e+00,3.355289459228515625e+00,3.263217449188232422e+00,3.176063537597656250e+00,3.093443870544433594e+00,3.015013694763183594e+00,2.940462350845336914e+00,2.869508743286132812e+00,2.801898717880249023e+00,2.737401247024536133e+00,2.675806283950805664e+00,2.616922378540039062e+00,2.560574054718017578e+00,2.506601572036743164e+00,2.454857110977172852e+00,2.405205965042114258e+00,2.357523441314697266e+00,2.311694622039794922e+00,2.267613649368286133e+00,2.225182294845581055e+00,2.184309959411621094e+00,2.144911766052246094e+00,2.106909751892089844e+00,2.070230722427368164e+00,2.034807205200195312e+00,2.000575304031372070e+00,1.967476367950439453e+00,1.935454726219177246e+00,1.904458642005920410e+00,1.874439716339111328e+00,1.845352411270141602e+00
4.382471561431884766e+00,4.401834011077880859e+00,4.429077148437500000e+00,4.466609477996826172e+00,4.509031772613525391e+00,4.563296794891357422e+00,5.000000000000000000e+00,5.000000000000000000e+00,5.000000000000000000e+00,5.000000000000000000e+00,5.000000000000000000e+00,5.000000000000000000e+00,5.000000000000000000e+00,5.000000000000000000e+00,5.000000000000000000e+00,5.000000000000000000e+00,5.000000000000000000e+00,5.000000000000000000e+00,5.000000000000000000e+00,5.000000000000000000e+00,5.000000000000000000e+00,5.000000000000000000e+00,5.000000000000000000e+00,5.000000000000000000e+00,5.000000000000000000e+00,5.000000000000000000e+00,5.000000000000000000e+00,5.000000000000000000e+00,5.000000000000000000e+00,5.000000000000000000e+00,5.000000000000000000e+00,5.000000000000000000e+00,5.000000000000000000e+00,5.000000000000000000e+00,5.000000000000000000e+00,1.685715794563293457e+00,1.667241692543029785e+00,1.653782725334167480e+00,5.000000000000000000e+00,1.512980103492736816e+00,1.466254353523254395e+00,1.452571749687194824e+00,1.446687936782836914e+00,1.469957828521728516e+00,1.674513220787048340e+00,1.665387749671936035e+00,1.684149503707885742e+00,1.711783528327941895e+00,3.556027412414550781e+00,3.452778339385986328e+00,3.355355978012084961e+00,3.263280391693115234e+00,3.176123142242431641e+00,3.093500375747680664e+00,3.015067577362060547e+00,2.940513610839843750e+00,2.869557380676269531e+00,2.801944971084594727e+00,2.737445354461669922e+00,2.675848722457885742e+00,2.616962909698486328e+00,2.560612916946411133e+00,2.506638765335083008e+00,2.454892873764038086e+00,2.405240058898925781e+00,2.357556343078613281e+00,2.311726093292236328e+00,2.267643928527832031e+00,2.225211620330810547e+00,2.184338092803955078e+00,2.144938945770263672e+00,2.106935977935791016e+00,2.070255994796752930e+00,2.034831523895263672e+00,2.000598907470703125e+00,1.967499256134033203e+00,1.935476779937744141e+00,1.904480099678039551e+00,1.874460458755493164e+00,1.845372557640075684e+00
4.382425308227539062e+00,4.374273777008056641e+00,4.402122497558593750e+00,4.435451030731201172e+00,4.490327358245849609e+00,4.589747905731201172e+00,4.631440162658691406e+00,5.000000000000000000e+00,5.000000000000000000e+00,5.000000000000000000e+00,5.000000000000000000e+00,5.000000000000000000e+00,5.000000000000000000e+00,5.000000000000000000e+00,5.000000000000000000e+00,5.000000000000000000e+00,5.000000000000000000e+00,5.000000000000000000e+00,5.000000000000000000e+00,5.000000000000000000e+00,5.000000000000000000e+00,5.000000000000000000e+00,5.000000000000000000e+00,5.000000000000000000e+00,5.000000000000000000e+00,5.000000000000000000e+00,5.000000000000000000e+00,5.000000000000000000e+00,5.000000000000000000e+00,5.000000000000000000e+00,5.000000000000000000e+00,5.000000000000000000e+00,5.000000000000000000e+00,5.000000000000000000e+00,5.000000000000000000e+00,1.680433511734008789e+00,5.000000000000000000e+00,1.648385763168334961e+00,5.000000000000000000e+00,1.521315097808837891e+00,1.460562467575073242e+00,1.441803574562072754e+00,1.433054208755493164e+00,1.453747510910034180e+00,1.502675771713256836e+00,1.674581885337829590e+00,1.696876764297485352e+00,3.665720701217651367e+00,3.556102037429809570e+00,3.452848672866821289e+00,3.355422496795654297e+00,3.263343572616577148e+00,3.176182985305786133e+00,3.093557119369506836e+00,3.015121221542358398e+00,2.940564632415771484e+00,2.869606018066406250e+00,2.801991462707519531e+00,2.737489700317382812e+00,2.675891160964965820e+00,2.617003440856933594e+00,2.560651779174804688e+00,2.506675720214843750e+00,2.454928398132324219e+00,2.405274152755737305e+00,2.357589006423950195e+00,2.311757564544677734e+00,2.267674446105957031e+00,2.225240945816040039e+00,2.184366226196289062e+00,2.144966125488281250e+00,2.106962203979492188e+00,2.070281267166137695e+00,2.034856081008911133e+00,2.000622510910034180e+00,1.967522144317626953e+00,1.935498952865600586e+00,1.904501438140869141e+00,1.874481201171875000e+00,1.845392704010009766e+00
4.419014930725097656e+00,4.379304409027099609e+00,4.395033836364746094e+00,4.436266899108886719e+00,4.505185127258300781e+00,4.579331398010253906e+00,4.630953311920166016e+00,5.000000000000000000e+00,5.000000000000000000e+00,5.000000000000000000e+00,5.000000000000000000e+00,5.000000000000000000e+00,5.000000000000000000e+00,5.000000000000000000e+00,5.000000000000000000e+00,5.000000000000000000e+00,5.000000000000000000e+00,5.000000000000000000e+00,5.000000000000000000e+00,5.000000000000000000e+00,5.000000000000000000e+00,5.000000000000000000e+00,5.000000000000000000e+00,5.000000000000000000e+00,5.000000000000000000e+00,5.000000000000000000e+00,5.000000000000000000e+00,5.000000000000000000e+00,5.000000000000000000e+00,5.000000000000000000e+00,5.000000000000000000e+00,5.000000000000000000e+00,5.000000000000000000e+00,5.000000000000000000e+00,5.000000000000000000e+00,1.673128366470336914e+00,5.000000000000000000e+00,5.000000000000000000e+00,5.000000000000000000e+00,1.544793605804443359e+00,1.466022014617919922e+00,1.436299562454223633e+00,1.419674992561340332e+00,1.437262654304504395e+00,1.466056704521179199e+00,1.683878183364868164e+00,1.712089538574218750e+00,3.665800094604492188e+00,3.556176900863647461e+00,3.452919483184814453e+00,3.355489253997802734e+00,3.263406276702880859e+00,3.176242589950561523e+00,3.093613624572753906e+00,3.015174865722656250e+00,2.940615653991699219e+00,2.869654893875122070e+00,2.802037954330444336e+00,2.737534046173095703e+00,2.675933361053466797e+00,2.617043733596801758e+00,2.560690402984619141e+00,2.506712913513183594e+00,2.454963922500610352e+00,2.405308485031127930e+00,2.357621908187866211e+00,2.311789274215698242e+00,2.267704725265502930e+00,2.225270032882690430e+00,2.184394359588623047e+00,2.144993305206298828e+00,2.106988430023193359e+00,2.070306777954101562e+00,2.034880638122558594e+00,2.000646352767944336e+00,1.967544913291931152e+00,1.935521006584167480e+00,1.904522895812988281e+00,1.874501943588256836e+00,1.845412731170654297e+00
4.436002731323242188e+00,4.373916625976562500e+00,4.397152423858642578e+00,4.436922073364257812e+00,4.510616779327392578e+00,4.594549655914306641e+00,4.632612228393554688e+00,5.000000000000000000e+00,5.000000000000000000e+00,5.000000000000000000e+00,5.000000000000000000e+00,5.000000000000000000e+00,5.000000000000000000e+00,5.000000000000000000e+00,5.000000000000000000e+00,5.000000000000000000e+00,5.000000000000000000e+00,5.000000000000000000e+00,5.000000000000000000e+00,5.000000000000000000e+00,5.000000000000000000e+00,5.000000000000000000e+00,5.000000000000000000e+00,5.000000000000000000e+00,5.000000000000000000e+00,5.000000000000000000e+00,5.000000000000000000e+00,5.000000000000000000e+00,5.000000000000000000e+00,5.000000000000000000e+00,5.000000000000000000e+00,5.000000000000000000e+00,5.000000000000000000e+00,5.000000000000000000e+00,5.000000000000000000e+00,1.667066097259521484e+00,5.000000000000000000e+00,5.000000000000000000e+00,5.000000000000000000e+00,1.557929635047912598e+00,1.476073026657104492e+00,1.430130839347839355e+00,1.411104202270507812e+00,1.425943136215209961e+00,1.440636634826660156e+00,1.696638345718383789e+00,1.726603150367736816e+00,3.665879726409912109e+00,3.556251525878906250e+00,3.452989816665649414e+00,3.355555534362792969e+00,3.263469219207763672e+00,3.176301956176757812e+00,3.093670368194580078e+00,3.015228986740112305e+00,2.940666913986206055e+00,2.869703531265258789e+00,2.802084207534790039e+00,2.737578392028808594e+00,2.675975561141967773e+00,2.617084264755249023e+00,2.560729265213012695e+00,2.506750106811523438e+00,2.454999685287475586e+00,2.405342578887939453e+00,2.357654809951782227e+00,2.311820983886718750e+00,2.267735242843627930e+00,2.225299358367919922e+00,2.184422731399536133e+00,2.145020484924316406e+00,2.107014656066894531e+00,2.070332050323486328e+00,2.034904956817626953e+00,2.000669956207275391e+00,1.967567801475524902e+00,1.935543060302734375e+00,1.904544472694396973e+00,1.874522805213928223e+00,1.845432996749877930e+00
4.387938976287841797e+00,4.374472141265869141e+00,4.387388706207275391e+00,4.427678585052490234e+00,4.499179840087890625e+00,4.621711730957031250e+00,4.629705429077148438e+00,5.000000000000000000e+00,5.000000000000000000e+00,5.000000000000000000e+00,5.000000000000000000e+00,5.000000000000000000e+00,5.000000000000000000e+00,5.000000000000000000e+00,5.000000000000000000e+00,5.000000000000000000e+00,5.000000000000000000e+00,5.000000000000000000e+00,5.000000000000000000e+00,5.000000000000000000e+00,5.000000000000000000e+00,5.000000000000000000e+00,5.000000000000000000e+00,5.000000000000000000e+00,5.000000000000000000e+00,5.000000000000000000e+00,5.000000000000000000e+00,5.000000000000000000e+00,5.000000000000000000e+00,5.000000000000000000e+00,5.000000000000000000e+00,5.000000000000000000e+00,5.000000000000000000e+00,5.000000000000000000e+00,5.000000000000000000e+00,1.667981028556823730e+00,5.000000000000000000e+00,5.000000000000000000e+00,5.000000000000000000e+00,4.866018772125244141e+00,1.486754417419433594e+00,1.430209636688232422e+00,1.408981323242187500e+00,1.420861363410949707e+00,1.434321999549865723e+00,1.706883549690246582e+00,1.737214565277099609e+00,3.665959119796752930e+00,3.556326150894165039e+00,3.453060150146484375e+00,3.355622291564941406e+00,3.263532400131225586e+00,3.176361799240112305e+00,3.093726873397827148e+00,3.015282630920410156e+00,2.940717935562133789e+00,2.869751930236816406e+00,2.802130699157714844e+00,2.737622737884521484e+00,2.676017999649047852e+00,2.617124795913696289e+00,2.560767889022827148e+00,2.506787300109863281e+00,2.455035209655761719e+00,2.405376911163330078e+00,2.357687711715698242e+00,2.311852693557739258e+00,2.267765760421752930e+00,2.225328683853149414e+00,2.184450864791870117e+00,2.145047664642333984e+00,2.107040882110595703e+00,2.070357322692871094e+00,2.034929513931274414e+00,2.000693798065185547e+00,1.967590808868408203e+00,1.935565471649169922e+00,1.904565930366516113e+00,1.874543547630310059e+00,1.845453143119812012e+00
4.364595413208007812e+00,4.372539520263671875e+00,4.397712707519531250e+00,4.439468383789062500e+00,4.506111145019531250e+00,5.000000000000000000e+00,4.591572761535644531e+00,5.000000000000000000e+00,5.000000000000000000e+00,5.000000000000000000e+00,5.000000000000000000e+00,5.000000000000000000e+00,5.000000000000000000e+00,5.000000000000000000e+00,5.000000000000000000e+00,5.000000000000000000e+00,5.000000000000000000e+00,5.000000000000000000e+00,5.000000000000000000e+00,5.000000000000000000e+00,5.000000000000000000e+00,5.000000000000000000e+00,5.000000000000000000e+00,5.000000000000000000e+00,5.000000000000000000e+00,5.000000000000000000e+00,5.000000000000000000e+00,5.000000000000000000e+00,5.000000000000000000e+00,5.000000000000000000e+00,5.000000000000000000e+00,5.000000000000000000e+00,5.000000000000000000e+00,5.000000000000000000e+00,5.000000000000000000e+00,5.000000000000000000e+00,5.000000000000000000e+00,5.000000000000000000e+00,5.000000000000000000e+00,4.866158962249755859e+00,1.499753832817077637e+00,1.433989882469177246e+00,1.412228345870971680e+00,1.424432754516601562e+00,1.438114762306213379e+00,1.717253327369689941e+00,3.782650947570800781e+00,3.666038274765014648e+00,3.556401252746582031e+00,3.453130960464477539e+00,3.355688810348510742e+00,3.263595104217529297e+00,3.176421403884887695e+00,3.093783378601074219e+00,3.015336275100708008e+00,2.940768957138061523e+00,2.869800806045532227e+00,2.802177190780639648e+00,2.737666845321655273e+00,2.676060438156127930e+00,2.617165327072143555e+00,2.560806751251220703e+00,2.506824254989624023e+00,2.455070734024047852e+00,2.405411243438720703e+00,2.357720613479614258e+00,2.311884164810180664e+00,2.267796039581298828e+00,2.225358009338378906e+00,2.184478998184204102e+00,2.145074844360351562e+00,2.107067108154296875e+00,2.070382833480834961e+00,2.034954071044921875e+00,2.000717401504516602e+00,1.967613697052001953e+00,1.935587525367736816e+00,1.904587268829345703e+00,1.874564290046691895e+00,1.845473289489746094e+00
4.334088802337646484e+00,4.346350193023681641e+00,4.446190834045410156e+00,4.450734615325927734e+00,4.491205692291259766e+00,5.000000000000000000e+00,4.556698322296142578e+00,5.000000000000000000e+00,5.000000000000000000e+00,5.000000000000000000e+00,5.000000000000000000e+00,5.000000000000000000e+00,5.000000000000000000e+00,5.000000000000000000e+00,5.000000000000000000e+00,5.000000000000000000e+00,5.000000000000000000e+00,5.000000000000000000e+00,5.000000000000000000e+00,5.000000000000000000e+00,5.000000000000000000e+00,5.000000000000000000e+00,5.000000000000000000e+00,5.000000000000000000e+00,5.000000000000000000e+00,5.000000000000000000e+00,5.000000000000000000e+00,5.000000000000000000e+00,5.000000000000000000e+00,5.000000000000000000e+00,5.000000000000000000e+00,5.000000000000000000e+00,5.000000000000000000e+00,5.000000000000000000e+00,5.000000000000000000e+00,5.000000000000000000e+00,5.000000000000000000e+00,5.000000000000000000e+00,5.000000000000000000e+00,4.866298675537109375e+00,1.494148135185241699e+00,1.440215706825256348e+00,1.420558810234069824e+00,1.430187821388244629e+00,1.448836445808410645e+00,1.727749824523925781e+00,3.782735824584960938e+00,3.666118144989013672e+00,3.556475877761840820e+00,3.453201293945312500e+00,3.355755329132080078e+00,3.263658046722412109e+00,3.176481008529663086e+00,3.093840122222900391e+00,3.015390157699584961e+00,2.940820217132568359e+00,2.869849443435668945e+00,2.802223443984985352e+00,2.737711191177368164e+00,2.676102638244628906e+00,2.617205619812011719e+00,2.560845613479614258e+00,2.506861686706542969e+00,2.455106496810913086e+00,2.405445337295532227e+00,2.357753276824951172e+00,2.311915636062622070e+00,2.267826318740844727e+00,2.225387096405029297e+00,2.184507369995117188e+00,2.145102262496948242e+00,2.107093334197998047e+00,2.070408105850219727e+00,2.034978389739990234e+00,2.000741004943847656e+00,1.967636585235595703e+00,1.935609698295593262e+00,1.904608726501464844e+00,1.874585032463073730e+00,1.845493316650390625e+00
4.324144840240478516e+00,4.331246852874755859e+00,4.390790939331054688e+00,4.429706573486328125e+00,4.469198703765869141e+00,5.000000000000000000e+00,4.522365093231201172e+00,5.000000000000000000e+00,5.000000000000000000e+00,5.000000000000000000e+00,5.000000000000000000e+00,5.000000000000000000e+00,5.000000000000000000e+00,5.000000000000000000e+00,5.000000000000000000e+00,5.000000000000000000e+00,5.000000000000000000e+00,5.000000000000000000e+00,5.000000000000000000e+00,5.000000000000000000e+00,5.000000000000000000e+00,5.000000000000000000e+00,5.000000000000000000e+00,5.000000000000000000e+00,5.000000000000000000e+00,5.000000000000000000e+00,5.000000000000000000e+00,5.000000000000000000e+00,5.000000000000000000e+00,5.000000000000000000e+00,5.000000000000000000e+00,5.000000000000000000e+00,5.000000000000000000e+00,5.000000000000000000e+00,5.000000000000000000e+00,5.000000000000000000e+00,5.000000000000000000e+00,5.000000000000000000e+00,5.000000000000000000e+00,4.866438865661621094e+00,1.478347659111022949e+00,1.444123029708862305e+00,1.428988099098205566e+00,1.435989618301391602e+00,1.460455536842346191e+00,1.744092226028442383e+00,3.782820224761962891e+00,3.666197299957275391e+00,3.556550502777099609e+00,3.453271627426147461e+00,3.355822086334228516e+00,3.263721227645874023e+00,3.176540851593017578e+00,3.093896627426147461e+00,3.015443801879882812e+00,2.940871238708496094e+00,2.869898080825805664e+00,2.802269935607910156e+00,2.737755537033081055e+00,2.676145076751708984e+00,2.617246389389038086e+00,2.560884237289428711e+00,2.506898641586303711e+00,2.455142021179199219e+00,2.405479431152343750e+00,2.357786178588867188e+00,2.311947345733642578e+00,2.267856836318969727e+00,2.225416421890258789e+00,2.184535503387451172e+00,2.145129203796386719e+00,2.107119560241699219e+00,2.070433378219604492e+00,2.035002946853637695e+00,2.000764608383178711e+00,1.967659354209899902e+00,1.935631752014160156e+00,1.904630064964294434e+00,1.874605774879455566e+00,1.845513463020324707e+00
4.349801540374755859e+00,4.325140953063964844e+00,4.379251956939697266e+00,4.428791046142578125e+00,4.463825702667236328e+00,5.000000000000000000e+00,4.482784271240234375e+00,5.000000000000000000e+00,5.000000000000000000e+00,5.000000000000000000e+00,5.000000000000000000e+00,5.000000000000000000e+00,5.000000000000000000e+00,5.000000000000000000e+00,5.000000000000000000e+00,5.000000000000000000e+00,5.000000000000000000e+00,5.000000000000000000e+00,5.000000000000000000e+00,5.000000000000000000e+00,5.000000000000000000e+00,5.000000000000000000e+00,5.000000000000000000e+00,5.000000000000000000e+00,5.000000000000000000e+00,5.000000000000000000e+00,5.000000000000000000e+00,5.000000000000000000e+00,5.000000000000000000e+00,5.000000000000000000e+00,5.000000000000000000e+00,5.000000000000000000e+00,5.000000000000000000e+00,5.000000000000000000e+00,5.000000000000000000e+00,5.000000000000000000e+00,5.000000000000000000e+00,5.000000000000000000e+00,5.000000000000000000e+00,4.866579055786132812e+00,1.474463582038879395e+00,1.448051452636718750e+00,1.437518000602722168e+00,1.443949937820434570e+00,1.508016824722290039e+00,1.778216123580932617e+00,3.782904624938964844e+00,3.666277170181274414e+00,3.556625604629516602e+00,3.453342437744140625e+00,3.355888605117797852e+00,3.263784170150756836e+00,3.176600217819213867e+00,3.093953132629394531e+00,3.015497446060180664e+00,2.940922498703002930e+00,2.869946956634521484e+00,2.802316427230834961e+00,2.737799882888793945e+00,2.676187276840209961e+00,2.617286682128906250e+00,2.560923099517822266e+00,2.506935834884643555e+00,2.455177783966064453e+00,2.405513763427734375e+00,2.357819080352783203e+00,2.311978816986083984e+00,2.267887115478515625e+00,2.225445747375488281e+00,2.184563636779785156e+00,2.145156383514404297e+00,2.107146024703979492e+00,2.070458889007568359e+00,2.035027503967285156e+00,2.000788211822509766e+00,1.967682242393493652e+00,1.935653924942016602e+00,1.904651522636413574e+00,1.874626517295837402e+00,1.845533728599548340e+00
5.000000000000000000e+00,4.316200256347656250e+00,4.366387844085693359e+00,4.426059722900390625e+00,4.460660934448242188e+00,5.000000000000000000e+00,5.000000000000000000e+00,5.000000000000000000e+00,5.000000000000000000e+00,5.000000000000000000e+00,5.000000000000000000e+00,5.000000000000000000e+00,5.000000000000000000e+00,5.000000000000000000e+00,5.000000000000000000e+00,5.000000000000000000e+00,5.000000000000000000e+00,5.000000000000000000e+00,5.000000000000000000e+00,5.000000000000000000e+00,5.000000000000000000e+00,5.000000000000000000e+00,5.000000000000000000e+00,5.000000000000000000e+00,5.000000000000000000e+00,5.000000000000000000e+00,5.000000000000000000e+00,5.000000000000000000e+00,5.000000000000000000e+00,5.000000000000000000e+00,5.000000000000000000e+00,5.000000000000000000e+00,5.000000000000000000e+00,5.000000000000000000e+00,5.000000000000000000e+00,5.000000000000000000e+00,5.000000000000000000e+00,5.000000000000000000e+00,5.000000000000000000e+00,4.866718769073486328e+00,1.476970076560974121e+00,1.452001333236694336e+00,1.442594408988952637e+00,1.455490231513977051e+00,1.767771124839782715e+00,3.907286882400512695e+00,3.782989501953125000e+00,3.666356325149536133e+00,3.556700229644775391e+00,3.453412771224975586e+00,3.355954885482788086e+00,3.263846874237060547e+00,3.176660060882568359e+00,3.094009876251220703e+00,3.015551328659057617e+00,2.940973520278930664e+00,2.869995594024658203e+00,2.802362680435180664e+00,2.737843990325927734e+00,2.676229476928710938e+00,2.617327451705932617e+00,2.560961961746215820e+00,2.506973028182983398e+00,2.455213546752929688e+00,2.405547857284545898e+00,2.357851982116699219e+00,2.312010526657104492e+00,2.267917633056640625e+00,2.225475072860717773e+00,2.184592008590698242e+00,2.145183801651000977e+00,2.107172250747680664e+00,2.070484161376953125e+00,2.035051822662353516e+00,2.000812053680419922e+00,1.967705130577087402e+00,1.935676217079162598e+00,1.904673099517822266e+00,1.874647498130798340e+00,1.845553874969482422e+00
5.000000000000000000e+00,4.307584762573242188e+00,4.350467205047607422e+00,4.422974586486816406e+00,4.453207969665527344e+00,5.000000000000000000e+00,5.000000000000000000e+00,5.000000000000000000e+00,5.000000000000000000e+00,5.000000000000000000e+00,5.000000000000000000e+00,5.000000000000000000e+00,5.000000000000000000e+00,5.000000000000000000e+00,5.000000000000000000e+00,5.000000000000000000e+00,5.000000000000000000e+00,5.000000000000000000e+00,5.000000000000000000e+00,5.000000000000000000e+00,5.000000000000000000e+00,5.000000000000000000e+00,5.000000000000000000e+00,5.000000000000000000e+00,5.000000000000000000e+00,5.000000000000000000e+00,5.000000000000000000e+00,5.000000000000000000e+00,5.000000000000000000e+00,5.000000000000000000e+00,5.000000000000000000e+00,5.000000000000000000e+00,5.000000000000000000e+00,5.000000000000000000e+00,5.000000000000000000e+00,5.000000000000000000e+00,5.000000000000000000e+00,5.000000000000000000e+00,5.000000000000000000e+00,4.866858959197998047e+00,1.480084896087646484e+00,1.452393531799316406e+00,1.442021250724792480e+00,1.453701972961425781e+00,1.835290551185607910e+00,3.907377004623413086e+00,3.783073902130126953e+00,3.666435718536376953e+00,3.556774854660034180e+00,3.453483343124389648e+00,3.356021881103515625e+00,3.263910055160522461e+00,3.176719665527343750e+00,3.094066381454467773e+00,3.015604972839355469e+00,2.941024541854858398e+00,2.870044231414794922e+00,2.802409410476684570e+00,2.737888574600219727e+00,2.676272153854370117e+00,2.617367744445800781e+00,2.561000585556030273e+00,2.507010221481323242e+00,2.455249071121215820e+00,2.405581951141357422e+00,2.357884883880615234e+00,2.312042236328125000e+00,2.267948150634765625e+00,2.225504398345947266e+00,2.184620141983032227e+00,2.145210981369018555e+00,2.107198238372802734e+00,2.070509433746337891e+00,2.035076379776000977e+00,2.000835657119750977e+00,1.967728137969970703e+00,1.935698270797729492e+00,1.904694557189941406e+00,1.874668240547180176e+00,1.845573902130126953e+00
5.000000000000000000e+00,4.324037551879882812e+00,4.358839511871337891e+00,4.425142765045166016e+00,4.455751895904541016e+00,5.000000000000000000e+00,5.000000000000000000e+00,5.000000000000000000e+00,5.000000000000000000e+00,5.000000000000000000e+00,5.000000000000000000e+00,5.000000000000000000e+00,5.000000000000000000e+00,5.000000000000000000e+00,5.000000000000000000e+00,5.000000000000000000e+00,5.000000000000000000e+00,5.000000000000000000e+00,5.000000000000000000e+00,5.000000000000000000e+00,5.000000000000000000e+00,5.000000000000000000e+00,5.000000000000000000e+00,5.000000000000000000e+00,5.000000000000000000e+00,5.000000000000000000e+00,5.000000000000000000e+00,5.000000000000000000e+00,5.000000000000000000e+00,5.000000000000000000e+00,5.000000000000000000e+00,5.000000000000000000e+00,5.000000000000000000e+00,5.000000000000000000e+00,5.000000000000000000e+00,5.000000000000000000e+00,5.000000000000000000e+00,5.000000000000000000e+00,5.000000000000000000e+00,4.866998195648193359e+00,1.482517361640930176e+00,1.451600432395935059e+00,1.439786791801452637e+00,1.449360966682434082e+00,1.475037455558776855e+00,3.907467126846313477e+00,3.783158302307128906e+00,3.666515588760375977e+00,3.556849718093872070e+00,3.453553915023803711e+00,3.356088161468505859e+00,3.263972997665405273e+00,3.176779270172119141e+00,3.094122886657714844e+00,3.015658617019653320e+00,2.941076040267944336e+00,2.870092868804931641e+00,2.802455663681030273e+00,2.737932682037353516e+00,2.676314353942871094e+00,2.617408275604248047e+00,2.561039209365844727e+00,2.507047176361083984e+00,2.455284833908081055e+00,2.405616283416748047e+00,2.357917785644531250e+00,2.312073707580566406e+00,2.267978429794311523e+00,2.225533485412597656e+00,2.184648275375366211e+00,2.145238161087036133e+00,2.107224702835083008e+00,2.070534706115722656e+00,2.035100936889648438e+00,2.000859260559082031e+00,1.967751026153564453e+00,1.935720443725585938e+00,1.904715895652770996e+00,1.874688982963562012e+00,1.845594048500061035e+00
5.000000000000000000e+00,4.357706069946289062e+00,4.397110462188720703e+00,4.526857376098632812e+00,4.551040172576904297e+00,5.000000000000000000e+00,5.000000000000000000e+00,5.000000000000000000e+00,5.000000000000000000e+00,5.000000000000000000e+00,5.000000000000000000e+00,5.000000000000000000e+00,5.000000000000000000e+00,5.000000000000000000e+00,5.000000000000000000e+00,5.000000000000000000e+00,5.000000000000000000e+00,5.000000000000000000e+00,5.000000000000000000e+00,5.000000000000000000e+00,5.000000000000000000e+00,5.000000000000000000e+00,5.000000000000000000e+00,5.000000000000000000e+00,5.000000000000000000e+00,5.000000000000000000e+00,5.000000000000000000e+00,5.000000000000000000e+00,5.000000000000000000e+00,5.000000000000000000e+00,5.000000000000000000e+00,5.000000000000000000e+00,5.000000000000000000e+00,5.000000000000000000e+00,5.000000000000000000e+00,5.000000000000000000e+00,5.000000000000000000e+00,5.000000000000000000e+00,5.000000000000000000e+00,4.867136955261230469e+00,1.484957933425903320e+00,1.453488469123840332e+00,1.437559247016906738e+00,1.445045948028564453e+00,1.469960331916809082e+00,3.907557725906372070e+00,3.783243179321289062e+00,3.666594743728637695e+00,3.556924581527709961e+00,3.453624248504638672e+00,3.356154680252075195e+00,3.264035940170288086e+00,3.176839113235473633e+00,3.094179630279541016e+00,3.015712499618530273e+00,2.941127061843872070e+00,2.870141506195068359e+00,2.802501916885375977e+00,2.737977027893066406e+00,2.676356554031372070e+00,2.617448806762695312e+00,2.561078071594238281e+00,2.507084369659423828e+00,2.455320358276367188e+00,2.405650615692138672e+00,2.357950448989868164e+00,2.312105178833007812e+00,2.268008708953857422e+00,2.225563049316406250e+00,2.184676647186279297e+00,2.145265340805053711e+00,2.107250928878784180e+00,2.070560216903686523e+00,2.035125255584716797e+00,2.000882863998413086e+00,1.967773914337158203e+00,1.935742497444152832e+00,1.904737353324890137e+00,1.874709725379943848e+00,1.845614075660705566e+00
5.000000000000000000e+00,4.376832962036132812e+00,4.403286933898925781e+00,4.614902019500732422e+00,4.650302886962890625e+00,5.000000000000000000e+00,5.000000000000000000e+00,5.000000000000000000e+00,5.000000000000000000e+00,5.000000000000000000e+00,5.000000000000000000e+00,5.000000000000000000e+00,5.000000000000000000e+00,5.000000000000000000e+00,5.000000000000000000e+00,5.000000000000000000e+00,5.000000000000000000e+00,5.000000000000000000e+00,5.000000000000000000e+00,5.000000000000000000e+00,5.000000000000000000e+00,5.000000000000000000e+00,5.000000000000000000e+00,5.000000000000000000e+00,5.000000000000000000e+00,5.000000000000000000e+00,5.000000000000000000e+00,5.000000000000000000e+00,5.000000000000000000e+00,5.000000000000000000e+00,5.000000000000000000e+00,5.000000000000000000e+00,5.000000000000000000e+00,5.000000000000000000e+00,5.000000000000000000e+00,5.000000000000000000e+00,5.000000000000000000e+00,5.000000000000000000e+00,5.000000000000000000e+00,4.867275714874267578e+00,1.487406492233276367e+00,1.455932617187500000e+00,1.435714244842529297e+00,1.440729856491088867e+00,1.464918136596679688e+00,3.907647609710693359e+00,3.783327817916870117e+00,3.666674137115478516e+00,3.556999206542968750e+00,3.453694820404052734e+00,3.356221437454223633e+00,3.264099121093750000e+00,3.176898717880249023e+00,3.094236135482788086e+00,3.015766143798828125e+00,2.941178083419799805e+00,2.870190143585205078e+00,2.802548646926879883e+00,2.738021612167358398e+00,2.676398992538452148e+00,2.617489337921142578e+00,2.561116933822631836e+00,2.507121562957763672e+00,2.455355882644653320e+00,2.405684709548950195e+00,2.357983589172363281e+00,2.312136888504028320e+00,2.268039226531982422e+00,2.225592136383056641e+00,2.184704780578613281e+00,2.145292520523071289e+00,2.107277154922485352e+00,2.070585489273071289e+00,2.035149812698364258e+00,2.000906705856323242e+00,1.967796683311462402e+00,1.935764670372009277e+00,1.904758810997009277e+00,1.874730467796325684e+00,1.845634222030639648e+00
5.000000000000000000e+00,4.404921054840087891e+00,4.405601501464843750e+00,4.704388141632080078e+00,5.000000000000000000e+00,5.000000000000000000e+00,5.000000000000000000e+00,5.000000000000000000e+00,5.000000000000000000e+00,5.000000000000000000e+00,5.000000000000000000e+00,5.000000000000000000e+00,5.000000000000000000e+00,5.000000000000000000e+00,5.000000000000000000e+00,5.000000000000000000e+00,5.000000000000000000e+00,5.000000000000000000e+00,5.000000000000000000e+00,5.000000000000000000e+00,5.000000000000000000e+00,5.000000000000000000e+00,5.000000000000000000e+00,5.000000000000000000e+00,5.000000000000000000e+00,5.000000000000000000e+00,5.000000000000000000e+00,5.000000000000000000e+00,5.000000000000000000e+00,5.000000000000000000e+00,5.000000000000000000e+00,5.000000000000000000e+00,5.000000000000000000e+00,5.000000000000000000e+00,5.000000000000000000e+00,5.000000000000000000e+00,5.000000000000000000e+00,5.000000000000000000e+00,5.000000000000000000e+00,4.867414474487304688e+00,4.676023006439208984e+00,1.458384871482849121e+00,1.435495376586914062e+00,1.435885787010192871e+00,1.459910273551940918e+00,3.907737731933593750e+00,3.783412694931030273e+00,3.666754007339477539e+00,3.557074069976806641e+00,3.453765392303466797e+00,3.356287956237792969e+00,3.264161825180053711e+00,3.176958322525024414e+00,3.094292640686035156e+00,3.015820264816284180e+00,2.941229343414306641e+00,2.870239019393920898e+00,2.802594900131225586e+00,2.738065719604492188e+00,2.676441431045532227e+00,2.617529630661010742e+00,2.561155557632446289e+00,2.507158756256103516e+00,2.455391645431518555e+00,2.405719041824340820e+00,2.358016252517700195e+00,2.312168598175048828e+00,2.268069505691528320e+00,2.225621461868286133e+00,2.184732913970947266e+00,2.145319700241088867e+00,2.107303380966186523e+00,2.070610761642456055e+00,2.035174369812011719e+00,2.000930309295654297e+00,1.967819571495056152e+00,1.935786724090576172e+00,1.904780149459838867e+00,1.874751329421997070e+00,1.845654487609863281e+00
5.000000000000000000e+00,5.000000000000000000e+00,4.410037040710449219e+00,4.754888534545898438e+00,5.000000000000000000e+00,5.000000000000000000e+00,5.000000000000000000e+00,5.000000000000000000e+00,5.000000000000000000e+00,5.000000000000000000e+00,5.000000000000000000e+00,5.000000000000000000e+00,5.000000000000000000e+00,5.000000000000000000e+00,5.000000000000000000e+00,5.000000000000000000e+00,5.000000000000000000e+00,5.000000000000000000e+00,5.000000000000000000e+00,5.000000000000000000e+00,5.000000000000000000e+00,5.000000000000000000e+00,5.000000000000000000e+00,5.000000000000000000e+00,5.000000000000000000e+00,5.000000000000000000e+00,5.000000000000000000e+00,5.000000000000000000e+00,5.000000000000000000e+00,5.000000000000000000e+00,5.000000000000000000e+00,5.000000000000000000e+00,5.000000000000000000e+00,5.000000000000000000e+00,5.000000000000000000e+00,5.000000000000000000e+00,5.000000000000000000e+00,5.000000000000000000e+00,5.000000000000000000e+00,4.867553234100341797e+00,2.007004022598266602e+00,1.460929632186889648e+00,1.437205910682678223e+00,1.431812167167663574e+00,1.455963969230651855e+00,3.907828330993652344e+00,3.783497095108032227e+00,3.666833162307739258e+00,3.557148694992065430e+00,3.453835725784301758e+00,3.356354475021362305e+00,3.264225006103515625e+00,3.177018165588378906e+00,3.094349384307861328e+00,3.015873908996582031e+00,2.941280364990234375e+00,2.870287656784057617e+00,2.802641391754150391e+00,2.738110065460205078e+00,2.676483869552612305e+00,2.617570400238037109e+00,2.561194419860839844e+00,2.507195949554443359e+00,2.455427169799804688e+00,2.405753135681152344e+00,2.358049154281616211e+00,2.312200069427490234e+00,2.268100023269653320e+00,2.225650787353515625e+00,2.184761285781860352e+00,2.145346879959106445e+00,2.107329607009887695e+00,2.070636034011840820e+00,2.035198926925659180e+00,2.000953912734985352e+00,1.967842578887939453e+00,1.935809135437011719e+00,1.904801845550537109e+00,1.874772071838378906e+00,1.845674633979797363e+00
5.000000000000000000e+00,5.000000000000000000e+00,4.431293964385986328e+00,4.751808166503906250e+00,5.000000000000000000e+00,5.000000000000000000e+00,5.000000000000000000e+00,5.000000000000000000e+00,5.000000000000000000e+00,5.000000000000000000e+00,5.000000000000000000e+00,5.000000000000000000e+00,5.000000000000000000e+00,5.000000000000000000e+00,5.000000000000000000e+00,5.000000000000000000e+00,5.000000000000000000e+00,5.000000000000000000e+00,5.000000000000000000e+00,5.000000000000000000e+00,5.000000000000000000e+00,5.000000000000000000e+00,5.000000000000000000e+00,5.000000000000000000e+00,5.000000000000000000e+00,5.000000000000000000e+00,5.000000000000000000e+00,5.000000000000000000e+00,5.000000000000000000e+00,5.000000000000000000e+00,5.000000000000000000e+00,5.000000000000000000e+00,5.000000000000000000e+00,5.000000000000000000e+00,5.000000000000000000e+00,5.000000000000000000e+00,5.000000000000000000e+00,5.000000000000000000e+00,5.000000000000000000e+00,4.867691993713378906e+00,2.022381544113159180e+00,1.464475035667419434e+00,1.438935875892639160e+00,1.428233742713928223e+00,1.452264070510864258e+00,3.907918453216552734e+00,3.783581495285034180e+00,3.666912555694580078e+00,3.557223558425903320e+00,3.453906536102294922e+00,3.356421232223510742e+00,3.264287948608398438e+00,3.177077531814575195e+00,3.094405889511108398e+00,3.015927553176879883e+00,2.941331386566162109e+00,2.870336294174194336e+00,2.802687883377075195e+00,2.738154649734497070e+00,2.676526069641113281e+00,2.617610692977905273e+00,2.561233282089233398e+00,2.507233142852783203e+00,2.455462694168090820e+00,2.405787229537963867e+00,2.358082056045532227e+00,2.312231779098510742e+00,2.268130540847778320e+00,2.225680112838745117e+00,2.184789419174194336e+00,2.145374059677124023e+00,2.107355833053588867e+00,2.070661544799804688e+00,2.035223484039306641e+00,2.000977754592895508e+00,1.967865467071533203e+00,1.935831189155578613e+00,1.904823184013366699e+00,1.874792814254760742e+00,1.845694780349731445e+00
4.874888420104980469e+00,4.873676776885986328e+00,4.363107681274414062e+00,4.871255874633789062e+00,4.870046615600585938e+00,4.868837833404541016e+00,4.867629051208496094e+00,4.866421699523925781e+00,4.865214347839355469e+00,4.864007949829101562e+00,4.862802028656005859e+00,4.861596584320068359e+00,4.860391616821289062e+00,4.859187602996826172e+00,4.857984066009521484e+00,4.856781005859375000e+00,4.855578422546386719e+00,4.854377269744873047e+00,4.853175640106201172e+00,4.851974964141845703e+00,4.850775241851806641e+00,4.849575996398925781e+00,4.848377227783203125e+00,4.847178936004638672e+00,4.845981121063232422e+00,4.844784259796142578e+00,4.843587875366210938e+00,4.842391967773437500e+00,4.841196537017822266e+00,4.840001583099365234e+00,4.838808059692382812e+00,4.837614059448242188e+00,4.836421012878417969e+00,4.835228919982910156e+00,4.834037303924560547e+00,4.832846164703369141e+00,4.831655502319335938e+00,4.830465316772460938e+00,4.829276084899902344e+00,4.828087329864501953e+00,2.056657791137695312e+00,1.468037724494934082e+00,1.438973426818847656e+00,1.430674314498901367e+00,1.448582768440246582e+00,3.908008575439453125e+00,3.783666610717773438e+00,3.666992187500000000e+00,3.557298421859741211e+00,3.453976869583129883e+00,3.356487751007080078e+00,3.264350891113281250e+00,3.177137136459350586e+00,3.094462394714355469e+00,3.015981435775756836e+00,2.941382646560668945e+00,2.870385169982910156e+00,2.802734136581420898e+00,2.738198757171630859e+00,2.676568269729614258e+00,2.617651224136352539e+00,2.561271905899047852e+00,2.507270336151123047e+00,2.455498456954956055e+00,2.405821561813354492e+00,2.358114957809448242e+00,2.312263250350952148e+00,2.268160820007324219e+00,2.225709199905395508e+00,2.184817552566528320e+00,2.145401477813720703e+00,2.107382059097290039e+00,2.070686817169189453e+00,2.035247802734375000e+00,2.001001358032226562e+00,1.967888355255126953e+00,1.935853362083435059e+00,1.904844641685485840e+00,1.874813556671142578e+00,1.845714807510375977e+00
3.777644872665405273e+00,3.776917219161987305e+00,3.776190042495727539e+00,3.775463104248046875e+00,3.774736642837524414e+00,3.774010419845581055e+00,3.773284196853637695e+00,3.772558212280273438e+00,3.771832704544067383e+00,3.771107912063598633e+00,3.770382881164550781e+00,3.769658088684082031e+00,3.768933534622192383e+00,3.768209457397460938e+00,3.767485857009887695e+00,3.766762256622314453e+00,3.766038894653320312e+00,3.765316009521484375e+00,3.764593124389648438e+00,3.763870954513549805e+00,3.763148784637451172e+00,3.762426853179931641e+00,3.761705160140991211e+00,3.760983705520629883e+00,3.760262966156005859e+00,3.759541988372802734e+00,3.758821487426757812e+00,3.758101224899291992e+00,3.757381200790405273e+00,3.756661891937255859e+00,3.755942344665527344e+00,3.755223035812377930e+00,3.754504203796386719e+00,3.753785610198974609e+00,3.753067016601562500e+00,3.752349376678466797e+00,3.751631498336791992e+00,3.750914096832275391e+00,3.750196695327758789e+00,3.749479770660400391e+00,2.052315235137939453e+00,1.471617698669433594e+00,1.442506909370422363e+00,1.434735655784606934e+00,1.445834875106811523e+00,3.745184183120727539e+00,3.744469165802001953e+00,3.667071580886840820e+00,3.557373285293579102e+00,3.454047203063964844e+00,3.356554269790649414e+00,3.264414072036743164e+00,3.177196979522705078e+00,3.094519138336181641e+00,3.016035079956054688e+00,2.941433668136596680e+00,2.870433807373046875e+00,2.802780628204345703e+00,2.738243103027343750e+00,2.676610946655273438e+00,2.617691755294799805e+00,2.561310768127441406e+00,2.507307529449462891e+00,2.455534219741821289e+00,2.405855894088745117e+00,2.358147621154785156e+00,2.312294960021972656e+00,2.268191337585449219e+00,2.225738525390625000e+00,2.184845924377441406e+00,2.145428657531738281e+00,2.107408285140991211e+00,2.070712089538574219e+00,2.035272359848022461e+00,2.001024961471557617e+00,1.967911243438720703e+00,1.935875415802001953e+00,1.904866099357604980e+00,1.874834299087524414e+00,1.845734953880310059e+00
3.083588123321533203e+00,3.083103656768798828e+00,3.082619190216064453e+00,3.082134723663330078e+00,3.081650257110595703e+00,3.081166267395019531e+00,3.080682516098022461e+00,3.080198526382446289e+00,3.079714775085449219e+00,3.079231262207031250e+00,3.078747987747192383e+00,3.078264951705932617e+00,3.077781677246093750e+00,3.077298879623413086e+00,3.076816082000732422e+00,3.076333284378051758e+00,3.075851202011108398e+00,3.075368881225585938e+00,3.074886560440063477e+00,3.074404478073120117e+00,3.073922634124755859e+00,3.073441267013549805e+00,3.072959661483764648e+00,3.072478055953979492e+00,3.071996688842773438e+00,3.071515560150146484e+00,3.071034908294677734e+00,3.070554018020629883e+00,3.070073366165161133e+00,3.069592952728271484e+00,3.069112539291381836e+00,3.068632602691650391e+00,3.068152427673339844e+00,3.067672491073608398e+00,3.067192792892456055e+00,3.066713094711303711e+00,3.066233634948730469e+00,3.065754652023315430e+00,3.065275430679321289e+00,3.064796447753906250e+00,2.020962238311767578e+00,1.475215435028076172e+00,1.446057558059692383e+00,1.434060573577880859e+00,1.443186163902282715e+00,3.061925649642944336e+00,3.061447620391845703e+00,3.060970067977905273e+00,3.060492277145385742e+00,3.060014724731445312e+00,3.059537410736083984e+00,3.059060096740722656e+00,3.058583259582519531e+00,3.058106422424316406e+00,3.016088724136352539e+00,2.941484928131103516e+00,2.870482683181762695e+00,2.802827119827270508e+00,2.738287448883056641e+00,2.676653146743774414e+00,2.617732286453247070e+00,2.561349630355834961e+00,2.507344484329223633e+00,2.455569744110107422e+00,2.405889987945556641e+00,2.358180761337280273e+00,2.312326669692993164e+00,2.268221616744995117e+00,2.225767850875854492e+00,2.184874057769775391e+00,2.145455837249755859e+00,2.107434511184692383e+00,2.070737600326538086e+00,2.035296916961669922e+00,2.001048564910888672e+00,1.967934012413024902e+00,1.935897588729858398e+00,1.904887437820434570e+00,1.874855041503906250e+00,1.845755100250244141e+00
2.604982137680053711e+00,2.604635953903198242e+00,2.604290246963500977e+00,2.603944540023803711e+00,2.603598833084106445e+00,2.603253126144409180e+00,2.602907657623291016e+00,2.602562189102172852e+00,2.602217197418212891e+00,2.601871967315673828e+00,2.601526737213134766e+00,2.601181745529174805e+00,2.600836753845214844e+00,2.600492000579833984e+00,2.600147247314453125e+00,2.599802494049072266e+00,2.599457979202270508e+00,2.599113464355468750e+00,2.598769187927246094e+00,2.598424911499023438e+00,2.598080635070800781e+00,2.597736358642578125e+00,2.597392320632934570e+00,2.597048521041870117e+00,2.596704721450805664e+00,2.596360921859741211e+00,2.596017360687255859e+00,2.595673561096191406e+00,2.595330238342285156e+00,2.594986915588378906e+00,2.594643592834472656e+00,2.594300270080566406e+00,2.593957185745239258e+00,2.593614339828491211e+00,2.593271255493164062e+00,2.592928409576416016e+00,2.592585802078247070e+00,2.592242956161499023e+00,2.591900348663330078e+00,2.591557979583740234e+00,1.987765550613403320e+00,1.496739149093627930e+00,1.449625849723815918e+00,1.432625055313110352e+00,1.497751355171203613e+00,2.589505195617675781e+00,2.589163303375244141e+00,2.588821411132812500e+00,2.588479757308959961e+00,2.588138341903686523e+00,2.587796688079833984e+00,2.587455272674560547e+00,2.587114095687866211e+00,2.586772680282592773e+00,2.586431741714477539e+00,2.586090803146362305e+00,2.585749864578247070e+00,2.585408926010131836e+00,2.585068225860595703e+00,2.584727525711059570e+00,2.584387063980102539e+00,2.561388492584228516e+00,2.507381677627563477e+00,2.455605506896972656e+00,2.405924320220947266e+00,2.358213424682617188e+00,2.312358140945434570e+00,2.268252134323120117e+00,2.225797176361083984e+00,2.184902429580688477e+00,2.145483016967773438e+00,2.107460975646972656e+00,2.070762872695922852e+00,2.035321235656738281e+00,2.001072168350219727e+00,1.967956900596618652e+00,1.935919642448425293e+00,1.904909133911132812e+00,1.874876022338867188e+00,1.845775365829467773e+00
2.255026578903198242e+00,2.254765510559082031e+00,2.254504442214965820e+00,2.254243373870849609e+00,2.253982543945312500e+00,2.253721475601196289e+00,2.253460884094238281e+00,2.253200054168701172e+00,2.252939224243164062e+00,2.252678632736206055e+00,2.252418041229248047e+00,2.252157449722290039e+00,2.251896858215332031e+00,2.251636505126953125e+00,2.251376152038574219e+00,2.251115798950195312e+00,2.250855684280395508e+00,2.250595569610595703e+00,2.250335216522216797e+00,2.250075340270996094e+00,2.249815225601196289e+00,2.249555349349975586e+00,2.249295473098754883e+00,2.249036788940429688e+00,2.248778820037841797e+00,2.248521327972412109e+00,2.248263359069824219e+00,2.248005867004394531e+00,2.247748136520385742e+00,2.247490406036376953e+00,2.247233152389526367e+00,2.246975660324096680e+00,2.246718168258666992e+00,2.246460914611816406e+00,2.246203660964965820e+00,2.245946407318115234e+00,2.245689153671264648e+00,2.245432138442993164e+00,2.245175123214721680e+00,2.244918107986450195e+00,1.936299324035644531e+00,1.965209841728210449e+00,1.460838675498962402e+00,1.442408680915832520e+00,1.454018354415893555e+00,2.243377447128295898e+00,2.243120908737182617e+00,2.242864370346069336e+00,2.242607831954956055e+00,2.242351531982421875e+00,2.242094993591308594e+00,2.241838932037353516e+00,2.241582632064819336e+00,2.241326570510864258e+00,2.241070270538330078e+00,2.240814208984375000e+00,2.240558385848999023e+00,2.240302562713623047e+00,2.240046501159667969e+00,2.239790678024291992e+00,2.239534854888916016e+00,2.239279270172119141e+00,2.239023685455322266e+00,2.238768100738525391e+00,2.238512516021728516e+00,2.238257169723510742e+00,2.238001823425292969e+00,2.237746477127075195e+00,2.225826501846313477e+00,2.184930562973022461e+00,2.145510196685791016e+00,2.107487201690673828e+00,2.070788145065307617e+00,2.035345792770385742e+00,2.001096010208129883e+00,1.967980027198791504e+00,1.935942053794860840e+00,1.904930472373962402e+00,1.874896764755249023e+00,1.845795512199401855e+00
1.988046765327453613e+00,1.987843632698059082e+00,1.987640857696533203e+00,1.987437963485717773e+00,1.987235069274902344e+00,1.987032413482666016e+00,1.986829519271850586e+00,1.986626744270324707e+00,1.986424207687377930e+00,1.986221551895141602e+00,1.986018896102905273e+00,1.985816240310668945e+00,1.985613822937011719e+00,1.985411286354064941e+00,1.985208868980407715e+00,1.985006570816040039e+00,1.984804153442382812e+00,1.984601855278015137e+00,1.984399676322937012e+00,1.984197378158569336e+00,1.983995079994201660e+00,1.983792901039123535e+00,1.983590960502624512e+00,1.983388781547546387e+00,1.983186721801757812e+00,1.982984900474548340e+00,1.982782840728759766e+00,1.982580900192260742e+00,1.982379198074340820e+00,1.982177376747131348e+00,1.981975436210632324e+00,1.981773614883422852e+00,1.981572151184082031e+00,1.981370449066162109e+00,1.981168746948242188e+00,1.980967283248901367e+00,1.980765700340270996e+00,1.980564117431640625e+00,1.980362892150878906e+00,1.980161428451538086e+00,1.979959964752197266e+00,1.979758501052856445e+00,1.461800575256347656e+00,1.429820656776428223e+00,1.418823480606079102e+00,1.978953838348388672e+00,1.978752613067626953e+00,1.978551506996154785e+00,1.978350520133972168e+00,1.978149533271789551e+00,1.977948427200317383e+00,1.977747440338134766e+00,1.977546811103820801e+00,1.977345824241638184e+00,1.977144956588745117e+00,1.976944327354431152e+00,1.976743578910827637e+00,1.976542830467224121e+00,1.976342320442199707e+00,1.976141691207885742e+00,1.975941061973571777e+00,1.975740551948547363e+00,1.975540161132812500e+00,1.975339651107788086e+00,1.975139260292053223e+00,1.974938988685607910e+00,1.974738597869873047e+00,1.974538326263427734e+00,1.974338293075561523e+00,1.974138021469116211e+00,1.973937749862670898e+00,1.973737597465515137e+00,1.973537683486938477e+00,1.973337650299072266e+00,1.973137497901916504e+00,1.968002796173095703e+00,1.935964107513427734e+00,1.904951930046081543e+00,1.874917507171630859e+00,1.845815539360046387e+00
1.777591824531555176e+00,1.777429580688476562e+00,1.777267217636108398e+00,1.777105093002319336e+00,1.776942849159240723e+00,1.776780724525451660e+00,1.776618719100952148e+00,1.776456475257873535e+00,1.776294350624084473e+00,1.776132464408874512e+00,1.775970458984375000e+00,1.775808453559875488e+00,1.775646448135375977e+00,1.775484561920166016e+00,1.775322675704956055e+00,1.775160670280456543e+00,1.774999022483825684e+00,1.774837136268615723e+00,1.774675369262695312e+00,1.774513721466064453e+00,1.774351954460144043e+00,1.774190187454223633e+00,1.774028658866882324e+00,1.773867011070251465e+00,1.773705363273620605e+00,1.773543715476989746e+00,1.773382306098937988e+00,1.773220777511596680e+00,1.773059129714965820e+00,1.772897839546203613e+00,1.772736430168151855e+00,1.772574901580810547e+00,1.772413730621337891e+00,1.772252321243286133e+00,1.772090911865234375e+00,1.771929621696472168e+00,1.771768450736999512e+00,1.771607160568237305e+00,1.771445989608764648e+00,1.771284937858581543e+00,1.771123766899108887e+00,1.770962595939636230e+00,1.452332377433776855e+00,1.406308293342590332e+00,1.388710618019104004e+00,1.387675404548645020e+00,1.770157575607299805e+00,1.769996643066406250e+00,1.769835710525512695e+00,1.769674897193908691e+00,1.769514083862304688e+00,1.769353151321411133e+00,1.769192576408386230e+00,1.769031763076782227e+00,1.768870949745178223e+00,1.768710255622863770e+00,1.768549680709838867e+00,1.768388986587524414e+00,1.768228292465209961e+00,1.768067836761474609e+00,1.767907261848449707e+00,1.767746686935424805e+00,1.767586350440979004e+00,1.767425775527954102e+00,1.767265319824218750e+00,1.767104864120483398e+00,1.766944646835327148e+00,1.766784310340881348e+00,1.766623854637145996e+00,1.766463756561279297e+00,1.766303420066833496e+00,1.766143202781677246e+00,1.765983104705810547e+00,1.765822887420654297e+00,1.765662670135498047e+00,1.765502572059631348e+00,1.765342593193054199e+00,1.765182495117187500e+00,1.765022397041320801e+00,1.764862537384033203e+00
1.607429265975952148e+00,1.607296466827392578e+00,1.607163786888122559e+00,1.607031226158142090e+00,1.606898546218872070e+00,1.606765866279602051e+00,1.606633305549621582e+00,1.606500744819641113e+00,1.606368184089660645e+00,1.606235623359680176e+00,1.606103181838989258e+00,1.605970740318298340e+00,1.605838179588317871e+00,1.605705857276916504e+00,1.605573415756225586e+00,1.605440974235534668e+00,1.605308532714843750e+00,1.605176329612731934e+00,1.605044007301330566e+00,1.604911565780639648e+00,1.604779481887817383e+00,1.604647159576416016e+00,1.604514837265014648e+00,1.604382753372192383e+00,1.604250431060791016e+00,1.604118227958679199e+00,1.603986024856567383e+00,1.603854060173034668e+00,1.603721857070922852e+00,1.603589773178100586e+00,1.603457808494567871e+00,1.603325724601745605e+00,1.603193640708923340e+00,1.603061795234680176e+00,1.602929711341857910e+00,1.602797746658325195e+00,1.602665781974792480e+00,1.602533936500549316e+00,1.602401971817016602e+00,1.602270126342773438e+00,1.602138400077819824e+00,1.602006435394287109e+00,1.434180736541748047e+00,1.375353574752807617e+00,1.358438014984130859e+00,1.353555560111999512e+00,1.340188980102539062e+00,1.601215958595275879e+00,1.601084351539611816e+00,1.600952625274658203e+00,1.600821018218994141e+00,1.600689411163330078e+00,1.600557804107666016e+00,1.600426316261291504e+00,1.600294709205627441e+00,1.600163221359252930e+00,1.600031614303588867e+00,1.599900245666503906e+00,1.599768757820129395e+00,1.599637269973754883e+00,1.599505901336669922e+00,1.599374532699584961e+00,1.599243044853210449e+00,1.599111795425415039e+00,1.598980426788330078e+00,1.598849058151245117e+00,1.598717808723449707e+00,1.598586678504943848e+00,1.598455309867858887e+00,1.598324060440063477e+00,1.598192930221557617e+00,1.598061800003051758e+00,1.597930550575256348e+00,1.597799539566040039e+00,1.597668409347534180e+00,1.597537279129028320e+00,1.597406148910522461e+00,1.597275137901306152e+00,1.597144126892089844e+00,1.597013115882873535e+00
1.466998457908630371e+00,1.466888070106506348e+00,1.466777443885803223e+00,1.466666936874389648e+00,1.466556549072265625e+00,1.466446042060852051e+00,1.466335535049438477e+00,1.466225266456604004e+00,1.466114759445190430e+00,1.466004371643066406e+00,1.465893983840942383e+00,1.465783715248107910e+00,1.465673327445983887e+00,1.465562939643859863e+00,1.465452671051025391e+00,1.465342402458190918e+00,1.465232014656066895e+00,1.465121865272521973e+00,1.465011596679687500e+00,1.464901328086853027e+00,1.464791059494018555e+00,1.464681029319763184e+00,1.464570760726928711e+00,1.464460611343383789e+00,1.464350461959838867e+00,1.464240312576293945e+00,1.464130163192749023e+00,1.464020133018493652e+00,1.463910102844238281e+00,1.463799953460693359e+00,1.463689923286437988e+00,1.463579893112182617e+00,1.463469862937927246e+00,1.463359832763671875e+00,1.463249921798706055e+00,1.463140010833740234e+00,1.463029980659484863e+00,1.462920188903808594e+00,1.462810158729553223e+00,1.462700247764587402e+00,1.462590336799621582e+00,1.462480545043945312e+00,1.462370753288269043e+00,1.340001463890075684e+00,1.317352652549743652e+00,1.303156137466430664e+00,1.307010173797607422e+00,1.301890015602111816e+00,1.461712002754211426e+00,1.461602210998535156e+00,1.461492538452148438e+00,1.461382865905761719e+00,1.461273193359375000e+00,1.461163401603698730e+00,1.461053848266601562e+00,1.460944294929504395e+00,1.460834622383117676e+00,1.460725069046020508e+00,1.460615396499633789e+00,1.460505843162536621e+00,1.460396289825439453e+00,1.460286855697631836e+00,1.460177302360534668e+00,1.460067749023437500e+00,1.459958314895629883e+00,1.459848880767822266e+00,1.459739327430725098e+00,1.459630012512207031e+00,1.459520578384399414e+00,1.459411144256591797e+00,1.459301710128784180e+00,1.459192395210266113e+00,1.459082961082458496e+00,1.458973646163940430e+00,1.458864450454711914e+00,1.458755016326904297e+00,1.458645701408386230e+00,1.458536505699157715e+00,1.458427309989929199e+00,1.458317995071411133e+00
1.349133372306823730e+00,1.349039912223815918e+00,1.348946452140808105e+00,1.348852992057800293e+00,1.348759531974792480e+00,1.348666191101074219e+00,1.348572731018066406e+00,1.348479270935058594e+00,1.348386049270629883e+00,1.348292589187622070e+00,1.348199248313903809e+00,1.348105788230895996e+00,1.348012566566467285e+00,1.347919225692749023e+00,1.347825884819030762e+00,1.347732663154602051e+00,1.347639322280883789e+00,1.347545981407165527e+00,1.347452878952026367e+00,1.347359538078308105e+00,1.347266316413879395e+00,1.347173094749450684e+00,1.347079992294311523e+00,1.346986651420593262e+00,1.346893548965454102e+00,1.346800446510314941e+00,1.346707224845886230e+00,1.346614003181457520e+00,1.346521019935607910e+00,1.346427798271179199e+00,1.346334695816040039e+00,1.346241593360900879e+00,1.346148610115051270e+00,1.346055507659912109e+00,1.345962405204772949e+00,1.345869421958923340e+00,1.345776319503784180e+00,1.345683336257934570e+00,1.345590353012084961e+00,1.345497369766235352e+00,1.345404386520385742e+00,1.345311403274536133e+00,1.345218539237976074e+00,1.345125555992126465e+00,1.345032572746276855e+00,1.344939708709716797e+00,1.344846844673156738e+00,1.344753861427307129e+00,1.344661116600036621e+00,1.344568133354187012e+00,1.344475269317626953e+00,1.344382405281066895e+00,1.344289660453796387e+00,1.344196796417236328e+00,1.344104051589965820e+00,1.344011306762695312e+00,1.343918442726135254e+00,1.343825697898864746e+00,1.343733072280883789e+00,1.343640208244323730e+00,1.343547463417053223e+00,1.343454718589782715e+00,1.343362092971801758e+00,1.343269467353820801e+00,1.343176722526550293e+00,1.343084096908569336e+00,1.342991471290588379e+00,1.342898845672607422e+00,1.342806220054626465e+00,1.342713594436645508e+00,1.342620968818664551e+00,1.342528343200683594e+00,1.342435956001281738e+00,1.342343330383300781e+00,1.342250704765319824e+00,1.342158317565917969e+00,1.342065691947937012e+00,1.341973185539245605e+00,1.341880798339843750e+00,1.341788291931152344e+00
1.248799443244934082e+00,1.248719334602355957e+00,1.248639225959777832e+00,1.248559236526489258e+00,1.248479127883911133e+00,1.248399019241333008e+00,1.248319029808044434e+00,1.248239040374755859e+00,1.248158931732177734e+00,1.248079061508178711e+00,1.247998952865600586e+00,1.247918963432312012e+00,1.247838973999023438e+00,1.247759103775024414e+00,1.247679114341735840e+00,1.247599124908447266e+00,1.247519254684448242e+00,1.247439265251159668e+00,1.247359275817871094e+00,1.247279524803161621e+00,1.247199535369873047e+00,1.247119665145874023e+00,1.247039794921875000e+00,1.246959924697875977e+00,1.246880054473876953e+00,1.246800184249877930e+00,1.246720433235168457e+00,1.246640563011169434e+00,1.246560692787170410e+00,1.246480941772460938e+00,1.246401071548461914e+00,1.246321320533752441e+00,1.246241569519042969e+00,1.246161818504333496e+00,1.246082067489624023e+00,1.246002197265625000e+00,1.245922565460205078e+00,1.245842814445495605e+00,1.245763063430786133e+00,1.245683431625366211e+00,1.245603680610656738e+00,1.245524048805236816e+00,1.245444416999816895e+00,1.245364665985107422e+00,1.245285034179687500e+00,1.245205402374267578e+00,1.245125770568847656e+00,1.245046138763427734e+00,1.244966506958007812e+00,1.244886994361877441e+00,1.244807362556457520e+00,1.244727730751037598e+00,1.244648218154907227e+00,1.244568586349487305e+00,1.244489073753356934e+00,1.244409441947937012e+00,1.244330048561096191e+00,1.244250535964965820e+00,1.244170904159545898e+00,1.244091510772705078e+00,1.244011998176574707e+00,1.243932485580444336e+00,1.243853092193603516e+00,1.243773579597473145e+00,1.243694067001342773e+00,1.243614673614501953e+00,1.243535280227661133e+00,1.243455886840820312e+00,1.243376374244689941e+00,1.243297100067138672e+00,1.243217706680297852e+00,1.243138313293457031e+00,1.243058919906616211e+00,1.242979526519775391e+00,1.242900252342224121e+00,1.242820858955383301e+00,1.242741584777832031e+00,1.242662191390991211e+00,1.242582917213439941e+00,1.242503643035888672e+00
1.162356019020080566e+00,1.162286639213562012e+00,1.162217140197753906e+00,1.162147879600524902e+00,1.162078499794006348e+00,1.162009119987487793e+00,1.161939740180969238e+00,1.161870479583740234e+00,1.161801099777221680e+00,1.161731719970703125e+00,1.161662459373474121e+00,1.161593198776245117e+00,1.161523818969726562e+00,1.161454558372497559e+00,1.161385297775268555e+00,1.161316037178039551e+00,1.161246657371520996e+00,1.161177515983581543e+00,1.161108255386352539e+00,1.161038994789123535e+00,1.160969853401184082e+00,1.160900592803955078e+00,1.160831332206726074e+00,1.160762190818786621e+00,1.160692930221557617e+00,1.160623669624328613e+00,1.160554528236389160e+00,1.160485386848449707e+00,1.160416245460510254e+00,1.160346984863281250e+00,1.160277962684631348e+00,1.160208702087402344e+00,1.160139560699462891e+00,1.160070538520812988e+00,1.160001397132873535e+00,1.159932255744934082e+00,1.159863114356994629e+00,1.159794092178344727e+00,1.159724950790405273e+00,1.159655928611755371e+00,1.159586906433105469e+00,1.159517765045166016e+00,1.159448742866516113e+00,1.159379720687866211e+00,1.159310698509216309e+00,1.159241557121276855e+00,1.159172534942626953e+00,1.159103631973266602e+00,1.159034609794616699e+00,1.158965587615966797e+00,1.158896684646606445e+00,1.158827662467956543e+00,1.158758640289306641e+00,1.158689737319946289e+00,1.158620715141296387e+00,1.158551812171936035e+00,1.158482789993286133e+00,1.158414006233215332e+00,1.158345103263854980e+00,1.158276081085205078e+00,1.158207297325134277e+00,1.158138394355773926e+00,1.158069491386413574e+00,1.158000588417053223e+00,1.157931685447692871e+00,1.157862901687622070e+00,1.157793998718261719e+00,1.157725214958190918e+00,1.157656311988830566e+00,1.157587409019470215e+00,1.157518744468688965e+00,1.157449841499328613e+00,1.157381057739257812e+00,1.157312273979187012e+00,1.157243490219116211e+00,1.157174706459045410e+00,1.157105922698974609e+00,1.157037138938903809e+00,1.156968355178833008e+00,1.156899571418762207e+00
1.087105154991149902e+00,1.087044477462768555e+00,1.086983799934387207e+00,1.086923003196716309e+00,1.086862444877624512e+00,1.086801767349243164e+00,1.086741089820861816e+00,1.086680412292480469e+00,1.086619734764099121e+00,1.086559176445007324e+00,1.086498498916625977e+00,1.086437940597534180e+00,1.086377263069152832e+00,1.086316585540771484e+00,1.086256027221679688e+00,1.086195468902587891e+00,1.086134791374206543e+00,1.086074233055114746e+00,1.086013674736022949e+00,1.085953116416931152e+00,1.085892558097839355e+00,1.085831999778747559e+00,1.085771441459655762e+00,1.085710883140563965e+00,1.085650324821472168e+00,1.085589766502380371e+00,1.085529208183288574e+00,1.085468769073486328e+00,1.085408210754394531e+00,1.085347771644592285e+00,1.085287213325500488e+00,1.085226774215698242e+00,1.085166215896606445e+00,1.085105776786804199e+00,1.085045337677001953e+00,1.084984898567199707e+00,1.084924340248107910e+00,1.084864020347595215e+00,1.084803581237792969e+00,1.084743022918701172e+00,1.084682583808898926e+00,1.084622263908386230e+00,1.084561824798583984e+00,1.084501385688781738e+00,1.084440946578979492e+00,1.084380626678466797e+00,1.084320187568664551e+00,1.084259867668151855e+00,1.084199428558349609e+00,1.084138989448547363e+00,1.084078669548034668e+00,1.084018349647521973e+00,1.083958029747009277e+00,1.083897590637207031e+00,1.083837270736694336e+00,1.083776950836181641e+00,1.083716630935668945e+00,1.083656311035156250e+00,1.083595991134643555e+00,1.083535671234130859e+00,1.083475351333618164e+00,1.083415150642395020e+00,1.083354830741882324e+00,1.083294510841369629e+00,1.083234310150146484e+00,1.083173990249633789e+00,1.083113789558410645e+00,1.083053588867187500e+00,1.082993268966674805e+00,1.082933068275451660e+00,1.082872748374938965e+00,1.082812547683715820e+00,1.082752346992492676e+00,1.082692146301269531e+00,1.082631945610046387e+00,1.082571744918823242e+00,1.082511544227600098e+00,1.082451462745666504e+00,1.082391262054443359e+00,1.082331061363220215e+00
1.021005392074584961e+00,1.020951747894287109e+00,1.020898342132568359e+00,1.020844697952270508e+00,1.020791172981262207e+00,1.020737767219543457e+00,1.020684242248535156e+00,1.020630717277526855e+00,1.020577192306518555e+00,1.020523667335510254e+00,1.020470261573791504e+00,1.020416736602783203e+00,1.020363330841064453e+00,1.020309805870056152e+00,1.020256280899047852e+00,1.020202875137329102e+00,1.020149469375610352e+00,1.020095944404602051e+00,1.020042538642883301e+00,1.019989132881164551e+00,1.019935607910156250e+00,1.019882202148437500e+00,1.019828796386718750e+00,1.019775390625000000e+00,1.019721984863281250e+00,1.019668579101562500e+00,1.019615173339843750e+00,1.019561767578125000e+00,1.019508481025695801e+00,1.019455075263977051e+00,1.019401669502258301e+00,1.019348263740539551e+00,1.019294977188110352e+00,1.019241571426391602e+00,1.019188165664672852e+00,1.019134879112243652e+00,1.019081473350524902e+00,1.019028186798095703e+00,1.018974900245666504e+00,1.018921494483947754e+00,1.018868207931518555e+00,1.018814802169799805e+00,1.018761634826660156e+00,1.018708229064941406e+00,1.018654942512512207e+00,1.018601655960083008e+00,1.018548369407653809e+00,1.018495082855224609e+00,1.018441796302795410e+00,1.018388509750366211e+00,1.018335223197937012e+00,1.018282055854797363e+00,1.018228769302368164e+00,1.018175482749938965e+00,1.018122315406799316e+00,1.018069028854370117e+00,1.018015861511230469e+00,1.017962574958801270e+00,1.017909407615661621e+00,1.017856121063232422e+00,1.017802953720092773e+00,1.017749667167663574e+00,1.017696619033813477e+00,1.017643332481384277e+00,1.017590165138244629e+00,1.017536997795104980e+00,1.017483830451965332e+00,1.017430663108825684e+00,1.017377495765686035e+00,1.017324328422546387e+00,1.017271161079406738e+00,1.017217993736267090e+00,1.017164945602416992e+00,1.017111778259277344e+00,1.017058610916137695e+00,1.017005562782287598e+00,1.016952395439147949e+00,1.016899228096008301e+00,1.016846179962158203e+00,1.016793012619018555e+00
9.624831080436706543e-01,9.624355435371398926e-01,9.623879194259643555e-01,9.623402953147888184e-01,9.622927308082580566e-01,9.622451663017272949e-01,9.621977210044860840e-01,9.621501564979553223e-01,9.621025919914245605e-01,9.620550274848937988e-01,9.620074629783630371e-01,9.619599580764770508e-01,9.619123935699462891e-01,9.618649482727050781e-01,9.618174433708190918e-01,9.617699384689331055e-01,9.617223739624023438e-01,9.616748690605163574e-01,9.616273641586303711e-01,9.615799784660339355e-01,9.615324735641479492e-01,9.614849686622619629e-01,9.614374637603759766e-01,9.613899588584899902e-01,9.613424539566040039e-01,9.612950086593627930e-01,9.612476229667663574e-01,9.612001776695251465e-01,9.611526727676391602e-01,9.611052274703979492e-01,9.610577821731567383e-01,9.610103368759155273e-01,9.609630107879638672e-01,9.609155654907226562e-01,9.608681201934814453e-01,9.608206748962402344e-01,9.607732295989990234e-01,9.607258439064025879e-01,9.606783986091613770e-01,9.606310725212097168e-01,9.605836868286132812e-01,9.605363011360168457e-01,9.604888558387756348e-01,9.604414701461791992e-01,9.603940844535827637e-01,9.603466987609863281e-01,9.602994322776794434e-01,9.602520465850830078e-01,9.602046608924865723e-01,9.601572751998901367e-01,9.601099491119384766e-01,9.600625634193420410e-01,9.600153565406799316e-01,9.599679708480834961e-01,9.599206447601318359e-01,9.598733186721801758e-01,9.598259329795837402e-01,9.597786068916320801e-01,9.597312808036804199e-01,9.596840739250183105e-01,9.596367478370666504e-01,9.595894217491149902e-01,9.595421552658081055e-01,9.594948291778564453e-01,9.594475626945495605e-01,9.594002366065979004e-01,9.593530893325805664e-01,9.593057632446289062e-01,9.592584967613220215e-01,9.592112302780151367e-01,9.591639637947082520e-01,9.591166973114013672e-01,9.590695500373840332e-01,9.590222835540771484e-01,9.589750170707702637e-01,9.589277505874633789e-01,9.588805437088012695e-01,9.588332772254943848e-01,9.587860703468322754e-01,9.587389230728149414e-01
9.103058576583862305e-01,9.102632999420166016e-01,9.102207422256469727e-01,9.101781845092773438e-01,9.101356267929077148e-01,9.100930690765380859e-01,9.100505113601684570e-01,9.100080728530883789e-01,9.099655151367187500e-01,9.099229574203491211e-01,9.098803997039794922e-01,9.098379015922546387e-01,9.097953438758850098e-01,9.097529053688049316e-01,9.097104072570800781e-01,9.096679091453552246e-01,9.096253514289855957e-01,9.095828533172607422e-01,9.095403552055358887e-01,9.094978570938110352e-01,9.094554781913757324e-01,9.094129800796508789e-01,9.093704819679260254e-01,9.093279838562011719e-01,9.092854857444763184e-01,9.092430472373962402e-01,9.092005491256713867e-01,9.091581702232360840e-01,9.091157317161560059e-01,9.090732336044311523e-01,9.090307950973510742e-01,9.089883565902709961e-01,9.089459180831909180e-01,9.089035391807556152e-01,9.088611006736755371e-01,9.088186621665954590e-01,9.087762236595153809e-01,9.087337851524353027e-01,9.086913466453552246e-01,9.086489677429199219e-01,9.086066484451293945e-01,9.085642099380493164e-01,9.085218310356140137e-01,9.084793925285339355e-01,9.084370136260986328e-01,9.083945751190185547e-01,9.083521962165832520e-01,9.083098769187927246e-01,9.082674980163574219e-01,9.082251191139221191e-01,9.081827402114868164e-01,9.081403613090515137e-01,9.080980420112609863e-01,9.080557227134704590e-01,9.080134034156799316e-01,9.079710245132446289e-01,9.079286456108093262e-01,9.078863263130187988e-01,9.078439474105834961e-01,9.078016281127929688e-01,9.077593684196472168e-01,9.077170491218566895e-01,9.076747298240661621e-01,9.076324105262756348e-01,9.075900912284851074e-01,9.075477719306945801e-01,9.075054526329040527e-01,9.074631929397583008e-01,9.074209332466125488e-01,9.073786139488220215e-01,9.073362946510314941e-01,9.072940349578857422e-01,9.072517156600952148e-01,9.072095155715942383e-01,9.071672558784484863e-01,9.071249365806579590e-01,9.070826768875122070e-01,9.070404171943664551e-01,9.069981575012207031e-01,9.069558978080749512e-01
8.634948134422302246e-01,8.634566068649291992e-01,8.634183406829833984e-01,8.633800148963928223e-01,8.633416891098022461e-01,8.633034229278564453e-01,8.632651567459106445e-01,8.632269501686096191e-01,8.631886243820190430e-01,8.631503582000732422e-01,8.631120920181274414e-01,8.630738258361816406e-01,8.630355596542358398e-01,8.629972934722900391e-01,8.629590868949890137e-01,8.629208207130432129e-01,8.628826141357421875e-01,8.628443479537963867e-01,8.628060817718505859e-01,8.627678155899047852e-01,8.627296090126037598e-01,8.626914620399475098e-01,8.626531958580017090e-01,8.626149892807006836e-01,8.625767230987548828e-01,8.625385165214538574e-01,8.625003099441528320e-01,8.624621629714965820e-01,8.624239563941955566e-01,8.623857498168945312e-01,8.623475432395935059e-01,8.623093366622924805e-01,8.622711300849914551e-01,8.622329235076904297e-01,8.621947765350341797e-01,8.621566295623779297e-01,8.621184229850769043e-01,8.620802164077758789e-01,8.620420694351196289e-01,8.620038628578186035e-01,8.619657158851623535e-01,8.619276285171508789e-01,8.618894219398498535e-01,8.618512749671936035e-01,8.618131279945373535e-01,8.617749810218811035e-01,8.617368340492248535e-01,8.616987466812133789e-01,8.616605997085571289e-01,8.616224527359008789e-01,8.615843057632446289e-01,8.615461587905883789e-01,8.615080118179321289e-01,8.614699244499206543e-01,8.614318370819091797e-01,8.613937497138977051e-01,8.613556027412414551e-01,8.613175153732299805e-01,8.612793684005737305e-01,8.612412810325622559e-01,8.612031340599060059e-01,8.611651659011840820e-01,8.611270189285278320e-01,8.610889315605163574e-01,8.610508441925048828e-01,8.610127568244934082e-01,8.609746694564819336e-01,8.609367012977600098e-01,8.608986139297485352e-01,8.608605265617370605e-01,8.608224391937255859e-01,8.607843518257141113e-01,8.607463240623474121e-01,8.607082366943359375e-01,8.606702685356140137e-01,8.606321811676025391e-01,8.605941534042358398e-01,8.605561256408691406e-01,8.605180382728576660e-01,8.604800105094909668e-01
8.212627768516540527e-01,8.212281465530395508e-01,8.211935758590698242e-01,8.211588859558105469e-01,8.211242556571960449e-01,8.210896253585815430e-01,8.210549950599670410e-01,8.210203647613525391e-01,8.209857940673828125e-01,8.209511637687683105e-01,8.209165334701538086e-01,8.208819031715393066e-01,8.208473324775695801e-01,8.208127021789550781e-01,8.207780718803405762e-01,8.207435607910156250e-01,8.207089304924011230e-01,8.206743597984313965e-01,8.206397294998168945e-01,8.206051588058471680e-01,8.205705285072326660e-01,8.205359578132629395e-01,8.205014467239379883e-01,8.204668760299682617e-01,8.204322457313537598e-01,8.203976750373840332e-01,8.203631043434143066e-01,8.203285336494445801e-01,8.202940225601196289e-01,8.202594518661499023e-01,8.202248811721801758e-01,8.201903104782104492e-01,8.201557993888854980e-01,8.201212286949157715e-01,8.200866580009460449e-01,8.200522065162658691e-01,8.200176358222961426e-01,8.199830651283264160e-01,8.199485540390014648e-01,8.199139833450317383e-01,8.198794722557067871e-01,8.198449015617370605e-01,8.198104500770568848e-01,8.197759389877319336e-01,8.197414278984069824e-01,8.197069168090820312e-01,8.196723461151123047e-01,8.196378350257873535e-01,8.196034431457519531e-01,8.195688724517822266e-01,8.195343613624572754e-01,8.194999098777770996e-01,8.194653987884521484e-01,8.194308876991271973e-01,8.193963766098022461e-01,8.193619847297668457e-01,8.193274736404418945e-01,8.192929625511169434e-01,8.192585110664367676e-01,8.192239999771118164e-01,8.191895484924316406e-01,8.191550374031066895e-01,8.191206455230712891e-01,8.190861940383911133e-01,8.190517425537109375e-01,8.190172314643859863e-01,8.189827799797058105e-01,8.189483284950256348e-01,8.189139366149902344e-01,8.188794851303100586e-01,8.188450336456298828e-01,8.188105821609497070e-01,8.187761306762695312e-01,8.187416791915893555e-01,8.187072873115539551e-01,8.186728954315185547e-01,8.186385035514831543e-01,8.186040520668029785e-01,8.185696005821228027e-01,8.185352087020874023e-01
7.829691171646118164e-01,7.829376459121704102e-01,7.829061150550842285e-01,7.828747034072875977e-01,7.828432321548461914e-01,7.828117012977600098e-01,7.827802300453186035e-01,7.827487587928771973e-01,7.827172875404357910e-01,7.826858758926391602e-01,7.826544046401977539e-01,7.826229333877563477e-01,7.825914621353149414e-01,7.825599908828735352e-01,7.825285196304321289e-01,7.824970483779907227e-01,7.824656963348388672e-01,7.824342250823974609e-01,7.824027538299560547e-01,7.823713421821594238e-01,7.823398709297180176e-01,7.823084592819213867e-01,7.822770476341247559e-01,7.822456359863281250e-01,7.822141647338867188e-01,7.821827530860900879e-01,7.821513414382934570e-01,7.821198701858520508e-01,7.820884585380554199e-01,7.820571064949035645e-01,7.820256948471069336e-01,7.819942831993103027e-01,7.819628119468688965e-01,7.819314002990722656e-01,7.818999886512756348e-01,7.818685770034790039e-01,7.818372845649719238e-01,7.818058729171752930e-01,7.817744612693786621e-01,7.817430496215820312e-01,7.817116379737854004e-01,7.816802859306335449e-01,7.816489338874816895e-01,7.816175222396850586e-01,7.815861701965332031e-01,7.815547585487365723e-01,7.815234065055847168e-01,7.814919948577880859e-01,7.814606428146362305e-01,7.814293503761291504e-01,7.813979387283325195e-01,7.813665866851806641e-01,7.813352346420288086e-01,7.813038825988769531e-01,7.812724709510803223e-01,7.812411189079284668e-01,7.812098264694213867e-01,7.811784744262695312e-01,7.811471223831176758e-01,7.811157703399658203e-01,7.810844182968139648e-01,7.810531258583068848e-01,7.810218334197998047e-01,7.809904813766479492e-01,7.809591293334960938e-01,7.809278368949890137e-01,7.808964848518371582e-01,7.808651328086853027e-01,7.808338403701782227e-01,7.808025479316711426e-01,7.807712554931640625e-01,7.807399034500122070e-01,7.807086110115051270e-01,7.806773185729980469e-01,7.806459665298461914e-01,7.806146740913391113e-01,7.805834412574768066e-01,7.805521488189697266e-01,7.805208563804626465e-01,7.804895043373107910e-01
7.480874061584472656e-01,7.480586767196655273e-01,7.480299472808837891e-01,7.480012774467468262e-01,7.479724884033203125e-01,7.479437589645385742e-01,7.479150295257568359e-01,7.478863000869750977e-01,7.478575706481933594e-01,7.478287816047668457e-01,7.478001713752746582e-01,7.477714419364929199e-01,7.477427124977111816e-01,7.477139830589294434e-01,7.476852536201477051e-01,7.476565241813659668e-01,7.476277947425842285e-01,7.475991249084472656e-01,7.475704550743103027e-01,7.475417256355285645e-01,7.475129961967468262e-01,7.474842667579650879e-01,7.474555969238281250e-01,7.474269270896911621e-01,7.473982572555541992e-01,7.473695278167724609e-01,7.473408579826354980e-01,7.473121285438537598e-01,7.472834587097167969e-01,7.472547888755798340e-01,7.472261786460876465e-01,7.471974492073059082e-01,7.471687793731689453e-01,7.471401095390319824e-01,7.471114397048950195e-01,7.470827102661132812e-01,7.470540404319763184e-01,7.470254302024841309e-01,7.469967603683471680e-01,7.469680905342102051e-01,7.469394207000732422e-01,7.469108104705810547e-01,7.468821406364440918e-01,7.468535304069519043e-01,7.468248605728149414e-01,7.467961907386779785e-01,7.467675805091857910e-01,7.467389106750488281e-01,7.467102408409118652e-01,7.466816306114196777e-01,7.466530203819274902e-01,7.466244101524353027e-01,7.465957403182983398e-01,7.465671300888061523e-01,7.465384602546691895e-01,7.465098500251770020e-01,7.464812397956848145e-01,7.464526295661926270e-01,7.464240193367004395e-01,7.463954091072082520e-01,7.463667988777160645e-01,7.463381290435791016e-01,7.463095188140869141e-01,7.462809681892395020e-01,7.462523579597473145e-01,7.462237477302551270e-01,7.461951375007629395e-01,7.461665272712707520e-01,7.461379170417785645e-01,7.461093068122863770e-01,7.460808157920837402e-01,7.460522055625915527e-01,7.460235953330993652e-01,7.459949851036071777e-01,7.459664344787597656e-01,7.459378242492675781e-01,7.459092140197753906e-01,7.458807229995727539e-01,7.458521127700805664e-01,7.458235621452331543e-01
7.161811590194702148e-01,7.161548137664794922e-01,7.161284685134887695e-01,7.161021232604980469e-01,7.160758376121520996e-01,7.160494923591613770e-01,7.160231471061706543e-01,7.159968018531799316e-01,7.159704566001892090e-01,7.159441709518432617e-01,7.159178256988525391e-01,7.158915400505065918e-01,7.158651947975158691e-01,7.158389091491699219e-01,7.158125638961791992e-01,7.157862186431884766e-01,7.157599329948425293e-01,7.157336473464965820e-01,7.157073020935058594e-01,7.156810164451599121e-01,7.156546711921691895e-01,7.156283855438232422e-01,7.156020998954772949e-01,7.155757546424865723e-01,7.155495285987854004e-01,7.155231833457946777e-01,7.154968976974487305e-01,7.154706120491027832e-01,7.154443264007568359e-01,7.154179811477661133e-01,7.153916954994201660e-01,7.153654694557189941e-01,7.153391838073730469e-01,7.153128981590270996e-01,7.152866125106811523e-01,7.152603268623352051e-01,7.152340412139892578e-01,7.152078151702880859e-01,7.151815295219421387e-01,7.151552438735961914e-01,7.151289582252502441e-01,7.151027321815490723e-01,7.150764465332031250e-01,7.150501608848571777e-01,7.150239348411560059e-01,7.149977087974548340e-01,7.149714231491088867e-01,7.149451375007629395e-01,7.149189114570617676e-01,7.148926258087158203e-01,7.148663997650146484e-01,7.148401737213134766e-01,7.148139476776123047e-01,7.147876620292663574e-01,7.147614359855651855e-01,7.147352099418640137e-01,7.147089242935180664e-01,7.146827578544616699e-01,7.146565318107604980e-01,7.146303057670593262e-01,7.146040201187133789e-01,7.145777940750122070e-01,7.145515680313110352e-01,7.145253419876098633e-01,7.144991755485534668e-01,7.144729495048522949e-01,7.144467234611511230e-01,7.144204974174499512e-01,7.143942713737487793e-01,7.143680453300476074e-01,7.143418192863464355e-01,7.143156528472900391e-01,7.142894268035888672e-01,7.142632603645324707e-01,7.142370343208312988e-01,7.142108082771301270e-01,7.141845822334289551e-01,7.141584753990173340e-01,7.141322493553161621e-01,7.141060829162597656e-01
6.868852376937866211e-01,6.868610382080078125e-01,6.868367791175842285e-01,6.868125200271606445e-01,6.867883205413818359e-01,6.867641210556030273e-01,6.867399215698242188e-01,6.867156624794006348e-01,6.866914629936218262e-01,6.866672039031982422e-01,6.866430044174194336e-01,6.866187453269958496e-01,6.865946054458618164e-01,6.865703463554382324e-01,6.865461468696594238e-01,6.865219473838806152e-01,6.864977478981018066e-01,6.864734888076782227e-01,6.864493489265441895e-01,6.864251494407653809e-01,6.864009499549865723e-01,6.863767504692077637e-01,6.863525509834289551e-01,6.863282918930053711e-01,6.863040924072265625e-01,6.862799525260925293e-01,6.862557530403137207e-01,6.862316131591796875e-01,6.862074136734008789e-01,6.861832141876220703e-01,6.861590147018432617e-01,6.861348152160644531e-01,6.861106753349304199e-01,6.860864758491516113e-01,6.860623359680175781e-01,6.860381364822387695e-01,6.860139369964599609e-01,6.859897971153259277e-01,6.859656572341918945e-01,6.859414577484130859e-01,6.859173178672790527e-01,6.858931183815002441e-01,6.858689785003662109e-01,6.858447790145874023e-01,6.858206391334533691e-01,6.857964992523193359e-01,6.857723593711853027e-01,6.857481598854064941e-01,6.857240200042724609e-01,6.856998801231384277e-01,6.856757402420043945e-01,6.856515407562255859e-01,6.856274604797363281e-01,6.856033205986022949e-01,6.855791807174682617e-01,6.855549812316894531e-01,6.855308413505554199e-01,6.855067014694213867e-01,6.854826211929321289e-01,6.854584813117980957e-01,6.854343414306640625e-01,6.854102015495300293e-01,6.853860616683959961e-01,6.853619217872619629e-01,6.853377819061279297e-01,6.853137612342834473e-01,6.852896213531494141e-01,6.852654814720153809e-01,6.852413415908813477e-01,6.852172017097473145e-01,6.851931214332580566e-01,6.851689815521240234e-01,6.851449012756347656e-01,6.851208209991455078e-01,6.850966811180114746e-01,6.850725412368774414e-01,6.850484609603881836e-01,6.850243210792541504e-01,6.850003004074096680e-01,6.849761605262756348e-01
