5.000000000000000000e+00,5.000000000000000000e+00,5.000000000000000000e+00,5.000000000000000000e+00,5.000000000000000000e+00,5.000000000000000000e+00,5.000000000000000000e+00,5.000000000000000000e+00,5.000000000000000000e+00,5.000000000000000000e+00,5.000000000000000000e+00,5.000000000000000000e+00,5.000000000000000000e+00,5.000000000000000000e+00,5.000000000000000000e+00,5.000000000000000000e+00,5.000000000000000000e+00,5.000000000000000000e+00,5.000000000000000000e+00,5.000000000000000000e+00,5.000000000000000000e+00,5.000000000000000000e+00,5.000000000000000000e+00,5.000000000000000000e+00,5.000000000000000000e+00,5.000000000000000000e+00,5.000000000000000000e+00,5.000000000000000000e+00,5.000000000000000000e+00,5.000000000000000000e+00,5.000000000000000000e+00,5.000000000000000000e+00,5.000000000000000000e+00,5.000000000000000000e+00,5.000000000000000000e+00,5.000000000000000000e+00,5.000000000000000000e+00,5.000000000000000000e+00,5.000000000000000000e+00,4.847298622131347656e+00,4.657573223114013672e+00,4.482139587402343750e+00,4.319442749023437500e+00,4.168143272399902344e+00,4.027084350585937500e+00,3.895260810852050781e+00,3.771793603897094727e+00,3.655913591384887695e+00,3.546941280364990234e+00,3.444277048110961914e+00,3.347388744354248047e+00,3.255802392959594727e+00,3.169094324111938477e+00,3.086884737014770508e+00,3.008832693099975586e+00,2.934630155563354492e+00,2.863999843597412109e+00,2.796689033508300781e+00,2.732469558715820312e+00,2.671133279800415039e+00,2.612490177154541016e+00,2.556366920471191406e+00,2.502604007720947266e+00,2.451056003570556641e+00,2.401588678359985352e+00,2.354078531265258789e+00,2.308411836624145508e+00,2.264482975006103516e+00,2.222194910049438477e+00,2.181457281112670898e+00,2.142186641693115234e+00,2.104304552078247070e+00,2.067739009857177734e+00,2.032422780990600586e+00,1.998292446136474609e+00,1.965289711952209473e+00,1.933359026908874512e+00,1.902449607849121094e+00,1.872512698173522949e+00,1.843503594398498535e+00
5.000000000000000000e+00,5.000000000000000000e+00,5.000000000000000000e+00,5.000000000000000000e+00,5.000000000000000000e+00,5.000000000000000000e+00,5.000000000000000000e+00,5.000000000000000000e+00,5.000000000000000000e+00,5.000000000000000000e+00,5.000000000000000000e+00,5.000000000000000000e+00,5.000000000000000000e+00,5.000000000000000000e+00,5.000000000000000000e+00,5.000000000000000000e+00,5.000000000000000000e+00,5.000000000000000000e+00,5.000000000000000000e+00,5.000000000000000000e+00,5.000000000000000000e+00,5.000000000000000000e+00,5.000000000000000000e+00,5.000000000000000000e+00,5.000000000000000000e+00,5.000000000000000000e+00,5.000000000000000000e+00,5.000000000000000000e+00,5.000000000000000000e+00,5.000000000000000000e+00,5.000000000000000000e+00,5.000000000000000000e+00,5.000000000000000000e+00,5.000000000000000000e+00,5.000000000000000000e+00,5.000000000000000000e+00,5.000000000000000000e+00,5.000000000000000000e+00,5.000000000000000000e+00,4.847435951232910156e+00,4.657699584960937500e+00,4.482257366180419922e+00,4.319551944732666016e+00,4.168244838714599609e+00,4.027179241180419922e+00,3.895349502563476562e+00,3.771877288818359375e+00,3.655991554260253906e+00,3.547014713287353516e+00,3.444346189498901367e+00,3.347454071044921875e+00,3.255864620208740234e+00,3.169152975082397461e+00,3.086940526962280273e+00,3.008885622024536133e+00,2.934680700302124023e+00,2.864047765731811523e+00,2.796734809875488281e+00,2.732513189315795898e+00,2.671175003051757812e+00,2.612530231475830078e+00,2.556405067443847656e+00,2.502640724182128906e+00,2.451091051101684570e+00,2.401622533798217773e+00,2.354110956192016602e+00,2.308442831039428711e+00,2.264513015747070312e+00,2.222223758697509766e+00,2.181485176086425781e+00,2.142213344573974609e+00,2.104330539703369141e+00,2.067764043807983398e+00,2.032446861267089844e+00,1.998315811157226562e+00,1.965312242507934570e+00,1.933380842208862305e+00,1.902470707893371582e+00,1.872533440589904785e+00,1.843523502349853516e+00
5.000000000000000000e+00,5.000000000000000000e+00,5.000000000000000000e+00,5.000000000000000000e+00,5.000000000000000000e+00,5.000000000000000000e+00,5.000000000000000000e+00,5.000000000000000000e+00,5.000000000000000000e+00,5.000000000000000000e+00,5.000000000000000000e+00,5.000000000000000000e+00,5.000000000000000000e+00,5.000000000000000000e+00,5.000000000000000000e+00,5.000000000000000000e+00,5.000000000000000000e+00,5.000000000000000000e+00,5.000000000000000000e+00,5.000000000000000000e+00,5.000000000000000000e+00,5.000000000000000000e+00,5.000000000000000000e+00,5.000000000000000000e+00,5.000000000000000000e+00,4.262756347656250000e+00,4.295710563659667969e+00,5.000000000000000000e+00,5.000000000000000000e+00,5.000000000000000000e+00,5.000000000000000000e+00,5.000000000000000000e+00,5.000000000000000000e+00,5.000000000000000000e+00,5.000000000000000000e+00,5.000000000000000000e+00,5.000000000000000000e+00,5.000000000000000000e+00,5.000000000000000000e+00,4.847573280334472656e+00,4.657826900482177734e+00,4.482374668121337891e+00,4.319660663604736328e+00,4.168346881866455078e+00,4.027274131774902344e+00,3.895438671112060547e+00,3.771960258483886719e+00,3.656069755554199219e+00,3.547088146209716797e+00,3.444415807723999023e+00,3.347519874572753906e+00,3.255926609039306641e+00,3.169211626052856445e+00,3.086996078491210938e+00,3.008938789367675781e+00,2.934731006622314453e+00,2.864095687866210938e+00,2.796780347824096680e+00,2.732556819915771484e+00,2.671216964721679688e+00,2.612570285797119141e+00,2.556443214416503906e+00,2.502677202224731445e+00,2.451126337051391602e+00,2.401656150817871094e+00,2.354143381118774414e+00,2.308474063873291016e+00,2.264543056488037109e+00,2.222252845764160156e+00,2.181513071060180664e+00,2.142240047454833984e+00,2.104356288909912109e+00,2.067789077758789062e+00,2.032471179962158203e+00,1.998339056968688965e+00,1.965334892272949219e+00,1.933402657508850098e+00,1.902491927146911621e+00,1.872553825378417969e+00,1.843543291091918945e+00
5.000000000000000000e+00,5.000000000000000000e+00,5.000000000000000000e+00,5.000000000000000000e+00,5.000000000000000000e+00,5.000000000000000000e+00,5.000000000000000000e+00,5.000000000000000000e+00,5.000000000000000000e+00,5.000000000000000000e+00,5.000000000000000000e+00,5.000000000000000000e+00,5.000000000000000000e+00,5.000000000000000000e+00,5.000000000000000000e+00,5.000000000000000000e+00,5.000000000000000000e+00,5.000000000000000000e+00,5.000000000000000000e+00,5.000000000000000000e+00,5.000000000000000000e+00,5.000000000000000000e+00,5.000000000000000000e+00,5.000000000000000000e+00,5.000000000000000000e+00,4.277814388275146484e+00,4.289949893951416016e+00,5.000000000000000000e+00,5.000000000000000000e+00,5.000000000000000000e+00,5.000000000000000000e+00,5.000000000000000000e+00,5.000000000000000000e+00,5.000000000000000000e+00,5.000000000000000000e+00,5.000000000000000000e+00,5.000000000000000000e+00,5.000000000000000000e+00,5.000000000000000000e+00,4.847711086273193359e+00,4.657953739166259766e+00,4.482492446899414062e+00,4.319770336151123047e+00,4.168447971343994141e+00,4.027369022369384766e+00,3.895527362823486328e+00,3.772043466567993164e+00,3.656147718429565430e+00,3.547162055969238281e+00,3.444485187530517578e+00,3.347585439682006836e+00,3.255988359451293945e+00,3.169270515441894531e+00,3.087052106857299805e+00,3.008991479873657227e+00,2.934781312942504883e+00,2.864143610000610352e+00,2.796826362609863281e+00,2.732600688934326172e+00,2.671258687973022461e+00,2.612610101699829102e+00,2.556481361389160156e+00,2.502713918685913086e+00,2.451161384582519531e+00,2.401689767837524414e+00,2.354175806045532227e+00,2.308505058288574219e+00,2.264573097229003906e+00,2.222281694412231445e+00,2.181540966033935547e+00,2.142266988754272461e+00,2.104382276535034180e+00,2.067814111709594727e+00,2.032495260238647461e+00,1.998362421989440918e+00,1.965357422828674316e+00,1.933424711227416992e+00,1.902513027191162109e+00,1.872574329376220703e+00,1.843563199043273926e+00
5.000000000000000000e+00,5.000000000000000000e+00,5.000000000000000000e+00,5.000000000000000000e+00,5.000000000000000000e+00,5.000000000000000000e+00,5.000000000000000000e+00,5.000000000000000000e+00,5.000000000000000000e+00,5.000000000000000000e+00,5.000000000000000000e+00,5.000000000000000000e+00,5.000000000000000000e+00,5.000000000000000000e+00,5.000000000000000000e+00,5.000000000000000000e+00,5.000000000000000000e+00,5.000000000000000000e+00,5.000000000000000000e+00,5.000000000000000000e+00,5.000000000000000000e+00,5.000000000000000000e+00,5.000000000000000000e+00,5.000000000000000000e+00,5.000000000000000000e+00,4.299865722656250000e+00,4.314895629882812500e+00,5.000000000000000000e+00,5.000000000000000000e+00,5.000000000000000000e+00,5.000000000000000000e+00,5.000000000000000000e+00,5.000000000000000000e+00,5.000000000000000000e+00,5.000000000000000000e+00,5.000000000000000000e+00,5.000000000000000000e+00,5.000000000000000000e+00,5.000000000000000000e+00,4.847848415374755859e+00,4.658080577850341797e+00,4.482609748840332031e+00,4.319879055023193359e+00,4.168550014495849609e+00,4.027463912963867188e+00,3.895615816116333008e+00,3.772126674652099609e+00,3.656226396560668945e+00,3.547235488891601562e+00,3.444554567337036133e+00,3.347650766372680664e+00,3.256050348281860352e+00,3.169329404830932617e+00,3.087107658386230469e+00,3.009044408798217773e+00,2.934831619262695312e+00,2.864191770553588867e+00,2.796871900558471680e+00,2.732644319534301758e+00,2.671300172805786133e+00,2.612649917602539062e+00,2.556519746780395508e+00,2.502750635147094727e+00,2.451196670532226562e+00,2.401723623275756836e+00,2.354208469390869141e+00,2.308536529541015625e+00,2.264603137969970703e+00,2.222310543060302734e+00,2.181568622589111328e+00,2.142293930053710938e+00,2.104408264160156250e+00,2.067839145660400391e+00,2.032519340515136719e+00,1.998385787010192871e+00,1.965379953384399414e+00,1.933446645736694336e+00,1.902534127235412598e+00,1.872594833374023438e+00,1.843583226203918457e+00
5.000000000000000000e+00,5.000000000000000000e+00,5.000000000000000000e+00,5.000000000000000000e+00,5.000000000000000000e+00,5.000000000000000000e+00,5.000000000000000000e+00,5.000000000000000000e+00,5.000000000000000000e+00,5.000000000000000000e+00,5.000000000000000000e+00,5.000000000000000000e+00,5.000000000000000000e+00,5.000000000000000000e+00,5.000000000000000000e+00,5.000000000000000000e+00,5.000000000000000000e+00,5.000000000000000000e+00,5.000000000000000000e+00,5.000000000000000000e+00,5.000000000000000000e+00,5.000000000000000000e+00,5.000000000000000000e+00,5.000000000000000000e+00,4.351441383361816406e+00,4.371066093444824219e+00,4.294354438781738281e+00,4.352421283721923828e+00,4.348729133605957031e+00,5.000000000000000000e+00,5.000000000000000000e+00,5.000000000000000000e+00,5.000000000000000000e+00,5.000000000000000000e+00,5.000000000000000000e+00,5.000000000000000000e+00,5.000000000000000000e+00,5.000000000000000000e+00,5.000000000000000000e+00,4.847985744476318359e+00,4.658207416534423828e+00,4.482727527618408203e+00,4.319988250732421875e+00,4.168651580810546875e+00,4.027558803558349609e+00,3.895704507827758789e+00,3.772210121154785156e+00,3.656304359436035156e+00,3.547308921813964844e+00,3.444623708724975586e+00,3.347716569900512695e+00,3.256112575531005859e+00,3.169388055801391602e+00,3.087163448333740234e+00,3.009097337722778320e+00,2.934882164001464844e+00,2.864239692687988281e+00,2.796917676925659180e+00,2.732687950134277344e+00,2.671341896057128906e+00,2.612689971923828125e+00,2.556557893753051758e+00,2.502787113189697266e+00,2.451231718063354492e+00,2.401757478713989258e+00,2.354240655899047852e+00,2.308567523956298828e+00,2.264632940292358398e+00,2.222339391708374023e+00,2.181596517562866211e+00,2.142320871353149414e+00,2.104434013366699219e+00,2.067863941192626953e+00,2.032543659210205078e+00,1.998409271240234375e+00,1.965402483940124512e+00,1.933468461036682129e+00,1.902555346488952637e+00,1.872615337371826172e+00,1.843603134155273438e+00
5.000000000000000000e+00,5.000000000000000000e+00,5.000000000000000000e+00,5.000000000000000000e+00,5.000000000000000000e+00,5.000000000000000000e+00,5.000000000000000000e+00,5.000000000000000000e+00,5.000000000000000000e+00,5.000000000000000000e+00,5.000000000000000000e+00,5.000000000000000000e+00,5.000000000000000000e+00,5.000000000000000000e+00,5.000000000000000000e+00,5.000000000000000000e+00,5.000000000000000000e+00,5.000000000000000000e+00,5.000000000000000000e+00,5.000000000000000000e+00,5.000000000000000000e+00,5.000000000000000000e+00,5.000000000000000000e+00,4.313628196716308594e+00,4.284636974334716797e+00,4.271020889282226562e+00,4.271878242492675781e+00,4.289779663085937500e+00,4.351185798645019531e+00,4.373923301696777344e+00,5.000000000000000000e+00,5.000000000000000000e+00,5.000000000000000000e+00,5.000000000000000000e+00,5.000000000000000000e+00,5.000000000000000000e+00,5.000000000000000000e+00,5.000000000000000000e+00,5.000000000000000000e+00,4.848123073577880859e+00,4.658334255218505859e+00,4.482844829559326172e+00,4.320097923278808594e+00,4.168753147125244141e+00,4.027653694152832031e+00,3.895793676376342773e+00,3.772293329238891602e+00,3.656382560729980469e+00,3.547382593154907227e+00,3.444693565368652344e+00,3.347782135009765625e+00,3.256174564361572266e+00,3.169446706771850586e+00,3.087218999862670898e+00,3.009150505065917969e+00,2.934932470321655273e+00,2.864287614822387695e+00,2.796963453292846680e+00,2.732731819152832031e+00,2.671383857727050781e+00,2.612729787826538086e+00,2.556596279144287109e+00,2.502823829650878906e+00,2.451267004013061523e+00,2.401791095733642578e+00,2.354273080825805664e+00,2.308598756790161133e+00,2.264662981033325195e+00,2.222368240356445312e+00,2.181624412536621094e+00,2.142347574234008789e+00,2.104460000991821289e+00,2.067889213562011719e+00,2.032567739486694336e+00,1.998432636260986328e+00,1.965425133705139160e+00,1.933490276336669922e+00,1.902576684951782227e+00,1.872635841369628906e+00,1.843622922897338867e+00
5.000000000000000000e+00,5.000000000000000000e+00,5.000000000000000000e+00,5.000000000000000000e+00,5.000000000000000000e+00,5.000000000000000000e+00,5.000000000000000000e+00,5.000000000000000000e+00,5.000000000000000000e+00,5.000000000000000000e+00,5.000000000000000000e+00,5.000000000000000000e+00,5.000000000000000000e+00,5.000000000000000000e+00,5.000000000000000000e+00,5.000000000000000000e+00,5.000000000000000000e+00,5.000000000000000000e+00,5.000000000000000000e+00,5.000000000000000000e+00,5.000000000000000000e+00,5.000000000000000000e+00,5.000000000000000000e+00,4.340487003326416016e+00,4.261049270629882812e+00,4.249249935150146484e+00,4.254732131958007812e+00,4.285175323486328125e+00,4.358124732971191406e+00,4.374355792999267578e+00,5.000000000000000000e+00,5.000000000000000000e+00,5.000000000000000000e+00,5.000000000000000000e+00,5.000000000000000000e+00,5.000000000000000000e+00,5.000000000000000000e+00,5.000000000000000000e+00,5.000000000000000000e+00,4.848260879516601562e+00,4.658461093902587891e+00,4.482962608337402344e+00,4.320206642150878906e+00,4.168854713439941406e+00,4.027748584747314453e+00,3.895882368087768555e+00,3.772376298904418945e+00,3.656460523605346680e+00,3.547456502914428711e+00,3.444762706756591797e+00,3.347847461700439453e+00,3.256236553192138672e+00,3.169505357742309570e+00,3.087275028228759766e+00,3.009203433990478516e+00,2.934983015060424805e+00,2.864335536956787109e+00,2.797009229660034180e+00,2.732775449752807617e+00,2.671425580978393555e+00,2.612769842147827148e+00,2.556634426116943359e+00,2.502860546112060547e+00,2.451302051544189453e+00,2.401824712753295898e+00,2.354305505752563477e+00,2.308629989624023438e+00,2.264693021774291992e+00,2.222397089004516602e+00,2.181652307510375977e+00,2.142374277114868164e+00,2.104485988616943359e+00,2.067914009094238281e+00,2.032591819763183594e+00,1.998456001281738281e+00,1.965447902679443359e+00,1.933512091636657715e+00,1.902597784996032715e+00,1.872656345367431641e+00,1.843642830848693848e+00
5.000000000000000000e+00,5.000000000000000000e+00,5.000000000000000000e+00,5.000000000000000000e+00,5.000000000000000000e+00,5.000000000000000000e+00,5.000000000000000000e+00,5.000000000000000000e+00,5.000000000000000000e+00,5.000000000000000000e+00,5.000000000000000000e+00,5.000000000000000000e+00,5.000000000000000000e+00,5.000000000000000000e+00,5.000000000000000000e+00,5.000000000000000000e+00,5.000000000000000000e+00,5.000000000000000000e+00,5.000000000000000000e+00,5.000000000000000000e+00,5.000000000000000000e+00,5.000000000000000000e+00,5.000000000000000000e+00,4.363500118255615234e+00,4.273733615875244141e+00,4.240554809570312500e+00,4.252447128295898438e+00,4.299248218536376953e+00,4.353705883026123047e+00,4.367844104766845703e+00,5.000000000000000000e+00,5.000000000000000000e+00,5.000000000000000000e+00,5.000000000000000000e+00,5.000000000000000000e+00,5.000000000000000000e+00,5.000000000000000000e+00,5.000000000000000000e+00,5.000000000000000000e+00,4.848398208618164062e+00,4.658588409423828125e+00,4.483079910278320312e+00,4.320315837860107422e+00,4.168956279754638672e+00,4.027843475341796875e+00,3.895971059799194336e+00,3.772459506988525391e+00,3.656538963317871094e+00,3.547529935836791992e+00,3.444832086563110352e+00,3.347913026809692383e+00,3.256298780441284180e+00,3.169564485549926758e+00,3.087330818176269531e+00,3.009256362915039062e+00,2.935033321380615234e+00,2.864383697509765625e+00,2.797055006027221680e+00,2.732819080352783203e+00,2.671467304229736328e+00,2.612809658050537109e+00,2.556672811508178711e+00,2.502897024154663086e+00,2.451337099075317383e+00,2.401858568191528320e+00,2.354337930679321289e+00,2.308661222457885742e+00,2.264723062515258789e+00,2.222425937652587891e+00,2.181679964065551758e+00,2.142401218414306641e+00,2.104511737823486328e+00,2.067939043045043945e+00,2.032615900039672852e+00,1.998479366302490234e+00,1.965470433235168457e+00,1.933533906936645508e+00,1.902619004249572754e+00,1.872676730155944824e+00,1.843662619590759277e+00
5.000000000000000000e+00,5.000000000000000000e+00,5.000000000000000000e+00,5.000000000000000000e+00,5.000000000000000000e+00,5.000000000000000000e+00,5.000000000000000000e+00,5.000000000000000000e+00,5.000000000000000000e+00,5.000000000000000000e+00,5.000000000000000000e+00,5.000000000000000000e+00,5.000000000000000000e+00,5.000000000000000000e+00,5.000000000000000000e+00,5.000000000000000000e+00,5.000000000000000000e+00,5.000000000000000000e+00,5.000000000000000000e+00,5.000000000000000000e+00,5.000000000000000000e+00,5.000000000000000000e+00,5.000000000000000000e+00,4.386623382568359375e+00,4.262314319610595703e+00,4.243118762969970703e+00,4.255252838134765625e+00,4.305259227752685547e+00,5.000000000000000000e+00,4.367671012878417969e+00,5.000000000000000000e+00,5.000000000000000000e+00,5.000000000000000000e+00,5.000000000000000000e+00,5.000000000000000000e+00,5.000000000000000000e+00,5.000000000000000000e+00,5.000000000000000000e+00,5.000000000000000000e+00,4.848536014556884766e+00,4.658714771270751953e+00,4.483197689056396484e+00,4.320425033569335938e+00,4.169058322906494141e+00,4.027938365936279297e+00,3.896059751510620117e+00,3.772542953491210938e+00,3.656617164611816406e+00,3.547603368759155273e+00,3.444901466369628906e+00,3.347978830337524414e+00,3.256360769271850586e+00,3.169623136520385742e+00,3.087386369705200195e+00,3.009309291839599609e+00,2.935083866119384766e+00,2.864431619644165039e+00,2.797100782394409180e+00,2.732862710952758789e+00,2.671509027481079102e+00,2.612849712371826172e+00,2.556710958480834961e+00,2.502933740615844727e+00,2.451372146606445312e+00,2.401892423629760742e+00,2.354370355606079102e+00,2.308692216873168945e+00,2.264753103256225586e+00,2.222454786300659180e+00,2.181707859039306641e+00,2.142428159713745117e+00,2.104537725448608398e+00,2.067964076995849609e+00,2.032640218734741211e+00,1.998502612113952637e+00,1.965492963790893555e+00,1.933555841445922852e+00,1.902640104293823242e+00,1.872697472572326660e+00,1.843682527542114258e+00
5.000000000000000000e+00,5.000000000000000000e+00,5.000000000000000000e+00,5.000000000000000000e+00,5.000000000000000000e+00,5.000000000000000000e+00,5.000000000000000000e+00,5.000000000000000000e+00,5.000000000000000000e+00,5.000000000000000000e+00,5.000000000000000000e+00,5.000000000000000000e+00,5.000000000000000000e+00,5.000000000000000000e+00,5.000000000000000000e+00,5.000000000000000000e+00,5.000000000000000000e+00,5.000000000000000000e+00,5.000000000000000000e+00,5.000000000000000000e+00,5.000000000000000000e+00,5.000000000000000000e+00,5.000000000000000000e+00,5.000000000000000000e+00,4.247991085052490234e+00,4.231812477111816406e+00,4.244117259979248047e+00,4.286571025848388672e+00,5.000000000000000000e+00,4.330882549285888672e+00,5.000000000000000000e+00,5.000000000000000000e+00,5.000000000000000000e+00,5.000000000000000000e+00,5.000000000000000000e+00,5.000000000000000000e+00,5.000000000000000000e+00,5.000000000000000000e+00,5.000000000000000000e+00,4.848673343658447266e+00,4.658842086791992188e+00,4.483314990997314453e+00,4.320534229278564453e+00,4.169159889221191406e+00,4.028033256530761719e+00,3.896148681640625000e+00,3.772626161575317383e+00,3.656695365905761719e+00,3.547677040100097656e+00,3.444971084594726562e+00,3.348044395446777344e+00,3.256422519683837891e+00,3.169681787490844727e+00,3.087442159652709961e+00,3.009362459182739258e+00,2.935134172439575195e+00,2.864479541778564453e+00,2.797146320343017578e+00,2.732906579971313477e+00,2.671550750732421875e+00,2.612889528274536133e+00,2.556749105453491211e+00,2.502970218658447266e+00,2.451407432556152344e+00,2.401926040649414062e+00,2.354402780532836914e+00,2.308723449707031250e+00,2.264783143997192383e+00,2.222483873367309570e+00,2.181735754013061523e+00,2.142454862594604492e+00,2.104563474655151367e+00,2.067989110946655273e+00,2.032664299011230469e+00,1.998525977134704590e+00,1.965515613555908203e+00,1.933577895164489746e+00,1.902661204338073730e+00,1.872717976570129395e+00,1.843702316284179688e+00
5.000000000000000000e+00,5.000000000000000000e+00,5.000000000000000000e+00,5.000000000000000000e+00,5.000000000000000000e+00,5.000000000000000000e+00,5.000000000000000000e+00,5.000000000000000000e+00,5.000000000000000000e+00,5.000000000000000000e+00,5.000000000000000000e+00,5.000000000000000000e+00,5.000000000000000000e+00,5.000000000000000000e+00,5.000000000000000000e+00,5.000000000000000000e+00,5.000000000000000000e+00,5.000000000000000000e+00,5.000000000000000000e+00,5.000000000000000000e+00,5.000000000000000000e+00,5.000000000000000000e+00,5.000000000000000000e+00,5.000000000000000000e+00,4.266671180725097656e+00,4.252493381500244141e+00,4.258822917938232422e+00,4.298215389251708984e+00,5.000000000000000000e+00,4.285400867462158203e+00,5.000000000000000000e+00,5.000000000000000000e+00,5.000000000000000000e+00,5.000000000000000000e+00,5.000000000000000000e+00,5.000000000000000000e+00,5.000000000000000000e+00,5.000000000000000000e+00,5.000000000000000000e+00,4.848810672760009766e+00,4.658968925476074219e+00,4.483432769775390625e+00,4.320643424987792969e+00,4.169261455535888672e+00,4.028128147125244141e+00,3.896237373352050781e+00,3.772709369659423828e+00,3.656773328781127930e+00,3.547750949859619141e+00,3.445040464401245117e+00,3.348109722137451172e+00,3.256484508514404297e+00,3.169740676879882812e+00,3.087497949600219727e+00,3.009415149688720703e+00,2.935184478759765625e+00,2.864527463912963867e+00,2.797192335128784180e+00,2.732950210571289062e+00,2.671592473983764648e+00,2.612929582595825195e+00,2.556787252426147461e+00,2.503007173538208008e+00,2.451442718505859375e+00,2.401959657669067383e+00,2.354435205459594727e+00,2.308754682540893555e+00,2.264813184738159180e+00,2.222512722015380859e+00,2.181763648986816406e+00,2.142481803894042969e+00,2.104589462280273438e+00,2.068014144897460938e+00,2.032688617706298828e+00,1.998549342155456543e+00,1.965538144111633301e+00,1.933599710464477539e+00,1.902682423591613770e+00,1.872738480567932129e+00,1.843722224235534668e+00
5.000000000000000000e+00,5.000000000000000000e+00,5.000000000000000000e+00,5.000000000000000000e+00,5.000000000000000000e+00,5.000000000000000000e+00,5.000000000000000000e+00,5.000000000000000000e+00,5.000000000000000000e+00,5.000000000000000000e+00,5.000000000000000000e+00,5.000000000000000000e+00,5.000000000000000000e+00,5.000000000000000000e+00,5.000000000000000000e+00,5.000000000000000000e+00,5.000000000000000000e+00,5.000000000000000000e+00,5.000000000000000000e+00,5.000000000000000000e+00,5.000000000000000000e+00,5.000000000000000000e+00,5.000000000000000000e+00,4.397477149963378906e+00,4.205169200897216797e+00,4.235602855682373047e+00,4.296586513519287109e+00,4.299586772918701172e+00,5.000000000000000000e+00,4.250347137451171875e+00,5.000000000000000000e+00,5.000000000000000000e+00,5.000000000000000000e+00,5.000000000000000000e+00,5.000000000000000000e+00,5.000000000000000000e+00,5.000000000000000000e+00,5.000000000000000000e+00,5.000000000000000000e+00,4.848948001861572266e+00,4.659096240997314453e+00,4.483550071716308594e+00,4.320752620697021484e+00,4.169363021850585938e+00,4.028223037719726562e+00,3.896326065063476562e+00,3.772792577743530273e+00,3.656851768493652344e+00,3.547824382781982422e+00,3.445109844207763672e+00,3.348175287246704102e+00,3.256546735763549805e+00,3.169799327850341797e+00,3.087553739547729492e+00,3.009468078613281250e+00,2.935234785079956055e+00,2.864575624465942383e+00,2.797238111495971680e+00,2.732993841171264648e+00,2.671634197235107422e+00,2.612969636917114258e+00,2.556825637817382812e+00,2.503043651580810547e+00,2.451477766036987305e+00,2.401993513107299805e+00,2.354467630386352539e+00,2.308785915374755859e+00,2.264842987060546875e+00,2.222541570663452148e+00,2.181791543960571289e+00,2.142508745193481445e+00,2.104615449905395508e+00,2.068039178848266602e+00,2.032712697982788086e+00,1.998572826385498047e+00,1.965560674667358398e+00,1.933621525764465332e+00,1.902703523635864258e+00,1.872758984565734863e+00,1.843742251396179199e+00
5.000000000000000000e+00,5.000000000000000000e+00,5.000000000000000000e+00,5.000000000000000000e+00,5.000000000000000000e+00,5.000000000000000000e+00,5.000000000000000000e+00,5.000000000000000000e+00,5.000000000000000000e+00,5.000000000000000000e+00,5.000000000000000000e+00,5.000000000000000000e+00,5.000000000000000000e+00,5.000000000000000000e+00,5.000000000000000000e+00,5.000000000000000000e+00,5.000000000000000000e+00,5.000000000000000000e+00,5.000000000000000000e+00,5.000000000000000000e+00,5.000000000000000000e+00,5.000000000000000000e+00,5.000000000000000000e+00,4.359644412994384766e+00,4.177758693695068359e+00,4.200559139251708984e+00,4.293293952941894531e+00,4.298731327056884766e+00,5.000000000000000000e+00,4.184949398040771484e+00,5.000000000000000000e+00,5.000000000000000000e+00,5.000000000000000000e+00,5.000000000000000000e+00,5.000000000000000000e+00,5.000000000000000000e+00,5.000000000000000000e+00,5.000000000000000000e+00,5.000000000000000000e+00,4.849085807800292969e+00,4.659222602844238281e+00,4.483667850494384766e+00,4.320861816406250000e+00,4.169465065002441406e+00,4.028317928314208984e+00,3.896415233612060547e+00,3.772876024246215820e+00,3.656929969787597656e+00,3.547897815704345703e+00,3.445178985595703125e+00,3.348241090774536133e+00,3.256608724594116211e+00,3.169858217239379883e+00,3.087609529495239258e+00,3.009521007537841797e+00,2.935285329818725586e+00,2.864623546600341797e+00,2.797283649444580078e+00,2.733037471771240234e+00,2.671676158905029297e+00,2.613009452819824219e+00,2.556863784790039062e+00,2.503080368041992188e+00,2.451512813568115234e+00,2.402027368545532227e+00,2.354500055313110352e+00,2.308816909790039062e+00,2.264873027801513672e+00,2.222570657730102539e+00,2.181819438934326172e+00,2.142535448074340820e+00,2.104641199111938477e+00,2.068064212799072266e+00,2.032737016677856445e+00,1.998596191406250000e+00,1.965583324432373047e+00,1.933643341064453125e+00,1.902724862098693848e+00,1.872779369354248047e+00,1.843762159347534180e+00
5.000000000000000000e+00,5.000000000000000000e+00,5.000000000000000000e+00,5.000000000000000000e+00,5.000000000000000000e+00,5.000000000000000000e+00,5.000000000000000000e+00,5.000000000000000000e+00,5.000000000000000000e+00,5.000000000000000000e+00,5.000000000000000000e+00,5.000000000000000000e+00,5.000000000000000000e+00,5.000000000000000000e+00,5.000000000000000000e+00,5.000000000000000000e+00,5.000000000000000000e+00,5.000000000000000000e+00,5.000000000000000000e+00,5.000000000000000000e+00,5.000000000000000000e+00,5.000000000000000000e+00,5.000000000000000000e+00,4.344813346862792969e+00,4.155813217163085938e+00,4.175839900970458984e+00,4.307834148406982422e+00,4.312983512878417969e+00,5.000000000000000000e+00,5.000000000000000000e+00,5.000000000000000000e+00,5.000000000000000000e+00,5.000000000000000000e+00,5.000000000000000000e+00,5.000000000000000000e+00,5.000000000000000000e+00,5.000000000000000000e+00,5.000000000000000000e+00,5.000000000000000000e+00,4.849223136901855469e+00,4.659349918365478516e+00,4.483785152435302734e+00,4.320971012115478516e+00,4.169566631317138672e+00,4.028413295745849609e+00,3.896503925323486328e+00,3.772959232330322266e+00,3.657008171081542969e+00,3.547971487045288086e+00,3.445248842239379883e+00,3.348306655883789062e+00,3.256670713424682617e+00,3.169916868209838867e+00,3.087665319442749023e+00,3.009574174880981445e+00,2.935335636138916016e+00,2.864671468734741211e+00,2.797329425811767578e+00,2.733081340789794922e+00,2.671717882156372070e+00,2.613049268722534180e+00,2.556901931762695312e+00,2.503117084503173828e+00,2.451548099517822266e+00,2.402060985565185547e+00,2.354532480239868164e+00,2.308848142623901367e+00,2.264903068542480469e+00,2.222599506378173828e+00,2.181847095489501953e+00,2.142562389373779297e+00,2.104667186737060547e+00,2.068089246749877930e+00,2.032761096954345703e+00,1.998619556427001953e+00,1.965605854988098145e+00,1.933665156364440918e+00,1.902746081352233887e+00,1.872799873352050781e+00,1.843781948089599609e+00
5.000000000000000000e+00,5.000000000000000000e+00,5.000000000000000000e+00,5.000000000000000000e+00,5.000000000000000000e+00,5.000000000000000000e+00,5.000000000000000000e+00,5.000000000000000000e+00,5.000000000000000000e+00,5.000000000000000000e+00,5.000000000000000000e+00,5.000000000000000000e+00,5.000000000000000000e+00,5.000000000000000000e+00,5.000000000000000000e+00,5.000000000000000000e+00,5.000000000000000000e+00,5.000000000000000000e+00,5.000000000000000000e+00,5.000000000000000000e+00,5.000000000000000000e+00,5.000000000000000000e+00,5.000000000000000000e+00,4.334883213043212891e+00,4.125121593475341797e+00,4.147761821746826172e+00,4.324670314788818359e+00,4.331747055053710938e+00,5.000000000000000000e+00,5.000000000000000000e+00,5.000000000000000000e+00,5.000000000000000000e+00,5.000000000000000000e+00,5.000000000000000000e+00,5.000000000000000000e+00,5.000000000000000000e+00,5.000000000000000000e+00,5.000000000000000000e+00,5.000000000000000000e+00,4.849360942840576172e+00,4.659476757049560547e+00,4.483902931213378906e+00,4.321080207824707031e+00,4.169668197631835938e+00,4.028507709503173828e+00,3.896592617034912109e+00,3.773042440414428711e+00,3.657086133956909180e+00,3.548045396804809570e+00,3.445317983627319336e+00,3.348371982574462891e+00,3.256732702255249023e+00,3.169975757598876953e+00,3.087721109390258789e+00,3.009627103805541992e+00,2.935385942459106445e+00,2.864719390869140625e+00,2.797375440597534180e+00,2.733124971389770508e+00,2.671759605407714844e+00,2.613089084625244141e+00,2.556940317153930664e+00,2.503153562545776367e+00,2.451583147048950195e+00,2.402094841003417969e+00,2.354564905166625977e+00,2.308879375457763672e+00,2.264933109283447266e+00,2.222628355026245117e+00,2.181874990463256836e+00,2.142589330673217773e+00,2.104693174362182617e+00,2.068114280700683594e+00,2.032785177230834961e+00,1.998642921447753906e+00,1.965628623962402344e+00,1.933687090873718262e+00,1.902767181396484375e+00,1.872820377349853516e+00,1.843801856040954590e+00
5.000000000000000000e+00,5.000000000000000000e+00,5.000000000000000000e+00,5.000000000000000000e+00,5.000000000000000000e+00,5.000000000000000000e+00,5.000000000000000000e+00,5.000000000000000000e+00,5.000000000000000000e+00,5.000000000000000000e+00,5.000000000000000000e+00,5.000000000000000000e+00,5.000000000000000000e+00,5.000000000000000000e+00,5.000000000000000000e+00,5.000000000000000000e+00,5.000000000000000000e+00,5.000000000000000000e+00,5.000000000000000000e+00,5.000000000000000000e+00,5.000000000000000000e+00,5.000000000000000000e+00,5.000000000000000000e+00,5.000000000000000000e+00,4.101885318756103516e+00,4.127624034881591797e+00,4.339988231658935547e+00,4.344501972198486328e+00,5.000000000000000000e+00,5.000000000000000000e+00,5.000000000000000000e+00,5.000000000000000000e+00,5.000000000000000000e+00,5.000000000000000000e+00,5.000000000000000000e+00,5.000000000000000000e+00,5.000000000000000000e+00,5.000000000000000000e+00,5.000000000000000000e+00,4.849498748779296875e+00,4.659604072570800781e+00,4.484020709991455078e+00,4.321189403533935547e+00,4.169769763946533203e+00,4.028603076934814453e+00,3.896681308746337891e+00,3.773125886917114258e+00,3.657164812088012695e+00,3.548118829727172852e+00,3.445387363433837891e+00,3.348437547683715820e+00,3.256794929504394531e+00,3.170034408569335938e+00,3.087776660919189453e+00,3.009680032730102539e+00,2.935436487197875977e+00,2.864767551422119141e+00,2.797421216964721680e+00,2.733168601989746094e+00,2.671801090240478516e+00,2.613129377365112305e+00,2.556978702545166016e+00,2.503190279006958008e+00,2.451618432998657227e+00,2.402128458023071289e+00,2.354597330093383789e+00,2.308910608291625977e+00,2.264963150024414062e+00,2.222657203674316406e+00,2.181902885437011719e+00,2.142616033554077148e+00,2.104718923568725586e+00,2.068139076232910156e+00,2.032809257507324219e+00,1.998666167259216309e+00,1.965651273727416992e+00,1.933708906173706055e+00,1.902788400650024414e+00,1.872841119766235352e+00,1.843821644783020020e+00
5.000000000000000000e+00,5.000000000000000000e+00,5.000000000000000000e+00,5.000000000000000000e+00,5.000000000000000000e+00,5.000000000000000000e+00,5.000000000000000000e+00,5.000000000000000000e+00,5.000000000000000000e+00,5.000000000000000000e+00,5.000000000000000000e+00,5.000000000000000000e+00,5.000000000000000000e+00,5.000000000000000000e+00,5.000000000000000000e+00,5.000000000000000000e+00,5.000000000000000000e+00,5.000000000000000000e+00,5.000000000000000000e+00,5.000000000000000000e+00,5.000000000000000000e+00,5.000000000000000000e+00,5.000000000000000000e+00,5.000000000000000000e+00,4.131954193115234375e+00,4.137481689453125000e+00,4.353602409362792969e+00,4.365831851959228516e+00,5.000000000000000000e+00,5.000000000000000000e+00,5.000000000000000000e+00,5.000000000000000000e+00,5.000000000000000000e+00,5.000000000000000000e+00,5.000000000000000000e+00,5.000000000000000000e+00,5.000000000000000000e+00,5.000000000000000000e+00,5.000000000000000000e+00,4.849636077880859375e+00,4.659730911254882812e+00,4.484138488769531250e+00,4.321298599243164062e+00,4.169871807098388672e+00,4.028697490692138672e+00,3.896770477294921875e+00,3.773209095001220703e+00,3.657243013381958008e+00,3.548192501068115234e+00,3.445456743240356445e+00,3.348503351211547852e+00,3.256856918334960938e+00,3.170093297958374023e+00,3.087832450866699219e+00,3.009733200073242188e+00,2.935487031936645508e+00,2.864815473556518555e+00,2.797466754913330078e+00,2.733212232589721680e+00,2.671843051910400391e+00,2.613169193267822266e+00,2.557016849517822266e+00,2.503226757049560547e+00,2.451653718948364258e+00,2.402162313461303711e+00,2.354629755020141602e+00,2.308941602706909180e+00,2.264992952346801758e+00,2.222686052322387695e+00,2.181930780410766602e+00,2.142642974853515625e+00,2.104744911193847656e+00,2.068164110183715820e+00,2.032833576202392578e+00,1.998689532279968262e+00,1.965673804283142090e+00,1.933730721473693848e+00,1.902809500694274902e+00,1.872861623764038086e+00,1.843841552734375000e+00
5.000000000000000000e+00,5.000000000000000000e+00,5.000000000000000000e+00,5.000000000000000000e+00,5.000000000000000000e+00,5.000000000000000000e+00,5.000000000000000000e+00,5.000000000000000000e+00,5.000000000000000000e+00,5.000000000000000000e+00,5.000000000000000000e+00,5.000000000000000000e+00,5.000000000000000000e+00,5.000000000000000000e+00,5.000000000000000000e+00,5.000000000000000000e+00,5.000000000000000000e+00,5.000000000000000000e+00,5.000000000000000000e+00,5.000000000000000000e+00,5.000000000000000000e+00,5.000000000000000000e+00,5.000000000000000000e+00,5.000000000000000000e+00,4.156526088714599609e+00,4.167085647583007812e+00,5.000000000000000000e+00,4.449040889739990234e+00,5.000000000000000000e+00,5.000000000000000000e+00,5.000000000000000000e+00,5.000000000000000000e+00,5.000000000000000000e+00,5.000000000000000000e+00,5.000000000000000000e+00,5.000000000000000000e+00,5.000000000000000000e+00,5.000000000000000000e+00,5.000000000000000000e+00,4.849773883819580078e+00,4.659857749938964844e+00,4.484255790710449219e+00,4.321407794952392578e+00,4.169973373413085938e+00,4.028792858123779297e+00,3.896859169006347656e+00,3.773292303085327148e+00,3.657321214675903320e+00,3.548266410827636719e+00,3.445526361465454102e+00,3.348568916320800781e+00,3.256918907165527344e+00,3.170151948928833008e+00,3.087888479232788086e+00,3.009786128997802734e+00,2.935537338256835938e+00,2.864863395690917969e+00,2.797512531280517578e+00,2.733256101608276367e+00,2.671884775161743164e+00,2.613209009170532227e+00,2.557054996490478516e+00,2.503263711929321289e+00,2.451688766479492188e+00,2.402195930480957031e+00,2.354662179946899414e+00,2.308972835540771484e+00,2.265023231506347656e+00,2.222714900970458984e+00,2.181958436965942383e+00,2.142669677734375000e+00,2.104770898818969727e+00,2.068189382553100586e+00,2.032857656478881836e+00,1.998712897300720215e+00,1.965696334838867188e+00,1.933752775192260742e+00,1.902830600738525391e+00,1.872882008552551270e+00,1.843861460685729980e+00
5.000000000000000000e+00,5.000000000000000000e+00,5.000000000000000000e+00,5.000000000000000000e+00,5.000000000000000000e+00,5.000000000000000000e+00,5.000000000000000000e+00,5.000000000000000000e+00,5.000000000000000000e+00,5.000000000000000000e+00,5.000000000000000000e+00,5.000000000000000000e+00,5.000000000000000000e+00,5.000000000000000000e+00,5.000000000000000000e+00,5.000000000000000000e+00,5.000000000000000000e+00,5.000000000000000000e+00,5.000000000000000000e+00,5.000000000000000000e+00,5.000000000000000000e+00,5.000000000000000000e+00,5.000000000000000000e+00,5.000000000000000000e+00,4.180928230285644531e+00,4.164170265197753906e+00,5.000000000000000000e+00,4.534120559692382812e+00,5.000000000000000000e+00,5.000000000000000000e+00,5.000000000000000000e+00,5.000000000000000000e+00,5.000000000000000000e+00,5.000000000000000000e+00,5.000000000000000000e+00,5.000000000000000000e+00,5.000000000000000000e+00,5.000000000000000000e+00,5.000000000000000000e+00,4.849911689758300781e+00,4.659985065460205078e+00,4.484373569488525391e+00,4.321516990661621094e+00,4.170074939727783203e+00,4.028887748718261719e+00,3.896947860717773438e+00,3.773375511169433594e+00,3.657399654388427734e+00,3.548339843750000000e+00,3.445595741271972656e+00,3.348634481430053711e+00,3.256980895996093750e+00,3.170210838317871094e+00,3.087944030761718750e+00,3.009839057922363281e+00,2.935587644577026367e+00,2.864911556243896484e+00,2.797558546066284180e+00,2.733299732208251953e+00,2.671926498413085938e+00,2.613249063491821289e+00,2.557093381881713867e+00,2.503300189971923828e+00,2.451723814010620117e+00,2.402229785919189453e+00,2.354694604873657227e+00,2.309004068374633789e+00,2.265053033828735352e+00,2.222743749618530273e+00,2.181986331939697266e+00,2.142696619033813477e+00,2.104796886444091797e+00,2.068214178085327148e+00,2.032881975173950195e+00,1.998736143112182617e+00,1.965718865394592285e+00,1.933774590492248535e+00,1.902851819992065430e+00,1.872902512550354004e+00,1.843881487846374512e+00
5.000000000000000000e+00,5.000000000000000000e+00,5.000000000000000000e+00,5.000000000000000000e+00,5.000000000000000000e+00,5.000000000000000000e+00,5.000000000000000000e+00,5.000000000000000000e+00,5.000000000000000000e+00,5.000000000000000000e+00,5.000000000000000000e+00,5.000000000000000000e+00,5.000000000000000000e+00,5.000000000000000000e+00,5.000000000000000000e+00,5.000000000000000000e+00,5.000000000000000000e+00,5.000000000000000000e+00,5.000000000000000000e+00,5.000000000000000000e+00,5.000000000000000000e+00,5.000000000000000000e+00,5.000000000000000000e+00,5.000000000000000000e+00,5.000000000000000000e+00,4.161130428314208984e+00,5.000000000000000000e+00,4.620359897613525391e+00,5.000000000000000000e+00,5.000000000000000000e+00,5.000000000000000000e+00,5.000000000000000000e+00,5.000000000000000000e+00,5.000000000000000000e+00,5.000000000000000000e+00,5.000000000000000000e+00,5.000000000000000000e+00,5.000000000000000000e+00,5.000000000000000000e+00,4.850049018859863281e+00,4.660111904144287109e+00,4.484491348266601562e+00,4.321626186370849609e+00,4.170176506042480469e+00,4.028982639312744141e+00,3.897036552429199219e+00,3.773458957672119141e+00,3.657477855682373047e+00,3.548413515090942383e+00,3.445665121078491211e+00,3.348699808120727539e+00,3.257043123245239258e+00,3.170269727706909180e+00,3.087999820709228516e+00,3.009891986846923828e+00,2.935638189315795898e+00,2.864959478378295898e+00,2.797604322433471680e+00,2.733343362808227539e+00,2.671968221664428711e+00,2.613289117813110352e+00,2.557131528854370117e+00,2.503336906433105469e+00,2.451758861541748047e+00,2.402263641357421875e+00,2.354727029800415039e+00,2.309035301208496094e+00,2.265083074569702148e+00,2.222772836685180664e+00,2.182014226913452148e+00,2.142723560333251953e+00,2.104822635650634766e+00,2.068239212036132812e+00,2.032906055450439453e+00,1.998759746551513672e+00,1.965741515159606934e+00,1.933796525001525879e+00,1.902872920036315918e+00,1.872923016548156738e+00,1.843901395797729492e+00
5.000000000000000000e+00,5.000000000000000000e+00,5.000000000000000000e+00,5.000000000000000000e+00,5.000000000000000000e+00,5.000000000000000000e+00,5.000000000000000000e+00,5.000000000000000000e+00,5.000000000000000000e+00,5.000000000000000000e+00,5.000000000000000000e+00,5.000000000000000000e+00,5.000000000000000000e+00,5.000000000000000000e+00,5.000000000000000000e+00,5.000000000000000000e+00,5.000000000000000000e+00,5.000000000000000000e+00,5.000000000000000000e+00,5.000000000000000000e+00,5.000000000000000000e+00,5.000000000000000000e+00,5.000000000000000000e+00,5.000000000000000000e+00,5.000000000000000000e+00,4.160230159759521484e+00,5.000000000000000000e+00,4.726664066314697266e+00,5.000000000000000000e+00,5.000000000000000000e+00,5.000000000000000000e+00,5.000000000000000000e+00,5.000000000000000000e+00,5.000000000000000000e+00,5.000000000000000000e+00,5.000000000000000000e+00,5.000000000000000000e+00,5.000000000000000000e+00,5.000000000000000000e+00,4.850186824798583984e+00,4.660239219665527344e+00,4.484608650207519531e+00,4.321735858917236328e+00,4.170278549194335938e+00,4.029077529907226562e+00,3.897125720977783203e+00,3.773542165756225586e+00,3.657555818557739258e+00,3.548486948013305664e+00,3.445734977722167969e+00,3.348765611648559570e+00,3.257105112075805664e+00,3.170328378677368164e+00,3.088055610656738281e+00,3.009945154190063477e+00,2.935688495635986328e+00,2.865007400512695312e+00,2.797649860382080078e+00,2.733386993408203125e+00,2.672010183334350586e+00,2.613328933715820312e+00,2.557169675827026367e+00,2.503373384475708008e+00,2.451794147491455078e+00,2.402297258377075195e+00,2.354759454727172852e+00,2.309066295623779297e+00,2.265113115310668945e+00,2.222801685333251953e+00,2.182042121887207031e+00,2.142750263214111328e+00,2.104848623275756836e+00,2.068264245986938477e+00,2.032930374145507812e+00,1.998783111572265625e+00,1.965764045715332031e+00,1.933818340301513672e+00,1.902894377708435059e+00,1.872943520545959473e+00,1.843921184539794922e+00
5.000000000000000000e+00,5.000000000000000000e+00,5.000000000000000000e+00,5.000000000000000000e+00,5.000000000000000000e+00,5.000000000000000000e+00,5.000000000000000000e+00,5.000000000000000000e+00,5.000000000000000000e+00,5.000000000000000000e+00,5.000000000000000000e+00,5.000000000000000000e+00,5.000000000000000000e+00,5.000000000000000000e+00,5.000000000000000000e+00,5.000000000000000000e+00,5.000000000000000000e+00,5.000000000000000000e+00,5.000000000000000000e+00,5.000000000000000000e+00,5.000000000000000000e+00,5.000000000000000000e+00,5.000000000000000000e+00,5.000000000000000000e+00,5.000000000000000000e+00,4.172042369842529297e+00,5.000000000000000000e+00,4.723056793212890625e+00,5.000000000000000000e+00,5.000000000000000000e+00,5.000000000000000000e+00,5.000000000000000000e+00,5.000000000000000000e+00,5.000000000000000000e+00,5.000000000000000000e+00,5.000000000000000000e+00,5.000000000000000000e+00,5.000000000000000000e+00,5.000000000000000000e+00,4.850324153900146484e+00,4.660366058349609375e+00,4.484726428985595703e+00,4.321844577789306641e+00,4.170380115509033203e+00,4.029172420501708984e+00,3.897214412689208984e+00,3.773625373840332031e+00,3.657634019851684570e+00,3.548560857772827148e+00,3.445804119110107422e+00,3.348831176757812500e+00,3.257167100906372070e+00,3.170387029647827148e+00,3.088111639022827148e+00,3.009998083114624023e+00,2.935738801956176758e+00,2.865055561065673828e+00,2.797695875167846680e+00,2.733430862426757812e+00,2.672051906585693359e+00,2.613368749618530273e+00,2.557208061218261719e+00,2.503410339355468750e+00,2.451829433441162109e+00,2.402331113815307617e+00,2.354791879653930664e+00,2.309097528457641602e+00,2.265143156051635742e+00,2.222830533981323242e+00,2.182070016860961914e+00,2.142777204513549805e+00,2.104874610900878906e+00,2.068289279937744141e+00,2.032954454421997070e+00,1.998806476593017578e+00,1.965786695480346680e+00,1.933840155601501465e+00,1.902915477752685547e+00,1.872964024543762207e+00,1.843941092491149902e+00
4.875704288482666016e+00,4.874494075775146484e+00,4.873284339904785156e+00,4.872075080871582031e+00,4.870866298675537109e+00,4.869658470153808594e+00,4.868451118469238281e+00,4.867244243621826172e+00,4.866037845611572266e+00,4.864832878112792969e+00,4.863627433776855469e+00,4.862423419952392578e+00,4.861219406127929688e+00,4.860016345977783203e+00,4.858813762664794922e+00,4.857611656188964844e+00,4.856410503387451172e+00,4.855209827423095703e+00,4.854009628295898438e+00,4.852809906005859375e+00,4.851611137390136719e+00,4.850412845611572266e+00,4.849215030670166016e+00,4.848017692565917969e+00,4.846820831298828125e+00,4.102906227111816406e+00,4.844429492950439453e+00,4.843234539031982422e+00,4.842040061950683594e+00,4.840846538543701172e+00,4.839653491973876953e+00,4.838460922241210938e+00,4.837268829345703125e+00,4.836077690124511719e+00,4.834887027740478516e+00,4.833696842193603516e+00,4.832507133483886719e+00,4.831317901611328125e+00,4.830129623413085938e+00,4.828941822052001953e+00,4.660492897033691406e+00,4.484844207763671875e+00,4.321954250335693359e+00,4.170482158660888672e+00,4.029267311096191406e+00,3.897303104400634766e+00,3.773708581924438477e+00,3.657712697982788086e+00,3.548634529113769531e+00,3.445873498916625977e+00,3.348896741867065430e+00,3.257229089736938477e+00,3.170446157455444336e+00,3.088167190551757812e+00,3.010051012039184570e+00,2.935789346694946289e+00,2.865103721618652344e+00,2.797741651535034180e+00,2.733474493026733398e+00,2.672093629837036133e+00,2.613408803939819336e+00,2.557246446609497070e+00,2.503446817398071289e+00,2.451864480972290039e+00,2.402364730834960938e+00,2.354824542999267578e+00,2.309128761291503906e+00,2.265173196792602539e+00,2.222859382629394531e+00,2.182097673416137695e+00,2.142804145812988281e+00,2.104900360107421875e+00,2.068314313888549805e+00,2.032978534698486328e+00,1.998829722404479980e+00,1.965809464454650879e+00,1.933861970901489258e+00,1.902936577796936035e+00,1.872984528541564941e+00,1.843960881233215332e+00
3.778564214706420898e+00,3.777837038040161133e+00,3.777110338211059570e+00,3.776384353637695312e+00,3.775658130645751953e+00,3.774932146072387695e+00,3.774206399917602539e+00,3.773481130599975586e+00,3.772755861282348633e+00,3.772031545639038086e+00,3.771306991577148438e+00,3.770582914352416992e+00,3.769858837127685547e+00,3.769135236740112305e+00,3.768412113189697266e+00,3.767688989639282227e+00,3.766966104507446289e+00,3.766243457794189453e+00,3.765521287918090820e+00,3.764799594879150391e+00,3.764077901840209961e+00,3.763356447219848633e+00,3.762635231018066406e+00,3.761914253234863281e+00,3.761193990707397461e+00,3.760473728179931641e+00,3.759753465652465820e+00,3.759033679962158203e+00,3.758314132690429688e+00,3.757595300674438477e+00,3.756876230239868164e+00,3.756157636642456055e+00,3.755439043045043945e+00,3.754720926284790039e+00,3.754003524780273438e+00,3.753285884857177734e+00,3.752568483352661133e+00,3.751851320266723633e+00,3.751134634017944336e+00,3.750418424606323242e+00,3.749702215194702148e+00,3.748986244201660156e+00,3.748270511627197266e+00,3.747555017471313477e+00,3.746840238571166992e+00,3.746125459671020508e+00,3.745410919189453125e+00,3.657790660858154297e+00,3.548707962036132812e+00,3.445942878723144531e+00,3.348962545394897461e+00,3.257291316986083984e+00,3.170504808425903320e+00,3.088222980499267578e+00,3.010103940963745117e+00,2.935839891433715820e+00,2.865151643753051758e+00,2.797787427902221680e+00,2.733518123626708984e+00,2.672135353088378906e+00,2.613448858261108398e+00,2.557284593582153320e+00,2.503483533859252930e+00,2.451899528503417969e+00,2.402398586273193359e+00,2.354856967926025391e+00,2.309159994125366211e+00,2.265202999114990234e+00,2.222888231277465820e+00,2.182125568389892578e+00,2.142830848693847656e+00,2.104926347732543945e+00,2.068339347839355469e+00,2.033002853393554688e+00,1.998853087425231934e+00,1.965831995010375977e+00,1.933883905410766602e+00,1.902957797050476074e+00,1.873005270957946777e+00,1.843980789184570312e+00
3.084486961364746094e+00,3.084002494812011719e+00,3.083518266677856445e+00,3.083034276962280273e+00,3.082550287246704102e+00,3.082066535949707031e+00,3.081582784652709961e+00,3.081099033355712891e+00,3.080615758895874023e+00,3.080132722854614258e+00,3.079649448394775391e+00,3.079166650772094727e+00,3.078683853149414062e+00,3.078201055526733398e+00,3.077718734741210938e+00,3.077236413955688477e+00,3.076754331588745117e+00,3.076272249221801758e+00,3.075790166854858398e+00,3.075308799743652344e+00,3.074827194213867188e+00,3.074345588684082031e+00,3.073864221572875977e+00,3.073383092880249023e+00,3.072902441024780273e+00,3.072421550750732422e+00,3.071940898895263672e+00,3.071460247039794922e+00,3.070979833602905273e+00,3.070499897003173828e+00,3.070019721984863281e+00,3.069539785385131836e+00,3.069060087203979492e+00,3.068580389022827148e+00,3.068101167678833008e+00,3.067621707916259766e+00,3.067142486572265625e+00,3.066663503646850586e+00,3.066184520721435547e+00,3.065706253051757812e+00,3.065227508544921875e+00,3.064749002456665039e+00,3.064270734786987305e+00,3.063792705535888672e+00,3.063314914703369141e+00,3.062836885452270508e+00,3.062359333038330078e+00,3.061881780624389648e+00,3.061404228210449219e+00,3.060927391052246094e+00,3.060450077056884766e+00,3.059973239898681641e+00,3.059496402740478516e+00,3.059019565582275391e+00,3.010157108306884766e+00,2.935890197753906250e+00,2.865199565887451172e+00,2.797833204269409180e+00,2.733561992645263672e+00,2.672177076339721680e+00,2.613488674163818359e+00,2.557322740554809570e+00,2.503520011901855469e+00,2.451934814453125000e+00,2.402432441711425781e+00,2.354889154434204102e+00,2.309191226959228516e+00,2.265233039855957031e+00,2.222917318344116211e+00,2.182153463363647461e+00,2.142857789993286133e+00,2.104952096939086914e+00,2.068364381790161133e+00,2.033026933670043945e+00,1.998876452445983887e+00,1.965854644775390625e+00,1.933905720710754395e+00,1.902978897094726562e+00,1.873025655746459961e+00,1.844000697135925293e+00
2.605827569961547852e+00,2.605481863021850586e+00,2.605136156082153320e+00,2.604790687561035156e+00,2.604445219039916992e+00,2.604099750518798828e+00,2.603754520416259766e+00,2.603409051895141602e+00,2.603064060211181641e+00,2.602719068527221680e+00,2.602374076843261719e+00,2.602029323577880859e+00,2.601684570312500000e+00,2.601339817047119141e+00,2.600995302200317383e+00,2.600650787353515625e+00,2.600306510925292969e+00,2.599961996078491211e+00,2.599617958068847656e+00,2.599273920059204102e+00,2.598929882049560547e+00,2.598585844039916992e+00,2.598242044448852539e+00,2.597898244857788086e+00,2.597554683685302734e+00,2.597211122512817383e+00,2.596867561340332031e+00,2.596524000167846680e+00,2.596180677413940430e+00,2.595837831497192383e+00,2.595494508743286133e+00,2.595151424407958984e+00,2.594808578491210938e+00,2.594465732574462891e+00,2.594123125076293945e+00,2.593780279159545898e+00,2.593437671661376953e+00,2.593095302581787109e+00,2.592752695083618164e+00,2.592410564422607422e+00,2.592068433761596680e+00,2.591726303100585938e+00,2.591384172439575195e+00,2.591042280197143555e+00,2.590700387954711914e+00,2.590358734130859375e+00,2.590017080307006836e+00,2.589675426483154297e+00,2.589333772659301758e+00,2.588992595672607422e+00,2.588651180267333984e+00,2.588310003280639648e+00,2.587968826293945312e+00,2.587627887725830078e+00,2.587286949157714844e+00,2.586946010589599609e+00,2.586605310440063477e+00,2.586264610290527344e+00,2.585923910140991211e+00,2.585583686828613281e+00,2.585243225097656250e+00,2.557360887527465820e+00,2.503556966781616211e+00,2.451970100402832031e+00,2.402466058731079102e+00,2.354921579360961914e+00,2.309222459793090820e+00,2.265263080596923828e+00,2.222946166992187500e+00,2.182181358337402344e+00,2.142884492874145508e+00,2.104978322982788086e+00,2.068389415740966797e+00,2.033051013946533203e+00,1.998899817466735840e+00,1.965877175331115723e+00,1.933927774429321289e+00,1.903000116348266602e+00,1.873046159744262695e+00,1.844020485877990723e+00
2.255770206451416016e+00,2.255511045455932617e+00,2.255252122879028320e+00,2.254993200302124023e+00,2.254734516143798828e+00,2.254475593566894531e+00,2.254216670989990234e+00,2.253957986831665039e+00,2.253699302673339844e+00,2.253440856933593750e+00,2.253182172775268555e+00,2.252923727035522461e+00,2.252665281295776367e+00,2.252406835556030273e+00,2.252148628234863281e+00,2.251890420913696289e+00,2.251632213592529297e+00,2.251374244689941406e+00,2.251116037368774414e+00,2.250858068466186523e+00,2.250600099563598633e+00,2.250342369079589844e+00,2.250084400177001953e+00,2.249826669692993164e+00,2.249568700790405273e+00,2.249310970306396484e+00,2.249053239822387695e+00,2.248795747756958008e+00,2.248538017272949219e+00,2.248280763626098633e+00,2.248023271560668945e+00,2.247766017913818359e+00,2.247508764266967773e+00,2.247251510620117188e+00,2.246994495391845703e+00,2.246737241744995117e+00,2.246480226516723633e+00,2.246223211288452148e+00,2.245966196060180664e+00,2.245709657669067383e+00,2.245452642440795898e+00,2.245195865631103516e+00,2.244939088821411133e+00,2.244682550430297852e+00,2.244426012039184570e+00,2.244169473648071289e+00,2.243913173675537109e+00,2.243656635284423828e+00,2.243400335311889648e+00,2.243144035339355469e+00,2.242887973785400391e+00,2.242631673812866211e+00,2.242375612258911133e+00,2.242119550704956055e+00,2.241863727569580078e+00,2.241607666015625000e+00,2.241351842880249023e+00,2.241096019744873047e+00,2.240840196609497070e+00,2.240584611892700195e+00,2.240329027175903320e+00,2.240073442459106445e+00,2.239817857742309570e+00,2.239562273025512695e+00,2.239306926727294922e+00,2.239051580429077148e+00,2.238796234130859375e+00,2.238541126251220703e+00,2.222975015640258789e+00,2.182209014892578125e+00,2.142911434173583984e+00,2.105004072189331055e+00,2.068414449691772461e+00,2.033075332641601562e+00,1.998923420906066895e+00,1.965899705886840820e+00,1.933949589729309082e+00,1.903021216392517090e+00,1.873066663742065430e+00,1.844040513038635254e+00
1.988624095916748047e+00,1.988422751426696777e+00,1.988221526145935059e+00,1.988020062446594238e+00,1.987818956375122070e+00,1.987617850303649902e+00,1.987416505813598633e+00,1.987215518951416016e+00,1.987014532089233398e+00,1.986813545227050781e+00,1.986612439155578613e+00,1.986411571502685547e+00,1.986210703849792480e+00,1.986009716987609863e+00,1.985808968544006348e+00,1.985608220100402832e+00,1.985407352447509766e+00,1.985206723213195801e+00,1.985006093978881836e+00,1.984805583953857422e+00,1.984604835510253906e+00,1.984404325485229492e+00,1.984203934669494629e+00,1.984003305435180664e+00,1.983802914619445801e+00,1.983602643013000488e+00,1.983402132987976074e+00,1.983201980590820312e+00,1.983001828193664551e+00,1.982801675796508789e+00,1.982601284980773926e+00,1.982401251792907715e+00,1.982201218605041504e+00,1.982000946998596191e+00,1.981801033020019531e+00,1.981601119041442871e+00,1.981401085853576660e+00,1.981201291084289551e+00,1.981001496315002441e+00,1.980801701545715332e+00,1.980601787567138672e+00,1.980402112007141113e+00,1.980202555656433105e+00,1.980002641677856445e+00,1.979803204536437988e+00,1.979603648185729980e+00,1.979404211044311523e+00,1.979204535484313965e+00,1.979005217552185059e+00,1.978805780410766602e+00,1.978606343269348145e+00,1.978407025337219238e+00,1.978207826614379883e+00,1.978008389472961426e+00,1.977809309959411621e+00,1.977610111236572266e+00,1.977411150932312012e+00,1.977211833000183105e+00,1.977012872695922852e+00,1.976813912391662598e+00,1.976614832878112793e+00,1.976415991783142090e+00,1.976217150688171387e+00,1.976018071174621582e+00,1.975819349288940430e+00,1.975620627403259277e+00,1.975422024726867676e+00,1.975223183631896973e+00,1.975024580955505371e+00,1.974826097488403320e+00,1.974627375602722168e+00,1.974428892135620117e+00,1.974230408668518066e+00,1.974031805992126465e+00,1.973833441734313965e+00,1.965922355651855469e+00,1.933971524238586426e+00,1.903042435646057129e+00,1.873087167739868164e+00,1.844060420989990234e+00
1.778053045272827148e+00,1.777891993522644043e+00,1.777731060981750488e+00,1.777570247650146484e+00,1.777409195899963379e+00,1.777248382568359375e+00,1.777087688446044922e+00,1.776926875114440918e+00,1.776766061782836914e+00,1.776605367660522461e+00,1.776444673538208008e+00,1.776283860206604004e+00,1.776123285293579102e+00,1.775962710380554199e+00,1.775802016258239746e+00,1.775641560554504395e+00,1.775480985641479492e+00,1.775320529937744141e+00,1.775159955024719238e+00,1.774999618530273438e+00,1.774839282035827637e+00,1.774678707122802734e+00,1.774518370628356934e+00,1.774358153343200684e+00,1.774197697639465332e+00,1.774037480354309082e+00,1.773877263069152832e+00,1.773717164993286133e+00,1.773556828498840332e+00,1.773396730422973633e+00,1.773236632347106934e+00,1.773076415061950684e+00,1.772916436195373535e+00,1.772756457328796387e+00,1.772596478462219238e+00,1.772436380386352539e+00,1.772276401519775391e+00,1.772116541862487793e+00,1.771956562995910645e+00,1.771796703338623047e+00,1.771636962890625000e+00,1.771476984024047852e+00,1.771317243576049805e+00,1.771157622337341309e+00,1.770997881889343262e+00,1.770838141441345215e+00,1.770678520202636719e+00,1.770518898963928223e+00,1.770359158515930176e+00,1.770199656486511230e+00,1.770040154457092285e+00,1.769880533218383789e+00,1.769721031188964844e+00,1.769561648368835449e+00,1.769402265548706055e+00,1.769242763519287109e+00,1.769083380699157715e+00,1.768924117088317871e+00,1.768764615058898926e+00,1.768605470657348633e+00,1.768446207046508789e+00,1.768286824226379395e+00,1.768127679824829102e+00,1.767968535423278809e+00,1.767809510231018066e+00,1.767650246620178223e+00,1.767491221427917480e+00,1.767332196235656738e+00,1.767173051834106445e+00,1.767014026641845703e+00,1.766855120658874512e+00,1.766696214675903320e+00,1.766537189483642578e+00,1.766378402709960938e+00,1.766219615936279297e+00,1.766060590744018555e+00,1.765901923179626465e+00,1.765743136405944824e+00,1.765584230422973633e+00,1.765425682067871094e+00
1.607805848121643066e+00,1.607674241065979004e+00,1.607542634010314941e+00,1.607411026954650879e+00,1.607279539108276367e+00,1.607148051261901855e+00,1.607016444206237793e+00,1.606884956359863281e+00,1.606753587722778320e+00,1.606621980667114258e+00,1.606490612030029297e+00,1.606359243392944336e+00,1.606227755546569824e+00,1.606096506118774414e+00,1.605965137481689453e+00,1.605833888053894043e+00,1.605702519416809082e+00,1.605571269989013672e+00,1.605440020561218262e+00,1.605308771133422852e+00,1.605177521705627441e+00,1.605046391487121582e+00,1.604915261268615723e+00,1.604784011840820312e+00,1.604653000831604004e+00,1.604521870613098145e+00,1.604390740394592285e+00,1.604259729385375977e+00,1.604128718376159668e+00,1.603997588157653809e+00,1.603866577148437500e+00,1.603735685348510742e+00,1.603604793548583984e+00,1.603473782539367676e+00,1.603342890739440918e+00,1.603211998939514160e+00,1.603080987930297852e+00,1.602950215339660645e+00,1.602819442749023438e+00,1.602688550949096680e+00,1.602557778358459473e+00,1.602427124977111816e+00,1.602296352386474609e+00,1.602165579795837402e+00,1.602034926414489746e+00,1.601904273033142090e+00,1.601773500442504883e+00,1.601642966270446777e+00,1.601512432098388672e+00,1.601381659507751465e+00,1.601251125335693359e+00,1.601120710372924805e+00,1.600990176200866699e+00,1.600859522819519043e+00,1.600729107856750488e+00,1.600598692893981934e+00,1.600468158721923828e+00,1.600337743759155273e+00,1.600207448005676270e+00,1.600077152252197266e+00,1.599946618080139160e+00,1.599816322326660156e+00,1.599686026573181152e+00,1.599555611610412598e+00,1.599425435066223145e+00,1.599295258522033691e+00,1.599164843559265137e+00,1.599034667015075684e+00,1.598904609680175781e+00,1.598774433135986328e+00,1.598644256591796875e+00,1.598514080047607422e+00,1.598384022712707520e+00,1.598253846168518066e+00,1.598123908042907715e+00,1.597993850708007812e+00,1.597863793373107910e+00,1.597733855247497559e+00,1.597603917121887207e+00,1.597473978996276855e+00
1.467311978340148926e+00,1.467202305793762207e+00,1.467092752456665039e+00,1.466983199119567871e+00,1.466873526573181152e+00,1.466763973236083984e+00,1.466654539108276367e+00,1.466544866561889648e+00,1.466435432434082031e+00,1.466325998306274414e+00,1.466216564178466797e+00,1.466107010841369629e+00,1.465997576713562012e+00,1.465888142585754395e+00,1.465778708457946777e+00,1.465669274330139160e+00,1.465559959411621094e+00,1.465450525283813477e+00,1.465341210365295410e+00,1.465231895446777344e+00,1.465122699737548828e+00,1.465013265609741211e+00,1.464904069900512695e+00,1.464794754981994629e+00,1.464685440063476562e+00,1.464576244354248047e+00,1.464467048645019531e+00,1.464357733726501465e+00,1.464248657226562500e+00,1.464139461517333984e+00,1.464030385017395020e+00,1.463921189308166504e+00,1.463812112808227539e+00,1.463703036308288574e+00,1.463593840599060059e+00,1.463484883308410645e+00,1.463375806808471680e+00,1.463266730308532715e+00,1.463157653808593750e+00,1.463048696517944336e+00,1.462939739227294922e+00,1.462830781936645508e+00,1.462721824645996094e+00,1.462612867355346680e+00,1.462503910064697266e+00,1.462395071983337402e+00,1.462286233901977539e+00,1.462177395820617676e+00,1.462068438529968262e+00,1.461959600448608398e+00,1.461850881576538086e+00,1.461741924285888672e+00,1.461633205413818359e+00,1.461524486541748047e+00,1.461415648460388184e+00,1.461306929588317871e+00,1.461198210716247559e+00,1.461089491844177246e+00,1.460980772972106934e+00,1.460872054100036621e+00,1.460763454437255859e+00,1.460654735565185547e+00,1.460546135902404785e+00,1.460437536239624023e+00,1.460328936576843262e+00,1.460220336914062500e+00,1.460111856460571289e+00,1.460003256797790527e+00,1.459894657135009766e+00,1.459786176681518555e+00,1.459677696228027344e+00,1.459569215774536133e+00,1.459460735321044922e+00,1.459352374076843262e+00,1.459243774414062500e+00,1.459135413169860840e+00,1.459027051925659180e+00,1.458918690681457520e+00,1.458810210227966309e+00,1.458701968193054199e+00
1.349398255348205566e+00,1.349305629730224609e+00,1.349212765693664551e+00,1.349120140075683594e+00,1.349027514457702637e+00,1.348934769630432129e+00,1.348842144012451172e+00,1.348749518394470215e+00,1.348657011985778809e+00,1.348564267158508301e+00,1.348471760749816895e+00,1.348379135131835938e+00,1.348286509513854980e+00,1.348194003105163574e+00,1.348101496696472168e+00,1.348008871078491211e+00,1.347916364669799805e+00,1.347823858261108398e+00,1.347731471061706543e+00,1.347638845443725586e+00,1.347546458244323730e+00,1.347454071044921875e+00,1.347361564636230469e+00,1.347269177436828613e+00,1.347176790237426758e+00,1.347084403038024902e+00,1.346991896629333496e+00,1.346899509429931641e+00,1.346807241439819336e+00,1.346714735031127930e+00,1.346622467041015625e+00,1.346530199050903320e+00,1.346437811851501465e+00,1.346345543861389160e+00,1.346253275871276855e+00,1.346161007881164551e+00,1.346068620681762695e+00,1.345976471900939941e+00,1.345884203910827637e+00,1.345791935920715332e+00,1.345699667930603027e+00,1.345607519149780273e+00,1.345515251159667969e+00,1.345423102378845215e+00,1.345330953598022461e+00,1.345238924026489258e+00,1.345146656036376953e+00,1.345054507255554199e+00,1.344962477684020996e+00,1.344870328903198242e+00,1.344778180122375488e+00,1.344686150550842285e+00,1.344594001770019531e+00,1.344501972198486328e+00,1.344410061836242676e+00,1.344318032264709473e+00,1.344225883483886719e+00,1.344133973121643066e+00,1.344041943550109863e+00,1.343949913978576660e+00,1.343858003616333008e+00,1.343766093254089355e+00,1.343674063682556152e+00,1.343582153320312500e+00,1.343490242958068848e+00,1.343398451805114746e+00,1.343306422233581543e+00,1.343214631080627441e+00,1.343122720718383789e+00,1.343030810356140137e+00,1.342939019203186035e+00,1.342847228050231934e+00,1.342755436897277832e+00,1.342663526535034180e+00,1.342571735382080078e+00,1.342480063438415527e+00,1.342388153076171875e+00,1.342296481132507324e+00,1.342204809188842773e+00,1.342113018035888672e+00
1.249026060104370117e+00,1.248946666717529297e+00,1.248867273330688477e+00,1.248787760734558105e+00,1.248708486557006836e+00,1.248629093170166016e+00,1.248549699783325195e+00,1.248470306396484375e+00,1.248390913009643555e+00,1.248311638832092285e+00,1.248232245445251465e+00,1.248152971267700195e+00,1.248073577880859375e+00,1.247994303703308105e+00,1.247915029525756836e+00,1.247835755348205566e+00,1.247756481170654297e+00,1.247677087783813477e+00,1.247597932815551758e+00,1.247518658638000488e+00,1.247439384460449219e+00,1.247360110282897949e+00,1.247280955314636230e+00,1.247201800346374512e+00,1.247122526168823242e+00,1.247043371200561523e+00,1.246964216232299805e+00,1.246884942054748535e+00,1.246805787086486816e+00,1.246726632118225098e+00,1.246647477149963379e+00,1.246568322181701660e+00,1.246489286422729492e+00,1.246410250663757324e+00,1.246330976486206055e+00,1.246251940727233887e+00,1.246172904968261719e+00,1.246093750000000000e+00,1.246014714241027832e+00,1.245935678482055664e+00,1.245856642723083496e+00,1.245777606964111328e+00,1.245698571205139160e+00,1.245619654655456543e+00,1.245540618896484375e+00,1.245461583137512207e+00,1.245382666587829590e+00,1.245303630828857422e+00,1.245224714279174805e+00,1.245145797729492188e+00,1.245066881179809570e+00,1.244987845420837402e+00,1.244908928871154785e+00,1.244830012321472168e+00,1.244751095771789551e+00,1.244672298431396484e+00,1.244593381881713867e+00,1.244514465332031250e+00,1.244435667991638184e+00,1.244356751441955566e+00,1.244277954101562500e+00,1.244199037551879883e+00,1.244120240211486816e+00,1.244041562080383301e+00,1.243962645530700684e+00,1.243883848190307617e+00,1.243805170059204102e+00,1.243726253509521484e+00,1.243647575378417969e+00,1.243568897247314453e+00,1.243490099906921387e+00,1.243411302566528320e+00,1.243332624435424805e+00,1.243253946304321289e+00,1.243175148963928223e+00,1.243096470832824707e+00,1.243017911911010742e+00,1.242939114570617676e+00,1.242860555648803711e+00,1.242781877517700195e+00
1.162552237510681152e+00,1.162483453750610352e+00,1.162414550781250000e+00,1.162345767021179199e+00,1.162276983261108398e+00,1.162208199501037598e+00,1.162139415740966797e+00,1.162070631980895996e+00,1.162001848220825195e+00,1.161933183670043945e+00,1.161864399909973145e+00,1.161795735359191895e+00,1.161726951599121094e+00,1.161658167839050293e+00,1.161589503288269043e+00,1.161520838737487793e+00,1.161452054977416992e+00,1.161383390426635742e+00,1.161314725875854492e+00,1.161246061325073242e+00,1.161177396774291992e+00,1.161108851432800293e+00,1.161040067672729492e+00,1.160971522331237793e+00,1.160902857780456543e+00,1.160834193229675293e+00,1.160765647888183594e+00,1.160696983337402344e+00,1.160628318786621094e+00,1.160559773445129395e+00,1.160491228103637695e+00,1.160422682762145996e+00,1.160354137420654297e+00,1.160285592079162598e+00,1.160217046737670898e+00,1.160148382186889648e+00,1.160079956054687500e+00,1.160011410713195801e+00,1.159942865371704102e+00,1.159874320030212402e+00,1.159805893898010254e+00,1.159737467765808105e+00,1.159668922424316406e+00,1.159600377082824707e+00,1.159531950950622559e+00,1.159463405609130859e+00,1.159394979476928711e+00,1.159326553344726562e+00,1.159258246421813965e+00,1.159189701080322266e+00,1.159121274948120117e+00,1.159052968025207520e+00,1.158984422683715820e+00,1.158916115760803223e+00,1.158847689628601074e+00,1.158779263496398926e+00,1.158710956573486328e+00,1.158642649650573730e+00,1.158574223518371582e+00,1.158505916595458984e+00,1.158437609672546387e+00,1.158369302749633789e+00,1.158300876617431641e+00,1.158232569694519043e+00,1.158164381980895996e+00,1.158095955848693848e+00,1.158027768135070801e+00,1.157959461212158203e+00,1.157891154289245605e+00,1.157822847366333008e+00,1.157754659652709961e+00,1.157686471939086914e+00,1.157618165016174316e+00,1.157549977302551270e+00,1.157481670379638672e+00,1.157413482666015625e+00,1.157345294952392578e+00,1.157277107238769531e+00,1.157208919525146484e+00,1.157140731811523438e+00
1.087276577949523926e+00,1.087216377258300781e+00,1.087156295776367188e+00,1.087095975875854492e+00,1.087035894393920898e+00,1.086975693702697754e+00,1.086915493011474609e+00,1.086855411529541016e+00,1.086795210838317871e+00,1.086735129356384277e+00,1.086674928665161133e+00,1.086614847183227539e+00,1.086554765701293945e+00,1.086494565010070801e+00,1.086434483528137207e+00,1.086374402046203613e+00,1.086314320564270020e+00,1.086254239082336426e+00,1.086194157600402832e+00,1.086134076118469238e+00,1.086073994636535645e+00,1.086013913154602051e+00,1.085953950881958008e+00,1.085893869400024414e+00,1.085833787918090820e+00,1.085773825645446777e+00,1.085713863372802734e+00,1.085653781890869141e+00,1.085593700408935547e+00,1.085533738136291504e+00,1.085473656654357910e+00,1.085413694381713867e+00,1.085353732109069824e+00,1.085293769836425781e+00,1.085233807563781738e+00,1.085173845291137695e+00,1.085113883018493652e+00,1.085053920745849609e+00,1.084993958473205566e+00,1.084934115409851074e+00,1.084874033927917480e+00,1.084814190864562988e+00,1.084754228591918945e+00,1.084694266319274902e+00,1.084634423255920410e+00,1.084574580192565918e+00,1.084514617919921875e+00,1.084454774856567383e+00,1.084394812583923340e+00,1.084334969520568848e+00,1.084275126457214355e+00,1.084215283393859863e+00,1.084155440330505371e+00,1.084095478057861328e+00,1.084035754203796387e+00,1.083975911140441895e+00,1.083916068077087402e+00,1.083856225013732910e+00,1.083796381950378418e+00,1.083736658096313477e+00,1.083676815032958984e+00,1.083616971969604492e+00,1.083557248115539551e+00,1.083497524261474609e+00,1.083437681198120117e+00,1.083377957344055176e+00,1.083318233489990234e+00,1.083258390426635742e+00,1.083198666572570801e+00,1.083138942718505859e+00,1.083079099655151367e+00,1.083019375801086426e+00,1.082959771156311035e+00,1.082900047302246094e+00,1.082840323448181152e+00,1.082780599594116211e+00,1.082720875740051270e+00,1.082661151885986328e+00,1.082601547241210938e+00,1.082541823387145996e+00
1.021156430244445801e+00,1.021103382110595703e+00,1.021050214767456055e+00,1.020997166633605957e+00,1.020944118499755859e+00,1.020891070365905762e+00,1.020838022232055664e+00,1.020784974098205566e+00,1.020731806755065918e+00,1.020678758621215820e+00,1.020625829696655273e+00,1.020572662353515625e+00,1.020519733428955078e+00,1.020466685295104980e+00,1.020413637161254883e+00,1.020360589027404785e+00,1.020307660102844238e+00,1.020254611968994141e+00,1.020201563835144043e+00,1.020148634910583496e+00,1.020095586776733398e+00,1.020042657852172852e+00,1.019989609718322754e+00,1.019936680793762207e+00,1.019883751869201660e+00,1.019830703735351562e+00,1.019777774810791016e+00,1.019724845886230469e+00,1.019671916961669922e+00,1.019618988037109375e+00,1.019566059112548828e+00,1.019513130187988281e+00,1.019460201263427734e+00,1.019407272338867188e+00,1.019354343414306641e+00,1.019301414489746094e+00,1.019248485565185547e+00,1.019195675849914551e+00,1.019142746925354004e+00,1.019089818000793457e+00,1.019037008285522461e+00,1.018984079360961914e+00,1.018931269645690918e+00,1.018878340721130371e+00,1.018825531005859375e+00,1.018772602081298828e+00,1.018719792366027832e+00,1.018666982650756836e+00,1.018614172935485840e+00,1.018561363220214844e+00,1.018508553504943848e+00,1.018455743789672852e+00,1.018402814865112305e+00,1.018350005149841309e+00,1.018297314643859863e+00,1.018244385719299316e+00,1.018191695213317871e+00,1.018138885498046875e+00,1.018086075782775879e+00,1.018033266067504883e+00,1.017980575561523438e+00,1.017927765846252441e+00,1.017874956130981445e+00,1.017822265625000000e+00,1.017769575119018555e+00,1.017716765403747559e+00,1.017664074897766113e+00,1.017611265182495117e+00,1.017558574676513672e+00,1.017505884170532227e+00,1.017453193664550781e+00,1.017400503158569336e+00,1.017347693443298340e+00,1.017295002937316895e+00,1.017242312431335449e+00,1.017189621925354004e+00,1.017136931419372559e+00,1.017084240913391113e+00,1.017031550407409668e+00,1.016978979110717773e+00
9.626172184944152832e-01,9.625700116157531738e-01,9.625228643417358398e-01,9.624757170677185059e-01,9.624285697937011719e-01,9.623813629150390625e-01,9.623341560363769531e-01,9.622870087623596191e-01,9.622398614883422852e-01,9.621927142143249512e-01,9.621456265449523926e-01,9.620984792709350586e-01,9.620513916015625000e-01,9.620041847229003906e-01,9.619570374488830566e-01,9.619099497795104980e-01,9.618628621101379395e-01,9.618157744407653809e-01,9.617686867713928223e-01,9.617214798927307129e-01,9.616744518280029297e-01,9.616273641586303711e-01,9.615802764892578125e-01,9.615332484245300293e-01,9.614861607551574707e-01,9.614391326904296875e-01,9.613919258117675781e-01,9.613448977470397949e-01,9.612978696823120117e-01,9.612508416175842285e-01,9.612038135528564453e-01,9.611567854881286621e-01,9.611097574234008789e-01,9.610626101493835449e-01,9.610155820846557617e-01,9.609686136245727539e-01,9.609215855598449707e-01,9.608746170997619629e-01,9.608275890350341797e-01,9.607806205749511719e-01,9.607335329055786133e-01,9.606865644454956055e-01,9.606395363807678223e-01,9.605925679206848145e-01,9.605455994606018066e-01,9.604986310005187988e-01,9.604516029357910156e-01,9.604046344757080078e-01,9.603576660156250000e-01,9.603107571601867676e-01,9.602637887001037598e-01,9.602168798446655273e-01,9.601699113845825195e-01,9.601228833198547363e-01,9.600759744644165039e-01,9.600290656089782715e-01,9.599821567535400391e-01,9.599352478981018066e-01,9.598883390426635742e-01,9.598414301872253418e-01,9.597944617271423340e-01,9.597475528717041016e-01,9.597006440162658691e-01,9.596537947654724121e-01,9.596068859100341797e-01,9.595600366592407227e-01,9.595130681991577148e-01,9.594662189483642578e-01,9.594193100929260254e-01,9.593724608421325684e-01,9.593256115913391113e-01,9.592787623405456543e-01,9.592319726943969727e-01,9.591850042343139648e-01,9.591381549835205078e-01,9.590913653373718262e-01,9.590445160865783691e-01,9.589977264404296875e-01,9.589508771896362305e-01,9.589040875434875488e-01
9.104257225990295410e-01,9.103835225105285645e-01,9.103413224220275879e-01,9.102991819381713867e-01,9.102569222450256348e-01,9.102147221565246582e-01,9.101725220680236816e-01,9.101303815841674805e-01,9.100882411003112793e-01,9.100460410118103027e-01,9.100039005279541016e-01,9.099616408348083496e-01,9.099195003509521484e-01,9.098773598670959473e-01,9.098352193832397461e-01,9.097930788993835449e-01,9.097509384155273438e-01,9.097088575363159180e-01,9.096665978431701660e-01,9.096245169639587402e-01,9.095823764801025391e-01,9.095402359962463379e-01,9.094981551170349121e-01,9.094560742378234863e-01,9.094138741493225098e-01,9.093717336654663086e-01,9.093296527862548828e-01,9.092875719070434570e-01,9.092454910278320312e-01,9.092034101486206055e-01,9.091613292694091797e-01,9.091191887855529785e-01,9.090771079063415527e-01,9.090350270271301270e-01,9.089929461479187012e-01,9.089509248733520508e-01,9.089088439941406250e-01,9.088668227195739746e-01,9.088246822357177734e-01,9.087826013565063477e-01,9.087405800819396973e-01,9.086985588073730469e-01,9.086565375328063965e-01,9.086145162582397461e-01,9.085723757743835449e-01,9.085303544998168945e-01,9.084883332252502441e-01,9.084463119506835938e-01,9.084043502807617188e-01,9.083623290061950684e-01,9.083203077316284180e-01,9.082782268524169922e-01,9.082362651824951172e-01,9.081942439079284668e-01,9.081522822380065918e-01,9.081103205680847168e-01,9.080682992935180664e-01,9.080263376235961914e-01,9.079843163490295410e-01,9.079423546791076660e-01,9.079003930091857910e-01,9.078584313392639160e-01,9.078164696693420410e-01,9.077745079994201660e-01,9.077325463294982910e-01,9.076905250549316406e-01,9.076485633850097656e-01,9.076066613197326660e-01,9.075646996498107910e-01,9.075227975845336914e-01,9.074808955192565918e-01,9.074388742446899414e-01,9.073969721794128418e-01,9.073550701141357422e-01,9.073131680488586426e-01,9.072712659835815430e-01,9.072293639183044434e-01,9.071874618530273438e-01,9.071454405784606934e-01,9.071035981178283691e-01
8.636026382446289062e-01,8.635647296905517578e-01,8.635266423225402832e-01,8.634887337684631348e-01,8.634507656097412109e-01,8.634127974510192871e-01,8.633748888969421387e-01,8.633369207382202148e-01,8.632989525794982910e-01,8.632609844207763672e-01,8.632230162620544434e-01,8.631851077079772949e-01,8.631471991539001465e-01,8.631092309951782227e-01,8.630713224411010742e-01,8.630334138870239258e-01,8.629953861236572266e-01,8.629574775695800781e-01,8.629196286201477051e-01,8.628817200660705566e-01,8.628438115119934082e-01,8.628059029579162598e-01,8.627679347991943359e-01,8.627300262451171875e-01,8.626921772956848145e-01,8.626542687416076660e-01,8.626164197921752930e-01,8.625785112380981445e-01,8.625406622886657715e-01,8.625026941299438477e-01,8.624648451805114746e-01,8.624269366264343262e-01,8.623890876770019531e-01,8.623512387275695801e-01,8.623133897781372070e-01,8.622755408287048340e-01,8.622376322746276855e-01,8.621997833251953125e-01,8.621619343757629395e-01,8.621240854263305664e-01,8.620862364768981934e-01,8.620484471321105957e-01,8.620105981826782227e-01,8.619726896286010742e-01,8.619349002838134766e-01,8.618970513343811035e-01,8.618592619895935059e-01,8.618214130401611328e-01,8.617836236953735352e-01,8.617457747459411621e-01,8.617079257965087891e-01,8.616701364517211914e-01,8.616323471069335938e-01,8.615945577621459961e-01,8.615567684173583984e-01,8.615189790725708008e-01,8.614811301231384277e-01,8.614433407783508301e-01,8.614056110382080078e-01,8.613678216934204102e-01,8.613300323486328125e-01,8.612923026084899902e-01,8.612545132637023926e-01,8.612166643142700195e-01,8.611789345741271973e-01,8.611412048339843750e-01,8.611034154891967773e-01,8.610656857490539551e-01,8.610279560089111328e-01,8.609901070594787598e-01,8.609523773193359375e-01,8.609146475791931152e-01,8.608769178390502930e-01,8.608392477035522461e-01,8.608015179634094238e-01,8.607637882232666016e-01,8.607259988784790039e-01,8.606882691383361816e-01,8.606505990028381348e-01,8.606128692626953125e-01
8.213601708412170410e-01,8.213258385658264160e-01,8.212915062904357910e-01,8.212571144104003906e-01,8.212228417396545410e-01,8.211885094642639160e-01,8.211541771888732910e-01,8.211197853088378906e-01,8.210854530334472656e-01,8.210511207580566406e-01,8.210167884826660156e-01,8.209825158119201660e-01,8.209481835365295410e-01,8.209139108657836914e-01,8.208795189857482910e-01,8.208452463150024414e-01,8.208109140396118164e-01,8.207766413688659668e-01,8.207423686981201172e-01,8.207080364227294922e-01,8.206737041473388672e-01,8.206394314765930176e-01,8.206051588058471680e-01,8.205708861351013184e-01,8.205366134643554688e-01,8.205023407936096191e-01,8.204680681228637695e-01,8.204337358474731445e-01,8.203994631767272949e-01,8.203651905059814453e-01,8.203309178352355957e-01,8.202967047691345215e-01,8.202624320983886719e-01,8.202281594276428223e-01,8.201938867568969727e-01,8.201596140861511230e-01,8.201254010200500488e-01,8.200911283493041992e-01,8.200569152832031250e-01,8.200227022171020508e-01,8.199884295463562012e-01,8.199541568756103516e-01,8.199199438095092773e-01,8.198857307434082031e-01,8.198515176773071289e-01,8.198173046112060547e-01,8.197830915451049805e-01,8.197487592697143555e-01,8.197146058082580566e-01,8.196803927421569824e-01,8.196461796760559082e-01,8.196119666099548340e-01,8.195778131484985352e-01,8.195436000823974609e-01,8.195093274116516113e-01,8.194751739501953125e-01,8.194409608840942383e-01,8.194068074226379395e-01,8.193725943565368652e-01,8.193384408950805664e-01,8.193042874336242676e-01,8.192700147628784180e-01,8.192358613014221191e-01,8.192017078399658203e-01,8.191675543785095215e-01,8.191334009170532227e-01,8.190992474555969238e-01,8.190650939941406250e-01,8.190308213233947754e-01,8.189967274665832520e-01,8.189625740051269531e-01,8.189284205436706543e-01,8.188942670822143555e-01,8.188601732254028320e-01,8.188259601593017578e-01,8.187918066978454590e-01,8.187577128410339355e-01,8.187235593795776367e-01,8.186894655227661133e-01,8.186553120613098145e-01
7.830575704574584961e-01,7.830263376235961914e-01,7.829951047897338867e-01,7.829639315605163574e-01,7.829326987266540527e-01,7.829014658927917480e-01,7.828702330589294434e-01,7.828390598297119141e-01,7.828078866004943848e-01,7.827766537666320801e-01,7.827454805374145508e-01,7.827143073081970215e-01,7.826830148696899414e-01,7.826518416404724121e-01,7.826206684112548828e-01,7.825894951820373535e-01,7.825583219528198242e-01,7.825271487236022949e-01,7.824959754943847656e-01,7.824647426605224609e-01,7.824335694313049316e-01,7.824023962020874023e-01,7.823712825775146484e-01,7.823401093482971191e-01,7.823089361190795898e-01,7.822777032852172852e-01,7.822465896606445312e-01,7.822154164314270020e-01,7.821843028068542480e-01,7.821531295776367188e-01,7.821220159530639648e-01,7.820908427238464355e-01,7.820596694946289062e-01,7.820284962654113770e-01,7.819973826408386230e-01,7.819662690162658691e-01,7.819351553916931152e-01,7.819040417671203613e-01,7.818729281425476074e-01,7.818416953086853027e-01,7.818105816841125488e-01,7.817794680595397949e-01,7.817483544349670410e-01,7.817172408103942871e-01,7.816861867904663086e-01,7.816550135612487793e-01,7.816238999366760254e-01,7.815927863121032715e-01,7.815616726875305176e-01,7.815306186676025391e-01,7.814995050430297852e-01,7.814684510231018066e-01,7.814372777938842773e-01,7.814061641693115234e-01,7.813751101493835449e-01,7.813439965248107910e-01,7.813129425048828125e-01,7.812818884849548340e-01,7.812508344650268555e-01,7.812196612358093262e-01,7.811886072158813477e-01,7.811575531959533691e-01,7.811264991760253906e-01,7.810954451560974121e-01,7.810643911361694336e-01,7.810333371162414551e-01,7.810022234916687012e-01,7.809711694717407227e-01,7.809401154518127441e-01,7.809090614318847656e-01,7.808780074119567871e-01,7.808469533920288086e-01,7.808158993721008301e-01,7.807848453521728516e-01,7.807537913322448730e-01,7.807227969169616699e-01,7.806917428970336914e-01,7.806607484817504883e-01,7.806296944618225098e-01,7.805986404418945312e-01
7.481681108474731445e-01,7.481396198272705078e-01,7.481111288070678711e-01,7.480825781822204590e-01,7.480540871620178223e-01,7.480255961418151855e-01,7.479971051216125488e-01,7.479686141014099121e-01,7.479401826858520508e-01,7.479116916656494141e-01,7.478831410408020020e-01,7.478546500205993652e-01,7.478262186050415039e-01,7.477977275848388672e-01,7.477692961692810059e-01,7.477408051490783691e-01,7.477123737335205078e-01,7.476838231086730957e-01,7.476553916931152344e-01,7.476269006729125977e-01,7.475984692573547363e-01,7.475700378417968750e-01,7.475416064262390137e-01,7.475130558013916016e-01,7.474846243858337402e-01,7.474561929702758789e-01,7.474277615547180176e-01,7.473993301391601562e-01,7.473708987236022949e-01,7.473424673080444336e-01,7.473139762878417969e-01,7.472855448722839355e-01,7.472571134567260742e-01,7.472286820411682129e-01,7.472002506256103516e-01,7.471718192100524902e-01,7.471434473991394043e-01,7.471149563789367676e-01,7.470865249633789062e-01,7.470580935478210449e-01,7.470297217369079590e-01,7.470012903213500977e-01,7.469729185104370117e-01,7.469444870948791504e-01,7.469160556793212891e-01,7.468876242637634277e-01,7.468592524528503418e-01,7.468308806419372559e-01,7.468024492263793945e-01,7.467740774154663086e-01,7.467456459999084473e-01,7.467172145843505859e-01,7.466888427734375000e-01,7.466604709625244141e-01,7.466320991516113281e-01,7.466037273406982422e-01,7.465753555297851562e-01,7.465469241142272949e-01,7.465185523033142090e-01,7.464901804924011230e-01,7.464618086814880371e-01,7.464334368705749512e-01,7.464050650596618652e-01,7.463767528533935547e-01,7.463483214378356934e-01,7.463199496269226074e-01,7.462916374206542969e-01,7.462632656097412109e-01,7.462348937988281250e-01,7.462065815925598145e-01,7.461781501770019531e-01,7.461498379707336426e-01,7.461214661598205566e-01,7.460931539535522461e-01,7.460647821426391602e-01,7.460364699363708496e-01,7.460081577301025391e-01,7.459797263145446777e-01,7.459514141082763672e-01,7.459231019020080566e-01
7.162550687789916992e-01,7.162289023399353027e-01,7.162027955055236816e-01,7.161766886711120605e-01,7.161505818367004395e-01,7.161244750022888184e-01,7.160983681678771973e-01,7.160722613334655762e-01,7.160460948944091797e-01,7.160199880599975586e-01,7.159938812255859375e-01,7.159677743911743164e-01,7.159417271614074707e-01,7.159156203269958496e-01,7.158895134925842285e-01,7.158634066581726074e-01,7.158372998237609863e-01,7.158111929893493652e-01,7.157851457595825195e-01,7.157590389251708984e-01,7.157329916954040527e-01,7.157068848609924316e-01,7.156807780265808105e-01,7.156546711921691895e-01,7.156286239624023438e-01,7.156025767326354980e-01,7.155764698982238770e-01,7.155504226684570312e-01,7.155243158340454102e-01,7.154982686042785645e-01,7.154721617698669434e-01,7.154461145401000977e-01,7.154200673103332520e-01,7.153940200805664062e-01,7.153679728507995605e-01,7.153418660163879395e-01,7.153158187866210938e-01,7.152897715568542480e-01,7.152637243270874023e-01,7.152376770973205566e-01,7.152116298675537109e-01,7.151856422424316406e-01,7.151595354080200195e-01,7.151334881782531738e-01,7.151074409484863281e-01,7.150814533233642578e-01,7.150554060935974121e-01,7.150293588638305664e-01,7.150033116340637207e-01,7.149772644042968750e-01,7.149512767791748047e-01,7.149252295494079590e-01,7.148992419242858887e-01,7.148731946945190430e-01,7.148472070693969727e-01,7.148211002349853516e-01,7.147951126098632812e-01,7.147691249847412109e-01,7.147430777549743652e-01,7.147170901298522949e-01,7.146911025047302246e-01,7.146651148796081543e-01,7.146390676498413086e-01,7.146130204200744629e-01,7.145870327949523926e-01,7.145610451698303223e-01,7.145350575447082520e-01,7.145090699195861816e-01,7.144830822944641113e-01,7.144570350646972656e-01,7.144310474395751953e-01,7.144051194190979004e-01,7.143791317939758301e-01,7.143531441688537598e-01,7.143271565437316895e-01,7.143011093139648438e-01,7.142751812934875488e-01,7.142491936683654785e-01,7.142232060432434082e-01,7.141972780227661133e-01
6.869530677795410156e-01,6.869290471076965332e-01,6.869050264358520508e-01,6.868810057640075684e-01,6.868570446968078613e-01,6.868330240249633789e-01,6.868089437484741211e-01,6.867849230766296387e-01,6.867609024047851562e-01,6.867369413375854492e-01,6.867129206657409668e-01,6.866888999938964844e-01,6.866648793220520020e-01,6.866408586502075195e-01,6.866168379783630371e-01,6.865928769111633301e-01,6.865688562393188477e-01,6.865448355674743652e-01,6.865208745002746582e-01,6.864968538284301758e-01,6.864728331565856934e-01,6.864488720893859863e-01,6.864248514175415039e-01,6.864008903503417969e-01,6.863768696784973145e-01,6.863529086112976074e-01,6.863288879394531250e-01,6.863049268722534180e-01,6.862809062004089355e-01,6.862569451332092285e-01,6.862329840660095215e-01,6.862090229988098145e-01,6.861850619316101074e-01,6.861610412597656250e-01,6.861370801925659180e-01,6.861131191253662109e-01,6.860891580581665039e-01,6.860651969909667969e-01,6.860412359237670898e-01,6.860172748565673828e-01,6.859932541847229004e-01,6.859692931175231934e-01,6.859453320503234863e-01,6.859213709831237793e-01,6.858974695205688477e-01,6.858735084533691406e-01,6.858495473861694336e-01,6.858255863189697266e-01,6.858016252517700195e-01,6.857776641845703125e-01,6.857537627220153809e-01,6.857298016548156738e-01,6.857058405876159668e-01,6.856818795204162598e-01,6.856579184532165527e-01,6.856340169906616211e-01,6.856101155281066895e-01,6.855861544609069824e-01,6.855622529983520508e-01,6.855382919311523438e-01,6.855143308639526367e-01,6.854904294013977051e-01,6.854665279388427734e-01,6.854425668716430664e-01,6.854186654090881348e-01,6.853947639465332031e-01,6.853708624839782715e-01,6.853469014167785645e-01,6.853229403495788574e-01,6.852990388870239258e-01,6.852751374244689941e-01,6.852512359619140625e-01,6.852273344993591309e-01,6.852033734321594238e-01,6.851794719696044922e-01,6.851556301116943359e-01,6.851317286491394043e-01,6.851078271865844727e-01,6.850839257240295410e-01,6.850600242614746094e-01
6.599544286727905273e-01,6.599322557449340820e-01,6.599100828170776367e-01,6.598879098892211914e-01,6.598656773567199707e-01,6.598435640335083008e-01,6.598213911056518555e-01,6.597992181777954102e-01,6.597770452499389648e-01,6.597549319267272949e-01,6.597327589988708496e-01,6.597105264663696289e-01,6.596884131431579590e-01,6.596662402153015137e-01,6.596440672874450684e-01,6.596219539642333984e-01,6.595997810363769531e-01,6.595776677131652832e-01,6.595554351806640625e-01,6.595333218574523926e-01,6.595111489295959473e-01,6.594890356063842773e-01,6.594669222831726074e-01,6.594447493553161621e-01,6.594225764274597168e-01,6.594004631042480469e-01,6.593782901763916016e-01,6.593561768531799316e-01,6.593340635299682617e-01,6.593119502067565918e-01,6.592897772789001465e-01,6.592676043510437012e-01,6.592454910278320312e-01,6.592233777046203613e-01,6.592012643814086914e-01,6.591791510581970215e-01,6.591570377349853516e-01,6.591349244117736816e-01,6.591127514839172363e-01,6.590906381607055664e-01,6.590685248374938965e-01,6.590464115142822266e-01,6.590242981910705566e-01,6.590021848678588867e-01,6.589800715446472168e-01,6.589579582214355469e-01,6.589358448982238770e-01,6.589137315750122070e-01,6.588916182518005371e-01,6.588695049285888672e-01,6.588474512100219727e-01,6.588252782821655273e-01,6.588031649589538574e-01,6.587811112403869629e-01,6.587589979171752930e-01,6.587369441986083984e-01,6.587148308753967285e-01,6.586927771568298340e-01,6.586706042289733887e-01,6.586485505104064941e-01,6.586264371871948242e-01,6.586043834686279297e-01,6.585822701454162598e-01,6.585602164268493652e-01,6.585381627082824707e-01,6.585159897804260254e-01,6.584939360618591309e-01,6.584718823432922363e-01,6.584497690200805664e-01,6.584277153015136719e-01,6.584056615829467773e-01,6.583836078643798828e-01,6.583614945411682129e-01,6.583394408226013184e-01,6.583173274993896484e-01,6.582952737808227539e-01,6.582732200622558594e-01,6.582511663436889648e-01,6.582290530204772949e-01,6.582069993019104004e-01
6.349977254867553711e-01,6.349771618843078613e-01,6.349565982818603516e-01,6.349360942840576172e-01,6.349155902862548828e-01,6.348950266838073730e-01,6.348745226860046387e-01,6.348540186882019043e-01,6.348335146903991699e-01,6.348129510879516602e-01,6.347924470901489258e-01,6.347718834877014160e-01,6.347513794898986816e-01,6.347308754920959473e-01,6.347103714942932129e-01,6.346898674964904785e-01,6.346693038940429688e-01,6.346487998962402344e-01,6.346282958984375000e-01,6.346078515052795410e-01,6.345873475074768066e-01,6.345668435096740723e-01,6.345463395118713379e-01,6.345257759094238281e-01,6.345052719116210938e-01,6.344848275184631348e-01,6.344643235206604004e-01,6.344438195228576660e-01,6.344233155250549316e-01,6.344028115272521973e-01,6.343823075294494629e-01,6.343618035316467285e-01,6.343413591384887695e-01,6.343208551406860352e-01,6.343004107475280762e-01,6.342799067497253418e-01,6.342594027519226074e-01,6.342388987541198730e-01,6.342184543609619141e-01,6.341979503631591797e-01,6.341775059700012207e-01,6.341570019721984863e-01,6.341365575790405273e-01,6.341159939765930176e-01,6.340955495834350586e-01,6.340751051902770996e-01,6.340546011924743652e-01,6.340341567993164062e-01,6.340137124061584473e-01,6.339932084083557129e-01,6.339727044105529785e-01,6.339522600173950195e-01,6.339318156242370605e-01,6.339113712310791016e-01,6.338909268379211426e-01,6.338704824447631836e-01,6.338499784469604492e-01,6.338295340538024902e-01,6.338090896606445312e-01,6.337885856628417969e-01,6.337681412696838379e-01,6.337476968765258789e-01,6.337272524833679199e-01,6.337068080902099609e-01,6.336863636970520020e-01,6.336659193038940430e-01,6.336454749107360840e-01,6.336250305175781250e-01,6.336045861244201660e-01,6.335841417312622070e-01,6.335636973381042480e-01,6.335432529449462891e-01,6.335228085517883301e-01,6.335023641586303711e-01,6.334819793701171875e-01,6.334615349769592285e-01,6.334410309791564941e-01,6.334206461906433105e-01,6.334002017974853516e-01,6.333798170089721680e-01
