5.000000000000000000e+00,5.000000000000000000e+00,5.000000000000000000e+00,5.000000000000000000e+00,5.000000000000000000e+00,5.000000000000000000e+00,5.000000000000000000e+00,5.000000000000000000e+00,5.000000000000000000e+00,5.000000000000000000e+00,5.000000000000000000e+00,5.000000000000000000e+00,5.000000000000000000e+00,5.000000000000000000e+00,5.000000000000000000e+00,5.000000000000000000e+00,5.000000000000000000e+00,5.000000000000000000e+00,5.000000000000000000e+00,5.000000000000000000e+00,5.000000000000000000e+00,5.000000000000000000e+00,5.000000000000000000e+00,5.000000000000000000e+00,5.000000000000000000e+00,5.000000000000000000e+00,5.000000000000000000e+00,5.000000000000000000e+00,5.000000000000000000e+00,5.000000000000000000e+00,5.000000000000000000e+00,5.000000000000000000e+00,5.000000000000000000e+00,5.000000000000000000e+00,5.000000000000000000e+00,5.000000000000000000e+00,5.000000000000000000e+00,5.000000000000000000e+00,5.000000000000000000e+00,4.860280036926269531e+00,4.669466495513916016e+00,4.493069648742675781e+00,4.329514980316162109e+00,4.177449226379394531e+00,4.035703182220458984e+00,3.903260707855224609e+00,3.779234886169433594e+00,3.662847995758056641e+00,3.553415775299072266e+00,3.450332403182983398e+00,3.353061914443969727e+00,3.261124849319458008e+00,3.174095153808593750e+00,3.091589689254760742e+00,3.013264656066894531e+00,2.938810348510742188e+00,2.867947101593017578e+00,2.800420284271240234e+00,2.736000299453735352e+00,2.674477577209472656e+00,2.615660905838012695e+00,2.559375286102294922e+00,2.505461454391479492e+00,2.453771829605102539e+00,2.404171943664550781e+00,2.356537580490112305e+00,2.310754060745239258e+00,2.266715526580810547e+00,2.224324464797973633e+00,2.183489799499511719e+00,2.144127368927001953e+00,2.106158971786499023e+00,2.069511651992797852e+00,2.034118175506591797e+00,1.999914884567260742e+00,1.966842770576477051e+00,1.934846639633178711e+00,1.903874874114990234e+00,1.873879075050354004e+00,1.844813704490661621e+00
5.000000000000000000e+00,5.000000000000000000e+00,5.000000000000000000e+00,5.000000000000000000e+00,5.000000000000000000e+00,5.000000000000000000e+00,5.000000000000000000e+00,5.000000000000000000e+00,5.000000000000000000e+00,5.000000000000000000e+00,5.000000000000000000e+00,5.000000000000000000e+00,5.000000000000000000e+00,5.000000000000000000e+00,5.000000000000000000e+00,5.000000000000000000e+00,5.000000000000000000e+00,5.000000000000000000e+00,5.000000000000000000e+00,5.000000000000000000e+00,5.000000000000000000e+00,5.000000000000000000e+00,5.000000000000000000e+00,5.000000000000000000e+00,5.000000000000000000e+00,5.000000000000000000e+00,5.000000000000000000e+00,5.000000000000000000e+00,5.000000000000000000e+00,5.000000000000000000e+00,5.000000000000000000e+00,5.000000000000000000e+00,5.000000000000000000e+00,5.000000000000000000e+00,5.000000000000000000e+00,5.000000000000000000e+00,5.000000000000000000e+00,5.000000000000000000e+00,5.000000000000000000e+00,4.860417842864990234e+00,4.669593811035156250e+00,4.493187427520751953e+00,4.329624176025390625e+00,4.177550792694091797e+00,4.035798072814941406e+00,3.903349876403808594e+00,3.779318332672119141e+00,3.662926435470581055e+00,3.553489446640014648e+00,3.450402021408081055e+00,3.353127241134643555e+00,3.261187076568603516e+00,3.174154043197631836e+00,3.091645479202270508e+00,3.013317823410034180e+00,2.938860893249511719e+00,2.867994785308837891e+00,2.800466060638427734e+00,2.736044168472290039e+00,2.674519538879394531e+00,2.615700721740722656e+00,2.559413671493530273e+00,2.505497932434082031e+00,2.453807115554809570e+00,2.404205799102783203e+00,2.356570005416870117e+00,2.310785293579101562e+00,2.266745567321777344e+00,2.224353313446044922e+00,2.183517456054687500e+00,2.144154071807861328e+00,2.106184720993041992e+00,2.069536685943603516e+00,2.034142255783081055e+00,1.999938249588012695e+00,1.966865420341491699e+00,1.934868574142456055e+00,1.903896093368530273e+00,1.873899579048156738e+00,1.844833612442016602e+00
5.000000000000000000e+00,5.000000000000000000e+00,5.000000000000000000e+00,5.000000000000000000e+00,5.000000000000000000e+00,5.000000000000000000e+00,5.000000000000000000e+00,5.000000000000000000e+00,5.000000000000000000e+00,5.000000000000000000e+00,5.000000000000000000e+00,5.000000000000000000e+00,5.000000000000000000e+00,5.000000000000000000e+00,5.000000000000000000e+00,5.000000000000000000e+00,5.000000000000000000e+00,5.000000000000000000e+00,5.000000000000000000e+00,5.000000000000000000e+00,5.000000000000000000e+00,5.000000000000000000e+00,5.000000000000000000e+00,5.000000000000000000e+00,5.000000000000000000e+00,5.000000000000000000e+00,5.000000000000000000e+00,5.000000000000000000e+00,5.000000000000000000e+00,5.000000000000000000e+00,5.000000000000000000e+00,5.000000000000000000e+00,5.000000000000000000e+00,5.000000000000000000e+00,5.000000000000000000e+00,5.000000000000000000e+00,5.000000000000000000e+00,5.000000000000000000e+00,5.000000000000000000e+00,4.860555648803710938e+00,4.669721126556396484e+00,4.493305206298828125e+00,4.329733848571777344e+00,4.177652835845947266e+00,4.035892963409423828e+00,3.903438806533813477e+00,3.779401779174804688e+00,3.663004875183105469e+00,3.553563356399536133e+00,3.450471639633178711e+00,3.353192806243896484e+00,3.261248826980590820e+00,3.174212932586669922e+00,3.091701269149780273e+00,3.013370752334594727e+00,2.938911437988281250e+00,2.868042945861816406e+00,2.800511837005615234e+00,2.736087799072265625e+00,2.674561262130737305e+00,2.615740776062011719e+00,2.559451818466186523e+00,2.505534648895263672e+00,2.453841924667358398e+00,2.404239416122436523e+00,2.356602430343627930e+00,2.310816526412963867e+00,2.266775608062744141e+00,2.224382162094116211e+00,2.183545351028442383e+00,2.144180774688720703e+00,2.106210708618164062e+00,2.069561719894409180e+00,2.034166574478149414e+00,1.999961614608764648e+00,1.966887950897216797e+00,1.934890389442443848e+00,1.903917312622070312e+00,1.873920083045959473e+00,1.844853520393371582e+00
5.000000000000000000e+00,5.000000000000000000e+00,5.000000000000000000e+00,5.000000000000000000e+00,5.000000000000000000e+00,5.000000000000000000e+00,5.000000000000000000e+00,5.000000000000000000e+00,5.000000000000000000e+00,5.000000000000000000e+00,5.000000000000000000e+00,5.000000000000000000e+00,5.000000000000000000e+00,5.000000000000000000e+00,5.000000000000000000e+00,5.000000000000000000e+00,5.000000000000000000e+00,5.000000000000000000e+00,5.000000000000000000e+00,5.000000000000000000e+00,5.000000000000000000e+00,5.000000000000000000e+00,5.000000000000000000e+00,5.000000000000000000e+00,5.000000000000000000e+00,5.000000000000000000e+00,4.729012012481689453e+00,5.000000000000000000e+00,5.000000000000000000e+00,5.000000000000000000e+00,5.000000000000000000e+00,5.000000000000000000e+00,5.000000000000000000e+00,5.000000000000000000e+00,5.000000000000000000e+00,5.000000000000000000e+00,5.000000000000000000e+00,5.000000000000000000e+00,5.000000000000000000e+00,4.860693454742431641e+00,4.669848442077636719e+00,4.493422985076904297e+00,4.329843044281005859e+00,4.177754878997802734e+00,4.035988330841064453e+00,3.903527259826660156e+00,3.779484748840332031e+00,3.663083076477050781e+00,3.553637027740478516e+00,3.450541019439697266e+00,3.353258609771728516e+00,3.261311054229736328e+00,3.174271345138549805e+00,3.091757059097290039e+00,3.013423919677734375e+00,2.938961744308471680e+00,2.868090867996215820e+00,2.800557613372802734e+00,2.736131429672241211e+00,2.674602985382080078e+00,2.615780830383300781e+00,2.559490203857421875e+00,2.505571365356445312e+00,2.453877210617065430e+00,2.404273033142089844e+00,2.356634855270385742e+00,2.310847520828247070e+00,2.266805648803710938e+00,2.224411010742187500e+00,2.183573246002197266e+00,2.144207715988159180e+00,2.106236457824707031e+00,2.069586753845214844e+00,2.034190654754638672e+00,1.999984979629516602e+00,1.966910600662231445e+00,1.934912323951721191e+00,1.903938412666320801e+00,1.873940587043762207e+00,1.844873309135437012e+00
5.000000000000000000e+00,5.000000000000000000e+00,5.000000000000000000e+00,5.000000000000000000e+00,5.000000000000000000e+00,5.000000000000000000e+00,5.000000000000000000e+00,5.000000000000000000e+00,5.000000000000000000e+00,5.000000000000000000e+00,5.000000000000000000e+00,5.000000000000000000e+00,5.000000000000000000e+00,5.000000000000000000e+00,5.000000000000000000e+00,5.000000000000000000e+00,5.000000000000000000e+00,5.000000000000000000e+00,5.000000000000000000e+00,5.000000000000000000e+00,5.000000000000000000e+00,5.000000000000000000e+00,5.000000000000000000e+00,5.000000000000000000e+00,5.000000000000000000e+00,5.000000000000000000e+00,4.667537689208984375e+00,5.000000000000000000e+00,5.000000000000000000e+00,5.000000000000000000e+00,5.000000000000000000e+00,5.000000000000000000e+00,5.000000000000000000e+00,5.000000000000000000e+00,5.000000000000000000e+00,5.000000000000000000e+00,5.000000000000000000e+00,5.000000000000000000e+00,5.000000000000000000e+00,4.860831737518310547e+00,4.669975280761718750e+00,4.493541240692138672e+00,4.329952716827392578e+00,4.177856445312500000e+00,4.036083221435546875e+00,3.903616428375244141e+00,3.779568195343017578e+00,3.663161277770996094e+00,3.553710699081420898e+00,3.450610637664794922e+00,3.353324174880981445e+00,3.261373281478881836e+00,3.174330234527587891e+00,3.091812610626220703e+00,3.013476848602294922e+00,2.939012289047241211e+00,2.868139028549194336e+00,2.800603389739990234e+00,2.736175060272216797e+00,2.674644470214843750e+00,2.615820646286010742e+00,2.559528350830078125e+00,2.505607843399047852e+00,2.453912258148193359e+00,2.404306888580322266e+00,2.356667280197143555e+00,2.310878753662109375e+00,2.266835689544677734e+00,2.224440097808837891e+00,2.183601140975952148e+00,2.144234657287597656e+00,2.106262445449829102e+00,2.069611549377441406e+00,2.034214735031127930e+00,2.000008344650268555e+00,1.966933250427246094e+00,1.934934139251708984e+00,1.903959631919860840e+00,1.873961091041564941e+00,1.844893217086791992e+00
5.000000000000000000e+00,5.000000000000000000e+00,5.000000000000000000e+00,5.000000000000000000e+00,5.000000000000000000e+00,5.000000000000000000e+00,5.000000000000000000e+00,5.000000000000000000e+00,5.000000000000000000e+00,5.000000000000000000e+00,5.000000000000000000e+00,5.000000000000000000e+00,5.000000000000000000e+00,5.000000000000000000e+00,5.000000000000000000e+00,5.000000000000000000e+00,5.000000000000000000e+00,5.000000000000000000e+00,5.000000000000000000e+00,5.000000000000000000e+00,5.000000000000000000e+00,5.000000000000000000e+00,5.000000000000000000e+00,5.000000000000000000e+00,5.000000000000000000e+00,5.000000000000000000e+00,4.684542179107666016e+00,5.000000000000000000e+00,5.000000000000000000e+00,5.000000000000000000e+00,5.000000000000000000e+00,5.000000000000000000e+00,5.000000000000000000e+00,5.000000000000000000e+00,5.000000000000000000e+00,5.000000000000000000e+00,5.000000000000000000e+00,5.000000000000000000e+00,5.000000000000000000e+00,4.860969543457031250e+00,4.670103073120117188e+00,4.493658542633056641e+00,4.330061912536621094e+00,4.177958488464355469e+00,4.036178112030029297e+00,3.903705358505249023e+00,3.779651641845703125e+00,3.663239479064941406e+00,3.553784132003784180e+00,3.450680255889892578e+00,3.353389978408813477e+00,3.261435270309448242e+00,3.174389123916625977e+00,3.091868400573730469e+00,3.013529539108276367e+00,2.939062833786010742e+00,2.868186950683593750e+00,2.800649166107177734e+00,2.736218690872192383e+00,2.674686431884765625e+00,2.615860462188720703e+00,2.559566497802734375e+00,2.505644559860229492e+00,2.453947544097900391e+00,2.404340505599975586e+00,2.356699705123901367e+00,2.310909748077392578e+00,2.266865491867065430e+00,2.224468946456909180e+00,2.183629035949707031e+00,2.144261360168457031e+00,2.106288433074951172e+00,2.069636583328247070e+00,2.034238815307617188e+00,2.000031709671020508e+00,1.966955780982971191e+00,1.934956073760986328e+00,1.903980851173400879e+00,1.873981595039367676e+00,1.844913125038146973e+00
5.000000000000000000e+00,5.000000000000000000e+00,5.000000000000000000e+00,5.000000000000000000e+00,5.000000000000000000e+00,5.000000000000000000e+00,5.000000000000000000e+00,5.000000000000000000e+00,5.000000000000000000e+00,5.000000000000000000e+00,5.000000000000000000e+00,5.000000000000000000e+00,5.000000000000000000e+00,5.000000000000000000e+00,5.000000000000000000e+00,5.000000000000000000e+00,5.000000000000000000e+00,5.000000000000000000e+00,5.000000000000000000e+00,5.000000000000000000e+00,5.000000000000000000e+00,5.000000000000000000e+00,5.000000000000000000e+00,5.000000000000000000e+00,5.000000000000000000e+00,4.738192081451416016e+00,4.767196655273437500e+00,4.767661571502685547e+00,5.000000000000000000e+00,5.000000000000000000e+00,5.000000000000000000e+00,5.000000000000000000e+00,5.000000000000000000e+00,5.000000000000000000e+00,5.000000000000000000e+00,5.000000000000000000e+00,5.000000000000000000e+00,5.000000000000000000e+00,5.000000000000000000e+00,4.861107349395751953e+00,4.670230388641357422e+00,4.493776798248291016e+00,4.330171108245849609e+00,4.178060054779052734e+00,4.036273479461669922e+00,3.903794288635253906e+00,3.779735088348388672e+00,3.663317918777465820e+00,3.553858041763305664e+00,3.450749397277832031e+00,3.353455543518066406e+00,3.261497497558593750e+00,3.174448013305664062e+00,3.091924428939819336e+00,3.013582706451416016e+00,2.939112901687622070e+00,2.868235111236572266e+00,2.800694942474365234e+00,2.736262559890747070e+00,2.674728155136108398e+00,2.615900516510009766e+00,2.559604883193969727e+00,2.505681037902832031e+00,2.453982830047607422e+00,2.404374361038208008e+00,2.356732130050659180e+00,2.310940980911254883e+00,2.266895532608032227e+00,2.224497795104980469e+00,2.183656692504882812e+00,2.144288301467895508e+00,2.106314182281494141e+00,2.069661617279052734e+00,2.034263134002685547e+00,2.000054836273193359e+00,1.966978192329406738e+00,1.934977889060974121e+00,1.904001951217651367e+00,1.874002099037170410e+00,1.844933032989501953e+00
5.000000000000000000e+00,5.000000000000000000e+00,5.000000000000000000e+00,5.000000000000000000e+00,5.000000000000000000e+00,5.000000000000000000e+00,5.000000000000000000e+00,5.000000000000000000e+00,5.000000000000000000e+00,5.000000000000000000e+00,5.000000000000000000e+00,5.000000000000000000e+00,5.000000000000000000e+00,5.000000000000000000e+00,5.000000000000000000e+00,5.000000000000000000e+00,5.000000000000000000e+00,5.000000000000000000e+00,5.000000000000000000e+00,5.000000000000000000e+00,5.000000000000000000e+00,5.000000000000000000e+00,5.000000000000000000e+00,5.000000000000000000e+00,4.691822052001953125e+00,4.679677963256835938e+00,4.686694145202636719e+00,4.709795475006103516e+00,4.751665592193603516e+00,4.796179294586181641e+00,5.000000000000000000e+00,5.000000000000000000e+00,5.000000000000000000e+00,5.000000000000000000e+00,5.000000000000000000e+00,5.000000000000000000e+00,5.000000000000000000e+00,5.000000000000000000e+00,5.000000000000000000e+00,4.861245155334472656e+00,4.670357227325439453e+00,4.493894577026367188e+00,4.330280780792236328e+00,4.178162097930908203e+00,4.036368370056152344e+00,3.903883457183837891e+00,3.779818534851074219e+00,3.663396358489990234e+00,3.553931713104248047e+00,3.450819015502929688e+00,3.353520870208740234e+00,3.261559486389160156e+00,3.174506902694702148e+00,3.091980218887329102e+00,3.013635635375976562e+00,2.939163446426391602e+00,2.868282794952392578e+00,2.800740480422973633e+00,2.736306190490722656e+00,2.674769878387451172e+00,2.615940332412719727e+00,2.559643030166625977e+00,2.505717754364013672e+00,2.454017639160156250e+00,2.404408216476440430e+00,2.356764554977416992e+00,2.310972213745117188e+00,2.266925573348999023e+00,2.224526643753051758e+00,2.183684587478637695e+00,2.144315242767333984e+00,2.106340169906616211e+00,2.069686651229858398e+00,2.034287214279174805e+00,2.000078201293945312e+00,1.967000722885131836e+00,1.934999585151672363e+00,1.904023170471191406e+00,1.874022603034973145e+00,1.844952940940856934e+00
5.000000000000000000e+00,5.000000000000000000e+00,5.000000000000000000e+00,5.000000000000000000e+00,5.000000000000000000e+00,5.000000000000000000e+00,5.000000000000000000e+00,5.000000000000000000e+00,5.000000000000000000e+00,5.000000000000000000e+00,5.000000000000000000e+00,5.000000000000000000e+00,5.000000000000000000e+00,5.000000000000000000e+00,5.000000000000000000e+00,5.000000000000000000e+00,5.000000000000000000e+00,5.000000000000000000e+00,5.000000000000000000e+00,5.000000000000000000e+00,5.000000000000000000e+00,5.000000000000000000e+00,5.000000000000000000e+00,5.000000000000000000e+00,4.720447063446044922e+00,4.652518272399902344e+00,4.660484790802001953e+00,4.679654598236083984e+00,4.750686645507812500e+00,4.806004047393798828e+00,5.000000000000000000e+00,5.000000000000000000e+00,5.000000000000000000e+00,5.000000000000000000e+00,5.000000000000000000e+00,5.000000000000000000e+00,5.000000000000000000e+00,5.000000000000000000e+00,5.000000000000000000e+00,4.861383438110351562e+00,4.670484542846679688e+00,4.494012355804443359e+00,4.330389976501464844e+00,4.178264141082763672e+00,4.036463737487792969e+00,3.903971910476684570e+00,3.779901981353759766e+00,3.663474798202514648e+00,3.554005622863769531e+00,3.450888633728027344e+00,3.353586673736572266e+00,3.261621475219726562e+00,3.174565792083740234e+00,3.092036008834838867e+00,3.013688802719116211e+00,2.939213752746582031e+00,2.868330955505371094e+00,2.800786495208740234e+00,2.736349821090698242e+00,2.674811840057373047e+00,2.615980386734008789e+00,2.559681415557861328e+00,2.505754470825195312e+00,2.454052925109863281e+00,2.404441833496093750e+00,2.356796979904174805e+00,2.311003446578979492e+00,2.266955614089965820e+00,2.224555492401123047e+00,2.183712482452392578e+00,2.144341945648193359e+00,2.106366157531738281e+00,2.069711685180664062e+00,2.034311294555664062e+00,2.000101566314697266e+00,1.967023372650146484e+00,1.935021400451660156e+00,1.904044151306152344e+00,1.874043107032775879e+00,1.844972729682922363e+00
5.000000000000000000e+00,5.000000000000000000e+00,5.000000000000000000e+00,5.000000000000000000e+00,5.000000000000000000e+00,5.000000000000000000e+00,5.000000000000000000e+00,5.000000000000000000e+00,5.000000000000000000e+00,5.000000000000000000e+00,5.000000000000000000e+00,5.000000000000000000e+00,5.000000000000000000e+00,5.000000000000000000e+00,5.000000000000000000e+00,5.000000000000000000e+00,5.000000000000000000e+00,5.000000000000000000e+00,5.000000000000000000e+00,5.000000000000000000e+00,5.000000000000000000e+00,5.000000000000000000e+00,5.000000000000000000e+00,5.000000000000000000e+00,4.729245185852050781e+00,4.661988258361816406e+00,4.649384975433349609e+00,4.682340145111083984e+00,4.786722660064697266e+00,4.805283546447753906e+00,5.000000000000000000e+00,5.000000000000000000e+00,5.000000000000000000e+00,5.000000000000000000e+00,5.000000000000000000e+00,5.000000000000000000e+00,5.000000000000000000e+00,5.000000000000000000e+00,5.000000000000000000e+00,4.861521244049072266e+00,4.670611858367919922e+00,4.494130134582519531e+00,4.330499649047851562e+00,4.178365707397460938e+00,4.036558628082275391e+00,3.904061079025268555e+00,3.779984951019287109e+00,3.663553237915039062e+00,3.554079294204711914e+00,3.450958013534545898e+00,3.353652238845825195e+00,3.261683464050292969e+00,3.174624204635620117e+00,3.092091798782348633e+00,3.013741731643676758e+00,2.939264297485351562e+00,2.868378877639770508e+00,2.800832271575927734e+00,2.736393451690673828e+00,2.674853324890136719e+00,2.616020441055297852e+00,2.559719562530517578e+00,2.505791187286376953e+00,2.454087972640991211e+00,2.404475450515747070e+00,2.356829404830932617e+00,2.311034679412841797e+00,2.266985654830932617e+00,2.224584341049194336e+00,2.183740139007568359e+00,2.144368648529052734e+00,2.106391906738281250e+00,2.069736480712890625e+00,2.034335613250732422e+00,2.000124931335449219e+00,1.967046022415161133e+00,1.935043215751647949e+00,1.904065251350402832e+00,1.874063491821289062e+00,1.844992637634277344e+00
5.000000000000000000e+00,5.000000000000000000e+00,5.000000000000000000e+00,5.000000000000000000e+00,5.000000000000000000e+00,5.000000000000000000e+00,5.000000000000000000e+00,5.000000000000000000e+00,5.000000000000000000e+00,5.000000000000000000e+00,5.000000000000000000e+00,5.000000000000000000e+00,5.000000000000000000e+00,5.000000000000000000e+00,5.000000000000000000e+00,5.000000000000000000e+00,5.000000000000000000e+00,5.000000000000000000e+00,5.000000000000000000e+00,5.000000000000000000e+00,5.000000000000000000e+00,5.000000000000000000e+00,5.000000000000000000e+00,5.000000000000000000e+00,4.740534305572509766e+00,4.649930953979492188e+00,4.651745796203613281e+00,4.682945251464843750e+00,5.000000000000000000e+00,4.812686443328857422e+00,5.000000000000000000e+00,5.000000000000000000e+00,5.000000000000000000e+00,5.000000000000000000e+00,5.000000000000000000e+00,5.000000000000000000e+00,5.000000000000000000e+00,5.000000000000000000e+00,5.000000000000000000e+00,4.861659049987792969e+00,4.670739173889160156e+00,4.494247913360595703e+00,4.330609321594238281e+00,4.178467750549316406e+00,4.036653518676757812e+00,3.904150009155273438e+00,3.780068397521972656e+00,3.663631200790405273e+00,3.554152965545654297e+00,3.451027631759643555e+00,3.353718042373657227e+00,3.261745691299438477e+00,3.174683094024658203e+00,3.092147350311279297e+00,3.013794660568237305e+00,2.939314842224121094e+00,2.868427038192749023e+00,2.800878047943115234e+00,2.736437320709228516e+00,2.674895048141479492e+00,2.616060256958007812e+00,2.559757947921752930e+00,2.505827903747558594e+00,2.454123258590698242e+00,2.404509305953979492e+00,2.356861829757690430e+00,2.311065673828125000e+00,2.267015695571899414e+00,2.224613428115844727e+00,2.183768033981323242e+00,2.144395589828491211e+00,2.106417894363403320e+00,2.069761514663696289e+00,2.034359693527221680e+00,2.000148296356201172e+00,1.967068552970886230e+00,1.935065150260925293e+00,1.904086470603942871e+00,1.874083995819091797e+00,1.845012307167053223e+00
5.000000000000000000e+00,5.000000000000000000e+00,5.000000000000000000e+00,5.000000000000000000e+00,5.000000000000000000e+00,5.000000000000000000e+00,5.000000000000000000e+00,5.000000000000000000e+00,5.000000000000000000e+00,5.000000000000000000e+00,5.000000000000000000e+00,5.000000000000000000e+00,5.000000000000000000e+00,5.000000000000000000e+00,5.000000000000000000e+00,5.000000000000000000e+00,5.000000000000000000e+00,5.000000000000000000e+00,5.000000000000000000e+00,5.000000000000000000e+00,5.000000000000000000e+00,5.000000000000000000e+00,5.000000000000000000e+00,5.000000000000000000e+00,4.771657466888427734e+00,4.658641815185546875e+00,4.650793552398681641e+00,4.685708999633789062e+00,4.790301799774169922e+00,4.784052371978759766e+00,5.000000000000000000e+00,5.000000000000000000e+00,5.000000000000000000e+00,5.000000000000000000e+00,5.000000000000000000e+00,5.000000000000000000e+00,5.000000000000000000e+00,5.000000000000000000e+00,5.000000000000000000e+00,4.861796855926513672e+00,4.670866489410400391e+00,4.494366168975830078e+00,4.330718517303466797e+00,4.178569793701171875e+00,4.036748886108398438e+00,3.904239177703857422e+00,3.780152082443237305e+00,3.663709640502929688e+00,3.554226398468017578e+00,3.451097249984741211e+00,3.353783607482910156e+00,3.261807918548583984e+00,3.174741983413696289e+00,3.092203378677368164e+00,3.013847589492797852e+00,2.939364910125732422e+00,2.868475198745727539e+00,2.800923824310302734e+00,2.736480951309204102e+00,2.674937009811401367e+00,2.616100072860717773e+00,2.559795856475830078e+00,2.505864381790161133e+00,2.454158544540405273e+00,2.404543161392211914e+00,2.356894254684448242e+00,2.311096906661987305e+00,2.267045497894287109e+00,2.224642276763916016e+00,2.183795928955078125e+00,2.144422531127929688e+00,2.106443643569946289e+00,2.069786548614501953e+00,2.034383773803710938e+00,2.000171661376953125e+00,1.967091202735900879e+00,1.935086965560913086e+00,1.904107689857482910e+00,1.874104499816894531e+00,1.845032215118408203e+00
5.000000000000000000e+00,5.000000000000000000e+00,5.000000000000000000e+00,5.000000000000000000e+00,5.000000000000000000e+00,5.000000000000000000e+00,5.000000000000000000e+00,5.000000000000000000e+00,5.000000000000000000e+00,5.000000000000000000e+00,5.000000000000000000e+00,5.000000000000000000e+00,5.000000000000000000e+00,5.000000000000000000e+00,5.000000000000000000e+00,5.000000000000000000e+00,5.000000000000000000e+00,5.000000000000000000e+00,5.000000000000000000e+00,5.000000000000000000e+00,5.000000000000000000e+00,5.000000000000000000e+00,5.000000000000000000e+00,5.000000000000000000e+00,4.752853393554687500e+00,4.647953033447265625e+00,4.672262191772460938e+00,4.693889617919921875e+00,4.762300014495849609e+00,4.763185501098632812e+00,5.000000000000000000e+00,5.000000000000000000e+00,5.000000000000000000e+00,5.000000000000000000e+00,5.000000000000000000e+00,5.000000000000000000e+00,5.000000000000000000e+00,5.000000000000000000e+00,5.000000000000000000e+00,4.861934661865234375e+00,4.670993804931640625e+00,4.494483947753906250e+00,4.330828189849853516e+00,4.178671360015869141e+00,4.036844253540039062e+00,3.904328107833862305e+00,3.780235528945922852e+00,3.663787841796875000e+00,3.554300308227539062e+00,3.451166391372680664e+00,3.353849411010742188e+00,3.261869907379150391e+00,3.174800872802734375e+00,3.092259168624877930e+00,3.013900756835937500e+00,2.939415454864501953e+00,2.868522882461547852e+00,2.800969600677490234e+00,2.736524820327758789e+00,2.674978733062744141e+00,2.616140127182006836e+00,2.559834241867065430e+00,2.505900859832763672e+00,2.454193592071533203e+00,2.404576778411865234e+00,2.356926679611206055e+00,2.311128139495849609e+00,2.267075538635253906e+00,2.224670886993408203e+00,2.183823585510253906e+00,2.144449234008789062e+00,2.106469631195068359e+00,2.069811582565307617e+00,2.034408092498779297e+00,2.000195026397705078e+00,1.967113733291625977e+00,1.935108900070190430e+00,1.904128789901733398e+00,1.874125003814697266e+00,1.845052123069763184e+00
5.000000000000000000e+00,5.000000000000000000e+00,5.000000000000000000e+00,5.000000000000000000e+00,5.000000000000000000e+00,5.000000000000000000e+00,5.000000000000000000e+00,5.000000000000000000e+00,5.000000000000000000e+00,5.000000000000000000e+00,5.000000000000000000e+00,5.000000000000000000e+00,5.000000000000000000e+00,5.000000000000000000e+00,5.000000000000000000e+00,5.000000000000000000e+00,5.000000000000000000e+00,5.000000000000000000e+00,5.000000000000000000e+00,5.000000000000000000e+00,5.000000000000000000e+00,5.000000000000000000e+00,5.000000000000000000e+00,5.000000000000000000e+00,4.733658313751220703e+00,4.592882633209228516e+00,4.624007225036621094e+00,4.710579872131347656e+00,4.751398563385009766e+00,5.000000000000000000e+00,4.721792221069335938e+00,5.000000000000000000e+00,5.000000000000000000e+00,5.000000000000000000e+00,5.000000000000000000e+00,5.000000000000000000e+00,5.000000000000000000e+00,5.000000000000000000e+00,5.000000000000000000e+00,4.862072944641113281e+00,4.671121120452880859e+00,4.494601726531982422e+00,4.330937385559082031e+00,4.178773403167724609e+00,4.036939144134521484e+00,3.904417276382446289e+00,3.780318975448608398e+00,3.663866281509399414e+00,3.554373979568481445e+00,3.451236009597778320e+00,3.353914737701416016e+00,3.261931896209716797e+00,3.174859762191772461e+00,3.092314958572387695e+00,3.013953685760498047e+00,2.939465999603271484e+00,2.868571043014526367e+00,2.801015377044677734e+00,2.736568450927734375e+00,2.675020456314086914e+00,2.616180181503295898e+00,2.559872388839721680e+00,2.505937576293945312e+00,2.454228639602661133e+00,2.404610633850097656e+00,2.356959104537963867e+00,2.311159372329711914e+00,2.267105579376220703e+00,2.224699974060058594e+00,2.183851480484008789e+00,2.144475936889648438e+00,2.106495618820190430e+00,2.069836616516113281e+00,2.034432172775268555e+00,2.000218391418457031e+00,1.967136383056640625e+00,1.935130715370178223e+00,1.904150009155273438e+00,1.874145507812500000e+00,1.845072031021118164e+00
5.000000000000000000e+00,5.000000000000000000e+00,5.000000000000000000e+00,5.000000000000000000e+00,5.000000000000000000e+00,5.000000000000000000e+00,5.000000000000000000e+00,5.000000000000000000e+00,5.000000000000000000e+00,5.000000000000000000e+00,5.000000000000000000e+00,5.000000000000000000e+00,5.000000000000000000e+00,5.000000000000000000e+00,5.000000000000000000e+00,5.000000000000000000e+00,5.000000000000000000e+00,5.000000000000000000e+00,5.000000000000000000e+00,5.000000000000000000e+00,5.000000000000000000e+00,5.000000000000000000e+00,5.000000000000000000e+00,5.000000000000000000e+00,4.733766078948974609e+00,4.570316791534423828e+00,4.594972610473632812e+00,4.711172580718994141e+00,4.760106563568115234e+00,5.000000000000000000e+00,4.670626640319824219e+00,5.000000000000000000e+00,5.000000000000000000e+00,5.000000000000000000e+00,5.000000000000000000e+00,5.000000000000000000e+00,5.000000000000000000e+00,5.000000000000000000e+00,5.000000000000000000e+00,4.862210750579833984e+00,4.671248912811279297e+00,4.494719505310058594e+00,4.331047058105468750e+00,4.178875446319580078e+00,4.037034034729003906e+00,3.904505729675292969e+00,3.780402421951293945e+00,3.663944721221923828e+00,3.554447889328002930e+00,3.451305627822875977e+00,3.353980541229248047e+00,3.261993885040283203e+00,3.174918413162231445e+00,3.092370986938476562e+00,3.014006853103637695e+00,2.939516305923461914e+00,2.868618965148925781e+00,2.801061153411865234e+00,2.736612081527709961e+00,2.675062417984008789e+00,2.616219997406005859e+00,2.559910774230957031e+00,2.505974292755126953e+00,2.454263687133789062e+00,2.404644250869750977e+00,2.356991529464721680e+00,2.311190605163574219e+00,2.267135620117187500e+00,2.224728822708129883e+00,2.183879375457763672e+00,2.144502878189086914e+00,2.106521368026733398e+00,2.069861650466918945e+00,2.034456253051757812e+00,2.000241756439208984e+00,1.967159032821655273e+00,1.935152649879455566e+00,1.904171228408813477e+00,1.874166011810302734e+00,1.845091819763183594e+00
5.000000000000000000e+00,5.000000000000000000e+00,5.000000000000000000e+00,5.000000000000000000e+00,5.000000000000000000e+00,5.000000000000000000e+00,5.000000000000000000e+00,5.000000000000000000e+00,5.000000000000000000e+00,5.000000000000000000e+00,5.000000000000000000e+00,5.000000000000000000e+00,5.000000000000000000e+00,5.000000000000000000e+00,5.000000000000000000e+00,5.000000000000000000e+00,5.000000000000000000e+00,5.000000000000000000e+00,5.000000000000000000e+00,5.000000000000000000e+00,5.000000000000000000e+00,5.000000000000000000e+00,5.000000000000000000e+00,5.000000000000000000e+00,5.000000000000000000e+00,4.547016143798828125e+00,4.565485000610351562e+00,4.730905055999755859e+00,4.784855842590332031e+00,5.000000000000000000e+00,5.000000000000000000e+00,5.000000000000000000e+00,5.000000000000000000e+00,5.000000000000000000e+00,5.000000000000000000e+00,5.000000000000000000e+00,5.000000000000000000e+00,5.000000000000000000e+00,5.000000000000000000e+00,4.862348556518554688e+00,4.671375751495361328e+00,4.494837760925292969e+00,4.331156253814697266e+00,4.178977489471435547e+00,4.037129402160644531e+00,3.904594898223876953e+00,3.780485391616821289e+00,3.664023160934448242e+00,3.554521560668945312e+00,3.451375246047973633e+00,3.354046106338500977e+00,3.262056112289428711e+00,3.174977302551269531e+00,3.092426538467407227e+00,3.014059782028198242e+00,2.939566850662231445e+00,2.868667125701904297e+00,2.801106929779052734e+00,2.736655712127685547e+00,2.675103902816772461e+00,2.616260051727294922e+00,2.559949159622192383e+00,2.506011009216308594e+00,2.454298973083496094e+00,2.404678106307983398e+00,2.357023715972900391e+00,2.311221599578857422e+00,2.267165660858154297e+00,2.224757671356201172e+00,2.183907270431518555e+00,2.144529819488525391e+00,2.106547355651855469e+00,2.069886684417724609e+00,2.034480571746826172e+00,2.000265121459960938e+00,1.967181563377380371e+00,1.935174465179443359e+00,1.904192328453063965e+00,1.874186515808105469e+00,1.845111727714538574e+00
5.000000000000000000e+00,5.000000000000000000e+00,5.000000000000000000e+00,5.000000000000000000e+00,5.000000000000000000e+00,5.000000000000000000e+00,5.000000000000000000e+00,5.000000000000000000e+00,5.000000000000000000e+00,5.000000000000000000e+00,5.000000000000000000e+00,5.000000000000000000e+00,5.000000000000000000e+00,5.000000000000000000e+00,5.000000000000000000e+00,5.000000000000000000e+00,5.000000000000000000e+00,5.000000000000000000e+00,5.000000000000000000e+00,5.000000000000000000e+00,5.000000000000000000e+00,5.000000000000000000e+00,5.000000000000000000e+00,5.000000000000000000e+00,5.000000000000000000e+00,4.539877414703369141e+00,4.530821323394775391e+00,4.748993873596191406e+00,5.000000000000000000e+00,5.000000000000000000e+00,5.000000000000000000e+00,5.000000000000000000e+00,5.000000000000000000e+00,5.000000000000000000e+00,5.000000000000000000e+00,5.000000000000000000e+00,5.000000000000000000e+00,5.000000000000000000e+00,5.000000000000000000e+00,4.862486839294433594e+00,4.671503543853759766e+00,4.494955539703369141e+00,4.331265926361083984e+00,4.179079532623291016e+00,4.037224292755126953e+00,3.904683828353881836e+00,3.780568838119506836e+00,3.664101123809814453e+00,3.554594993591308594e+00,3.451444864273071289e+00,3.354111909866333008e+00,3.262118339538574219e+00,3.175036191940307617e+00,3.092482328414916992e+00,3.014112710952758789e+00,2.939617395401000977e+00,2.868715286254882812e+00,2.801152706146240234e+00,2.736699581146240234e+00,2.675145626068115234e+00,2.616299867630004883e+00,2.559987306594848633e+00,2.506047725677490234e+00,2.454334259033203125e+00,2.404711723327636719e+00,2.357056379318237305e+00,2.311252832412719727e+00,2.267195463180541992e+00,2.224786520004272461e+00,2.183935165405273438e+00,2.144556522369384766e+00,2.106573104858398438e+00,2.069911718368530273e+00,2.034504652023315430e+00,2.000288486480712891e+00,1.967204213142395020e+00,1.935196399688720703e+00,1.904213547706604004e+00,1.874207019805908203e+00,1.845131635665893555e+00
5.000000000000000000e+00,5.000000000000000000e+00,5.000000000000000000e+00,5.000000000000000000e+00,5.000000000000000000e+00,5.000000000000000000e+00,5.000000000000000000e+00,5.000000000000000000e+00,5.000000000000000000e+00,5.000000000000000000e+00,5.000000000000000000e+00,5.000000000000000000e+00,5.000000000000000000e+00,5.000000000000000000e+00,5.000000000000000000e+00,5.000000000000000000e+00,5.000000000000000000e+00,5.000000000000000000e+00,5.000000000000000000e+00,5.000000000000000000e+00,5.000000000000000000e+00,5.000000000000000000e+00,5.000000000000000000e+00,5.000000000000000000e+00,5.000000000000000000e+00,5.000000000000000000e+00,4.530320644378662109e+00,4.765260696411132812e+00,5.000000000000000000e+00,5.000000000000000000e+00,5.000000000000000000e+00,5.000000000000000000e+00,5.000000000000000000e+00,5.000000000000000000e+00,5.000000000000000000e+00,5.000000000000000000e+00,5.000000000000000000e+00,5.000000000000000000e+00,5.000000000000000000e+00,4.862624168395996094e+00,4.671630859375000000e+00,4.495073318481445312e+00,4.331375122070312500e+00,4.179181575775146484e+00,4.037319660186767578e+00,3.904772996902465820e+00,3.780652523040771484e+00,3.664179563522338867e+00,3.554668903350830078e+00,3.451514005661010742e+00,3.354177713394165039e+00,3.262180328369140625e+00,3.175095081329345703e+00,3.092538118362426758e+00,3.014165878295898438e+00,2.939667463302612305e+00,2.868763208389282227e+00,2.801198720932006836e+00,2.736743211746215820e+00,2.675187587738037109e+00,2.616339921951293945e+00,2.560025453567504883e+00,2.506084442138671875e+00,2.454369306564331055e+00,2.404745578765869141e+00,2.357088804244995117e+00,2.311283826828002930e+00,2.267225503921508789e+00,2.224815368652343750e+00,2.183963060379028320e+00,2.144583463668823242e+00,2.106599092483520508e+00,2.069936752319335938e+00,2.034528732299804688e+00,2.000311613082885742e+00,1.967226743698120117e+00,1.935218214988708496e+00,1.904234766960144043e+00,1.874227643013000488e+00,1.845151543617248535e+00
5.000000000000000000e+00,5.000000000000000000e+00,5.000000000000000000e+00,5.000000000000000000e+00,5.000000000000000000e+00,5.000000000000000000e+00,5.000000000000000000e+00,5.000000000000000000e+00,5.000000000000000000e+00,5.000000000000000000e+00,5.000000000000000000e+00,5.000000000000000000e+00,5.000000000000000000e+00,5.000000000000000000e+00,5.000000000000000000e+00,5.000000000000000000e+00,5.000000000000000000e+00,5.000000000000000000e+00,5.000000000000000000e+00,5.000000000000000000e+00,5.000000000000000000e+00,5.000000000000000000e+00,5.000000000000000000e+00,5.000000000000000000e+00,5.000000000000000000e+00,4.577075004577636719e+00,4.563002586364746094e+00,4.815240383148193359e+00,5.000000000000000000e+00,5.000000000000000000e+00,5.000000000000000000e+00,5.000000000000000000e+00,5.000000000000000000e+00,5.000000000000000000e+00,5.000000000000000000e+00,5.000000000000000000e+00,5.000000000000000000e+00,5.000000000000000000e+00,5.000000000000000000e+00,4.862762451171875000e+00,4.671757221221923828e+00,4.495191574096679688e+00,4.331484794616699219e+00,4.179283142089843750e+00,4.037414550781250000e+00,3.904861927032470703e+00,3.780735969543457031e+00,3.664258003234863281e+00,3.554742574691772461e+00,3.451583623886108398e+00,3.354243040084838867e+00,3.262242555618286133e+00,3.175153970718383789e+00,3.092594146728515625e+00,3.014218807220458984e+00,2.939718008041381836e+00,2.868811130523681641e+00,2.801244497299194336e+00,2.736787080764770508e+00,2.675229310989379883e+00,2.616379737854003906e+00,2.560063600540161133e+00,2.506120920181274414e+00,2.454404354095458984e+00,2.404779434204101562e+00,2.357121229171752930e+00,2.311315059661865234e+00,2.267255544662475586e+00,2.224844217300415039e+00,2.183990716934204102e+00,2.144610404968261719e+00,2.106625080108642578e+00,2.069961786270141602e+00,2.034552812576293945e+00,2.000334978103637695e+00,1.967249155044555664e+00,1.935240149497985840e+00,1.904255867004394531e+00,1.874248147010803223e+00,1.845171451568603516e+00
5.000000000000000000e+00,5.000000000000000000e+00,5.000000000000000000e+00,5.000000000000000000e+00,5.000000000000000000e+00,5.000000000000000000e+00,5.000000000000000000e+00,5.000000000000000000e+00,5.000000000000000000e+00,5.000000000000000000e+00,5.000000000000000000e+00,5.000000000000000000e+00,5.000000000000000000e+00,5.000000000000000000e+00,5.000000000000000000e+00,5.000000000000000000e+00,5.000000000000000000e+00,5.000000000000000000e+00,5.000000000000000000e+00,5.000000000000000000e+00,5.000000000000000000e+00,5.000000000000000000e+00,5.000000000000000000e+00,5.000000000000000000e+00,5.000000000000000000e+00,4.598971843719482422e+00,4.566307544708251953e+00,4.937430858612060547e+00,5.000000000000000000e+00,5.000000000000000000e+00,5.000000000000000000e+00,5.000000000000000000e+00,5.000000000000000000e+00,5.000000000000000000e+00,5.000000000000000000e+00,5.000000000000000000e+00,5.000000000000000000e+00,5.000000000000000000e+00,5.000000000000000000e+00,4.862900733947753906e+00,4.671885013580322266e+00,4.495309352874755859e+00,4.331594467163085938e+00,4.179385185241699219e+00,4.037509918212890625e+00,3.904950618743896484e+00,3.780819416046142578e+00,3.664336442947387695e+00,3.554816484451293945e+00,3.451653242111206055e+00,3.354308843612670898e+00,3.262304544448852539e+00,3.175212860107421875e+00,3.092649936676025391e+00,3.014271974563598633e+00,2.939768552780151367e+00,2.868859052658081055e+00,2.801290035247802734e+00,2.736830711364746094e+00,2.675271034240722656e+00,2.616419792175292969e+00,2.560101985931396484e+00,2.506157636642456055e+00,2.454439640045166016e+00,2.404813051223754883e+00,2.357153654098510742e+00,2.311346292495727539e+00,2.267285585403442383e+00,2.224873304367065430e+00,2.184018611907958984e+00,2.144637107849121094e+00,2.106651067733764648e+00,2.069986820220947266e+00,2.034577131271362305e+00,2.000358343124389648e+00,1.967271804809570312e+00,1.935261845588684082e+00,1.904276847839355469e+00,1.874268651008605957e+00,1.845191359519958496e+00
5.000000000000000000e+00,5.000000000000000000e+00,5.000000000000000000e+00,5.000000000000000000e+00,5.000000000000000000e+00,5.000000000000000000e+00,5.000000000000000000e+00,5.000000000000000000e+00,5.000000000000000000e+00,5.000000000000000000e+00,5.000000000000000000e+00,5.000000000000000000e+00,5.000000000000000000e+00,5.000000000000000000e+00,5.000000000000000000e+00,5.000000000000000000e+00,5.000000000000000000e+00,5.000000000000000000e+00,5.000000000000000000e+00,5.000000000000000000e+00,5.000000000000000000e+00,5.000000000000000000e+00,5.000000000000000000e+00,5.000000000000000000e+00,5.000000000000000000e+00,5.000000000000000000e+00,4.562711238861083984e+00,5.000000000000000000e+00,5.000000000000000000e+00,5.000000000000000000e+00,5.000000000000000000e+00,5.000000000000000000e+00,5.000000000000000000e+00,5.000000000000000000e+00,5.000000000000000000e+00,5.000000000000000000e+00,5.000000000000000000e+00,5.000000000000000000e+00,5.000000000000000000e+00,4.863039016723632812e+00,4.672012805938720703e+00,4.495427131652832031e+00,4.331703662872314453e+00,4.179487228393554688e+00,4.037604808807373047e+00,3.905039787292480469e+00,3.780902385711669922e+00,3.664414882659912109e+00,3.554890394210815430e+00,3.451722860336303711e+00,3.354374408721923828e+00,3.262366533279418945e+00,3.175271272659301758e+00,3.092705726623535156e+00,3.014324903488159180e+00,2.939819097518920898e+00,2.868907213211059570e+00,2.801335811614990234e+00,2.736874341964721680e+00,2.675312995910644531e+00,2.616459846496582031e+00,2.560140132904052734e+00,2.506194353103637695e+00,2.454474687576293945e+00,2.404846668243408203e+00,2.357185840606689453e+00,2.311377525329589844e+00,2.267315626144409180e+00,2.224902153015136719e+00,2.184046506881713867e+00,2.144664049148559570e+00,2.106676816940307617e+00,2.070011854171752930e+00,2.034601211547851562e+00,2.000381946563720703e+00,1.967294335365295410e+00,1.935283660888671875e+00,1.904298067092895508e+00,1.874288916587829590e+00,1.845211148262023926e+00
5.000000000000000000e+00,5.000000000000000000e+00,5.000000000000000000e+00,5.000000000000000000e+00,5.000000000000000000e+00,5.000000000000000000e+00,5.000000000000000000e+00,5.000000000000000000e+00,5.000000000000000000e+00,5.000000000000000000e+00,5.000000000000000000e+00,5.000000000000000000e+00,5.000000000000000000e+00,5.000000000000000000e+00,5.000000000000000000e+00,5.000000000000000000e+00,5.000000000000000000e+00,5.000000000000000000e+00,5.000000000000000000e+00,5.000000000000000000e+00,5.000000000000000000e+00,5.000000000000000000e+00,5.000000000000000000e+00,5.000000000000000000e+00,5.000000000000000000e+00,5.000000000000000000e+00,4.565663814544677734e+00,5.000000000000000000e+00,5.000000000000000000e+00,5.000000000000000000e+00,5.000000000000000000e+00,5.000000000000000000e+00,5.000000000000000000e+00,5.000000000000000000e+00,5.000000000000000000e+00,5.000000000000000000e+00,5.000000000000000000e+00,5.000000000000000000e+00,5.000000000000000000e+00,4.863177299499511719e+00,4.672140598297119141e+00,4.495544910430908203e+00,4.331812858581542969e+00,4.179588794708251953e+00,4.037700176239013672e+00,3.905128717422485352e+00,3.780986070632934570e+00,3.664492845535278320e+00,3.554964065551757812e+00,3.451792478561401367e+00,3.354440212249755859e+00,3.262428760528564453e+00,3.175330162048339844e+00,3.092761278152465820e+00,3.014378070831298828e+00,2.939869403839111328e+00,2.868955373764038086e+00,2.801381826400756836e+00,2.736917972564697266e+00,2.675354480743408203e+00,2.616499662399291992e+00,2.560178518295288086e+00,2.506230831146240234e+00,2.454509973526000977e+00,2.404880523681640625e+00,2.357218503952026367e+00,2.311408519744873047e+00,2.267345666885375977e+00,2.224931001663208008e+00,2.184074163436889648e+00,2.144690752029418945e+00,2.106702566146850586e+00,2.070036649703979492e+00,2.034625530242919922e+00,2.000405311584472656e+00,1.967316985130310059e+00,1.935305595397949219e+00,1.904319286346435547e+00,1.874309420585632324e+00,1.845230937004089355e+00
5.000000000000000000e+00,5.000000000000000000e+00,5.000000000000000000e+00,5.000000000000000000e+00,5.000000000000000000e+00,5.000000000000000000e+00,5.000000000000000000e+00,5.000000000000000000e+00,5.000000000000000000e+00,5.000000000000000000e+00,5.000000000000000000e+00,5.000000000000000000e+00,5.000000000000000000e+00,5.000000000000000000e+00,5.000000000000000000e+00,5.000000000000000000e+00,5.000000000000000000e+00,5.000000000000000000e+00,5.000000000000000000e+00,5.000000000000000000e+00,5.000000000000000000e+00,5.000000000000000000e+00,5.000000000000000000e+00,5.000000000000000000e+00,5.000000000000000000e+00,5.000000000000000000e+00,4.582443714141845703e+00,5.000000000000000000e+00,5.000000000000000000e+00,5.000000000000000000e+00,5.000000000000000000e+00,5.000000000000000000e+00,5.000000000000000000e+00,5.000000000000000000e+00,5.000000000000000000e+00,5.000000000000000000e+00,5.000000000000000000e+00,5.000000000000000000e+00,5.000000000000000000e+00,4.863316059112548828e+00,4.672268390655517578e+00,4.495663166046142578e+00,4.331923007965087891e+00,4.179690361022949219e+00,4.037795066833496094e+00,3.905217885971069336e+00,3.781069517135620117e+00,3.664571285247802734e+00,3.555037498474121094e+00,3.451862096786499023e+00,3.354506015777587891e+00,3.262490987777709961e+00,3.175389051437377930e+00,3.092817306518554688e+00,3.014430761337280273e+00,2.939919948577880859e+00,2.869003295898437500e+00,2.801427602767944336e+00,2.736961841583251953e+00,2.675396203994750977e+00,2.616539478302001953e+00,2.560216665267944336e+00,2.506267547607421875e+00,2.454545021057128906e+00,2.404914379119873047e+00,2.357250928878784180e+00,2.311439752578735352e+00,2.267375469207763672e+00,2.224959850311279297e+00,2.184102058410644531e+00,2.144717693328857422e+00,2.106728553771972656e+00,2.070061683654785156e+00,2.034649610519409180e+00,2.000428438186645508e+00,1.967339634895324707e+00,1.935327410697937012e+00,1.904340386390686035e+00,1.874329924583435059e+00,1.845250725746154785e+00
4.874125957489013672e+00,4.872928619384765625e+00,4.871731758117675781e+00,4.870535373687744141e+00,4.869339466094970703e+00,4.868144512176513672e+00,4.866949558258056641e+00,4.865755558013916016e+00,4.864562034606933594e+00,4.863369464874267578e+00,4.862176895141601562e+00,4.860985279083251953e+00,4.859794139862060547e+00,4.858603477478027344e+00,4.857413291931152344e+00,4.856224536895751953e+00,4.855035305023193359e+00,4.853847026824951172e+00,4.852659702301025391e+00,4.851472854614257812e+00,4.850286006927490234e+00,4.849100112915039062e+00,4.847914695739746094e+00,4.846730232238769531e+00,4.845546245574951172e+00,4.844362258911132812e+00,4.480997085571289062e+00,4.841997146606445312e+00,4.840815067291259766e+00,4.839633941650390625e+00,4.838453292846679688e+00,4.837273120880126953e+00,4.836093425750732422e+00,4.834914684295654297e+00,4.833736419677734375e+00,4.832558631896972656e+00,4.831380844116210938e+00,4.830204486846923828e+00,4.829028606414794922e+00,4.827852725982666016e+00,4.672395706176757812e+00,4.495781421661376953e+00,4.332032203674316406e+00,4.179792404174804688e+00,4.037890434265136719e+00,3.905306816101074219e+00,3.781152963638305664e+00,3.664649724960327148e+00,3.555111408233642578e+00,3.451931238174438477e+00,3.354571580886840820e+00,3.262553215026855469e+00,3.175447940826416016e+00,3.092873096466064453e+00,3.014483928680419922e+00,2.939970254898071289e+00,2.869051218032836914e+00,2.801473379135131836e+00,2.737005472183227539e+00,2.675438165664672852e+00,2.616579532623291016e+00,2.560254812240600586e+00,2.506304025650024414e+00,2.454580307006835938e+00,2.404947996139526367e+00,2.357283353805541992e+00,2.311470985412597656e+00,2.267405509948730469e+00,2.224988698959350586e+00,2.184129953384399414e+00,2.144744634628295898e+00,2.106754541397094727e+00,2.070086717605590820e+00,2.034673690795898438e+00,2.000451803207397461e+00,1.967362165451049805e+00,1.935349345207214355e+00,1.904361605644226074e+00,1.874350547790527344e+00,1.845270633697509766e+00
3.777138471603393555e+00,3.776419162750244141e+00,3.775700092315673828e+00,3.774981737136840820e+00,3.774263381958007812e+00,3.773545265197753906e+00,3.772827148437500000e+00,3.772109508514404297e+00,3.771392345428466797e+00,3.770675182342529297e+00,3.769958257675170898e+00,3.769242286682128906e+00,3.768526077270507812e+00,3.767810106277465820e+00,3.767094373703002930e+00,3.766378879547119141e+00,3.765663623809814453e+00,3.764948844909667969e+00,3.764234542846679688e+00,3.763520002365112305e+00,3.762805938720703125e+00,3.762092113494873047e+00,3.761378765106201172e+00,3.760665416717529297e+00,3.759952306747436523e+00,3.759240150451660156e+00,3.758527517318725586e+00,3.757815361022949219e+00,3.757103443145751953e+00,3.756391763687133789e+00,3.755680322647094727e+00,3.754969358444213867e+00,3.754258394241333008e+00,3.753548145294189453e+00,3.752837896347045898e+00,3.752127885818481445e+00,3.751418113708496094e+00,3.750708580017089844e+00,3.749999284744262695e+00,3.749290466308593750e+00,3.748582124710083008e+00,3.747873544692993164e+00,3.747165441513061523e+00,3.746457576751708984e+00,3.745749950408935547e+00,3.745042562484741211e+00,3.744335412979125977e+00,3.664728403091430664e+00,3.555185317993164062e+00,3.452000856399536133e+00,3.354637145996093750e+00,3.262615203857421875e+00,3.175506830215454102e+00,3.092928886413574219e+00,3.014537096023559570e+00,2.940020799636840820e+00,2.869099378585815430e+00,2.801519155502319336e+00,2.737049341201782227e+00,2.675479888916015625e+00,2.616619586944580078e+00,2.560293197631835938e+00,2.506340742111206055e+00,2.454615354537963867e+00,2.404981851577758789e+00,2.357315778732299805e+00,2.311502218246459961e+00,2.267435550689697266e+00,2.225017547607421875e+00,2.184157609939575195e+00,2.144771337509155273e+00,2.106780529022216797e+00,2.070111751556396484e+00,2.034697771072387695e+00,2.000475168228149414e+00,1.967384815216064453e+00,1.935371160507202148e+00,1.904382824897766113e+00,1.874371051788330078e+00,1.845290541648864746e+00
3.083218574523925781e+00,3.082739114761352539e+00,3.082260370254516602e+00,3.081781387329101562e+00,3.081302642822265625e+00,3.080823898315429688e+00,3.080345392227172852e+00,3.079866886138916016e+00,3.079388618469238281e+00,3.078910589218139648e+00,3.078433036804199219e+00,3.077955245971679688e+00,3.077477455139160156e+00,3.076999902725219727e+00,3.076522588729858398e+00,3.076045513153076172e+00,3.075568437576293945e+00,3.075091838836669922e+00,3.074615001678466797e+00,3.074138402938842773e+00,3.073661804199218750e+00,3.073185443878173828e+00,3.072709321975708008e+00,3.072233438491821289e+00,3.071757793426513672e+00,3.071282148361206055e+00,3.070806503295898438e+00,3.070331096649169922e+00,3.069855690002441406e+00,3.069380521774291992e+00,3.068905591964721680e+00,3.068430662155151367e+00,3.067956447601318359e+00,3.067481756210327148e+00,3.067007303237915039e+00,3.066533088684082031e+00,3.066059112548828125e+00,3.065585136413574219e+00,3.065111398696899414e+00,3.064637899398803711e+00,3.064164400100708008e+00,3.063691139221191406e+00,3.063217878341674805e+00,3.062744855880737305e+00,3.062271833419799805e+00,3.061799049377441406e+00,3.061326742172241211e+00,3.060854196548461914e+00,3.060381889343261719e+00,3.059909582138061523e+00,3.059437513351440430e+00,3.058965682983398438e+00,3.058493852615356445e+00,3.058022260665893555e+00,3.014590024948120117e+00,2.940071105957031250e+00,2.869147300720214844e+00,2.801564931869506836e+00,2.737092733383178711e+00,2.675521850585937500e+00,2.616659641265869141e+00,2.560331583023071289e+00,2.506377458572387695e+00,2.454650640487670898e+00,2.405015468597412109e+00,2.357348203659057617e+00,2.311533451080322266e+00,2.267465591430664062e+00,2.225046634674072266e+00,2.184185504913330078e+00,2.144798278808593750e+00,2.106806278228759766e+00,2.070136785507202148e+00,2.034722089767456055e+00,2.000498533248901367e+00,1.967407464981079102e+00,1.935393095016479492e+00,1.904403924942016602e+00,1.874391555786132812e+00,1.845310449600219727e+00
2.604694843292236328e+00,2.604352951049804688e+00,2.604011058807373047e+00,2.603669166564941406e+00,2.603327274322509766e+00,2.602985620498657227e+00,2.602643966674804688e+00,2.602302551269531250e+00,2.601961135864257812e+00,2.601619958877563477e+00,2.601278781890869141e+00,2.600937604904174805e+00,2.600596427917480469e+00,2.600255489349365234e+00,2.599914550781250000e+00,2.599573850631713867e+00,2.599233150482177734e+00,2.598892450332641602e+00,2.598551988601684570e+00,2.598211526870727539e+00,2.597871303558349609e+00,2.597530841827392578e+00,2.597190618515014648e+00,2.596850872039794922e+00,2.596510887145996094e+00,2.596170902252197266e+00,2.595831155776977539e+00,2.595491409301757812e+00,2.595151662826538086e+00,2.594812154769897461e+00,2.594472646713256836e+00,2.594133377075195312e+00,2.593794107437133789e+00,2.593455076217651367e+00,2.593115806579589844e+00,2.592776775360107422e+00,2.592437982559204102e+00,2.592098951339721680e+00,2.591760396957397461e+00,2.591421842575073242e+00,2.591083288192749023e+00,2.590744733810424805e+00,2.590406179428100586e+00,2.590067863464355469e+00,2.589729785919189453e+00,2.589391708374023438e+00,2.589053630828857422e+00,2.588715791702270508e+00,2.588377952575683594e+00,2.588040113449096680e+00,2.587702512741088867e+00,2.587364673614501953e+00,2.587027311325073242e+00,2.586689949035644531e+00,2.586352586746215820e+00,2.586015462875366211e+00,2.585678339004516602e+00,2.585341215133666992e+00,2.585004091262817383e+00,2.584667205810546875e+00,2.584330558776855469e+00,2.560369729995727539e+00,2.506414175033569336e+00,2.454685688018798828e+00,2.405049324035644531e+00,2.357380628585815430e+00,2.311564683914184570e+00,2.267495632171630859e+00,2.225075483322143555e+00,2.184213399887084961e+00,2.144824981689453125e+00,2.106832265853881836e+00,2.070161581039428711e+00,2.034746170043945312e+00,2.000521898269653320e+00,1.967429995536804199e+00,1.935414910316467285e+00,1.904425144195556641e+00,1.874412059783935547e+00,1.845330357551574707e+00
2.254801273345947266e+00,2.254542827606201172e+00,2.254284381866455078e+00,2.254025936126708984e+00,2.253767728805541992e+00,2.253509521484375000e+00,2.253251314163208008e+00,2.252993106842041016e+00,2.252735137939453125e+00,2.252476930618286133e+00,2.252218961715698242e+00,2.251961231231689453e+00,2.251703262329101562e+00,2.251445531845092773e+00,2.251187801361083984e+00,2.250930070877075195e+00,2.250672340393066406e+00,2.250414848327636719e+00,2.250157356262207031e+00,2.249900102615356445e+00,2.249642610549926758e+00,2.249385356903076172e+00,2.249128103256225586e+00,2.248871326446533203e+00,2.248616218566894531e+00,2.248361349105834961e+00,2.248106479644775391e+00,2.247851610183715820e+00,2.247596979141235352e+00,2.247342348098754883e+00,2.247087717056274414e+00,2.246833086013793945e+00,2.246578693389892578e+00,2.246324062347412109e+00,2.246069669723510742e+00,2.245815277099609375e+00,2.245561122894287109e+00,2.245306968688964844e+00,2.245052814483642578e+00,2.244798660278320312e+00,2.244544506072998047e+00,2.244290590286254883e+00,2.244036674499511719e+00,2.243782758712768555e+00,2.243528842926025391e+00,2.243275165557861328e+00,2.243021488189697266e+00,2.242767810821533203e+00,2.242514133453369141e+00,2.242260694503784180e+00,2.242007255554199219e+00,2.241753816604614258e+00,2.241500377655029297e+00,2.241247177124023438e+00,2.240993976593017578e+00,2.240740537643432617e+00,2.240487575531005859e+00,2.240234375000000000e+00,2.239981412887573242e+00,2.239728450775146484e+00,2.239475488662719727e+00,2.239222764968872070e+00,2.238970041275024414e+00,2.238717079162597656e+00,2.238464355468750000e+00,2.238211870193481445e+00,2.237959146499633789e+00,2.237706899642944336e+00,2.225104331970214844e+00,2.184241294860839844e+00,2.144851922988891602e+00,2.106858015060424805e+00,2.070186614990234375e+00,2.034770250320434570e+00,2.000545263290405273e+00,1.967452645301818848e+00,1.935436844825744629e+00,1.904446363449096680e+00,1.874432563781738281e+00,1.845350265502929688e+00
1.987874984741210938e+00,1.987674117088317871e+00,1.987473249435424805e+00,1.987272500991821289e+00,1.987071633338928223e+00,1.986871004104614258e+00,1.986670255661010742e+00,1.986469388008117676e+00,1.986268758773803711e+00,1.986068248748779297e+00,1.985867738723754883e+00,1.985667228698730469e+00,1.985466718673706055e+00,1.985266327857971191e+00,1.985066056251525879e+00,1.984865427017211914e+00,1.984665155410766602e+00,1.984464883804321289e+00,1.984264731407165527e+00,1.984064579010009766e+00,1.983864426612854004e+00,1.983664393424987793e+00,1.983464121818542480e+00,1.983264088630676270e+00,1.983064055442810059e+00,1.982864141464233398e+00,1.982664346694946289e+00,1.982464432716369629e+00,1.982264637947082520e+00,1.982064723968505859e+00,1.981864929199218750e+00,1.981665253639221191e+00,1.981465697288513184e+00,1.981266021728515625e+00,1.981066465377807617e+00,1.980867028236389160e+00,1.980667471885681152e+00,1.980467796325683594e+00,1.980268478393554688e+00,1.980069041252136230e+00,1.979869723320007324e+00,1.979670524597167969e+00,1.979471206665039062e+00,1.979272007942199707e+00,1.979072690010070801e+00,1.978873491287231445e+00,1.978674411773681641e+00,1.978475451469421387e+00,1.978276371955871582e+00,1.978077411651611328e+00,1.977878451347351074e+00,1.977679371833801270e+00,1.977480530738830566e+00,1.977281808853149414e+00,1.977082967758178711e+00,1.976884245872497559e+00,1.976685643196105957e+00,1.976486921310424805e+00,1.976288318634033203e+00,1.976089596748352051e+00,1.975890994071960449e+00,1.975692629814147949e+00,1.975494146347045898e+00,1.975295782089233398e+00,1.975097417831420898e+00,1.974899053573608398e+00,1.974700570106506348e+00,1.974502325057983398e+00,1.974304080009460449e+00,1.974105954170227051e+00,1.973907828330993652e+00,1.973709702491760254e+00,1.973511695861816406e+00,1.973313450813293457e+00,1.973115444183349609e+00,1.967475295066833496e+00,1.935458660125732422e+00,1.904467463493347168e+00,1.874453067779541016e+00,1.845370173454284668e+00
1.777457356452941895e+00,1.777296781539916992e+00,1.777136206626892090e+00,1.776975631713867188e+00,1.776815176010131836e+00,1.776654601097106934e+00,1.776494026184082031e+00,1.776333570480346680e+00,1.776173114776611328e+00,1.776012778282165527e+00,1.775852322578430176e+00,1.775692105293273926e+00,1.775531768798828125e+00,1.775371313095092773e+00,1.775211095809936523e+00,1.775050878524780273e+00,1.774890661239624023e+00,1.774730563163757324e+00,1.774570345878601074e+00,1.774410247802734375e+00,1.774250030517578125e+00,1.774090051651000977e+00,1.773929953575134277e+00,1.773769974708557129e+00,1.773610115051269531e+00,1.773450136184692383e+00,1.773290276527404785e+00,1.773130416870117188e+00,1.772970318794250488e+00,1.772810578346252441e+00,1.772650837898254395e+00,1.772490978240966797e+00,1.772331357002258301e+00,1.772171616554260254e+00,1.772011995315551758e+00,1.771852135658264160e+00,1.771692514419555664e+00,1.771532893180847168e+00,1.771373391151428223e+00,1.771213889122009277e+00,1.771054387092590332e+00,1.770894885063171387e+00,1.770735263824462891e+00,1.770575881004333496e+00,1.770416498184204102e+00,1.770257115364074707e+00,1.770097851753234863e+00,1.769938588142395020e+00,1.769779324531555176e+00,1.769620060920715332e+00,1.769460678100585938e+00,1.769301533699035645e+00,1.769142389297485352e+00,1.768983244895935059e+00,1.768824100494384766e+00,1.768665075302124023e+00,1.768506050109863281e+00,1.768346905708312988e+00,1.768187880516052246e+00,1.768028974533081055e+00,1.767870068550109863e+00,1.767711162567138672e+00,1.767552256584167480e+00,1.767393469810485840e+00,1.767234444618225098e+00,1.767075657844543457e+00,1.766916990280151367e+00,1.766758203506469727e+00,1.766599535942077637e+00,1.766440868377685547e+00,1.766282200813293457e+00,1.766123652458190918e+00,1.765964865684509277e+00,1.765806317329406738e+00,1.765647768974304199e+00,1.765489339828491211e+00,1.765330910682678223e+00,1.765172481536865234e+00,1.765014052391052246e+00,1.764855504035949707e+00
1.607321619987487793e+00,1.607190251350402832e+00,1.607058882713317871e+00,1.606927633285522461e+00,1.606796145439147949e+00,1.606664896011352539e+00,1.606533765792846680e+00,1.606402516365051270e+00,1.606271266937255859e+00,1.606140136718750000e+00,1.606009006500244141e+00,1.605877757072448730e+00,1.605746626853942871e+00,1.605615496635437012e+00,1.605484485626220703e+00,1.605353474617004395e+00,1.605222344398498535e+00,1.605091452598571777e+00,1.604960322380065918e+00,1.604829311370849609e+00,1.604698419570922852e+00,1.604567527770996094e+00,1.604436516761779785e+00,1.604305744171142578e+00,1.604174852371215820e+00,1.604044079780578613e+00,1.603913068771362305e+00,1.603782296180725098e+00,1.603651523590087891e+00,1.603520750999450684e+00,1.603390097618103027e+00,1.603259325027465820e+00,1.603128671646118164e+00,1.602997899055480957e+00,1.602867245674133301e+00,1.602736592292785645e+00,1.602606058120727539e+00,1.602475523948669434e+00,1.602344870567321777e+00,1.602214336395263672e+00,1.602083683013916016e+00,1.601953268051147461e+00,1.601822733879089355e+00,1.601692318916320801e+00,1.601561903953552246e+00,1.601431488990783691e+00,1.601301193237304688e+00,1.601170778274536133e+00,1.601040244102478027e+00,1.600909948348999023e+00,1.600779652595520020e+00,1.600649356842041016e+00,1.600519180297851562e+00,1.600388884544372559e+00,1.600258708000183105e+00,1.600128412246704102e+00,1.599998116493225098e+00,1.599868059158325195e+00,1.599737882614135742e+00,1.599607825279235840e+00,1.599477767944335938e+00,1.599347710609436035e+00,1.599217414855957031e+00,1.599087476730346680e+00,1.598957419395446777e+00,1.598827481269836426e+00,1.598697543144226074e+00,1.598567605018615723e+00,1.598437666893005371e+00,1.598307728767395020e+00,1.598177790641784668e+00,1.598047971725463867e+00,1.597918033599853516e+00,1.597788333892822266e+00,1.597658514976501465e+00,1.597528696060180664e+00,1.597398996353149414e+00,1.597269058227539062e+00,1.597139358520507812e+00,1.597009658813476562e+00
1.466910839080810547e+00,1.466801404953002930e+00,1.466691970825195312e+00,1.466582536697387695e+00,1.466473221778869629e+00,1.466363906860351562e+00,1.466254591941833496e+00,1.466145277023315430e+00,1.466035962104797363e+00,1.465926647186279297e+00,1.465817332267761230e+00,1.465708136558532715e+00,1.465598940849304199e+00,1.465489745140075684e+00,1.465380549430847168e+00,1.465271353721618652e+00,1.465162038803100586e+00,1.465052962303161621e+00,1.464943766593933105e+00,1.464834690093994141e+00,1.464725613594055176e+00,1.464616537094116211e+00,1.464507460594177246e+00,1.464398384094238281e+00,1.464289307594299316e+00,1.464180231094360352e+00,1.464071273803710938e+00,1.463962316513061523e+00,1.463853359222412109e+00,1.463744401931762695e+00,1.463635444641113281e+00,1.463526487350463867e+00,1.463417530059814453e+00,1.463308691978454590e+00,1.463199853897094727e+00,1.463091015815734863e+00,1.462982177734375000e+00,1.462873339653015137e+00,1.462764501571655273e+00,1.462655663490295410e+00,1.462546825408935547e+00,1.462438106536865234e+00,1.462329387664794922e+00,1.462220668792724609e+00,1.462111949920654297e+00,1.462003350257873535e+00,1.461894512176513672e+00,1.461785912513732910e+00,1.461677193641662598e+00,1.461568593978881836e+00,1.461459994316101074e+00,1.461351394653320312e+00,1.461242914199829102e+00,1.461134195327758789e+00,1.461025714874267578e+00,1.460917115211486816e+00,1.460808634757995605e+00,1.460700154304504395e+00,1.460591673851013184e+00,1.460483193397521973e+00,1.460374832153320312e+00,1.460266232490539551e+00,1.460157871246337891e+00,1.460049390792846680e+00,1.459941029548645020e+00,1.459832668304443359e+00,1.459724307060241699e+00,1.459616065025329590e+00,1.459507584571838379e+00,1.459399342536926270e+00,1.459290981292724609e+00,1.459182739257812500e+00,1.459074497222900391e+00,1.458966255187988281e+00,1.458858013153076172e+00,1.458749771118164062e+00,1.458641529083251953e+00,1.458533406257629395e+00,1.458425283432006836e+00,1.458317041397094727e+00
1.349060773849487305e+00,1.348968267440795898e+00,1.348875761032104492e+00,1.348783254623413086e+00,1.348690748214721680e+00,1.348598361015319824e+00,1.348505854606628418e+00,1.348413348197937012e+00,1.348320841789245605e+00,1.348228454589843750e+00,1.348136067390441895e+00,1.348043680191040039e+00,1.347951292991638184e+00,1.347858905792236328e+00,1.347766518592834473e+00,1.347674012184143066e+00,1.347581744194030762e+00,1.347489356994628906e+00,1.347397089004516602e+00,1.347304821014404297e+00,1.347212553024291992e+00,1.347120285034179688e+00,1.347027897834777832e+00,1.346935629844665527e+00,1.346843481063842773e+00,1.346751213073730469e+00,1.346658945083618164e+00,1.346566796302795410e+00,1.346474647521972656e+00,1.346382379531860352e+00,1.346290230751037598e+00,1.346198081970214844e+00,1.346105933189392090e+00,1.346013784408569336e+00,1.345921635627746582e+00,1.345829606056213379e+00,1.345737457275390625e+00,1.345645308494567871e+00,1.345553278923034668e+00,1.345461249351501465e+00,1.345369219779968262e+00,1.345277190208435059e+00,1.345185160636901855e+00,1.345093131065368652e+00,1.345001101493835449e+00,1.344909071922302246e+00,1.344817161560058594e+00,1.344725251197814941e+00,1.344633221626281738e+00,1.344541311264038086e+00,1.344449400901794434e+00,1.344357490539550781e+00,1.344265580177307129e+00,1.344173669815063477e+00,1.344081878662109375e+00,1.343989968299865723e+00,1.343898177146911621e+00,1.343806385993957520e+00,1.343714475631713867e+00,1.343622565269470215e+00,1.343530774116516113e+00,1.343439102172851562e+00,1.343347311019897461e+00,1.343255519866943359e+00,1.343163847923278809e+00,1.343072056770324707e+00,1.342980265617370605e+00,1.342888593673706055e+00,1.342796921730041504e+00,1.342705249786376953e+00,1.342613577842712402e+00,1.342521905899047852e+00,1.342430353164672852e+00,1.342338562011718750e+00,1.342247009277343750e+00,1.342155337333679199e+00,1.342063784599304199e+00,1.341972231864929199e+00,1.341880679130554199e+00,1.341789126396179199e+00
1.248738646507263184e+00,1.248659372329711914e+00,1.248580098152160645e+00,1.248500823974609375e+00,1.248421669006347656e+00,1.248342394828796387e+00,1.248263120651245117e+00,1.248183846473693848e+00,1.248104691505432129e+00,1.248025417327880859e+00,1.247946262359619141e+00,1.247867107391357422e+00,1.247787952423095703e+00,1.247708678245544434e+00,1.247629523277282715e+00,1.247550368309020996e+00,1.247471213340759277e+00,1.247392177581787109e+00,1.247313022613525391e+00,1.247233986854553223e+00,1.247154712677001953e+00,1.247075676918029785e+00,1.246996641159057617e+00,1.246917605400085449e+00,1.246838569641113281e+00,1.246759533882141113e+00,1.246680498123168945e+00,1.246601462364196777e+00,1.246522307395935059e+00,1.246443390846252441e+00,1.246364355087280273e+00,1.246285438537597656e+00,1.246206402778625488e+00,1.246127486228942871e+00,1.246048569679260254e+00,1.245969533920288086e+00,1.245890617370605469e+00,1.245811700820922852e+00,1.245732784271240234e+00,1.245653867721557617e+00,1.245574951171875000e+00,1.245496034622192383e+00,1.245417118072509766e+00,1.245338320732116699e+00,1.245259404182434082e+00,1.245180606842041016e+00,1.245101809501647949e+00,1.245023012161254883e+00,1.244944095611572266e+00,1.244865298271179199e+00,1.244786500930786133e+00,1.244707703590393066e+00,1.244628906250000000e+00,1.244550228118896484e+00,1.244471430778503418e+00,1.244392752647399902e+00,1.244313955307006836e+00,1.244235157966613770e+00,1.244156479835510254e+00,1.244077801704406738e+00,1.243999123573303223e+00,1.243920445442199707e+00,1.243841767311096191e+00,1.243763089179992676e+00,1.243684291839599609e+00,1.243605732917785645e+00,1.243527054786682129e+00,1.243448495864868164e+00,1.243369817733764648e+00,1.243291258811950684e+00,1.243212699890136719e+00,1.243134140968322754e+00,1.243055462837219238e+00,1.242976903915405273e+00,1.242898344993591309e+00,1.242819786071777344e+00,1.242741346359252930e+00,1.242662787437438965e+00,1.242584228515625000e+00,1.242505669593811035e+00
1.162304520606994629e+00,1.162235856056213379e+00,1.162167191505432129e+00,1.162098526954650879e+00,1.162029743194580078e+00,1.161961078643798828e+00,1.161892533302307129e+00,1.161823868751525879e+00,1.161755204200744629e+00,1.161686658859252930e+00,1.161617994308471680e+00,1.161549329757690430e+00,1.161480784416198730e+00,1.161412119865417480e+00,1.161343574523925781e+00,1.161275029182434082e+00,1.161206483840942383e+00,1.161137938499450684e+00,1.161069273948669434e+00,1.161000728607177734e+00,1.160932183265686035e+00,1.160863637924194336e+00,1.160795211791992188e+00,1.160726666450500488e+00,1.160658121109008789e+00,1.160589694976806641e+00,1.160521149635314941e+00,1.160452604293823242e+00,1.160384178161621094e+00,1.160315752029418945e+00,1.160247325897216797e+00,1.160178780555725098e+00,1.160110354423522949e+00,1.160041928291320801e+00,1.159973502159118652e+00,1.159905076026916504e+00,1.159836649894714355e+00,1.159768223762512207e+00,1.159699916839599609e+00,1.159631490707397461e+00,1.159563064575195312e+00,1.159494757652282715e+00,1.159426331520080566e+00,1.159358024597167969e+00,1.159289717674255371e+00,1.159221291542053223e+00,1.159152984619140625e+00,1.159084677696228027e+00,1.159016370773315430e+00,1.158948063850402832e+00,1.158879756927490234e+00,1.158811450004577637e+00,1.158743143081665039e+00,1.158674955368041992e+00,1.158606648445129395e+00,1.158538341522216797e+00,1.158470153808593750e+00,1.158401846885681152e+00,1.158333659172058105e+00,1.158265471458435059e+00,1.158197283744812012e+00,1.158129096031188965e+00,1.158060789108276367e+00,1.157992601394653320e+00,1.157924413681030273e+00,1.157856345176696777e+00,1.157788157463073730e+00,1.157719969749450684e+00,1.157651901245117188e+00,1.157583713531494141e+00,1.157515525817871094e+00,1.157447338104248047e+00,1.157379269599914551e+00,1.157311201095581055e+00,1.157243132591247559e+00,1.157174944877624512e+00,1.157106876373291016e+00,1.157038807868957520e+00,1.156970739364624023e+00,1.156902670860290527e+00
1.087061285972595215e+00,1.087001204490661621e+00,1.086941003799438477e+00,1.086880922317504883e+00,1.086820840835571289e+00,1.086760878562927246e+00,1.086700797080993652e+00,1.086640715599060059e+00,1.086580753326416016e+00,1.086520671844482422e+00,1.086460590362548828e+00,1.086400628089904785e+00,1.086340546607971191e+00,1.086280584335327148e+00,1.086220622062683105e+00,1.086160659790039062e+00,1.086100578308105469e+00,1.086040616035461426e+00,1.085980653762817383e+00,1.085920691490173340e+00,1.085860729217529297e+00,1.085800766944885254e+00,1.085740804672241211e+00,1.085680961608886719e+00,1.085620880126953125e+00,1.085561037063598633e+00,1.085501074790954590e+00,1.085441231727600098e+00,1.085381269454956055e+00,1.085321426391601562e+00,1.085261583328247070e+00,1.085201621055603027e+00,1.085141658782958984e+00,1.085081815719604492e+00,1.085021972656250000e+00,1.084962129592895508e+00,1.084902286529541016e+00,1.084842443466186523e+00,1.084782600402832031e+00,1.084722757339477539e+00,1.084662914276123047e+00,1.084603071212768555e+00,1.084543228149414062e+00,1.084483504295349121e+00,1.084423661231994629e+00,1.084363937377929688e+00,1.084304094314575195e+00,1.084244251251220703e+00,1.084184527397155762e+00,1.084124803543090820e+00,1.084064960479736328e+00,1.084005236625671387e+00,1.083945512771606445e+00,1.083885669708251953e+00,1.083825945854187012e+00,1.083766222000122070e+00,1.083706498146057129e+00,1.083646893501281738e+00,1.083587169647216797e+00,1.083527445793151855e+00,1.083467721939086914e+00,1.083407998085021973e+00,1.083348274230957031e+00,1.083288669586181641e+00,1.083228945732116699e+00,1.083169341087341309e+00,1.083109736442565918e+00,1.083050012588500977e+00,1.082990288734436035e+00,1.082930684089660645e+00,1.082871079444885254e+00,1.082811474800109863e+00,1.082751870155334473e+00,1.082692265510559082e+00,1.082632660865783691e+00,1.082573056221008301e+00,1.082513451576232910e+00,1.082453846931457520e+00,1.082394242286682129e+00,1.082334756851196289e+00
1.020967483520507812e+00,1.020914554595947266e+00,1.020861506462097168e+00,1.020808577537536621e+00,1.020755529403686523e+00,1.020702600479125977e+00,1.020649671554565430e+00,1.020596623420715332e+00,1.020543694496154785e+00,1.020490646362304688e+00,1.020437717437744141e+00,1.020384788513183594e+00,1.020331859588623047e+00,1.020278930664062500e+00,1.020226001739501953e+00,1.020173072814941406e+00,1.020120143890380859e+00,1.020067214965820312e+00,1.020014286041259766e+00,1.019961476325988770e+00,1.019908547401428223e+00,1.019855618476867676e+00,1.019802689552307129e+00,1.019749879837036133e+00,1.019696950912475586e+00,1.019644141197204590e+00,1.019591212272644043e+00,1.019538402557373047e+00,1.019485592842102051e+00,1.019432663917541504e+00,1.019379854202270508e+00,1.019327044486999512e+00,1.019274234771728516e+00,1.019221305847167969e+00,1.019168496131896973e+00,1.019115686416625977e+00,1.019062876701354980e+00,1.019010066986083984e+00,1.018957257270812988e+00,1.018904447555541992e+00,1.018851757049560547e+00,1.018798947334289551e+00,1.018746137619018555e+00,1.018693447113037109e+00,1.018640637397766113e+00,1.018587827682495117e+00,1.018535137176513672e+00,1.018482327461242676e+00,1.018429636955261230e+00,1.018376827239990234e+00,1.018324136734008789e+00,1.018271327018737793e+00,1.018218636512756348e+00,1.018165946006774902e+00,1.018113255500793457e+00,1.018060564994812012e+00,1.018007874488830566e+00,1.017955183982849121e+00,1.017902493476867676e+00,1.017849802970886230e+00,1.017797112464904785e+00,1.017744421958923340e+00,1.017691731452941895e+00,1.017639040946960449e+00,1.017586469650268555e+00,1.017533779144287109e+00,1.017481088638305664e+00,1.017428517341613770e+00,1.017375826835632324e+00,1.017323255538940430e+00,1.017270565032958984e+00,1.017217993736267090e+00,1.017165422439575195e+00,1.017112731933593750e+00,1.017060160636901855e+00,1.017007589340209961e+00,1.016954898834228516e+00,1.016902327537536621e+00,1.016849756240844727e+00,1.016797184944152832e+00
9.624503254890441895e-01,9.624031186103820801e-01,9.623560905456542969e-01,9.623089432716369629e-01,9.622619748115539551e-01,9.622148275375366211e-01,9.621676802635192871e-01,9.621207118034362793e-01,9.620735645294189453e-01,9.620265364646911621e-01,9.619794487953186035e-01,9.619324803352355957e-01,9.618853926658630371e-01,9.618383049964904785e-01,9.617912769317626953e-01,9.617441892623901367e-01,9.616972208023071289e-01,9.616501927375793457e-01,9.616032242774963379e-01,9.615561366081237793e-01,9.615091085433959961e-01,9.614621400833129883e-01,9.614151120185852051e-01,9.613681435585021973e-01,9.613211154937744141e-01,9.612742066383361816e-01,9.612271189689636230e-01,9.611802101135253906e-01,9.611331820487976074e-01,9.610862135887145996e-01,9.610393047332763672e-01,9.609922766685485840e-01,9.609453678131103516e-01,9.608983993530273438e-01,9.608514904975891113e-01,9.608045220375061035e-01,9.607574939727783203e-01,9.607106447219848633e-01,9.606636762619018555e-01,9.606167674064636230e-01,9.605697989463806152e-01,9.605229496955871582e-01,9.604759812355041504e-01,9.604290723800659180e-01,9.603822231292724609e-01,9.603352546691894531e-01,9.602884054183959961e-01,9.602414965629577637e-01,9.601946473121643066e-01,9.601477384567260742e-01,9.601008296012878418e-01,9.600539803504943848e-01,9.600070714950561523e-01,9.599602818489074707e-01,9.599133729934692383e-01,9.598665833473205566e-01,9.598196744918823242e-01,9.597728252410888672e-01,9.597260355949401855e-01,9.596791267395019531e-01,9.596323966979980469e-01,9.595854878425598145e-01,9.595387578010559082e-01,9.594918489456176758e-01,9.594449996948242188e-01,9.593982696533203125e-01,9.593514204025268555e-01,9.593046903610229492e-01,9.592578411102294922e-01,9.592111110687255859e-01,9.591642618179321289e-01,9.591175317764282227e-01,9.590707421302795410e-01,9.590238928794860840e-01,9.589772224426269531e-01,9.589304327964782715e-01,9.588837027549743652e-01,9.588369131088256836e-01,9.587902426719665527e-01,9.587434530258178711e-01
9.102772474288940430e-01,9.102351665496826172e-01,9.101929664611816406e-01,9.101509451866149902e-01,9.101087450981140137e-01,9.100666046142578125e-01,9.100245237350463867e-01,9.099823832511901855e-01,9.099403619766235352e-01,9.098981618881225586e-01,9.098561406135559082e-01,9.098140001296997070e-01,9.097718596458435059e-01,9.097298383712768555e-01,9.096876978874206543e-01,9.096456766128540039e-01,9.096035957336425781e-01,9.095615744590759277e-01,9.095194339752197266e-01,9.094773530960083008e-01,9.094353318214416504e-01,9.093932509422302246e-01,9.093512296676635742e-01,9.093091487884521484e-01,9.092671871185302734e-01,9.092251062393188477e-01,9.091830253601074219e-01,9.091410636901855469e-01,9.090989828109741211e-01,9.090570211410522461e-01,9.090149402618408203e-01,9.089729785919189453e-01,9.089308977127075195e-01,9.088888764381408691e-01,9.088469147682189941e-01,9.088048934936523438e-01,9.087629318237304688e-01,9.087209105491638184e-01,9.086789488792419434e-01,9.086369276046752930e-01,9.085949063301086426e-01,9.085530042648315430e-01,9.085109829902648926e-01,9.084690809249877930e-01,9.084270596504211426e-01,9.083851575851440430e-01,9.083431363105773926e-01,9.083012342453002930e-01,9.082592725753784180e-01,9.082172513008117676e-01,9.081754088401794434e-01,9.081333875656127930e-01,9.080915451049804688e-01,9.080495834350585938e-01,9.080076813697814941e-01,9.079657196998596191e-01,9.079237580299377441e-01,9.078819155693054199e-01,9.078399538993835449e-01,9.077981114387512207e-01,9.077561497688293457e-01,9.077143073081970215e-01,9.076723456382751465e-01,9.076304435729980469e-01,9.075886011123657227e-01,9.075466394424438477e-01,9.075048565864562988e-01,9.074628949165344238e-01,9.074211120605468750e-01,9.073792099952697754e-01,9.073373079299926758e-01,9.072954654693603516e-01,9.072535634040832520e-01,9.072117805480957031e-01,9.071698784828186035e-01,9.071280956268310547e-01,9.070861935615539551e-01,9.070443511009216309e-01,9.070025682449340820e-01,9.069606661796569824e-01
8.634698390960693359e-01,8.634319305419921875e-01,8.633939623832702637e-01,8.633561134338378906e-01,8.633181452751159668e-01,8.632802963256835938e-01,8.632423877716064453e-01,8.632045388221740723e-01,8.631666302680969238e-01,8.631287217140197754e-01,8.630908727645874023e-01,8.630529642105102539e-01,8.630151152610778809e-01,8.629772067070007324e-01,8.629394173622131348e-01,8.629015088081359863e-01,8.628636002540588379e-01,8.628258109092712402e-01,8.627879023551940918e-01,8.627501130104064941e-01,8.627122044563293457e-01,8.626744151115417480e-01,8.626365065574645996e-01,8.625987172126770020e-01,8.625608682632446289e-01,8.625230193138122559e-01,8.624852299690246582e-01,8.624473810195922852e-01,8.624095916748046875e-01,8.623717427253723145e-01,8.623339533805847168e-01,8.622961044311523438e-01,8.622582554817199707e-01,8.622205257415771484e-01,8.621826767921447754e-01,8.621448874473571777e-01,8.621070981025695801e-01,8.620693683624267578e-01,8.620315194129943848e-01,8.619936704635620117e-01,8.619559407234191895e-01,8.619181513786315918e-01,8.618804216384887695e-01,8.618426322937011719e-01,8.618049025535583496e-01,8.617670536041259766e-01,8.617292642593383789e-01,8.616915941238403320e-01,8.616538047790527344e-01,8.616160750389099121e-01,8.615782856941223145e-01,8.615406155586242676e-01,8.615028262138366699e-01,8.614650368690490723e-01,8.614273667335510254e-01,8.613895773887634277e-01,8.613519072532653809e-01,8.613141179084777832e-01,8.612764477729797363e-01,8.612387180328369141e-01,8.612010478973388672e-01,8.611632585525512695e-01,8.611255288124084473e-01,8.610878586769104004e-01,8.610501289367675781e-01,8.610125184059143066e-01,8.609747290611267090e-01,8.609371185302734375e-01,8.608993887901306152e-01,8.608616590499877930e-01,8.608240485191345215e-01,8.607863187789916992e-01,8.607487082481384277e-01,8.607109785079956055e-01,8.606733679771423340e-01,8.606356382369995117e-01,8.605979681015014648e-01,8.605603575706481934e-01,8.605226278305053711e-01,8.604850172996520996e-01
8.212407231330871582e-01,8.212063908576965332e-01,8.211721777915954590e-01,8.211378455162048340e-01,8.211036324501037598e-01,8.210693001747131348e-01,8.210350871086120605e-01,8.210007548332214355e-01,8.209664225578308105e-01,8.209322094917297363e-01,8.208979368209838867e-01,8.208636641502380371e-01,8.208293914794921875e-01,8.207951784133911133e-01,8.207609057426452637e-01,8.207266330718994141e-01,8.206924200057983398e-01,8.206580877304077148e-01,8.206239342689514160e-01,8.205896615982055664e-01,8.205554485321044922e-01,8.205211758613586426e-01,8.204869031906127930e-01,8.204527497291564941e-01,8.204184770584106445e-01,8.203842639923095703e-01,8.203500509262084961e-01,8.203158378601074219e-01,8.202816247940063477e-01,8.202473521232604980e-01,8.202131986618041992e-01,8.201789259910583496e-01,8.201447725296020508e-01,8.201105594635009766e-01,8.200764060020446777e-01,8.200421333312988281e-01,8.200080394744873047e-01,8.199737668037414551e-01,8.199395537376403809e-01,8.199054002761840820e-01,8.198711872100830078e-01,8.198370933532714844e-01,8.198028802871704102e-01,8.197687268257141113e-01,8.197345137596130371e-01,8.197003006935119629e-01,8.196662068367004395e-01,8.196319937705993652e-01,8.195978999137878418e-01,8.195636868476867676e-01,8.195295929908752441e-01,8.194953799247741699e-01,8.194612264633178711e-01,8.194271326065063477e-01,8.193929195404052734e-01,8.193588256835937500e-01,8.193246722221374512e-01,8.192905783653259277e-01,8.192564249038696289e-01,8.192222714424133301e-01,8.191881775856018066e-01,8.191540241241455078e-01,8.191199302673339844e-01,8.190857768058776855e-01,8.190517425537109375e-01,8.190175890922546387e-01,8.189834356307983398e-01,8.189493417739868164e-01,8.189152479171752930e-01,8.188811540603637695e-01,8.188470602035522461e-01,8.188129663467407227e-01,8.187788724899291992e-01,8.187447190284729004e-01,8.187106847763061523e-01,8.186765909194946289e-01,8.186425566673278809e-01,8.186084628105163574e-01,8.185744285583496094e-01,8.185402750968933105e-01
7.829496264457702637e-01,7.829184532165527344e-01,7.828872799873352051e-01,7.828561663627624512e-01,7.828249335289001465e-01,7.827938199043273926e-01,7.827626466751098633e-01,7.827314734458923340e-01,7.827003598213195801e-01,7.826691269874572754e-01,7.826380729675292969e-01,7.826068997383117676e-01,7.825757861137390137e-01,7.825446128845214844e-01,7.825134396553039551e-01,7.824823260307312012e-01,7.824511528015136719e-01,7.824200987815856934e-01,7.823889255523681641e-01,7.823578119277954102e-01,7.823266983032226562e-01,7.822955250740051270e-01,7.822644710540771484e-01,7.822332978248596191e-01,7.822022438049316406e-01,7.821710705757141113e-01,7.821400165557861328e-01,7.821088433265686035e-01,7.820777297019958496e-01,7.820466756820678711e-01,7.820155620574951172e-01,7.819845080375671387e-01,7.819533348083496094e-01,7.819223403930664062e-01,7.818911671638488770e-01,7.818600535392761230e-01,7.818289995193481445e-01,7.817978858947753906e-01,7.817668914794921875e-01,7.817357778549194336e-01,7.817047238349914551e-01,7.816736102104187012e-01,7.816425561904907227e-01,7.816115021705627441e-01,7.815803885459899902e-01,7.815493941307067871e-01,7.815182805061340332e-01,7.814872860908508301e-01,7.814561724662780762e-01,7.814251780509948730e-01,7.813941240310668945e-01,7.813630104064941406e-01,7.813320159912109375e-01,7.813009619712829590e-01,7.812699675559997559e-01,7.812388539314270020e-01,7.812078595161437988e-01,7.811768054962158203e-01,7.811457514762878418e-01,7.811147570610046387e-01,7.810837030410766602e-01,7.810527086257934570e-01,7.810216546058654785e-01,7.809907197952270508e-01,7.809596657752990723e-01,7.809286117553710938e-01,7.808976173400878906e-01,7.808666229248046875e-01,7.808356285095214844e-01,7.808046340942382812e-01,7.807736396789550781e-01,7.807426452636718750e-01,7.807115912437438965e-01,7.806806564331054688e-01,7.806496024131774902e-01,7.806186676025390625e-01,7.805876731872558594e-01,7.805567383766174316e-01,7.805256843566894531e-01,7.804946899414062500e-01
7.480701804161071777e-01,7.480416893959045410e-01,7.480132579803466797e-01,7.479847669601440430e-01,7.479562759399414062e-01,7.479279041290283203e-01,7.478994131088256836e-01,7.478710412979125977e-01,7.478425502777099609e-01,7.478141188621520996e-01,7.477856874465942383e-01,7.477571964263916016e-01,7.477288246154785156e-01,7.477003335952758789e-01,7.476719617843627930e-01,7.476435303688049316e-01,7.476151585578918457e-01,7.475866675376892090e-01,7.475582361221313477e-01,7.475298643112182617e-01,7.475014328956604004e-01,7.474730610847473145e-01,7.474446296691894531e-01,7.474162578582763672e-01,7.473877668380737305e-01,7.473594546318054199e-01,7.473310232162475586e-01,7.473025918006896973e-01,7.472742199897766113e-01,7.472457885742187500e-01,7.472174167633056641e-01,7.471889853477478027e-01,7.471606731414794922e-01,7.471322417259216309e-01,7.471038103103637695e-01,7.470754981040954590e-01,7.470470666885375977e-01,7.470187544822692871e-01,7.469903230667114258e-01,7.469620108604431152e-01,7.469335794448852539e-01,7.469052076339721680e-01,7.468768954277038574e-01,7.468484640121459961e-01,7.468201518058776855e-01,7.467917799949645996e-01,7.467634677886962891e-01,7.467350363731384277e-01,7.467066645622253418e-01,7.466783523559570312e-01,7.466499805450439453e-01,7.466216683387756348e-01,7.465932965278625488e-01,7.465649843215942383e-01,7.465366125106811523e-01,7.465082406997680664e-01,7.464799284934997559e-01,7.464515566825866699e-01,7.464233040809631348e-01,7.463949322700500488e-01,7.463666200637817383e-01,7.463383078575134277e-01,7.463099360466003418e-01,7.462816238403320312e-01,7.462533116340637207e-01,7.462249994277954102e-01,7.461966872215270996e-01,7.461683750152587891e-01,7.461400628089904785e-01,7.461118102073669434e-01,7.460834383964538574e-01,7.460551261901855469e-01,7.460268735885620117e-01,7.459985017776489258e-01,7.459702491760253906e-01,7.459419369697570801e-01,7.459136843681335449e-01,7.458853721618652344e-01,7.458570599555969238e-01,7.458288073539733887e-01
7.161657810211181641e-01,7.161397337913513184e-01,7.161136269569396973e-01,7.160875201225280762e-01,7.160614728927612305e-01,7.160353660583496094e-01,7.160093784332275391e-01,7.159832715988159180e-01,7.159572243690490723e-01,7.159311175346374512e-01,7.159050703048706055e-01,7.158790230751037598e-01,7.158529162406921387e-01,7.158269286155700684e-01,7.158008217811584473e-01,7.157748341560363770e-01,7.157487273216247559e-01,7.157226800918579102e-01,7.156966328620910645e-01,7.156705856323242188e-01,7.156445384025573730e-01,7.156184911727905273e-01,7.155925035476684570e-01,7.155663967132568359e-01,7.155403494834899902e-01,7.155143618583679199e-01,7.154883146286010742e-01,7.154623270034790039e-01,7.154362201690673828e-01,7.154102325439453125e-01,7.153841853141784668e-01,7.153581380844116211e-01,7.153321504592895508e-01,7.153061032295227051e-01,7.152801156044006348e-01,7.152541279792785645e-01,7.152281403541564941e-01,7.152020931243896484e-01,7.151761054992675781e-01,7.151500582695007324e-01,7.151240706443786621e-01,7.150980830192565918e-01,7.150720357894897461e-01,7.150461077690124512e-01,7.150200605392456055e-01,7.149940729141235352e-01,7.149680852890014648e-01,7.149420380592346191e-01,7.149161100387573242e-01,7.148900628089904785e-01,7.148641347885131836e-01,7.148381471633911133e-01,7.148121595382690430e-01,7.147861719131469727e-01,7.147601842880249023e-01,7.147341966629028320e-01,7.147082090377807617e-01,7.146822810173034668e-01,7.146562933921813965e-01,7.146303653717041016e-01,7.146043181419372559e-01,7.145783305168151855e-01,7.145524024963378906e-01,7.145264148712158203e-01,7.145004868507385254e-01,7.144744992256164551e-01,7.144485712051391602e-01,7.144226431846618652e-01,7.143966555595397949e-01,7.143707275390625000e-01,7.143447399139404297e-01,7.143188118934631348e-01,7.142928838729858398e-01,7.142669558525085449e-01,7.142409682273864746e-01,7.142150402069091797e-01,7.141891121864318848e-01,7.141631245613098145e-01,7.141372561454772949e-01,7.141112685203552246e-01
6.868714690208435059e-01,6.868475079536437988e-01,6.868234872817993164e-01,6.867995262145996094e-01,6.867755651473999023e-01,6.867516040802001953e-01,6.867275834083557129e-01,6.867035627365112305e-01,6.866796016693115234e-01,6.866556406021118164e-01,6.866316795349121094e-01,6.866076588630676270e-01,6.865837574005126953e-01,6.865597367286682129e-01,6.865358352661132812e-01,6.865118145942687988e-01,6.864878535270690918e-01,6.864638924598693848e-01,6.864399313926696777e-01,6.864159703254699707e-01,6.863920092582702637e-01,6.863681077957153320e-01,6.863440871238708496e-01,6.863201260566711426e-01,6.862962245941162109e-01,6.862722039222717285e-01,6.862483024597167969e-01,6.862243413925170898e-01,6.862004399299621582e-01,6.861764788627624512e-01,6.861525177955627441e-01,6.861286163330078125e-01,6.861045956611633301e-01,6.860806941986083984e-01,6.860567331314086914e-01,6.860328316688537598e-01,6.860089302062988281e-01,6.859849691390991211e-01,6.859610676765441895e-01,6.859371066093444824e-01,6.859132051467895508e-01,6.858892440795898438e-01,6.858653426170349121e-01,6.858414411544799805e-01,6.858174800872802734e-01,6.857935786247253418e-01,6.857696771621704102e-01,6.857457756996154785e-01,6.857218146324157715e-01,6.856979727745056152e-01,6.856740117073059082e-01,6.856501102447509766e-01,6.856262087821960449e-01,6.856023073196411133e-01,6.855784058570861816e-01,6.855545043945312500e-01,6.855306625366210938e-01,6.855067014694213867e-01,6.854828596115112305e-01,6.854589581489562988e-01,6.854349970817565918e-01,6.854111552238464355e-01,6.853872537612915039e-01,6.853634119033813477e-01,6.853395104408264160e-01,6.853156089782714844e-01,6.852917075157165527e-01,6.852678060531616211e-01,6.852439641952514648e-01,6.852200627326965332e-01,6.851962208747863770e-01,6.851723194122314453e-01,6.851484775543212891e-01,6.851245760917663574e-01,6.851007342338562012e-01,6.850768923759460449e-01,6.850529909133911133e-01,6.850291490554809570e-01,6.850052475929260254e-01,6.849814653396606445e-01
6.598795652389526367e-01,6.598573923110961914e-01,6.598352789878845215e-01,6.598131060600280762e-01,6.597910523414611816e-01,6.597688794136047363e-01,6.597467064857482910e-01,6.597245931625366211e-01,6.597024798393249512e-01,6.596803665161132812e-01,6.596581935882568359e-01,6.596360802650451660e-01,6.596139669418334961e-01,6.595917940139770508e-01,6.595697402954101562e-01,6.595475673675537109e-01,6.595255136489868164e-01,6.595033407211303711e-01,6.594812870025634766e-01,6.594591140747070312e-01,6.594370007514953613e-01,6.594148874282836914e-01,6.593927741050720215e-01,6.593707203865051270e-01,6.593485474586486816e-01,6.593264937400817871e-01,6.593043804168701172e-01,6.592822670936584473e-01,6.592601537704467773e-01,6.592380404472351074e-01,6.592159867286682129e-01,6.591938734054565430e-01,6.591717600822448730e-01,6.591496467590332031e-01,6.591275930404663086e-01,6.591054797172546387e-01,6.590833663940429688e-01,6.590613126754760742e-01,6.590391993522644043e-01,6.590171456336975098e-01,6.589950323104858398e-01,6.589729785919189453e-01,6.589508652687072754e-01,6.589288115501403809e-01,6.589067578315734863e-01,6.588846445083618164e-01,6.588625907897949219e-01,6.588404774665832520e-01,6.588184833526611328e-01,6.587963700294494629e-01,6.587742567062377930e-01,6.587522625923156738e-01,6.587301492691040039e-01,6.587080955505371094e-01,6.586860418319702148e-01,6.586639881134033203e-01,6.586419343948364258e-01,6.586198210716247559e-01,6.585978269577026367e-01,6.585757136344909668e-01,6.585537195205688477e-01,6.585316061973571777e-01,6.585096120834350586e-01,6.584874987602233887e-01,6.584654450416564941e-01,6.584434509277343750e-01,6.584213972091674805e-01,6.583993434906005859e-01,6.583772897720336914e-01,6.583552956581115723e-01,6.583332419395446777e-01,6.583111882209777832e-01,6.582891345024108887e-01,6.582670807838439941e-01,6.582450866699218750e-01,6.582230329513549805e-01,6.582010388374328613e-01,6.581789851188659668e-01,6.581569910049438477e-01,6.581349372863769531e-01
6.349287629127502441e-01,6.349083185195922852e-01,6.348878145217895508e-01,6.348673105239868164e-01,6.348468065261840820e-01,6.348263025283813477e-01,6.348057985305786133e-01,6.347852945327758789e-01,6.347648501396179199e-01,6.347443461418151855e-01,6.347239017486572266e-01,6.347033977508544922e-01,6.346828937530517578e-01,6.346623897552490234e-01,6.346418857574462891e-01,6.346214413642883301e-01,6.346009373664855957e-01,6.345804929733276367e-01,6.345599889755249023e-01,6.345395445823669434e-01,6.345190405845642090e-01,6.344985961914062500e-01,6.344781517982482910e-01,6.344576478004455566e-01,6.344372034072875977e-01,6.344166994094848633e-01,6.343962550163269043e-01,6.343758106231689453e-01,6.343553066253662109e-01,6.343348622322082520e-01,6.343143582344055176e-01,6.342939734458923340e-01,6.342734694480895996e-01,6.342530250549316406e-01,6.342325806617736816e-01,6.342120766639709473e-01,6.341916918754577637e-01,6.341711878776550293e-01,6.341508030891418457e-01,6.341302990913391113e-01,6.341098546981811523e-01,6.340894103050231934e-01,6.340689659118652344e-01,6.340485215187072754e-01,6.340280771255493164e-01,6.340076327323913574e-01,6.339871883392333984e-01,6.339668035507202148e-01,6.339463591575622559e-01,6.339258551597595215e-01,6.339054703712463379e-01,6.338850259780883789e-01,6.338646411895751953e-01,6.338441371917724609e-01,6.338237524032592773e-01,6.338033080101013184e-01,6.337828636169433594e-01,6.337624788284301758e-01,6.337420344352722168e-01,6.337216496467590332e-01,6.337012052536010742e-01,6.336808204650878906e-01,6.336603164672851562e-01,6.336399316787719727e-01,6.336195468902587891e-01,6.335991024971008301e-01,6.335787177085876465e-01,6.335582733154296875e-01,6.335378885269165039e-01,6.335174441337585449e-01,6.334969997406005859e-01,6.334766149520874023e-01,6.334562301635742188e-01,6.334358453750610352e-01,6.334154009819030762e-01,6.333950161933898926e-01,6.333746314048767090e-01,6.333541870117187500e-01,6.333338618278503418e-01,6.333134174346923828e-01
