5.000000000000000000e+00,5.000000000000000000e+00,5.000000000000000000e+00,5.000000000000000000e+00,5.000000000000000000e+00,5.000000000000000000e+00,5.000000000000000000e+00,5.000000000000000000e+00,5.000000000000000000e+00,5.000000000000000000e+00,5.000000000000000000e+00,5.000000000000000000e+00,5.000000000000000000e+00,5.000000000000000000e+00,5.000000000000000000e+00,5.000000000000000000e+00,5.000000000000000000e+00,5.000000000000000000e+00,5.000000000000000000e+00,5.000000000000000000e+00,5.000000000000000000e+00,5.000000000000000000e+00,5.000000000000000000e+00,5.000000000000000000e+00,5.000000000000000000e+00,5.000000000000000000e+00,5.000000000000000000e+00,2.159428834915161133e+00,2.162892818450927734e+00,2.192949771881103516e+00,2.119197845458984375e+00,2.100142002105712891e+00,2.098813772201538086e+00,2.106245279312133789e+00,2.108205556869506836e+00,2.120642185211181641e+00,2.157409429550170898e+00,2.285009384155273438e+00,2.272350072860717773e+00,2.297560930252075195e+00,4.661496639251708984e+00,4.485743522644042969e+00,4.322762012481689453e+00,4.171208381652832031e+00,4.029922008514404297e+00,3.897893190383911133e+00,3.774240493774414062e+00,3.658192396163940430e+00,3.549067497253417969e+00,3.446264266967773438e+00,3.349249362945556641e+00,3.257547140121459961e+00,3.170732498168945312e+00,3.088424682617187500e+00,3.010282516479492188e+00,2.935996770858764648e+00,2.865288972854614258e+00,2.797906875610351562e+00,2.733621120452880859e+00,2.672223091125488281e+00,2.613522768020629883e+00,2.557345867156982422e+00,2.503532886505126953e+00,2.451938152313232422e+00,2.402426958084106445e+00,2.354875802993774414e+00,2.309170484542846680e+00,2.265205621719360352e+00,2.222883701324462891e+00,2.182113885879516602e+00,2.142812967300415039e+00,2.104902505874633789e+00,2.068309783935546875e+00,2.032968282699584961e+00,1.998813867568969727e+00,1.965788245201110840e+00,1.933836221694946289e+00,1.902906179428100586e+00,1.872949838638305664e+00,1.843922257423400879e+00
5.000000000000000000e+00,5.000000000000000000e+00,5.000000000000000000e+00,5.000000000000000000e+00,5.000000000000000000e+00,5.000000000000000000e+00,5.000000000000000000e+00,5.000000000000000000e+00,5.000000000000000000e+00,5.000000000000000000e+00,5.000000000000000000e+00,5.000000000000000000e+00,5.000000000000000000e+00,5.000000000000000000e+00,5.000000000000000000e+00,5.000000000000000000e+00,5.000000000000000000e+00,5.000000000000000000e+00,5.000000000000000000e+00,5.000000000000000000e+00,5.000000000000000000e+00,5.000000000000000000e+00,5.000000000000000000e+00,5.000000000000000000e+00,5.000000000000000000e+00,5.000000000000000000e+00,5.000000000000000000e+00,2.133739709854125977e+00,2.149535179138183594e+00,2.179449319839477539e+00,2.134317159652709961e+00,2.113058567047119141e+00,2.107762575149536133e+00,2.107256174087524414e+00,2.117312192916870117e+00,2.132276058197021484e+00,2.156157970428466797e+00,2.296899080276489258e+00,2.284507513046264648e+00,2.306320905685424805e+00,4.661625385284423828e+00,4.485862731933593750e+00,4.322872161865234375e+00,4.171311378479003906e+00,4.030017852783203125e+00,3.897982835769653320e+00,3.774324893951416016e+00,3.658271312713623047e+00,3.549141883850097656e+00,3.446334838867187500e+00,3.349315643310546875e+00,3.257609844207763672e+00,3.170791864395141602e+00,3.088481426239013672e+00,3.010335922241210938e+00,2.936047554016113281e+00,2.865337610244750977e+00,2.797953128814697266e+00,2.733665227890014648e+00,2.672265529632568359e+00,2.613563060760498047e+00,2.557384252548217773e+00,2.503570079803466797e+00,2.451973676681518555e+00,2.402461051940917969e+00,2.354908704757690430e+00,2.309201955795288086e+00,2.265235900878906250e+00,2.222912788391113281e+00,2.182142019271850586e+00,2.142839908599853516e+00,2.104928493499755859e+00,2.068335294723510742e+00,2.032992601394653320e+00,1.998837351799011230e+00,1.965811014175415039e+00,1.933858275413513184e+00,1.902927517890930176e+00,1.872970700263977051e+00,1.843942284584045410e+00
5.000000000000000000e+00,5.000000000000000000e+00,5.000000000000000000e+00,5.000000000000000000e+00,5.000000000000000000e+00,5.000000000000000000e+00,5.000000000000000000e+00,5.000000000000000000e+00,5.000000000000000000e+00,5.000000000000000000e+00,5.000000000000000000e+00,5.000000000000000000e+00,5.000000000000000000e+00,5.000000000000000000e+00,5.000000000000000000e+00,5.000000000000000000e+00,5.000000000000000000e+00,5.000000000000000000e+00,5.000000000000000000e+00,5.000000000000000000e+00,5.000000000000000000e+00,5.000000000000000000e+00,5.000000000000000000e+00,5.000000000000000000e+00,5.000000000000000000e+00,5.000000000000000000e+00,5.000000000000000000e+00,2.106719970703125000e+00,2.124110460281372070e+00,2.167107820510864258e+00,2.128478765487670898e+00,2.114716768264770508e+00,2.110499382019042969e+00,2.110986232757568359e+00,2.125947237014770508e+00,2.142101049423217773e+00,2.171611547470092773e+00,2.289755105972290039e+00,2.271797895431518555e+00,2.289928674697875977e+00,4.661753654479980469e+00,4.485981941223144531e+00,4.322982788085937500e+00,4.171414375305175781e+00,4.030113697052001953e+00,3.898072481155395508e+00,3.774409055709838867e+00,3.658350706100463867e+00,3.549216270446777344e+00,3.446404933929443359e+00,3.349382162094116211e+00,3.257672786712646484e+00,3.170851230621337891e+00,3.088537693023681641e+00,3.010389566421508789e+00,2.936098575592041016e+00,2.865386009216308594e+00,2.797999382019042969e+00,2.733709335327148438e+00,2.672307729721069336e+00,2.613603591918945312e+00,2.557422876358032227e+00,2.503607034683227539e+00,2.452009201049804688e+00,2.402495145797729492e+00,2.354941368103027344e+00,2.309233665466308594e+00,2.265266418457031250e+00,2.222941875457763672e+00,2.182170152664184570e+00,2.142867088317871094e+00,2.104954719543457031e+00,2.068360567092895508e+00,2.033017158508300781e+00,1.998860955238342285e+00,1.965833902359008789e+00,1.933880329132080078e+00,1.902948975563049316e+00,1.872991442680358887e+00,1.843962550163269043e+00
5.000000000000000000e+00,5.000000000000000000e+00,5.000000000000000000e+00,5.000000000000000000e+00,5.000000000000000000e+00,5.000000000000000000e+00,5.000000000000000000e+00,5.000000000000000000e+00,5.000000000000000000e+00,5.000000000000000000e+00,5.000000000000000000e+00,5.000000000000000000e+00,5.000000000000000000e+00,5.000000000000000000e+00,5.000000000000000000e+00,5.000000000000000000e+00,5.000000000000000000e+00,5.000000000000000000e+00,5.000000000000000000e+00,5.000000000000000000e+00,5.000000000000000000e+00,5.000000000000000000e+00,5.000000000000000000e+00,5.000000000000000000e+00,5.000000000000000000e+00,5.000000000000000000e+00,2.109979629516601562e+00,2.083066463470458984e+00,2.108821153640747070e+00,2.150109529495239258e+00,2.130390167236328125e+00,2.120014429092407227e+00,2.122929811477661133e+00,2.127360343933105469e+00,2.140122890472412109e+00,2.149278879165649414e+00,2.176913022994995117e+00,2.285058736801147461e+00,2.263340473175048828e+00,2.277968168258666992e+00,4.661881923675537109e+00,4.486100673675537109e+00,4.323093414306640625e+00,4.171516895294189453e+00,4.030210018157958984e+00,3.898162603378295898e+00,3.774492979049682617e+00,3.658429622650146484e+00,3.549290895462036133e+00,3.446475028991699219e+00,3.349448204040527344e+00,3.257735252380371094e+00,3.170910835266113281e+00,3.088593959808349609e+00,3.010443210601806641e+00,2.936149597167968750e+00,2.865434408187866211e+00,2.798045635223388672e+00,2.733753681182861328e+00,2.672349691390991211e+00,2.613643884658813477e+00,2.557461738586425781e+00,2.503643989562988281e+00,2.452044725418090820e+00,2.402529478073120117e+00,2.354974269866943359e+00,2.309265136718750000e+00,2.265296697616577148e+00,2.222971200942993164e+00,2.182198286056518555e+00,2.142894268035888672e+00,2.104980945587158203e+00,2.068385839462280273e+00,2.033041477203369141e+00,1.998884797096252441e+00,1.965856671333312988e+00,1.933902382850646973e+00,1.902970314025878906e+00,1.873012065887451172e+00,1.843982577323913574e+00
5.000000000000000000e+00,5.000000000000000000e+00,5.000000000000000000e+00,5.000000000000000000e+00,5.000000000000000000e+00,5.000000000000000000e+00,5.000000000000000000e+00,5.000000000000000000e+00,5.000000000000000000e+00,5.000000000000000000e+00,5.000000000000000000e+00,5.000000000000000000e+00,5.000000000000000000e+00,5.000000000000000000e+00,5.000000000000000000e+00,5.000000000000000000e+00,5.000000000000000000e+00,5.000000000000000000e+00,5.000000000000000000e+00,5.000000000000000000e+00,5.000000000000000000e+00,5.000000000000000000e+00,5.000000000000000000e+00,5.000000000000000000e+00,5.000000000000000000e+00,5.000000000000000000e+00,2.074515819549560547e+00,2.051633119583129883e+00,2.092942953109741211e+00,2.146949291229248047e+00,2.132650136947631836e+00,2.135249853134155273e+00,2.146880865097045898e+00,2.149036884307861328e+00,2.115663051605224609e+00,2.086084365844726562e+00,2.113551378250122070e+00,5.000000000000000000e+00,2.255709409713745117e+00,2.270731449127197266e+00,4.662010669708251953e+00,4.486219406127929688e+00,4.323204040527343750e+00,4.171619892120361328e+00,4.030305862426757812e+00,3.898252248764038086e+00,3.774577617645263672e+00,3.658508539199829102e+00,3.549365282058715820e+00,3.446545362472534180e+00,3.349514961242675781e+00,3.257797956466674805e+00,3.170970201492309570e+00,3.088650465011596680e+00,3.010496616363525391e+00,2.936200618743896484e+00,2.865483045578002930e+00,2.798091888427734375e+00,2.733797788619995117e+00,2.672392129898071289e+00,2.613684177398681641e+00,2.557500362396240234e+00,2.503681182861328125e+00,2.452080249786376953e+00,2.402563333511352539e+00,2.355007171630859375e+00,2.309296607971191406e+00,2.265326976776123047e+00,2.223000288009643555e+00,2.182226657867431641e+00,2.142921447753906250e+00,2.105007171630859375e+00,2.068411111831665039e+00,2.033065795898437500e+00,1.998908400535583496e+00,1.965879678726196289e+00,1.933924436569213867e+00,1.902991652488708496e+00,1.873032808303833008e+00,1.844002723693847656e+00
5.000000000000000000e+00,5.000000000000000000e+00,5.000000000000000000e+00,5.000000000000000000e+00,5.000000000000000000e+00,5.000000000000000000e+00,5.000000000000000000e+00,5.000000000000000000e+00,5.000000000000000000e+00,5.000000000000000000e+00,5.000000000000000000e+00,5.000000000000000000e+00,5.000000000000000000e+00,5.000000000000000000e+00,5.000000000000000000e+00,5.000000000000000000e+00,5.000000000000000000e+00,5.000000000000000000e+00,5.000000000000000000e+00,5.000000000000000000e+00,5.000000000000000000e+00,5.000000000000000000e+00,5.000000000000000000e+00,5.000000000000000000e+00,5.000000000000000000e+00,5.000000000000000000e+00,2.058435916900634766e+00,2.048273086547851562e+00,5.000000000000000000e+00,2.145485877990722656e+00,2.135186433792114258e+00,2.134430170059204102e+00,2.158262252807617188e+00,2.095855712890625000e+00,2.070731401443481445e+00,2.058826684951782227e+00,2.085690259933471680e+00,2.174706459045410156e+00,2.250913381576538086e+00,2.255121469497680664e+00,4.662138938903808594e+00,4.486338615417480469e+00,4.323314189910888672e+00,4.171722888946533203e+00,4.030401706695556641e+00,3.898341894149780273e+00,3.774661540985107422e+00,3.658587932586669922e+00,3.549439907073974609e+00,3.446615457534790039e+00,3.349581003189086914e+00,3.257860898971557617e+00,3.171029329299926758e+00,3.088706731796264648e+00,3.010550260543823242e+00,2.936251401901245117e+00,2.865531682968139648e+00,2.798138380050659180e+00,2.733841896057128906e+00,2.672434329986572266e+00,2.613724708557128906e+00,2.557538986206054688e+00,2.503718137741088867e+00,2.452115774154663086e+00,2.402597665786743164e+00,2.355039834976196289e+00,2.309328079223632812e+00,2.265357494354248047e+00,2.223029613494873047e+00,2.182254791259765625e+00,2.142948627471923828e+00,2.105033397674560547e+00,2.068436384201049805e+00,2.033090353012084961e+00,1.998932003974914551e+00,1.965902566909790039e+00,1.933946728706359863e+00,1.903012990951538086e+00,1.873053550720214844e+00,1.844022750854492188e+00
5.000000000000000000e+00,5.000000000000000000e+00,5.000000000000000000e+00,5.000000000000000000e+00,5.000000000000000000e+00,5.000000000000000000e+00,5.000000000000000000e+00,5.000000000000000000e+00,5.000000000000000000e+00,5.000000000000000000e+00,5.000000000000000000e+00,5.000000000000000000e+00,5.000000000000000000e+00,5.000000000000000000e+00,5.000000000000000000e+00,5.000000000000000000e+00,5.000000000000000000e+00,5.000000000000000000e+00,5.000000000000000000e+00,5.000000000000000000e+00,5.000000000000000000e+00,5.000000000000000000e+00,5.000000000000000000e+00,5.000000000000000000e+00,5.000000000000000000e+00,5.000000000000000000e+00,2.010662555694580078e+00,2.002111196517944336e+00,5.000000000000000000e+00,2.145967245101928711e+00,2.134415388107299805e+00,2.130227088928222656e+00,2.155698537826538086e+00,2.096974849700927734e+00,2.054115772247314453e+00,2.037341833114624023e+00,2.063567399978637695e+00,2.101093769073486328e+00,2.253215551376342773e+00,2.258861541748046875e+00,4.662267208099365234e+00,4.486457824707031250e+00,4.323424816131591797e+00,4.171825885772705078e+00,4.030498027801513672e+00,3.898432016372680664e+00,3.774745702743530273e+00,3.658667087554931641e+00,3.549514293670654297e+00,3.446686029434204102e+00,3.349647283554077148e+00,3.257923603057861328e+00,3.171089172363281250e+00,3.088762998580932617e+00,3.010603904724121094e+00,2.936302423477172852e+00,2.865580081939697266e+00,2.798184633255004883e+00,2.733886241912841797e+00,2.672476530075073242e+00,2.613765001296997070e+00,2.557577610015869141e+00,2.503755092620849609e+00,2.452151298522949219e+00,2.402631759643554688e+00,2.355072736740112305e+00,2.309359550476074219e+00,2.265387773513793945e+00,2.223058938980102539e+00,2.182282686233520508e+00,2.142975807189941406e+00,2.105059623718261719e+00,2.068461656570434570e+00,2.033114671707153320e+00,1.998955488204956055e+00,1.965925335884094238e+00,1.933968782424926758e+00,1.903034567832946777e+00,1.873074173927307129e+00,1.844042778015136719e+00
5.000000000000000000e+00,5.000000000000000000e+00,5.000000000000000000e+00,5.000000000000000000e+00,5.000000000000000000e+00,5.000000000000000000e+00,5.000000000000000000e+00,5.000000000000000000e+00,5.000000000000000000e+00,5.000000000000000000e+00,5.000000000000000000e+00,5.000000000000000000e+00,5.000000000000000000e+00,5.000000000000000000e+00,5.000000000000000000e+00,5.000000000000000000e+00,5.000000000000000000e+00,5.000000000000000000e+00,5.000000000000000000e+00,5.000000000000000000e+00,5.000000000000000000e+00,5.000000000000000000e+00,5.000000000000000000e+00,5.000000000000000000e+00,5.000000000000000000e+00,5.000000000000000000e+00,1.991133928298950195e+00,5.000000000000000000e+00,5.000000000000000000e+00,2.154190301895141602e+00,2.141220569610595703e+00,2.131238460540771484e+00,2.155844449996948242e+00,2.096355915069580078e+00,2.037684202194213867e+00,2.018037557601928711e+00,2.043241024017333984e+00,2.101078510284423828e+00,2.233569383621215820e+00,2.246395826339721680e+00,4.662395954132080078e+00,4.486576557159423828e+00,4.323535442352294922e+00,4.171928405761718750e+00,4.030593872070312500e+00,3.898521661758422852e+00,3.774830102920532227e+00,3.658746242523193359e+00,3.549588680267333984e+00,3.446756124496459961e+00,3.349713802337646484e+00,3.257986068725585938e+00,3.171148300170898438e+00,3.088819742202758789e+00,3.010657310485839844e+00,2.936353445053100586e+00,2.865628719329833984e+00,2.798230648040771484e+00,2.733930349349975586e+00,2.672518730163574219e+00,2.613805294036865234e+00,2.557616233825683594e+00,2.503792285919189453e+00,2.452187061309814453e+00,2.402665853500366211e+00,2.355105400085449219e+00,2.309391260147094727e+00,2.265418052673339844e+00,2.223088026046752930e+00,2.182311058044433594e+00,2.143002748489379883e+00,2.105085611343383789e+00,2.068486928939819336e+00,2.033139228820800781e+00,1.998979091644287109e+00,1.965948104858398438e+00,1.933990836143493652e+00,1.903056025505065918e+00,1.873095154762268066e+00,1.844063043594360352e+00
5.000000000000000000e+00,5.000000000000000000e+00,5.000000000000000000e+00,5.000000000000000000e+00,5.000000000000000000e+00,5.000000000000000000e+00,5.000000000000000000e+00,5.000000000000000000e+00,5.000000000000000000e+00,5.000000000000000000e+00,5.000000000000000000e+00,5.000000000000000000e+00,5.000000000000000000e+00,5.000000000000000000e+00,5.000000000000000000e+00,5.000000000000000000e+00,5.000000000000000000e+00,5.000000000000000000e+00,5.000000000000000000e+00,5.000000000000000000e+00,5.000000000000000000e+00,5.000000000000000000e+00,5.000000000000000000e+00,5.000000000000000000e+00,5.000000000000000000e+00,5.000000000000000000e+00,1.939102292060852051e+00,5.000000000000000000e+00,5.000000000000000000e+00,2.164770603179931641e+00,2.150712490081787109e+00,2.137295484542846680e+00,2.162542581558227539e+00,2.093945026397705078e+00,2.019055128097534180e+00,2.002286911010742188e+00,2.023150920867919922e+00,2.100904226303100586e+00,2.214998722076416016e+00,2.221883058547973633e+00,4.662524700164794922e+00,4.486695766448974609e+00,4.323645591735839844e+00,4.172031402587890625e+00,4.030689716339111328e+00,3.898611783981323242e+00,3.774914264678955078e+00,3.658825397491455078e+00,3.549663543701171875e+00,3.446826219558715820e+00,3.349780082702636719e+00,3.258049011230468750e+00,3.171207666397094727e+00,3.088876008987426758e+00,3.010711193084716797e+00,2.936404228210449219e+00,2.865677118301391602e+00,2.798277139663696289e+00,2.733974456787109375e+00,2.672560930252075195e+00,2.613845825195312500e+00,2.557655096054077148e+00,2.503829240798950195e+00,2.452222585678100586e+00,2.402699947357177734e+00,2.355138063430786133e+00,2.309422731399536133e+00,2.265448331832885742e+00,2.223117113113403320e+00,2.182339191436767578e+00,2.143029928207397461e+00,2.105111837387084961e+00,2.068512201309204102e+00,2.033163785934448242e+00,1.999002695083618164e+00,1.965970873832702637e+00,1.934012889862060547e+00,1.903077363967895508e+00,1.873115777969360352e+00,1.844083189964294434e+00
5.000000000000000000e+00,5.000000000000000000e+00,5.000000000000000000e+00,5.000000000000000000e+00,5.000000000000000000e+00,5.000000000000000000e+00,5.000000000000000000e+00,5.000000000000000000e+00,5.000000000000000000e+00,5.000000000000000000e+00,5.000000000000000000e+00,5.000000000000000000e+00,5.000000000000000000e+00,5.000000000000000000e+00,5.000000000000000000e+00,5.000000000000000000e+00,5.000000000000000000e+00,5.000000000000000000e+00,5.000000000000000000e+00,5.000000000000000000e+00,5.000000000000000000e+00,5.000000000000000000e+00,5.000000000000000000e+00,5.000000000000000000e+00,5.000000000000000000e+00,5.000000000000000000e+00,5.000000000000000000e+00,5.000000000000000000e+00,5.000000000000000000e+00,2.215070247650146484e+00,2.161876201629638672e+00,2.148320198059082031e+00,2.172404766082763672e+00,2.091539621353149414e+00,2.001729965209960938e+00,1.986062288284301758e+00,1.997291207313537598e+00,5.000000000000000000e+00,2.204910755157470703e+00,2.210395336151123047e+00,4.662652969360351562e+00,4.486814498901367188e+00,4.323756217956542969e+00,4.172134399414062500e+00,4.030786037445068359e+00,3.898701429367065430e+00,3.774998903274536133e+00,3.658904314041137695e+00,3.549737691879272461e+00,3.446896553039550781e+00,3.349846124649047852e+00,3.258111715316772461e+00,3.171267509460449219e+00,3.088932275772094727e+00,3.010764598846435547e+00,2.936455488204956055e+00,2.865725755691528320e+00,2.798323392868041992e+00,2.734018802642822266e+00,2.672603130340576172e+00,2.613886117935180664e+00,2.557693719863891602e+00,2.503866434097290039e+00,2.452257871627807617e+00,2.402734041213989258e+00,2.355170965194702148e+00,2.309454202651977539e+00,2.265478610992431641e+00,2.223146438598632812e+00,2.182367324829101562e+00,2.143057107925415039e+00,2.105138063430786133e+00,2.068537473678588867e+00,2.033188104629516602e+00,1.999026536941528320e+00,1.965993762016296387e+00,1.934035062789916992e+00,1.903098702430725098e+00,1.873136520385742188e+00,1.844103217124938965e+00
5.000000000000000000e+00,5.000000000000000000e+00,5.000000000000000000e+00,5.000000000000000000e+00,5.000000000000000000e+00,5.000000000000000000e+00,5.000000000000000000e+00,5.000000000000000000e+00,5.000000000000000000e+00,5.000000000000000000e+00,5.000000000000000000e+00,5.000000000000000000e+00,5.000000000000000000e+00,5.000000000000000000e+00,5.000000000000000000e+00,5.000000000000000000e+00,5.000000000000000000e+00,5.000000000000000000e+00,5.000000000000000000e+00,5.000000000000000000e+00,5.000000000000000000e+00,5.000000000000000000e+00,5.000000000000000000e+00,5.000000000000000000e+00,5.000000000000000000e+00,5.000000000000000000e+00,5.000000000000000000e+00,5.000000000000000000e+00,5.000000000000000000e+00,5.000000000000000000e+00,2.174371480941772461e+00,2.159459114074707031e+00,2.181025981903076172e+00,2.258280038833618164e+00,1.980288386344909668e+00,1.969403743743896484e+00,1.972752213478088379e+00,5.000000000000000000e+00,5.000000000000000000e+00,2.196011543273925781e+00,4.662781715393066406e+00,4.486933231353759766e+00,4.323866844177246094e+00,4.172237396240234375e+00,4.030881881713867188e+00,3.898791313171386719e+00,3.775082826614379883e+00,3.658983707427978516e+00,3.549812078475952148e+00,3.446966648101806641e+00,3.349912881851196289e+00,3.258174419403076172e+00,3.171326637268066406e+00,3.088988780975341797e+00,3.010818004608154297e+00,2.936506271362304688e+00,2.865774393081665039e+00,2.798369646072387695e+00,2.734062910079956055e+00,2.672645330429077148e+00,2.613926649093627930e+00,2.557732343673706055e+00,2.503903388977050781e+00,2.452293634414672852e+00,2.402768135070800781e+00,2.355203866958618164e+00,2.309485912322998047e+00,2.265508890151977539e+00,2.223175764083862305e+00,2.182395458221435547e+00,2.143084287643432617e+00,2.105164289474487305e+00,2.068562746047973633e+00,2.033212423324584961e+00,1.999050021171569824e+00,1.966016769409179688e+00,1.934057354927062988e+00,1.903120160102844238e+00,1.873157262802124023e+00,1.844123244285583496e+00
5.000000000000000000e+00,5.000000000000000000e+00,5.000000000000000000e+00,5.000000000000000000e+00,5.000000000000000000e+00,5.000000000000000000e+00,5.000000000000000000e+00,5.000000000000000000e+00,5.000000000000000000e+00,5.000000000000000000e+00,5.000000000000000000e+00,5.000000000000000000e+00,5.000000000000000000e+00,5.000000000000000000e+00,5.000000000000000000e+00,5.000000000000000000e+00,5.000000000000000000e+00,5.000000000000000000e+00,5.000000000000000000e+00,5.000000000000000000e+00,5.000000000000000000e+00,5.000000000000000000e+00,5.000000000000000000e+00,5.000000000000000000e+00,5.000000000000000000e+00,5.000000000000000000e+00,5.000000000000000000e+00,5.000000000000000000e+00,5.000000000000000000e+00,5.000000000000000000e+00,2.186819076538085938e+00,2.170996189117431641e+00,2.189205169677734375e+00,2.262162208557128906e+00,1.959440708160400391e+00,1.950893759727478027e+00,1.955314636230468750e+00,5.000000000000000000e+00,5.000000000000000000e+00,4.853114128112792969e+00,4.662909984588623047e+00,4.487052440643310547e+00,4.323977470397949219e+00,4.172340393066406250e+00,4.030978202819824219e+00,3.898881435394287109e+00,3.775166988372802734e+00,3.659062623977661133e+00,3.549886941909790039e+00,3.447036743164062500e+00,3.349978923797607422e+00,3.258237361907958984e+00,3.171386003494262695e+00,3.089045047760009766e+00,3.010871887207031250e+00,2.936557292938232422e+00,2.865822792053222656e+00,2.798415899276733398e+00,2.734107017517089844e+00,2.672687530517578125e+00,2.613966941833496094e+00,2.557771205902099609e+00,2.503940343856811523e+00,2.452329158782958984e+00,2.402802467346191406e+00,2.355236530303955078e+00,2.309517383575439453e+00,2.265539407730102539e+00,2.223204851150512695e+00,2.182423591613769531e+00,2.143111467361450195e+00,2.105190515518188477e+00,2.068588018417358398e+00,2.033236980438232422e+00,1.999073624610900879e+00,1.966039538383483887e+00,1.934079408645629883e+00,1.903141736984252930e+00,1.873178005218505859e+00,1.844143390655517578e+00
5.000000000000000000e+00,5.000000000000000000e+00,5.000000000000000000e+00,5.000000000000000000e+00,5.000000000000000000e+00,5.000000000000000000e+00,5.000000000000000000e+00,5.000000000000000000e+00,5.000000000000000000e+00,5.000000000000000000e+00,5.000000000000000000e+00,5.000000000000000000e+00,5.000000000000000000e+00,5.000000000000000000e+00,5.000000000000000000e+00,5.000000000000000000e+00,5.000000000000000000e+00,5.000000000000000000e+00,5.000000000000000000e+00,5.000000000000000000e+00,5.000000000000000000e+00,5.000000000000000000e+00,5.000000000000000000e+00,5.000000000000000000e+00,5.000000000000000000e+00,5.000000000000000000e+00,5.000000000000000000e+00,5.000000000000000000e+00,5.000000000000000000e+00,5.000000000000000000e+00,2.196380853652954102e+00,2.179331064224243164e+00,2.197935819625854492e+00,2.256496667861938477e+00,1.954370617866516113e+00,1.941448450088500977e+00,1.945151090621948242e+00,5.000000000000000000e+00,5.000000000000000000e+00,4.853253841400146484e+00,4.663038253784179688e+00,4.487171649932861328e+00,4.324088096618652344e+00,4.172443389892578125e+00,4.031074047088623047e+00,3.898971080780029297e+00,3.775251388549804688e+00,3.659141778945922852e+00,3.549961328506469727e+00,3.447107315063476562e+00,3.350045204162597656e+00,3.258300065994262695e+00,3.171445846557617188e+00,3.089101552963256836e+00,3.010925292968750000e+00,2.936608314514160156e+00,2.865871191024780273e+00,2.798462152481079102e+00,2.734151363372802734e+00,2.672729969024658203e+00,2.614007234573364258e+00,2.557809829711914062e+00,2.503977537155151367e+00,2.452364683151245117e+00,2.402836561203002930e+00,2.355269432067871094e+00,2.309548854827880859e+00,2.265569686889648438e+00,2.223234176635742188e+00,2.182451725006103516e+00,2.143138647079467773e+00,2.105216741561889648e+00,2.068613290786743164e+00,2.033261299133300781e+00,1.999097228050231934e+00,1.966062426567077637e+00,1.934101462364196777e+00,1.903163075447082520e+00,1.873198866844177246e+00,1.844163417816162109e+00
5.000000000000000000e+00,5.000000000000000000e+00,5.000000000000000000e+00,5.000000000000000000e+00,5.000000000000000000e+00,5.000000000000000000e+00,5.000000000000000000e+00,5.000000000000000000e+00,5.000000000000000000e+00,5.000000000000000000e+00,5.000000000000000000e+00,5.000000000000000000e+00,5.000000000000000000e+00,5.000000000000000000e+00,5.000000000000000000e+00,5.000000000000000000e+00,5.000000000000000000e+00,5.000000000000000000e+00,5.000000000000000000e+00,5.000000000000000000e+00,5.000000000000000000e+00,5.000000000000000000e+00,5.000000000000000000e+00,5.000000000000000000e+00,5.000000000000000000e+00,5.000000000000000000e+00,5.000000000000000000e+00,5.000000000000000000e+00,5.000000000000000000e+00,5.000000000000000000e+00,2.213613748550415039e+00,2.187718152999877930e+00,2.205208063125610352e+00,2.257193088531494141e+00,1.963068962097167969e+00,1.945658445358276367e+00,1.949125289916992188e+00,5.000000000000000000e+00,5.000000000000000000e+00,4.853393077850341797e+00,4.663166999816894531e+00,4.487290382385253906e+00,4.324198722839355469e+00,4.172545909881591797e+00,4.031170368194580078e+00,3.899060726165771484e+00,3.775335550308227539e+00,3.659221172332763672e+00,3.550035715103149414e+00,3.447177410125732422e+00,3.350111722946166992e+00,3.258362531661987305e+00,3.171505212783813477e+00,3.089158058166503906e+00,3.010978698730468750e+00,2.936659336090087891e+00,2.865920066833496094e+00,2.798508405685424805e+00,2.734195470809936523e+00,2.672772169113159180e+00,2.614047765731811523e+00,2.557848453521728516e+00,2.504014730453491211e+00,2.452400207519531250e+00,2.402870655059814453e+00,2.355302095413208008e+00,2.309580326080322266e+00,2.265599966049194336e+00,2.223263263702392578e+00,2.182479858398437500e+00,2.143165588378906250e+00,2.105242967605590820e+00,2.068638801574707031e+00,2.033285856246948242e+00,1.999120831489562988e+00,1.966085195541381836e+00,1.934123516082763672e+00,1.903184413909912109e+00,1.873219609260559082e+00,1.844183683395385742e+00
5.000000000000000000e+00,5.000000000000000000e+00,5.000000000000000000e+00,5.000000000000000000e+00,5.000000000000000000e+00,5.000000000000000000e+00,5.000000000000000000e+00,5.000000000000000000e+00,5.000000000000000000e+00,5.000000000000000000e+00,5.000000000000000000e+00,5.000000000000000000e+00,5.000000000000000000e+00,5.000000000000000000e+00,5.000000000000000000e+00,5.000000000000000000e+00,5.000000000000000000e+00,5.000000000000000000e+00,5.000000000000000000e+00,5.000000000000000000e+00,5.000000000000000000e+00,5.000000000000000000e+00,5.000000000000000000e+00,5.000000000000000000e+00,5.000000000000000000e+00,5.000000000000000000e+00,5.000000000000000000e+00,5.000000000000000000e+00,5.000000000000000000e+00,5.000000000000000000e+00,5.000000000000000000e+00,2.196169853210449219e+00,2.211316823959350586e+00,2.265282392501831055e+00,1.983427762985229492e+00,1.953637599945068359e+00,1.960028290748596191e+00,5.000000000000000000e+00,5.000000000000000000e+00,4.853531837463378906e+00,4.663295745849609375e+00,4.487409591674804688e+00,4.324309349060058594e+00,4.172648906707763672e+00,4.031266212463378906e+00,3.899151086807250977e+00,3.775419712066650391e+00,3.659300088882446289e+00,3.550110340118408203e+00,3.447247505187988281e+00,3.350178003311157227e+00,3.258425474166870117e+00,3.171564340591430664e+00,3.089214324951171875e+00,3.011032581329345703e+00,2.936710119247436523e+00,2.865968465805053711e+00,2.798554897308349609e+00,2.734239816665649414e+00,2.672814130783081055e+00,2.614088058471679688e+00,2.557887077331542969e+00,2.504051685333251953e+00,2.452435731887817383e+00,2.402904748916625977e+00,2.355334997177124023e+00,2.309611797332763672e+00,2.265630245208740234e+00,2.223292350769042969e+00,2.182507991790771484e+00,2.143193006515502930e+00,2.105268955230712891e+00,2.068664073944091797e+00,2.033310413360595703e+00,1.999144673347473145e+00,1.966107964515686035e+00,1.934145569801330566e+00,1.903205871582031250e+00,1.873240232467651367e+00,1.844203710556030273e+00
5.000000000000000000e+00,5.000000000000000000e+00,5.000000000000000000e+00,5.000000000000000000e+00,5.000000000000000000e+00,5.000000000000000000e+00,5.000000000000000000e+00,5.000000000000000000e+00,5.000000000000000000e+00,5.000000000000000000e+00,5.000000000000000000e+00,5.000000000000000000e+00,5.000000000000000000e+00,5.000000000000000000e+00,5.000000000000000000e+00,5.000000000000000000e+00,5.000000000000000000e+00,5.000000000000000000e+00,5.000000000000000000e+00,5.000000000000000000e+00,5.000000000000000000e+00,5.000000000000000000e+00,5.000000000000000000e+00,5.000000000000000000e+00,5.000000000000000000e+00,5.000000000000000000e+00,5.000000000000000000e+00,5.000000000000000000e+00,5.000000000000000000e+00,5.000000000000000000e+00,5.000000000000000000e+00,2.209783315658569336e+00,2.221634149551391602e+00,2.281461238861083984e+00,2.003146886825561523e+00,1.964908361434936523e+00,1.969255685806274414e+00,2.013152360916137695e+00,5.000000000000000000e+00,4.853671550750732422e+00,4.663424491882324219e+00,4.487528800964355469e+00,4.324419498443603516e+00,4.172751903533935547e+00,4.031362056732177734e+00,3.899240732192993164e+00,3.775504350662231445e+00,3.659379243850708008e+00,3.550184726715087891e+00,3.447318077087402344e+00,3.350244283676147461e+00,3.258488178253173828e+00,3.171624183654785156e+00,3.089270591735839844e+00,3.011085987091064453e+00,2.936761379241943359e+00,2.866017103195190430e+00,2.798601150512695312e+00,2.734283924102783203e+00,2.672856569290161133e+00,2.614128351211547852e+00,2.557925701141357422e+00,2.504088878631591797e+00,2.452471256256103516e+00,2.402938842773437500e+00,2.355367898941040039e+00,2.309643268585205078e+00,2.265660524368286133e+00,2.223321676254272461e+00,2.182536125183105469e+00,2.143219947814941406e+00,2.105295419692993164e+00,2.068689346313476562e+00,2.033334732055664062e+00,1.999168276786804199e+00,1.966131091117858887e+00,1.934167623519897461e+00,1.903227210044860840e+00,1.873260974884033203e+00,1.844223856925964355e+00
5.000000000000000000e+00,5.000000000000000000e+00,5.000000000000000000e+00,5.000000000000000000e+00,5.000000000000000000e+00,5.000000000000000000e+00,5.000000000000000000e+00,5.000000000000000000e+00,5.000000000000000000e+00,5.000000000000000000e+00,5.000000000000000000e+00,5.000000000000000000e+00,5.000000000000000000e+00,5.000000000000000000e+00,5.000000000000000000e+00,5.000000000000000000e+00,5.000000000000000000e+00,5.000000000000000000e+00,5.000000000000000000e+00,5.000000000000000000e+00,5.000000000000000000e+00,5.000000000000000000e+00,5.000000000000000000e+00,5.000000000000000000e+00,5.000000000000000000e+00,5.000000000000000000e+00,5.000000000000000000e+00,5.000000000000000000e+00,5.000000000000000000e+00,5.000000000000000000e+00,5.000000000000000000e+00,2.248784303665161133e+00,2.251806735992431641e+00,2.323433876037597656e+00,2.020411491394042969e+00,1.978257060050964355e+00,1.973044991493225098e+00,2.012925624847412109e+00,5.000000000000000000e+00,4.853810787200927734e+00,4.663552761077880859e+00,4.487648010253906250e+00,4.324530124664306641e+00,4.172854900360107422e+00,4.031458377838134766e+00,3.899330377578735352e+00,3.775588274002075195e+00,3.659458637237548828e+00,3.550259113311767578e+00,3.447388172149658203e+00,3.350310802459716797e+00,3.258550882339477539e+00,3.171683549880981445e+00,3.089327335357666016e+00,3.011139631271362305e+00,2.936812162399291992e+00,2.866065740585327148e+00,2.798647642135620117e+00,2.734328031539916992e+00,2.672898769378662109e+00,2.614168882369995117e+00,2.557964324951171875e+00,2.504125833511352539e+00,2.452507019042968750e+00,2.402972936630249023e+00,2.355400562286376953e+00,2.309674978256225586e+00,2.265690803527832031e+00,2.223351001739501953e+00,2.182564496994018555e+00,2.143247127532958984e+00,2.105321407318115234e+00,2.068714618682861328e+00,2.033359289169311523e+00,1.999191761016845703e+00,1.966153860092163086e+00,1.934189915657043457e+00,1.903248548507690430e+00,1.873281717300415039e+00,1.844243884086608887e+00
5.000000000000000000e+00,5.000000000000000000e+00,5.000000000000000000e+00,5.000000000000000000e+00,5.000000000000000000e+00,5.000000000000000000e+00,5.000000000000000000e+00,5.000000000000000000e+00,5.000000000000000000e+00,5.000000000000000000e+00,5.000000000000000000e+00,5.000000000000000000e+00,5.000000000000000000e+00,5.000000000000000000e+00,5.000000000000000000e+00,5.000000000000000000e+00,5.000000000000000000e+00,5.000000000000000000e+00,5.000000000000000000e+00,5.000000000000000000e+00,5.000000000000000000e+00,5.000000000000000000e+00,5.000000000000000000e+00,5.000000000000000000e+00,5.000000000000000000e+00,5.000000000000000000e+00,5.000000000000000000e+00,5.000000000000000000e+00,5.000000000000000000e+00,5.000000000000000000e+00,5.000000000000000000e+00,2.290347814559936523e+00,2.283717155456542969e+00,2.360727071762084961e+00,2.025461912155151367e+00,1.976273417472839355e+00,1.966957926750183105e+00,2.011126756668090820e+00,5.000000000000000000e+00,4.853948593139648438e+00,4.663681507110595703e+00,4.487766742706298828e+00,4.324640750885009766e+00,4.172957897186279297e+00,4.031554222106933594e+00,3.899420499801635742e+00,3.775672435760498047e+00,3.659537553787231445e+00,3.550333738327026367e+00,3.447458267211914062e+00,3.350377082824707031e+00,3.258613824844360352e+00,3.171742916107177734e+00,3.089383602142333984e+00,3.011193275451660156e+00,2.936863422393798828e+00,2.866114139556884766e+00,2.798693656921386719e+00,2.734372377395629883e+00,2.672940969467163086e+00,2.614209413528442383e+00,2.558003187179565430e+00,2.504162788391113281e+00,2.452542304992675781e+00,2.403007268905639648e+00,2.355433225631713867e+00,2.309706449508666992e+00,2.265721321105957031e+00,2.223380088806152344e+00,2.182592391967773438e+00,2.143274307250976562e+00,2.105347871780395508e+00,2.068739891052246094e+00,2.033383607864379883e+00,1.999215364456176758e+00,1.966176629066467285e+00,1.934212088584899902e+00,1.903270125389099121e+00,1.873302340507507324e+00,1.844263911247253418e+00
5.000000000000000000e+00,5.000000000000000000e+00,5.000000000000000000e+00,5.000000000000000000e+00,5.000000000000000000e+00,5.000000000000000000e+00,5.000000000000000000e+00,5.000000000000000000e+00,5.000000000000000000e+00,5.000000000000000000e+00,5.000000000000000000e+00,5.000000000000000000e+00,5.000000000000000000e+00,5.000000000000000000e+00,5.000000000000000000e+00,5.000000000000000000e+00,5.000000000000000000e+00,5.000000000000000000e+00,5.000000000000000000e+00,5.000000000000000000e+00,5.000000000000000000e+00,5.000000000000000000e+00,5.000000000000000000e+00,5.000000000000000000e+00,5.000000000000000000e+00,5.000000000000000000e+00,5.000000000000000000e+00,5.000000000000000000e+00,5.000000000000000000e+00,5.000000000000000000e+00,5.000000000000000000e+00,2.318463325500488281e+00,2.314973592758178711e+00,2.360084533691406250e+00,2.027529716491699219e+00,1.973769664764404297e+00,1.960908055305480957e+00,2.009052038192749023e+00,5.000000000000000000e+00,4.854086399078369141e+00,4.663810253143310547e+00,4.487885951995849609e+00,4.324751377105712891e+00,4.173060894012451172e+00,4.031650543212890625e+00,3.899510383605957031e+00,3.775757074356079102e+00,3.659616708755493164e+00,3.550408124923706055e+00,3.447528839111328125e+00,3.350443363189697266e+00,3.258676528930664062e+00,3.171802520751953125e+00,3.089439868927001953e+00,3.011246919631958008e+00,2.936914205551147461e+00,2.866162776947021484e+00,2.798739910125732422e+00,2.734416484832763672e+00,2.672983407974243164e+00,2.614249706268310547e+00,2.558041810989379883e+00,2.504199981689453125e+00,2.452577829360961914e+00,2.403041362762451172e+00,2.355466127395629883e+00,2.309737920761108398e+00,2.265751600265502930e+00,2.223409414291381836e+00,2.182620525360107422e+00,2.143301486968994141e+00,2.105373859405517578e+00,2.068765163421630859e+00,2.033407926559448242e+00,1.999238967895507812e+00,1.966199517250061035e+00,1.934234142303466797e+00,1.903291583061218262e+00,1.873323321342468262e+00,1.844284057617187500e+00
5.000000000000000000e+00,5.000000000000000000e+00,5.000000000000000000e+00,5.000000000000000000e+00,5.000000000000000000e+00,5.000000000000000000e+00,5.000000000000000000e+00,5.000000000000000000e+00,5.000000000000000000e+00,5.000000000000000000e+00,5.000000000000000000e+00,5.000000000000000000e+00,5.000000000000000000e+00,5.000000000000000000e+00,5.000000000000000000e+00,5.000000000000000000e+00,5.000000000000000000e+00,5.000000000000000000e+00,5.000000000000000000e+00,5.000000000000000000e+00,5.000000000000000000e+00,5.000000000000000000e+00,5.000000000000000000e+00,5.000000000000000000e+00,5.000000000000000000e+00,5.000000000000000000e+00,5.000000000000000000e+00,5.000000000000000000e+00,5.000000000000000000e+00,5.000000000000000000e+00,5.000000000000000000e+00,2.338804960250854492e+00,2.327975988388061523e+00,2.364325761795043945e+00,5.000000000000000000e+00,1.970515608787536621e+00,1.954895496368408203e+00,2.007448673248291016e+00,5.000000000000000000e+00,4.854223728179931641e+00,4.663936138153076172e+00,4.488005161285400391e+00,4.324862003326416016e+00,4.173163414001464844e+00,4.031746864318847656e+00,3.899600028991699219e+00,3.775841236114501953e+00,3.659696102142333984e+00,3.550482511520385742e+00,3.447598934173583984e+00,3.350509881973266602e+00,3.258739233016967773e+00,3.171861886978149414e+00,3.089496612548828125e+00,3.011300563812255859e+00,2.936965227127075195e+00,2.866211414337158203e+00,2.798786401748657227e+00,2.734460592269897461e+00,2.673025369644165039e+00,2.614290237426757812e+00,2.558080434799194336e+00,2.504236936569213867e+00,2.452613592147827148e+00,2.403075456619262695e+00,2.355499029159545898e+00,2.309769630432128906e+00,2.265781879425048828e+00,2.223438501358032227e+00,2.182648897171020508e+00,2.143328666687011719e+00,2.105400085449218750e+00,2.068790435791015625e+00,2.033432483673095703e+00,1.999262571334838867e+00,1.966222286224365234e+00,1.934256196022033691e+00,1.903312921524047852e+00,1.873344063758850098e+00,1.844304323196411133e+00
5.000000000000000000e+00,5.000000000000000000e+00,5.000000000000000000e+00,5.000000000000000000e+00,5.000000000000000000e+00,5.000000000000000000e+00,5.000000000000000000e+00,5.000000000000000000e+00,5.000000000000000000e+00,5.000000000000000000e+00,5.000000000000000000e+00,5.000000000000000000e+00,5.000000000000000000e+00,5.000000000000000000e+00,5.000000000000000000e+00,5.000000000000000000e+00,5.000000000000000000e+00,5.000000000000000000e+00,5.000000000000000000e+00,5.000000000000000000e+00,5.000000000000000000e+00,5.000000000000000000e+00,5.000000000000000000e+00,5.000000000000000000e+00,5.000000000000000000e+00,5.000000000000000000e+00,5.000000000000000000e+00,5.000000000000000000e+00,5.000000000000000000e+00,5.000000000000000000e+00,5.000000000000000000e+00,2.372878074645996094e+00,2.341125249862670898e+00,2.372697114944458008e+00,5.000000000000000000e+00,1.967598915100097656e+00,1.951240897178649902e+00,2.005848169326782227e+00,5.000000000000000000e+00,4.854361534118652344e+00,4.664062976837158203e+00,4.488122463226318359e+00,4.324972629547119141e+00,4.173266410827636719e+00,4.031842708587646484e+00,3.899690151214599609e+00,3.775925397872924805e+00,3.659775018692016602e+00,3.550557374954223633e+00,3.447669029235839844e+00,3.350576162338256836e+00,3.258802175521850586e+00,3.171921491622924805e+00,3.089552879333496094e+00,3.011354207992553711e+00,2.937016248703002930e+00,2.866259813308715820e+00,2.798832654953002930e+00,2.734504938125610352e+00,2.673067569732666016e+00,2.614330530166625977e+00,2.558119297027587891e+00,2.504274129867553711e+00,2.452649116516113281e+00,2.403109550476074219e+00,2.355531692504882812e+00,2.309801101684570312e+00,2.265812397003173828e+00,2.223467826843261719e+00,2.182677030563354492e+00,2.143355846405029297e+00,2.105426311492919922e+00,2.068815708160400391e+00,2.033457040786743164e+00,1.999286413192749023e+00,1.966245055198669434e+00,1.934278249740600586e+00,1.903334259986877441e+00,1.873364686965942383e+00,1.844324350357055664e+00
5.000000000000000000e+00,5.000000000000000000e+00,5.000000000000000000e+00,5.000000000000000000e+00,5.000000000000000000e+00,5.000000000000000000e+00,5.000000000000000000e+00,5.000000000000000000e+00,5.000000000000000000e+00,5.000000000000000000e+00,5.000000000000000000e+00,5.000000000000000000e+00,5.000000000000000000e+00,5.000000000000000000e+00,5.000000000000000000e+00,5.000000000000000000e+00,5.000000000000000000e+00,5.000000000000000000e+00,5.000000000000000000e+00,5.000000000000000000e+00,5.000000000000000000e+00,5.000000000000000000e+00,5.000000000000000000e+00,5.000000000000000000e+00,5.000000000000000000e+00,5.000000000000000000e+00,5.000000000000000000e+00,5.000000000000000000e+00,5.000000000000000000e+00,5.000000000000000000e+00,5.000000000000000000e+00,2.410076141357421875e+00,2.354331493377685547e+00,2.387005090713500977e+00,5.000000000000000000e+00,1.965542554855346680e+00,1.955622076988220215e+00,2.005954980850219727e+00,5.000000000000000000e+00,4.854499340057373047e+00,4.664190292358398438e+00,4.488240242004394531e+00,4.325081825256347656e+00,4.173369407653808594e+00,4.031938552856445312e+00,3.899780035018920898e+00,3.776009798049926758e+00,3.659854173660278320e+00,3.550631761550903320e+00,3.447739601135253906e+00,3.350642442703247070e+00,3.258864879608154297e+00,3.171980857849121094e+00,3.089609384536743164e+00,3.011407613754272461e+00,2.937067270278930664e+00,2.866308450698852539e+00,2.798878908157348633e+00,2.734549045562744141e+00,2.673110008239746094e+00,2.614370822906494141e+00,2.558157920837402344e+00,2.504311323165893555e+00,2.452684640884399414e+00,2.403143644332885742e+00,2.355564594268798828e+00,2.309832572937011719e+00,2.265842676162719727e+00,2.223497152328491211e+00,2.182705163955688477e+00,2.143383026123046875e+00,2.105452537536621094e+00,2.068841218948364258e+00,2.033481359481811523e+00,1.999310016632080078e+00,1.966268181800842285e+00,1.934300303459167480e+00,1.903355717658996582e+00,1.873385429382324219e+00,1.844344377517700195e+00
5.000000000000000000e+00,5.000000000000000000e+00,5.000000000000000000e+00,5.000000000000000000e+00,5.000000000000000000e+00,5.000000000000000000e+00,5.000000000000000000e+00,5.000000000000000000e+00,5.000000000000000000e+00,5.000000000000000000e+00,5.000000000000000000e+00,5.000000000000000000e+00,5.000000000000000000e+00,5.000000000000000000e+00,5.000000000000000000e+00,5.000000000000000000e+00,5.000000000000000000e+00,5.000000000000000000e+00,5.000000000000000000e+00,5.000000000000000000e+00,5.000000000000000000e+00,5.000000000000000000e+00,5.000000000000000000e+00,5.000000000000000000e+00,5.000000000000000000e+00,5.000000000000000000e+00,5.000000000000000000e+00,5.000000000000000000e+00,5.000000000000000000e+00,5.000000000000000000e+00,5.000000000000000000e+00,5.000000000000000000e+00,2.385985136032104492e+00,2.403255462646484375e+00,5.000000000000000000e+00,1.963888645172119141e+00,1.960583567619323730e+00,2.006237983703613281e+00,5.000000000000000000e+00,4.854636669158935547e+00,4.664317131042480469e+00,4.488357543945312500e+00,4.325191020965576172e+00,4.173472404479980469e+00,4.032034873962402344e+00,3.899869680404663086e+00,3.776093959808349609e+00,3.659933567047119141e+00,3.550706148147583008e+00,3.447809696197509766e+00,3.350708961486816406e+00,3.258927822113037109e+00,3.172040224075317383e+00,3.089665889739990234e+00,3.011461496353149414e+00,2.937118053436279297e+00,2.866357088088989258e+00,2.798925399780273438e+00,2.734593152999877930e+00,2.673152208328247070e+00,2.614411354064941406e+00,2.558196544647216797e+00,2.504348278045654297e+00,2.452720165252685547e+00,2.403177738189697266e+00,2.355597257614135742e+00,2.309864282608032227e+00,2.265873193740844727e+00,2.223526239395141602e+00,2.182733297348022461e+00,2.143410205841064453e+00,2.105478763580322266e+00,2.068866491317749023e+00,2.033505916595458984e+00,1.999333620071411133e+00,1.966290950775146484e+00,1.934322714805603027e+00,1.903377056121826172e+00,1.873406171798706055e+00,1.844364523887634277e+00
4.871716022491455078e+00,4.870494842529296875e+00,4.869274139404296875e+00,4.868054866790771484e+00,4.866835117340087891e+00,4.865616798400878906e+00,4.864398479461669922e+00,4.863181114196777344e+00,4.861964225769042969e+00,4.860748291015625000e+00,4.859532356262207031e+00,4.858317375183105469e+00,4.857102870941162109e+00,4.855889320373535156e+00,4.854676246643066406e+00,4.853463649749755859e+00,4.852252006530761719e+00,4.851040363311767578e+00,4.849829673767089844e+00,4.848619461059570312e+00,4.847409725189208984e+00,4.846201419830322266e+00,4.844992637634277344e+00,4.843784809112548828e+00,4.842577934265136719e+00,4.841371059417724609e+00,4.840165138244628906e+00,4.838960170745849609e+00,4.837755203247070312e+00,4.836551189422607422e+00,4.835347652435302734e+00,4.834144592285156250e+00,2.407462358474731445e+00,2.419728517532348633e+00,4.830539226531982422e+00,1.964268088340759277e+00,1.958627820014953613e+00,2.006520748138427734e+00,4.825740814208984375e+00,4.824542522430419922e+00,4.664444446563720703e+00,4.488475322723388672e+00,4.325300693511962891e+00,4.173573493957519531e+00,4.032131195068359375e+00,3.899960041046142578e+00,3.776178121566772461e+00,3.660012722015380859e+00,3.550781011581420898e+00,3.447879791259765625e+00,3.350775241851806641e+00,3.258990526199340820e+00,3.172100067138671875e+00,3.089722156524658203e+00,3.011514902114868164e+00,2.937169313430786133e+00,2.866405487060546875e+00,2.798971652984619141e+00,2.734637498855590820e+00,2.673194408416748047e+00,2.614451646804809570e+00,2.558235168457031250e+00,2.504385232925415039e+00,2.452755689620971680e+00,2.403212070465087891e+00,2.355630159378051758e+00,2.309895753860473633e+00,2.265903472900390625e+00,2.223555564880371094e+00,2.182761430740356445e+00,2.143437385559082031e+00,2.105504989624023438e+00,2.068891525268554688e+00,2.033530235290527344e+00,1.999357104301452637e+00,1.966313719749450684e+00,1.934344768524169922e+00,1.903398633003234863e+00,1.873426914215087891e+00,1.844384551048278809e+00
3.776580572128295898e+00,3.775846719741821289e+00,3.775113105773925781e+00,3.774379730224609375e+00,3.773646593093872070e+00,3.772914171218872070e+00,3.772181749343872070e+00,3.771449565887451172e+00,3.770717620849609375e+00,3.769985914230346680e+00,3.769254446029663086e+00,3.768523931503295898e+00,3.767793178558349609e+00,3.767062664031982422e+00,3.766332387924194336e+00,3.765602350234985352e+00,3.764873266220092773e+00,3.764143705368041992e+00,3.763414621353149414e+00,3.762685775756835938e+00,3.761957168579101562e+00,3.761229515075683594e+00,3.760501384735107422e+00,3.759773731231689453e+00,3.759046316146850586e+00,3.758319139480590820e+00,3.757592439651489258e+00,3.756866216659545898e+00,3.756139993667602539e+00,3.755414009094238281e+00,3.754688262939453125e+00,3.753962755203247070e+00,2.458619594573974609e+00,2.449080705642700195e+00,3.751788377761840820e+00,1.999125719070434570e+00,1.970360279083251953e+00,3.749616622924804688e+00,3.748893260955810547e+00,3.748170137405395508e+00,3.747447013854980469e+00,3.746724367141723633e+00,3.746001958847045898e+00,3.745280504226684570e+00,3.744558572769165039e+00,3.743837118148803711e+00,3.743115901947021484e+00,3.660091638565063477e+00,3.550855398178100586e+00,3.447950363159179688e+00,3.350841760635375977e+00,3.259053230285644531e+00,3.172159433364868164e+00,3.089778661727905273e+00,3.011568546295166016e+00,2.937220096588134766e+00,2.866454124450683594e+00,2.799017906188964844e+00,2.734681606292724609e+00,2.673236608505249023e+00,2.614491939544677734e+00,2.558273792266845703e+00,2.504422426223754883e+00,2.452791213989257812e+00,2.403246164321899414e+00,2.355663061141967773e+00,2.309927225112915039e+00,2.265933752059936523e+00,2.223584890365600586e+00,2.182789802551269531e+00,2.143464326858520508e+00,2.105531215667724609e+00,2.068917036056518555e+00,2.033554553985595703e+00,1.999380707740783691e+00,1.966336607933044434e+00,1.934366822242736816e+00,1.903419971466064453e+00,1.873447775840759277e+00,1.844404697418212891e+00
3.083439826965332031e+00,3.082950592041015625e+00,3.082461357116699219e+00,3.081972837448120117e+00,3.081483840942382812e+00,3.080995321273803711e+00,3.080506801605224609e+00,3.080018520355224609e+00,3.079530477523803711e+00,3.079042434692382812e+00,3.078554630279541016e+00,3.078066825866699219e+00,3.077579259872436523e+00,3.077092170715332031e+00,3.076605081558227539e+00,3.076117992401123047e+00,3.075630903244018555e+00,3.075144052505493164e+00,3.074657440185546875e+00,3.074171304702758789e+00,3.073684930801391602e+00,3.073198795318603516e+00,3.072712659835815430e+00,3.072227001190185547e+00,3.071741342544555664e+00,3.071255922317504883e+00,3.070770502090454102e+00,3.070285320281982422e+00,3.069800138473510742e+00,3.069315433502197266e+00,3.068830728530883789e+00,3.068346023559570312e+00,2.434962511062622070e+00,2.406817436218261719e+00,3.066893100738525391e+00,1.980732083320617676e+00,1.952900648117065430e+00,3.065441846847534180e+00,3.064958095550537109e+00,3.064474821090698242e+00,3.063991785049438477e+00,3.063508749008178711e+00,3.063025712966918945e+00,3.062542915344238281e+00,3.062060356140136719e+00,3.061578035354614258e+00,3.061095714569091797e+00,3.060613393783569336e+00,3.060131311416625977e+00,3.059649467468261719e+00,3.059167861938476562e+00,3.058686494827270508e+00,3.058204889297485352e+00,3.057723760604858398e+00,3.011622190475463867e+00,2.937271118164062500e+00,2.866502761840820312e+00,2.799064397811889648e+00,2.734725713729858398e+00,2.673278808593750000e+00,2.614532470703125000e+00,2.558312416076660156e+00,2.504459381103515625e+00,2.452826976776123047e+00,2.403280258178710938e+00,2.355695724487304688e+00,2.309958934783935547e+00,2.265964269638061523e+00,2.223613977432250977e+00,2.182817935943603516e+00,2.143491744995117188e+00,2.105557203292846680e+00,2.068942308425903320e+00,2.033579111099243164e+00,1.999404311180114746e+00,1.966359376907348633e+00,1.934388875961303711e+00,1.903441429138183594e+00,1.873468518257141113e+00,1.844424962997436523e+00
2.605276346206665039e+00,2.604927062988281250e+00,2.604577779769897461e+00,2.604228734970092773e+00,2.603879690170288086e+00,2.603530883789062500e+00,2.603182077407836914e+00,2.602833509445190430e+00,2.602484703063964844e+00,2.602136135101318359e+00,2.601787805557250977e+00,2.601439714431762695e+00,2.601091384887695312e+00,2.600743055343627930e+00,2.600395202636718750e+00,2.600047111511230469e+00,2.599699497222900391e+00,2.599351644515991211e+00,2.599003791809082031e+00,2.598656177520751953e+00,2.598308801651000977e+00,2.597961425781250000e+00,2.597614049911499023e+00,2.597266912460327148e+00,2.596919775009155273e+00,2.596572637557983398e+00,2.596225738525390625e+00,2.595879077911376953e+00,2.595532417297363281e+00,2.595185518264770508e+00,2.594839096069335938e+00,2.594492435455322266e+00,2.377738952636718750e+00,2.362938165664672852e+00,2.593453884124755859e+00,1.947842359542846680e+00,1.872741103172302246e+00,1.922491788864135742e+00,2.592070102691650391e+00,2.591724157333374023e+00,2.591378450393676758e+00,2.591032981872558594e+00,2.590687513351440430e+00,2.590342283248901367e+00,2.589997053146362305e+00,2.589651823043823242e+00,2.589306592941284180e+00,2.588961601257324219e+00,2.588616847991943359e+00,2.588272094726562500e+00,2.587927341461181641e+00,2.587582588195800781e+00,2.587238073348999023e+00,2.586893796920776367e+00,2.586549520492553711e+00,2.586205244064331055e+00,2.585860967636108398e+00,2.585516929626464844e+00,2.585172891616821289e+00,2.584829092025756836e+00,2.584485292434692383e+00,2.558351278305053711e+00,2.504496574401855469e+00,2.452862501144409180e+00,2.403314352035522461e+00,2.355728626251220703e+00,2.309990406036376953e+00,2.265994548797607422e+00,2.223643302917480469e+00,2.182846069335937500e+00,2.143518686294555664e+00,2.105583667755126953e+00,2.068967580795288086e+00,2.033603668212890625e+00,1.999428153038024902e+00,1.966382265090942383e+00,1.934410929679870605e+00,1.903462767601013184e+00,1.873489260673522949e+00,1.844444990158081055e+00
2.255460500717163086e+00,2.255200624465942383e+00,2.254940748214721680e+00,2.254681110382080078e+00,2.254421472549438477e+00,2.254161596298217773e+00,2.253902196884155273e+00,2.253642797470092773e+00,2.253383159637451172e+00,2.253123760223388672e+00,2.252864599227905273e+00,2.252605199813842773e+00,2.252346038818359375e+00,2.252086877822875977e+00,2.251827955245971680e+00,2.251568794250488281e+00,2.251309871673583984e+00,2.251050949096679688e+00,2.250792026519775391e+00,2.250533103942871094e+00,2.250274419784545898e+00,2.250015974044799805e+00,2.249757051467895508e+00,2.249498605728149414e+00,2.249238729476928711e+00,2.248978376388549805e+00,2.248718023300170898e+00,2.248457908630371094e+00,2.248197555541992188e+00,2.247937679290771484e+00,2.247677564620971680e+00,2.247417688369750977e+00,2.247157812118530273e+00,2.246897935867309570e+00,2.246638059616088867e+00,1.866952538490295410e+00,1.845037341117858887e+00,1.862415671348571777e+00,2.245599508285522461e+00,2.245339870452880859e+00,2.245080709457397461e+00,2.244821310043334961e+00,2.244561910629272461e+00,2.244302749633789062e+00,2.244043588638305664e+00,2.243784427642822266e+00,2.243525266647338867e+00,2.243266344070434570e+00,2.243007421493530273e+00,2.242748498916625977e+00,2.242489576339721680e+00,2.242230892181396484e+00,2.241972208023071289e+00,2.241713523864746094e+00,2.241454839706420898e+00,2.241196393966674805e+00,2.240937948226928711e+00,2.240679502487182617e+00,2.240421295166015625e+00,2.240162849426269531e+00,2.239904642105102539e+00,2.239646673202514648e+00,2.239388465881347656e+00,2.239130496978759766e+00,2.238872289657592773e+00,2.238614320755004883e+00,2.238356590270996094e+00,2.238098859786987305e+00,2.223672389984130859e+00,2.182874202728271484e+00,2.143545866012573242e+00,2.105609655380249023e+00,2.068992853164672852e+00,2.033627986907958984e+00,1.999451756477355957e+00,1.966405272483825684e+00,1.934433102607727051e+00,1.903484106063842773e+00,1.873509883880615234e+00,1.844465136528015137e+00
1.988382220268249512e+00,1.988180041313171387e+00,1.987978219985961914e+00,1.987776279449462891e+00,1.987574458122253418e+00,1.987372756004333496e+00,1.987171053886413574e+00,1.986969351768493652e+00,1.986767411231994629e+00,1.986565828323364258e+00,1.986364245414733887e+00,1.986162781715393066e+00,1.985961198806762695e+00,1.985759854316711426e+00,1.985558390617370605e+00,1.985356807708740234e+00,1.985155463218688965e+00,1.984954237937927246e+00,1.984753012657165527e+00,1.984551787376403809e+00,1.984350562095642090e+00,1.984149456024169922e+00,1.983948230743408203e+00,1.983747124671936035e+00,1.983546137809753418e+00,1.983345150947570801e+00,1.983144283294677734e+00,1.982943415641784668e+00,1.982742547988891602e+00,1.982541561126708984e+00,1.982340812683105469e+00,1.982140064239501953e+00,1.981939435005187988e+00,1.981738805770874023e+00,1.981538176536560059e+00,1.981337666511535645e+00,1.981136918067932129e+00,1.980936408042907715e+00,1.980736017227172852e+00,1.980535626411437988e+00,1.980335235595703125e+00,1.980134963989257812e+00,1.979934692382812500e+00,1.979734182357788086e+00,1.979534029960632324e+00,1.979333877563476562e+00,1.979133844375610352e+00,1.978933691978454590e+00,1.978733658790588379e+00,1.978533744812011719e+00,1.978333592414855957e+00,1.978133678436279297e+00,1.977933764457702637e+00,1.977733969688415527e+00,1.977534174919128418e+00,1.977334380149841309e+00,1.977134704589843750e+00,1.976935029029846191e+00,1.976735234260559082e+00,1.976535677909851074e+00,1.976336121559143066e+00,1.976136565208435059e+00,1.975937128067016602e+00,1.975737690925598145e+00,1.975538372993469238e+00,1.975338697433471680e+00,1.975139498710632324e+00,1.974940180778503418e+00,1.974740982055664062e+00,1.974541783332824707e+00,1.974342703819274902e+00,1.974143505096435547e+00,1.973944306373596191e+00,1.973745226860046387e+00,1.973546266555786133e+00,1.966428041458129883e+00,1.934455394744873047e+00,1.903505563735961914e+00,1.873530626296997070e+00,1.844485163688659668e+00
1.777858614921569824e+00,1.777697086334228516e+00,1.777535796165466309e+00,1.777374386787414551e+00,1.777212858200073242e+00,1.777051448822021484e+00,1.776890158653259277e+00,1.776728987693786621e+00,1.776567697525024414e+00,1.776406526565551758e+00,1.776245355606079102e+00,1.776083946228027344e+00,1.775922894477844238e+00,1.775761723518371582e+00,1.775600671768188477e+00,1.775439739227294922e+00,1.775278687477111816e+00,1.775117754936218262e+00,1.774956583976745605e+00,1.774795651435852051e+00,1.774634838104248047e+00,1.774473905563354492e+00,1.774313092231750488e+00,1.774152278900146484e+00,1.773991584777832031e+00,1.773830652236938477e+00,1.773669838905334473e+00,1.773509263992309570e+00,1.773348569869995117e+00,1.773187875747680664e+00,1.773027300834655762e+00,1.772866725921630859e+00,1.772706031799316406e+00,1.772545576095581055e+00,1.772385001182556152e+00,1.772224545478820801e+00,1.772064208984375000e+00,1.771903753280639648e+00,1.771743416786193848e+00,1.771582841873168945e+00,1.771422624588012695e+00,1.771262288093566895e+00,1.771102070808410645e+00,1.770941853523254395e+00,1.770781636238098145e+00,1.770621538162231445e+00,1.770461201667785645e+00,1.770301103591918945e+00,1.770141005516052246e+00,1.769980907440185547e+00,1.769820928573608398e+00,1.769660949707031250e+00,1.769500970840454102e+00,1.769341111183166504e+00,1.769181013107299805e+00,1.769021153450012207e+00,1.768861293792724609e+00,1.768701434135437012e+00,1.768541693687438965e+00,1.768381953239440918e+00,1.768222212791442871e+00,1.768062353134155273e+00,1.767902612686157227e+00,1.767742991447448730e+00,1.767583370208740234e+00,1.767423748970031738e+00,1.767264246940612793e+00,1.767104744911193848e+00,1.766945004463195801e+00,1.766785621643066406e+00,1.766626119613647461e+00,1.766466736793518066e+00,1.766307353973388672e+00,1.766147971153259277e+00,1.765988707542419434e+00,1.765829205513000488e+00,1.765669941902160645e+00,1.765510797500610352e+00,1.765351533889770508e+00,1.765192389488220215e+00
1.607646107673645020e+00,1.607514142990112305e+00,1.607382059097290039e+00,1.607250094413757324e+00,1.607118248939514160e+00,1.606986284255981445e+00,1.606854319572448730e+00,1.606722354888916016e+00,1.606590509414672852e+00,1.606458663940429688e+00,1.606326818466186523e+00,1.606195092201232910e+00,1.606063246726989746e+00,1.605931520462036133e+00,1.605799674987792969e+00,1.605667948722839355e+00,1.605536222457885742e+00,1.605404615402221680e+00,1.605272889137268066e+00,1.605141282081604004e+00,1.605009675025939941e+00,1.604877948760986328e+00,1.604746460914611816e+00,1.604614853858947754e+00,1.604483366012573242e+00,1.604351878166198730e+00,1.604220390319824219e+00,1.604089021682739258e+00,1.603957414627075195e+00,1.603825926780700684e+00,1.603694558143615723e+00,1.603563189506530762e+00,1.603431940078735352e+00,1.603300571441650391e+00,1.603169322013854980e+00,1.603037834167480469e+00,1.602906584739685059e+00,1.602775335311889648e+00,1.602644205093383789e+00,1.602512955665588379e+00,1.602381825447082520e+00,1.602250695228576660e+00,1.602119326591491699e+00,1.601988315582275391e+00,1.601857185363769531e+00,1.601726174354553223e+00,1.601595044136047363e+00,1.601464033126831055e+00,1.601333022117614746e+00,1.601202130317687988e+00,1.601071000099182129e+00,1.600940108299255371e+00,1.600809216499328613e+00,1.600678324699401855e+00,1.600547432899475098e+00,1.600416541099548340e+00,1.600285768508911133e+00,1.600154757499694824e+00,1.600023984909057617e+00,1.599893212318420410e+00,1.599762439727783203e+00,1.599631786346435547e+00,1.599501013755798340e+00,1.599370360374450684e+00,1.599239587783813477e+00,1.599108934402465820e+00,1.598978281021118164e+00,1.598847746849060059e+00,1.598717212677001953e+00,1.598586678504943848e+00,1.598456144332885742e+00,1.598325490951538086e+00,1.598194956779479980e+00,1.598064541816711426e+00,1.597934007644653320e+00,1.597803592681884766e+00,1.597673296928405762e+00,1.597542881965637207e+00,1.597412347793579102e+00,1.597282052040100098e+00
1.467178344726562500e+00,1.467068314552307129e+00,1.466958403587341309e+00,1.466848373413085938e+00,1.466738462448120117e+00,1.466628551483154297e+00,1.466518759727478027e+00,1.466408848762512207e+00,1.466299057006835938e+00,1.466189265251159668e+00,1.466079235076904297e+00,1.465969562530517578e+00,1.465859770774841309e+00,1.465749979019165039e+00,1.465640187263488770e+00,1.465530514717102051e+00,1.465420842170715332e+00,1.465311050415039062e+00,1.465201377868652344e+00,1.465091705322265625e+00,1.464982032775878906e+00,1.464872360229492188e+00,1.464762806892395020e+00,1.464653253555297852e+00,1.464543581008911133e+00,1.464433908462524414e+00,1.464324474334716797e+00,1.464214920997619629e+00,1.464105367660522461e+00,1.463995933532714844e+00,1.463886380195617676e+00,1.463776826858520508e+00,1.463667392730712891e+00,1.463557958602905273e+00,1.463448524475097656e+00,1.463339209556579590e+00,1.463229775428771973e+00,1.463120460510253906e+00,1.463011026382446289e+00,1.462901592254638672e+00,1.462792396545410156e+00,1.462683081626892090e+00,1.462573766708374023e+00,1.462464570999145508e+00,1.462355256080627441e+00,1.462246060371398926e+00,1.462136745452880859e+00,1.462027549743652344e+00,1.461918354034423828e+00,1.461809158325195312e+00,1.461700081825256348e+00,1.461590886116027832e+00,1.461481809616088867e+00,1.461372613906860352e+00,1.461263537406921387e+00,1.461154460906982422e+00,1.461045384407043457e+00,1.460936307907104492e+00,1.460827350616455078e+00,1.460718393325805664e+00,1.460609197616577148e+00,1.460500240325927734e+00,1.460391283035278320e+00,1.460282325744628906e+00,1.460173487663269043e+00,1.460064530372619629e+00,1.459955692291259766e+00,1.459846615791320801e+00,1.459737777709960938e+00,1.459628939628601074e+00,1.459520101547241211e+00,1.459411382675170898e+00,1.459302544593811035e+00,1.459193825721740723e+00,1.459084868431091309e+00,1.458976149559020996e+00,1.458867430686950684e+00,1.458758711814880371e+00,1.458649992942810059e+00,1.458541393280029297e+00
1.349284648895263672e+00,1.349191665649414062e+00,1.349098682403564453e+00,1.349005699157714844e+00,1.348912715911865234e+00,1.348819851875305176e+00,1.348726749420166016e+00,1.348633885383605957e+00,1.348541021347045898e+00,1.348448038101196289e+00,1.348355174064636230e+00,1.348262310028076172e+00,1.348169565200805664e+00,1.348076581954956055e+00,1.347983717918395996e+00,1.347890973091125488e+00,1.347798109054565430e+00,1.347705364227294922e+00,1.347612619400024414e+00,1.347519874572753906e+00,1.347427010536193848e+00,1.347334265708923340e+00,1.347241520881652832e+00,1.347148776054382324e+00,1.347056150436401367e+00,1.346963405609130859e+00,1.346870779991149902e+00,1.346778035163879395e+00,1.346685409545898438e+00,1.346592783927917480e+00,1.346500158309936523e+00,1.346407532691955566e+00,1.346314907073974609e+00,1.346222400665283203e+00,1.346129655838012695e+00,1.346037149429321289e+00,1.345944523811340332e+00,1.345852017402648926e+00,1.345759510993957520e+00,1.345667004585266113e+00,1.345574498176574707e+00,1.345481991767883301e+00,1.345389485359191895e+00,1.345296978950500488e+00,1.345204591751098633e+00,1.345112085342407227e+00,1.345019698143005371e+00,1.344927310943603516e+00,1.344834923744201660e+00,1.344742417335510254e+00,1.344650030136108398e+00,1.344557762145996094e+00,1.344465374946594238e+00,1.344373106956481934e+00,1.344280719757080078e+00,1.344188451766967773e+00,1.344096064567565918e+00,1.344003796577453613e+00,1.343911528587341309e+00,1.343819260597229004e+00,1.343726992607116699e+00,1.343634724617004395e+00,1.343542575836181641e+00,1.343450307846069336e+00,1.343358039855957031e+00,1.343265891075134277e+00,1.343173742294311523e+00,1.343081593513488770e+00,1.342989444732666016e+00,1.342897295951843262e+00,1.342805027961730957e+00,1.342712998390197754e+00,1.342620849609375000e+00,1.342528820037841797e+00,1.342436790466308594e+00,1.342344760894775391e+00,1.342252612113952637e+00,1.342160582542419434e+00,1.342068552970886230e+00,1.341976523399353027e+00
1.248928308486938477e+00,1.248848676681518555e+00,1.248768925666809082e+00,1.248689293861389160e+00,1.248609662055969238e+00,1.248530030250549316e+00,1.248450398445129395e+00,1.248370766639709473e+00,1.248291254043579102e+00,1.248211503028869629e+00,1.248131990432739258e+00,1.248052358627319336e+00,1.247972846031188965e+00,1.247893214225769043e+00,1.247813701629638672e+00,1.247734189033508301e+00,1.247654557228088379e+00,1.247575044631958008e+00,1.247495532035827637e+00,1.247416019439697266e+00,1.247336626052856445e+00,1.247257113456726074e+00,1.247177720069885254e+00,1.247098088264465332e+00,1.247018694877624512e+00,1.246939301490783691e+00,1.246859788894653320e+00,1.246780395507812500e+00,1.246701002120971680e+00,1.246621608734130859e+00,1.246542215347290039e+00,1.246462821960449219e+00,1.246383428573608398e+00,1.246304035186767578e+00,1.246224761009216309e+00,1.246145367622375488e+00,1.246066093444824219e+00,1.245986819267272949e+00,1.245907425880432129e+00,1.245828151702880859e+00,1.245748877525329590e+00,1.245669603347778320e+00,1.245590329170227051e+00,1.245511054992675781e+00,1.245431780815124512e+00,1.245352506637573242e+00,1.245273351669311523e+00,1.245194077491760254e+00,1.245114922523498535e+00,1.245035648345947266e+00,1.244956493377685547e+00,1.244877338409423828e+00,1.244798064231872559e+00,1.244718909263610840e+00,1.244639873504638672e+00,1.244560718536376953e+00,1.244481563568115234e+00,1.244402527809143066e+00,1.244323372840881348e+00,1.244244217872619629e+00,1.244165182113647461e+00,1.244086027145385742e+00,1.244006991386413574e+00,1.243927955627441406e+00,1.243848919868469238e+00,1.243769884109497070e+00,1.243690848350524902e+00,1.243611812591552734e+00,1.243532776832580566e+00,1.243453860282897949e+00,1.243374824523925781e+00,1.243295907974243164e+00,1.243216872215270996e+00,1.243137836456298828e+00,1.243058919906616211e+00,1.242980003356933594e+00,1.242901086807250977e+00,1.242822170257568359e+00,1.242743372917175293e+00,1.242664456367492676e+00
1.162467002868652344e+00,1.162397980690002441e+00,1.162329077720642090e+00,1.162260055541992188e+00,1.162191033363342285e+00,1.162121891975402832e+00,1.162052989006042480e+00,1.161983966827392578e+00,1.161915063858032227e+00,1.161846041679382324e+00,1.161777138710021973e+00,1.161708116531372070e+00,1.161639213562011719e+00,1.161570191383361816e+00,1.161501288414001465e+00,1.161432385444641113e+00,1.161363482475280762e+00,1.161294579505920410e+00,1.161225676536560059e+00,1.161156773567199707e+00,1.161087870597839355e+00,1.161019086837768555e+00,1.160950183868408203e+00,1.160881400108337402e+00,1.160812497138977051e+00,1.160743713378906250e+00,1.160674810409545898e+00,1.160606026649475098e+00,1.160537123680114746e+00,1.160468339920043945e+00,1.160399556159973145e+00,1.160330772399902344e+00,1.160261988639831543e+00,1.160193324089050293e+00,1.160124421119689941e+00,1.160055637359619141e+00,1.159986972808837891e+00,1.159918189048767090e+00,1.159849524497985840e+00,1.159780740737915039e+00,1.159712076187133789e+00,1.159643292427062988e+00,1.159574627876281738e+00,1.159505963325500488e+00,1.159437298774719238e+00,1.159368634223937988e+00,1.159299969673156738e+00,1.159231305122375488e+00,1.159162521362304688e+00,1.159093976020812988e+00,1.159025311470031738e+00,1.158956646919250488e+00,1.158888101577758789e+00,1.158819437026977539e+00,1.158750891685485840e+00,1.158682227134704590e+00,1.158613681793212891e+00,1.158545017242431641e+00,1.158476471900939941e+00,1.158407926559448242e+00,1.158339500427246094e+00,1.158270955085754395e+00,1.158202290534973145e+00,1.158133745193481445e+00,1.158065319061279297e+00,1.157996773719787598e+00,1.157928347587585449e+00,1.157859802246093750e+00,1.157791376113891602e+00,1.157722830772399902e+00,1.157654285430908203e+00,1.157585859298706055e+00,1.157517433166503906e+00,1.157449007034301758e+00,1.157380580902099609e+00,1.157312154769897461e+00,1.157243609428405762e+00,1.157175183296203613e+00,1.157106876373291016e+00,1.157038450241088867e+00
1.087201833724975586e+00,1.087141394615173340e+00,1.087081074714660645e+00,1.087020635604858398e+00,1.086960315704345703e+00,1.086899995803833008e+00,1.086839675903320312e+00,1.086779236793518066e+00,1.086718916893005371e+00,1.086658596992492676e+00,1.086598277091979980e+00,1.086537957191467285e+00,1.086477637290954590e+00,1.086417317390441895e+00,1.086357116699218750e+00,1.086296677589416504e+00,1.086236476898193359e+00,1.086176156997680664e+00,1.086115956306457520e+00,1.086055636405944824e+00,1.085995435714721680e+00,1.085935115814208984e+00,1.085874915122985840e+00,1.085814595222473145e+00,1.085754394531250000e+00,1.085694193840026855e+00,1.085633993148803711e+00,1.085573792457580566e+00,1.085513591766357422e+00,1.085453391075134277e+00,1.085393190383911133e+00,1.085332989692687988e+00,1.085272789001464844e+00,1.085212707519531250e+00,1.085152506828308105e+00,1.085092425346374512e+00,1.085032224655151367e+00,1.084972023963928223e+00,1.084911942481994629e+00,1.084851741790771484e+00,1.084791660308837891e+00,1.084731578826904297e+00,1.084671378135681152e+00,1.084611296653747559e+00,1.084551215171813965e+00,1.084491133689880371e+00,1.084431052207946777e+00,1.084370970726013184e+00,1.084310889244079590e+00,1.084250807762145996e+00,1.084190845489501953e+00,1.084130644798278809e+00,1.084070682525634766e+00,1.084010601043701172e+00,1.083950638771057129e+00,1.083890557289123535e+00,1.083830595016479492e+00,1.083770632743835449e+00,1.083710551261901855e+00,1.083650588989257812e+00,1.083590507507324219e+00,1.083530545234680176e+00,1.083470582962036133e+00,1.083410620689392090e+00,1.083350658416748047e+00,1.083290696144104004e+00,1.083230733871459961e+00,1.083170771598815918e+00,1.083110928535461426e+00,1.083050966262817383e+00,1.082991003990173340e+00,1.082931160926818848e+00,1.082871198654174805e+00,1.082811236381530762e+00,1.082751393318176270e+00,1.082691550254821777e+00,1.082631587982177734e+00,1.082571744918823242e+00,1.082511901855468750e+00,1.082451939582824707e+00
1.021090149879455566e+00,1.021036863327026367e+00,1.020983695983886719e+00,1.020930409431457520e+00,1.020877122879028320e+00,1.020823836326599121e+00,1.020770668983459473e+00,1.020717382431030273e+00,1.020664215087890625e+00,1.020611047744750977e+00,1.020557761192321777e+00,1.020504593849182129e+00,1.020451307296752930e+00,1.020398139953613281e+00,1.020344972610473633e+00,1.020291805267333984e+00,1.020238637924194336e+00,1.020185470581054688e+00,1.020132184028625488e+00,1.020079135894775391e+00,1.020025968551635742e+00,1.019972801208496094e+00,1.019919633865356445e+00,1.019866466522216797e+00,1.019813418388366699e+00,1.019760251045227051e+00,1.019707083702087402e+00,1.019653916358947754e+00,1.019600868225097656e+00,1.019547820091247559e+00,1.019494652748107910e+00,1.019441604614257812e+00,1.019388556480407715e+00,1.019335389137268066e+00,1.019282341003417969e+00,1.019229173660278320e+00,1.019176125526428223e+00,1.019123077392578125e+00,1.019070029258728027e+00,1.019016981124877930e+00,1.018963932991027832e+00,1.018910884857177734e+00,1.018857836723327637e+00,1.018804788589477539e+00,1.018751859664916992e+00,1.018698811531066895e+00,1.018645763397216797e+00,1.018592715263366699e+00,1.018539786338806152e+00,1.018486738204956055e+00,1.018433809280395508e+00,1.018380761146545410e+00,1.018327832221984863e+00,1.018274784088134766e+00,1.018221855163574219e+00,1.018168807029724121e+00,1.018115878105163574e+00,1.018062949180603027e+00,1.018010020256042480e+00,1.017957091331481934e+00,1.017904162406921387e+00,1.017851114273071289e+00,1.017798304557800293e+00,1.017745375633239746e+00,1.017692446708679199e+00,1.017639517784118652e+00,1.017586588859558105e+00,1.017533779144287109e+00,1.017480850219726562e+00,1.017427921295166016e+00,1.017374992370605469e+00,1.017322182655334473e+00,1.017269253730773926e+00,1.017216444015502930e+00,1.017163634300231934e+00,1.017110705375671387e+00,1.017057895660400391e+00,1.017004966735839844e+00,1.016952157020568848e+00,1.016899347305297852e+00
9.625579714775085449e-01,9.625107049942016602e-01,9.624633193016052246e-01,9.624161124229431152e-01,9.623686671257019043e-01,9.623214602470397949e-01,9.622740745544433594e-01,9.622267484664916992e-01,9.621794819831848145e-01,9.621321558952331543e-01,9.620849490165710449e-01,9.620376229286193848e-01,9.619903564453125000e-01,9.619430303573608398e-01,9.618957638740539551e-01,9.618485569953918457e-01,9.618012309074401855e-01,9.617540240287780762e-01,9.617067575454711914e-01,9.616595506668090820e-01,9.616122245788574219e-01,9.615650773048400879e-01,9.615178108215332031e-01,9.614705443382263184e-01,9.614233374595642090e-01,9.613760709762573242e-01,9.613289237022399902e-01,9.612816572189331055e-01,9.612345099449157715e-01,9.611873030662536621e-01,9.611400365829467773e-01,9.610928893089294434e-01,9.610456824302673340e-01,9.609985351562500000e-01,9.609513282775878906e-01,9.609041810035705566e-01,9.608569741249084473e-01,9.608097672462463379e-01,9.607626795768737793e-01,9.607154726982116699e-01,9.606683850288391113e-01,9.606211781501770020e-01,9.605740904808044434e-01,9.605269432067871094e-01,9.604797363281250000e-01,9.604326486587524414e-01,9.603855013847351074e-01,9.603384733200073242e-01,9.602912664413452148e-01,9.602442383766174316e-01,9.601970911026000977e-01,9.601499438285827637e-01,9.601029157638549805e-01,9.600557684898376465e-01,9.600087404251098633e-01,9.599615931510925293e-01,9.599145650863647461e-01,9.598674774169921875e-01,9.598203301429748535e-01,9.597733616828918457e-01,9.597262740135192871e-01,9.596792459487915039e-01,9.596321582794189453e-01,9.595851898193359375e-01,9.595381021499633789e-01,9.594910144805908203e-01,9.594440460205078125e-01,9.593969583511352539e-01,9.593499898910522461e-01,9.593029022216796875e-01,9.592559933662414551e-01,9.592089056968688965e-01,9.591618776321411133e-01,9.591149091720581055e-01,9.590678811073303223e-01,9.590209722518920898e-01,9.589739441871643066e-01,9.589269757270812988e-01,9.588800072669982910e-01,9.588329792022705078e-01
9.103725552558898926e-01,9.103301763534545898e-01,9.102879166603088379e-01,9.102455377578735352e-01,9.102031588554382324e-01,9.101608991622924805e-01,9.101185202598571777e-01,9.100762605667114258e-01,9.100339412689208984e-01,9.099916815757751465e-01,9.099493026733398438e-01,9.099069833755493164e-01,9.098647236824035645e-01,9.098224043846130371e-01,9.097801446914672852e-01,9.097378253936767578e-01,9.096956253051757812e-01,9.096533060073852539e-01,9.096109867095947266e-01,9.095687866210937500e-01,9.095264673233032227e-01,9.094842672348022461e-01,9.094419479370117188e-01,9.093997478485107422e-01,9.093574881553649902e-01,9.093151688575744629e-01,9.092729687690734863e-01,9.092307090759277344e-01,9.091885089874267578e-01,9.091462492942810059e-01,9.091041088104248047e-01,9.090618491172790527e-01,9.090195894241333008e-01,9.089773893356323242e-01,9.089351296424865723e-01,9.088929891586303711e-01,9.088507890701293945e-01,9.088085889816284180e-01,9.087663888931274414e-01,9.087241291999816895e-01,9.086820483207702637e-01,9.086397886276245117e-01,9.085976481437683105e-01,9.085554480552673340e-01,9.085133671760559082e-01,9.084711074829101562e-01,9.084289073944091797e-01,9.083868265151977539e-01,9.083446264266967773e-01,9.083025455474853516e-01,9.082603454589843750e-01,9.082182645797729492e-01,9.081760644912719727e-01,9.081339240074157715e-01,9.080918431282043457e-01,9.080496430397033691e-01,9.080075621604919434e-01,9.079654216766357422e-01,9.079233407974243164e-01,9.078812003135681152e-01,9.078390598297119141e-01,9.077969789505004883e-01,9.077548384666442871e-01,9.077128171920776367e-01,9.076706767082214355e-01,9.076286554336547852e-01,9.075865149497985840e-01,9.075443744659423828e-01,9.075023531913757324e-01,9.074602723121643066e-01,9.074182510375976562e-01,9.073761701583862305e-01,9.073341488838195801e-01,9.072920680046081543e-01,9.072499275207519531e-01,9.072079658508300781e-01,9.071658849716186523e-01,9.071238636970520020e-01,9.070817828178405762e-01,9.070398211479187012e-01
8.635545969009399414e-01,8.635164499282836914e-01,8.634784221649169922e-01,8.634402751922607422e-01,8.634022474288940430e-01,8.633641004562377930e-01,8.633260130882263184e-01,8.632879853248596191e-01,8.632498383522033691e-01,8.632118105888366699e-01,8.631737232208251953e-01,8.631356954574584961e-01,8.630976080894470215e-01,8.630595803260803223e-01,8.630214929580688477e-01,8.629834055900573730e-01,8.629454374313354492e-01,8.629073500633239746e-01,8.628693819046020508e-01,8.628312945365905762e-01,8.627933263778686523e-01,8.627552390098571777e-01,8.627171516418457031e-01,8.626791834831237793e-01,8.626411557197570801e-01,8.626031875610351562e-01,8.625651001930236816e-01,8.625271916389465332e-01,8.624891042709350586e-01,8.624510765075683594e-01,8.624131083488464355e-01,8.623750805854797363e-01,8.623371720314025879e-01,8.622991442680358887e-01,8.622611761093139648e-01,8.622231483459472656e-01,8.621851205825805664e-01,8.621472120285034180e-01,8.621091842651367188e-01,8.620712757110595703e-01,8.620333075523376465e-01,8.619953989982604980e-01,8.619573712348937988e-01,8.619194030761718750e-01,8.618814945220947266e-01,8.618434667587280273e-01,8.618056178092956543e-01,8.617675900459289551e-01,8.617297410964965820e-01,8.616917729377746582e-01,8.616538047790527344e-01,8.616158962249755859e-01,8.615779280662536621e-01,8.615400791168212891e-01,8.615021109580993652e-01,8.614642620086669922e-01,8.614262938499450684e-01,8.613883256912231445e-01,8.613504767417907715e-01,8.613125681877136230e-01,8.612746596336364746e-01,8.612367510795593262e-01,8.611989021301269531e-01,8.611609935760498047e-01,8.611230850219726562e-01,8.610852360725402832e-01,8.610473275184631348e-01,8.610094785690307617e-01,8.609715700149536133e-01,8.609337806701660156e-01,8.608958721160888672e-01,8.608579635620117188e-01,8.608201146125793457e-01,8.607822656631469727e-01,8.607444167137145996e-01,8.607065677642822266e-01,8.606687784194946289e-01,8.606308698654174805e-01,8.605930209159851074e-01,8.605552315711975098e-01
8.213164806365966797e-01,8.212820887565612793e-01,8.212475776672363281e-01,8.212130665779113770e-01,8.211786746978759766e-01,8.211442232131958008e-01,8.211097717285156250e-01,8.210753202438354492e-01,8.210409283638000488e-01,8.210064768791198730e-01,8.209719657897949219e-01,8.209375739097595215e-01,8.209031224250793457e-01,8.208687305450439453e-01,8.208342790603637695e-01,8.207999467849731445e-01,8.207654953002929688e-01,8.207310438156127930e-01,8.206966519355773926e-01,8.206622004508972168e-01,8.206278681755065918e-01,8.205934166908264160e-01,8.205590844154357910e-01,8.205246329307556152e-01,8.204901814460754395e-01,8.204558491706848145e-01,8.204214572906494141e-01,8.203870654106140137e-01,8.203526735305786133e-01,8.203183412551879883e-01,8.202839493751525879e-01,8.202494978904724121e-01,8.202151656150817871e-01,8.201807737350463867e-01,8.201464414596557617e-01,8.201120495796203613e-01,8.200777769088745117e-01,8.200433850288391113e-01,8.200089931488037109e-01,8.199746608734130859e-01,8.199402689933776855e-01,8.199059963226318359e-01,8.198716044425964355e-01,8.198373317718505859e-01,8.198029398918151855e-01,8.197685480117797852e-01,8.197342753410339355e-01,8.196999430656433105e-01,8.196656703948974609e-01,8.196312785148620605e-01,8.195970058441162109e-01,8.195626735687255859e-01,8.195282816886901855e-01,8.194940686225891113e-01,8.194596767425537109e-01,8.194254636764526367e-01,8.193910717964172363e-01,8.193568587303161621e-01,8.193225264549255371e-01,8.192881941795349121e-01,8.192539215087890625e-01,8.192195892333984375e-01,8.191853761672973633e-01,8.191510438919067383e-01,8.191168308258056641e-01,8.190824985504150391e-01,8.190482258796691895e-01,8.190139532089233398e-01,8.189796805381774902e-01,8.189454674720764160e-01,8.189111351966857910e-01,8.188769221305847168e-01,8.188426494598388672e-01,8.188084363937377930e-01,8.187741637229919434e-01,8.187398910522460938e-01,8.187056779861450195e-01,8.186714053153991699e-01,8.186371922492980957e-01,8.186029195785522461e-01
7.830176353454589844e-01,7.829863429069519043e-01,7.829549908638000488e-01,7.829237580299377441e-01,7.828924059867858887e-01,7.828611135482788086e-01,7.828297615051269531e-01,7.827984094619750977e-01,7.827671766281127930e-01,7.827358245849609375e-01,7.827045917510986328e-01,7.826732397079467773e-01,7.826420068740844727e-01,7.826106548309326172e-01,7.825793623924255371e-01,7.825481295585632324e-01,7.825167775154113770e-01,7.824855446815490723e-01,7.824542522430419922e-01,7.824230194091796875e-01,7.823916673660278320e-01,7.823603749275207520e-01,7.823291420936584473e-01,7.822978496551513672e-01,7.822666168212890625e-01,7.822353243827819824e-01,7.822040915489196777e-01,7.821727991104125977e-01,7.821415662765502930e-01,7.821103334426879883e-01,7.820790410041809082e-01,7.820478677749633789e-01,7.820165753364562988e-01,7.819853425025939941e-01,7.819541096687316895e-01,7.819228172302246094e-01,7.818916440010070801e-01,7.818603515625000000e-01,7.818291783332824707e-01,7.817978858947753906e-01,7.817667126655578613e-01,7.817354798316955566e-01,7.817042469978332520e-01,7.816730737686157227e-01,7.816417813301086426e-01,7.816106081008911133e-01,7.815793752670288086e-01,7.815482020378112793e-01,7.815169692039489746e-01,7.814857363700866699e-01,7.814545631408691406e-01,7.814233899116516113e-01,7.813922166824340820e-01,7.813609838485717773e-01,7.813298106193542480e-01,7.812986373901367188e-01,7.812674045562744141e-01,7.812362313270568848e-01,7.812050580978393555e-01,7.811738848686218262e-01,7.811427116394042969e-01,7.811115980148315430e-01,7.810803651809692383e-01,7.810491919517517090e-01,7.810180187225341797e-01,7.809868454933166504e-01,7.809557318687438965e-01,7.809245586395263672e-01,7.808934450149536133e-01,7.808622717857360840e-01,7.808310389518737793e-01,7.807999253273010254e-01,7.807687520980834961e-01,7.807376980781555176e-01,7.807065248489379883e-01,7.806754112243652344e-01,7.806442379951477051e-01,7.806130647659301758e-01,7.805820107460021973e-01,7.805508375167846680e-01
7.481315135955810547e-01,7.481029033660888672e-01,7.480742931365966797e-01,7.480457425117492676e-01,7.480171322822570801e-01,7.479885816574096680e-01,7.479599714279174805e-01,7.479314208030700684e-01,7.479028105735778809e-01,7.478742003440856934e-01,7.478456497192382812e-01,7.478170990943908691e-01,7.477885484695434570e-01,7.477599382400512695e-01,7.477314472198486328e-01,7.477028369903564453e-01,7.476742267608642578e-01,7.476457357406616211e-01,7.476171255111694336e-01,7.475886344909667969e-01,7.475600242614746094e-01,7.475315332412719727e-01,7.475029230117797852e-01,7.474743723869323730e-01,7.474458813667297363e-01,7.474172711372375488e-01,7.473887801170349121e-01,7.473602294921875000e-01,7.473317384719848633e-01,7.473031878471374512e-01,7.472746372222900391e-01,7.472461462020874023e-01,7.472175359725952148e-01,7.471891045570373535e-01,7.471605539321899414e-01,7.471320629119873047e-01,7.471035122871398926e-01,7.470749616622924805e-01,7.470464706420898438e-01,7.470179200172424316e-01,7.469894886016845703e-01,7.469609379768371582e-01,7.469324469566345215e-01,7.469039559364318848e-01,7.468754053115844727e-01,7.468469738960266113e-01,7.468184232711791992e-01,7.467899918556213379e-01,7.467614412307739258e-01,7.467330098152160645e-01,7.467044591903686523e-01,7.466759681701660156e-01,7.466475367546081543e-01,7.466189861297607422e-01,7.465905547142028809e-01,7.465620636940002441e-01,7.465336322784423828e-01,7.465051412582397461e-01,7.464766502380371094e-01,7.464482188224792480e-01,7.464197278022766113e-01,7.463912963867187500e-01,7.463628053665161133e-01,7.463343739509582520e-01,7.463058829307556152e-01,7.462774515151977539e-01,7.462489604949951172e-01,7.462205290794372559e-01,7.461920976638793945e-01,7.461636066436767578e-01,7.461352348327636719e-01,7.461067438125610352e-01,7.460783720016479492e-01,7.460498809814453125e-01,7.460213899612426758e-01,7.459930181503295898e-01,7.459645867347717285e-01,7.459361553192138672e-01,7.459077239036560059e-01,7.458793520927429199e-01
7.162213325500488281e-01,7.161951065063476562e-01,7.161689400672912598e-01,7.161427140235900879e-01,7.161165475845336914e-01,7.160903215408325195e-01,7.160640954971313477e-01,7.160379290580749512e-01,7.160117626190185547e-01,7.159855961799621582e-01,7.159593701362609863e-01,7.159332036972045898e-01,7.159069776535034180e-01,7.158808112144470215e-01,7.158546447753906250e-01,7.158284187316894531e-01,7.158023118972778320e-01,7.157760858535766602e-01,7.157499790191650391e-01,7.157237529754638672e-01,7.156975865364074707e-01,7.156714200973510742e-01,7.156452536582946777e-01,7.156190872192382812e-01,7.155929207801818848e-01,7.155668139457702637e-01,7.155405879020690918e-01,7.155144214630126953e-01,7.154883146286010742e-01,7.154621481895446777e-01,7.154359817504882812e-01,7.154098153114318848e-01,7.153837084770202637e-01,7.153575420379638672e-01,7.153313755989074707e-01,7.153052687644958496e-01,7.152791023254394531e-01,7.152529954910278320e-01,7.152268290519714355e-01,7.152007222175598145e-01,7.151745557785034180e-01,7.151484489440917969e-01,7.151223421096801758e-01,7.150961756706237793e-01,7.150700688362121582e-01,7.150439620018005371e-01,7.150178551673889160e-01,7.149916887283325195e-01,7.149655818939208984e-01,7.149394750595092773e-01,7.149133682250976562e-01,7.148872613906860352e-01,7.148611545562744141e-01,7.148350477218627930e-01,7.148089408874511719e-01,7.147828340530395508e-01,7.147567272186279297e-01,7.147306203842163086e-01,7.147045731544494629e-01,7.146784067153930664e-01,7.146523594856262207e-01,7.146262526512145996e-01,7.146001458168029785e-01,7.145740985870361328e-01,7.145479917526245117e-01,7.145219445228576660e-01,7.144958376884460449e-01,7.144697904586791992e-01,7.144436836242675781e-01,7.144175767898559570e-01,7.143915295600891113e-01,7.143654227256774902e-01,7.143393754959106445e-01,7.143132686614990234e-01,7.142872810363769531e-01,7.142611742019653320e-01,7.142350673675537109e-01,7.142090797424316406e-01,7.141829729080200195e-01,7.141569256782531738e-01
6.869219541549682617e-01,6.868978738784790039e-01,6.868737936019897461e-01,6.868496537208557129e-01,6.868255734443664551e-01,6.868014335632324219e-01,6.867774128913879395e-01,6.867532730102539062e-01,6.867291331291198730e-01,6.867051124572753906e-01,6.866809725761413574e-01,6.866568922996520996e-01,6.866328120231628418e-01,6.866087317466735840e-01,6.865846514701843262e-01,6.865605115890502930e-01,6.865364909172058105e-01,6.865124106407165527e-01,6.864883303642272949e-01,6.864642500877380371e-01,6.864401698112487793e-01,6.864160895347595215e-01,6.863920092582702637e-01,6.863679885864257812e-01,6.863438487052917480e-01,6.863198280334472656e-01,6.862957477569580078e-01,6.862717270851135254e-01,6.862476468086242676e-01,6.862235665321350098e-01,6.861995458602905273e-01,6.861754655838012695e-01,6.861514449119567871e-01,6.861273646354675293e-01,6.861033439636230469e-01,6.860792636871337891e-01,6.860551834106445312e-01,6.860311627388000488e-01,6.860070824623107910e-01,6.859831213951110840e-01,6.859590411186218262e-01,6.859350204467773438e-01,6.859109401702880859e-01,6.858869194984436035e-01,6.858628988265991211e-01,6.858388185501098633e-01,6.858148574829101562e-01,6.857907772064208984e-01,6.857668161392211914e-01,6.857427358627319336e-01,6.857187151908874512e-01,6.856946945190429688e-01,6.856706738471984863e-01,6.856466531753540039e-01,6.856226325035095215e-01,6.855986714363098145e-01,6.855745911598205566e-01,6.855506300926208496e-01,6.855266094207763672e-01,6.855025887489318848e-01,6.854785680770874023e-01,6.854545474052429199e-01,6.854305863380432129e-01,6.854065656661987305e-01,6.853826045989990234e-01,6.853585839271545410e-01,6.853345632553100586e-01,6.853106021881103516e-01,6.852865815162658691e-01,6.852626204490661621e-01,6.852385997772216797e-01,6.852146387100219727e-01,6.851906180381774902e-01,6.851666569709777832e-01,6.851426959037780762e-01,6.851186752319335938e-01,6.850947141647338867e-01,6.850706934928894043e-01,6.850467920303344727e-01,6.850227713584899902e-01
6.599255800247192383e-01,6.599033474922180176e-01,6.598810553550720215e-01,6.598588824272155762e-01,6.598365902900695801e-01,6.598142981529235840e-01,6.597921252250671387e-01,6.597698330879211426e-01,6.597476601600646973e-01,6.597253680229187012e-01,6.597031950950622559e-01,6.596809029579162598e-01,6.596586704254150391e-01,6.596364974975585938e-01,6.596142053604125977e-01,6.595920324325561523e-01,6.595697999000549316e-01,6.595475673675537109e-01,6.595253348350524902e-01,6.595031023025512695e-01,6.594808697700500488e-01,6.594586372375488281e-01,6.594364643096923828e-01,6.594142317771911621e-01,6.593920588493347168e-01,6.593698263168334961e-01,6.593475937843322754e-01,6.593254208564758301e-01,6.593031883239746094e-01,6.592810153961181641e-01,6.592587828636169434e-01,6.592366099357604980e-01,6.592143774032592773e-01,6.591921448707580566e-01,6.591699719429016113e-01,6.591477394104003906e-01,6.591255664825439453e-01,6.591033935546875000e-01,6.590812206268310547e-01,6.590589880943298340e-01,6.590367555618286133e-01,6.590146422386169434e-01,6.589924097061157227e-01,6.589702367782592773e-01,6.589480638504028320e-01,6.589258909225463867e-01,6.589036583900451660e-01,6.588814854621887207e-01,6.588593125343322754e-01,6.588371396064758301e-01,6.588149666786193848e-01,6.587927937507629395e-01,6.587706804275512695e-01,6.587484478950500488e-01,6.587262749671936035e-01,6.587041020393371582e-01,6.586819291114807129e-01,6.586598157882690430e-01,6.586376428604125977e-01,6.586154699325561523e-01,6.585932970046997070e-01,6.585711240768432617e-01,6.585490107536315918e-01,6.585268378257751465e-01,6.585046648979187012e-01,6.584824919700622559e-01,6.584603786468505859e-01,6.584382057189941406e-01,6.584160327911376953e-01,6.583939194679260254e-01,6.583717465400695801e-01,6.583496332168579102e-01,6.583274602890014648e-01,6.583053469657897949e-01,6.582832336425781250e-01,6.582610607147216797e-01,6.582389473915100098e-01,6.582167744636535645e-01,6.581946611404418945e-01,6.581725478172302246e-01
6.349708437919616699e-01,6.349502801895141602e-01,6.349296569824218750e-01,6.349090933799743652e-01,6.348884701728820801e-01,6.348679065704345703e-01,6.348472833633422852e-01,6.348266601562500000e-01,6.348060965538024902e-01,6.347855329513549805e-01,6.347649693489074707e-01,6.347443461418151855e-01,6.347237825393676758e-01,6.347031593322753906e-01,6.346825957298278809e-01,6.346620321273803711e-01,6.346414089202880859e-01,6.346209049224853516e-01,6.346002817153930664e-01,6.345797181129455566e-01,6.345591545104980469e-01,6.345385313034057617e-01,6.345180273056030273e-01,6.344974040985107422e-01,6.344769001007080078e-01,6.344562768936157227e-01,6.344357728958129883e-01,6.344151496887207031e-01,6.343945860862731934e-01,6.343740820884704590e-01,6.343534588813781738e-01,6.343329548835754395e-01,6.343123912811279297e-01,6.342918276786804199e-01,6.342712640762329102e-01,6.342507004737854004e-01,6.342301964759826660e-01,6.342096328735351562e-01,6.341890692710876465e-01,6.341685056686401367e-01,6.341480016708374023e-01,6.341274380683898926e-01,6.341068744659423828e-01,6.340863704681396484e-01,6.340658068656921387e-01,6.340453028678894043e-01,6.340247392654418945e-01,6.340042352676391602e-01,6.339836716651916504e-01,6.339631676673889160e-01,6.339426040649414062e-01,6.339220404624938965e-01,6.339015364646911621e-01,6.338809728622436523e-01,6.338604688644409180e-01,6.338399648666381836e-01,6.338194608688354492e-01,6.337988972663879395e-01,6.337783932685852051e-01,6.337578892707824707e-01,6.337373256683349609e-01,6.337168216705322266e-01,6.336963176727294922e-01,6.336758136749267578e-01,6.336552500724792480e-01,6.336347460746765137e-01,6.336142420768737793e-01,6.335937380790710449e-01,6.335732340812683105e-01,6.335527300834655762e-01,6.335322260856628418e-01,6.335117220878601074e-01,6.334911584854125977e-01,6.334707140922546387e-01,6.334502100944519043e-01,6.334297060966491699e-01,6.334092020988464355e-01,6.333887577056884766e-01,6.333681941032409668e-01,6.333476901054382324e-01
