5.000000000000000000e+00,5.000000000000000000e+00,5.000000000000000000e+00,5.000000000000000000e+00,5.000000000000000000e+00,5.000000000000000000e+00,5.000000000000000000e+00,5.000000000000000000e+00,5.000000000000000000e+00,5.000000000000000000e+00,5.000000000000000000e+00,5.000000000000000000e+00,5.000000000000000000e+00,5.000000000000000000e+00,5.000000000000000000e+00,5.000000000000000000e+00,5.000000000000000000e+00,5.000000000000000000e+00,5.000000000000000000e+00,5.000000000000000000e+00,5.000000000000000000e+00,5.000000000000000000e+00,5.000000000000000000e+00,5.000000000000000000e+00,5.000000000000000000e+00,5.000000000000000000e+00,4.275189399719238281e+00,4.304139614105224609e+00,5.000000000000000000e+00,5.000000000000000000e+00,5.000000000000000000e+00,5.000000000000000000e+00,5.000000000000000000e+00,5.000000000000000000e+00,5.000000000000000000e+00,5.000000000000000000e+00,5.000000000000000000e+00,5.000000000000000000e+00,5.000000000000000000e+00,5.000000000000000000e+00,4.873380184173583984e+00,4.680149078369140625e+00,4.501657485961914062e+00,4.336279869079589844e+00,4.182622909545898438e+00,4.039482593536376953e+00,3.905816078186035156e+00,3.780711650848388672e+00,3.663373231887817383e+00,3.553098917007446289e+00,3.449269056320190430e+00,3.351335763931274414e+00,3.258809804916381836e+00,3.171255588531494141e+00,3.088282823562622070e+00,3.009541511535644531e+00,2.934715747833251953e+00,2.863519906997680664e+00,2.795696973800659180e+00,2.731012582778930664e+00,2.669253587722778320e+00,2.610226154327392578e+00,2.553752899169921875e+00,2.499671220779418945e+00,2.447833061218261719e+00,2.398101091384887695e+00,2.350349664688110352e+00,2.304462671279907227e+00,2.260333299636840820e+00,2.217862367630004883e+00,2.176957607269287109e+00,2.137534856796264648e+00,2.099514245986938477e+00,2.062822580337524414e+00,2.027391433715820312e+00,1.993156790733337402e+00,1.960059046745300293e+00,1.928042650222778320e+00,1.897055506706237793e+00,1.867048501968383789e+00
5.000000000000000000e+00,5.000000000000000000e+00,5.000000000000000000e+00,5.000000000000000000e+00,5.000000000000000000e+00,5.000000000000000000e+00,5.000000000000000000e+00,5.000000000000000000e+00,5.000000000000000000e+00,5.000000000000000000e+00,5.000000000000000000e+00,5.000000000000000000e+00,5.000000000000000000e+00,5.000000000000000000e+00,5.000000000000000000e+00,5.000000000000000000e+00,5.000000000000000000e+00,5.000000000000000000e+00,5.000000000000000000e+00,5.000000000000000000e+00,5.000000000000000000e+00,5.000000000000000000e+00,5.000000000000000000e+00,5.000000000000000000e+00,5.000000000000000000e+00,5.000000000000000000e+00,4.289083480834960938e+00,4.305499076843261719e+00,5.000000000000000000e+00,5.000000000000000000e+00,5.000000000000000000e+00,5.000000000000000000e+00,5.000000000000000000e+00,5.000000000000000000e+00,5.000000000000000000e+00,5.000000000000000000e+00,5.000000000000000000e+00,5.000000000000000000e+00,5.000000000000000000e+00,5.000000000000000000e+00,4.873522758483886719e+00,4.680281162261962891e+00,4.501779079437255859e+00,4.336392879486083984e+00,4.182728290557861328e+00,4.039580821990966797e+00,3.905907869338989258e+00,3.780797719955444336e+00,3.663454055786132812e+00,3.553174972534179688e+00,3.449340820312500000e+00,3.351403474807739258e+00,3.258873701095581055e+00,3.171316146850585938e+00,3.088340282440185547e+00,3.009596109390258789e+00,2.934767246246337891e+00,2.863569259643554688e+00,2.795744180679321289e+00,2.731057405471801758e+00,2.669296503067016602e+00,2.610267162322998047e+00,2.553791999816894531e+00,2.499708890914916992e+00,2.447869062423706055e+00,2.398135662078857422e+00,2.350382804870605469e+00,2.304494619369506836e+00,2.260364055633544922e+00,2.217891931533813477e+00,2.176986217498779297e+00,2.137562274932861328e+00,2.099540710449218750e+00,2.062848091125488281e+00,2.027416229248046875e+00,1.993180751800537109e+00,1.960082173347473145e+00,1.928065061569213867e+00,1.897077202796936035e+00,1.867069482803344727e+00
5.000000000000000000e+00,5.000000000000000000e+00,5.000000000000000000e+00,5.000000000000000000e+00,5.000000000000000000e+00,5.000000000000000000e+00,5.000000000000000000e+00,5.000000000000000000e+00,5.000000000000000000e+00,5.000000000000000000e+00,5.000000000000000000e+00,5.000000000000000000e+00,5.000000000000000000e+00,5.000000000000000000e+00,5.000000000000000000e+00,5.000000000000000000e+00,5.000000000000000000e+00,5.000000000000000000e+00,5.000000000000000000e+00,5.000000000000000000e+00,5.000000000000000000e+00,5.000000000000000000e+00,5.000000000000000000e+00,5.000000000000000000e+00,5.000000000000000000e+00,5.000000000000000000e+00,4.387635707855224609e+00,4.367166519165039062e+00,5.000000000000000000e+00,5.000000000000000000e+00,5.000000000000000000e+00,5.000000000000000000e+00,5.000000000000000000e+00,5.000000000000000000e+00,5.000000000000000000e+00,5.000000000000000000e+00,5.000000000000000000e+00,5.000000000000000000e+00,5.000000000000000000e+00,5.000000000000000000e+00,4.873665809631347656e+00,4.680412292480468750e+00,4.501901149749755859e+00,4.336506366729736328e+00,4.182833194732666016e+00,4.039679050445556641e+00,3.905999660491943359e+00,3.780883789062500000e+00,3.663534641265869141e+00,3.553250551223754883e+00,3.449412345886230469e+00,3.351470947265625000e+00,3.258937597274780273e+00,3.171376705169677734e+00,3.088397741317749023e+00,3.009650707244873047e+00,2.934819221496582031e+00,2.863618612289428711e+00,2.795790910720825195e+00,2.731102228164672852e+00,2.669339418411254883e+00,2.610308170318603516e+00,2.553831338882446289e+00,2.499746561050415039e+00,2.447905302047729492e+00,2.398170232772827148e+00,2.350416183471679688e+00,2.304526805877685547e+00,2.260394811630249023e+00,2.217921495437622070e+00,2.177014589309692383e+00,2.137589693069458008e+00,2.099567174911499023e+00,2.062873840332031250e+00,2.027440786361694336e+00,1.993204593658447266e+00,1.960105299949645996e+00,1.928087353706359863e+00,1.897098898887634277e+00,1.867090463638305664e+00
5.000000000000000000e+00,5.000000000000000000e+00,5.000000000000000000e+00,5.000000000000000000e+00,5.000000000000000000e+00,5.000000000000000000e+00,5.000000000000000000e+00,5.000000000000000000e+00,5.000000000000000000e+00,5.000000000000000000e+00,5.000000000000000000e+00,5.000000000000000000e+00,5.000000000000000000e+00,5.000000000000000000e+00,5.000000000000000000e+00,5.000000000000000000e+00,5.000000000000000000e+00,5.000000000000000000e+00,5.000000000000000000e+00,5.000000000000000000e+00,5.000000000000000000e+00,5.000000000000000000e+00,5.000000000000000000e+00,5.000000000000000000e+00,4.348587036132812500e+00,4.318360805511474609e+00,4.334852218627929688e+00,4.300568103790283203e+00,4.355803489685058594e+00,4.355881214141845703e+00,5.000000000000000000e+00,5.000000000000000000e+00,5.000000000000000000e+00,5.000000000000000000e+00,5.000000000000000000e+00,5.000000000000000000e+00,5.000000000000000000e+00,5.000000000000000000e+00,5.000000000000000000e+00,5.000000000000000000e+00,4.873808860778808594e+00,4.680544376373291016e+00,4.502023220062255859e+00,4.336619377136230469e+00,4.182938575744628906e+00,4.039777278900146484e+00,3.906091451644897461e+00,3.780969858169555664e+00,3.663615465164184570e+00,3.553326606750488281e+00,3.449484109878540039e+00,3.351538181304931641e+00,3.259001493453979492e+00,3.171437263488769531e+00,3.088455200195312500e+00,3.009705066680908203e+00,2.934870958328247070e+00,2.863667964935302734e+00,2.795838117599487305e+00,2.731147289276123047e+00,2.669382333755493164e+00,2.610349178314208984e+00,2.553870677947998047e+00,2.499783992767333984e+00,2.447941303253173828e+00,2.398204803466796875e+00,2.350449323654174805e+00,2.304558515548706055e+00,2.260425567626953125e+00,2.217951059341430664e+00,2.177043199539184570e+00,2.137617349624633789e+00,2.099593639373779297e+00,2.062899351119995117e+00,2.027465581893920898e+00,1.993228554725646973e+00,1.960128426551818848e+00,1.928109765052795410e+00,1.897120594978332520e+00,1.867111444473266602e+00
5.000000000000000000e+00,5.000000000000000000e+00,5.000000000000000000e+00,5.000000000000000000e+00,5.000000000000000000e+00,5.000000000000000000e+00,5.000000000000000000e+00,5.000000000000000000e+00,5.000000000000000000e+00,5.000000000000000000e+00,5.000000000000000000e+00,5.000000000000000000e+00,5.000000000000000000e+00,5.000000000000000000e+00,5.000000000000000000e+00,5.000000000000000000e+00,5.000000000000000000e+00,5.000000000000000000e+00,5.000000000000000000e+00,5.000000000000000000e+00,5.000000000000000000e+00,5.000000000000000000e+00,5.000000000000000000e+00,5.000000000000000000e+00,4.329626560211181641e+00,4.276294708251953125e+00,4.271189689636230469e+00,4.264720439910888672e+00,4.300076961517333984e+00,4.371702194213867188e+00,4.398457527160644531e+00,5.000000000000000000e+00,5.000000000000000000e+00,5.000000000000000000e+00,5.000000000000000000e+00,5.000000000000000000e+00,5.000000000000000000e+00,5.000000000000000000e+00,5.000000000000000000e+00,5.000000000000000000e+00,4.873951435089111328e+00,4.680676460266113281e+00,4.502144813537597656e+00,4.336732387542724609e+00,4.183043956756591797e+00,4.039875507354736328e+00,3.906183481216430664e+00,3.781055927276611328e+00,3.663696289062500000e+00,3.553402662277221680e+00,3.449555635452270508e+00,3.351605892181396484e+00,3.259065389633178711e+00,3.171497821807861328e+00,3.088512659072875977e+00,3.009759664535522461e+00,2.934922933578491211e+00,2.863717555999755859e+00,2.795885086059570312e+00,2.731192111968994141e+00,2.669425010681152344e+00,2.610390186309814453e+00,2.553909778594970703e+00,2.499821662902832031e+00,2.447977304458618164e+00,2.398239374160766602e+00,2.350482702255249023e+00,2.304590463638305664e+00,2.260456323623657227e+00,2.217980623245239258e+00,2.177071809768676758e+00,2.137644767761230469e+00,2.099620342254638672e+00,2.062925100326538086e+00,2.027490139007568359e+00,1.993252396583557129e+00,1.960151553153991699e+00,1.928132176399230957e+00,1.897142171859741211e+00,1.867132544517517090e+00
5.000000000000000000e+00,5.000000000000000000e+00,5.000000000000000000e+00,5.000000000000000000e+00,5.000000000000000000e+00,5.000000000000000000e+00,5.000000000000000000e+00,5.000000000000000000e+00,5.000000000000000000e+00,5.000000000000000000e+00,5.000000000000000000e+00,5.000000000000000000e+00,5.000000000000000000e+00,5.000000000000000000e+00,5.000000000000000000e+00,5.000000000000000000e+00,5.000000000000000000e+00,5.000000000000000000e+00,5.000000000000000000e+00,5.000000000000000000e+00,5.000000000000000000e+00,5.000000000000000000e+00,5.000000000000000000e+00,5.000000000000000000e+00,4.350114345550537109e+00,4.277634143829345703e+00,4.259709358215332031e+00,4.263603210449218750e+00,4.302894592285156250e+00,4.373839855194091797e+00,4.403214931488037109e+00,5.000000000000000000e+00,5.000000000000000000e+00,5.000000000000000000e+00,5.000000000000000000e+00,5.000000000000000000e+00,5.000000000000000000e+00,5.000000000000000000e+00,5.000000000000000000e+00,5.000000000000000000e+00,4.874094486236572266e+00,4.680808067321777344e+00,4.502266883850097656e+00,4.336845397949218750e+00,4.183149337768554688e+00,4.039973735809326172e+00,3.906275272369384766e+00,3.781141996383666992e+00,3.663777112960815430e+00,3.553478479385375977e+00,3.449627399444580078e+00,3.351673603057861328e+00,3.259129524230957031e+00,3.171558141708374023e+00,3.088570117950439453e+00,3.009814262390136719e+00,2.934974670410156250e+00,2.863766908645629883e+00,2.795932054519653320e+00,2.731236934661865234e+00,2.669467926025390625e+00,2.610431194305419922e+00,2.553949117660522461e+00,2.499859333038330078e+00,2.448013305664062500e+00,2.398273944854736328e+00,2.350515842437744141e+00,2.304622411727905273e+00,2.260487079620361328e+00,2.218010187149047852e+00,2.177100181579589844e+00,2.137672185897827148e+00,2.099646806716918945e+00,2.062950611114501953e+00,2.027514934539794922e+00,1.993276357650756836e+00,1.960174679756164551e+00,1.928154587745666504e+00,1.897163867950439453e+00,1.867153525352478027e+00
5.000000000000000000e+00,5.000000000000000000e+00,5.000000000000000000e+00,5.000000000000000000e+00,5.000000000000000000e+00,5.000000000000000000e+00,5.000000000000000000e+00,5.000000000000000000e+00,5.000000000000000000e+00,5.000000000000000000e+00,5.000000000000000000e+00,5.000000000000000000e+00,5.000000000000000000e+00,5.000000000000000000e+00,5.000000000000000000e+00,5.000000000000000000e+00,5.000000000000000000e+00,5.000000000000000000e+00,5.000000000000000000e+00,5.000000000000000000e+00,5.000000000000000000e+00,5.000000000000000000e+00,5.000000000000000000e+00,5.000000000000000000e+00,4.362934112548828125e+00,4.281590938568115234e+00,4.254324913024902344e+00,4.265808582305908203e+00,4.311698436737060547e+00,4.367930889129638672e+00,4.403136730194091797e+00,5.000000000000000000e+00,5.000000000000000000e+00,5.000000000000000000e+00,5.000000000000000000e+00,5.000000000000000000e+00,5.000000000000000000e+00,5.000000000000000000e+00,5.000000000000000000e+00,5.000000000000000000e+00,4.874237537384033203e+00,4.680940151214599609e+00,4.502388954162597656e+00,4.336958885192871094e+00,4.183254718780517578e+00,4.040071964263916016e+00,3.906366586685180664e+00,3.781228065490722656e+00,3.663857936859130859e+00,3.553554534912109375e+00,3.449698925018310547e+00,3.351741075515747070e+00,3.259193420410156250e+00,3.171618700027465820e+00,3.088627338409423828e+00,3.009868383407592773e+00,2.935026645660400391e+00,2.863816261291503906e+00,2.795979261398315430e+00,2.731281995773315430e+00,2.669510841369628906e+00,2.610472202301025391e+00,2.553988218307495117e+00,2.499897003173828125e+00,2.448049545288085938e+00,2.398308753967285156e+00,2.350549221038818359e+00,2.304654359817504883e+00,2.260517835617065430e+00,2.218039751052856445e+00,2.177128791809082031e+00,2.137699604034423828e+00,2.099673271179199219e+00,2.062976121902465820e+00,2.027539730072021484e+00,1.993300318717956543e+00,1.960197806358337402e+00,1.928176879882812500e+00,1.897185325622558594e+00,1.867174506187438965e+00
5.000000000000000000e+00,5.000000000000000000e+00,5.000000000000000000e+00,5.000000000000000000e+00,5.000000000000000000e+00,5.000000000000000000e+00,5.000000000000000000e+00,5.000000000000000000e+00,5.000000000000000000e+00,5.000000000000000000e+00,5.000000000000000000e+00,5.000000000000000000e+00,5.000000000000000000e+00,5.000000000000000000e+00,5.000000000000000000e+00,5.000000000000000000e+00,5.000000000000000000e+00,5.000000000000000000e+00,5.000000000000000000e+00,5.000000000000000000e+00,5.000000000000000000e+00,5.000000000000000000e+00,5.000000000000000000e+00,5.000000000000000000e+00,4.369154453277587891e+00,4.269264221191406250e+00,4.255372047424316406e+00,4.265143394470214844e+00,4.321761131286621094e+00,4.404890537261962891e+00,4.411446571350097656e+00,5.000000000000000000e+00,5.000000000000000000e+00,5.000000000000000000e+00,5.000000000000000000e+00,5.000000000000000000e+00,5.000000000000000000e+00,5.000000000000000000e+00,5.000000000000000000e+00,5.000000000000000000e+00,4.874380588531494141e+00,4.681072235107421875e+00,4.502511024475097656e+00,4.337071895599365234e+00,4.183359622955322266e+00,4.040170192718505859e+00,3.906458616256713867e+00,3.781314134597778320e+00,3.663938283920288086e+00,3.553630590438842773e+00,3.449770689010620117e+00,3.351808786392211914e+00,3.259257316589355469e+00,3.171679258346557617e+00,3.088684797286987305e+00,3.009922981262207031e+00,2.935078382492065430e+00,2.863865613937377930e+00,2.796026229858398438e+00,2.731326818466186523e+00,2.669553756713867188e+00,2.610513210296630859e+00,2.554027557373046875e+00,2.499934434890747070e+00,2.448085308074951172e+00,2.398343324661254883e+00,2.350582361221313477e+00,2.304686307907104492e+00,2.260548591613769531e+00,2.218069314956665039e+00,2.177157402038574219e+00,2.137727260589599609e+00,2.099699974060058594e+00,2.063001871109008789e+00,2.027564525604248047e+00,1.993324160575866699e+00,1.960221052169799805e+00,1.928199291229248047e+00,1.897207021713256836e+00,1.867195487022399902e+00
5.000000000000000000e+00,5.000000000000000000e+00,5.000000000000000000e+00,5.000000000000000000e+00,5.000000000000000000e+00,5.000000000000000000e+00,5.000000000000000000e+00,5.000000000000000000e+00,5.000000000000000000e+00,5.000000000000000000e+00,5.000000000000000000e+00,5.000000000000000000e+00,5.000000000000000000e+00,5.000000000000000000e+00,5.000000000000000000e+00,5.000000000000000000e+00,5.000000000000000000e+00,5.000000000000000000e+00,5.000000000000000000e+00,5.000000000000000000e+00,5.000000000000000000e+00,5.000000000000000000e+00,5.000000000000000000e+00,5.000000000000000000e+00,4.384264945983886719e+00,4.276204586029052734e+00,4.254077434539794922e+00,4.270141601562500000e+00,4.311254978179931641e+00,4.402706146240234375e+00,4.387708187103271484e+00,5.000000000000000000e+00,5.000000000000000000e+00,5.000000000000000000e+00,5.000000000000000000e+00,5.000000000000000000e+00,5.000000000000000000e+00,5.000000000000000000e+00,5.000000000000000000e+00,5.000000000000000000e+00,4.874523162841796875e+00,4.681203365325927734e+00,4.502633094787597656e+00,4.337185382843017578e+00,4.183465003967285156e+00,4.040268421173095703e+00,3.906550407409667969e+00,3.781400203704833984e+00,3.664019107818603516e+00,3.553706645965576172e+00,3.449842214584350586e+00,3.351876497268676758e+00,3.259321212768554688e+00,3.171739816665649414e+00,3.088742256164550781e+00,3.009977579116821289e+00,2.935130357742309570e+00,2.863914728164672852e+00,2.796073198318481445e+00,2.731371641159057617e+00,2.669596672058105469e+00,2.610554218292236328e+00,2.554066658020019531e+00,2.499972105026245117e+00,2.448121547698974609e+00,2.398377895355224609e+00,2.350615739822387695e+00,2.304718494415283203e+00,2.260579347610473633e+00,2.218099117279052734e+00,2.177186012268066406e+00,2.137754678726196289e+00,2.099726438522338867e+00,2.063027381896972656e+00,2.027589321136474609e+00,1.993348121643066406e+00,1.960244178771972656e+00,1.928221702575683594e+00,1.897228717803955078e+00,1.867216467857360840e+00
5.000000000000000000e+00,5.000000000000000000e+00,5.000000000000000000e+00,5.000000000000000000e+00,5.000000000000000000e+00,5.000000000000000000e+00,5.000000000000000000e+00,5.000000000000000000e+00,5.000000000000000000e+00,5.000000000000000000e+00,5.000000000000000000e+00,5.000000000000000000e+00,5.000000000000000000e+00,5.000000000000000000e+00,5.000000000000000000e+00,5.000000000000000000e+00,5.000000000000000000e+00,5.000000000000000000e+00,5.000000000000000000e+00,5.000000000000000000e+00,5.000000000000000000e+00,5.000000000000000000e+00,5.000000000000000000e+00,5.000000000000000000e+00,4.357174873352050781e+00,4.268661499023437500e+00,4.274324893951416016e+00,4.283526420593261719e+00,4.313876152038574219e+00,5.000000000000000000e+00,4.359033584594726562e+00,5.000000000000000000e+00,5.000000000000000000e+00,5.000000000000000000e+00,5.000000000000000000e+00,5.000000000000000000e+00,5.000000000000000000e+00,5.000000000000000000e+00,5.000000000000000000e+00,5.000000000000000000e+00,4.874666213989257812e+00,4.681335449218750000e+00,4.502754688262939453e+00,4.337298393249511719e+00,4.183570384979248047e+00,4.040366649627685547e+00,3.906642198562622070e+00,3.781486272811889648e+00,3.664099931716918945e+00,3.553782701492309570e+00,3.449913501739501953e+00,3.351943969726562500e+00,3.259385347366333008e+00,3.171800374984741211e+00,3.088799715042114258e+00,3.010032176971435547e+00,2.935182094573974609e+00,2.863964080810546875e+00,2.796120405197143555e+00,2.731416463851928711e+00,2.669639587402343750e+00,2.610595226287841797e+00,2.554105997085571289e+00,2.500009775161743164e+00,2.448157548904418945e+00,2.398412466049194336e+00,2.350648641586303711e+00,2.304750442504882812e+00,2.260610103607177734e+00,2.218128681182861328e+00,2.177214384078979492e+00,2.137782096862792969e+00,2.099752902984619141e+00,2.063052892684936523e+00,2.027613878250122070e+00,1.993371844291687012e+00,1.960267305374145508e+00,1.928244113922119141e+00,1.897250294685363770e+00,1.867237448692321777e+00
5.000000000000000000e+00,5.000000000000000000e+00,5.000000000000000000e+00,5.000000000000000000e+00,5.000000000000000000e+00,5.000000000000000000e+00,5.000000000000000000e+00,5.000000000000000000e+00,5.000000000000000000e+00,5.000000000000000000e+00,5.000000000000000000e+00,5.000000000000000000e+00,5.000000000000000000e+00,5.000000000000000000e+00,5.000000000000000000e+00,5.000000000000000000e+00,5.000000000000000000e+00,5.000000000000000000e+00,5.000000000000000000e+00,5.000000000000000000e+00,5.000000000000000000e+00,5.000000000000000000e+00,5.000000000000000000e+00,5.000000000000000000e+00,4.330097198486328125e+00,4.240872859954833984e+00,4.274351596832275391e+00,4.258451461791992188e+00,4.269564151763916016e+00,5.000000000000000000e+00,4.334884643554687500e+00,5.000000000000000000e+00,5.000000000000000000e+00,5.000000000000000000e+00,5.000000000000000000e+00,5.000000000000000000e+00,5.000000000000000000e+00,5.000000000000000000e+00,5.000000000000000000e+00,5.000000000000000000e+00,4.874809265136718750e+00,4.681467533111572266e+00,4.502876758575439453e+00,4.337411403656005859e+00,4.183675765991210938e+00,4.040464878082275391e+00,3.906734228134155273e+00,3.781572341918945312e+00,3.664180755615234375e+00,3.553858757019042969e+00,3.449985265731811523e+00,3.352011680603027344e+00,3.259448766708374023e+00,3.171860933303833008e+00,3.088857173919677734e+00,3.010086774826049805e+00,2.935234069824218750e+00,2.864013433456420898e+00,2.796167373657226562e+00,2.731461286544799805e+00,2.669682502746582031e+00,2.610636234283447266e+00,2.554145336151123047e+00,2.500047445297241211e+00,2.448193550109863281e+00,2.398447036743164062e+00,2.350682020187377930e+00,2.304782390594482422e+00,2.260640859603881836e+00,2.218158245086669922e+00,2.177242994308471680e+00,2.137809753417968750e+00,2.099779367446899414e+00,2.063078641891479492e+00,2.027638673782348633e+00,1.993395686149597168e+00,1.960290431976318359e+00,1.928266406059265137e+00,1.897271990776062012e+00,1.867258429527282715e+00
5.000000000000000000e+00,5.000000000000000000e+00,5.000000000000000000e+00,5.000000000000000000e+00,5.000000000000000000e+00,5.000000000000000000e+00,5.000000000000000000e+00,5.000000000000000000e+00,5.000000000000000000e+00,5.000000000000000000e+00,5.000000000000000000e+00,5.000000000000000000e+00,5.000000000000000000e+00,5.000000000000000000e+00,5.000000000000000000e+00,5.000000000000000000e+00,5.000000000000000000e+00,5.000000000000000000e+00,5.000000000000000000e+00,5.000000000000000000e+00,5.000000000000000000e+00,5.000000000000000000e+00,5.000000000000000000e+00,5.000000000000000000e+00,4.329227447509765625e+00,4.234568595886230469e+00,4.255984306335449219e+00,4.236264705657958984e+00,4.250325202941894531e+00,5.000000000000000000e+00,4.293940067291259766e+00,5.000000000000000000e+00,5.000000000000000000e+00,5.000000000000000000e+00,5.000000000000000000e+00,5.000000000000000000e+00,5.000000000000000000e+00,5.000000000000000000e+00,5.000000000000000000e+00,5.000000000000000000e+00,4.874952793121337891e+00,4.681599617004394531e+00,4.502998828887939453e+00,4.337524890899658203e+00,4.183781147003173828e+00,4.040563106536865234e+00,3.906826019287109375e+00,3.781658411026000977e+00,3.664261579513549805e+00,3.553934812545776367e+00,3.450056791305541992e+00,3.352079391479492188e+00,3.259512901306152344e+00,3.171921491622924805e+00,3.088914632797241211e+00,3.010141134262084961e+00,2.935285806655883789e+00,2.864062786102294922e+00,2.796214580535888672e+00,2.731506347656250000e+00,2.669725418090820312e+00,2.610677003860473633e+00,2.554184675216674805e+00,2.500085115432739258e+00,2.448229789733886719e+00,2.398481845855712891e+00,2.350715398788452148e+00,2.304814338684082031e+00,2.260671615600585938e+00,2.218187808990478516e+00,2.177271604537963867e+00,2.137837171554565430e+00,2.099806070327758789e+00,2.063104152679443359e+00,2.027663469314575195e+00,1.993419647216796875e+00,1.960313558578491211e+00,1.928288817405700684e+00,1.897293686866760254e+00,1.867279410362243652e+00
5.000000000000000000e+00,5.000000000000000000e+00,5.000000000000000000e+00,5.000000000000000000e+00,5.000000000000000000e+00,5.000000000000000000e+00,5.000000000000000000e+00,5.000000000000000000e+00,5.000000000000000000e+00,5.000000000000000000e+00,5.000000000000000000e+00,5.000000000000000000e+00,5.000000000000000000e+00,5.000000000000000000e+00,5.000000000000000000e+00,5.000000000000000000e+00,5.000000000000000000e+00,5.000000000000000000e+00,5.000000000000000000e+00,5.000000000000000000e+00,5.000000000000000000e+00,5.000000000000000000e+00,5.000000000000000000e+00,5.000000000000000000e+00,4.282783508300781250e+00,4.233720302581787109e+00,4.249473094940185547e+00,4.224192619323730469e+00,4.236662864685058594e+00,5.000000000000000000e+00,4.263444423675537109e+00,5.000000000000000000e+00,5.000000000000000000e+00,5.000000000000000000e+00,5.000000000000000000e+00,5.000000000000000000e+00,5.000000000000000000e+00,5.000000000000000000e+00,5.000000000000000000e+00,5.000000000000000000e+00,4.875095844268798828e+00,4.681731224060058594e+00,4.503120899200439453e+00,4.337637901306152344e+00,4.183886528015136719e+00,4.040661334991455078e+00,3.906918048858642578e+00,3.781744480133056641e+00,3.664342403411865234e+00,3.554010868072509766e+00,3.450128555297851562e+00,3.352147102355957031e+00,3.259576797485351562e+00,3.171982049942016602e+00,3.088971853256225586e+00,3.010195732116699219e+00,2.935337781906127930e+00,2.864112138748168945e+00,2.796261548995971680e+00,2.731551170349121094e+00,2.669768333435058594e+00,2.610718250274658203e+00,2.554223775863647461e+00,2.500122785568237305e+00,2.448265790939331055e+00,2.398516416549682617e+00,2.350748538970947266e+00,2.304846286773681641e+00,2.260702371597290039e+00,2.218217611312866211e+00,2.177299976348876953e+00,2.137864828109741211e+00,2.099832534790039062e+00,2.063129901885986328e+00,2.027688264846801758e+00,1.993443608283996582e+00,1.960336685180664062e+00,1.928311228752136230e+00,1.897315382957458496e+00,1.867300391197204590e+00
5.000000000000000000e+00,5.000000000000000000e+00,5.000000000000000000e+00,5.000000000000000000e+00,5.000000000000000000e+00,5.000000000000000000e+00,5.000000000000000000e+00,5.000000000000000000e+00,5.000000000000000000e+00,5.000000000000000000e+00,5.000000000000000000e+00,5.000000000000000000e+00,5.000000000000000000e+00,5.000000000000000000e+00,5.000000000000000000e+00,5.000000000000000000e+00,5.000000000000000000e+00,5.000000000000000000e+00,5.000000000000000000e+00,5.000000000000000000e+00,5.000000000000000000e+00,5.000000000000000000e+00,5.000000000000000000e+00,5.000000000000000000e+00,5.000000000000000000e+00,4.229121685028076172e+00,4.241651535034179688e+00,4.212115764617919922e+00,4.219763755798339844e+00,5.000000000000000000e+00,5.000000000000000000e+00,5.000000000000000000e+00,5.000000000000000000e+00,5.000000000000000000e+00,5.000000000000000000e+00,5.000000000000000000e+00,5.000000000000000000e+00,5.000000000000000000e+00,5.000000000000000000e+00,5.000000000000000000e+00,4.875238418579101562e+00,4.681863307952880859e+00,4.503242969512939453e+00,4.337751388549804688e+00,4.183991909027099609e+00,4.040759563446044922e+00,3.907009840011596680e+00,3.781830310821533203e+00,3.664423227310180664e+00,3.554086685180664062e+00,3.450200080871582031e+00,3.352214574813842773e+00,3.259640693664550781e+00,3.172042608261108398e+00,3.089029312133789062e+00,3.010250329971313477e+00,2.935389280319213867e+00,2.864161491394042969e+00,2.796308755874633789e+00,2.731595993041992188e+00,2.669811248779296875e+00,2.610759258270263672e+00,2.554263114929199219e+00,2.500160217285156250e+00,2.448301792144775391e+00,2.398550987243652344e+00,2.350781917572021484e+00,2.304878234863281250e+00,2.260733127593994141e+00,2.218247175216674805e+00,2.177328348159790039e+00,2.137892246246337891e+00,2.099858999252319336e+00,2.063155412673950195e+00,2.027713060379028320e+00,1.993467450141906738e+00,1.960359811782836914e+00,1.928333640098571777e+00,1.897337079048156738e+00,1.867321133613586426e+00
5.000000000000000000e+00,5.000000000000000000e+00,5.000000000000000000e+00,5.000000000000000000e+00,5.000000000000000000e+00,5.000000000000000000e+00,5.000000000000000000e+00,5.000000000000000000e+00,5.000000000000000000e+00,5.000000000000000000e+00,5.000000000000000000e+00,5.000000000000000000e+00,5.000000000000000000e+00,5.000000000000000000e+00,5.000000000000000000e+00,5.000000000000000000e+00,5.000000000000000000e+00,5.000000000000000000e+00,5.000000000000000000e+00,5.000000000000000000e+00,5.000000000000000000e+00,5.000000000000000000e+00,5.000000000000000000e+00,5.000000000000000000e+00,5.000000000000000000e+00,4.233018875122070312e+00,4.229714870452880859e+00,4.196042060852050781e+00,4.206327915191650391e+00,5.000000000000000000e+00,5.000000000000000000e+00,5.000000000000000000e+00,5.000000000000000000e+00,5.000000000000000000e+00,5.000000000000000000e+00,5.000000000000000000e+00,5.000000000000000000e+00,5.000000000000000000e+00,5.000000000000000000e+00,5.000000000000000000e+00,4.875381469726562500e+00,4.681994915008544922e+00,4.503365039825439453e+00,4.337864398956298828e+00,4.184097290039062500e+00,4.040857791900634766e+00,3.907101631164550781e+00,3.781916379928588867e+00,3.664504051208496094e+00,3.554162502288818359e+00,3.450271844863891602e+00,3.352282285690307617e+00,3.259704828262329102e+00,3.172103166580200195e+00,3.089086771011352539e+00,3.010304927825927734e+00,2.935441255569458008e+00,2.864211082458496094e+00,2.796355724334716797e+00,2.731641054153442383e+00,2.669854164123535156e+00,2.610800266265869141e+00,2.554302453994750977e+00,2.500197649002075195e+00,2.448338031768798828e+00,2.398585557937622070e+00,2.350815057754516602e+00,2.304910182952880859e+00,2.260763883590698242e+00,2.218276739120483398e+00,2.177356958389282227e+00,2.137919902801513672e+00,2.099885463714599609e+00,2.063181161880493164e+00,2.027737855911254883e+00,1.993491411209106445e+00,1.960382938385009766e+00,1.928356051445007324e+00,1.897358655929565430e+00,1.867342114448547363e+00
5.000000000000000000e+00,5.000000000000000000e+00,5.000000000000000000e+00,5.000000000000000000e+00,5.000000000000000000e+00,5.000000000000000000e+00,5.000000000000000000e+00,5.000000000000000000e+00,5.000000000000000000e+00,5.000000000000000000e+00,5.000000000000000000e+00,5.000000000000000000e+00,5.000000000000000000e+00,5.000000000000000000e+00,5.000000000000000000e+00,5.000000000000000000e+00,5.000000000000000000e+00,5.000000000000000000e+00,5.000000000000000000e+00,5.000000000000000000e+00,5.000000000000000000e+00,5.000000000000000000e+00,5.000000000000000000e+00,5.000000000000000000e+00,5.000000000000000000e+00,5.000000000000000000e+00,4.243840694427490234e+00,4.214734554290771484e+00,4.221702098846435547e+00,5.000000000000000000e+00,5.000000000000000000e+00,5.000000000000000000e+00,5.000000000000000000e+00,5.000000000000000000e+00,5.000000000000000000e+00,5.000000000000000000e+00,5.000000000000000000e+00,5.000000000000000000e+00,5.000000000000000000e+00,5.000000000000000000e+00,4.875523090362548828e+00,4.682126998901367188e+00,4.503487110137939453e+00,4.337977886199951172e+00,4.184202671051025391e+00,4.040956020355224609e+00,3.907193660736083984e+00,3.782002449035644531e+00,3.664585113525390625e+00,3.554238557815551758e+00,3.450343608856201172e+00,3.352349996566772461e+00,3.259768724441528320e+00,3.172163724899291992e+00,3.089144229888916016e+00,3.010359525680541992e+00,2.935492992401123047e+00,2.864260435104370117e+00,2.796402454376220703e+00,2.731685876846313477e+00,2.669897079467773438e+00,2.610841274261474609e+00,2.554341793060302734e+00,2.500235319137573242e+00,2.448374032974243164e+00,2.398620128631591797e+00,2.350848436355590820e+00,2.304942369461059570e+00,2.260794639587402344e+00,2.218306303024291992e+00,2.177385568618774414e+00,2.137947320938110352e+00,2.099912166595458984e+00,2.063206672668457031e+00,2.027762413024902344e+00,1.993515372276306152e+00,1.960406064987182617e+00,1.928378343582153320e+00,1.897380352020263672e+00,1.867363214492797852e+00
5.000000000000000000e+00,5.000000000000000000e+00,5.000000000000000000e+00,5.000000000000000000e+00,5.000000000000000000e+00,5.000000000000000000e+00,5.000000000000000000e+00,5.000000000000000000e+00,5.000000000000000000e+00,5.000000000000000000e+00,5.000000000000000000e+00,5.000000000000000000e+00,5.000000000000000000e+00,5.000000000000000000e+00,5.000000000000000000e+00,5.000000000000000000e+00,5.000000000000000000e+00,5.000000000000000000e+00,5.000000000000000000e+00,5.000000000000000000e+00,5.000000000000000000e+00,5.000000000000000000e+00,5.000000000000000000e+00,5.000000000000000000e+00,5.000000000000000000e+00,5.000000000000000000e+00,4.283320903778076172e+00,5.000000000000000000e+00,4.324910640716552734e+00,5.000000000000000000e+00,5.000000000000000000e+00,5.000000000000000000e+00,5.000000000000000000e+00,5.000000000000000000e+00,5.000000000000000000e+00,5.000000000000000000e+00,5.000000000000000000e+00,5.000000000000000000e+00,5.000000000000000000e+00,5.000000000000000000e+00,4.875663280487060547e+00,4.682258605957031250e+00,4.503609180450439453e+00,4.338090896606445312e+00,4.184308052062988281e+00,4.041054725646972656e+00,3.907285451889038086e+00,3.782088518142700195e+00,3.664665937423706055e+00,3.554314613342285156e+00,3.450415134429931641e+00,3.352417230606079102e+00,3.259832620620727539e+00,3.172224521636962891e+00,3.089201450347900391e+00,3.010413885116577148e+00,2.935544967651367188e+00,2.864309787750244141e+00,2.796449661254882812e+00,2.731730937957763672e+00,2.669939994812011719e+00,2.610882282257080078e+00,2.554380893707275391e+00,2.500272989273071289e+00,2.448410034179687500e+00,2.398654699325561523e+00,2.350881576538085938e+00,2.304974079132080078e+00,2.260825395584106445e+00,2.218336105346679688e+00,2.177414178848266602e+00,2.137974739074707031e+00,2.099938631057739258e+00,2.063232421875000000e+00,2.027787208557128906e+00,1.993539214134216309e+00,1.960429191589355469e+00,1.928400754928588867e+00,1.897402048110961914e+00,1.867384195327758789e+00
5.000000000000000000e+00,5.000000000000000000e+00,5.000000000000000000e+00,5.000000000000000000e+00,5.000000000000000000e+00,5.000000000000000000e+00,5.000000000000000000e+00,5.000000000000000000e+00,5.000000000000000000e+00,5.000000000000000000e+00,5.000000000000000000e+00,5.000000000000000000e+00,5.000000000000000000e+00,5.000000000000000000e+00,5.000000000000000000e+00,5.000000000000000000e+00,5.000000000000000000e+00,5.000000000000000000e+00,5.000000000000000000e+00,5.000000000000000000e+00,5.000000000000000000e+00,5.000000000000000000e+00,5.000000000000000000e+00,5.000000000000000000e+00,5.000000000000000000e+00,5.000000000000000000e+00,4.294477939605712891e+00,5.000000000000000000e+00,4.392841815948486328e+00,5.000000000000000000e+00,5.000000000000000000e+00,5.000000000000000000e+00,5.000000000000000000e+00,5.000000000000000000e+00,5.000000000000000000e+00,5.000000000000000000e+00,5.000000000000000000e+00,5.000000000000000000e+00,5.000000000000000000e+00,5.000000000000000000e+00,4.875803470611572266e+00,4.682387828826904297e+00,4.503731250762939453e+00,4.338204383850097656e+00,4.184412956237792969e+00,4.041152477264404297e+00,3.907377481460571289e+00,3.782174587249755859e+00,3.664746761322021484e+00,3.554390668869018555e+00,3.450486898422241211e+00,3.352484941482543945e+00,3.259896516799926758e+00,3.172284603118896484e+00,3.089258909225463867e+00,3.010468482971191406e+00,2.935596942901611328e+00,2.864359140396118164e+00,2.796496629714965820e+00,2.731775760650634766e+00,2.669982671737670898e+00,2.610923290252685547e+00,2.554420232772827148e+00,2.500310659408569336e+00,2.448446273803710938e+00,2.398689508438110352e+00,2.350914955139160156e+00,2.305006027221679688e+00,2.260856151580810547e+00,2.218365430831909180e+00,2.177442550659179688e+00,2.138002395629882812e+00,2.099965095520019531e+00,2.063257932662963867e+00,2.027811765670776367e+00,1.993563175201416016e+00,1.960452079772949219e+00,1.928423166275024414e+00,1.897423744201660156e+00,1.867405176162719727e+00
5.000000000000000000e+00,5.000000000000000000e+00,5.000000000000000000e+00,5.000000000000000000e+00,5.000000000000000000e+00,5.000000000000000000e+00,5.000000000000000000e+00,5.000000000000000000e+00,5.000000000000000000e+00,5.000000000000000000e+00,5.000000000000000000e+00,5.000000000000000000e+00,5.000000000000000000e+00,5.000000000000000000e+00,5.000000000000000000e+00,5.000000000000000000e+00,5.000000000000000000e+00,5.000000000000000000e+00,5.000000000000000000e+00,5.000000000000000000e+00,5.000000000000000000e+00,5.000000000000000000e+00,5.000000000000000000e+00,5.000000000000000000e+00,5.000000000000000000e+00,5.000000000000000000e+00,4.300035476684570312e+00,5.000000000000000000e+00,4.493937492370605469e+00,5.000000000000000000e+00,5.000000000000000000e+00,5.000000000000000000e+00,5.000000000000000000e+00,5.000000000000000000e+00,5.000000000000000000e+00,5.000000000000000000e+00,5.000000000000000000e+00,5.000000000000000000e+00,5.000000000000000000e+00,5.000000000000000000e+00,4.875943183898925781e+00,4.682517051696777344e+00,4.503851413726806641e+00,4.338317394256591797e+00,4.184518337249755859e+00,4.041251182556152344e+00,3.907468795776367188e+00,3.782260656356811523e+00,3.664827585220336914e+00,3.554466724395751953e+00,3.450558423995971680e+00,3.352552652359008789e+00,3.259960651397705078e+00,3.172345161437988281e+00,3.089316368103027344e+00,3.010523080825805664e+00,2.935648679733276367e+00,2.864408493041992188e+00,2.796543836593627930e+00,2.731820583343505859e+00,2.670025587081909180e+00,2.610964298248291016e+00,2.554459333419799805e+00,2.500348329544067383e+00,2.448482275009155273e+00,2.398724079132080078e+00,2.350948095321655273e+00,2.305037975311279297e+00,2.260886907577514648e+00,2.218394994735717773e+00,2.177471160888671875e+00,2.138029813766479492e+00,2.099991798400878906e+00,2.063283681869506836e+00,2.027836561203002930e+00,1.993587136268615723e+00,1.960475206375122070e+00,1.928445577621459961e+00,1.897445440292358398e+00,1.867426156997680664e+00
5.000000000000000000e+00,5.000000000000000000e+00,5.000000000000000000e+00,5.000000000000000000e+00,5.000000000000000000e+00,5.000000000000000000e+00,5.000000000000000000e+00,5.000000000000000000e+00,5.000000000000000000e+00,5.000000000000000000e+00,5.000000000000000000e+00,5.000000000000000000e+00,5.000000000000000000e+00,5.000000000000000000e+00,5.000000000000000000e+00,5.000000000000000000e+00,5.000000000000000000e+00,5.000000000000000000e+00,5.000000000000000000e+00,5.000000000000000000e+00,5.000000000000000000e+00,5.000000000000000000e+00,5.000000000000000000e+00,5.000000000000000000e+00,5.000000000000000000e+00,5.000000000000000000e+00,4.326187133789062500e+00,5.000000000000000000e+00,4.559566497802734375e+00,5.000000000000000000e+00,5.000000000000000000e+00,5.000000000000000000e+00,5.000000000000000000e+00,5.000000000000000000e+00,5.000000000000000000e+00,5.000000000000000000e+00,5.000000000000000000e+00,5.000000000000000000e+00,5.000000000000000000e+00,5.000000000000000000e+00,4.876083374023437500e+00,4.682646274566650391e+00,4.503971099853515625e+00,4.338429450988769531e+00,4.184624195098876953e+00,4.041349411010742188e+00,3.907560825347900391e+00,3.782346963882446289e+00,3.664908409118652344e+00,3.554542779922485352e+00,3.450630187988281250e+00,3.352620363235473633e+00,3.260024547576904297e+00,3.172405958175659180e+00,3.089373826980590820e+00,3.010577440261840820e+00,2.935700654983520508e+00,2.864457845687866211e+00,2.796590805053710938e+00,2.731865644454956055e+00,2.670068502426147461e+00,2.611005306243896484e+00,2.554498672485351562e+00,2.500385999679565430e+00,2.448518514633178711e+00,2.398758649826049805e+00,2.350981473922729492e+00,2.305069923400878906e+00,2.260917663574218750e+00,2.218424797058105469e+00,2.177499771118164062e+00,2.138057231903076172e+00,2.100018262863159180e+00,2.063309192657470703e+00,2.027861356735229492e+00,1.993611097335815430e+00,1.960498452186584473e+00,1.928467869758605957e+00,1.897467017173767090e+00,1.867447137832641602e+00
5.000000000000000000e+00,5.000000000000000000e+00,5.000000000000000000e+00,5.000000000000000000e+00,5.000000000000000000e+00,5.000000000000000000e+00,5.000000000000000000e+00,5.000000000000000000e+00,5.000000000000000000e+00,5.000000000000000000e+00,5.000000000000000000e+00,5.000000000000000000e+00,5.000000000000000000e+00,5.000000000000000000e+00,5.000000000000000000e+00,5.000000000000000000e+00,5.000000000000000000e+00,5.000000000000000000e+00,5.000000000000000000e+00,5.000000000000000000e+00,5.000000000000000000e+00,5.000000000000000000e+00,5.000000000000000000e+00,5.000000000000000000e+00,5.000000000000000000e+00,5.000000000000000000e+00,5.000000000000000000e+00,5.000000000000000000e+00,4.547268867492675781e+00,5.000000000000000000e+00,5.000000000000000000e+00,5.000000000000000000e+00,5.000000000000000000e+00,5.000000000000000000e+00,5.000000000000000000e+00,5.000000000000000000e+00,5.000000000000000000e+00,5.000000000000000000e+00,5.000000000000000000e+00,5.000000000000000000e+00,4.876223564147949219e+00,4.682775497436523438e+00,4.504090309143066406e+00,4.338540554046630859e+00,4.184729099273681641e+00,4.041447639465332031e+00,3.907652854919433594e+00,3.782433032989501953e+00,3.664988756179809570e+00,3.554618835449218750e+00,3.450701951980590820e+00,3.352687835693359375e+00,3.260088682174682617e+00,3.172466516494750977e+00,3.089431285858154297e+00,3.010632038116455078e+00,2.935752391815185547e+00,2.864507198333740234e+00,2.796638011932373047e+00,2.731910467147827148e+00,2.670111417770385742e+00,2.611046552658081055e+00,2.554537773132324219e+00,2.500423669815063477e+00,2.448554277420043945e+00,2.398793220520019531e+00,2.351014614105224609e+00,2.305102109909057617e+00,2.260948419570922852e+00,2.218454360961914062e+00,2.177528142929077148e+00,2.138084650039672852e+00,2.100044727325439453e+00,2.063334703445434570e+00,2.027886152267456055e+00,1.993634939193725586e+00,1.960521578788757324e+00,1.928490281105041504e+00,1.897488713264465332e+00,1.867468118667602539e+00
4.871958732604980469e+00,4.870739459991455078e+00,4.869521141052246094e+00,4.868303775787353516e+00,4.867086410522460938e+00,4.865869522094726562e+00,4.864654064178466797e+00,4.863438606262207031e+00,4.862223625183105469e+00,4.861009597778320312e+00,4.859796524047851562e+00,4.858582973480224609e+00,4.857370853424072266e+00,4.856159210205078125e+00,4.854948520660400391e+00,4.853737831115722656e+00,4.852528095245361328e+00,4.851318836212158203e+00,4.850110054016113281e+00,4.848901748657226562e+00,4.847694396972656250e+00,4.846487998962402344e+00,4.845281124114990234e+00,4.844075679779052734e+00,4.842870712280273438e+00,4.841666221618652344e+00,4.297094821929931641e+00,4.289162158966064453e+00,4.838056087493896484e+00,4.836853981018066406e+00,4.835652828216552734e+00,4.834452152252197266e+00,4.833251476287841797e+00,4.832051753997802734e+00,4.830852985382080078e+00,4.829654216766357422e+00,4.828456401824951172e+00,4.827259063720703125e+00,4.826062679290771484e+00,4.824866294860839844e+00,4.823670864105224609e+00,4.682904720306396484e+00,4.504209995269775391e+00,4.338651657104492188e+00,4.184832572937011719e+00,4.041545867919921875e+00,3.907744646072387695e+00,3.782519102096557617e+00,3.665069818496704102e+00,3.554694890975952148e+00,3.450773239135742188e+00,3.352755546569824219e+00,3.260152578353881836e+00,3.172527074813842773e+00,3.089488744735717773e+00,3.010686397552490234e+00,2.935804367065429688e+00,2.864556550979614258e+00,2.796684980392456055e+00,2.731955528259277344e+00,2.670154333114624023e+00,2.611087560653686523e+00,2.554577112197875977e+00,2.500461101531982422e+00,2.448590517044067383e+00,2.398828029632568359e+00,2.351047754287719727e+00,2.305134057998657227e+00,2.260979175567626953e+00,2.218483924865722656e+00,2.177556753158569336e+00,2.138112306594848633e+00,2.100071430206298828e+00,2.063360452651977539e+00,2.027910947799682617e+00,1.993658900260925293e+00,1.960544705390930176e+00,1.928512692451477051e+00,1.897510409355163574e+00,1.867489099502563477e+00
3.776442050933837891e+00,3.775709390640258789e+00,3.774977445602416992e+00,3.774245500564575195e+00,3.773513793945312500e+00,3.772782802581787109e+00,3.772051572799682617e+00,3.771321058273315430e+00,3.770590543746948242e+00,3.769860029220581055e+00,3.769130468368530273e+00,3.768400669097900391e+00,3.767671346664428711e+00,3.766942501068115234e+00,3.766213655471801758e+00,3.765484809875488281e+00,3.764756917953491211e+00,3.764028787612915039e+00,3.763301134109497070e+00,3.762573957443237305e+00,3.761846780776977539e+00,3.761120319366455078e+00,3.760393619537353516e+00,3.759667158126831055e+00,3.758941411972045898e+00,3.758215665817260742e+00,3.757490158081054688e+00,3.756765365600585938e+00,3.756040334701538086e+00,3.755315542221069336e+00,3.754591464996337891e+00,3.753867387771606445e+00,3.753143548965454102e+00,3.752420425415039062e+00,3.751697063446044922e+00,3.750973939895629883e+00,3.750251770019531250e+00,3.749529123306274414e+00,3.748807430267333984e+00,3.748085498809814453e+00,3.747363805770874023e+00,3.746642827987670898e+00,3.745921850204467773e+00,3.745200872421264648e+00,3.744480848312377930e+00,3.743760585784912109e+00,3.743040561676025391e+00,3.742321252822875977e+00,3.665150642395019531e+00,3.554770946502685547e+00,3.450845003128051758e+00,3.352823257446289062e+00,3.260216474533081055e+00,3.172587633132934570e+00,3.089546203613281250e+00,3.010740995407104492e+00,2.935856342315673828e+00,2.864605903625488281e+00,2.796732187271118164e+00,2.732000112533569336e+00,2.670197248458862305e+00,2.611128568649291992e+00,2.554616451263427734e+00,2.500498771667480469e+00,2.448626518249511719e+00,2.398862600326538086e+00,2.351081132888793945e+00,2.305166006088256836e+00,2.261009931564331055e+00,2.218513727188110352e+00,2.177585363388061523e+00,2.138139724731445312e+00,2.100097894668579102e+00,2.063385963439941406e+00,2.027935743331909180e+00,1.993682861328125000e+00,1.960567831993103027e+00,1.928535103797912598e+00,1.897532105445861816e+00,1.867510080337524414e+00
3.083158254623413086e+00,3.082669734954833984e+00,3.082181930541992188e+00,3.081693887710571289e+00,3.081206083297729492e+00,3.080718517303466797e+00,3.080231189727783203e+00,3.079743862152099609e+00,3.079256772994995117e+00,3.078769683837890625e+00,3.078283071517944336e+00,3.077796220779418945e+00,3.077309608459472656e+00,3.076823234558105469e+00,3.076337099075317383e+00,3.075850963592529297e+00,3.075365066528320312e+00,3.074879169464111328e+00,3.074393510818481445e+00,3.073908329010009766e+00,3.073422908782958984e+00,3.072937965393066406e+00,3.072452783584594727e+00,3.071967840194702148e+00,3.071483373641967773e+00,3.070998668670654297e+00,3.070514202117919922e+00,3.070030212402343750e+00,3.069545984268188477e+00,3.069061994552612305e+00,3.068578243255615234e+00,3.068094730377197266e+00,3.067610979080200195e+00,3.067127943038940430e+00,3.066644668579101562e+00,3.066161632537841797e+00,3.065679073333740234e+00,3.065196275711059570e+00,3.064713716506958008e+00,3.064231395721435547e+00,3.063749074935913086e+00,3.063266992568969727e+00,3.062784910202026367e+00,3.062303066253662109e+00,3.061821699142456055e+00,3.061340093612670898e+00,3.060858488082885742e+00,3.060377597808837891e+00,3.059896469116210938e+00,3.059415340423583984e+00,3.058934926986694336e+00,3.058454275131225586e+00,3.057973861694335938e+00,3.057493448257446289e+00,3.057013273239135742e+00,3.010795593261718750e+00,2.935908079147338867e+00,2.864655256271362305e+00,2.796779155731201172e+00,2.732045173645019531e+00,2.670240163803100586e+00,2.611169338226318359e+00,2.554655790328979492e+00,2.500536441802978516e+00,2.448662519454956055e+00,2.398897171020507812e+00,2.351114511489868164e+00,2.305197954177856445e+00,2.261040687561035156e+00,2.218543291091918945e+00,2.177613973617553711e+00,2.138167381286621094e+00,2.100124359130859375e+00,2.063411712646484375e+00,2.027960300445556641e+00,1.993706703186035156e+00,1.960590958595275879e+00,1.928557276725769043e+00,1.897553801536560059e+00,1.867531180381774902e+00
2.604939937591552734e+00,2.604591369628906250e+00,2.604243040084838867e+00,2.603894710540771484e+00,2.603546380996704102e+00,2.603198289871215820e+00,2.602850198745727539e+00,2.602502346038818359e+00,2.602154493331909180e+00,2.601806640625000000e+00,2.601459026336669922e+00,2.601111412048339844e+00,2.600763797760009766e+00,2.600416421890258789e+00,2.600069046020507812e+00,2.599721670150756836e+00,2.599374771118164062e+00,2.599027633666992188e+00,2.598680496215820312e+00,2.598333835601806641e+00,2.597986936569213867e+00,2.597640514373779297e+00,2.597293853759765625e+00,2.596947193145751953e+00,2.596601009368896484e+00,2.596254587173461914e+00,2.595908403396606445e+00,2.595562458038330078e+00,2.595216274261474609e+00,2.594870328903198242e+00,2.594524621963500977e+00,2.594178915023803711e+00,2.593832969665527344e+00,2.593487739562988281e+00,2.593142032623291016e+00,2.592796564102172852e+00,2.592451572418212891e+00,2.592106342315673828e+00,2.591761350631713867e+00,2.591416120529174805e+00,2.591071128845214844e+00,2.590726613998413086e+00,2.590381622314453125e+00,2.590036869049072266e+00,2.589692592620849609e+00,2.589348077774047852e+00,2.589003562927246094e+00,2.588659524917602539e+00,2.588315248489379883e+00,2.587970972061157227e+00,2.587627172470092773e+00,2.587283134460449219e+00,2.586939573287963867e+00,2.586595773696899414e+00,2.586251974105834961e+00,2.585908651351928711e+00,2.585565090179443359e+00,2.585221767425537109e+00,2.584878444671630859e+00,2.584535360336303711e+00,2.584192037582397461e+00,2.583849191665649414e+00,2.554695129394531250e+00,2.500574111938476562e+00,2.448698759078979492e+00,2.398931980133056641e+00,2.351147651672363281e+00,2.305229902267456055e+00,2.261071443557739258e+00,2.218572854995727539e+00,2.177642345428466797e+00,2.138194799423217773e+00,2.100151062011718750e+00,2.063437223434448242e+00,2.027985095977783203e+00,1.993730664253234863e+00,1.960614085197448730e+00,1.928579688072204590e+00,1.897575497627258301e+00,1.867552161216735840e+00
2.255145788192749023e+00,2.254885196685791016e+00,2.254624605178833008e+00,2.254364252090454102e+00,2.254103899002075195e+00,2.253843545913696289e+00,2.253583192825317383e+00,2.253322839736938477e+00,2.253062725067138672e+00,2.252802371978759766e+00,2.252541780471801758e+00,2.252281188964843750e+00,2.252020597457885742e+00,2.251760244369506836e+00,2.251499652862548828e+00,2.251239299774169922e+00,2.250978946685791016e+00,2.250718832015991211e+00,2.250458478927612305e+00,2.250198364257812500e+00,2.249938249588012695e+00,2.249678373336791992e+00,2.249418497085571289e+00,2.249158382415771484e+00,2.248898744583129883e+00,2.248638868331909180e+00,2.248379230499267578e+00,2.248119592666625977e+00,2.247859954833984375e+00,2.247600317001342773e+00,2.247340917587280273e+00,2.247081518173217773e+00,2.246822118759155273e+00,2.246562957763671875e+00,2.246303796768188477e+00,2.246044397354125977e+00,2.245785474777221680e+00,2.245526313781738281e+00,2.245267391204833984e+00,2.245008468627929688e+00,2.244749546051025391e+00,2.244490861892700195e+00,2.244231939315795898e+00,2.243973255157470703e+00,2.243714809417724609e+00,2.243456125259399414e+00,2.243197441101074219e+00,2.242939233779907227e+00,2.242680788040161133e+00,2.242422342300415039e+00,2.242164134979248047e+00,2.241905927658081055e+00,2.241647720336914062e+00,2.241389751434326172e+00,2.241131544113159180e+00,2.240873575210571289e+00,2.240615606307983398e+00,2.240357875823974609e+00,2.240100145339965820e+00,2.239842414855957031e+00,2.239584684371948242e+00,2.239326953887939453e+00,2.239069461822509766e+00,2.238811969757080078e+00,2.238554477691650391e+00,2.238296985626220703e+00,2.238039731979370117e+00,2.237782478332519531e+00,2.237525224685668945e+00,2.218602418899536133e+00,2.177670955657958984e+00,2.138222455978393555e+00,2.100177526473999023e+00,2.063462972640991211e+00,2.028009891510009766e+00,1.993754625320434570e+00,1.960637211799621582e+00,1.928602099418640137e+00,1.897597074508666992e+00,1.867573142051696777e+00
1.988140463829040527e+00,1.987937927246093750e+00,1.987735390663146973e+00,1.987532854080200195e+00,1.987330317497253418e+00,1.987128138542175293e+00,1.986925721168518066e+00,1.986723423004150391e+00,1.986521124839782715e+00,1.986318826675415039e+00,1.986116647720336914e+00,1.985914707183837891e+00,1.985712528228759766e+00,1.985510468482971191e+00,1.985308408737182617e+00,1.985106468200683594e+00,1.984904646873474121e+00,1.984702706336975098e+00,1.984500885009765625e+00,1.984298944473266602e+00,1.984097123146057129e+00,1.983895421028137207e+00,1.983693838119506836e+00,1.983492255210876465e+00,1.983290553092956543e+00,1.983088970184326172e+00,1.982887387275695801e+00,1.982686161994934082e+00,1.982484579086303711e+00,1.982283234596252441e+00,1.982081770896911621e+00,1.981880426406860352e+00,1.981679081916809082e+00,1.981478095054626465e+00,1.981276869773864746e+00,1.981075644493103027e+00,1.980874419212341309e+00,1.980673313140869141e+00,1.980472445487976074e+00,1.980271458625793457e+00,1.980070471763610840e+00,1.979869484901428223e+00,1.979668617248535156e+00,1.979467749595642090e+00,1.979267120361328125e+00,1.979066371917724609e+00,1.978865623474121094e+00,1.978664875030517578e+00,1.978464245796203613e+00,1.978263854980468750e+00,1.978063225746154785e+00,1.977862715721130371e+00,1.977662205696105957e+00,1.977461695671081543e+00,1.977261543273925781e+00,1.977061152458190918e+00,1.976860761642456055e+00,1.976660490036010742e+00,1.976460218429565430e+00,1.976259946823120117e+00,1.976060032844543457e+00,1.975859880447387695e+00,1.975659728050231934e+00,1.975459694862365723e+00,1.975259661674499512e+00,1.975059986114501953e+00,1.974859952926635742e+00,1.974660038948059082e+00,1.974460244178771973e+00,1.974260449409484863e+00,1.974060654640197754e+00,1.973861098289489746e+00,1.973661422729492188e+00,1.973461747169494629e+00,1.973262190818786621e+00,1.973062634468078613e+00,1.960660338401794434e+00,1.928624391555786133e+00,1.897618770599365234e+00,1.867594122886657715e+00
1.777667522430419922e+00,1.777505636215209961e+00,1.777343630790710449e+00,1.777181744575500488e+00,1.777020096778869629e+00,1.776858210563659668e+00,1.776696443557739258e+00,1.776534557342529297e+00,1.776372790336608887e+00,1.776211142539978027e+00,1.776049613952636719e+00,1.775887966156005859e+00,1.775726318359375000e+00,1.775564670562744141e+00,1.775403022766113281e+00,1.775241732597351074e+00,1.775080204010009766e+00,1.774918675422668457e+00,1.774757146835327148e+00,1.774595737457275391e+00,1.774434566497802734e+00,1.774273157119750977e+00,1.774111747741699219e+00,1.773950457572937012e+00,1.773789167404174805e+00,1.773627877235412598e+00,1.773466825485229492e+00,1.773305654525756836e+00,1.773144483566284180e+00,1.772983312606811523e+00,1.772822141647338867e+00,1.772661328315734863e+00,1.772500157356262207e+00,1.772339224815368652e+00,1.772178173065185547e+00,1.772017240524291992e+00,1.771856188774108887e+00,1.771695494651794434e+00,1.771534681320190430e+00,1.771373748779296875e+00,1.771212935447692871e+00,1.771052122116088867e+00,1.770891547203063965e+00,1.770730853080749512e+00,1.770570158958435059e+00,1.770409464836120605e+00,1.770248770713806152e+00,1.770088195800781250e+00,1.769927740097045898e+00,1.769767165184020996e+00,1.769606590270996094e+00,1.769446134567260742e+00,1.769285678863525391e+00,1.769125342369079590e+00,1.768965005874633789e+00,1.768804550170898438e+00,1.768644213676452637e+00,1.768483877182006836e+00,1.768323779106140137e+00,1.768163442611694336e+00,1.768003225326538086e+00,1.767843008041381836e+00,1.767682790756225586e+00,1.767522692680358887e+00,1.767362713813781738e+00,1.767202615737915039e+00,1.767042517662048340e+00,1.766882538795471191e+00,1.766722440719604492e+00,1.766562700271606445e+00,1.766402721405029297e+00,1.766242861747741699e+00,1.766082882881164551e+00,1.765923023223876953e+00,1.765763282775878906e+00,1.765603542327880859e+00,1.765443801879882812e+00,1.765284061431884766e+00,1.765124440193176270e+00,1.764964699745178223e+00
1.607491731643676758e+00,1.607359290122985840e+00,1.607226848602294922e+00,1.607094645500183105e+00,1.606962203979492188e+00,1.606829881668090820e+00,1.606697559356689453e+00,1.606565237045288086e+00,1.606433153152465820e+00,1.606300830841064453e+00,1.606168627738952637e+00,1.606036305427551270e+00,1.605904102325439453e+00,1.605772018432617188e+00,1.605639934539794922e+00,1.605507850646972656e+00,1.605375647544860840e+00,1.605243563652038574e+00,1.605111479759216309e+00,1.604979634284973145e+00,1.604847550392150879e+00,1.604715585708618164e+00,1.604583621025085449e+00,1.604451656341552734e+00,1.604319810867309570e+00,1.604187846183776855e+00,1.604056000709533691e+00,1.603924155235290527e+00,1.603792309761047363e+00,1.603660464286804199e+00,1.603528738021850586e+00,1.603397011756896973e+00,1.603265166282653809e+00,1.603133440017700195e+00,1.603001713752746582e+00,1.602870106697082520e+00,1.602738499641418457e+00,1.602606773376464844e+00,1.602475166320800781e+00,1.602343559265136719e+00,1.602211952209472656e+00,1.602080464363098145e+00,1.601948976516723633e+00,1.601817369461059570e+00,1.601685881614685059e+00,1.601554393768310547e+00,1.601423144340515137e+00,1.601291656494140625e+00,1.601160287857055664e+00,1.601028800010681152e+00,1.600897431373596191e+00,1.600766062736511230e+00,1.600634932518005371e+00,1.600503563880920410e+00,1.600372314453125000e+00,1.600241065025329590e+00,1.600109815597534180e+00,1.599978685379028320e+00,1.599847435951232910e+00,1.599716186523437500e+00,1.599585056304931641e+00,1.599453926086425781e+00,1.599322795867919922e+00,1.599191904067993164e+00,1.599060773849487305e+00,1.598929762840270996e+00,1.598798632621765137e+00,1.598667621612548828e+00,1.598536849021911621e+00,1.598405838012695312e+00,1.598274946212768555e+00,1.598143935203552246e+00,1.598013043403625488e+00,1.597882270812988281e+00,1.597751498222351074e+00,1.597620606422424316e+00,1.597489833831787109e+00,1.597358942031860352e+00,1.597228169441223145e+00,1.597097635269165039e+00
1.467051148414611816e+00,1.466940999031066895e+00,1.466830730438232422e+00,1.466720461845397949e+00,1.466610193252563477e+00,1.466499924659729004e+00,1.466389656066894531e+00,1.466279506683349609e+00,1.466169357299804688e+00,1.466059207916259766e+00,1.465949058532714844e+00,1.465838909149169922e+00,1.465728878974914551e+00,1.465618729591369629e+00,1.465508580207824707e+00,1.465398550033569336e+00,1.465288519859313965e+00,1.465178370475769043e+00,1.465068578720092773e+00,1.464958548545837402e+00,1.464848518371582031e+00,1.464738488197326660e+00,1.464628577232360840e+00,1.464518666267395020e+00,1.464408755302429199e+00,1.464298844337463379e+00,1.464188933372497559e+00,1.464079022407531738e+00,1.463969230651855469e+00,1.463859438896179199e+00,1.463749647140502930e+00,1.463639855384826660e+00,1.463530063629150391e+00,1.463420271873474121e+00,1.463310599327087402e+00,1.463200807571411133e+00,1.463091135025024414e+00,1.462981343269348145e+00,1.462871670722961426e+00,1.462762117385864258e+00,1.462652444839477539e+00,1.462542772293090820e+00,1.462433099746704102e+00,1.462323546409606934e+00,1.462213993072509766e+00,1.462104439735412598e+00,1.461994886398315430e+00,1.461885333061218262e+00,1.461775779724121094e+00,1.461666345596313477e+00,1.461556911468505859e+00,1.461447477340698242e+00,1.461337924003601074e+00,1.461228489875793457e+00,1.461119055747985840e+00,1.461009621620178223e+00,1.460900306701660156e+00,1.460790991783142090e+00,1.460681557655334473e+00,1.460572242736816406e+00,1.460462927818298340e+00,1.460353732109069824e+00,1.460244417190551758e+00,1.460135102272033691e+00,1.460025787353515625e+00,1.459916591644287109e+00,1.459807276725769043e+00,1.459698200225830078e+00,1.459589004516601562e+00,1.459479808807373047e+00,1.459370613098144531e+00,1.459261417388916016e+00,1.459152460098266602e+00,1.459043264389038086e+00,1.458934187889099121e+00,1.458825111389160156e+00,1.458716034889221191e+00,1.458606958389282227e+00,1.458498001098632812e+00,1.458388924598693848e+00
1.349178552627563477e+00,1.349085211753845215e+00,1.348991990089416504e+00,1.348898649215698242e+00,1.348805427551269531e+00,1.348712325096130371e+00,1.348618984222412109e+00,1.348525762557983398e+00,1.348432540893554688e+00,1.348339438438415527e+00,1.348246216773986816e+00,1.348153114318847656e+00,1.348060011863708496e+00,1.347966790199279785e+00,1.347873687744140625e+00,1.347780585289001465e+00,1.347687602043151855e+00,1.347594499588012695e+00,1.347501397132873535e+00,1.347408294677734375e+00,1.347315311431884766e+00,1.347222328186035156e+00,1.347129344940185547e+00,1.347036361694335938e+00,1.346943378448486328e+00,1.346850395202636719e+00,1.346757411956787109e+00,1.346664547920227051e+00,1.346571564674377441e+00,1.346478581428527832e+00,1.346385717391967773e+00,1.346292734146118164e+00,1.346199870109558105e+00,1.346107125282287598e+00,1.346014261245727539e+00,1.345921397209167480e+00,1.345828533172607422e+00,1.345735669136047363e+00,1.345642924308776855e+00,1.345550179481506348e+00,1.345457315444946289e+00,1.345364570617675781e+00,1.345271825790405273e+00,1.345178961753845215e+00,1.345086336135864258e+00,1.344993591308593750e+00,1.344900846481323242e+00,1.344808220863342285e+00,1.344715476036071777e+00,1.344622969627380371e+00,1.344530224800109863e+00,1.344437599182128906e+00,1.344344973564147949e+00,1.344252347946166992e+00,1.344159841537475586e+00,1.344067215919494629e+00,1.343974590301513672e+00,1.343881964683532715e+00,1.343789458274841309e+00,1.343696832656860352e+00,1.343604445457458496e+00,1.343511939048767090e+00,1.343419432640075684e+00,1.343326926231384277e+00,1.343234419822692871e+00,1.343142032623291016e+00,1.343049526214599609e+00,1.342957019805908203e+00,1.342864632606506348e+00,1.342772245407104492e+00,1.342679738998413086e+00,1.342587471008300781e+00,1.342495083808898926e+00,1.342402696609497070e+00,1.342310309410095215e+00,1.342218041419982910e+00,1.342125773429870605e+00,1.342033386230468750e+00,1.341941118240356445e+00,1.341848850250244141e+00
1.248838424682617188e+00,1.248758554458618164e+00,1.248678684234619141e+00,1.248598694801330566e+00,1.248518943786621094e+00,1.248438954353332520e+00,1.248359084129333496e+00,1.248279213905334473e+00,1.248199343681335449e+00,1.248119473457336426e+00,1.248039722442626953e+00,1.247959852218627930e+00,1.247880101203918457e+00,1.247800230979919434e+00,1.247720479965209961e+00,1.247640728950500488e+00,1.247560977935791016e+00,1.247481226921081543e+00,1.247401475906372070e+00,1.247321724891662598e+00,1.247241973876953125e+00,1.247162222862243652e+00,1.247082591056823730e+00,1.247002840042114258e+00,1.246923089027404785e+00,1.246843457221984863e+00,1.246763825416564941e+00,1.246684193611145020e+00,1.246604442596435547e+00,1.246524810791015625e+00,1.246445178985595703e+00,1.246365666389465332e+00,1.246286034584045410e+00,1.246206402778625488e+00,1.246126770973205566e+00,1.246047258377075195e+00,1.245967626571655273e+00,1.245888113975524902e+00,1.245808601379394531e+00,1.245729088783264160e+00,1.245649456977844238e+00,1.245569944381713867e+00,1.245490550994873047e+00,1.245411038398742676e+00,1.245331525802612305e+00,1.245252013206481934e+00,1.245172500610351562e+00,1.245093107223510742e+00,1.245013713836669922e+00,1.244934320449829102e+00,1.244854807853698730e+00,1.244775414466857910e+00,1.244696021080017090e+00,1.244616627693176270e+00,1.244537234306335449e+00,1.244457840919494629e+00,1.244378447532653809e+00,1.244299173355102539e+00,1.244219899177551270e+00,1.244140505790710449e+00,1.244061112403869629e+00,1.243981838226318359e+00,1.243902564048767090e+00,1.243823170661926270e+00,1.243744015693664551e+00,1.243664741516113281e+00,1.243585467338562012e+00,1.243506193161010742e+00,1.243426918983459473e+00,1.243347764015197754e+00,1.243268489837646484e+00,1.243189334869384766e+00,1.243110060691833496e+00,1.243030905723571777e+00,1.242951631546020508e+00,1.242872595787048340e+00,1.242793440818786621e+00,1.242714285850524902e+00,1.242635130882263184e+00,1.242555975914001465e+00
1.162390112876892090e+00,1.162320852279663086e+00,1.162251591682434082e+00,1.162182450294494629e+00,1.162113308906555176e+00,1.162044048309326172e+00,1.161974787712097168e+00,1.161905646324157715e+00,1.161836504936218262e+00,1.161767244338989258e+00,1.161698102951049805e+00,1.161628961563110352e+00,1.161559820175170898e+00,1.161490678787231445e+00,1.161421537399291992e+00,1.161352396011352539e+00,1.161283254623413086e+00,1.161214113235473633e+00,1.161145091056823730e+00,1.161076068878173828e+00,1.161006927490234375e+00,1.160937786102294922e+00,1.160868763923645020e+00,1.160799622535705566e+00,1.160730719566345215e+00,1.160661578178405762e+00,1.160592555999755859e+00,1.160523533821105957e+00,1.160454511642456055e+00,1.160385489463806152e+00,1.160316467285156250e+00,1.160247564315795898e+00,1.160178542137145996e+00,1.160109519958496094e+00,1.160040497779846191e+00,1.159971594810485840e+00,1.159902691841125488e+00,1.159833669662475586e+00,1.159764766693115234e+00,1.159695744514465332e+00,1.159626841545104980e+00,1.159558057785034180e+00,1.159489154815673828e+00,1.159420132637023926e+00,1.159351229667663574e+00,1.159282445907592773e+00,1.159213542938232422e+00,1.159144639968872070e+00,1.159075856208801270e+00,1.159006953239440918e+00,1.158938169479370117e+00,1.158869266510009766e+00,1.158800482749938965e+00,1.158731698989868164e+00,1.158662796020507812e+00,1.158594012260437012e+00,1.158525228500366211e+00,1.158456563949584961e+00,1.158387780189514160e+00,1.158318996429443359e+00,1.158250212669372559e+00,1.158181428909301758e+00,1.158112645149230957e+00,1.158043980598449707e+00,1.157975316047668457e+00,1.157906532287597656e+00,1.157837867736816406e+00,1.157769083976745605e+00,1.157700538635253906e+00,1.157631754875183105e+00,1.157563090324401855e+00,1.157494425773620605e+00,1.157425761222839355e+00,1.157357215881347656e+00,1.157288551330566406e+00,1.157219886779785156e+00,1.157151222229003906e+00,1.157082557678222656e+00,1.157014012336730957e+00,1.156945466995239258e+00
1.087135314941406250e+00,1.087074875831604004e+00,1.087014198303222656e+00,1.086953639984130859e+00,1.086893081665039062e+00,1.086832523345947266e+00,1.086772084236145020e+00,1.086711525917053223e+00,1.086651086807250977e+00,1.086590528488159180e+00,1.086529970169067383e+00,1.086469531059265137e+00,1.086409091949462891e+00,1.086348533630371094e+00,1.086288094520568848e+00,1.086227536201477051e+00,1.086167097091674805e+00,1.086106657981872559e+00,1.086046218872070312e+00,1.085985779762268066e+00,1.085925340652465820e+00,1.085864901542663574e+00,1.085804462432861328e+00,1.085744142532348633e+00,1.085683703422546387e+00,1.085623264312744141e+00,1.085562825202941895e+00,1.085502386093139648e+00,1.085442066192626953e+00,1.085381746292114258e+00,1.085321307182312012e+00,1.085260987281799316e+00,1.085200548171997070e+00,1.085140228271484375e+00,1.085079908370971680e+00,1.085019588470458984e+00,1.084959268569946289e+00,1.084898948669433594e+00,1.084838628768920898e+00,1.084778308868408203e+00,1.084717988967895508e+00,1.084657669067382812e+00,1.084597349166870117e+00,1.084537148475646973e+00,1.084476828575134277e+00,1.084416627883911133e+00,1.084356307983398438e+00,1.084296107292175293e+00,1.084235787391662598e+00,1.084175586700439453e+00,1.084115386009216309e+00,1.084055066108703613e+00,1.083994865417480469e+00,1.083934664726257324e+00,1.083874464035034180e+00,1.083814263343811035e+00,1.083754062652587891e+00,1.083693861961364746e+00,1.083633661270141602e+00,1.083573460578918457e+00,1.083513259887695312e+00,1.083453178405761719e+00,1.083392977714538574e+00,1.083332896232604980e+00,1.083272695541381836e+00,1.083212614059448242e+00,1.083152413368225098e+00,1.083092331886291504e+00,1.083032250404357910e+00,1.082972049713134766e+00,1.082911968231201172e+00,1.082851886749267578e+00,1.082791805267333984e+00,1.082731723785400391e+00,1.082671642303466797e+00,1.082611560821533203e+00,1.082551479339599609e+00,1.082491397857666016e+00,1.082431435585021973e+00,1.082371354103088379e+00
1.021032333374023438e+00,1.020978927612304688e+00,1.020925402641296387e+00,1.020871996879577637e+00,1.020818591117858887e+00,1.020765304565429688e+00,1.020711898803710938e+00,1.020658493041992188e+00,1.020605087280273438e+00,1.020551681518554688e+00,1.020498275756835938e+00,1.020444989204406738e+00,1.020391583442687988e+00,1.020338177680969238e+00,1.020284891128540039e+00,1.020231485366821289e+00,1.020178198814392090e+00,1.020124793052673340e+00,1.020071506500244141e+00,1.020018219947814941e+00,1.019964814186096191e+00,1.019911527633666992e+00,1.019858241081237793e+00,1.019804954528808594e+00,1.019751667976379395e+00,1.019698381423950195e+00,1.019645094871520996e+00,1.019591808319091797e+00,1.019538521766662598e+00,1.019485235214233398e+00,1.019431948661804199e+00,1.019378662109375000e+00,1.019325494766235352e+00,1.019272208213806152e+00,1.019219040870666504e+00,1.019165754318237305e+00,1.019112467765808105e+00,1.019059300422668457e+00,1.019006133079528809e+00,1.018952846527099609e+00,1.018899679183959961e+00,1.018846511840820312e+00,1.018793225288391113e+00,1.018740057945251465e+00,1.018686890602111816e+00,1.018633723258972168e+00,1.018580555915832520e+00,1.018527388572692871e+00,1.018474221229553223e+00,1.018421053886413574e+00,1.018367886543273926e+00,1.018314719200134277e+00,1.018261551856994629e+00,1.018208503723144531e+00,1.018155336380004883e+00,1.018102288246154785e+00,1.018049120903015137e+00,1.017995953559875488e+00,1.017942905426025391e+00,1.017889738082885742e+00,1.017836689949035645e+00,1.017783641815185547e+00,1.017730474472045898e+00,1.017677426338195801e+00,1.017624378204345703e+00,1.017571330070495605e+00,1.017518281936645508e+00,1.017465233802795410e+00,1.017412066459655762e+00,1.017359018325805664e+00,1.017305970191955566e+00,1.017253041267395020e+00,1.017199993133544922e+00,1.017146944999694824e+00,1.017093896865844727e+00,1.017040848731994629e+00,1.016987919807434082e+00,1.016934871673583984e+00,1.016881942749023438e+00,1.016828894615173340e+00
9.625073075294494629e-01,9.624598026275634766e-01,9.624123573303222656e-01,9.623648524284362793e-01,9.623173475265502930e-01,9.622699022293090820e-01,9.622224569320678711e-01,9.621749520301818848e-01,9.621275067329406738e-01,9.620800614356994629e-01,9.620327353477478027e-01,9.619852900505065918e-01,9.619379043579101562e-01,9.618904590606689453e-01,9.618430137634277344e-01,9.617956280708312988e-01,9.617481827735900879e-01,9.617007970809936523e-01,9.616533517837524414e-01,9.616059660911560059e-01,9.615586996078491211e-01,9.615113139152526855e-01,9.614639282226562500e-01,9.614165425300598145e-01,9.613691568374633789e-01,9.613217711448669434e-01,9.612743854522705078e-01,9.612270593643188477e-01,9.611796736717224121e-01,9.611323475837707520e-01,9.610849618911743164e-01,9.610377550125122070e-01,9.609904289245605469e-01,9.609430432319641113e-01,9.608957171440124512e-01,9.608483910560607910e-01,9.608010649681091309e-01,9.607537388801574707e-01,9.607064723968505859e-01,9.606591463088989258e-01,9.606118202209472656e-01,9.605645537376403809e-01,9.605173468589782715e-01,9.604700803756713867e-01,9.604227542877197266e-01,9.603754878044128418e-01,9.603282213211059570e-01,9.602809548377990723e-01,9.602336883544921875e-01,9.601864218711853027e-01,9.601391553878784180e-01,9.600918889045715332e-01,9.600446820259094238e-01,9.599975347518920898e-01,9.599502682685852051e-01,9.599030613899230957e-01,9.598558545112609863e-01,9.598085880279541016e-01,9.597613811492919922e-01,9.597141742706298828e-01,9.596669673919677734e-01,9.596197605133056641e-01,9.595725536346435547e-01,9.595253467559814453e-01,9.594782590866088867e-01,9.594310522079467773e-01,9.593839049339294434e-01,9.593366980552673340e-01,9.592895507812500000e-01,9.592424035072326660e-01,9.591951966285705566e-01,9.591480493545532227e-01,9.591009020805358887e-01,9.590537548065185547e-01,9.590066075325012207e-01,9.589595794677734375e-01,9.589124321937561035e-01,9.588652849197387695e-01,9.588181376457214355e-01,9.587710499763488770e-01
9.103277325630187988e-01,9.102852344512939453e-01,9.102427959442138672e-01,9.102002978324890137e-01,9.101578593254089355e-01,9.101153612136840820e-01,9.100729227066040039e-01,9.100304841995239258e-01,9.099881052970886230e-01,9.099456667900085449e-01,9.099032282829284668e-01,9.098607897758483887e-01,9.098183512687683105e-01,9.097759127616882324e-01,9.097334742546081543e-01,9.096910953521728516e-01,9.096486568450927734e-01,9.096062183380126953e-01,9.095638394355773926e-01,9.095215201377868652e-01,9.094791412353515625e-01,9.094367027282714844e-01,9.093943238258361816e-01,9.093519449234008789e-01,9.093095660209655762e-01,9.092671871185302734e-01,9.092248082160949707e-01,9.091824293136596680e-01,9.091400504112243652e-01,9.090976715087890625e-01,9.090554118156433105e-01,9.090130329132080078e-01,9.089707136154174805e-01,9.089283347129821777e-01,9.088860154151916504e-01,9.088436961174011230e-01,9.088013172149658203e-01,9.087589979171752930e-01,9.087166786193847656e-01,9.086743593215942383e-01,9.086320400238037109e-01,9.085897803306579590e-01,9.085474610328674316e-01,9.085052013397216797e-01,9.084628820419311523e-01,9.084205627441406250e-01,9.083782434463500977e-01,9.083359837532043457e-01,9.082936644554138184e-01,9.082514047622680664e-01,9.082090854644775391e-01,9.081668257713317871e-01,9.081246256828308105e-01,9.080823659896850586e-01,9.080401062965393066e-01,9.079978466033935547e-01,9.079555869102478027e-01,9.079133272171020508e-01,9.078710675239562988e-01,9.078288674354553223e-01,9.077866077423095703e-01,9.077443480491638184e-01,9.077020883560180664e-01,9.076600074768066406e-01,9.076177477836608887e-01,9.075755476951599121e-01,9.075332880020141602e-01,9.074910879135131836e-01,9.074488878250122070e-01,9.074066877365112305e-01,9.073644876480102539e-01,9.073222875595092773e-01,9.072800874710083008e-01,9.072380065917968750e-01,9.071958065032958984e-01,9.071536064147949219e-01,9.071114063262939453e-01,9.070692658424377441e-01,9.070270657539367676e-01,9.069849252700805664e-01
8.635147213935852051e-01,8.634765148162841797e-01,8.634383082389831543e-01,8.634001016616821289e-01,8.633618950843811035e-01,8.633236885070800781e-01,8.632854819297790527e-01,8.632473349571228027e-01,8.632091879844665527e-01,8.631709814071655273e-01,8.631327748298645020e-01,8.630945682525634766e-01,8.630564212799072266e-01,8.630182147026062012e-01,8.629800677299499512e-01,8.629418611526489258e-01,8.629037141799926758e-01,8.628655672073364258e-01,8.628274798393249512e-01,8.627893328666687012e-01,8.627511262893676758e-01,8.627129793167114258e-01,8.626748323440551758e-01,8.626366853713989258e-01,8.625985383987426758e-01,8.625604510307312012e-01,8.625223040580749512e-01,8.624841570854187012e-01,8.624460101127624512e-01,8.624079823493957520e-01,8.623698353767395020e-01,8.623317480087280273e-01,8.622936010360717773e-01,8.622555136680603027e-01,8.622174263000488281e-01,8.621792793273925781e-01,8.621411919593811035e-01,8.621031045913696289e-01,8.620650172233581543e-01,8.620269894599914551e-01,8.619889020919799805e-01,8.619508147239685059e-01,8.619127273559570312e-01,8.618746399879455566e-01,8.618366122245788574e-01,8.617985248565673828e-01,8.617604374885559082e-01,8.617223501205444336e-01,8.616843223571777344e-01,8.616462349891662598e-01,8.616082668304443359e-01,8.615702390670776367e-01,8.615322113037109375e-01,8.614941239356994629e-01,8.614560961723327637e-01,8.614180684089660645e-01,8.613800406455993652e-01,8.613420128822326660e-01,8.613039851188659668e-01,8.612659573554992676e-01,8.612279295921325684e-01,8.611899614334106445e-01,8.611519932746887207e-01,8.611139655113220215e-01,8.610759377479553223e-01,8.610379695892333984e-01,8.609999418258666992e-01,8.609619736671447754e-01,8.609239459037780762e-01,8.608859777450561523e-01,8.608479499816894531e-01,8.608099818229675293e-01,8.607720732688903809e-01,8.607341051101684570e-01,8.606961369514465332e-01,8.606581687927246094e-01,8.606202006340026855e-01,8.605822324752807617e-01,8.605442643165588379e-01,8.605062961578369141e-01
8.212809562683105469e-01,8.212463855743408203e-01,8.212118148803710938e-01,8.211772441864013672e-01,8.211426734924316406e-01,8.211081624031066895e-01,8.210736513137817383e-01,8.210390806198120117e-01,8.210045099258422852e-01,8.209699988365173340e-01,8.209354281425476074e-01,8.209008574485778809e-01,8.208663463592529297e-01,8.208318352699279785e-01,8.207972645759582520e-01,8.207627534866333008e-01,8.207283020019531250e-01,8.206937909126281738e-01,8.206592202186584473e-01,8.206247091293334961e-01,8.205901980400085449e-01,8.205556869506835938e-01,8.205211758613586426e-01,8.204866647720336914e-01,8.204521536827087402e-01,8.204176425933837891e-01,8.203831315040588379e-01,8.203487396240234375e-01,8.203142285346984863e-01,8.202797770500183105e-01,8.202452659606933594e-01,8.202107548713684082e-01,8.201763033866882324e-01,8.201417922973632812e-01,8.201073408126831055e-01,8.200728893280029297e-01,8.200383782386779785e-01,8.200039267539978027e-01,8.199695348739624023e-01,8.199350833892822266e-01,8.199006319046020508e-01,8.198661804199218750e-01,8.198317289352416992e-01,8.197972774505615234e-01,8.197628259658813477e-01,8.197283744812011719e-01,8.196939229965209961e-01,8.196594715118408203e-01,8.196250200271606445e-01,8.195906877517700195e-01,8.195562362670898438e-01,8.195218443870544434e-01,8.194873929023742676e-01,8.194530010223388672e-01,8.194185495376586914e-01,8.193841576576232910e-01,8.193497061729431152e-01,8.193153142929077148e-01,8.192809224128723145e-01,8.192464709281921387e-01,8.192121982574462891e-01,8.191777467727661133e-01,8.191433548927307129e-01,8.191089630126953125e-01,8.190745711326599121e-01,8.190401792526245117e-01,8.190058469772338867e-01,8.189714550971984863e-01,8.189370632171630859e-01,8.189026713371276855e-01,8.188682794570922852e-01,8.188340067863464355e-01,8.187996745109558105e-01,8.187652826309204102e-01,8.187308907508850098e-01,8.186965584754943848e-01,8.186622262001037598e-01,8.186278343200683594e-01,8.185935020446777344e-01,8.185591697692871094e-01
7.829857468605041504e-01,7.829543352127075195e-01,7.829229235649108887e-01,7.828915119171142578e-01,7.828601598739624023e-01,7.828287482261657715e-01,7.827973365783691406e-01,7.827659249305725098e-01,7.827345132827758789e-01,7.827031016349792480e-01,7.826716899871826172e-01,7.826403379440307617e-01,7.826089262962341309e-01,7.825775146484375000e-01,7.825461030006408691e-01,7.825148105621337891e-01,7.824833989143371582e-01,7.824520468711853027e-01,7.824206352233886719e-01,7.823892831802368164e-01,7.823579311370849609e-01,7.823265194892883301e-01,7.822951674461364746e-01,7.822638154029846191e-01,7.822324037551879883e-01,7.822010517120361328e-01,7.821697592735290527e-01,7.821384072303771973e-01,7.821070551872253418e-01,7.820757031440734863e-01,7.820443511009216309e-01,7.820129990577697754e-01,7.819816470146179199e-01,7.819502949714660645e-01,7.819189429283142090e-01,7.818875908851623535e-01,7.818562984466552734e-01,7.818250060081481934e-01,7.817937135696411133e-01,7.817623615264892578e-01,7.817310094833374023e-01,7.816997170448303223e-01,7.816683650016784668e-01,7.816370725631713867e-01,7.816057205200195312e-01,7.815744280815124512e-01,7.815431356430053711e-01,7.815118432044982910e-01,7.814806103706359863e-01,7.814492583274841309e-01,7.814179658889770508e-01,7.813866734504699707e-01,7.813553810119628906e-01,7.813240885734558105e-01,7.812927961349487305e-01,7.812615036964416504e-01,7.812302112579345703e-01,7.811989188194274902e-01,7.811677455902099609e-01,7.811364531517028809e-01,7.811051607131958008e-01,7.810738682746887207e-01,7.810426354408264160e-01,7.810113430023193359e-01,7.809801101684570312e-01,7.809488177299499512e-01,7.809175848960876465e-01,7.808862924575805664e-01,7.808550596237182617e-01,7.808238863945007324e-01,7.807925939559936523e-01,7.807613611221313477e-01,7.807301282882690430e-01,7.806988954544067383e-01,7.806676626205444336e-01,7.806363701820373535e-01,7.806051373481750488e-01,7.805739045143127441e-01,7.805426716804504395e-01,7.805114388465881348e-01
7.481027841567993164e-01,7.480741143226623535e-01,7.480453848838806152e-01,7.480167746543884277e-01,7.479881048202514648e-01,7.479594349861145020e-01,7.479307651519775391e-01,7.479020953178405762e-01,7.478734254837036133e-01,7.478447556495666504e-01,7.478160858154296875e-01,7.477874159812927246e-01,7.477587461471557617e-01,7.477300763130187988e-01,7.477014660835266113e-01,7.476728558540344238e-01,7.476441860198974609e-01,7.476155161857604980e-01,7.475869059562683105e-01,7.475582361221313477e-01,7.475295662879943848e-01,7.475009560585021973e-01,7.474722862243652344e-01,7.474436759948730469e-01,7.474151253700256348e-01,7.473864555358886719e-01,7.473578453063964844e-01,7.473291754722595215e-01,7.473005652427673340e-01,7.472719550132751465e-01,7.472433447837829590e-01,7.472146749496459961e-01,7.471860647201538086e-01,7.471574544906616211e-01,7.471288442611694336e-01,7.471002936363220215e-01,7.470716834068298340e-01,7.470430731773376465e-01,7.470144629478454590e-01,7.469858527183532715e-01,7.469573020935058594e-01,7.469286918640136719e-01,7.469000816345214844e-01,7.468714714050292969e-01,7.468428611755371094e-01,7.468143105506896973e-01,7.467857599258422852e-01,7.467572093009948730e-01,7.467285990715026855e-01,7.467000484466552734e-01,7.466714382171630859e-01,7.466428875923156738e-01,7.466142773628234863e-01,7.465857267379760742e-01,7.465571761131286621e-01,7.465285658836364746e-01,7.465000152587890625e-01,7.464715242385864258e-01,7.464429736137390137e-01,7.464143633842468262e-01,7.463858127593994141e-01,7.463572621345520020e-01,7.463287115097045898e-01,7.463001608848571777e-01,7.462716102600097656e-01,7.462430596351623535e-01,7.462145090103149414e-01,7.461860179901123047e-01,7.461575269699096680e-01,7.461289763450622559e-01,7.461004257202148438e-01,7.460719347000122070e-01,7.460433840751647949e-01,7.460148334503173828e-01,7.459863424301147461e-01,7.459577918052673340e-01,7.459292411804199219e-01,7.459007501602172852e-01,7.458722591400146484e-01,7.458437681198120117e-01
7.161953449249267578e-01,7.161691188812255859e-01,7.161428332328796387e-01,7.161165475845336914e-01,7.160902619361877441e-01,7.160639762878417969e-01,7.160376906394958496e-01,7.160114049911499023e-01,7.159851789474487305e-01,7.159588932991027832e-01,7.159326076507568359e-01,7.159063220024108887e-01,7.158800959587097168e-01,7.158538699150085449e-01,7.158275842666625977e-01,7.158012986183166504e-01,7.157750725746154785e-01,7.157487869262695312e-01,7.157225608825683594e-01,7.156962752342224121e-01,7.156700491905212402e-01,7.156437635421752930e-01,7.156175374984741211e-01,7.155913114547729492e-01,7.155650854110717773e-01,7.155388593673706055e-01,7.155125737190246582e-01,7.154863476753234863e-01,7.154601216316223145e-01,7.154338955879211426e-01,7.154076099395751953e-01,7.153813838958740234e-01,7.153551578521728516e-01,7.153289318084716797e-01,7.153027653694152832e-01,7.152765393257141113e-01,7.152503132820129395e-01,7.152240872383117676e-01,7.151978611946105957e-01,7.151716351509094238e-01,7.151454687118530273e-01,7.151192426681518555e-01,7.150930166244506836e-01,7.150667905807495117e-01,7.150406241416931152e-01,7.150144577026367188e-01,7.149882316589355469e-01,7.149620652198791504e-01,7.149358391761779785e-01,7.149096131324768066e-01,7.148834466934204102e-01,7.148572206497192383e-01,7.148310542106628418e-01,7.148048877716064453e-01,7.147786617279052734e-01,7.147524952888488770e-01,7.147263288497924805e-01,7.147001624107360840e-01,7.146739959716796875e-01,7.146478295326232910e-01,7.146216034889221191e-01,7.145954370498657227e-01,7.145692706108093262e-01,7.145431041717529297e-01,7.145169377326965332e-01,7.144907712936401367e-01,7.144646048545837402e-01,7.144384980201721191e-01,7.144123315811157227e-01,7.143861651420593262e-01,7.143599987030029297e-01,7.143338322639465332e-01,7.143077254295349121e-01,7.142815589904785156e-01,7.142553925514221191e-01,7.142292261123657227e-01,7.142031192779541016e-01,7.141769528388977051e-01,7.141508460044860840e-01,7.141247391700744629e-01
6.868984699249267578e-01,6.868742704391479492e-01,6.868501305580139160e-01,6.868259310722351074e-01,6.868017315864562988e-01,6.867775917053222656e-01,6.867533922195434570e-01,6.867291927337646484e-01,6.867050528526306152e-01,6.866808533668518066e-01,6.866567134857177734e-01,6.866325736045837402e-01,6.866084337234497070e-01,6.865842342376708984e-01,6.865600943565368652e-01,6.865359544754028320e-01,6.865117549896240234e-01,6.864876151084899902e-01,6.864634752273559570e-01,6.864392757415771484e-01,6.864151358604431152e-01,6.863909959793090820e-01,6.863669157028198242e-01,6.863427758216857910e-01,6.863186359405517578e-01,6.862944364547729492e-01,6.862702965736389160e-01,6.862461566925048828e-01,6.862220168113708496e-01,6.861978769302368164e-01,6.861737966537475586e-01,6.861496567726135254e-01,6.861255168914794922e-01,6.861014366149902344e-01,6.860772967338562012e-01,6.860531568527221680e-01,6.860290169715881348e-01,6.860049366950988770e-01,6.859807968139648438e-01,6.859566569328308105e-01,6.859325766563415527e-01,6.859084367752075195e-01,6.858842968940734863e-01,6.858602166175842285e-01,6.858361363410949707e-01,6.858120560646057129e-01,6.857879161834716797e-01,6.857638359069824219e-01,6.857396960258483887e-01,6.857156157493591309e-01,6.856915354728698730e-01,6.856673955917358398e-01,6.856433153152465820e-01,6.856192350387573242e-01,6.855951547622680664e-01,6.855710744857788086e-01,6.855469942092895508e-01,6.855229139328002930e-01,6.854988336563110352e-01,6.854747533798217773e-01,6.854506731033325195e-01,6.854265928268432617e-01,6.854025125503540039e-01,6.853784322738647461e-01,6.853543519973754883e-01,6.853303313255310059e-01,6.853062510490417480e-01,6.852821707725524902e-01,6.852580904960632324e-01,6.852340102195739746e-01,6.852099299430847168e-01,6.851859092712402344e-01,6.851618289947509766e-01,6.851377487182617188e-01,6.851136684417724609e-01,6.850896477699279785e-01,6.850656270980834961e-01,6.850415468215942383e-01,6.850175261497497559e-01,6.849934458732604980e-01
6.599041819572448730e-01,6.598818302154541016e-01,6.598595380783081055e-01,6.598371863365173340e-01,6.598148941993713379e-01,6.597926020622253418e-01,6.597702503204345703e-01,6.597479581832885742e-01,6.597256660461425781e-01,6.597033143043518066e-01,6.596810817718505859e-01,6.596587896347045898e-01,6.596364974975585938e-01,6.596141457557678223e-01,6.595918536186218262e-01,6.595695614814758301e-01,6.595472693443298340e-01,6.595249772071838379e-01,6.595026850700378418e-01,6.594803929328918457e-01,6.594581604003906250e-01,6.594358682632446289e-01,6.594135761260986328e-01,6.593912839889526367e-01,6.593689918518066406e-01,6.593466997146606445e-01,6.593244075775146484e-01,6.593021154403686523e-01,6.592798233032226562e-01,6.592575907707214355e-01,6.592352986335754395e-01,6.592130661010742188e-01,6.591907739639282227e-01,6.591685414314270020e-01,6.591462492942810059e-01,6.591239571571350098e-01,6.591017246246337891e-01,6.590794324874877930e-01,6.590571999549865723e-01,6.590349078178405762e-01,6.590126752853393555e-01,6.589903831481933594e-01,6.589681506156921387e-01,6.589459180831909180e-01,6.589236855506896973e-01,6.589013934135437012e-01,6.588791608810424805e-01,6.588569283485412598e-01,6.588346362113952637e-01,6.588124036788940430e-01,6.587901711463928223e-01,6.587679386138916016e-01,6.587456464767456055e-01,6.587234735488891602e-01,6.587012410163879395e-01,6.586790084838867188e-01,6.586567759513854980e-01,6.586344838142395020e-01,6.586122512817382812e-01,6.585900187492370605e-01,6.585677862167358398e-01,6.585455536842346191e-01,6.585233211517333984e-01,6.585011482238769531e-01,6.584789752960205078e-01,6.584567427635192871e-01,6.584345102310180664e-01,6.584122776985168457e-01,6.583900451660156250e-01,6.583678126335144043e-01,6.583456397056579590e-01,6.583234071731567383e-01,6.583011746406555176e-01,6.582789421081542969e-01,6.582567691802978516e-01,6.582345962524414062e-01,6.582123637199401855e-01,6.581901907920837402e-01,6.581679582595825195e-01,6.581457853317260742e-01
6.349512934684753418e-01,6.349306702613830566e-01,6.349099874496459961e-01,6.348893046379089355e-01,6.348686814308166504e-01,6.348479986190795898e-01,6.348273754119873047e-01,6.348066926002502441e-01,6.347860693931579590e-01,6.347654461860656738e-01,6.347447633743286133e-01,6.347241401672363281e-01,6.347034573554992676e-01,6.346828341484069824e-01,6.346621513366699219e-01,6.346415281295776367e-01,6.346209049224853516e-01,6.346002221107482910e-01,6.345795989036560059e-01,6.345589756965637207e-01,6.345383524894714355e-01,6.345177292823791504e-01,6.344971060752868652e-01,6.344764232635498047e-01,6.344558000564575195e-01,6.344351768493652344e-01,6.344145536422729492e-01,6.343939304351806641e-01,6.343733072280883789e-01,6.343526840209960938e-01,6.343320608139038086e-01,6.343114376068115234e-01,6.342908143997192383e-01,6.342701911926269531e-01,6.342495679855346680e-01,6.342290043830871582e-01,6.342083811759948730e-01,6.341877579689025879e-01,6.341671347618103027e-01,6.341465115547180176e-01,6.341258883476257324e-01,6.341053247451782227e-01,6.340847015380859375e-01,6.340641379356384277e-01,6.340435147285461426e-01,6.340228915214538574e-01,6.340022683143615723e-01,6.339817047119140625e-01,6.339610815048217773e-01,6.339405179023742676e-01,6.339198946952819824e-01,6.338992714881896973e-01,6.338787674903869629e-01,6.338581442832946777e-01,6.338375806808471680e-01,6.338169574737548828e-01,6.337963938713073730e-01,6.337757706642150879e-01,6.337552070617675781e-01,6.337345838546752930e-01,6.337140202522277832e-01,6.336934566497802734e-01,6.336728334426879883e-01,6.336523294448852539e-01,6.336317062377929688e-01,6.336111426353454590e-01,6.335905790328979492e-01,6.335700154304504395e-01,6.335493922233581543e-01,6.335288286209106445e-01,6.335082650184631348e-01,6.334877014160156250e-01,6.334671378135681152e-01,6.334466338157653809e-01,6.334260106086730957e-01,6.334054470062255859e-01,6.333848834037780762e-01,6.333643198013305664e-01,6.333437561988830566e-01,6.333231925964355469e-01
6.118168234825134277e-01,6.117976307868957520e-01,6.117784380912780762e-01,6.117592453956604004e-01,6.117400527000427246e-01,6.117209196090698242e-01,6.117017269134521484e-01,6.116825938224792480e-01,6.116634011268615723e-01,6.116442084312438965e-01,6.116250753402709961e-01,6.116058826446533203e-01,6.115866899490356445e-01,6.115675568580627441e-01,6.115483641624450684e-01,6.115291714668273926e-01,6.115100383758544922e-01,6.114908456802368164e-01,6.114717125892639160e-01,6.114525794982910156e-01,6.114333868026733398e-01,6.114142537117004395e-01,6.113950610160827637e-01,6.113759279251098633e-01,6.113567352294921875e-01,6.113376021385192871e-01,6.113184094429016113e-01,6.112992763519287109e-01,6.112801432609558105e-01,6.112610101699829102e-01,6.112418770790100098e-01,6.112227439880371094e-01,6.112035512924194336e-01,6.111844182014465332e-01,6.111652851104736328e-01,6.111461520195007324e-01,6.111269593238830566e-01,6.111078262329101562e-01,6.110886931419372559e-01,6.110696196556091309e-01,6.110504269599914551e-01,6.110312938690185547e-01,6.110121607780456543e-01,6.109930276870727539e-01,6.109738945960998535e-01,6.109547615051269531e-01,6.109356284141540527e-01,6.109164953231811523e-01,6.108973622322082520e-01,6.108782291412353516e-01,6.108591556549072266e-01,6.108400225639343262e-01,6.108208894729614258e-01,6.108017563819885254e-01,6.107826828956604004e-01,6.107635498046875000e-01,6.107444167137145996e-01,6.107252836227416992e-01,6.107061505317687988e-01,6.106870770454406738e-01,6.106679439544677734e-01,6.106488704681396484e-01,6.106297373771667480e-01,6.106106638908386230e-01,6.105915307998657227e-01,6.105723977088928223e-01,6.105533242225646973e-01,6.105341911315917969e-01,6.105151176452636719e-01,6.104959845542907715e-01,6.104769110679626465e-01,6.104577779769897461e-01,6.104387044906616211e-01,6.104196310043334961e-01,6.104004979133605957e-01,6.103814244270324707e-01,6.103623509407043457e-01,6.103432178497314453e-01,6.103241443634033203e-01,6.103050708770751953e-01
5.903088450431823730e-01,5.902909636497497559e-01,5.902731418609619141e-01,5.902552604675292969e-01,5.902373790740966797e-01,5.902195572853088379e-01,5.902017354965209961e-01,5.901838541030883789e-01,5.901660323143005371e-01,5.901481509208679199e-01,5.901303291320800781e-01,5.901124477386474609e-01,5.900946259498596191e-01,5.900767445564270020e-01,5.900589227676391602e-01,5.900410413742065430e-01,5.900232791900634766e-01,5.900053977966308594e-01,5.899875760078430176e-01,5.899697542190551758e-01,5.899518728256225586e-01,5.899340510368347168e-01,5.899162292480468750e-01,5.898984074592590332e-01,5.898805260658264160e-01,5.898627042770385742e-01,5.898448824882507324e-01,5.898271203041076660e-01,5.898092389106750488e-01,5.897914171218872070e-01,5.897735953330993652e-01,5.897557735443115234e-01,5.897379517555236816e-01,5.897201299667358398e-01,5.897023081779479980e-01,5.896844863891601562e-01,5.896666646003723145e-01,5.896488428115844727e-01,5.896310210227966309e-01,5.896131992340087891e-01,5.895953774452209473e-01,5.895775556564331055e-01,5.895597934722900391e-01,5.895419716835021973e-01,5.895241498947143555e-01,5.895063281059265137e-01,5.894885063171386719e-01,5.894706845283508301e-01,5.894528627395629883e-01,5.894351005554199219e-01,5.894172787666320801e-01,5.893995165824890137e-01,5.893816947937011719e-01,5.893638730049133301e-01,5.893460512161254883e-01,5.893282890319824219e-01,5.893104672431945801e-01,5.892926454544067383e-01,5.892748832702636719e-01,5.892570614814758301e-01,5.892392992973327637e-01,5.892215371131896973e-01,5.892037153244018555e-01,5.891859531402587891e-01,5.891681313514709473e-01,5.891503691673278809e-01,5.891325473785400391e-01,5.891147851943969727e-01,5.890969634056091309e-01,5.890792012214660645e-01,5.890613794326782227e-01,5.890436768531799316e-01,5.890258550643920898e-01,5.890080928802490234e-01,5.889902710914611816e-01,5.889725089073181152e-01,5.889547467231750488e-01,5.889369249343872070e-01,5.889191627502441406e-01,5.889014005661010742e-01
