5.000000000000000000e+00,5.000000000000000000e+00,5.000000000000000000e+00,5.000000000000000000e+00,5.000000000000000000e+00,5.000000000000000000e+00,5.000000000000000000e+00,5.000000000000000000e+00,5.000000000000000000e+00,5.000000000000000000e+00,5.000000000000000000e+00,5.000000000000000000e+00,5.000000000000000000e+00,5.000000000000000000e+00,5.000000000000000000e+00,5.000000000000000000e+00,5.000000000000000000e+00,5.000000000000000000e+00,5.000000000000000000e+00,1.554482936859130859e+00,1.550336837768554688e+00,1.542754292488098145e+00,1.510542392730712891e+00,1.492442369461059570e+00,1.489188909530639648e+00,1.486684679985046387e+00,1.491418004035949707e+00,1.498501181602478027e+00,1.498845219612121582e+00,1.514016509056091309e+00,1.532147526741027832e+00,1.557298660278320312e+00,1.744086861610412598e+00,1.706920385360717773e+00,1.708581686019897461e+00,1.737199902534484863e+00,5.000000000000000000e+00,5.000000000000000000e+00,5.000000000000000000e+00,5.000000000000000000e+00,5.000000000000000000e+00,4.487224102020263672e+00,4.324120998382568359e+00,4.172458648681640625e+00,4.031075000762939453e+00,3.898958921432495117e+00,3.775227785110473633e+00,3.659108161926269531e+00,3.549918889999389648e+00,3.447057008743286133e+00,3.349988460540771484e+00,3.258237123489379883e+00,3.171377420425415039e+00,3.089028596878051758e+00,3.010848283767700195e+00,2.936527729034423828e+00,2.865787506103515625e+00,2.798375606536865234e+00,2.734062194824218750e+00,2.672638654708862305e+00,2.613914251327514648e+00,2.557714939117431641e+00,2.503881454467773438e+00,2.452267408370971680e+00,2.402738094329833984e+00,2.355170011520385742e+00,2.309448719024658203e+00,2.265469074249267578e+00,2.223133087158203125e+00,2.182350397109985352e+00,2.143036842346191406e+00,2.105114698410034180e+00,2.068511247634887695e+00,2.033159255981445312e+00,1.998995065689086914e+00,1.965960264205932617e+00,1.933999300003051758e+00,1.903061151504516602e+00,1.873096942901611328e+00,1.844061970710754395e+00
5.000000000000000000e+00,5.000000000000000000e+00,5.000000000000000000e+00,5.000000000000000000e+00,5.000000000000000000e+00,5.000000000000000000e+00,5.000000000000000000e+00,5.000000000000000000e+00,5.000000000000000000e+00,5.000000000000000000e+00,5.000000000000000000e+00,5.000000000000000000e+00,5.000000000000000000e+00,5.000000000000000000e+00,5.000000000000000000e+00,5.000000000000000000e+00,5.000000000000000000e+00,5.000000000000000000e+00,5.000000000000000000e+00,1.548806428909301758e+00,1.546506166458129883e+00,1.543904066085815430e+00,1.501204609870910645e+00,1.488513350486755371e+00,1.485628485679626465e+00,1.483507990837097168e+00,1.490211606025695801e+00,1.497245550155639648e+00,1.503977894783020020e+00,1.523591041564941406e+00,1.549152016639709473e+00,1.560851335525512695e+00,1.650871992111206055e+00,1.715775609016418457e+00,1.717716336250305176e+00,1.741088509559631348e+00,5.000000000000000000e+00,5.000000000000000000e+00,5.000000000000000000e+00,5.000000000000000000e+00,4.663242816925048828e+00,4.487343788146972656e+00,4.324231624603271484e+00,4.172562122344970703e+00,4.031171321868896484e+00,3.899049043655395508e+00,3.775312185287475586e+00,3.659187555313110352e+00,3.549993515014648438e+00,3.447127580642700195e+00,3.350054979324340820e+00,3.258300065994262695e+00,3.171437025070190430e+00,3.089085340499877930e+00,3.010902166366577148e+00,2.936578750610351562e+00,2.865836381912231445e+00,2.798422098159790039e+00,2.734106540679931641e+00,2.672681093215942383e+00,2.613954782485961914e+00,2.557753801345825195e+00,2.503918647766113281e+00,2.452302932739257812e+00,2.402772426605224609e+00,2.355203151702880859e+00,2.309480667114257812e+00,2.265499591827392578e+00,2.223162412643432617e+00,2.182378530502319336e+00,2.143064022064208984e+00,2.105141162872314453e+00,2.068536758422851562e+00,2.033183813095092773e+00,1.999018907546997070e+00,1.965983152389526367e+00,1.934021592140197754e+00,1.903082609176635742e+00,1.873117804527282715e+00,1.844081997871398926e+00
5.000000000000000000e+00,5.000000000000000000e+00,5.000000000000000000e+00,5.000000000000000000e+00,5.000000000000000000e+00,5.000000000000000000e+00,5.000000000000000000e+00,5.000000000000000000e+00,5.000000000000000000e+00,5.000000000000000000e+00,5.000000000000000000e+00,5.000000000000000000e+00,5.000000000000000000e+00,5.000000000000000000e+00,5.000000000000000000e+00,5.000000000000000000e+00,5.000000000000000000e+00,5.000000000000000000e+00,5.000000000000000000e+00,1.529362082481384277e+00,1.534410715103149414e+00,1.530141115188598633e+00,1.490736722946166992e+00,1.486948370933532715e+00,1.485264420509338379e+00,1.486071228981018066e+00,1.492313146591186523e+00,1.497439384460449219e+00,1.504250884056091309e+00,1.527075409889221191e+00,1.545187830924987793e+00,1.580481529235839844e+00,1.655697703361511230e+00,1.720676422119140625e+00,1.717273712158203125e+00,1.739822864532470703e+00,5.000000000000000000e+00,5.000000000000000000e+00,5.000000000000000000e+00,4.853634834289550781e+00,4.663372039794921875e+00,4.487462997436523438e+00,4.324342727661132812e+00,4.172665119171142578e+00,4.031267642974853516e+00,3.899139165878295898e+00,3.775396823883056641e+00,3.659266948699951172e+00,3.550068378448486328e+00,3.447197914123535156e+00,3.350121498107910156e+00,3.258363008499145508e+00,3.171496629714965820e+00,3.089141845703125000e+00,3.010955810546875000e+00,2.936630010604858398e+00,2.865885019302368164e+00,2.798468589782714844e+00,2.734150886535644531e+00,2.672723293304443359e+00,2.613995313644409180e+00,2.557792663574218750e+00,2.503955841064453125e+00,2.452338695526123047e+00,2.402806758880615234e+00,2.355236053466796875e+00,2.309512138366699219e+00,2.265529870986938477e+00,2.223191738128662109e+00,2.182406902313232422e+00,2.143091440200805664e+00,2.105167388916015625e+00,2.068562030792236328e+00,2.033208370208740234e+00,1.999042510986328125e+00,1.966006159782409668e+00,1.934043645858764648e+00,1.903104186058044434e+00,1.873138666152954102e+00,1.844102382659912109e+00
5.000000000000000000e+00,5.000000000000000000e+00,5.000000000000000000e+00,5.000000000000000000e+00,5.000000000000000000e+00,5.000000000000000000e+00,5.000000000000000000e+00,5.000000000000000000e+00,5.000000000000000000e+00,5.000000000000000000e+00,5.000000000000000000e+00,5.000000000000000000e+00,5.000000000000000000e+00,5.000000000000000000e+00,5.000000000000000000e+00,5.000000000000000000e+00,5.000000000000000000e+00,5.000000000000000000e+00,5.000000000000000000e+00,1.522490978240966797e+00,1.526246666908264160e+00,1.521807312965393066e+00,1.482390165328979492e+00,1.481583476066589355e+00,1.481910347938537598e+00,1.494347810745239258e+00,1.501889586448669434e+00,1.509507656097412109e+00,1.516912817955017090e+00,1.530872106552124023e+00,1.550386667251586914e+00,1.581306219100952148e+00,1.753195524215698242e+00,1.709101080894470215e+00,1.698878526687622070e+00,1.709643840789794922e+00,5.000000000000000000e+00,5.000000000000000000e+00,5.000000000000000000e+00,4.853774547576904297e+00,4.663500785827636719e+00,4.487582683563232422e+00,4.324453353881835938e+00,4.172769069671630859e+00,4.031364440917968750e+00,3.899229288101196289e+00,3.775481224060058594e+00,3.659346342086791992e+00,3.550143003463745117e+00,3.447268486022949219e+00,3.350188016891479492e+00,3.258425951004028320e+00,3.171556234359741211e+00,3.089198350906372070e+00,3.011009693145751953e+00,2.936681032180786133e+00,2.865933656692504883e+00,2.798515081405639648e+00,2.734195232391357422e+00,2.672765970230102539e+00,2.614036083221435547e+00,2.557831525802612305e+00,2.503993034362792969e+00,2.452374458312988281e+00,2.402840852737426758e+00,2.355268955230712891e+00,2.309543848037719727e+00,2.265560388565063477e+00,2.223221063613891602e+00,2.182435035705566406e+00,2.143118619918823242e+00,2.105193614959716797e+00,2.068587541580200195e+00,2.033232927322387695e+00,1.999066233634948730e+00,1.966028928756713867e+00,1.934066057205200195e+00,1.903125524520874023e+00,1.873159527778625488e+00,1.844122409820556641e+00
5.000000000000000000e+00,5.000000000000000000e+00,5.000000000000000000e+00,5.000000000000000000e+00,5.000000000000000000e+00,5.000000000000000000e+00,5.000000000000000000e+00,5.000000000000000000e+00,5.000000000000000000e+00,5.000000000000000000e+00,5.000000000000000000e+00,5.000000000000000000e+00,5.000000000000000000e+00,5.000000000000000000e+00,5.000000000000000000e+00,5.000000000000000000e+00,5.000000000000000000e+00,5.000000000000000000e+00,5.000000000000000000e+00,1.517147898674011230e+00,1.518913984298706055e+00,1.516800403594970703e+00,1.474247813224792480e+00,1.474056720733642578e+00,1.477352857589721680e+00,1.485860586166381836e+00,1.515547037124633789e+00,1.523304700851440430e+00,1.527960538864135742e+00,1.544233560562133789e+00,1.558702826499938965e+00,1.582472205162048340e+00,5.000000000000000000e+00,1.702536463737487793e+00,1.690240979194641113e+00,1.698060274124145508e+00,5.000000000000000000e+00,5.000000000000000000e+00,5.000000000000000000e+00,4.853914260864257812e+00,4.663630008697509766e+00,4.487702369689941406e+00,4.324564933776855469e+00,4.172872066497802734e+00,4.031460762023925781e+00,3.899319648742675781e+00,3.775565862655639648e+00,3.659425973892211914e+00,3.550217866897583008e+00,3.447338819503784180e+00,3.350254535675048828e+00,3.258488893508911133e+00,3.171616077423095703e+00,3.089255094528198242e+00,3.011063337326049805e+00,2.936732292175292969e+00,2.865982770919799805e+00,2.798561573028564453e+00,2.734239816665649414e+00,2.672808408737182617e+00,2.614076614379882812e+00,2.557870388031005859e+00,2.504030227661132812e+00,2.452410221099853516e+00,2.402875185012817383e+00,2.355301856994628906e+00,2.309575557708740234e+00,2.265590906143188477e+00,2.223250389099121094e+00,2.182463407516479492e+00,2.143145799636840820e+00,2.105219841003417969e+00,2.068612813949584961e+00,2.033257246017456055e+00,1.999089837074279785e+00,1.966052055358886719e+00,1.934088110923767090e+00,1.903147101402282715e+00,1.873180270195007324e+00,1.844142675399780273e+00
5.000000000000000000e+00,5.000000000000000000e+00,5.000000000000000000e+00,5.000000000000000000e+00,5.000000000000000000e+00,5.000000000000000000e+00,5.000000000000000000e+00,5.000000000000000000e+00,5.000000000000000000e+00,5.000000000000000000e+00,5.000000000000000000e+00,5.000000000000000000e+00,5.000000000000000000e+00,5.000000000000000000e+00,5.000000000000000000e+00,5.000000000000000000e+00,5.000000000000000000e+00,5.000000000000000000e+00,5.000000000000000000e+00,1.511842131614685059e+00,1.511089563369750977e+00,1.509632587432861328e+00,1.466104269027709961e+00,1.463206887245178223e+00,1.465835571289062500e+00,1.468954682350158691e+00,1.508824825286865234e+00,1.534008145332336426e+00,1.537706136703491211e+00,1.557830333709716797e+00,1.554820656776428223e+00,1.565122485160827637e+00,1.612511277198791504e+00,1.710687637329101562e+00,1.685760498046875000e+00,1.685758590698242188e+00,5.000000000000000000e+00,5.000000000000000000e+00,5.000000000000000000e+00,4.854054450988769531e+00,4.663759231567382812e+00,4.487821578979492188e+00,4.324675559997558594e+00,4.172975540161132812e+00,4.031557083129882812e+00,3.899409770965576172e+00,3.775650501251220703e+00,3.659505367279052734e+00,3.550292491912841797e+00,3.447409391403198242e+00,3.350321292877197266e+00,3.258551836013793945e+00,3.171675682067871094e+00,3.089311838150024414e+00,3.011117458343505859e+00,2.936783552169799805e+00,2.866031408309936523e+00,2.798608064651489258e+00,2.734284162521362305e+00,2.672850608825683594e+00,2.614117145538330078e+00,2.557909250259399414e+00,2.504067420959472656e+00,2.452445745468139648e+00,2.402909517288208008e+00,2.355334758758544922e+00,2.309607028961181641e+00,2.265621185302734375e+00,2.223279714584350586e+00,2.182491540908813477e+00,2.143172979354858398e+00,2.105246305465698242e+00,2.068638324737548828e+00,2.033281803131103516e+00,1.999113678932189941e+00,1.966074824333190918e+00,1.934110403060913086e+00,1.903168439865112305e+00,1.873201131820678711e+00,1.844162821769714355e+00
5.000000000000000000e+00,5.000000000000000000e+00,5.000000000000000000e+00,5.000000000000000000e+00,5.000000000000000000e+00,5.000000000000000000e+00,5.000000000000000000e+00,5.000000000000000000e+00,5.000000000000000000e+00,5.000000000000000000e+00,5.000000000000000000e+00,5.000000000000000000e+00,5.000000000000000000e+00,5.000000000000000000e+00,5.000000000000000000e+00,5.000000000000000000e+00,5.000000000000000000e+00,5.000000000000000000e+00,5.000000000000000000e+00,1.497968792915344238e+00,1.498193264007568359e+00,1.502532124519348145e+00,1.458941102027893066e+00,1.457450509071350098e+00,1.458350777626037598e+00,1.459308028221130371e+00,1.486153125762939453e+00,1.530249238014221191e+00,1.549946546554565430e+00,1.540926098823547363e+00,1.538835406303405762e+00,1.536750316619873047e+00,1.574984788894653320e+00,5.000000000000000000e+00,1.680783987045288086e+00,1.666582465171813965e+00,1.694078207015991211e+00,5.000000000000000000e+00,5.000000000000000000e+00,4.854194164276123047e+00,4.663887977600097656e+00,4.487941265106201172e+00,4.324786663055419922e+00,4.173078536987304688e+00,4.031653404235839844e+00,3.899499893188476562e+00,3.775734901428222656e+00,3.659584760665893555e+00,3.550367355346679688e+00,3.447479963302612305e+00,3.350388050079345703e+00,3.258615016937255859e+00,3.171735525131225586e+00,3.089368581771850586e+00,3.011171102523803711e+00,2.936834812164306641e+00,2.866080045700073242e+00,2.798654556274414062e+00,2.734328508377075195e+00,2.672893047332763672e+00,2.614157676696777344e+00,2.557947874069213867e+00,2.504104614257812500e+00,2.452481508255004883e+00,2.402943611145019531e+00,2.355367660522460938e+00,2.309638738632202148e+00,2.265651702880859375e+00,2.223309040069580078e+00,2.182519912719726562e+00,2.143200397491455078e+00,2.105272531509399414e+00,2.068663597106933594e+00,2.033306360244750977e+00,1.999137282371520996e+00,1.966097831726074219e+00,1.934132456779479980e+00,1.903190016746520996e+00,1.873221874237060547e+00,1.844183087348937988e+00
5.000000000000000000e+00,5.000000000000000000e+00,5.000000000000000000e+00,5.000000000000000000e+00,5.000000000000000000e+00,5.000000000000000000e+00,5.000000000000000000e+00,5.000000000000000000e+00,5.000000000000000000e+00,5.000000000000000000e+00,5.000000000000000000e+00,5.000000000000000000e+00,5.000000000000000000e+00,5.000000000000000000e+00,5.000000000000000000e+00,5.000000000000000000e+00,5.000000000000000000e+00,5.000000000000000000e+00,5.000000000000000000e+00,1.488776564598083496e+00,1.491644740104675293e+00,1.500655770301818848e+00,1.454714298248291016e+00,1.455381751060485840e+00,1.456049919128417969e+00,1.456839799880981445e+00,1.473848819732666016e+00,1.507304787635803223e+00,1.542221069335937500e+00,1.522631645202636719e+00,1.520468831062316895e+00,1.521364092826843262e+00,1.545512437820434570e+00,1.590738415718078613e+00,1.688827514648437500e+00,1.662318944931030273e+00,1.666505455970764160e+00,5.000000000000000000e+00,5.000000000000000000e+00,4.854333877563476562e+00,4.664017200469970703e+00,4.488060474395751953e+00,4.324897289276123047e+00,4.173182010650634766e+00,4.031749725341796875e+00,3.899590015411376953e+00,3.775819540023803711e+00,3.659664630889892578e+00,3.550442457199096680e+00,3.447550773620605469e+00,3.350454568862915039e+00,3.258678197860717773e+00,3.171795368194580078e+00,3.089425086975097656e+00,3.011224985122680664e+00,2.936885833740234375e+00,2.866128921508789062e+00,2.798701047897338867e+00,2.734372854232788086e+00,2.672935485839843750e+00,2.614198207855224609e+00,2.557986736297607422e+00,2.504141807556152344e+00,2.452517032623291016e+00,2.402977943420410156e+00,2.355400562286376953e+00,2.309670448303222656e+00,2.265682220458984375e+00,2.223338365554809570e+00,2.182548046112060547e+00,2.143227577209472656e+00,2.105298757553100586e+00,2.068688869476318359e+00,2.033330917358398438e+00,1.999161124229431152e+00,1.966120719909667969e+00,1.934154748916625977e+00,1.903211474418640137e+00,1.873242735862731934e+00,1.844203352928161621e+00
5.000000000000000000e+00,5.000000000000000000e+00,5.000000000000000000e+00,5.000000000000000000e+00,5.000000000000000000e+00,5.000000000000000000e+00,5.000000000000000000e+00,5.000000000000000000e+00,5.000000000000000000e+00,5.000000000000000000e+00,5.000000000000000000e+00,5.000000000000000000e+00,5.000000000000000000e+00,5.000000000000000000e+00,5.000000000000000000e+00,5.000000000000000000e+00,5.000000000000000000e+00,5.000000000000000000e+00,5.000000000000000000e+00,1.498687863349914551e+00,1.505340218544006348e+00,1.509863734245300293e+00,1.454068779945373535e+00,1.454221844673156738e+00,1.454737544059753418e+00,1.455253839492797852e+00,1.467990517616271973e+00,1.500594973564147949e+00,1.539286971092224121e+00,1.513098597526550293e+00,1.513461589813232422e+00,1.513824701309204102e+00,1.530635476112365723e+00,1.575837135314941406e+00,5.000000000000000000e+00,1.679312944412231445e+00,1.672128081321716309e+00,5.000000000000000000e+00,5.000000000000000000e+00,4.854473590850830078e+00,4.664145946502685547e+00,4.488180160522460938e+00,4.325008392333984375e+00,4.173285484313964844e+00,4.031846523284912109e+00,3.899680614471435547e+00,3.775904417037963867e+00,3.659744024276733398e+00,3.550517082214355469e+00,3.447621107101440430e+00,3.350521326065063477e+00,3.258741140365600586e+00,3.171854972839355469e+00,3.089481830596923828e+00,3.011278867721557617e+00,2.936937093734741211e+00,2.866177558898925781e+00,2.798747539520263672e+00,2.734417200088500977e+00,2.672977685928344727e+00,2.614238739013671875e+00,2.558025598526000977e+00,2.504179000854492188e+00,2.452552795410156250e+00,2.403012275695800781e+00,2.355433464050292969e+00,2.309701919555664062e+00,2.265712499618530273e+00,2.223367691040039062e+00,2.182576417922973633e+00,2.143254756927490234e+00,2.105324983596801758e+00,2.068714380264282227e+00,2.033355474472045898e+00,1.999184608459472656e+00,1.966143727302551270e+00,1.934177041053771973e+00,1.903233051300048828e+00,1.873263716697692871e+00,1.844223380088806152e+00
5.000000000000000000e+00,5.000000000000000000e+00,5.000000000000000000e+00,5.000000000000000000e+00,5.000000000000000000e+00,5.000000000000000000e+00,5.000000000000000000e+00,5.000000000000000000e+00,5.000000000000000000e+00,5.000000000000000000e+00,5.000000000000000000e+00,5.000000000000000000e+00,5.000000000000000000e+00,5.000000000000000000e+00,5.000000000000000000e+00,5.000000000000000000e+00,5.000000000000000000e+00,5.000000000000000000e+00,5.000000000000000000e+00,1.485413312911987305e+00,1.486694216728210449e+00,1.531751632690429688e+00,1.464759469032287598e+00,1.454081773757934570e+00,1.454528689384460449e+00,1.455044746398925781e+00,1.466485738754272461e+00,1.497229337692260742e+00,1.540221095085144043e+00,1.511569738388061523e+00,1.508904457092285156e+00,1.509997248649597168e+00,1.520105838775634766e+00,1.563297986984252930e+00,5.000000000000000000e+00,1.630044817924499512e+00,1.641988039016723633e+00,5.000000000000000000e+00,5.000000000000000000e+00,4.854613304138183594e+00,4.664275169372558594e+00,4.488299846649169922e+00,4.325119495391845703e+00,4.173388957977294922e+00,4.031942844390869141e+00,3.899770975112915039e+00,3.775989055633544922e+00,3.659823417663574219e+00,3.550591945648193359e+00,3.447691679000854492e+00,3.350587844848632812e+00,3.258804082870483398e+00,3.171914577484130859e+00,3.089538335800170898e+00,3.011332511901855469e+00,2.936988353729248047e+00,2.866226196289062500e+00,2.798794031143188477e+00,2.734461545944213867e+00,2.673020124435424805e+00,2.614279270172119141e+00,2.558064460754394531e+00,2.504216194152832031e+00,2.452588558197021484e+00,2.403046369552612305e+00,2.355466365814208984e+00,2.309733629226684570e+00,2.265743017196655273e+00,2.223397016525268555e+00,2.182604551315307617e+00,2.143281936645507812e+00,2.105351448059082031e+00,2.068739652633666992e+00,2.033380031585693359e+00,1.999208450317382812e+00,1.966166734695434570e+00,1.934199094772338867e+00,1.903254628181457520e+00,1.873284459114074707e+00,1.844243645668029785e+00
5.000000000000000000e+00,5.000000000000000000e+00,5.000000000000000000e+00,5.000000000000000000e+00,5.000000000000000000e+00,5.000000000000000000e+00,5.000000000000000000e+00,5.000000000000000000e+00,5.000000000000000000e+00,5.000000000000000000e+00,5.000000000000000000e+00,5.000000000000000000e+00,5.000000000000000000e+00,5.000000000000000000e+00,5.000000000000000000e+00,5.000000000000000000e+00,5.000000000000000000e+00,5.000000000000000000e+00,5.000000000000000000e+00,1.466526508331298828e+00,1.471898555755615234e+00,1.476910710334777832e+00,1.476624131202697754e+00,1.454844713211059570e+00,1.454319953918457031e+00,1.454835891723632812e+00,1.465029120445251465e+00,1.495711088180541992e+00,1.542389154434204102e+00,1.512434959411621094e+00,1.505478382110595703e+00,1.506712317466735840e+00,1.510338068008422852e+00,1.552969217300415039e+00,5.000000000000000000e+00,1.610556006431579590e+00,1.630717873573303223e+00,5.000000000000000000e+00,5.000000000000000000e+00,4.854753494262695312e+00,4.664404392242431641e+00,4.488419055938720703e+00,4.325230598449707031e+00,4.173491954803466797e+00,4.032039165496826172e+00,3.899861097335815430e+00,3.776073694229125977e+00,3.659902811050415039e+00,3.550666809082031250e+00,3.447762250900268555e+00,3.350654363632202148e+00,3.258867025375366211e+00,3.171974182128906250e+00,3.089594841003417969e+00,3.011386394500732422e+00,2.937039375305175781e+00,2.866275072097778320e+00,2.798840284347534180e+00,2.734505891799926758e+00,2.673062562942504883e+00,2.614319801330566406e+00,2.558103084564208984e+00,2.504253387451171875e+00,2.452624082565307617e+00,2.403080701828002930e+00,2.355499267578125000e+00,2.309765338897705078e+00,2.265773534774780273e+00,2.223426342010498047e+00,2.182632923126220703e+00,2.143309354782104492e+00,2.105377674102783203e+00,2.068765163421630859e+00,2.033404588699340820e+00,1.999232292175292969e+00,1.966189622879028320e+00,1.934221386909484863e+00,1.903275966644287109e+00,1.873305320739746094e+00,1.844263792037963867e+00
5.000000000000000000e+00,5.000000000000000000e+00,5.000000000000000000e+00,5.000000000000000000e+00,5.000000000000000000e+00,5.000000000000000000e+00,5.000000000000000000e+00,5.000000000000000000e+00,5.000000000000000000e+00,5.000000000000000000e+00,5.000000000000000000e+00,5.000000000000000000e+00,5.000000000000000000e+00,5.000000000000000000e+00,5.000000000000000000e+00,5.000000000000000000e+00,5.000000000000000000e+00,5.000000000000000000e+00,5.000000000000000000e+00,1.456527829170227051e+00,1.477477669715881348e+00,1.464761257171630859e+00,1.488351345062255859e+00,1.455608248710632324e+00,1.454857587814331055e+00,1.454626798629760742e+00,1.463575363159179688e+00,1.492828369140625000e+00,1.543219566345214844e+00,1.513127446174621582e+00,1.500177502632141113e+00,1.503441572189331055e+00,1.504526615142822266e+00,1.543495774269104004e+00,5.000000000000000000e+00,1.603336215019226074e+00,1.695017933845520020e+00,1.645087480545043945e+00,5.000000000000000000e+00,4.854893207550048828e+00,4.664533615112304688e+00,4.488538742065429688e+00,4.325341701507568359e+00,4.173595428466796875e+00,4.032135486602783203e+00,3.899951219558715820e+00,3.776158094406127930e+00,3.659982204437255859e+00,3.550741434097290039e+00,3.447832584381103516e+00,3.350720882415771484e+00,3.258929967880249023e+00,3.172034025192260742e+00,3.089651584625244141e+00,3.011440038681030273e+00,2.937090635299682617e+00,2.866323709487915039e+00,2.798886775970458984e+00,2.734550237655639648e+00,2.673105001449584961e+00,2.614360332489013672e+00,2.558141946792602539e+00,2.504290580749511719e+00,2.452659845352172852e+00,2.403115034103393555e+00,2.355532169342041016e+00,2.309797048568725586e+00,2.265804052352905273e+00,2.223455667495727539e+00,2.182661294937133789e+00,2.143336772918701172e+00,2.105404138565063477e+00,2.068790674209594727e+00,2.033429145812988281e+00,1.999255895614624023e+00,1.966212630271911621e+00,1.934243440628051758e+00,1.903297543525695801e+00,1.873326063156127930e+00,1.844284057617187500e+00
5.000000000000000000e+00,5.000000000000000000e+00,5.000000000000000000e+00,5.000000000000000000e+00,5.000000000000000000e+00,5.000000000000000000e+00,5.000000000000000000e+00,5.000000000000000000e+00,5.000000000000000000e+00,5.000000000000000000e+00,5.000000000000000000e+00,5.000000000000000000e+00,5.000000000000000000e+00,5.000000000000000000e+00,5.000000000000000000e+00,5.000000000000000000e+00,5.000000000000000000e+00,5.000000000000000000e+00,1.491867423057556152e+00,1.445553898811340332e+00,5.000000000000000000e+00,1.459584236145019531e+00,1.500266313552856445e+00,1.456372618675231934e+00,1.455621242523193359e+00,1.454870581626892090e+00,1.462124466896057129e+00,1.489802956581115723e+00,1.544050574302673340e+00,1.513820290565490723e+00,1.494914054870605469e+00,1.498171448707580566e+00,1.501265287399291992e+00,1.535243868827819824e+00,5.000000000000000000e+00,5.000000000000000000e+00,5.000000000000000000e+00,1.597433090209960938e+00,5.000000000000000000e+00,4.855032920837402344e+00,4.664662837982177734e+00,4.488658428192138672e+00,4.325452327728271484e+00,4.173698902130126953e+00,4.032232284545898438e+00,3.900041580200195312e+00,3.776242733001708984e+00,3.660061836242675781e+00,3.550816297531127930e+00,3.447903156280517578e+00,3.350787639617919922e+00,3.258992910385131836e+00,3.172093629837036133e+00,3.089708089828491211e+00,3.011493921279907227e+00,2.937141656875610352e+00,2.866372346878051758e+00,2.798933267593383789e+00,2.734594583511352539e+00,2.673147201538085938e+00,2.614400863647460938e+00,2.558180809020996094e+00,2.504327774047851562e+00,2.452695608139038086e+00,2.403149366378784180e+00,2.355565309524536133e+00,2.309828758239746094e+00,2.265834569931030273e+00,2.223484992980957031e+00,2.182689428329467773e+00,2.143363952636718750e+00,2.105430364608764648e+00,2.068815946578979492e+00,2.033453702926635742e+00,1.999279737472534180e+00,1.966235399246215820e+00,1.934265851974487305e+00,1.903319001197814941e+00,1.873346924781799316e+00,1.844304084777832031e+00
5.000000000000000000e+00,5.000000000000000000e+00,5.000000000000000000e+00,5.000000000000000000e+00,5.000000000000000000e+00,5.000000000000000000e+00,5.000000000000000000e+00,5.000000000000000000e+00,5.000000000000000000e+00,5.000000000000000000e+00,5.000000000000000000e+00,5.000000000000000000e+00,5.000000000000000000e+00,5.000000000000000000e+00,5.000000000000000000e+00,5.000000000000000000e+00,5.000000000000000000e+00,5.000000000000000000e+00,1.483850598335266113e+00,1.435319900512695312e+00,5.000000000000000000e+00,5.000000000000000000e+00,1.529043912887573242e+00,1.464042186737060547e+00,1.455015659332275391e+00,1.454306006431579590e+00,1.459473729133605957e+00,1.486796975135803223e+00,1.552930593490600586e+00,1.514513969421386719e+00,1.489911913871765137e+00,1.493504405021667480e+00,1.497114181518554688e+00,1.525777816772460938e+00,5.000000000000000000e+00,5.000000000000000000e+00,5.000000000000000000e+00,1.666448473930358887e+00,5.000000000000000000e+00,4.855172634124755859e+00,4.664791584014892578e+00,4.488777637481689453e+00,4.325563430786132812e+00,4.173801898956298828e+00,4.032328605651855469e+00,3.900131702423095703e+00,3.776327371597290039e+00,3.660141229629516602e+00,3.550890922546386719e+00,3.447973728179931641e+00,3.350854158401489258e+00,3.259056091308593750e+00,3.172153234481811523e+00,3.089764833450317383e+00,3.011547565460205078e+00,2.937192916870117188e+00,2.866421222686767578e+00,2.798979759216308594e+00,2.734638929367065430e+00,2.673189640045166016e+00,2.614441394805908203e+00,2.558219909667968750e+00,2.504365205764770508e+00,2.452731370925903320e+00,2.403183698654174805e+00,2.355598211288452148e+00,2.309860467910766602e+00,2.265865087509155273e+00,2.223514318466186523e+00,2.182717800140380859e+00,2.143391132354736328e+00,2.105456590652465820e+00,2.068841457366943359e+00,2.033478021621704102e+00,1.999303340911865234e+00,1.966258525848388672e+00,1.934287905693054199e+00,1.903340578079223633e+00,1.873367667198181152e+00,1.844324350357055664e+00
5.000000000000000000e+00,5.000000000000000000e+00,5.000000000000000000e+00,5.000000000000000000e+00,5.000000000000000000e+00,5.000000000000000000e+00,5.000000000000000000e+00,5.000000000000000000e+00,5.000000000000000000e+00,5.000000000000000000e+00,5.000000000000000000e+00,5.000000000000000000e+00,5.000000000000000000e+00,5.000000000000000000e+00,5.000000000000000000e+00,5.000000000000000000e+00,5.000000000000000000e+00,5.000000000000000000e+00,1.475151181221008301e+00,5.000000000000000000e+00,5.000000000000000000e+00,5.000000000000000000e+00,5.000000000000000000e+00,1.477529644966125488e+00,1.452920317649841309e+00,1.452212691307067871e+00,1.456858038902282715e+00,1.484082460403442383e+00,1.571208834648132324e+00,1.513654947280883789e+00,1.486493587493896484e+00,1.490151882171630859e+00,1.493745565414428711e+00,1.513437986373901367e+00,5.000000000000000000e+00,5.000000000000000000e+00,5.000000000000000000e+00,5.000000000000000000e+00,5.000000000000000000e+00,4.855312824249267578e+00,4.664920806884765625e+00,4.488897323608398438e+00,4.325674533843994141e+00,4.173905372619628906e+00,4.032425403594970703e+00,3.900221824645996094e+00,3.776412010192871094e+00,3.660220623016357422e+00,3.550965785980224609e+00,3.448044300079345703e+00,3.350920677185058594e+00,3.259119033813476562e+00,3.172213077545166016e+00,3.089821338653564453e+00,3.011601448059082031e+00,2.937244176864624023e+00,2.866469860076904297e+00,2.799026489257812500e+00,2.734683513641357422e+00,2.673232316970825195e+00,2.614482164382934570e+00,2.558258533477783203e+00,2.504402399063110352e+00,2.452767133712768555e+00,2.403217792510986328e+00,2.355631113052368164e+00,2.309891939163208008e+00,2.265895366668701172e+00,2.223543643951416016e+00,2.182745933532714844e+00,2.143418312072753906e+00,2.105482816696166992e+00,2.068866729736328125e+00,2.033502578735351562e+00,1.999327182769775391e+00,1.966281294822692871e+00,1.934310197830200195e+00,1.903361916542053223e+00,1.873388528823852539e+00,1.844344377517700195e+00
5.000000000000000000e+00,5.000000000000000000e+00,5.000000000000000000e+00,5.000000000000000000e+00,5.000000000000000000e+00,5.000000000000000000e+00,5.000000000000000000e+00,5.000000000000000000e+00,5.000000000000000000e+00,5.000000000000000000e+00,5.000000000000000000e+00,5.000000000000000000e+00,5.000000000000000000e+00,5.000000000000000000e+00,5.000000000000000000e+00,5.000000000000000000e+00,5.000000000000000000e+00,5.000000000000000000e+00,5.000000000000000000e+00,5.000000000000000000e+00,5.000000000000000000e+00,5.000000000000000000e+00,5.000000000000000000e+00,1.491267919540405273e+00,1.454402446746826172e+00,1.450125455856323242e+00,1.454251766204833984e+00,1.481202960014343262e+00,5.000000000000000000e+00,1.511360526084899902e+00,1.486235022544860840e+00,1.485356688499450684e+00,1.490392088890075684e+00,1.501296162605285645e+00,5.000000000000000000e+00,5.000000000000000000e+00,5.000000000000000000e+00,5.000000000000000000e+00,5.000000000000000000e+00,4.855453014373779297e+00,4.665050029754638672e+00,4.489017009735107422e+00,4.325785636901855469e+00,4.174008846282958984e+00,4.032521724700927734e+00,3.900312185287475586e+00,3.776496410369873047e+00,3.660300016403198242e+00,3.551040649414062500e+00,3.448114633560180664e+00,3.350987434387207031e+00,3.259181976318359375e+00,3.172272682189941406e+00,3.089878082275390625e+00,3.011655569076538086e+00,2.937295436859130859e+00,2.866518974304199219e+00,2.799072980880737305e+00,2.734727859497070312e+00,2.673274755477905273e+00,2.614522695541381836e+00,2.558297395706176758e+00,2.504439592361450195e+00,2.452802658081054688e+00,2.403252124786376953e+00,2.355664014816284180e+00,2.309923648834228516e+00,2.265925884246826172e+00,2.223572969436645508e+00,2.182774305343627930e+00,2.143445730209350586e+00,2.105509281158447266e+00,2.068892240524291992e+00,2.033527135848999023e+00,1.999350666999816895e+00,1.966304302215576172e+00,1.934332251548767090e+00,1.903383493423461914e+00,1.873409271240234375e+00,1.844364762306213379e+00
5.000000000000000000e+00,5.000000000000000000e+00,5.000000000000000000e+00,5.000000000000000000e+00,5.000000000000000000e+00,5.000000000000000000e+00,5.000000000000000000e+00,5.000000000000000000e+00,5.000000000000000000e+00,5.000000000000000000e+00,5.000000000000000000e+00,5.000000000000000000e+00,5.000000000000000000e+00,5.000000000000000000e+00,5.000000000000000000e+00,5.000000000000000000e+00,5.000000000000000000e+00,5.000000000000000000e+00,5.000000000000000000e+00,5.000000000000000000e+00,5.000000000000000000e+00,5.000000000000000000e+00,5.000000000000000000e+00,1.512047290802001953e+00,1.456778526306152344e+00,1.448413610458374023e+00,1.451654672622680664e+00,1.476427435874938965e+00,5.000000000000000000e+00,1.509073019027709961e+00,1.485976338386535645e+00,1.479196071624755859e+00,1.486635088920593262e+00,1.490632295608520508e+00,5.000000000000000000e+00,5.000000000000000000e+00,5.000000000000000000e+00,5.000000000000000000e+00,5.000000000000000000e+00,4.855592727661132812e+00,4.665179252624511719e+00,4.489136695861816406e+00,4.325896739959716797e+00,4.174112319946289062e+00,4.032618045806884766e+00,3.900402307510375977e+00,3.776581048965454102e+00,3.660379648208618164e+00,3.551115274429321289e+00,3.448185205459594727e+00,3.351053953170776367e+00,3.259245395660400391e+00,3.172332763671875000e+00,3.089935064315795898e+00,3.011709213256835938e+00,2.937346696853637695e+00,2.866567611694335938e+00,2.799119472503662109e+00,2.734772205352783203e+00,2.673316955566406250e+00,2.614563226699829102e+00,2.558336257934570312e+00,2.504476785659790039e+00,2.452838420867919922e+00,2.403286457061767578e+00,2.355696916580200195e+00,2.309955358505249023e+00,2.265956401824951172e+00,2.223602294921875000e+00,2.182802438735961914e+00,2.143472909927368164e+00,2.105535507202148438e+00,2.068917512893676758e+00,2.033551692962646484e+00,1.999374508857727051e+00,1.966327190399169922e+00,1.934354543685913086e+00,1.903404951095581055e+00,1.873430252075195312e+00,1.844384789466857910e+00
5.000000000000000000e+00,5.000000000000000000e+00,5.000000000000000000e+00,5.000000000000000000e+00,5.000000000000000000e+00,5.000000000000000000e+00,5.000000000000000000e+00,5.000000000000000000e+00,5.000000000000000000e+00,5.000000000000000000e+00,5.000000000000000000e+00,5.000000000000000000e+00,5.000000000000000000e+00,5.000000000000000000e+00,5.000000000000000000e+00,5.000000000000000000e+00,5.000000000000000000e+00,5.000000000000000000e+00,5.000000000000000000e+00,5.000000000000000000e+00,5.000000000000000000e+00,5.000000000000000000e+00,5.000000000000000000e+00,1.532915830612182617e+00,1.464902877807617188e+00,1.450770139694213867e+00,1.449066996574401855e+00,1.471682548522949219e+00,1.537230372428894043e+00,1.506792306900024414e+00,1.485717892646789551e+00,1.473086357116699219e+00,1.480463862419128418e+00,1.487292766571044922e+00,5.000000000000000000e+00,5.000000000000000000e+00,5.000000000000000000e+00,5.000000000000000000e+00,5.000000000000000000e+00,4.855732440948486328e+00,4.665308475494384766e+00,4.489255905151367188e+00,4.326007843017578125e+00,4.174215793609619141e+00,4.032714366912841797e+00,3.900492668151855469e+00,3.776665687561035156e+00,3.660459041595458984e+00,3.551190614700317383e+00,3.448256015777587891e+00,3.351120948791503906e+00,3.259308338165283203e+00,3.172392368316650391e+00,3.089991569519042969e+00,3.011763095855712891e+00,2.937397718429565430e+00,2.866616249084472656e+00,2.799165964126586914e+00,2.734816551208496094e+00,2.673359394073486328e+00,2.614603757858276367e+00,2.558375120162963867e+00,2.504513978958129883e+00,2.452874183654785156e+00,2.403320550918579102e+00,2.355729818344116211e+00,2.309987068176269531e+00,2.265986919403076172e+00,2.223631620407104492e+00,2.182830810546875000e+00,2.143500089645385742e+00,2.105561733245849609e+00,2.068943023681640625e+00,2.033576250076293945e+00,1.999398112297058105e+00,1.966350197792053223e+00,1.934376597404479980e+00,1.903426527976989746e+00,1.873450875282287598e+00,1.844405055046081543e+00
5.000000000000000000e+00,5.000000000000000000e+00,5.000000000000000000e+00,5.000000000000000000e+00,5.000000000000000000e+00,5.000000000000000000e+00,5.000000000000000000e+00,5.000000000000000000e+00,5.000000000000000000e+00,5.000000000000000000e+00,5.000000000000000000e+00,5.000000000000000000e+00,5.000000000000000000e+00,5.000000000000000000e+00,5.000000000000000000e+00,5.000000000000000000e+00,5.000000000000000000e+00,5.000000000000000000e+00,5.000000000000000000e+00,5.000000000000000000e+00,5.000000000000000000e+00,5.000000000000000000e+00,5.000000000000000000e+00,5.000000000000000000e+00,1.480202674865722656e+00,1.452198028564453125e+00,1.447527647018432617e+00,1.469353199005126953e+00,1.522031903266906738e+00,5.000000000000000000e+00,1.485480785369873047e+00,1.468749284744262695e+00,1.476560235023498535e+00,1.484233498573303223e+00,5.000000000000000000e+00,5.000000000000000000e+00,5.000000000000000000e+00,5.000000000000000000e+00,5.000000000000000000e+00,4.855872154235839844e+00,4.665437221527099609e+00,4.489375591278076172e+00,4.326118469238281250e+00,4.174318790435791016e+00,4.032811164855957031e+00,3.900583267211914062e+00,3.776750564575195312e+00,3.660538911819458008e+00,3.551265239715576172e+00,3.448326587677001953e+00,3.351187467575073242e+00,3.259371280670166016e+00,3.172451972961425781e+00,3.090048313140869141e+00,3.011816978454589844e+00,2.937448978424072266e+00,2.866665124893188477e+00,2.799212217330932617e+00,2.734860897064208984e+00,2.673401832580566406e+00,2.614644289016723633e+00,2.558413982391357422e+00,2.504551172256469727e+00,2.452909708023071289e+00,2.403354883193969727e+00,2.355762720108032227e+00,2.310018539428710938e+00,2.266017198562622070e+00,2.223660945892333984e+00,2.182858943939208984e+00,2.143527269363403320e+00,2.105588197708129883e+00,2.068968296051025391e+00,2.033600807189941406e+00,1.999421954154968262e+00,1.966372966766357422e+00,1.934398889541625977e+00,1.903448104858398438e+00,1.873471856117248535e+00,1.844425320625305176e+00
5.000000000000000000e+00,5.000000000000000000e+00,5.000000000000000000e+00,5.000000000000000000e+00,5.000000000000000000e+00,5.000000000000000000e+00,5.000000000000000000e+00,5.000000000000000000e+00,5.000000000000000000e+00,5.000000000000000000e+00,5.000000000000000000e+00,5.000000000000000000e+00,5.000000000000000000e+00,5.000000000000000000e+00,5.000000000000000000e+00,5.000000000000000000e+00,5.000000000000000000e+00,5.000000000000000000e+00,5.000000000000000000e+00,5.000000000000000000e+00,5.000000000000000000e+00,5.000000000000000000e+00,5.000000000000000000e+00,5.000000000000000000e+00,1.497101545333862305e+00,1.458300232887268066e+00,1.449793457984924316e+00,1.470091342926025391e+00,1.519225239753723145e+00,5.000000000000000000e+00,1.487475156784057617e+00,1.472409605979919434e+00,1.479275226593017578e+00,1.487440943717956543e+00,5.000000000000000000e+00,5.000000000000000000e+00,5.000000000000000000e+00,5.000000000000000000e+00,5.000000000000000000e+00,4.856012344360351562e+00,4.665566444396972656e+00,4.489495277404785156e+00,4.326230049133300781e+00,4.174422740936279297e+00,4.032907485961914062e+00,3.900673627853393555e+00,3.776835203170776367e+00,3.660618305206298828e+00,3.551340103149414062e+00,3.448397159576416016e+00,3.351253986358642578e+00,3.259434223175048828e+00,3.172511816024780273e+00,3.090104818344116211e+00,3.011870622634887695e+00,2.937500238418579102e+00,2.866713762283325195e+00,2.799258708953857422e+00,2.734905242919921875e+00,2.673444271087646484e+00,2.614684820175170898e+00,2.558452844619750977e+00,2.504588365554809570e+00,2.452945470809936523e+00,2.403389215469360352e+00,2.355795621871948242e+00,2.310050249099731445e+00,2.266047716140747070e+00,2.223690271377563477e+00,2.182887315750122070e+00,2.143554687500000000e+00,2.105614423751831055e+00,2.068993806838989258e+00,2.033625364303588867e+00,1.999445796012878418e+00,1.966396093368530273e+00,1.934421181678771973e+00,1.903469443321228027e+00,1.873492717742919922e+00,1.844445466995239258e+00
5.000000000000000000e+00,5.000000000000000000e+00,5.000000000000000000e+00,5.000000000000000000e+00,5.000000000000000000e+00,5.000000000000000000e+00,5.000000000000000000e+00,5.000000000000000000e+00,5.000000000000000000e+00,5.000000000000000000e+00,5.000000000000000000e+00,5.000000000000000000e+00,5.000000000000000000e+00,5.000000000000000000e+00,5.000000000000000000e+00,5.000000000000000000e+00,5.000000000000000000e+00,5.000000000000000000e+00,5.000000000000000000e+00,5.000000000000000000e+00,5.000000000000000000e+00,5.000000000000000000e+00,5.000000000000000000e+00,5.000000000000000000e+00,1.496991395950317383e+00,1.468359827995300293e+00,1.460046052932739258e+00,1.481782913208007812e+00,1.556670188903808594e+00,1.592222571372985840e+00,1.498419046401977539e+00,1.479007244110107422e+00,1.485807180404663086e+00,1.493898868560791016e+00,5.000000000000000000e+00,5.000000000000000000e+00,5.000000000000000000e+00,5.000000000000000000e+00,5.000000000000000000e+00,4.856152534484863281e+00,4.665695667266845703e+00,4.489614963531494141e+00,4.326341152191162109e+00,4.174525737762451172e+00,4.033004283905029297e+00,3.900763750076293945e+00,3.776919841766357422e+00,3.660697698593139648e+00,3.551414966583251953e+00,3.448467731475830078e+00,3.351320743560791016e+00,3.259497404098510742e+00,3.172571420669555664e+00,3.090161561965942383e+00,3.011924505233764648e+00,2.937551259994506836e+00,2.866762638092041016e+00,2.799305200576782227e+00,2.734949588775634766e+00,2.673486471176147461e+00,2.614725351333618164e+00,2.558491468429565430e+00,2.504625558853149414e+00,2.452981233596801758e+00,2.403423309326171875e+00,2.355828523635864258e+00,2.310081958770751953e+00,2.266078233718872070e+00,2.223719596862792969e+00,2.182915449142456055e+00,2.143581867218017578e+00,2.105640888214111328e+00,2.069019317626953125e+00,2.033649921417236328e+00,1.999469399452209473e+00,1.966419100761413574e+00,1.934443354606628418e+00,1.903491020202636719e+00,1.873513460159301758e+00,1.844465732574462891e+00
5.000000000000000000e+00,5.000000000000000000e+00,5.000000000000000000e+00,5.000000000000000000e+00,5.000000000000000000e+00,5.000000000000000000e+00,5.000000000000000000e+00,5.000000000000000000e+00,5.000000000000000000e+00,5.000000000000000000e+00,5.000000000000000000e+00,5.000000000000000000e+00,5.000000000000000000e+00,5.000000000000000000e+00,5.000000000000000000e+00,5.000000000000000000e+00,5.000000000000000000e+00,5.000000000000000000e+00,5.000000000000000000e+00,5.000000000000000000e+00,5.000000000000000000e+00,5.000000000000000000e+00,5.000000000000000000e+00,5.000000000000000000e+00,1.500896811485290527e+00,1.483925819396972656e+00,1.473586440086364746e+00,1.495731472969055176e+00,5.000000000000000000e+00,1.555086135864257812e+00,1.521008133888244629e+00,1.495029926300048828e+00,1.500620484352111816e+00,1.507932543754577637e+00,5.000000000000000000e+00,5.000000000000000000e+00,5.000000000000000000e+00,5.000000000000000000e+00,5.000000000000000000e+00,4.856292247772216797e+00,4.665824890136718750e+00,4.489734649658203125e+00,4.326451778411865234e+00,4.174629211425781250e+00,4.033100605010986328e+00,3.900854110717773438e+00,3.777004480361938477e+00,3.660777330398559570e+00,3.551489830017089844e+00,3.448538064956665039e+00,3.351387262344360352e+00,3.259560346603393555e+00,3.172631025314331055e+00,3.090218067169189453e+00,3.011978387832641602e+00,2.937602519989013672e+00,2.866811275482177734e+00,2.799351692199707031e+00,2.734993934631347656e+00,2.673528909683227539e+00,2.614765882492065430e+00,2.558530330657958984e+00,2.504662752151489258e+00,2.453016757965087891e+00,2.403457641601562500e+00,2.355861425399780273e+00,2.310113668441772461e+00,2.266108512878417969e+00,2.223749160766601562e+00,2.182944059371948242e+00,2.143609285354614258e+00,2.105667114257812500e+00,2.069044589996337891e+00,2.033674478530883789e+00,1.999493241310119629e+00,1.966441869735717773e+00,1.934465646743774414e+00,1.903512477874755859e+00,1.873534440994262695e+00,1.844485759735107422e+00
5.000000000000000000e+00,5.000000000000000000e+00,5.000000000000000000e+00,5.000000000000000000e+00,5.000000000000000000e+00,5.000000000000000000e+00,5.000000000000000000e+00,5.000000000000000000e+00,5.000000000000000000e+00,5.000000000000000000e+00,5.000000000000000000e+00,5.000000000000000000e+00,5.000000000000000000e+00,5.000000000000000000e+00,5.000000000000000000e+00,5.000000000000000000e+00,5.000000000000000000e+00,5.000000000000000000e+00,5.000000000000000000e+00,5.000000000000000000e+00,5.000000000000000000e+00,5.000000000000000000e+00,5.000000000000000000e+00,5.000000000000000000e+00,1.506853222846984863e+00,1.495370507240295410e+00,1.487380266189575195e+00,1.512621998786926270e+00,5.000000000000000000e+00,1.581155896186828613e+00,1.542555093765258789e+00,1.530483603477478027e+00,1.534772038459777832e+00,5.000000000000000000e+00,5.000000000000000000e+00,5.000000000000000000e+00,5.000000000000000000e+00,5.000000000000000000e+00,5.000000000000000000e+00,4.856431961059570312e+00,4.665954113006591797e+00,4.489853858947753906e+00,4.326562881469726562e+00,4.174732685089111328e+00,4.033196926116943359e+00,3.900944232940673828e+00,3.777089118957519531e+00,3.660856723785400391e+00,3.551564455032348633e+00,3.448608636856079102e+00,3.351454019546508789e+00,3.259623289108276367e+00,3.172690868377685547e+00,3.090274810791015625e+00,3.012032032012939453e+00,2.937653779983520508e+00,2.866859912872314453e+00,2.799398183822631836e+00,2.735038280487060547e+00,2.673571348190307617e+00,2.614806413650512695e+00,2.558569192886352539e+00,2.504699945449829102e+00,2.453052520751953125e+00,2.403491973876953125e+00,2.355894565582275391e+00,2.310145378112792969e+00,2.266139268875122070e+00,2.223778486251831055e+00,2.182972192764282227e+00,2.143636465072631836e+00,2.105693340301513672e+00,2.069070100784301758e+00,2.033699035644531250e+00,1.999516844749450684e+00,1.966464996337890625e+00,1.934487700462341309e+00,1.903534054756164551e+00,1.873555064201354980e+00,1.844506025314331055e+00
5.000000000000000000e+00,5.000000000000000000e+00,5.000000000000000000e+00,5.000000000000000000e+00,5.000000000000000000e+00,5.000000000000000000e+00,5.000000000000000000e+00,5.000000000000000000e+00,5.000000000000000000e+00,5.000000000000000000e+00,5.000000000000000000e+00,5.000000000000000000e+00,5.000000000000000000e+00,5.000000000000000000e+00,5.000000000000000000e+00,5.000000000000000000e+00,5.000000000000000000e+00,5.000000000000000000e+00,5.000000000000000000e+00,5.000000000000000000e+00,5.000000000000000000e+00,5.000000000000000000e+00,5.000000000000000000e+00,5.000000000000000000e+00,1.516518473625183105e+00,1.506254076957702637e+00,1.501434803009033203e+00,1.535594940185546875e+00,1.635026812553405762e+00,1.596343040466308594e+00,1.582605600357055664e+00,1.569328904151916504e+00,1.607811927795410156e+00,5.000000000000000000e+00,5.000000000000000000e+00,5.000000000000000000e+00,5.000000000000000000e+00,5.000000000000000000e+00,5.000000000000000000e+00,4.856572151184082031e+00,4.666083335876464844e+00,4.489973545074462891e+00,4.326673984527587891e+00,4.174836158752441406e+00,4.033293724060058594e+00,3.901034593582153320e+00,3.777173757553100586e+00,3.660936355590820312e+00,3.551639318466186523e+00,3.448679208755493164e+00,3.351520538330078125e+00,3.259686470031738281e+00,3.172750473022460938e+00,3.090331315994262695e+00,3.012085914611816406e+00,2.937704801559448242e+00,2.866908788681030273e+00,2.799444675445556641e+00,2.735082626342773438e+00,2.673613786697387695e+00,2.614846944808959961e+00,2.558608055114746094e+00,2.504737377166748047e+00,2.453088283538818359e+00,2.403526306152343750e+00,2.355927467346191406e+00,2.310177087783813477e+00,2.266169786453247070e+00,2.223807811737060547e+00,2.183000564575195312e+00,2.143663883209228516e+00,2.105719804763793945e+00,2.069095373153686523e+00,2.033723592758178711e+00,1.999540686607360840e+00,1.966487765312194824e+00,1.934509992599487305e+00,1.903555393218994141e+00,1.873576045036315918e+00,1.844526171684265137e+00
5.000000000000000000e+00,5.000000000000000000e+00,5.000000000000000000e+00,5.000000000000000000e+00,5.000000000000000000e+00,5.000000000000000000e+00,5.000000000000000000e+00,5.000000000000000000e+00,5.000000000000000000e+00,5.000000000000000000e+00,5.000000000000000000e+00,5.000000000000000000e+00,5.000000000000000000e+00,5.000000000000000000e+00,5.000000000000000000e+00,5.000000000000000000e+00,5.000000000000000000e+00,5.000000000000000000e+00,5.000000000000000000e+00,5.000000000000000000e+00,5.000000000000000000e+00,5.000000000000000000e+00,5.000000000000000000e+00,5.000000000000000000e+00,1.526228785514831543e+00,1.516567707061767578e+00,1.514483809471130371e+00,1.549477696418762207e+00,1.647623896598815918e+00,1.613125324249267578e+00,1.609666585922241211e+00,1.605022668838500977e+00,5.000000000000000000e+00,5.000000000000000000e+00,5.000000000000000000e+00,5.000000000000000000e+00,5.000000000000000000e+00,5.000000000000000000e+00,5.000000000000000000e+00,4.856711864471435547e+00,4.666212558746337891e+00,4.490093231201171875e+00,4.326785087585449219e+00,4.174939632415771484e+00,4.033390045166015625e+00,3.901124715805053711e+00,3.777258396148681641e+00,3.661015748977661133e+00,3.551714181900024414e+00,3.448749780654907227e+00,3.351587057113647461e+00,3.259749412536621094e+00,3.172810316085815430e+00,3.090388059616088867e+00,3.012139797210693359e+00,2.937756061553955078e+00,2.866957426071166992e+00,2.799491167068481445e+00,2.735126972198486328e+00,2.673656463623046875e+00,2.614887714385986328e+00,2.558647155761718750e+00,2.504774570465087891e+00,2.453124046325683594e+00,2.403560638427734375e+00,2.355960369110107422e+00,2.310208797454833984e+00,2.266200065612792969e+00,2.223837137222290039e+00,2.183028697967529297e+00,2.143691062927246094e+00,2.105746030807495117e+00,2.069120883941650391e+00,2.033748149871826172e+00,1.999564170837402344e+00,1.966510891914367676e+00,1.934532046318054199e+00,1.903576970100402832e+00,1.873596787452697754e+00,1.844546437263488770e+00
5.000000000000000000e+00,5.000000000000000000e+00,5.000000000000000000e+00,5.000000000000000000e+00,5.000000000000000000e+00,5.000000000000000000e+00,5.000000000000000000e+00,5.000000000000000000e+00,5.000000000000000000e+00,5.000000000000000000e+00,5.000000000000000000e+00,5.000000000000000000e+00,5.000000000000000000e+00,5.000000000000000000e+00,5.000000000000000000e+00,5.000000000000000000e+00,5.000000000000000000e+00,5.000000000000000000e+00,5.000000000000000000e+00,5.000000000000000000e+00,5.000000000000000000e+00,5.000000000000000000e+00,5.000000000000000000e+00,5.000000000000000000e+00,1.535105586051940918e+00,1.520987868309020996e+00,1.518610239028930664e+00,1.552843213081359863e+00,1.661356329917907715e+00,1.636155128479003906e+00,1.633218646049499512e+00,1.638577699661254883e+00,5.000000000000000000e+00,5.000000000000000000e+00,5.000000000000000000e+00,5.000000000000000000e+00,5.000000000000000000e+00,5.000000000000000000e+00,5.000000000000000000e+00,4.856851577758789062e+00,4.666341781616210938e+00,4.490212917327880859e+00,4.326896190643310547e+00,4.175043106079101562e+00,4.033486843109130859e+00,3.901215076446533203e+00,3.777343034744262695e+00,3.661095142364501953e+00,3.551789045333862305e+00,3.448820352554321289e+00,3.351653814315795898e+00,3.259812355041503906e+00,3.172869920730590820e+00,3.090444564819335938e+00,3.012193441390991211e+00,2.937807321548461914e+00,2.867006540298461914e+00,2.799537897109985352e+00,2.735171556472778320e+00,2.673698663711547852e+00,2.614928245544433594e+00,2.558685779571533203e+00,2.504811763763427734e+00,2.453159809112548828e+00,2.403594970703125000e+00,2.355993270874023438e+00,2.310240268707275391e+00,2.266230583190917969e+00,2.223866462707519531e+00,2.183057069778442383e+00,2.143718242645263672e+00,2.105772256851196289e+00,2.069146156311035156e+00,2.033772468566894531e+00,1.999588012695312500e+00,1.966533660888671875e+00,1.934554457664489746e+00,1.903598427772521973e+00,1.873617649078369141e+00,1.844566464424133301e+00
5.000000000000000000e+00,5.000000000000000000e+00,5.000000000000000000e+00,5.000000000000000000e+00,5.000000000000000000e+00,5.000000000000000000e+00,5.000000000000000000e+00,5.000000000000000000e+00,5.000000000000000000e+00,5.000000000000000000e+00,5.000000000000000000e+00,5.000000000000000000e+00,5.000000000000000000e+00,5.000000000000000000e+00,5.000000000000000000e+00,5.000000000000000000e+00,5.000000000000000000e+00,5.000000000000000000e+00,5.000000000000000000e+00,5.000000000000000000e+00,5.000000000000000000e+00,5.000000000000000000e+00,5.000000000000000000e+00,5.000000000000000000e+00,1.544086217880249023e+00,1.525987029075622559e+00,1.523042321205139160e+00,1.555687904357910156e+00,1.676893234252929688e+00,1.659851670265197754e+00,1.657470107078552246e+00,5.000000000000000000e+00,5.000000000000000000e+00,5.000000000000000000e+00,5.000000000000000000e+00,5.000000000000000000e+00,5.000000000000000000e+00,5.000000000000000000e+00,5.000000000000000000e+00,4.856990337371826172e+00,4.666471004486083984e+00,4.490332603454589844e+00,4.327007293701171875e+00,4.175146102905273438e+00,4.033583164215087891e+00,3.901305198669433594e+00,3.777427434921264648e+00,3.661174774169921875e+00,3.551863908767700195e+00,3.448890924453735352e+00,3.351720333099365234e+00,3.259875297546386719e+00,3.172929525375366211e+00,3.090501546859741211e+00,3.012247562408447266e+00,2.937858581542968750e+00,2.867055177688598633e+00,2.799584388732910156e+00,2.735215902328491211e+00,2.673741102218627930e+00,2.614968776702880859e+00,2.558724641799926758e+00,2.504849195480346680e+00,2.453195571899414062e+00,2.403629064559936523e+00,2.356026172637939453e+00,2.310271978378295898e+00,2.266261100769042969e+00,2.223895788192749023e+00,2.183085203170776367e+00,2.143745422363281250e+00,2.105798482894897461e+00,2.069171667098999023e+00,2.033797025680541992e+00,1.999611616134643555e+00,1.966556668281555176e+00,1.934576511383056641e+00,1.903620004653930664e+00,1.873638391494750977e+00,1.844586730003356934e+00
5.000000000000000000e+00,5.000000000000000000e+00,5.000000000000000000e+00,5.000000000000000000e+00,5.000000000000000000e+00,5.000000000000000000e+00,5.000000000000000000e+00,5.000000000000000000e+00,5.000000000000000000e+00,5.000000000000000000e+00,5.000000000000000000e+00,5.000000000000000000e+00,5.000000000000000000e+00,5.000000000000000000e+00,5.000000000000000000e+00,5.000000000000000000e+00,5.000000000000000000e+00,5.000000000000000000e+00,5.000000000000000000e+00,5.000000000000000000e+00,5.000000000000000000e+00,5.000000000000000000e+00,5.000000000000000000e+00,5.000000000000000000e+00,1.553214907646179199e+00,1.532451629638671875e+00,1.527500391006469727e+00,1.558377861976623535e+00,1.696789741516113281e+00,1.684773564338684082e+00,1.681881904602050781e+00,5.000000000000000000e+00,5.000000000000000000e+00,5.000000000000000000e+00,5.000000000000000000e+00,5.000000000000000000e+00,5.000000000000000000e+00,5.000000000000000000e+00,5.000000000000000000e+00,4.857128620147705078e+00,4.666598796844482422e+00,4.490452289581298828e+00,4.327118396759033203e+00,4.175249576568603516e+00,4.033679962158203125e+00,3.901395559310913086e+00,3.777512073516845703e+00,3.661254167556762695e+00,3.551938533782958984e+00,3.448961496353149414e+00,3.351787328720092773e+00,3.259938716888427734e+00,3.172989606857299805e+00,3.090558290481567383e+00,3.012301445007324219e+00,2.937909841537475586e+00,2.867104053497314453e+00,2.799630880355834961e+00,2.735260248184204102e+00,2.673783540725708008e+00,2.615009307861328125e+00,2.558763504028320312e+00,2.504886388778686523e+00,2.453231096267700195e+00,2.403663396835327148e+00,2.356059074401855469e+00,2.310303688049316406e+00,2.266291618347167969e+00,2.223925113677978516e+00,2.183113574981689453e+00,2.143772840499877930e+00,2.105824947357177734e+00,2.069196939468383789e+00,2.033821582794189453e+00,1.999635457992553711e+00,1.966579556465148926e+00,1.934598803520202637e+00,1.903641343116760254e+00,1.873659253120422363e+00,1.844606876373291016e+00
5.000000000000000000e+00,5.000000000000000000e+00,5.000000000000000000e+00,5.000000000000000000e+00,5.000000000000000000e+00,5.000000000000000000e+00,5.000000000000000000e+00,5.000000000000000000e+00,5.000000000000000000e+00,5.000000000000000000e+00,5.000000000000000000e+00,5.000000000000000000e+00,5.000000000000000000e+00,5.000000000000000000e+00,5.000000000000000000e+00,5.000000000000000000e+00,5.000000000000000000e+00,5.000000000000000000e+00,5.000000000000000000e+00,5.000000000000000000e+00,5.000000000000000000e+00,5.000000000000000000e+00,5.000000000000000000e+00,5.000000000000000000e+00,1.562538623809814453e+00,1.539179325103759766e+00,1.531984567642211914e+00,1.561076998710632324e+00,1.717298984527587891e+00,1.711420893669128418e+00,5.000000000000000000e+00,5.000000000000000000e+00,5.000000000000000000e+00,5.000000000000000000e+00,5.000000000000000000e+00,5.000000000000000000e+00,5.000000000000000000e+00,5.000000000000000000e+00,5.000000000000000000e+00,4.857267379760742188e+00,4.666727066040039062e+00,4.490571022033691406e+00,4.327229499816894531e+00,4.175353050231933594e+00,4.033776283264160156e+00,3.901485919952392578e+00,3.777596712112426758e+00,3.661334037780761719e+00,3.552013874053955078e+00,3.449032306671142578e+00,3.351854085922241211e+00,3.260001897811889648e+00,3.173049449920654297e+00,3.090614795684814453e+00,3.012355327606201172e+00,2.937961101531982422e+00,2.867152690887451172e+00,2.799677371978759766e+00,2.735304832458496094e+00,2.673825979232788086e+00,2.615049839019775391e+00,2.558802366256713867e+00,2.504923582077026367e+00,2.453266859054565430e+00,2.403697729110717773e+00,2.356091976165771484e+00,2.310335397720336914e+00,2.266321897506713867e+00,2.223954439163208008e+00,2.183141708374023438e+00,2.143800020217895508e+00,2.105851173400878906e+00,2.069222450256347656e+00,2.033846139907836914e+00,1.999659061431884766e+00,1.966602563858032227e+00,1.934620857238769531e+00,1.903663039207458496e+00,1.873679995536804199e+00,1.844627141952514648e+00
5.000000000000000000e+00,5.000000000000000000e+00,5.000000000000000000e+00,5.000000000000000000e+00,5.000000000000000000e+00,5.000000000000000000e+00,5.000000000000000000e+00,5.000000000000000000e+00,5.000000000000000000e+00,5.000000000000000000e+00,5.000000000000000000e+00,5.000000000000000000e+00,5.000000000000000000e+00,5.000000000000000000e+00,5.000000000000000000e+00,5.000000000000000000e+00,5.000000000000000000e+00,5.000000000000000000e+00,5.000000000000000000e+00,5.000000000000000000e+00,5.000000000000000000e+00,5.000000000000000000e+00,5.000000000000000000e+00,5.000000000000000000e+00,1.572030067443847656e+00,1.548584699630737305e+00,1.538657784461975098e+00,1.564586758613586426e+00,1.744954824447631836e+00,1.738924622535705566e+00,5.000000000000000000e+00,5.000000000000000000e+00,5.000000000000000000e+00,5.000000000000000000e+00,5.000000000000000000e+00,5.000000000000000000e+00,5.000000000000000000e+00,5.000000000000000000e+00,5.000000000000000000e+00,4.857406139373779297e+00,4.666854858398437500e+00,4.490689754486083984e+00,4.327340602874755859e+00,4.175456523895263672e+00,4.033873081207275391e+00,3.901576519012451172e+00,3.777681827545166016e+00,3.661413669586181641e+00,3.552088737487792969e+00,3.449102878570556641e+00,3.351920604705810547e+00,3.260064840316772461e+00,3.173109054565429688e+00,3.090671539306640625e+00,3.012408971786499023e+00,2.938012361526489258e+00,2.867201566696166992e+00,2.799723863601684570e+00,2.735349178314208984e+00,2.673868417739868164e+00,2.615090608596801758e+00,2.558841228485107422e+00,2.504960775375366211e+00,2.453302621841430664e+00,2.403731822967529297e+00,2.356124877929687500e+00,2.310366868972778320e+00,2.266352415084838867e+00,2.223983764648437500e+00,2.183170080184936523e+00,2.143827199935913086e+00,2.105877399444580078e+00,2.069247722625732422e+00,2.033870697021484375e+00,1.999682903289794922e+00,1.966625452041625977e+00,1.934643149375915527e+00,1.903684616088867188e+00,1.873700976371765137e+00,1.844647407531738281e+00
5.000000000000000000e+00,5.000000000000000000e+00,5.000000000000000000e+00,5.000000000000000000e+00,5.000000000000000000e+00,5.000000000000000000e+00,5.000000000000000000e+00,5.000000000000000000e+00,5.000000000000000000e+00,5.000000000000000000e+00,5.000000000000000000e+00,5.000000000000000000e+00,5.000000000000000000e+00,5.000000000000000000e+00,5.000000000000000000e+00,5.000000000000000000e+00,5.000000000000000000e+00,5.000000000000000000e+00,5.000000000000000000e+00,5.000000000000000000e+00,5.000000000000000000e+00,5.000000000000000000e+00,5.000000000000000000e+00,5.000000000000000000e+00,1.582887291908264160e+00,1.559150576591491699e+00,1.550287485122680664e+00,1.568693995475769043e+00,1.788380146026611328e+00,5.000000000000000000e+00,5.000000000000000000e+00,5.000000000000000000e+00,5.000000000000000000e+00,5.000000000000000000e+00,5.000000000000000000e+00,5.000000000000000000e+00,5.000000000000000000e+00,5.000000000000000000e+00,5.000000000000000000e+00,4.857544422149658203e+00,4.666983127593994141e+00,4.490808486938476562e+00,4.327450275421142578e+00,4.175559997558593750e+00,4.033969402313232422e+00,3.901666879653930664e+00,3.777766466140747070e+00,3.661493062973022461e+00,3.552163362503051758e+00,3.449173450469970703e+00,3.351987361907958984e+00,3.260127782821655273e+00,3.173168897628784180e+00,3.090728282928466797e+00,3.012462854385375977e+00,2.938063383102416992e+00,2.867250204086303711e+00,2.799770355224609375e+00,2.735393524169921875e+00,2.673910856246948242e+00,2.615131139755249023e+00,2.558880090713500977e+00,2.504997968673706055e+00,2.453338146209716797e+00,2.403766155242919922e+00,2.356157779693603516e+00,2.310398578643798828e+00,2.266382932662963867e+00,2.224013090133666992e+00,2.183198213577270508e+00,2.143854618072509766e+00,2.105903863906860352e+00,2.069273233413696289e+00,2.033895254135131836e+00,1.999706745147705078e+00,1.966648459434509277e+00,1.934665560722351074e+00,1.903705954551696777e+00,1.873721837997436523e+00,1.844667434692382812e+00
4.871544837951660156e+00,4.870323657989501953e+00,4.869102954864501953e+00,4.867883205413818359e+00,4.866663932800292969e+00,4.865445137023925781e+00,4.864226818084716797e+00,4.863009452819824219e+00,4.861792087554931641e+00,4.860576152801513672e+00,4.859360218048095703e+00,4.858145236968994141e+00,4.856930732727050781e+00,4.855717182159423828e+00,4.854503631591796875e+00,4.853291034698486328e+00,4.852078914642333984e+00,4.850867748260498047e+00,4.849656581878662109e+00,4.848446369171142578e+00,4.847237110137939453e+00,4.846027851104736328e+00,4.844819545745849609e+00,4.843611717224121094e+00,4.842404365539550781e+00,1.569987177848815918e+00,1.561961412429809570e+00,1.572822809219360352e+00,1.794851779937744141e+00,4.836377143859863281e+00,4.835173606872558594e+00,4.833970546722412109e+00,4.832767963409423828e+00,4.831566333770751953e+00,4.830364704132080078e+00,4.829164505004882812e+00,4.827964305877685547e+00,4.826765060424804688e+00,4.825566291809082031e+00,4.824367523193359375e+00,4.667110919952392578e+00,4.490926742553710938e+00,4.327560424804687500e+00,4.175662994384765625e+00,4.034066200256347656e+00,3.901757001876831055e+00,3.777851104736328125e+00,3.661572694778442383e+00,3.552238225936889648e+00,3.449244022369384766e+00,3.352053880691528320e+00,3.260190963745117188e+00,3.173228502273559570e+00,3.090784788131713867e+00,3.012516736984252930e+00,2.938114643096923828e+00,2.867299079895019531e+00,2.799816846847534180e+00,2.735437870025634766e+00,2.673953056335449219e+00,2.615171670913696289e+00,2.558918952941894531e+00,2.505035161972045898e+00,2.453373908996582031e+00,2.403800487518310547e+00,2.356190919876098633e+00,2.310430288314819336e+00,2.266413450241088867e+00,2.224042415618896484e+00,2.183226823806762695e+00,2.143882036209106445e+00,2.105930328369140625e+00,2.069298744201660156e+00,2.033919811248779297e+00,1.999730348587036133e+00,1.966671466827392578e+00,1.934687614440917969e+00,1.903727531433105469e+00,1.873742580413818359e+00,1.844687819480895996e+00
3.776400089263916016e+00,3.775665998458862305e+00,3.774932622909545898e+00,3.774199247360229492e+00,3.773466110229492188e+00,3.772733449935913086e+00,3.772001028060913086e+00,3.771268844604492188e+00,3.770537137985229492e+00,3.769805431365966797e+00,3.769073724746704102e+00,3.768342733383178711e+00,3.767611980438232422e+00,3.766881465911865234e+00,3.766151428222656250e+00,3.765421628952026367e+00,3.764691829681396484e+00,3.763962507247924805e+00,3.763233423233032227e+00,3.762504816055297852e+00,3.761776208877563477e+00,3.761048078536987305e+00,3.760320186614990234e+00,3.759592533111572266e+00,3.758865356445312500e+00,1.580975294113159180e+00,1.567722558975219727e+00,1.576973676681518555e+00,1.789352297782897949e+00,1.830123662948608398e+00,3.754506587982177734e+00,3.753781318664550781e+00,3.753056287765502930e+00,3.752331495285034180e+00,3.751606941223144531e+00,3.750882625579833984e+00,3.750158548355102539e+00,3.749434947967529297e+00,3.748711585998535156e+00,3.747988224029541016e+00,3.747265577316284180e+00,3.746542453765869141e+00,3.745820045471191406e+00,3.745098114013671875e+00,3.744376420974731445e+00,3.743654966354370117e+00,3.742933750152587891e+00,3.661652088165283203e+00,3.552313089370727539e+00,3.449314594268798828e+00,3.352120637893676758e+00,3.260253906250000000e+00,3.173288106918334961e+00,3.090841531753540039e+00,3.012570381164550781e+00,2.938165903091430664e+00,2.867347717285156250e+00,2.799863338470458984e+00,2.735482215881347656e+00,2.673995494842529297e+00,2.615212202072143555e+00,2.558957576751708984e+00,2.505072355270385742e+00,2.453409671783447266e+00,2.403834819793701172e+00,2.356223821640014648e+00,2.310461997985839844e+00,2.266443967819213867e+00,2.224071979522705078e+00,2.183254957199096680e+00,2.143909215927124023e+00,2.105956554412841797e+00,2.069324016571044922e+00,2.033944368362426758e+00,1.999754190444946289e+00,1.966694355010986328e+00,1.934709906578063965e+00,1.903748989105224609e+00,1.873763561248779297e+00,1.844707846641540527e+00
3.083267688751220703e+00,3.082778453826904297e+00,3.082289457321166992e+00,3.081800699234008789e+00,3.081311941146850586e+00,3.080823183059692383e+00,3.080334901809692383e+00,3.079846620559692383e+00,3.079358339309692383e+00,3.078870534896850586e+00,3.078382730484008789e+00,3.077894926071166992e+00,3.077407121658325195e+00,3.076919794082641602e+00,3.076432704925537109e+00,3.075945615768432617e+00,3.075458765029907227e+00,3.074971914291381836e+00,3.074485301971435547e+00,3.073998928070068359e+00,3.073512554168701172e+00,3.073026418685913086e+00,3.072540521621704102e+00,3.072054862976074219e+00,3.071568965911865234e+00,1.592118382453918457e+00,1.573526501655578613e+00,1.581146240234375000e+00,1.782249569892883301e+00,1.811977148056030273e+00,3.068658113479614258e+00,3.068173408508300781e+00,3.067688941955566406e+00,3.067204713821411133e+00,3.066720724105834961e+00,3.066236734390258789e+00,3.065752983093261719e+00,3.065269231796264648e+00,3.064785718917846680e+00,3.064302444458007812e+00,3.063819169998168945e+00,3.063336133956909180e+00,3.062853097915649414e+00,3.062370061874389648e+00,3.061887502670288086e+00,3.061405181884765625e+00,3.060922861099243164e+00,3.060440778732299805e+00,3.059958696365356445e+00,3.059476852416992188e+00,3.058995246887207031e+00,3.058513641357421875e+00,3.058032274246215820e+00,3.057550907135009766e+00,3.012624263763427734e+00,2.938217163085937500e+00,2.867396593093872070e+00,2.799909830093383789e+00,2.735526561737060547e+00,2.674037933349609375e+00,2.615252733230590820e+00,2.558996438980102539e+00,2.505109548568725586e+00,2.453445434570312500e+00,2.403869152069091797e+00,2.356256723403930664e+00,2.310493707656860352e+00,2.266474485397338867e+00,2.224101305007934570e+00,2.183283329010009766e+00,2.143936395645141602e+00,2.105982780456542969e+00,2.069349527359008789e+00,2.033968925476074219e+00,1.999777793884277344e+00,1.966717362403869629e+00,1.934731960296630859e+00,1.903770565986633301e+00,1.873784184455871582e+00,1.844728112220764160e+00
2.605116605758666992e+00,2.604767322540283203e+00,2.604418039321899414e+00,2.604068994522094727e+00,2.603720188140869141e+00,2.603371143341064453e+00,2.603022336959838867e+00,2.602673768997192383e+00,2.602325201034545898e+00,2.601976633071899414e+00,2.601628303527832031e+00,2.601279973983764648e+00,2.600931644439697266e+00,2.600583553314208984e+00,2.600235223770141602e+00,2.599887371063232422e+00,2.599539518356323242e+00,2.599191665649414062e+00,2.598844051361083984e+00,2.598496437072753906e+00,2.598149061203002930e+00,2.597801685333251953e+00,2.597454309463500977e+00,2.597107172012329102e+00,2.596760034561157227e+00,1.621438741683959961e+00,1.597459912300109863e+00,1.605035305023193359e+00,1.776658535003662109e+00,1.798307538032531738e+00,2.594679117202758789e+00,2.594332695007324219e+00,2.593986272811889648e+00,2.593640089035034180e+00,2.593293905258178711e+00,2.592947721481323242e+00,2.592601776123046875e+00,2.592255830764770508e+00,2.591910123825073242e+00,2.591564178466796875e+00,2.591218709945678711e+00,2.590873241424560547e+00,2.590527772903442383e+00,2.590182304382324219e+00,2.589837074279785156e+00,2.589491605758666992e+00,2.589146614074707031e+00,2.588801622390747070e+00,2.588456869125366211e+00,2.588111877441406250e+00,2.587767362594604492e+00,2.587422609329223633e+00,2.587078094482421875e+00,2.586733818054199219e+00,2.586389303207397461e+00,2.586045026779174805e+00,2.585700988769531250e+00,2.585356950759887695e+00,2.585012912750244141e+00,2.584669113159179688e+00,2.584325075149536133e+00,2.559035539627075195e+00,2.505146980285644531e+00,2.453481197357177734e+00,2.403903484344482422e+00,2.356289863586425781e+00,2.310525417327880859e+00,2.266505002975463867e+00,2.224130630493164062e+00,2.183311462402343750e+00,2.143963813781738281e+00,2.106009244918823242e+00,2.069374799728393555e+00,2.033993482589721680e+00,1.999801635742187500e+00,1.966740250587463379e+00,1.934754252433776855e+00,1.903791904449462891e+00,1.873805165290832520e+00,1.844748258590698242e+00
2.255321502685546875e+00,2.255061149597167969e+00,2.254801034927368164e+00,2.254540920257568359e+00,2.254280805587768555e+00,2.254020929336547852e+00,2.253761053085327148e+00,2.253501176834106445e+00,2.253241300582885742e+00,2.252981662750244141e+00,2.252722024917602539e+00,2.252462387084960938e+00,2.252202749252319336e+00,2.251943349838256836e+00,2.251683950424194336e+00,2.251424551010131836e+00,2.251165151596069336e+00,2.250905990600585938e+00,2.250646829605102539e+00,2.250387668609619141e+00,2.250128507614135742e+00,2.249869585037231445e+00,2.249610662460327148e+00,2.249351739883422852e+00,2.249091148376464844e+00,2.248831033706665039e+00,1.596562623977661133e+00,1.589970827102661133e+00,1.748057126998901367e+00,1.774440765380859375e+00,2.247530221939086914e+00,2.247270107269287109e+00,2.247010231018066406e+00,2.246750354766845703e+00,2.246490716934204102e+00,2.246230840682983398e+00,2.245971202850341797e+00,2.245711565017700195e+00,2.245452165603637695e+00,2.245192527770996094e+00,2.244933128356933594e+00,2.244673728942871094e+00,2.244414567947387695e+00,2.244155406951904297e+00,2.243896007537841797e+00,2.243637084960937500e+00,2.243377923965454102e+00,2.243118762969970703e+00,2.242859840393066406e+00,2.242600917816162109e+00,2.242342233657836914e+00,2.242083311080932617e+00,2.241824626922607422e+00,2.241565942764282227e+00,2.241307497024536133e+00,2.241049051284790039e+00,2.240790367126464844e+00,2.240532159805297852e+00,2.240273714065551758e+00,2.240015506744384766e+00,2.239757299423217773e+00,2.239499092102050781e+00,2.239240884780883789e+00,2.238982677459716797e+00,2.238724708557128906e+00,2.238466978073120117e+00,2.238209009170532227e+00,2.237951278686523438e+00,2.224159955978393555e+00,2.183339834213256836e+00,2.143990993499755859e+00,2.106035470962524414e+00,2.069400310516357422e+00,2.034018039703369141e+00,1.999825239181518555e+00,1.966763257980346680e+00,1.934776425361633301e+00,1.903813600540161133e+00,1.873825907707214355e+00,1.844768524169921875e+00
1.988273859024047852e+00,1.988071441650390625e+00,1.987869381904602051e+00,1.987667083740234375e+00,1.987465023994445801e+00,1.987263083457946777e+00,1.987060904502868652e+00,1.986858963966369629e+00,1.986656904220581055e+00,1.986455082893371582e+00,1.986253261566162109e+00,1.986051321029663086e+00,1.985849618911743164e+00,1.985647678375244141e+00,1.985446095466613770e+00,1.985244512557983398e+00,1.985042810440063477e+00,1.984841227531433105e+00,1.984639644622802734e+00,1.984438180923461914e+00,1.984236836433410645e+00,1.984035253524780273e+00,1.983833909034729004e+00,1.983632683753967285e+00,1.983431220054626465e+00,1.983230113983154297e+00,1.579084277153015137e+00,1.565112829208374023e+00,1.569557547569274902e+00,1.982425332069396973e+00,1.982224345207214355e+00,1.982023239135742188e+00,1.981822371482849121e+00,1.981621503829956055e+00,1.981420516967773438e+00,1.981219768524169922e+00,1.981018781661987305e+00,1.980818152427673340e+00,1.980617403984069824e+00,1.980416655540466309e+00,1.980216026306152344e+00,1.980015277862548828e+00,1.979814887046813965e+00,1.979614377021789551e+00,1.979413747787475586e+00,1.979213476181030273e+00,1.979012846946716309e+00,1.978812575340270996e+00,1.978612422943115234e+00,1.978411912918090820e+00,1.978211760520935059e+00,1.978011488914489746e+00,1.977811336517333984e+00,1.977611303329467773e+00,1.977411150932312012e+00,1.977211117744445801e+00,1.977011203765869141e+00,1.976811170578002930e+00,1.976611256599426270e+00,1.976411342620849609e+00,1.976211547851562500e+00,1.976011872291564941e+00,1.975811958312988281e+00,1.975612282752990723e+00,1.975412487983703613e+00,1.975212931632995605e+00,1.975013375282287598e+00,1.974813699722290039e+00,1.974614262580871582e+00,1.974414706230163574e+00,1.974215388298034668e+00,1.974016070365905762e+00,1.973816514015197754e+00,1.973617315292358398e+00,1.973417878150939941e+00,1.966786146163940430e+00,1.934798717498779297e+00,1.903834939002990723e+00,1.873846769332885742e+00,1.844788551330566406e+00
1.777771711349487305e+00,1.777609944343566895e+00,1.777448415756225586e+00,1.777286648750305176e+00,1.777125120162963867e+00,1.776963591575622559e+00,1.776801943778991699e+00,1.776640534400939941e+00,1.776478886604309082e+00,1.776317596435546875e+00,1.776156187057495117e+00,1.775994658470153809e+00,1.775833368301391602e+00,1.775671958923339844e+00,1.775510668754577637e+00,1.775349497795104980e+00,1.775188207626342773e+00,1.775027036666870117e+00,1.774865746498107910e+00,1.774704575538635254e+00,1.774543523788452148e+00,1.774382352828979492e+00,1.774221301078796387e+00,1.774060368537902832e+00,1.773899197578430176e+00,1.773738384246826172e+00,1.554733872413635254e+00,1.541942477226257324e+00,1.538802623748779297e+00,1.536939501762390137e+00,1.772933840751647949e+00,1.772772908210754395e+00,1.772612214088439941e+00,1.772451519966125488e+00,1.772290706634521484e+00,1.772130012512207031e+00,1.771969318389892578e+00,1.771808743476867676e+00,1.771648168563842773e+00,1.771487474441528320e+00,1.771327018737792969e+00,1.771166324615478516e+00,1.771005988121032715e+00,1.770845532417297363e+00,1.770685076713562012e+00,1.770524740219116211e+00,1.770364165306091309e+00,1.770203948020935059e+00,1.770043730735778809e+00,1.769883275032043457e+00,1.769723057746887207e+00,1.769562721252441406e+00,1.769402623176574707e+00,1.769242525100708008e+00,1.769082307815551758e+00,1.768922209739685059e+00,1.768762230873107910e+00,1.768602013587951660e+00,1.768442153930664062e+00,1.768282055854797363e+00,1.768122076988220215e+00,1.767962217330932617e+00,1.767802238464355469e+00,1.767642378807067871e+00,1.767482399940490723e+00,1.767322659492492676e+00,1.767162919044494629e+00,1.767003059387207031e+00,1.766843438148498535e+00,1.766683578491210938e+00,1.766523957252502441e+00,1.766364455223083496e+00,1.766204714775085449e+00,1.766045212745666504e+00,1.765885472297668457e+00,1.765726089477539062e+00,1.765566587448120117e+00,1.765407085418701172e+00,1.765247702598571777e+00,1.765088200569152832e+00
1.607574939727783203e+00,1.607442617416381836e+00,1.607310533523559570e+00,1.607178211212158203e+00,1.607046127319335938e+00,1.606914043426513672e+00,1.606781840324401855e+00,1.606649875640869141e+00,1.606517672538757324e+00,1.606385707855224609e+00,1.606253743171691895e+00,1.606121659278869629e+00,1.605989813804626465e+00,1.605857729911804199e+00,1.605725884437561035e+00,1.605594038963317871e+00,1.605462074279785156e+00,1.605330228805541992e+00,1.605198264122009277e+00,1.605066537857055664e+00,1.604934811592102051e+00,1.604802966117858887e+00,1.604671239852905273e+00,1.604539513587951660e+00,1.604407668113708496e+00,1.604276061058044434e+00,1.525448203086853027e+00,1.506960511207580566e+00,1.500880360603332520e+00,1.510051488876342773e+00,1.516043901443481445e+00,1.603486299514770508e+00,1.603354811668395996e+00,1.603223323822021484e+00,1.603091716766357422e+00,1.602960348129272461e+00,1.602828860282897949e+00,1.602697491645812988e+00,1.602566123008728027e+00,1.602434635162353516e+00,1.602303266525268555e+00,1.602171897888183594e+00,1.602040529251098633e+00,1.601909399032592773e+00,1.601778030395507812e+00,1.601646780967712402e+00,1.601515412330627441e+00,1.601384282112121582e+00,1.601253151893615723e+00,1.601121902465820312e+00,1.600990772247314453e+00,1.600859522819519043e+00,1.600728511810302734e+00,1.600597500801086426e+00,1.600466370582580566e+00,1.600335359573364258e+00,1.600204348564147949e+00,1.600073337554931641e+00,1.599942326545715332e+00,1.599811315536499023e+00,1.599680423736572266e+00,1.599549531936645508e+00,1.599418520927429199e+00,1.599287748336791992e+00,1.599156856536865234e+00,1.599026083946228027e+00,1.598895311355590820e+00,1.598764419555664062e+00,1.598633646965026855e+00,1.598502874374389648e+00,1.598372220993041992e+00,1.598241567611694336e+00,1.598110795021057129e+00,1.597980141639709473e+00,1.597849488258361816e+00,1.597718834877014160e+00,1.597588300704956055e+00,1.597457647323608398e+00,1.597327232360839844e+00,1.597196578979492188e+00
1.467118740081787109e+00,1.467008590698242188e+00,1.466898560523986816e+00,1.466788411140441895e+00,1.466678380966186523e+00,1.466568350791931152e+00,1.466458201408386230e+00,1.466348290443420410e+00,1.466238141059875488e+00,1.466128230094909668e+00,1.466018319129943848e+00,1.465908288955688477e+00,1.465798377990722656e+00,1.465688347816467285e+00,1.465578556060791016e+00,1.465468645095825195e+00,1.465358734130859375e+00,1.465248942375183105e+00,1.465139031410217285e+00,1.465029239654541016e+00,1.464919447898864746e+00,1.464809656143188477e+00,1.464699864387512207e+00,1.464590191841125488e+00,1.464480400085449219e+00,1.464370727539062500e+00,1.464260935783386230e+00,1.464151263236999512e+00,1.464041590690612793e+00,1.463931918144226074e+00,1.463822364807128906e+00,1.463712573051452637e+00,1.463603019714355469e+00,1.463493466377258301e+00,1.463383793830871582e+00,1.463274359703063965e+00,1.463164687156677246e+00,1.463055253028869629e+00,1.462945818901062012e+00,1.462836265563964844e+00,1.462726831436157227e+00,1.462617278099060059e+00,1.462507843971252441e+00,1.462398529052734375e+00,1.462288975715637207e+00,1.462179660797119141e+00,1.462070226669311523e+00,1.461960911750793457e+00,1.461851596832275391e+00,1.461742162704467773e+00,1.461632966995239258e+00,1.461523532867431641e+00,1.461414337158203125e+00,1.461305141448974609e+00,1.461195826530456543e+00,1.461086630821228027e+00,1.460977435111999512e+00,1.460868120193481445e+00,1.460759043693542480e+00,1.460649728775024414e+00,1.460540652275085449e+00,1.460431575775146484e+00,1.460322380065917969e+00,1.460213303565979004e+00,1.460104227066040039e+00,1.459995150566101074e+00,1.459886193275451660e+00,1.459777116775512695e+00,1.459668040275573730e+00,1.459558963775634766e+00,1.459450125694274902e+00,1.459341168403625488e+00,1.459232091903686523e+00,1.459123253822326660e+00,1.459014177322387695e+00,1.458905339241027832e+00,1.458796501159667969e+00,1.458687543869018555e+00,1.458578824996948242e+00,1.458469867706298828e+00
1.349234223365783691e+00,1.349141001701354980e+00,1.349047899246215820e+00,1.348954796791076660e+00,1.348861694335937500e+00,1.348768591880798340e+00,1.348675489425659180e+00,1.348582506179809570e+00,1.348489403724670410e+00,1.348396420478820801e+00,1.348303437232971191e+00,1.348210334777832031e+00,1.348117351531982422e+00,1.348024368286132812e+00,1.347931385040283203e+00,1.347838521003723145e+00,1.347745537757873535e+00,1.347652673721313477e+00,1.347559690475463867e+00,1.347466826438903809e+00,1.347373962402343750e+00,1.347280979156494141e+00,1.347188234329223633e+00,1.347095370292663574e+00,1.347002506256103516e+00,1.346909761428833008e+00,1.346816778182983398e+00,1.346724033355712891e+00,1.346631288528442383e+00,1.346538543701171875e+00,1.346445798873901367e+00,1.346352934837341309e+00,1.346260309219360352e+00,1.346167564392089844e+00,1.346074819564819336e+00,1.345982193946838379e+00,1.345889449119567871e+00,1.345796823501586914e+00,1.345704197883605957e+00,1.345611453056335449e+00,1.345518827438354492e+00,1.345426201820373535e+00,1.345333576202392578e+00,1.345241069793701172e+00,1.345148324966430664e+00,1.345055818557739258e+00,1.344963192939758301e+00,1.344870686531066895e+00,1.344778180122375488e+00,1.344685673713684082e+00,1.344593167304992676e+00,1.344500660896301270e+00,1.344408154487609863e+00,1.344315767288208008e+00,1.344223260879516602e+00,1.344130873680114746e+00,1.344038486480712891e+00,1.343945980072021484e+00,1.343853592872619629e+00,1.343761086463928223e+00,1.343668818473815918e+00,1.343576431274414062e+00,1.343484044075012207e+00,1.343391776084899902e+00,1.343299388885498047e+00,1.343207001686096191e+00,1.343114852905273438e+00,1.343022465705871582e+00,1.342930197715759277e+00,1.342837810516357422e+00,1.342745661735534668e+00,1.342653393745422363e+00,1.342561125755310059e+00,1.342468976974487305e+00,1.342376708984375000e+00,1.342284560203552246e+00,1.342192411422729492e+00,1.342100143432617188e+00,1.342008113861083984e+00,1.341915845870971680e+00
1.248884916305541992e+00,1.248805046081542969e+00,1.248725414276123047e+00,1.248645544052124023e+00,1.248565793037414551e+00,1.248486042022705078e+00,1.248406291007995605e+00,1.248326539993286133e+00,1.248246788978576660e+00,1.248167157173156738e+00,1.248087525367736816e+00,1.248007774353027344e+00,1.247928023338317871e+00,1.247848391532897949e+00,1.247768759727478027e+00,1.247689127922058105e+00,1.247609376907348633e+00,1.247529745101928711e+00,1.247450113296508789e+00,1.247370481491088867e+00,1.247290968894958496e+00,1.247211337089538574e+00,1.247131824493408203e+00,1.247052192687988281e+00,1.246972560882568359e+00,1.246893048286437988e+00,1.246813535690307617e+00,1.246734023094177246e+00,1.246654510498046875e+00,1.246574997901916504e+00,1.246495485305786133e+00,1.246415972709655762e+00,1.246336460113525391e+00,1.246257066726684570e+00,1.246177554130554199e+00,1.246098160743713379e+00,1.246018648147583008e+00,1.245939254760742188e+00,1.245859861373901367e+00,1.245780348777770996e+00,1.245701074600219727e+00,1.245621562004089355e+00,1.245542287826538086e+00,1.245462894439697266e+00,1.245383501052856445e+00,1.245304226875305176e+00,1.245224714279174805e+00,1.245145440101623535e+00,1.245066165924072266e+00,1.244986772537231445e+00,1.244907617568969727e+00,1.244828224182128906e+00,1.244748950004577637e+00,1.244669795036315918e+00,1.244590401649475098e+00,1.244511246681213379e+00,1.244431972503662109e+00,1.244352698326110840e+00,1.244273543357849121e+00,1.244194269180297852e+00,1.244115114212036133e+00,1.244035959243774414e+00,1.243956685066223145e+00,1.243877649307250977e+00,1.243798375129699707e+00,1.243719339370727539e+00,1.243640184402465820e+00,1.243561029434204102e+00,1.243481874465942383e+00,1.243402719497680664e+00,1.243323683738708496e+00,1.243244647979736328e+00,1.243165493011474609e+00,1.243086457252502441e+00,1.243007421493530273e+00,1.242928385734558105e+00,1.242849349975585938e+00,1.242770314216613770e+00,1.242691278457641602e+00,1.242612242698669434e+00
1.162429332733154297e+00,1.162360191345214844e+00,1.162291049957275391e+00,1.162221908569335938e+00,1.162152886390686035e+00,1.162083745002746582e+00,1.162014603614807129e+00,1.161945581436157227e+00,1.161876440048217773e+00,1.161807417869567871e+00,1.161738395690917969e+00,1.161669373512268066e+00,1.161600351333618164e+00,1.161531209945678711e+00,1.161462187767028809e+00,1.161393284797668457e+00,1.161324143409729004e+00,1.161255240440368652e+00,1.161186218261718750e+00,1.161117196083068848e+00,1.161048293113708496e+00,1.160979270935058594e+00,1.160910367965698242e+00,1.160841464996337891e+00,1.160772442817687988e+00,1.160703539848327637e+00,1.160634517669677734e+00,1.160565614700317383e+00,1.160496830940246582e+00,1.160427808761596680e+00,1.160359025001525879e+00,1.160290002822875977e+00,1.160221219062805176e+00,1.160152316093444824e+00,1.160083413124084473e+00,1.160014629364013672e+00,1.159945726394653320e+00,1.159876942634582520e+00,1.159808158874511719e+00,1.159739255905151367e+00,1.159670472145080566e+00,1.159601569175720215e+00,1.159532904624938965e+00,1.159464120864868164e+00,1.159395217895507812e+00,1.159326553344726562e+00,1.159257769584655762e+00,1.159188985824584961e+00,1.159120321273803711e+00,1.159051537513732910e+00,1.158982753753662109e+00,1.158913969993591309e+00,1.158845305442810059e+00,1.158776640892028809e+00,1.158707857131958008e+00,1.158639192581176758e+00,1.158570647239685059e+00,1.158501863479614258e+00,1.158433198928833008e+00,1.158364534378051758e+00,1.158295989036560059e+00,1.158227324485778809e+00,1.158158659934997559e+00,1.158090114593505859e+00,1.158021450042724609e+00,1.157952785491943359e+00,1.157884240150451660e+00,1.157815575599670410e+00,1.157747030258178711e+00,1.157678484916687012e+00,1.157609939575195312e+00,1.157541394233703613e+00,1.157472729682922363e+00,1.157404303550720215e+00,1.157335638999938965e+00,1.157267212867736816e+00,1.157198667526245117e+00,1.157130122184753418e+00,1.157061696052551270e+00,1.156993150711059570e+00
1.087168693542480469e+00,1.087108254432678223e+00,1.087047815322875977e+00,1.086987257003784180e+00,1.086926817893981934e+00,1.086866497993469238e+00,1.086805939674377441e+00,1.086745619773864746e+00,1.086685061454772949e+00,1.086624741554260254e+00,1.086564302444458008e+00,1.086503863334655762e+00,1.086443543434143066e+00,1.086383104324340820e+00,1.086322784423828125e+00,1.086262345314025879e+00,1.086202025413513184e+00,1.086141586303710938e+00,1.086081266403198242e+00,1.086020946502685547e+00,1.085960626602172852e+00,1.085900187492370605e+00,1.085839986801147461e+00,1.085779666900634766e+00,1.085719227790832520e+00,1.085659027099609375e+00,1.085598707199096680e+00,1.085538387298583984e+00,1.085478186607360840e+00,1.085417866706848145e+00,1.085357546806335449e+00,1.085297226905822754e+00,1.085237026214599609e+00,1.085176825523376465e+00,1.085116505622863770e+00,1.085056304931640625e+00,1.084995985031127930e+00,1.084935784339904785e+00,1.084875583648681641e+00,1.084815382957458496e+00,1.084755182266235352e+00,1.084694981575012207e+00,1.084634780883789062e+00,1.084574580192565918e+00,1.084514379501342773e+00,1.084454178810119629e+00,1.084393978118896484e+00,1.084333896636962891e+00,1.084273815155029297e+00,1.084213614463806152e+00,1.084153413772583008e+00,1.084093332290649414e+00,1.084033131599426270e+00,1.083973050117492676e+00,1.083912968635559082e+00,1.083852887153625488e+00,1.083792805671691895e+00,1.083732604980468750e+00,1.083672642707824707e+00,1.083612442016601562e+00,1.083552479743957520e+00,1.083492398262023926e+00,1.083432316780090332e+00,1.083372235298156738e+00,1.083312153816223145e+00,1.083252191543579102e+00,1.083192110061645508e+00,1.083132028579711914e+00,1.083072066307067871e+00,1.083011984825134277e+00,1.082952022552490234e+00,1.082892060279846191e+00,1.082831978797912598e+00,1.082772016525268555e+00,1.082712054252624512e+00,1.082652091979980469e+00,1.082592129707336426e+00,1.082532167434692383e+00,1.082472205162048340e+00,1.082412242889404297e+00
1.021060943603515625e+00,1.021007537841796875e+00,1.020954251289367676e+00,1.020900845527648926e+00,1.020847558975219727e+00,1.020794272422790527e+00,1.020740866661071777e+00,1.020687580108642578e+00,1.020634293556213379e+00,1.020581007003784180e+00,1.020527720451354980e+00,1.020474433898925781e+00,1.020421147346496582e+00,1.020367860794067383e+00,1.020314574241638184e+00,1.020261406898498535e+00,1.020208120346069336e+00,1.020154833793640137e+00,1.020101547241210938e+00,1.020048379898071289e+00,1.019995212554931641e+00,1.019941926002502441e+00,1.019888758659362793e+00,1.019835472106933594e+00,1.019782304763793945e+00,1.019729137420654297e+00,1.019675850868225098e+00,1.019622683525085449e+00,1.019569516181945801e+00,1.019516348838806152e+00,1.019463181495666504e+00,1.019409894943237305e+00,1.019356846809387207e+00,1.019303679466247559e+00,1.019250512123107910e+00,1.019197344779968262e+00,1.019144177436828613e+00,1.019091010093688965e+00,1.019037961959838867e+00,1.018984794616699219e+00,1.018931627273559570e+00,1.018878459930419922e+00,1.018825411796569824e+00,1.018772363662719727e+00,1.018719196319580078e+00,1.018666148185729980e+00,1.018612980842590332e+00,1.018559932708740234e+00,1.018506884574890137e+00,1.018453836441040039e+00,1.018400788307189941e+00,1.018347620964050293e+00,1.018294572830200195e+00,1.018241643905639648e+00,1.018188476562500000e+00,1.018135547637939453e+00,1.018082499504089355e+00,1.018029451370239258e+00,1.017976403236389160e+00,1.017923355102539062e+00,1.017870426177978516e+00,1.017817378044128418e+00,1.017764329910278320e+00,1.017711400985717773e+00,1.017658352851867676e+00,1.017605423927307129e+00,1.017552495002746582e+00,1.017499446868896484e+00,1.017446517944335938e+00,1.017393469810485840e+00,1.017340540885925293e+00,1.017287611961364746e+00,1.017234683036804199e+00,1.017181754112243652e+00,1.017128705978393555e+00,1.017075896263122559e+00,1.017022967338562012e+00,1.016970038414001465e+00,1.016917109489440918e+00,1.016864180564880371e+00
9.625319242477416992e-01,9.624845385551452637e-01,9.624371528625488281e-01,9.623896479606628418e-01,9.623423218727111816e-01,9.622949361801147461e-01,9.622476100921630859e-01,9.622002243995666504e-01,9.621527791023254395e-01,9.621054530143737793e-01,9.620581269264221191e-01,9.620108008384704590e-01,9.619634747505187988e-01,9.619160294532775879e-01,9.618687033653259277e-01,9.618213772773742676e-01,9.617741107940673828e-01,9.617267847061157227e-01,9.616793990135192871e-01,9.616320729255676270e-01,9.615848064422607422e-01,9.615375399589538574e-01,9.614902734756469727e-01,9.614429473876953125e-01,9.613955616950988770e-01,9.613482952117919922e-01,9.613010883331298828e-01,9.612538218498229980e-01,9.612065553665161133e-01,9.611591696739196777e-01,9.611119627952575684e-01,9.610646963119506836e-01,9.610174894332885742e-01,9.609702229499816895e-01,9.609228968620300293e-01,9.608756899833679199e-01,9.608284831047058105e-01,9.607812762260437012e-01,9.607340693473815918e-01,9.606867432594299316e-01,9.606395363807678223e-01,9.605923891067504883e-01,9.605451822280883789e-01,9.604979753494262695e-01,9.604507088661193848e-01,9.604035615921020508e-01,9.603563547134399414e-01,9.603092074394226074e-01,9.602620601654052734e-01,9.602147936820983887e-01,9.601676464080810547e-01,9.601204991340637207e-01,9.600733518600463867e-01,9.600262045860290527e-01,9.599789381027221680e-01,9.599318504333496094e-01,9.598847031593322754e-01,9.598376154899597168e-01,9.597904682159423828e-01,9.597432613372802734e-01,9.596961736679077148e-01,9.596490859985351562e-01,9.596019387245178223e-01,9.595548510551452637e-01,9.595077037811279297e-01,9.594606161117553711e-01,9.594135284423828125e-01,9.593664407730102539e-01,9.593193531036376953e-01,9.592722058296203613e-01,9.592251777648925781e-01,9.591780900955200195e-01,9.591310620307922363e-01,9.590839743614196777e-01,9.590368270874023438e-01,9.589897990226745605e-01,9.589427709579467773e-01,9.588957428932189941e-01,9.588487148284912109e-01,9.588016271591186523e-01
9.103491306304931641e-01,9.103066921234130859e-01,9.102643132209777832e-01,9.102219343185424805e-01,9.101795554161071777e-01,9.101371765136718750e-01,9.100947380065917969e-01,9.100523591041564941e-01,9.100100398063659668e-01,9.099676609039306641e-01,9.099253416061401367e-01,9.098829030990600586e-01,9.098405838012695312e-01,9.097982048988342285e-01,9.097558856010437012e-01,9.097135663032531738e-01,9.096711277961730957e-01,9.096288084983825684e-01,9.095864892005920410e-01,9.095442295074462891e-01,9.095019102096557617e-01,9.094595313072204590e-01,9.094172120094299316e-01,9.093748927116394043e-01,9.093326330184936523e-01,9.092903137207031250e-01,9.092479348182678223e-01,9.092056751251220703e-01,9.091634154319763184e-01,9.091211557388305664e-01,9.090788960456848145e-01,9.090365171432495117e-01,9.089942574501037598e-01,9.089519977569580078e-01,9.089097380638122559e-01,9.088674783706665039e-01,9.088251590728759766e-01,9.087828993797302246e-01,9.087406992912292480e-01,9.086984395980834961e-01,9.086562395095825195e-01,9.086139202117919922e-01,9.085717201232910156e-01,9.085294604301452637e-01,9.084872603416442871e-01,9.084450602531433105e-01,9.084027409553527832e-01,9.083605408668518066e-01,9.083183407783508301e-01,9.082762002944946289e-01,9.082340002059936523e-01,9.081916809082031250e-01,9.081495404243469238e-01,9.081073403358459473e-01,9.080651998519897461e-01,9.080229997634887695e-01,9.079808592796325684e-01,9.079385995864868164e-01,9.078964591026306152e-01,9.078542590141296387e-01,9.078121185302734375e-01,9.077699780464172363e-01,9.077277779579162598e-01,9.076856374740600586e-01,9.076434969902038574e-01,9.076013565063476562e-01,9.075592160224914551e-01,9.075170159339904785e-01,9.074748754501342773e-01,9.074327945709228516e-01,9.073906540870666504e-01,9.073485732078552246e-01,9.073063731193542480e-01,9.072642922401428223e-01,9.072222113609313965e-01,9.071800708770751953e-01,9.071379899978637695e-01,9.070958495140075684e-01,9.070537686347961426e-01,9.070116877555847168e-01
