5.000000000000000000e+00,5.000000000000000000e+00,5.000000000000000000e+00,5.000000000000000000e+00,5.000000000000000000e+00,5.000000000000000000e+00,5.000000000000000000e+00,5.000000000000000000e+00,5.000000000000000000e+00,5.000000000000000000e+00,5.000000000000000000e+00,5.000000000000000000e+00,5.000000000000000000e+00,5.000000000000000000e+00,5.000000000000000000e+00,5.000000000000000000e+00,5.000000000000000000e+00,5.000000000000000000e+00,5.000000000000000000e+00,5.000000000000000000e+00,5.000000000000000000e+00,5.000000000000000000e+00,5.000000000000000000e+00,5.000000000000000000e+00,5.000000000000000000e+00,5.000000000000000000e+00,5.000000000000000000e+00,5.000000000000000000e+00,5.000000000000000000e+00,5.000000000000000000e+00,5.000000000000000000e+00,5.000000000000000000e+00,5.000000000000000000e+00,5.000000000000000000e+00,5.000000000000000000e+00,5.000000000000000000e+00,5.000000000000000000e+00,5.000000000000000000e+00,5.000000000000000000e+00,4.854513168334960938e+00,4.664184570312500000e+00,4.488217353820800781e+00,4.325044631958007812e+00,4.173320293426513672e+00,4.031880378723144531e+00,3.899713277816772461e+00,3.775936365127563477e+00,3.659775018692016602e+00,3.550547599792480469e+00,3.447650671005249023e+00,3.350549936294555664e+00,3.258769273757934570e+00,3.171882629394531250e+00,3.089508533477783203e+00,1.177375912666320801e+00,1.138179779052734375e+00,1.122432351112365723e+00,1.105744957923889160e+00,2.734441280364990234e+00,1.106105923652648926e+00,2.614261865615844727e+00,2.558048248291015625e+00,1.065637230873107910e+00,1.043559312820434570e+00,1.023198246955871582e+00,1.005220413208007812e+00,9.893832206726074219e-01,9.739798903465270996e-01,9.579232335090637207e-01,9.481830596923828125e-01,9.412033557891845703e-01,9.343255758285522461e-01,9.305972456932067871e-01,9.707255959510803223e-01,1.999202728271484375e+00,1.966161489486694336e+00,1.934194326400756836e+00,1.903250217437744141e+00,1.873280525207519531e+00,1.844240069389343262e+00
5.000000000000000000e+00,5.000000000000000000e+00,5.000000000000000000e+00,5.000000000000000000e+00,5.000000000000000000e+00,5.000000000000000000e+00,5.000000000000000000e+00,5.000000000000000000e+00,5.000000000000000000e+00,5.000000000000000000e+00,5.000000000000000000e+00,5.000000000000000000e+00,5.000000000000000000e+00,5.000000000000000000e+00,5.000000000000000000e+00,5.000000000000000000e+00,5.000000000000000000e+00,5.000000000000000000e+00,5.000000000000000000e+00,5.000000000000000000e+00,5.000000000000000000e+00,5.000000000000000000e+00,5.000000000000000000e+00,5.000000000000000000e+00,5.000000000000000000e+00,5.000000000000000000e+00,5.000000000000000000e+00,5.000000000000000000e+00,5.000000000000000000e+00,5.000000000000000000e+00,5.000000000000000000e+00,5.000000000000000000e+00,5.000000000000000000e+00,5.000000000000000000e+00,5.000000000000000000e+00,5.000000000000000000e+00,5.000000000000000000e+00,5.000000000000000000e+00,5.000000000000000000e+00,4.854651927947998047e+00,4.664312362670898438e+00,4.488335609436035156e+00,4.325154304504394531e+00,4.173422813415527344e+00,4.031975746154785156e+00,3.899803161621093750e+00,3.776020050048828125e+00,3.659853696823120117e+00,3.550621509552001953e+00,3.447720766067504883e+00,3.350615978240966797e+00,3.258831501007080078e+00,3.171941518783569336e+00,3.089564800262451172e+00,1.174321651458740234e+00,1.143825650215148926e+00,1.122452855110168457e+00,1.100361227989196777e+00,2.734485149383544922e+00,1.103858232498168945e+00,2.614301919937133789e+00,2.558086872100830078e+00,1.069613099098205566e+00,1.048120021820068359e+00,1.027582287788391113e+00,1.007833957672119141e+00,9.912012815475463867e-01,9.757992625236511230e-01,9.598788619041442871e-01,9.450712800025939941e-01,9.381370544433593750e-01,9.313039183616638184e-01,9.245695471763610840e-01,9.324914216995239258e-01,1.999226331710815430e+00,1.966184258460998535e+00,1.934216380119323730e+00,1.903271555900573730e+00,1.873301029205322266e+00,1.844259977340698242e+00
5.000000000000000000e+00,5.000000000000000000e+00,5.000000000000000000e+00,5.000000000000000000e+00,5.000000000000000000e+00,5.000000000000000000e+00,5.000000000000000000e+00,5.000000000000000000e+00,5.000000000000000000e+00,5.000000000000000000e+00,5.000000000000000000e+00,5.000000000000000000e+00,5.000000000000000000e+00,5.000000000000000000e+00,5.000000000000000000e+00,5.000000000000000000e+00,5.000000000000000000e+00,5.000000000000000000e+00,5.000000000000000000e+00,5.000000000000000000e+00,5.000000000000000000e+00,5.000000000000000000e+00,5.000000000000000000e+00,5.000000000000000000e+00,5.000000000000000000e+00,5.000000000000000000e+00,5.000000000000000000e+00,5.000000000000000000e+00,5.000000000000000000e+00,5.000000000000000000e+00,5.000000000000000000e+00,5.000000000000000000e+00,5.000000000000000000e+00,5.000000000000000000e+00,5.000000000000000000e+00,5.000000000000000000e+00,5.000000000000000000e+00,5.000000000000000000e+00,5.000000000000000000e+00,4.854790210723876953e+00,4.664440631866455078e+00,4.488453865051269531e+00,4.325264453887939453e+00,4.173524856567382812e+00,4.032071590423583984e+00,3.899892330169677734e+00,3.776104211807250977e+00,3.659932374954223633e+00,3.550695657730102539e+00,3.447790622711181641e+00,3.350682258605957031e+00,3.258893966674804688e+00,3.172000646591186523e+00,3.089620828628540039e+00,1.175721526145935059e+00,1.142747402191162109e+00,1.116080641746520996e+00,1.097891807556152344e+00,2.734529256820678711e+00,2.673085212707519531e+00,2.614342212677001953e+00,2.558125257492065430e+00,1.257190823554992676e+00,1.052238345146179199e+00,1.032003998756408691e+00,1.012086987495422363e+00,9.930258393287658691e-01,9.775674939155578613e-01,9.618422985076904297e-01,9.461802244186401367e-01,9.350906610488891602e-01,9.283016920089721680e-01,9.212962388992309570e-01,9.142127633094787598e-01,9.451753497123718262e-01,1.966206908226013184e+00,1.934238195419311523e+00,1.903292775154113770e+00,1.873321771621704102e+00,1.844280004501342773e+00
5.000000000000000000e+00,5.000000000000000000e+00,5.000000000000000000e+00,5.000000000000000000e+00,5.000000000000000000e+00,5.000000000000000000e+00,5.000000000000000000e+00,5.000000000000000000e+00,5.000000000000000000e+00,5.000000000000000000e+00,5.000000000000000000e+00,5.000000000000000000e+00,5.000000000000000000e+00,5.000000000000000000e+00,5.000000000000000000e+00,5.000000000000000000e+00,5.000000000000000000e+00,5.000000000000000000e+00,5.000000000000000000e+00,5.000000000000000000e+00,5.000000000000000000e+00,5.000000000000000000e+00,5.000000000000000000e+00,5.000000000000000000e+00,5.000000000000000000e+00,5.000000000000000000e+00,5.000000000000000000e+00,5.000000000000000000e+00,5.000000000000000000e+00,5.000000000000000000e+00,5.000000000000000000e+00,5.000000000000000000e+00,5.000000000000000000e+00,5.000000000000000000e+00,5.000000000000000000e+00,5.000000000000000000e+00,5.000000000000000000e+00,5.000000000000000000e+00,5.000000000000000000e+00,4.854928970336914062e+00,4.664568424224853516e+00,4.488572120666503906e+00,4.325374603271484375e+00,4.173627376556396484e+00,4.032166957855224609e+00,3.899981737136840820e+00,3.776187896728515625e+00,3.660011053085327148e+00,3.550769567489624023e+00,3.447860240936279297e+00,3.350748062133789062e+00,3.258956193923950195e+00,3.172059774398803711e+00,3.089676856994628906e+00,1.176447391510009766e+00,1.138443946838378906e+00,1.112665653228759766e+00,2.798910140991210938e+00,1.084791421890258789e+00,2.673127174377441406e+00,2.614382266998291016e+00,1.293059945106506348e+00,1.256536841392517090e+00,1.231582403182983398e+00,1.035007953643798828e+00,1.016308426856994629e+00,9.970520734786987305e-01,9.793422818183898926e-01,9.638139009475708008e-01,9.480879306793212891e-01,9.331586360931396484e-01,9.251284599304199219e-01,9.173984527587890625e-01,9.099408388137817383e-01,9.233443737030029297e-01,1.966229677200317383e+00,1.934260368347167969e+00,1.903314113616943359e+00,1.873342394828796387e+00,1.844299912452697754e+00
5.000000000000000000e+00,5.000000000000000000e+00,5.000000000000000000e+00,5.000000000000000000e+00,5.000000000000000000e+00,5.000000000000000000e+00,5.000000000000000000e+00,5.000000000000000000e+00,5.000000000000000000e+00,5.000000000000000000e+00,5.000000000000000000e+00,5.000000000000000000e+00,5.000000000000000000e+00,5.000000000000000000e+00,5.000000000000000000e+00,5.000000000000000000e+00,5.000000000000000000e+00,5.000000000000000000e+00,5.000000000000000000e+00,5.000000000000000000e+00,5.000000000000000000e+00,5.000000000000000000e+00,5.000000000000000000e+00,5.000000000000000000e+00,5.000000000000000000e+00,5.000000000000000000e+00,5.000000000000000000e+00,5.000000000000000000e+00,5.000000000000000000e+00,5.000000000000000000e+00,5.000000000000000000e+00,5.000000000000000000e+00,5.000000000000000000e+00,5.000000000000000000e+00,5.000000000000000000e+00,5.000000000000000000e+00,5.000000000000000000e+00,5.000000000000000000e+00,5.000000000000000000e+00,4.855067253112792969e+00,4.664696216583251953e+00,4.488690853118896484e+00,4.325484275817871094e+00,4.173729896545410156e+00,4.032262325286865234e+00,3.900070905685424805e+00,3.776271581649780273e+00,3.660089969635009766e+00,3.550843715667724609e+00,3.447930097579956055e+00,3.350814104080200195e+00,3.259018898010253906e+00,3.172118902206420898e+00,3.089732885360717773e+00,3.011518239974975586e+00,1.134853363037109375e+00,1.107833743095397949e+00,2.798956155776977539e+00,2.734616994857788086e+00,2.673169374465942383e+00,2.614422321319580078e+00,1.292951583862304688e+00,1.256434559822082520e+00,1.233116149902343750e+00,1.037107586860656738e+00,1.018332839012145996e+00,1.000225663185119629e+00,9.824573993682861328e-01,9.657935500144958496e-01,9.501767754554748535e-01,9.354292750358581543e-01,9.245851039886474609e-01,9.168882369995117188e-01,9.093568921089172363e-01,9.153214693069458008e-01,9.362681508064270020e-01,1.934282183647155762e+00,1.903335213661193848e+00,1.873362898826599121e+00,1.844319939613342285e+00
5.000000000000000000e+00,5.000000000000000000e+00,5.000000000000000000e+00,5.000000000000000000e+00,5.000000000000000000e+00,5.000000000000000000e+00,5.000000000000000000e+00,5.000000000000000000e+00,5.000000000000000000e+00,5.000000000000000000e+00,5.000000000000000000e+00,5.000000000000000000e+00,5.000000000000000000e+00,5.000000000000000000e+00,5.000000000000000000e+00,5.000000000000000000e+00,5.000000000000000000e+00,5.000000000000000000e+00,5.000000000000000000e+00,5.000000000000000000e+00,5.000000000000000000e+00,5.000000000000000000e+00,5.000000000000000000e+00,5.000000000000000000e+00,5.000000000000000000e+00,5.000000000000000000e+00,5.000000000000000000e+00,5.000000000000000000e+00,5.000000000000000000e+00,5.000000000000000000e+00,5.000000000000000000e+00,5.000000000000000000e+00,5.000000000000000000e+00,5.000000000000000000e+00,5.000000000000000000e+00,5.000000000000000000e+00,5.000000000000000000e+00,5.000000000000000000e+00,5.000000000000000000e+00,4.855206012725830078e+00,4.664824008941650391e+00,4.488809108734130859e+00,4.325594425201416016e+00,4.173831939697265625e+00,4.032358169555664062e+00,3.900160312652587891e+00,3.776355266571044922e+00,3.660168647766113281e+00,3.550918102264404297e+00,3.447999954223632812e+00,3.350879907608032227e+00,3.259081363677978516e+00,3.172178268432617188e+00,3.089788913726806641e+00,3.011571407318115234e+00,1.134095311164855957e+00,1.106621503829956055e+00,2.799002170562744141e+00,2.734660863876342773e+00,2.673211336135864258e+00,2.614462614059448242e+00,1.291899442672729492e+00,1.254991888999938965e+00,1.233423471450805664e+00,1.216765284538269043e+00,1.020365238189697266e+00,1.002186417579650879e+00,9.846440553665161133e-01,9.679507613182067871e-01,9.524586796760559082e-01,9.373844861984252930e-01,9.248718619346618652e-01,9.169602990150451660e-01,9.091830253601074219e-01,9.161160588264465332e-01,9.383061528205871582e-01,1.934304237365722656e+00,1.903356671333312988e+00,1.873383641242980957e+00,1.844340085983276367e+00
5.000000000000000000e+00,5.000000000000000000e+00,5.000000000000000000e+00,5.000000000000000000e+00,5.000000000000000000e+00,5.000000000000000000e+00,5.000000000000000000e+00,5.000000000000000000e+00,5.000000000000000000e+00,5.000000000000000000e+00,5.000000000000000000e+00,5.000000000000000000e+00,5.000000000000000000e+00,5.000000000000000000e+00,5.000000000000000000e+00,5.000000000000000000e+00,5.000000000000000000e+00,5.000000000000000000e+00,5.000000000000000000e+00,5.000000000000000000e+00,5.000000000000000000e+00,5.000000000000000000e+00,5.000000000000000000e+00,5.000000000000000000e+00,5.000000000000000000e+00,5.000000000000000000e+00,5.000000000000000000e+00,5.000000000000000000e+00,5.000000000000000000e+00,5.000000000000000000e+00,5.000000000000000000e+00,5.000000000000000000e+00,5.000000000000000000e+00,5.000000000000000000e+00,5.000000000000000000e+00,5.000000000000000000e+00,5.000000000000000000e+00,5.000000000000000000e+00,5.000000000000000000e+00,4.855344295501708984e+00,4.664951801300048828e+00,4.488927364349365234e+00,4.325704097747802734e+00,4.173934459686279297e+00,4.032453536987304688e+00,3.900249481201171875e+00,3.776439189910888672e+00,3.660247325897216797e+00,3.550992012023925781e+00,3.448069810867309570e+00,3.350945949554443359e+00,3.259143590927124023e+00,3.172237396240234375e+00,3.089844942092895508e+00,3.011624813079833984e+00,2.937266826629638672e+00,2.866492509841918945e+00,2.799048185348510742e+00,2.734704732894897461e+00,2.673253297805786133e+00,2.614502906799316406e+00,1.292580723762512207e+00,1.253442168235778809e+00,1.233726024627685547e+00,1.217059731483459473e+00,1.022405862808227539e+00,1.004186987876892090e+00,9.870609641075134277e-01,9.705094099044799805e-01,9.530271887779235840e-01,9.369042515754699707e-01,9.261003136634826660e-01,9.186096787452697754e-01,9.112392067909240723e-01,9.180145263671875000e-01,9.403787851333618164e-01,1.934326291084289551e+00,1.903377771377563477e+00,1.873404145240783691e+00,1.844359874725341797e+00
5.000000000000000000e+00,5.000000000000000000e+00,5.000000000000000000e+00,5.000000000000000000e+00,5.000000000000000000e+00,5.000000000000000000e+00,5.000000000000000000e+00,5.000000000000000000e+00,5.000000000000000000e+00,5.000000000000000000e+00,5.000000000000000000e+00,5.000000000000000000e+00,5.000000000000000000e+00,5.000000000000000000e+00,5.000000000000000000e+00,5.000000000000000000e+00,5.000000000000000000e+00,5.000000000000000000e+00,5.000000000000000000e+00,5.000000000000000000e+00,5.000000000000000000e+00,5.000000000000000000e+00,5.000000000000000000e+00,5.000000000000000000e+00,5.000000000000000000e+00,5.000000000000000000e+00,5.000000000000000000e+00,5.000000000000000000e+00,5.000000000000000000e+00,5.000000000000000000e+00,5.000000000000000000e+00,5.000000000000000000e+00,5.000000000000000000e+00,5.000000000000000000e+00,5.000000000000000000e+00,5.000000000000000000e+00,5.000000000000000000e+00,5.000000000000000000e+00,5.000000000000000000e+00,4.855483055114746094e+00,4.665079593658447266e+00,4.489046096801757812e+00,4.325814247131347656e+00,4.174036979675292969e+00,4.032548904418945312e+00,3.900339365005493164e+00,3.776522874832153320e+00,3.660326004028320312e+00,3.551066160202026367e+00,3.448139905929565430e+00,3.351011753082275391e+00,3.259206056594848633e+00,3.172296285629272461e+00,3.089901447296142578e+00,3.011677980422973633e+00,2.937317609786987305e+00,2.866540670394897461e+00,2.799094438552856445e+00,2.734748840332031250e+00,2.673295259475708008e+00,2.614542961120605469e+00,1.294397354125976562e+00,1.251896142959594727e+00,1.234028935432434082e+00,1.219243645668029785e+00,1.206056833267211914e+00,1.007068634033203125e+00,9.897034764289855957e-01,9.690489172935485840e-01,9.507759809494018555e-01,9.362862110137939453e-01,9.276367425918579102e-01,9.208512902259826660e-01,9.134449958801269531e-01,9.198952317237854004e-01,1.966320514678955078e+00,1.934348225593566895e+00,1.903399229049682617e+00,1.873424887657165527e+00,1.844380021095275879e+00
5.000000000000000000e+00,5.000000000000000000e+00,5.000000000000000000e+00,5.000000000000000000e+00,5.000000000000000000e+00,5.000000000000000000e+00,5.000000000000000000e+00,5.000000000000000000e+00,5.000000000000000000e+00,5.000000000000000000e+00,5.000000000000000000e+00,5.000000000000000000e+00,5.000000000000000000e+00,5.000000000000000000e+00,5.000000000000000000e+00,5.000000000000000000e+00,5.000000000000000000e+00,5.000000000000000000e+00,5.000000000000000000e+00,5.000000000000000000e+00,5.000000000000000000e+00,5.000000000000000000e+00,5.000000000000000000e+00,5.000000000000000000e+00,5.000000000000000000e+00,5.000000000000000000e+00,5.000000000000000000e+00,5.000000000000000000e+00,5.000000000000000000e+00,5.000000000000000000e+00,5.000000000000000000e+00,5.000000000000000000e+00,5.000000000000000000e+00,5.000000000000000000e+00,5.000000000000000000e+00,5.000000000000000000e+00,5.000000000000000000e+00,5.000000000000000000e+00,5.000000000000000000e+00,4.855621337890625000e+00,4.665207862854003906e+00,4.489164352416992188e+00,4.325924396514892578e+00,4.174139022827148438e+00,4.032644748687744141e+00,3.900428771972656250e+00,3.776607036590576172e+00,3.660404682159423828e+00,3.551140069961547852e+00,3.448209762573242188e+00,3.351078033447265625e+00,3.259268522262573242e+00,3.172355413436889648e+00,3.089957475662231445e+00,3.011731386184692383e+00,2.937368154525756836e+00,2.866588830947875977e+00,2.799140453338623047e+00,2.734792947769165039e+00,2.673337221145629883e+00,2.614583015441894531e+00,1.296218991279602051e+00,1.251477837562561035e+00,1.235437154769897461e+00,1.221899628639221191e+00,1.208655595779418945e+00,1.008174419403076172e+00,9.869666695594787598e-01,9.660467505455017090e-01,9.490544795989990234e-01,9.351764917373657227e-01,9.276900887489318848e-01,9.231040477752685547e-01,9.156615734100341797e-01,9.217835664749145508e-01,1.966343283653259277e+00,1.934370279312133789e+00,1.903420567512512207e+00,1.873445630073547363e+00,1.844399929046630859e+00
5.000000000000000000e+00,5.000000000000000000e+00,5.000000000000000000e+00,5.000000000000000000e+00,5.000000000000000000e+00,5.000000000000000000e+00,5.000000000000000000e+00,5.000000000000000000e+00,5.000000000000000000e+00,5.000000000000000000e+00,5.000000000000000000e+00,5.000000000000000000e+00,5.000000000000000000e+00,5.000000000000000000e+00,5.000000000000000000e+00,5.000000000000000000e+00,5.000000000000000000e+00,5.000000000000000000e+00,5.000000000000000000e+00,5.000000000000000000e+00,5.000000000000000000e+00,5.000000000000000000e+00,5.000000000000000000e+00,5.000000000000000000e+00,5.000000000000000000e+00,5.000000000000000000e+00,5.000000000000000000e+00,5.000000000000000000e+00,5.000000000000000000e+00,5.000000000000000000e+00,5.000000000000000000e+00,5.000000000000000000e+00,5.000000000000000000e+00,5.000000000000000000e+00,5.000000000000000000e+00,5.000000000000000000e+00,5.000000000000000000e+00,5.000000000000000000e+00,5.000000000000000000e+00,4.855760097503662109e+00,4.665335655212402344e+00,4.489282608032226562e+00,4.326034069061279297e+00,4.174241542816162109e+00,4.032740116119384766e+00,3.900517940521240234e+00,3.776690721511840820e+00,3.660483360290527344e+00,3.551214218139648438e+00,3.448279380798339844e+00,3.351144075393676758e+00,3.259330749511718750e+00,3.172414541244506836e+00,3.090013504028320312e+00,3.011784791946411133e+00,2.937418937683105469e+00,2.866637229919433594e+00,2.799186468124389648e+00,2.734836816787719727e+00,2.673379182815551758e+00,2.614623308181762695e+00,1.298045754432678223e+00,1.252066612243652344e+00,1.238164186477661133e+00,1.224567174911499023e+00,1.211265683174133301e+00,1.006803035736083984e+00,9.844903349876403809e-01,9.631452560424804688e-01,9.471589326858520508e-01,9.351357221603393555e-01,9.277434349060058594e-01,9.247549772262573242e-01,9.178888201713562012e-01,9.236797690391540527e-01,1.966365814208984375e+00,1.934392094612121582e+00,1.903441667556762695e+00,1.873466014862060547e+00,1.844419956207275391e+00
5.000000000000000000e+00,5.000000000000000000e+00,5.000000000000000000e+00,5.000000000000000000e+00,5.000000000000000000e+00,5.000000000000000000e+00,5.000000000000000000e+00,5.000000000000000000e+00,5.000000000000000000e+00,5.000000000000000000e+00,5.000000000000000000e+00,5.000000000000000000e+00,5.000000000000000000e+00,5.000000000000000000e+00,5.000000000000000000e+00,5.000000000000000000e+00,5.000000000000000000e+00,5.000000000000000000e+00,5.000000000000000000e+00,5.000000000000000000e+00,5.000000000000000000e+00,5.000000000000000000e+00,5.000000000000000000e+00,5.000000000000000000e+00,5.000000000000000000e+00,5.000000000000000000e+00,5.000000000000000000e+00,5.000000000000000000e+00,5.000000000000000000e+00,5.000000000000000000e+00,5.000000000000000000e+00,5.000000000000000000e+00,5.000000000000000000e+00,5.000000000000000000e+00,5.000000000000000000e+00,5.000000000000000000e+00,5.000000000000000000e+00,5.000000000000000000e+00,5.000000000000000000e+00,4.855898857116699219e+00,4.665463447570800781e+00,4.489401340484619141e+00,4.326144218444824219e+00,4.174344062805175781e+00,4.032835483551025391e+00,3.900607347488403320e+00,3.776774406433105469e+00,3.660562515258789062e+00,3.551288366317749023e+00,3.448349237442016602e+00,3.351209878921508789e+00,3.259393453598022461e+00,3.172473669052124023e+00,3.090069532394409180e+00,3.011837959289550781e+00,2.937469720840454102e+00,2.866685390472412109e+00,2.799232482910156250e+00,2.734880685806274414e+00,2.673421382904052734e+00,2.614663362503051758e+00,1.297013759613037109e+00,1.253802061080932617e+00,1.240171432495117188e+00,1.226833939552307129e+00,1.214246630668640137e+00,1.005796551704406738e+00,9.814772009849548340e-01,9.602610468864440918e-01,9.452731013298034668e-01,9.350948929786682129e-01,9.277967810630798340e-01,9.248080253601074219e-01,9.201270341873168945e-01,9.255836606025695801e-01,1.966388702392578125e+00,1.934414148330688477e+00,1.903463125228881836e+00,1.873486757278442383e+00,1.844439983367919922e+00
5.000000000000000000e+00,5.000000000000000000e+00,5.000000000000000000e+00,5.000000000000000000e+00,5.000000000000000000e+00,5.000000000000000000e+00,5.000000000000000000e+00,5.000000000000000000e+00,5.000000000000000000e+00,5.000000000000000000e+00,5.000000000000000000e+00,5.000000000000000000e+00,5.000000000000000000e+00,5.000000000000000000e+00,5.000000000000000000e+00,5.000000000000000000e+00,5.000000000000000000e+00,5.000000000000000000e+00,5.000000000000000000e+00,5.000000000000000000e+00,5.000000000000000000e+00,5.000000000000000000e+00,5.000000000000000000e+00,5.000000000000000000e+00,5.000000000000000000e+00,5.000000000000000000e+00,5.000000000000000000e+00,5.000000000000000000e+00,5.000000000000000000e+00,5.000000000000000000e+00,5.000000000000000000e+00,5.000000000000000000e+00,5.000000000000000000e+00,5.000000000000000000e+00,5.000000000000000000e+00,5.000000000000000000e+00,5.000000000000000000e+00,5.000000000000000000e+00,5.000000000000000000e+00,4.856037139892578125e+00,4.665591239929199219e+00,4.489519596099853516e+00,4.326254367828369141e+00,4.174446582794189453e+00,4.032931327819824219e+00,3.900696754455566406e+00,3.776858091354370117e+00,3.660641193389892578e+00,3.551362752914428711e+00,3.448419094085693359e+00,3.351275920867919922e+00,3.259455919265747070e+00,3.172533035278320312e+00,3.090125560760498047e+00,3.011891126632690430e+00,2.937520503997802734e+00,2.866733789443969727e+00,2.799278497695922852e+00,2.734924554824829102e+00,2.673463344573974609e+00,1.342210650444030762e+00,1.286463141441345215e+00,1.258578538894653320e+00,1.243794679641723633e+00,1.229812622070312500e+00,1.220134854316711426e+00,1.006274223327636719e+00,9.784824252128601074e-01,9.582871198654174805e-01,9.452314972877502441e-01,9.350541234016418457e-01,9.278501868247985840e-01,9.248610138893127441e-01,9.218909740447998047e-01,9.434788823127746582e-01,1.966411471366882324e+00,1.934436321258544922e+00,1.903484225273132324e+00,1.873507261276245117e+00,1.844459891319274902e+00
5.000000000000000000e+00,5.000000000000000000e+00,5.000000000000000000e+00,5.000000000000000000e+00,5.000000000000000000e+00,5.000000000000000000e+00,5.000000000000000000e+00,5.000000000000000000e+00,5.000000000000000000e+00,5.000000000000000000e+00,5.000000000000000000e+00,5.000000000000000000e+00,5.000000000000000000e+00,5.000000000000000000e+00,5.000000000000000000e+00,5.000000000000000000e+00,5.000000000000000000e+00,5.000000000000000000e+00,5.000000000000000000e+00,5.000000000000000000e+00,5.000000000000000000e+00,5.000000000000000000e+00,5.000000000000000000e+00,5.000000000000000000e+00,5.000000000000000000e+00,5.000000000000000000e+00,5.000000000000000000e+00,5.000000000000000000e+00,5.000000000000000000e+00,5.000000000000000000e+00,5.000000000000000000e+00,5.000000000000000000e+00,5.000000000000000000e+00,5.000000000000000000e+00,5.000000000000000000e+00,5.000000000000000000e+00,5.000000000000000000e+00,5.000000000000000000e+00,5.000000000000000000e+00,4.856175422668457031e+00,4.665719032287597656e+00,4.489637851715087891e+00,4.326364040374755859e+00,4.174548625946044922e+00,4.033026695251464844e+00,3.900785923004150391e+00,3.776942014694213867e+00,3.660719871520996094e+00,3.551436662673950195e+00,3.448488950729370117e+00,3.351341724395751953e+00,3.259518146514892578e+00,3.172592163085937500e+00,3.090181589126586914e+00,3.011944532394409180e+00,2.937571048736572266e+00,2.866782188415527344e+00,2.799324512481689453e+00,2.734968423843383789e+00,2.673505306243896484e+00,1.323504209518432617e+00,1.281644701957702637e+00,1.265261769294738770e+00,1.249426007270812988e+00,1.234867095947265625e+00,1.231752753257751465e+00,1.006752371788024902e+00,9.755057692527770996e-01,9.563546180725097656e-01,9.451897144317626953e-01,9.350132346153259277e-01,9.279035329818725586e-01,9.249140620231628418e-01,9.219436645507812500e-01,1.999484658241271973e+00,1.966434121131896973e+00,1.934458136558532715e+00,1.903505682945251465e+00,1.873528003692626953e+00,1.844479918479919434e+00
5.000000000000000000e+00,5.000000000000000000e+00,5.000000000000000000e+00,5.000000000000000000e+00,5.000000000000000000e+00,5.000000000000000000e+00,5.000000000000000000e+00,5.000000000000000000e+00,5.000000000000000000e+00,5.000000000000000000e+00,5.000000000000000000e+00,5.000000000000000000e+00,5.000000000000000000e+00,5.000000000000000000e+00,5.000000000000000000e+00,5.000000000000000000e+00,5.000000000000000000e+00,5.000000000000000000e+00,5.000000000000000000e+00,5.000000000000000000e+00,5.000000000000000000e+00,5.000000000000000000e+00,5.000000000000000000e+00,5.000000000000000000e+00,5.000000000000000000e+00,5.000000000000000000e+00,5.000000000000000000e+00,5.000000000000000000e+00,5.000000000000000000e+00,5.000000000000000000e+00,5.000000000000000000e+00,5.000000000000000000e+00,5.000000000000000000e+00,5.000000000000000000e+00,5.000000000000000000e+00,5.000000000000000000e+00,5.000000000000000000e+00,5.000000000000000000e+00,5.000000000000000000e+00,4.856314182281494141e+00,4.665846824645996094e+00,4.489756584167480469e+00,4.326474189758300781e+00,4.174651145935058594e+00,4.033122539520263672e+00,3.900875806808471680e+00,3.777025699615478516e+00,3.660798549652099609e+00,3.551510810852050781e+00,3.448559045791625977e+00,3.351407766342163086e+00,3.259580612182617188e+00,3.172651290893554688e+00,3.090238094329833984e+00,3.011997699737548828e+00,2.937621831893920898e+00,2.866830348968505859e+00,2.799370765686035156e+00,2.735012531280517578e+00,1.359383583068847656e+00,1.307071924209594727e+00,1.290036797523498535e+00,1.273440003395080566e+00,1.256724119186401367e+00,1.247836589813232422e+00,1.249202847480773926e+00,1.007230877876281738e+00,9.730626940727233887e-01,9.555475711822509766e-01,9.451481103897094727e-01,9.349256157875061035e-01,9.262948632240295410e-01,9.225608706474304199e-01,9.188568592071533203e-01,9.394810199737548828e-01,1.966456890106201172e+00,1.934480190277099609e+00,1.903527021408081055e+00,1.873548507690429688e+00,1.844499826431274414e+00
5.000000000000000000e+00,5.000000000000000000e+00,5.000000000000000000e+00,5.000000000000000000e+00,5.000000000000000000e+00,5.000000000000000000e+00,5.000000000000000000e+00,5.000000000000000000e+00,5.000000000000000000e+00,5.000000000000000000e+00,5.000000000000000000e+00,5.000000000000000000e+00,5.000000000000000000e+00,5.000000000000000000e+00,5.000000000000000000e+00,5.000000000000000000e+00,5.000000000000000000e+00,5.000000000000000000e+00,5.000000000000000000e+00,5.000000000000000000e+00,5.000000000000000000e+00,5.000000000000000000e+00,5.000000000000000000e+00,5.000000000000000000e+00,5.000000000000000000e+00,5.000000000000000000e+00,5.000000000000000000e+00,5.000000000000000000e+00,5.000000000000000000e+00,5.000000000000000000e+00,5.000000000000000000e+00,5.000000000000000000e+00,5.000000000000000000e+00,5.000000000000000000e+00,5.000000000000000000e+00,5.000000000000000000e+00,5.000000000000000000e+00,5.000000000000000000e+00,5.000000000000000000e+00,4.856452941894531250e+00,4.665975093841552734e+00,4.489874839782714844e+00,4.326584339141845703e+00,4.174753665924072266e+00,4.033218383789062500e+00,3.900965213775634766e+00,3.777109861373901367e+00,3.660877227783203125e+00,3.551584720611572266e+00,3.448628902435302734e+00,3.351474046707153320e+00,3.259643077850341797e+00,3.172710418701171875e+00,3.090294122695922852e+00,3.012051343917846680e+00,2.937672376632690430e+00,2.866878747940063477e+00,2.799416542053222656e+00,2.735056638717651367e+00,1.341383934020996094e+00,1.315801501274108887e+00,1.297722220420837402e+00,1.278894543647766113e+00,1.269610047340393066e+00,1.266339063644409180e+00,1.267746210098266602e+00,1.007709980010986328e+00,9.735097289085388184e-01,9.553994536399841309e-01,9.448456764221191406e-01,9.345224499702453613e-01,9.245551228523254395e-01,9.190860390663146973e-01,9.154098629951477051e-01,9.117630720138549805e-01,1.966479539871215820e+00,1.934502124786376953e+00,1.903548121452331543e+00,1.873569250106811523e+00,1.844519972801208496e+00
5.000000000000000000e+00,5.000000000000000000e+00,5.000000000000000000e+00,5.000000000000000000e+00,5.000000000000000000e+00,5.000000000000000000e+00,5.000000000000000000e+00,5.000000000000000000e+00,5.000000000000000000e+00,5.000000000000000000e+00,5.000000000000000000e+00,5.000000000000000000e+00,5.000000000000000000e+00,5.000000000000000000e+00,5.000000000000000000e+00,5.000000000000000000e+00,5.000000000000000000e+00,5.000000000000000000e+00,5.000000000000000000e+00,5.000000000000000000e+00,5.000000000000000000e+00,5.000000000000000000e+00,5.000000000000000000e+00,5.000000000000000000e+00,5.000000000000000000e+00,5.000000000000000000e+00,5.000000000000000000e+00,5.000000000000000000e+00,5.000000000000000000e+00,5.000000000000000000e+00,5.000000000000000000e+00,5.000000000000000000e+00,5.000000000000000000e+00,5.000000000000000000e+00,5.000000000000000000e+00,5.000000000000000000e+00,5.000000000000000000e+00,5.000000000000000000e+00,5.000000000000000000e+00,4.856591224670410156e+00,4.666102886199951172e+00,4.489993572235107422e+00,4.326694011688232422e+00,4.174856185913085938e+00,4.033313751220703125e+00,3.901054382324218750e+00,3.777193784713745117e+00,3.660955905914306641e+00,3.551658868789672852e+00,3.448698759078979492e+00,3.351539850234985352e+00,3.259705305099487305e+00,3.172769308090209961e+00,3.090350151062011719e+00,3.012104511260986328e+00,2.937723159790039062e+00,2.866926908493041992e+00,2.799462556838989258e+00,1.379123687744140625e+00,1.341485619544982910e+00,1.321376442909240723e+00,1.301861166954040527e+00,1.293729424476623535e+00,1.286332488059997559e+00,1.285398602485656738e+00,2.355943679809570312e+00,2.310193061828613281e+00,9.789404273033142090e-01,9.549784660339355469e-01,9.444338679313659668e-01,9.341197013854980469e-01,9.241770505905151367e-01,9.162740111351013184e-01,9.119886755943298340e-01,9.083689451217651367e-01,1.966502308845520020e+00,1.934524178504943848e+00,1.903569579124450684e+00,1.873589873313903809e+00,1.844539761543273926e+00
5.000000000000000000e+00,5.000000000000000000e+00,5.000000000000000000e+00,5.000000000000000000e+00,5.000000000000000000e+00,5.000000000000000000e+00,5.000000000000000000e+00,5.000000000000000000e+00,5.000000000000000000e+00,5.000000000000000000e+00,5.000000000000000000e+00,5.000000000000000000e+00,5.000000000000000000e+00,5.000000000000000000e+00,5.000000000000000000e+00,5.000000000000000000e+00,5.000000000000000000e+00,5.000000000000000000e+00,5.000000000000000000e+00,5.000000000000000000e+00,5.000000000000000000e+00,5.000000000000000000e+00,5.000000000000000000e+00,5.000000000000000000e+00,5.000000000000000000e+00,5.000000000000000000e+00,5.000000000000000000e+00,5.000000000000000000e+00,5.000000000000000000e+00,5.000000000000000000e+00,5.000000000000000000e+00,5.000000000000000000e+00,5.000000000000000000e+00,5.000000000000000000e+00,5.000000000000000000e+00,5.000000000000000000e+00,5.000000000000000000e+00,5.000000000000000000e+00,5.000000000000000000e+00,4.856729984283447266e+00,4.666230678558349609e+00,4.490112304687500000e+00,4.326804161071777344e+00,4.174958705902099609e+00,4.033409118652343750e+00,3.901143789291381836e+00,3.777277469635009766e+00,3.661034822463989258e+00,3.551733016967773438e+00,3.448768615722656250e+00,3.351605892181396484e+00,3.259768009185791016e+00,3.172828435897827148e+00,3.090406179428100586e+00,3.012157917022705078e+00,2.937774181365966797e+00,2.866975069046020508e+00,2.799508571624755859e+00,1.369118213653564453e+00,1.343188166618347168e+00,1.323955178260803223e+00,1.317160964012145996e+00,1.311097621917724609e+00,1.303549408912658691e+00,2.403576612472534180e+00,2.355976343154907227e+00,2.310224533081054688e+00,9.851830005645751953e-01,9.545577764511108398e-01,9.440225362777709961e-01,9.337172508239746094e-01,9.237992167472839355e-01,9.143053889274597168e-01,9.086925387382507324e-01,9.050000309944152832e-01,9.389952421188354492e-01,1.934545993804931641e+00,1.903590679168701172e+00,1.873610496520996094e+00,1.844559907913208008e+00
5.000000000000000000e+00,5.000000000000000000e+00,5.000000000000000000e+00,5.000000000000000000e+00,5.000000000000000000e+00,5.000000000000000000e+00,5.000000000000000000e+00,5.000000000000000000e+00,5.000000000000000000e+00,5.000000000000000000e+00,5.000000000000000000e+00,5.000000000000000000e+00,5.000000000000000000e+00,5.000000000000000000e+00,5.000000000000000000e+00,5.000000000000000000e+00,5.000000000000000000e+00,5.000000000000000000e+00,5.000000000000000000e+00,5.000000000000000000e+00,5.000000000000000000e+00,5.000000000000000000e+00,5.000000000000000000e+00,5.000000000000000000e+00,5.000000000000000000e+00,5.000000000000000000e+00,5.000000000000000000e+00,5.000000000000000000e+00,5.000000000000000000e+00,5.000000000000000000e+00,5.000000000000000000e+00,5.000000000000000000e+00,5.000000000000000000e+00,5.000000000000000000e+00,5.000000000000000000e+00,5.000000000000000000e+00,5.000000000000000000e+00,5.000000000000000000e+00,5.000000000000000000e+00,4.856867790222167969e+00,4.666358947753906250e+00,4.490230560302734375e+00,4.326914310455322266e+00,4.175060749053955078e+00,4.033504962921142578e+00,3.901233196258544922e+00,3.777361154556274414e+00,3.661113500595092773e+00,3.551807403564453125e+00,3.448838472366333008e+00,3.351671934127807617e+00,3.259830474853515625e+00,3.172888040542602539e+00,3.090462207794189453e+00,3.012211084365844727e+00,2.937824726104736328e+00,2.867023706436157227e+00,1.418873310089111328e+00,1.364140033721923828e+00,1.344307065010070801e+00,1.327646136283874512e+00,1.324924707412719727e+00,1.321468830108642578e+00,2.453175783157348633e+00,2.403610706329345703e+00,2.356008768081665039e+00,2.310255765914916992e+00,9.902132153511047363e-01,9.604362845420837402e-01,9.436115026473999023e-01,9.333150982856750488e-01,9.234217405319213867e-01,9.138146042823791504e-01,9.067562818527221680e-01,9.016559720039367676e-01,8.981176614761352539e-01,1.934568166732788086e+00,1.903612136840820312e+00,1.873631119728088379e+00,1.844579935073852539e+00
5.000000000000000000e+00,5.000000000000000000e+00,5.000000000000000000e+00,5.000000000000000000e+00,5.000000000000000000e+00,5.000000000000000000e+00,5.000000000000000000e+00,5.000000000000000000e+00,5.000000000000000000e+00,5.000000000000000000e+00,5.000000000000000000e+00,5.000000000000000000e+00,5.000000000000000000e+00,5.000000000000000000e+00,5.000000000000000000e+00,5.000000000000000000e+00,5.000000000000000000e+00,5.000000000000000000e+00,5.000000000000000000e+00,5.000000000000000000e+00,5.000000000000000000e+00,5.000000000000000000e+00,5.000000000000000000e+00,5.000000000000000000e+00,5.000000000000000000e+00,5.000000000000000000e+00,5.000000000000000000e+00,5.000000000000000000e+00,5.000000000000000000e+00,5.000000000000000000e+00,5.000000000000000000e+00,5.000000000000000000e+00,5.000000000000000000e+00,5.000000000000000000e+00,5.000000000000000000e+00,5.000000000000000000e+00,5.000000000000000000e+00,5.000000000000000000e+00,5.000000000000000000e+00,4.857005119323730469e+00,4.666486740112304688e+00,4.490348815917968750e+00,4.327023983001708984e+00,4.175163269042968750e+00,4.033600330352783203e+00,3.901322603225708008e+00,3.777445077896118164e+00,3.661192178726196289e+00,3.551881551742553711e+00,3.448908329010009766e+00,3.351737737655639648e+00,3.259892940521240234e+00,3.172946929931640625e+00,3.090518474578857422e+00,3.012264251708984375e+00,2.937875509262084961e+00,2.867071866989135742e+00,1.408258199691772461e+00,1.365294098854064941e+00,1.346037387847900391e+00,1.335427999496459961e+00,1.332780361175537109e+00,1.329283475875854492e+00,2.453211069107055664e+00,2.403644561767578125e+00,2.356041431427001953e+00,2.310286998748779297e+00,9.940702319145202637e-01,9.664444327354431152e-01,9.432007670402526855e-01,9.329133033752441406e-01,9.230445623397827148e-01,9.134452342987060547e-01,9.048281908035278320e-01,8.993309140205383301e-01,8.948242068290710449e-01,1.934590220451354980e+00,1.903633236885070801e+00,1.873651623725891113e+00,1.844599843025207520e+00
5.000000000000000000e+00,5.000000000000000000e+00,5.000000000000000000e+00,5.000000000000000000e+00,5.000000000000000000e+00,5.000000000000000000e+00,5.000000000000000000e+00,5.000000000000000000e+00,5.000000000000000000e+00,5.000000000000000000e+00,5.000000000000000000e+00,5.000000000000000000e+00,5.000000000000000000e+00,5.000000000000000000e+00,5.000000000000000000e+00,5.000000000000000000e+00,5.000000000000000000e+00,5.000000000000000000e+00,5.000000000000000000e+00,5.000000000000000000e+00,5.000000000000000000e+00,5.000000000000000000e+00,5.000000000000000000e+00,5.000000000000000000e+00,5.000000000000000000e+00,5.000000000000000000e+00,5.000000000000000000e+00,5.000000000000000000e+00,5.000000000000000000e+00,5.000000000000000000e+00,5.000000000000000000e+00,5.000000000000000000e+00,5.000000000000000000e+00,5.000000000000000000e+00,5.000000000000000000e+00,5.000000000000000000e+00,5.000000000000000000e+00,5.000000000000000000e+00,5.000000000000000000e+00,4.857142925262451172e+00,4.666613101959228516e+00,4.490467548370361328e+00,4.327134132385253906e+00,4.175265789031982422e+00,4.033696174621582031e+00,3.901412248611450195e+00,3.777528762817382812e+00,3.661271095275878906e+00,3.551955461502075195e+00,3.448978424072265625e+00,3.351803779602050781e+00,3.259955167770385742e+00,3.173006057739257812e+00,3.090574741363525391e+00,3.012317657470703125e+00,2.937926054000854492e+00,2.867120265960693359e+00,1.397800683975219727e+00,1.366788744926452637e+00,1.348147392272949219e+00,1.343301653861999512e+00,1.340729951858520508e+00,1.355145096778869629e+00,2.453246355056762695e+00,2.403678655624389648e+00,2.356074094772338867e+00,2.310318470001220703e+00,2.266306161880493164e+00,9.709295630455017090e-01,9.427904486656188965e-01,9.325118660926818848e-01,9.226676821708679199e-01,9.130762815475463867e-01,9.036821126937866211e-01,8.974342942237854004e-01,8.920261859893798828e-01,9.287617802619934082e-01,1.903654694557189941e+00,1.873672366142272949e+00,1.844619870185852051e+00
5.000000000000000000e+00,5.000000000000000000e+00,5.000000000000000000e+00,5.000000000000000000e+00,5.000000000000000000e+00,5.000000000000000000e+00,5.000000000000000000e+00,5.000000000000000000e+00,5.000000000000000000e+00,5.000000000000000000e+00,5.000000000000000000e+00,5.000000000000000000e+00,5.000000000000000000e+00,5.000000000000000000e+00,5.000000000000000000e+00,5.000000000000000000e+00,5.000000000000000000e+00,5.000000000000000000e+00,5.000000000000000000e+00,5.000000000000000000e+00,5.000000000000000000e+00,5.000000000000000000e+00,5.000000000000000000e+00,5.000000000000000000e+00,5.000000000000000000e+00,5.000000000000000000e+00,5.000000000000000000e+00,5.000000000000000000e+00,5.000000000000000000e+00,5.000000000000000000e+00,5.000000000000000000e+00,5.000000000000000000e+00,5.000000000000000000e+00,5.000000000000000000e+00,5.000000000000000000e+00,5.000000000000000000e+00,5.000000000000000000e+00,5.000000000000000000e+00,5.000000000000000000e+00,4.857280254364013672e+00,4.666740417480468750e+00,4.490584850311279297e+00,4.327244281768798828e+00,4.175368309020996094e+00,4.033791542053222656e+00,3.901501655578613281e+00,3.777612924575805664e+00,3.661349773406982422e+00,3.552029609680175781e+00,3.449048280715942383e+00,3.351870059967041016e+00,3.260017633438110352e+00,3.173065185546875000e+00,3.090630769729614258e+00,3.012371063232421875e+00,2.937976837158203125e+00,2.867168426513671875e+00,1.388258934020996094e+00,1.368964552879333496e+00,1.353308081626892090e+00,1.351268768310546875e+00,1.348774790763854980e+00,2.504938602447509766e+00,2.453281641006469727e+00,2.403712511062622070e+00,2.356106758117675781e+00,2.310349941253662109e+00,2.266336441040039062e+00,9.746375679969787598e-01,9.484053254127502441e-01,9.321108460426330566e-01,9.222911596298217773e-01,9.127075076103210449e-01,9.033208489418029785e-01,8.955456018447875977e-01,8.901602029800415039e-01,8.910213708877563477e-01,1.903676033020019531e+00,1.873693108558654785e+00,1.844639778137207031e+00
5.000000000000000000e+00,5.000000000000000000e+00,5.000000000000000000e+00,5.000000000000000000e+00,5.000000000000000000e+00,5.000000000000000000e+00,5.000000000000000000e+00,5.000000000000000000e+00,5.000000000000000000e+00,5.000000000000000000e+00,5.000000000000000000e+00,5.000000000000000000e+00,5.000000000000000000e+00,5.000000000000000000e+00,5.000000000000000000e+00,5.000000000000000000e+00,5.000000000000000000e+00,5.000000000000000000e+00,5.000000000000000000e+00,5.000000000000000000e+00,5.000000000000000000e+00,5.000000000000000000e+00,5.000000000000000000e+00,5.000000000000000000e+00,5.000000000000000000e+00,5.000000000000000000e+00,5.000000000000000000e+00,5.000000000000000000e+00,5.000000000000000000e+00,5.000000000000000000e+00,5.000000000000000000e+00,5.000000000000000000e+00,5.000000000000000000e+00,5.000000000000000000e+00,5.000000000000000000e+00,5.000000000000000000e+00,5.000000000000000000e+00,5.000000000000000000e+00,5.000000000000000000e+00,4.857418060302734375e+00,4.666867256164550781e+00,4.490702629089355469e+00,4.327353477478027344e+00,4.175470352172851562e+00,4.033887386322021484e+00,3.901591062545776367e+00,3.777696847915649414e+00,3.661428451538085938e+00,3.552103757858276367e+00,3.449118137359619141e+00,3.351936101913452148e+00,3.260080099105834961e+00,3.173124313354492188e+00,3.090686798095703125e+00,3.012424468994140625e+00,2.938027381896972656e+00,1.440040707588195801e+00,1.392194867134094238e+00,1.371922373771667480e+00,1.361394643783569336e+00,1.359330892562866211e+00,1.356916904449462891e+00,2.504975557327270508e+00,2.453317165374755859e+00,2.403746366500854492e+00,2.356139421463012695e+00,2.310381174087524414e+00,2.266366481781005859e+00,9.783740043640136719e-01,9.523826241493225098e-01,9.317100644111633301e-01,9.219149947166442871e-01,9.123390316963195801e-01,9.030727148056030273e-01,8.941402435302734375e-01,8.900651931762695312e-01,8.851391673088073730e-01,1.903697252273559570e+00,1.873713612556457520e+00,1.844659805297851562e+00
5.000000000000000000e+00,5.000000000000000000e+00,5.000000000000000000e+00,5.000000000000000000e+00,5.000000000000000000e+00,5.000000000000000000e+00,5.000000000000000000e+00,5.000000000000000000e+00,5.000000000000000000e+00,5.000000000000000000e+00,5.000000000000000000e+00,5.000000000000000000e+00,5.000000000000000000e+00,5.000000000000000000e+00,5.000000000000000000e+00,5.000000000000000000e+00,5.000000000000000000e+00,5.000000000000000000e+00,5.000000000000000000e+00,5.000000000000000000e+00,5.000000000000000000e+00,5.000000000000000000e+00,5.000000000000000000e+00,5.000000000000000000e+00,5.000000000000000000e+00,5.000000000000000000e+00,5.000000000000000000e+00,5.000000000000000000e+00,5.000000000000000000e+00,5.000000000000000000e+00,5.000000000000000000e+00,5.000000000000000000e+00,5.000000000000000000e+00,5.000000000000000000e+00,5.000000000000000000e+00,5.000000000000000000e+00,5.000000000000000000e+00,5.000000000000000000e+00,5.000000000000000000e+00,4.857555866241455078e+00,4.666994094848632812e+00,4.490819931030273438e+00,4.327462673187255859e+00,4.175573348999023438e+00,4.033982753753662109e+00,3.901680469512939453e+00,3.777780532836914062e+00,3.661507606506347656e+00,3.552177667617797852e+00,3.449187994003295898e+00,3.352001905441284180e+00,3.260142803192138672e+00,3.173183441162109375e+00,3.090743064880371094e+00,3.012477636337280273e+00,2.938078403472900391e+00,1.429959177970886230e+00,1.396153211593627930e+00,1.375630617141723633e+00,1.370269298553466797e+00,1.367869377136230469e+00,2.558894395828247070e+00,2.505012273788452148e+00,2.453352689743041992e+00,2.403780221939086914e+00,2.356171846389770508e+00,2.310412645339965820e+00,2.266396760940551758e+00,2.224026679992675781e+00,9.559500217437744141e-01,9.313101172447204590e-01,9.216968417167663574e-01,9.122925400733947754e-01,9.030782580375671387e-01,8.941388130187988281e-01,8.901672959327697754e-01,8.852401375770568848e-01,1.903718590736389160e+00,1.873734354972839355e+00,1.844679951667785645e+00
4.875665187835693359e+00,4.874454498291015625e+00,4.873244285583496094e+00,4.872034549713134766e+00,4.870825290679931641e+00,4.869616985321044922e+00,4.868409156799316406e+00,4.867202281951904297e+00,4.865995883941650391e+00,4.864789485931396484e+00,4.863584041595458984e+00,4.862379550933837891e+00,4.861175060272216797e+00,4.859971523284912109e+00,4.858768463134765625e+00,4.857566356658935547e+00,4.856364727020263672e+00,4.855163574218750000e+00,4.853962898254394531e+00,4.852762699127197266e+00,4.851563453674316406e+00,4.850364208221435547e+00,4.849166393280029297e+00,4.847968578338623047e+00,4.846771717071533203e+00,4.845575332641601562e+00,4.844379425048828125e+00,4.843183994293212891e+00,4.841989040374755859e+00,4.840795516967773438e+00,4.839601993560791016e+00,4.838408946990966797e+00,4.837216377258300781e+00,4.836024761199951172e+00,4.834833145141601562e+00,4.833642482757568359e+00,4.832452774047851562e+00,4.831263542175292969e+00,4.830074787139892578e+00,4.828886508941650391e+00,4.667121410369873047e+00,4.490937709808349609e+00,4.327571868896484375e+00,4.175674438476562500e+00,4.034078598022460938e+00,3.901769876480102539e+00,3.777864217758178711e+00,3.661586284637451172e+00,3.552252292633056641e+00,3.449257850646972656e+00,3.352067947387695312e+00,3.260205030441284180e+00,3.173242807388305664e+00,3.090799093246459961e+00,3.012531042098999023e+00,2.938128948211669922e+00,1.421255469322204590e+00,1.400104284286499023e+00,1.382462501525878906e+00,1.379284262657165527e+00,1.376852631568908691e+00,2.558932781219482422e+00,2.505049228668212891e+00,2.453387975692749023e+00,2.403814315795898438e+00,2.356204509735107422e+00,2.310443878173828125e+00,2.266427040100097656e+00,2.224056005477905273e+00,9.611782431602478027e-01,9.361157417297363281e-01,9.217025637626647949e-01,9.122982025146484375e-01,9.030836820602416992e-01,8.941673636436462402e-01,8.884893059730529785e-01,8.853411078453063965e-01,8.964453935623168945e-01,1.873754858970642090e+00,1.844699859619140625e+00
3.778500318527221680e+00,3.777772903442382812e+00,3.777046203613281250e+00,3.776319265365600586e+00,3.775593042373657227e+00,3.774866819381713867e+00,3.774141073226928711e+00,3.773415803909301758e+00,3.772690296173095703e+00,3.771965503692626953e+00,3.771240472793579102e+00,3.770516395568847656e+00,3.769791841506958008e+00,3.769068241119384766e+00,3.768344402313232422e+00,3.767621278762817383e+00,3.766898393630981445e+00,3.766175508499145508e+00,3.765453338623046875e+00,3.764730691909790039e+00,3.764008998870849609e+00,3.763287067413330078e+00,3.762565851211547852e+00,3.761845111846923828e+00,3.761124134063720703e+00,3.760403633117675781e+00,3.759683132171630859e+00,3.758963346481323242e+00,3.758243322372436523e+00,3.757524251937866211e+00,3.756805181503295898e+00,3.756086111068725586e+00,3.755367755889892578e+00,3.754649162292480469e+00,3.753931283950805664e+00,3.753213167190551758e+00,3.752496004104614258e+00,3.751778841018676758e+00,3.751061677932739258e+00,3.750345230102539062e+00,3.749628543853759766e+00,3.748912572860717773e+00,3.748196363449096680e+00,3.747481107711791992e+00,3.746765851974487305e+00,3.746050596237182617e+00,3.745336055755615234e+00,3.661664962768554688e+00,3.552326202392578125e+00,3.449327707290649414e+00,3.352133989334106445e+00,3.260267496109008789e+00,3.173301935195922852e+00,3.090855121612548828e+00,3.012584209442138672e+00,1.483968138694763184e+00,1.425380945205688477e+00,1.403804898262023926e+00,1.390891075134277344e+00,1.388418436050415039e+00,2.615226030349731445e+00,2.558971405029296875e+00,2.505085945129394531e+00,2.453423261642456055e+00,2.403848409652709961e+00,2.356237173080444336e+00,2.310475349426269531e+00,2.266457080841064453e+00,2.224085092544555664e+00,9.658561348915100098e-01,9.412223100662231445e-01,9.217083454132080078e-01,9.123038053512573242e-01,9.030892252922058105e-01,8.941958546638488770e-01,8.855580687522888184e-01,8.854421973228454590e-01,8.805670142173767090e-01,1.873775482177734375e+00,1.844719886779785156e+00
3.084417581558227539e+00,3.083932876586914062e+00,3.083448648452758789e+00,3.082964181900024414e+00,3.082480192184448242e+00,3.081995964050292969e+00,3.081512212753295898e+00,3.081028699874877930e+00,3.080544948577880859e+00,3.080061674118041992e+00,3.079578399658203125e+00,3.079095363616943359e+00,3.078612327575683594e+00,3.078129529953002930e+00,3.077646732330322266e+00,3.077164411544799805e+00,3.076682329177856445e+00,3.076200008392333984e+00,3.075718164443969727e+00,3.075236082077026367e+00,3.074754476547241211e+00,3.074272632598876953e+00,3.073791503906250000e+00,3.073310136795043945e+00,3.072829008102416992e+00,3.072348117828369141e+00,3.071867227554321289e+00,3.071386575698852539e+00,3.070905923843383789e+00,3.070425748825073242e+00,3.069945573806762695e+00,3.069465398788452148e+00,3.068985700607299805e+00,3.068505764007568359e+00,3.068026304244995117e+00,3.067546606063842773e+00,3.067067384719848633e+00,3.066588401794433594e+00,3.066109180450439453e+00,3.065630435943603516e+00,3.065151691436767578e+00,3.064673185348510742e+00,3.064194679260253906e+00,3.063716411590576172e+00,3.063238620758056641e+00,3.062760353088378906e+00,3.062282800674438477e+00,3.061804771423339844e+00,3.061327457427978516e+00,3.060849905014038086e+00,3.060372829437255859e+00,3.059895992279052734e+00,3.059418916702270508e+00,3.058942079544067383e+00,3.012637615203857422e+00,1.503968715667724609e+00,1.429300665855407715e+00,1.407525181770324707e+00,1.400180101394653320e+00,2.674051284790039062e+00,2.615266084671020508e+00,2.559010028839111328e+00,2.505122900009155273e+00,2.453458547592163086e+00,2.403882265090942383e+00,2.356269836425781250e+00,2.310506582260131836e+00,2.266487360000610352e+00,2.224113941192626953e+00,2.183295965194702148e+00,9.463850259780883789e-01,9.220782518386840820e-01,9.123094677925109863e-01,9.030947685241699219e-01,8.942244052886962891e-01,8.855860233306884766e-01,8.829094171524047852e-01,8.806669712066650391e-01,1.873795986175537109e+00,1.844739794731140137e+00
2.605758905410766602e+00,2.605412960052490234e+00,2.605067253112792969e+00,2.604721307754516602e+00,2.604375839233398438e+00,2.604030132293701172e+00,2.603684902191162109e+00,2.603339672088623047e+00,2.602994441986083984e+00,2.602649211883544922e+00,2.602304220199584961e+00,2.601959228515625000e+00,2.601614236831665039e+00,2.601269483566284180e+00,2.600924730300903320e+00,2.600580215454101562e+00,2.600235939025878906e+00,2.599891424179077148e+00,2.599547147750854492e+00,2.599202871322631836e+00,2.598858833312988281e+00,2.598514556884765625e+00,2.598170757293701172e+00,2.597826957702636719e+00,2.597483158111572266e+00,2.597139358520507812e+00,2.596795797348022461e+00,2.596452474594116211e+00,2.596108913421630859e+00,2.595765590667724609e+00,2.595422506332397461e+00,2.595079183578491211e+00,2.594736337661743164e+00,2.594393253326416016e+00,2.594050407409667969e+00,2.593707561492919922e+00,2.593364953994750977e+00,2.593022346496582031e+00,2.592679977416992188e+00,2.592337608337402344e+00,2.591995000839233398e+00,2.591652870178222656e+00,2.591310739517211914e+00,2.590968847274780273e+00,2.590626955032348633e+00,2.590284824371337891e+00,2.589943170547485352e+00,2.589601516723632812e+00,2.589259862899780273e+00,2.588918209075927734e+00,2.588577032089233398e+00,2.588235855102539062e+00,2.587894439697265625e+00,2.587553262710571289e+00,2.587212085723876953e+00,1.470440983772277832e+00,1.442942380905151367e+00,1.415403246879577637e+00,1.416235566139221191e+00,2.585508346557617188e+00,2.585167884826660156e+00,2.559048414230346680e+00,2.505159854888916016e+00,2.453493833541870117e+00,2.403916120529174805e+00,2.356302499771118164e+00,2.310538053512573242e+00,2.266517400741577148e+00,2.224143028259277344e+00,2.183324098587036133e+00,9.505219459533691406e-01,9.270324707031250000e-01,9.123151302337646484e-01,9.031003117561340332e-01,8.942528963088989258e-01,8.856140375137329102e-01,8.790993094444274902e-01,8.807669878005981445e-01,1.873816728591918945e+00,1.844759821891784668e+00
2.255707740783691406e+00,2.255448102951049805e+00,2.255188941955566406e+00,2.254929780960083008e+00,2.254670858383178711e+00,2.254411697387695312e+00,2.254152536392211914e+00,2.253893613815307617e+00,2.253634929656982422e+00,2.253376007080078125e+00,2.253117322921752930e+00,2.252858400344848633e+00,2.252599954605102539e+00,2.252341270446777344e+00,2.252082824707031250e+00,2.251824378967285156e+00,2.251565933227539062e+00,2.251307487487792969e+00,2.251049280166625977e+00,2.250791072845458984e+00,2.250532865524291992e+00,2.250274658203125000e+00,2.250016689300537109e+00,2.249758481979370117e+00,2.249500513076782227e+00,2.249243021011352539e+00,2.248985052108764648e+00,2.248727560043334961e+00,2.248469829559326172e+00,2.248212337493896484e+00,2.247955083847045898e+00,2.247697591781616211e+00,2.247440338134765625e+00,2.247182846069335938e+00,2.246925592422485352e+00,2.246668338775634766e+00,2.246411323547363281e+00,2.246154308319091797e+00,2.245897293090820312e+00,2.245640516281127930e+00,2.245383501052856445e+00,2.245126724243164062e+00,2.244869709014892578e+00,2.244613170623779297e+00,2.244356632232666016e+00,2.244099855422973633e+00,2.243843555450439453e+00,2.243586778640747070e+00,2.243330478668212891e+00,2.243074178695678711e+00,2.242817878723144531e+00,2.242561817169189453e+00,2.242305517196655273e+00,2.242049455642700195e+00,1.517887711524963379e+00,1.460743546485900879e+00,1.442507266998291016e+00,1.432509064674377441e+00,2.240769624710083008e+00,2.240513801574707031e+00,2.240258216857910156e+00,2.240002393722534180e+00,2.239746809005737305e+00,2.239491224288940430e+00,2.239235877990722656e+00,2.238980293273925781e+00,2.238725185394287109e+00,2.238469839096069336e+00,2.224172115325927734e+00,2.183351993560791016e+00,9.555897116661071777e-01,9.319847822189331055e-01,9.123207926750183105e-01,9.031058549880981445e-01,8.942815065383911133e-01,8.856419920921325684e-01,8.771678209304809570e-01,8.773991465568542480e-01,8.760419487953186035e-01,1.844779729843139648e+00
1.988573074340820312e+00,1.988371610641479492e+00,1.988170146942138672e+00,1.987968802452087402e+00,1.987767338752746582e+00,1.987565994262695312e+00,1.987364768981933594e+00,1.987163424491882324e+00,1.986962199211120605e+00,1.986761093139648438e+00,1.986559748649597168e+00,1.986358642578125000e+00,1.986157536506652832e+00,1.985956549644470215e+00,1.985755562782287598e+00,1.985554695129394531e+00,1.985353827476501465e+00,1.985152959823608398e+00,1.984952092170715332e+00,1.984751343727111816e+00,1.984550356864929199e+00,1.984349608421325684e+00,1.984148979187011719e+00,1.983948349952697754e+00,1.983747839927673340e+00,1.983547329902648926e+00,1.983346819877624512e+00,1.983146429061889648e+00,1.982946038246154785e+00,1.982745647430419922e+00,1.982545018196105957e+00,1.982344746589660645e+00,1.982144594192504883e+00,1.981944322586059570e+00,1.981744170188903809e+00,1.981544017791748047e+00,1.981343984603881836e+00,1.981143951416015625e+00,1.980943918228149414e+00,1.980744004249572754e+00,1.980544090270996094e+00,1.980343937873840332e+00,1.980144143104553223e+00,1.979944229125976562e+00,1.979744553565979004e+00,1.979544758796691895e+00,1.979345083236694336e+00,1.979145526885986328e+00,1.978945851325988770e+00,1.978746294975280762e+00,1.978546738624572754e+00,1.978347063064575195e+00,1.978147625923156738e+00,1.977948188781738281e+00,1.501283168792724609e+00,1.456642031669616699e+00,1.427894473075866699e+00,1.414855122566223145e+00,1.976951837539672852e+00,1.976752638816833496e+00,1.976553559303283691e+00,1.976354479789733887e+00,1.976155161857604980e+00,1.975956201553344727e+00,1.975757241249084473e+00,1.975558280944824219e+00,1.975359439849853516e+00,1.975160598754882812e+00,1.974961757659912109e+00,1.974763035774230957e+00,1.974564313888549805e+00,9.356668591499328613e-01,9.132640957832336426e-01,9.031202197074890137e-01,8.943099975585937500e-01,8.856699466705322266e-01,8.771952986717224121e-01,8.736363053321838379e-01,8.757057189941406250e-01,1.844799757003784180e+00
1.778010606765747070e+00,1.777849555015563965e+00,1.777688503265380859e+00,1.777527213096618652e+00,1.777366280555725098e+00,1.777205228805541992e+00,1.777044296264648438e+00,1.776883482933044434e+00,1.776722550392150879e+00,1.776561737060546875e+00,1.776400804519653320e+00,1.776240110397338867e+00,1.776079297065734863e+00,1.775918602943420410e+00,1.775757670402526855e+00,1.775596976280212402e+00,1.775436282157897949e+00,1.775275707244873047e+00,1.775115132331848145e+00,1.774954557418823242e+00,1.774793982505798340e+00,1.774633526802062988e+00,1.774472951889038086e+00,1.774312496185302734e+00,1.774151921272277832e+00,1.773991584777832031e+00,1.773831129074096680e+00,1.773670792579650879e+00,1.773510575294494629e+00,1.773350238800048828e+00,1.773190021514892578e+00,1.773029804229736328e+00,1.772869586944580078e+00,1.772709369659423828e+00,1.772549033164978027e+00,1.772388935089111328e+00,1.772228956222534180e+00,1.772068858146667480e+00,1.771908879280090332e+00,1.771748781204223633e+00,1.771588921546936035e+00,1.771428942680358887e+00,1.771269083023071289e+00,1.771109223365783691e+00,1.770949363708496094e+00,1.770789265632629395e+00,1.770629525184631348e+00,1.770469784736633301e+00,1.770310044288635254e+00,1.770150303840637207e+00,1.769990682601928711e+00,1.769831061363220215e+00,1.769671440124511719e+00,1.769511818885803223e+00,1.502459526062011719e+00,1.461526632308959961e+00,1.415119886398315430e+00,1.390720367431640625e+00,1.397980928421020508e+00,1.768554687500000000e+00,1.768395304679870605e+00,1.768235921859741211e+00,1.768076658248901367e+00,1.767917394638061523e+00,1.767758131027221680e+00,1.767598628997802734e+00,1.767439484596252441e+00,1.767280220985412598e+00,1.767121076583862305e+00,1.766961932182312012e+00,1.766802906990051270e+00,9.393782019615173340e-01,9.176990985870361328e-01,9.031493067741394043e-01,8.943384885787963867e-01,8.856979012489318848e-01,8.772227764129638672e-01,8.699055314064025879e-01,8.719572424888610840e-01,1.765372157096862793e+00
1.607769846916198730e+00,1.607638120651245117e+00,1.607506394386291504e+00,1.607374668121337891e+00,1.607243061065673828e+00,1.607111454010009766e+00,1.606979846954345703e+00,1.606848001480102539e+00,1.606716513633728027e+00,1.606584906578063965e+00,1.606453418731689453e+00,1.606321930885314941e+00,1.606190443038940430e+00,1.606058955192565918e+00,1.605927467346191406e+00,1.605796098709106445e+00,1.605664730072021484e+00,1.605533123016357422e+00,1.605401754379272461e+00,1.605270504951477051e+00,1.605139136314392090e+00,1.605007886886596680e+00,1.604876637458801270e+00,1.604745388031005859e+00,1.604614138603210449e+00,1.604482889175415039e+00,1.604351758956909180e+00,1.604220509529113770e+00,1.604089260101318359e+00,1.603958129882812500e+00,1.603826999664306641e+00,1.603695988655090332e+00,1.603564977645874023e+00,1.603433847427368164e+00,1.603302836418151855e+00,1.603171825408935547e+00,1.603040933609008789e+00,1.602909922599792480e+00,1.602778911590576172e+00,1.602648019790649414e+00,1.602517127990722656e+00,1.602386236190795898e+00,1.602255344390869141e+00,1.602124571800231934e+00,1.601993799209594727e+00,1.601863026618957520e+00,1.601732254028320312e+00,1.601601481437683105e+00,1.601470828056335449e+00,1.601339936256408691e+00,1.601209282875061035e+00,1.601078629493713379e+00,1.600947976112365723e+00,1.600817441940307617e+00,1.600686788558959961e+00,1.600556254386901855e+00,1.600425720214843750e+00,1.370083808898925781e+00,1.358873367309570312e+00,1.393339276313781738e+00,1.599903583526611328e+00,1.599773168563842773e+00,1.599642753601074219e+00,1.599512338638305664e+00,1.599381923675537109e+00,1.599251627922058105e+00,1.599121332168579102e+00,1.598991036415100098e+00,1.598860740661621094e+00,1.598730325698852539e+00,1.598600029945373535e+00,1.598469853401184082e+00,1.598339557647705078e+00,9.183121323585510254e-01,9.021700620651245117e-01,8.930594325065612793e-01,8.863545060157775879e-01,8.803794980049133301e-01,8.798193931579589844e-01,1.597428798675537109e+00
1.467280864715576172e+00,1.467170953750610352e+00,1.467061281204223633e+00,1.466951608657836914e+00,1.466841936111450195e+00,1.466732382774353027e+00,1.466622710227966309e+00,1.466513037681579590e+00,1.466403484344482422e+00,1.466293931007385254e+00,1.466184377670288086e+00,1.466074705123901367e+00,1.465965151786804199e+00,1.465855598449707031e+00,1.465746164321899414e+00,1.465636610984802246e+00,1.465527176856994629e+00,1.465417742729187012e+00,1.465308308601379395e+00,1.465198874473571777e+00,1.465089559555053711e+00,1.464980006217956543e+00,1.464870572090148926e+00,1.464761257171630859e+00,1.464651942253112793e+00,1.464542627334594727e+00,1.464433312416076660e+00,1.464323997497558594e+00,1.464214801788330078e+00,1.464105486869812012e+00,1.463996291160583496e+00,1.463887095451354980e+00,1.463777780532836914e+00,1.463668584823608398e+00,1.463559389114379883e+00,1.463450193405151367e+00,1.463341116905212402e+00,1.463231921195983887e+00,1.463122844696044922e+00,1.463013768196105957e+00,1.462904691696166992e+00,1.462795615196228027e+00,1.462686538696289062e+00,1.462577462196350098e+00,1.462468504905700684e+00,1.462359428405761719e+00,1.462250471115112305e+00,1.462141513824462891e+00,1.462032675743103027e+00,1.461923718452453613e+00,1.461814761161804199e+00,1.461705923080444336e+00,1.461596846580505371e+00,1.461488008499145508e+00,1.461379170417785645e+00,1.461270332336425781e+00,1.461161494255065918e+00,1.362284898757934570e+00,1.332317352294921875e+00,1.320015788078308105e+00,1.345624089241027832e+00,1.460617780685424805e+00,1.460509061813354492e+00,1.460400223731994629e+00,1.460291504859924316e+00,1.460182905197143555e+00,1.460074186325073242e+00,1.459965586662292480e+00,1.459856986999511719e+00,1.459748387336730957e+00,1.459639787673950195e+00,1.459531188011169434e+00,1.459422707557678223e+00,9.240811467170715332e-01,9.035992622375488281e-01,8.908959031105041504e-01,8.839076161384582520e-01,8.775912523269653320e-01,8.735875487327575684e-01,1.458663105964660645e+00
1.349370956420898438e+00,1.349278092384338379e+00,1.349185347557067871e+00,1.349092602729797363e+00,1.348999857902526855e+00,1.348906993865966797e+00,1.348814249038696289e+00,1.348721623420715332e+00,1.348628878593444824e+00,1.348536252975463867e+00,1.348443508148193359e+00,1.348350882530212402e+00,1.348258256912231445e+00,1.348165631294250488e+00,1.348073005676269531e+00,1.347980260848999023e+00,1.347887635231018066e+00,1.347795128822326660e+00,1.347702503204345703e+00,1.347609996795654297e+00,1.347517490386962891e+00,1.347424864768981934e+00,1.347332477569580078e+00,1.347239971160888672e+00,1.347147464752197266e+00,1.347054839134216309e+00,1.346962332725524902e+00,1.346869945526123047e+00,1.346777439117431641e+00,1.346685051918029785e+00,1.346592664718627930e+00,1.346500277519226074e+00,1.346407890319824219e+00,1.346315503120422363e+00,1.346223115921020508e+00,1.346130728721618652e+00,1.346038341522216797e+00,1.345945954322814941e+00,1.345853686332702637e+00,1.345761299133300781e+00,1.345669031143188477e+00,1.345576763153076172e+00,1.345484495162963867e+00,1.345392227172851562e+00,1.345300078392028809e+00,1.345207810401916504e+00,1.345115542411804199e+00,1.345023274421691895e+00,1.344931125640869141e+00,1.344838857650756836e+00,1.344746708869934082e+00,1.344654560089111328e+00,1.344562411308288574e+00,1.344470381736755371e+00,1.344378232955932617e+00,1.344286084175109863e+00,1.344193935394287109e+00,1.344101905822753906e+00,1.344009757041931152e+00,1.310845613479614258e+00,1.325477957725524902e+00,1.343733668327331543e+00,1.343641638755798340e+00,1.343549609184265137e+00,1.343457698822021484e+00,1.343365669250488281e+00,1.343273758888244629e+00,1.343181729316711426e+00,1.343089699745178223e+00,1.342997789382934570e+00,1.342905879020690918e+00,1.342813968658447266e+00,1.342722177505493164e+00,9.399465322494506836e-01,9.042080044746398926e-01,8.907045125961303711e-01,8.807983398437500000e-01,8.716062307357788086e-01,8.609234690666198730e-01,8.515718579292297363e-01
1.249001860618591309e+00,1.248922348022460938e+00,1.248842835426330566e+00,1.248763442039489746e+00,1.248683929443359375e+00,1.248604416847229004e+00,1.248525023460388184e+00,1.248445630073547363e+00,1.248366117477416992e+00,1.248286604881286621e+00,1.248207211494445801e+00,1.248127818107604980e+00,1.248048424720764160e+00,1.247969150543212891e+00,1.247889757156372070e+00,1.247810363769531250e+00,1.247731089591979980e+00,1.247651696205139160e+00,1.247572422027587891e+00,1.247492909431457520e+00,1.247413635253906250e+00,1.247334361076354980e+00,1.247255086898803711e+00,1.247175812721252441e+00,1.247096538543701172e+00,1.247017264366149902e+00,1.246937990188598633e+00,1.246858835220336914e+00,1.246779561042785645e+00,1.246700286865234375e+00,1.246621131896972656e+00,1.246541857719421387e+00,1.246462702751159668e+00,1.246383547782897949e+00,1.246304392814636230e+00,1.246225237846374512e+00,1.246146082878112793e+00,1.246066927909851074e+00,1.245987772941589355e+00,1.245908617973327637e+00,1.245829463005065918e+00,1.245750427246093750e+00,1.245671272277832031e+00,1.245592236518859863e+00,1.245513200759887695e+00,1.245434165000915527e+00,1.245355129241943359e+00,1.245276093482971191e+00,1.245197057723999023e+00,1.245118021965026855e+00,1.245038986206054688e+00,1.244959950447082520e+00,1.244880914688110352e+00,1.244801998138427734e+00,1.244723081588745117e+00,1.244644045829772949e+00,1.244565129280090332e+00,1.244486212730407715e+00,1.244407296180725098e+00,1.244328379631042480e+00,1.244249343872070312e+00,1.244170427322387695e+00,1.244091629981994629e+00,1.244012713432312012e+00,1.243933916091918945e+00,1.243854999542236328e+00,1.243776202201843262e+00,1.243697285652160645e+00,1.243618488311767578e+00,1.243539690971374512e+00,1.243460893630981445e+00,1.243381977081298828e+00,1.243303298950195312e+00,1.243224501609802246e+00,9.075264334678649902e-01,8.900076746940612793e-01,8.756397962570190430e-01,8.626757264137268066e-01,8.501614928245544434e-01,8.395082354545593262e-01
1.162530422210693359e+00,1.162461638450622559e+00,1.162392616271972656e+00,1.162323832511901855e+00,1.162254929542541504e+00,1.162186145782470703e+00,1.162117242813110352e+00,1.162048459053039551e+00,1.161979675292968750e+00,1.161910891532897949e+00,1.161841988563537598e+00,1.161773204803466797e+00,1.161704421043395996e+00,1.161635637283325195e+00,1.161566853523254395e+00,1.161498069763183594e+00,1.161429405212402344e+00,1.161360621452331543e+00,1.161291837692260742e+00,1.161223173141479492e+00,1.161154389381408691e+00,1.161085724830627441e+00,1.161017060279846191e+00,1.160948276519775391e+00,1.160879611968994141e+00,1.160810947418212891e+00,1.160742282867431641e+00,1.160673618316650391e+00,1.160604953765869141e+00,1.160536289215087891e+00,1.160467624664306641e+00,1.160399079322814941e+00,1.160330414772033691e+00,1.160261750221252441e+00,1.160193085670471191e+00,1.160124540328979492e+00,1.160055875778198242e+00,1.159987330436706543e+00,1.159918785095214844e+00,1.159850239753723145e+00,1.159781694412231445e+00,1.159713149070739746e+00,1.159644603729248047e+00,1.159575939178466797e+00,1.159507393836975098e+00,1.159438967704772949e+00,1.159370422363281250e+00,1.159301877021789551e+00,1.159233450889587402e+00,1.159164905548095703e+00,1.159096479415893555e+00,1.159028053283691406e+00,1.158959507942199707e+00,1.158891081809997559e+00,1.158822536468505859e+00,1.158754110336303711e+00,1.158685684204101562e+00,1.158617377281188965e+00,1.158548951148986816e+00,1.158480525016784668e+00,1.158412098884582520e+00,1.158343791961669922e+00,1.158275365829467773e+00,1.158207058906555176e+00,1.158138632774353027e+00,1.158070206642150879e+00,1.158001899719238281e+00,1.157933592796325684e+00,1.157865285873413086e+00,1.157796978950500488e+00,1.157728552818298340e+00,1.157660365104675293e+00,1.157592058181762695e+00,1.157523751258850098e+00,9.110026955604553223e-01,8.887382745742797852e-01,8.704088330268859863e-01,8.565424084663391113e-01,8.428410887718200684e-01,8.301496505737304688e-01
1.087256908416748047e+00,1.087196707725524902e+00,1.087136507034301758e+00,1.087076187133789062e+00,1.087015986442565918e+00,1.086955785751342773e+00,1.086895465850830078e+00,1.086835265159606934e+00,1.086775183677673340e+00,1.086714982986450195e+00,1.086654782295227051e+00,1.086594581604003906e+00,1.086534380912780762e+00,1.086474299430847168e+00,1.086414098739624023e+00,1.086354017257690430e+00,1.086293697357177734e+00,1.086233615875244141e+00,1.086173534393310547e+00,1.086113333702087402e+00,1.086053252220153809e+00,1.085993170738220215e+00,1.085933089256286621e+00,1.085873007774353027e+00,1.085812926292419434e+00,1.085752844810485840e+00,1.085692763328552246e+00,1.085632562637329102e+00,1.085572481155395508e+00,1.085512518882751465e+00,1.085452437400817871e+00,1.085392355918884277e+00,1.085332393646240234e+00,1.085272312164306641e+00,1.085212349891662598e+00,1.085152268409729004e+00,1.085092306137084961e+00,1.085032224655151367e+00,1.084972262382507324e+00,1.084912300109863281e+00,1.084852218627929688e+00,1.084792256355285645e+00,1.084732294082641602e+00,1.084672331809997559e+00,1.084612369537353516e+00,1.084552407264709473e+00,1.084492564201354980e+00,1.084432482719421387e+00,1.084372639656066895e+00,1.084312677383422852e+00,1.084252715110778809e+00,1.084192872047424316e+00,1.084132909774780273e+00,1.084073066711425781e+00,1.084013104438781738e+00,1.083953261375427246e+00,1.083893418312072754e+00,1.083833575248718262e+00,1.083773612976074219e+00,1.083713769912719727e+00,1.083653926849365234e+00,1.083594083786010742e+00,1.083534240722656250e+00,1.083474397659301758e+00,1.083414554595947266e+00,1.083354711532592773e+00,1.083294987678527832e+00,1.083235144615173340e+00,1.083175301551818848e+00,1.083115458488464355e+00,1.083055734634399414e+00,1.082995891571044922e+00,1.082936167716979980e+00,1.082876443862915039e+00,9.144802689552307129e-01,8.905223608016967773e-01,8.702583312988281250e-01,8.500840067863464355e-01,8.336391448974609375e-01,8.197754621505737305e-01
1.021138548851013184e+00,1.021085381507873535e+00,1.021032214164733887e+00,1.020979166030883789e+00,1.020925998687744141e+00,1.020872950553894043e+00,1.020819783210754395e+00,1.020766735076904297e+00,1.020713567733764648e+00,1.020660519599914551e+00,1.020607352256774902e+00,1.020554304122924805e+00,1.020501136779785156e+00,1.020448088645935059e+00,1.020395040512084961e+00,1.020341992378234863e+00,1.020288944244384766e+00,1.020235896110534668e+00,1.020182847976684570e+00,1.020129799842834473e+00,1.020076751708984375e+00,1.020023703575134277e+00,1.019970655441284180e+00,1.019917607307434082e+00,1.019864678382873535e+00,1.019811630249023438e+00,1.019758701324462891e+00,1.019705653190612793e+00,1.019652724266052246e+00,1.019599676132202148e+00,1.019546627998352051e+00,1.019493699073791504e+00,1.019440770149230957e+00,1.019387722015380859e+00,1.019334793090820312e+00,1.019281864166259766e+00,1.019228935241699219e+00,1.019176006317138672e+00,1.019123077392578125e+00,1.019070148468017578e+00,1.019017219543457031e+00,1.018964171409606934e+00,1.018911361694335938e+00,1.018858432769775391e+00,1.018805503845214844e+00,1.018752574920654297e+00,1.018699765205383301e+00,1.018646836280822754e+00,1.018593907356262207e+00,1.018541097640991211e+00,1.018488168716430664e+00,1.018435239791870117e+00,1.018382430076599121e+00,1.018329620361328125e+00,1.018276691436767578e+00,1.018223881721496582e+00,1.018171072006225586e+00,1.018118262290954590e+00,1.018065452575683594e+00,1.018012642860412598e+00,1.017959833145141602e+00,1.017907023429870605e+00,1.017854094505310059e+00,1.017801284790039062e+00,1.017748594284057617e+00,1.017695784568786621e+00,1.017642974853515625e+00,1.017590165138244629e+00,1.017537474632263184e+00,1.017484664916992188e+00,1.017431974411010742e+00,1.017379164695739746e+00,1.017326354980468750e+00,1.017273664474487305e+00,9.158431291580200195e-01,8.914112448692321777e-01,8.708791732788085938e-01,8.508430719375610352e-01,8.317179679870605469e-01,8.113881945610046387e-01
9.626008272171020508e-01,9.625535607337951660e-01,9.625064134597778320e-01,9.624591469764709473e-01,9.624118804931640625e-01,9.623647332191467285e-01,9.623174667358398438e-01,9.622703194618225098e-01,9.622231125831604004e-01,9.621759653091430664e-01,9.621287584304809570e-01,9.620816111564636230e-01,9.620344042778015137e-01,9.619873166084289551e-01,9.619401097297668457e-01,9.618928432464599609e-01,9.618457555770874023e-01,9.617986083030700684e-01,9.617515206336975098e-01,9.617043137550354004e-01,9.616572260856628418e-01,9.616100192070007324e-01,9.615629911422729492e-01,9.615157842636108398e-01,9.614686369895935059e-01,9.614216089248657227e-01,9.613744616508483887e-01,9.613273739814758301e-01,9.612802267074584961e-01,9.612331986427307129e-01,9.611860513687133789e-01,9.611390233039855957e-01,9.610919356346130371e-01,9.610449075698852539e-01,9.609977602958679199e-01,9.609506726264953613e-01,9.609036445617675781e-01,9.608565568923950195e-01,9.608095288276672363e-01,9.607624411582946777e-01,9.607154726982116699e-01,9.606683850288391113e-01,9.606214165687561035e-01,9.605743288993835449e-01,9.605273604393005371e-01,9.604802727699279785e-01,9.604332447052001953e-01,9.603862762451171875e-01,9.603391885757446289e-01,9.602922797203063965e-01,9.602452516555786133e-01,9.601982831954956055e-01,9.601512551307678223e-01,9.601043462753295898e-01,9.600573182106018066e-01,9.600102901458740234e-01,9.599633812904357910e-01,9.599163532257080078e-01,9.598694443702697754e-01,9.598224163055419922e-01,9.597755670547485352e-01,9.597285389900207520e-01,9.596816897392272949e-01,9.596346616744995117e-01,9.595878124237060547e-01,9.595408439636230469e-01,9.594938755035400391e-01,9.594469666481018066e-01,9.593999981880187988e-01,9.593531489372253418e-01,9.593062400817871094e-01,9.592593908309936523e-01,9.592124223709106445e-01,9.591655731201171875e-01,9.591186642646789551e-01,9.590718150138854980e-01,8.968786597251892090e-01,9.589779973030090332e-01,9.589311480522155762e-01,8.291389346122741699e-01
9.104105830192565918e-01,9.103683233261108398e-01,9.103261232376098633e-01,9.102838635444641113e-01,9.102416634559631348e-01,9.101994037628173828e-01,9.101572632789611816e-01,9.101150035858154297e-01,9.100727438926696777e-01,9.100305438041687012e-01,9.099882841110229492e-01,9.099461436271667480e-01,9.099039435386657715e-01,9.098617434501647949e-01,9.098195433616638184e-01,9.097774028778076172e-01,9.097351431846618652e-01,9.096929430961608887e-01,9.096508026123046875e-01,9.096086025238037109e-01,9.095665216445922852e-01,9.095242619514465332e-01,9.094821810722351074e-01,9.094399809837341309e-01,9.093979001045227051e-01,9.093557000160217285e-01,9.093136191368103027e-01,9.092714190483093262e-01,9.092292189598083496e-01,9.091871380805969238e-01,9.091449975967407227e-01,9.091029167175292969e-01,9.090607166290283203e-01,9.090186953544616699e-01,9.089764952659606934e-01,9.089344739913940430e-01,9.088923335075378418e-01,9.088502526283264160e-01,9.088081121444702148e-01,9.087659716606140137e-01,9.087239503860473633e-01,9.086818099021911621e-01,9.086397886276245117e-01,9.085976481437683105e-01,9.085556268692016602e-01,9.085135459899902344e-01,9.084715247154235840e-01,9.084294438362121582e-01,9.083874225616455078e-01,9.083453416824340820e-01,9.083032011985778809e-01,9.082612395286560059e-01,9.082191586494445801e-01,9.081771373748779297e-01,9.081350564956665039e-01,9.080930948257446289e-01,9.080510139465332031e-01,9.080090522766113281e-01,9.079669713973999023e-01,9.079249501228332520e-01,9.078829884529113770e-01,9.078409075736999512e-01,9.077989459037780762e-01,9.077569246292114258e-01,9.077149629592895508e-01,9.076729416847229004e-01,9.076310396194458008e-01,9.075889587402343750e-01,9.075470566749572754e-01,9.075050354003906250e-01,9.074630141258239746e-01,9.074211120605468750e-01,9.073790907859802246e-01,9.073371887207031250e-01,9.072951674461364746e-01,9.072532653808593750e-01,9.072113037109375000e-01,9.071694016456604004e-01,9.071274399757385254e-01,9.070855379104614258e-01
8.635886311531066895e-01,8.635505437850952148e-01,8.635126352310180664e-01,8.634745478630065918e-01,8.634366393089294434e-01,8.633986115455627441e-01,8.633606433868408203e-01,8.633226156234741211e-01,8.632846474647521973e-01,8.632466793060302734e-01,8.632087111473083496e-01,8.631706833839416504e-01,8.631327152252197266e-01,8.630947470664978027e-01,8.630567789077758789e-01,8.630188703536987305e-01,8.629808425903320312e-01,8.629429340362548828e-01,8.629049658775329590e-01,8.628670573234558105e-01,8.628290891647338867e-01,8.627910614013671875e-01,8.627532124519348145e-01,8.627152442932128906e-01,8.626773357391357422e-01,8.626393675804138184e-01,8.626014590263366699e-01,8.625635504722595215e-01,8.625256419181823730e-01,8.624876737594604492e-01,8.624498248100280762e-01,8.624118566513061523e-01,8.623739480972290039e-01,8.623360991477966309e-01,8.622981309890747070e-01,8.622602820396423340e-01,8.622223734855651855e-01,8.621845245361328125e-01,8.621466159820556641e-01,8.621087670326232910e-01,8.620708584785461426e-01,8.620330095291137695e-01,8.619951009750366211e-01,8.619571924209594727e-01,8.619194030761718750e-01,8.618814945220947266e-01,8.618436455726623535e-01,8.618057966232299805e-01,8.617679476737976074e-01,8.617300987243652344e-01,8.616922497749328613e-01,8.616544008255004883e-01,8.616164922714233398e-01,8.615787029266357422e-01,8.615408539772033691e-01,8.615030646324157715e-01,8.614652156829833984e-01,8.614274263381958008e-01,8.613895773887634277e-01,8.613517880439758301e-01,8.613139390945434570e-01,8.612762093544006348e-01,8.612383604049682617e-01,8.612005114555358887e-01,8.611627817153930664e-01,8.611249327659606934e-01,8.610872030258178711e-01,8.610493540763854980e-01,8.610116243362426758e-01,8.609737753868103027e-01,8.609360456466674805e-01,8.608982563018798828e-01,8.608605265617370605e-01,8.608226776123046875e-01,8.607848882675170898e-01,8.607471585273742676e-01,8.607093691825866699e-01,8.606716990470886230e-01,8.606339097023010254e-01,8.605961799621582031e-01
8.213471174240112305e-01,8.213127851486206055e-01,8.212783932685852051e-01,8.212440609931945801e-01,8.212096095085144043e-01,8.211752176284790039e-01,8.211408853530883789e-01,8.211064934730529785e-01,8.210721611976623535e-01,8.210377693176269531e-01,8.210034966468811035e-01,8.209691047668457031e-01,8.209347724914550781e-01,8.209003806114196777e-01,8.208661079406738281e-01,8.208317160606384277e-01,8.207973241806030273e-01,8.207630515098571777e-01,8.207286596298217773e-01,8.206943869590759277e-01,8.206600546836853027e-01,8.206257820129394531e-01,8.205913901329040527e-01,8.205571174621582031e-01,8.205227851867675781e-01,8.204884529113769531e-01,8.204541802406311035e-01,8.204198479652404785e-01,8.203855752944946289e-01,8.203512430191040039e-01,8.203169703483581543e-01,8.202826380729675293e-01,8.202484250068664551e-01,8.202140927314758301e-01,8.201798200607299805e-01,8.201454877853393555e-01,8.201112151145935059e-01,8.200769424438476562e-01,8.200426697731018066e-01,8.200083971023559570e-01,8.199741244316101074e-01,8.199399113655090332e-01,8.199055790901184082e-01,8.198713660240173340e-01,8.198370933532714844e-01,8.198028802871704102e-01,8.197685480117797852e-01,8.197342753410339355e-01,8.197000622749328613e-01,8.196657896041870117e-01,8.196315765380859375e-01,8.195973038673400879e-01,8.195631504058837891e-01,8.195288777351379395e-01,8.194946646690368652e-01,8.194603919982910156e-01,8.194261789321899414e-01,8.193919658660888672e-01,8.193577527999877930e-01,8.193235397338867188e-01,8.192893266677856445e-01,8.192551136016845703e-01,8.192209005355834961e-01,8.191867470741271973e-01,8.191524744033813477e-01,8.191183209419250488e-01,8.190841078758239746e-01,8.190498948097229004e-01,8.190157413482666016e-01,8.189815282821655273e-01,8.189473748207092285e-01,8.189131617546081543e-01,8.188790082931518555e-01,8.188447952270507812e-01,8.188107013702392578e-01,8.187764883041381836e-01,8.187423348426818848e-01,8.187081217765808105e-01,8.186739683151245117e-01,8.186398148536682129e-01
7.830453515052795410e-01,7.830141186714172363e-01,7.829828262329101562e-01,7.829516530036926270e-01,7.829203605651855469e-01,7.828891873359680176e-01,7.828578948974609375e-01,7.828267216682434082e-01,7.827954292297363281e-01,7.827641963958740234e-01,7.827329635620117188e-01,7.827017307281494141e-01,7.826705574989318848e-01,7.826392650604248047e-01,7.826080918312072754e-01,7.825768589973449707e-01,7.825456857681274414e-01,7.825144529342651367e-01,7.824832797050476074e-01,7.824520468711853027e-01,7.824208140373229980e-01,7.823896408081054688e-01,7.823584079742431641e-01,7.823272347450256348e-01,7.822960019111633301e-01,7.822648882865905762e-01,7.822336554527282715e-01,7.822024822235107422e-01,7.821713089942932129e-01,7.821400761604309082e-01,7.821089625358581543e-01,7.820777297019958496e-01,7.820466160774230957e-01,7.820153832435607910e-01,7.819842696189880371e-01,7.819530963897705078e-01,7.819219231605529785e-01,7.818907499313354492e-01,7.818596363067626953e-01,7.818284630775451660e-01,7.817972302436828613e-01,7.817661762237548828e-01,7.817349433898925781e-01,7.817038893699645996e-01,7.816727161407470703e-01,7.816416025161743164e-01,7.816104292869567871e-01,7.815793156623840332e-01,7.815481424331665039e-01,7.815170884132385254e-01,7.814859151840209961e-01,7.814547419548034668e-01,7.814236283302307129e-01,7.813925147056579590e-01,7.813614010810852051e-01,7.813302874565124512e-01,7.812991738319396973e-01,7.812680602073669434e-01,7.812370061874389648e-01,7.812058329582214355e-01,7.811747193336486816e-01,7.811436653137207031e-01,7.811124920845031738e-01,7.810814380645751953e-01,7.810503244400024414e-01,7.810192704200744629e-01,7.809881567955017090e-01,7.809571027755737305e-01,7.809259891510009766e-01,7.808949351310729980e-01,7.808638215065002441e-01,7.808327078819274902e-01,7.808017134666442871e-01,7.807705998420715332e-01,7.807395458221435547e-01,7.807084918022155762e-01,7.806774377822875977e-01,7.806463241577148438e-01,7.806153297424316406e-01,7.805842161178588867e-01
7.481566667556762695e-01,7.481281161308288574e-01,7.480995655059814453e-01,7.480710744857788086e-01,7.480425238609313965e-01,7.480140328407287598e-01,7.479854822158813477e-01,7.479570508003234863e-01,7.479285001754760742e-01,7.479000091552734375e-01,7.478714585304260254e-01,7.478430271148681641e-01,7.478144764900207520e-01,7.477859258651733398e-01,7.477574944496154785e-01,7.477289438247680664e-01,7.477005124092102051e-01,7.476719617843627930e-01,7.476435303688049316e-01,7.476149797439575195e-01,7.475865483283996582e-01,7.475580573081970215e-01,7.475295662879943848e-01,7.475010752677917480e-01,7.474725842475891113e-01,7.474441528320312500e-01,7.474156022071838379e-01,7.473871707916259766e-01,7.473586797714233398e-01,7.473302483558654785e-01,7.473017573356628418e-01,7.472733259201049805e-01,7.472448348999023438e-01,7.472163438796997070e-01,7.471879720687866211e-01,7.471594810485839844e-01,7.471310496330261230e-01,7.471025586128234863e-01,7.470741271972656250e-01,7.470456957817077637e-01,7.470172643661499023e-01,7.469887733459472656e-01,7.469604015350341797e-01,7.469319105148315430e-01,7.469034790992736816e-01,7.468750476837158203e-01,7.468466162681579590e-01,7.468182444572448730e-01,7.467897534370422363e-01,7.467613816261291504e-01,7.467329502105712891e-01,7.467045187950134277e-01,7.466760873794555664e-01,7.466477155685424805e-01,7.466192841529846191e-01,7.465908527374267578e-01,7.465624809265136719e-01,7.465340495109558105e-01,7.465056777000427246e-01,7.464772462844848633e-01,7.464488744735717773e-01,7.464204430580139160e-01,7.463920712471008301e-01,7.463636398315429688e-01,7.463352084159851074e-01,7.463068962097167969e-01,7.462784647941589355e-01,7.462500929832458496e-01,7.462217211723327637e-01,7.461933493614196777e-01,7.461649775505065918e-01,7.461366057395935059e-01,7.461082339286804199e-01,7.460798621177673340e-01,7.460514903068542480e-01,7.460230588912963867e-01,7.459947466850280762e-01,7.459663748741149902e-01,7.459380030632019043e-01,7.459096312522888184e-01
7.162442803382873535e-01,7.162181138992309570e-01,7.161920070648193359e-01,7.161658406257629395e-01,7.161397337913513184e-01,7.161135673522949219e-01,7.160874009132385254e-01,7.160612940788269043e-01,7.160351276397705078e-01,7.160090208053588867e-01,7.159829139709472656e-01,7.159568071365356445e-01,7.159306406974792480e-01,7.159045338630676270e-01,7.158784270286560059e-01,7.158523201942443848e-01,7.158261537551879883e-01,7.158000469207763672e-01,7.157739400863647461e-01,7.157478332519531250e-01,7.157217264175415039e-01,7.156956195831298828e-01,7.156695127487182617e-01,7.156434059143066406e-01,7.156173586845397949e-01,7.155911922454833984e-01,7.155651450157165527e-01,7.155390381813049316e-01,7.155128717422485352e-01,7.154868245124816895e-01,7.154607176780700684e-01,7.154346704483032227e-01,7.154085636138916016e-01,7.153825163841247559e-01,7.153564095497131348e-01,7.153303623199462891e-01,7.153042554855346680e-01,7.152781486511230469e-01,7.152521014213562012e-01,7.152259945869445801e-01,7.151999473571777344e-01,7.151738405227661133e-01,7.151477932929992676e-01,7.151217460632324219e-01,7.150956988334655762e-01,7.150695919990539551e-01,7.150436043739318848e-01,7.150174975395202637e-01,7.149913907051086426e-01,7.149654030799865723e-01,7.149392962455749512e-01,7.149133086204528809e-01,7.148872017860412598e-01,7.148612141609191895e-01,7.148351073265075684e-01,7.148091197013854980e-01,7.147830724716186523e-01,7.147570252418518066e-01,7.147309780120849609e-01,7.147049307823181152e-01,7.146789431571960449e-01,7.146528363227844238e-01,7.146268486976623535e-01,7.146008014678955078e-01,7.145748138427734375e-01,7.145487666130065918e-01,7.145227789878845215e-01,7.144967317581176758e-01,7.144706845283508301e-01,7.144446969032287598e-01,7.144186496734619141e-01,7.143926620483398438e-01,7.143666744232177734e-01,7.143406867980957031e-01,7.143146395683288574e-01,7.142886519432067871e-01,7.142626047134399414e-01,7.142366766929626465e-01,7.142106294631958008e-01,7.141845822334289551e-01
6.869429349899291992e-01,6.869189143180847168e-01,6.868948936462402344e-01,6.868708133697509766e-01,6.868467926979064941e-01,6.868227124214172363e-01,6.867986917495727539e-01,6.867746114730834961e-01,6.867506504058837891e-01,6.867265701293945312e-01,6.867024898529052734e-01,6.866785287857055664e-01,6.866544485092163086e-01,6.866304278373718262e-01,6.866064071655273438e-01,6.865823864936828613e-01,6.865583658218383789e-01,6.865343451499938965e-01,6.865103244781494141e-01,6.864863038063049316e-01,6.864622831344604492e-01,6.864382624626159668e-01,6.864142417907714844e-01,6.863902211189270020e-01,6.863662004470825195e-01,6.863421797752380371e-01,6.863182187080383301e-01,6.862941980361938477e-01,6.862702369689941406e-01,6.862461566925048828e-01,6.862221360206604004e-01,6.861981749534606934e-01,6.861741542816162109e-01,6.861501932144165039e-01,6.861261725425720215e-01,6.861022114753723145e-01,6.860781908035278320e-01,6.860542297363281250e-01,6.860302090644836426e-01,6.860062479972839355e-01,6.859822869300842285e-01,6.859582662582397461e-01,6.859343051910400391e-01,6.859102845191955566e-01,6.858863234519958496e-01,6.858623623847961426e-01,6.858384013175964355e-01,6.858143806457519531e-01,6.857904791831970215e-01,6.857664585113525391e-01,6.857424974441528320e-01,6.857185363769531250e-01,6.856945157051086426e-01,6.856706142425537109e-01,6.856466531753540039e-01,6.856226921081542969e-01,6.855987310409545898e-01,6.855747699737548828e-01,6.855508089065551758e-01,6.855269074440002441e-01,6.855028867721557617e-01,6.854789853096008301e-01,6.854550242424011230e-01,6.854310631752014160e-01,6.854071617126464844e-01,6.853831410408020020e-01,6.853592395782470703e-01,6.853352785110473633e-01,6.853113770484924316e-01,6.852874159812927246e-01,6.852635145187377930e-01,6.852395534515380859e-01,6.852155923843383789e-01,6.851916909217834473e-01,6.851677298545837402e-01,6.851438283920288086e-01,6.851199269294738770e-01,6.850960254669189453e-01,6.850720643997192383e-01,6.850481629371643066e-01
6.599448323249816895e-01,6.599226593971252441e-01,6.599004268646240234e-01,6.598781943321228027e-01,6.598560810089111328e-01,6.598338484764099121e-01,6.598116755485534668e-01,6.597894430160522461e-01,6.597673296928405762e-01,6.597450971603393555e-01,6.597229242324829102e-01,6.597007513046264648e-01,6.596785783767700195e-01,6.596564054489135742e-01,6.596341729164123535e-01,6.596120595932006836e-01,6.595898270606994629e-01,6.595677137374877930e-01,6.595454812049865723e-01,6.595233678817749023e-01,6.595011949539184570e-01,6.594790220260620117e-01,6.594568490982055664e-01,6.594347357749938965e-01,6.594125032424926758e-01,6.593903303146362305e-01,6.593682169914245605e-01,6.593460440635681152e-01,6.593238711357116699e-01,6.593016982078552246e-01,6.592795848846435547e-01,6.592574119567871094e-01,6.592352986335754395e-01,6.592131257057189941e-01,6.591909527778625488e-01,6.591688394546508789e-01,6.591466665267944336e-01,6.591245532035827637e-01,6.591023802757263184e-01,6.590802669525146484e-01,6.590580940246582031e-01,6.590359807014465332e-01,6.590138673782348633e-01,6.589917540550231934e-01,6.589695811271667480e-01,6.589474081993103027e-01,6.589252948760986328e-01,6.589031815528869629e-01,6.588810682296752930e-01,6.588588953018188477e-01,6.588368415832519531e-01,6.588146686553955078e-01,6.587926149368286133e-01,6.587704420089721680e-01,6.587483286857604980e-01,6.587262153625488281e-01,6.587041020393371582e-01,6.586819887161254883e-01,6.586598753929138184e-01,6.586377620697021484e-01,6.586156487464904785e-01,6.585935354232788086e-01,6.585714221000671387e-01,6.585493683815002441e-01,6.585272550582885742e-01,6.585050821304321289e-01,6.584830284118652344e-01,6.584609150886535645e-01,6.584388613700866699e-01,6.584166884422302246e-01,6.583946347236633301e-01,6.583725214004516602e-01,6.583504676818847656e-01,6.583283543586730957e-01,6.583063006401062012e-01,6.582841873168945312e-01,6.582620739936828613e-01,6.582400202751159668e-01,6.582179069519042969e-01,6.581958532333374023e-01
6.349885463714599609e-01,6.349680423736572266e-01,6.349474787712097168e-01,6.349269747734069824e-01,6.349064111709594727e-01,6.348858475685119629e-01,6.348652839660644531e-01,6.348447203636169434e-01,6.348242163658142090e-01,6.348036527633666992e-01,6.347831487655639648e-01,6.347625851631164551e-01,6.347420811653137207e-01,6.347215175628662109e-01,6.347010135650634766e-01,6.346804499626159668e-01,6.346599459648132324e-01,6.346394419670104980e-01,6.346188783645629883e-01,6.345983743667602539e-01,6.345778107643127441e-01,6.345573067665100098e-01,6.345368027687072754e-01,6.345162987709045410e-01,6.344957351684570312e-01,6.344752311706542969e-01,6.344547271728515625e-01,6.344342231750488281e-01,6.344136595726013184e-01,6.343931555747985840e-01,6.343726515769958496e-01,6.343521475791931152e-01,6.343316435813903809e-01,6.343111395835876465e-01,6.342906355857849121e-01,6.342701315879821777e-01,6.342496275901794434e-01,6.342291235923767090e-01,6.342086195945739746e-01,6.341881155967712402e-01,6.341676115989685059e-01,6.341471076011657715e-01,6.341266036033630371e-01,6.341061592102050781e-01,6.340856552124023438e-01,6.340651512145996094e-01,6.340446472167968750e-01,6.340242028236389160e-01,6.340036988258361816e-01,6.339831948280334473e-01,6.339626908302307129e-01,6.339421868324279785e-01,6.339217424392700195e-01,6.339012384414672852e-01,6.338807940483093262e-01,6.338602900505065918e-01,6.338398456573486328e-01,6.338193416595458984e-01,6.337988972663879395e-01,6.337783932685852051e-01,6.337579488754272461e-01,6.337375044822692871e-01,6.337170004844665527e-01,6.336965560913085938e-01,6.336760520935058594e-01,6.336556077003479004e-01,6.336351037025451660e-01,6.336146593093872070e-01,6.335942149162292480e-01,6.335737109184265137e-01,6.335532665252685547e-01,6.335328221321105957e-01,6.335123777389526367e-01,6.334919333457946777e-01,6.334714889526367188e-01,6.334509849548339844e-01,6.334306001663208008e-01,6.334100961685180664e-01,6.333897113800048828e-01,6.333692073822021484e-01
