5.000000000000000000e+00,5.000000000000000000e+00,5.000000000000000000e+00,5.000000000000000000e+00,5.000000000000000000e+00,5.000000000000000000e+00,5.000000000000000000e+00,5.000000000000000000e+00,5.000000000000000000e+00,5.000000000000000000e+00,5.000000000000000000e+00,5.000000000000000000e+00,5.000000000000000000e+00,5.000000000000000000e+00,5.000000000000000000e+00,5.000000000000000000e+00,5.000000000000000000e+00,5.000000000000000000e+00,5.000000000000000000e+00,5.000000000000000000e+00,5.000000000000000000e+00,5.000000000000000000e+00,5.000000000000000000e+00,5.000000000000000000e+00,5.000000000000000000e+00,5.000000000000000000e+00,5.000000000000000000e+00,5.000000000000000000e+00,5.000000000000000000e+00,2.489245414733886719e+00,2.399318933486938477e+00,2.395563602447509766e+00,2.422173261642456055e+00,5.000000000000000000e+00,5.000000000000000000e+00,5.000000000000000000e+00,5.000000000000000000e+00,5.000000000000000000e+00,5.000000000000000000e+00,5.000000000000000000e+00,5.000000000000000000e+00,5.000000000000000000e+00,5.000000000000000000e+00,4.170177936553955078e+00,4.028959274291992188e+00,3.896992206573486328e+00,3.773395776748657227e+00,3.657398462295532227e+00,3.548320055007934570e+00,3.445559263229370117e+00,3.348583221435546875e+00,3.256916761398315430e+00,3.170134782791137695e+00,3.087857723236083984e+00,3.009743452072143555e+00,2.935483932495117188e+00,2.864800214767456055e+00,2.797440767288208008e+00,2.733175992965698242e+00,2.671797752380371094e+00,2.613115549087524414e+00,2.556955814361572266e+00,2.503158807754516602e+00,2.451579332351684570e+00,2.402082443237304688e+00,2.354544639587402344e+00,2.308851957321166992e+00,2.264899015426635742e+00,2.222588062286376953e+00,2.181829214096069336e+00,2.142538070678710938e+00,2.104637145996093750e+00,2.068053722381591797e+00,2.032720565795898438e+00,1.998574495315551758e+00,1.965556621551513672e+00,1.933611869812011719e+00,1.902688741683959961e+00,1.872739315032958984e+00,1.843718051910400391e+00
5.000000000000000000e+00,5.000000000000000000e+00,5.000000000000000000e+00,5.000000000000000000e+00,5.000000000000000000e+00,5.000000000000000000e+00,5.000000000000000000e+00,5.000000000000000000e+00,5.000000000000000000e+00,5.000000000000000000e+00,5.000000000000000000e+00,5.000000000000000000e+00,5.000000000000000000e+00,5.000000000000000000e+00,5.000000000000000000e+00,5.000000000000000000e+00,5.000000000000000000e+00,5.000000000000000000e+00,5.000000000000000000e+00,5.000000000000000000e+00,5.000000000000000000e+00,5.000000000000000000e+00,5.000000000000000000e+00,5.000000000000000000e+00,5.000000000000000000e+00,5.000000000000000000e+00,5.000000000000000000e+00,5.000000000000000000e+00,5.000000000000000000e+00,5.000000000000000000e+00,2.410448551177978516e+00,2.401755571365356445e+00,2.441428184509277344e+00,5.000000000000000000e+00,5.000000000000000000e+00,5.000000000000000000e+00,5.000000000000000000e+00,5.000000000000000000e+00,5.000000000000000000e+00,5.000000000000000000e+00,5.000000000000000000e+00,5.000000000000000000e+00,4.321765899658203125e+00,4.170280456542968750e+00,4.029055118560791016e+00,3.897081851959228516e+00,3.773479700088500977e+00,3.657477378845214844e+00,3.548394203186035156e+00,3.445629358291625977e+00,3.348649501800537109e+00,3.256979227066040039e+00,3.170194149017333984e+00,3.087913990020751953e+00,3.009796857833862305e+00,2.935534715652465820e+00,2.864848852157592773e+00,2.797486782073974609e+00,2.733220100402832031e+00,2.671839952468872070e+00,2.613155841827392578e+00,2.556994438171386719e+00,2.503196001052856445e+00,2.451614856719970703e+00,2.402116537094116211e+00,2.354577541351318359e+00,2.308883428573608398e+00,2.264929294586181641e+00,2.222617149353027344e+00,2.181857109069824219e+00,2.142565250396728516e+00,2.104663372039794922e+00,2.068078994750976562e+00,2.032745122909545898e+00,1.998598098754882812e+00,1.965579390525817871e+00,1.933633923530578613e+00,1.902710080146789551e+00,1.872760057449340820e+00,1.843738079071044922e+00
5.000000000000000000e+00,5.000000000000000000e+00,5.000000000000000000e+00,5.000000000000000000e+00,5.000000000000000000e+00,5.000000000000000000e+00,5.000000000000000000e+00,5.000000000000000000e+00,5.000000000000000000e+00,5.000000000000000000e+00,5.000000000000000000e+00,5.000000000000000000e+00,5.000000000000000000e+00,5.000000000000000000e+00,5.000000000000000000e+00,5.000000000000000000e+00,5.000000000000000000e+00,5.000000000000000000e+00,5.000000000000000000e+00,5.000000000000000000e+00,5.000000000000000000e+00,5.000000000000000000e+00,5.000000000000000000e+00,5.000000000000000000e+00,5.000000000000000000e+00,5.000000000000000000e+00,5.000000000000000000e+00,5.000000000000000000e+00,5.000000000000000000e+00,5.000000000000000000e+00,2.462449789047241211e+00,2.419086694717407227e+00,2.489828348159790039e+00,5.000000000000000000e+00,5.000000000000000000e+00,5.000000000000000000e+00,5.000000000000000000e+00,5.000000000000000000e+00,5.000000000000000000e+00,5.000000000000000000e+00,5.000000000000000000e+00,4.484790325164794922e+00,4.321876049041748047e+00,4.170382976531982422e+00,4.029150962829589844e+00,3.897171497344970703e+00,3.773563861846923828e+00,3.657556295394897461e+00,3.548468589782714844e+00,3.445699453353881836e+00,3.348715543746948242e+00,3.257041931152343750e+00,3.170253515243530273e+00,3.087970256805419922e+00,3.009850502014160156e+00,2.935585498809814453e+00,2.864897251129150391e+00,2.797533035278320312e+00,2.733264207839965820e+00,2.671882152557373047e+00,2.613196134567260742e+00,2.557033061981201172e+00,2.503232955932617188e+00,2.451650381088256836e+00,2.402150630950927734e+00,2.354610204696655273e+00,2.308914899826049805e+00,2.264959573745727539e+00,2.222646474838256836e+00,2.181885242462158203e+00,2.142592191696166992e+00,2.104689359664916992e+00,2.068104267120361328e+00,2.032769441604614258e+00,1.998621702194213867e+00,1.965602159500122070e+00,1.933655977249145508e+00,1.902731537818908691e+00,1.872780799865722656e+00,1.843758106231689453e+00
5.000000000000000000e+00,5.000000000000000000e+00,5.000000000000000000e+00,5.000000000000000000e+00,5.000000000000000000e+00,5.000000000000000000e+00,5.000000000000000000e+00,5.000000000000000000e+00,5.000000000000000000e+00,5.000000000000000000e+00,5.000000000000000000e+00,5.000000000000000000e+00,5.000000000000000000e+00,5.000000000000000000e+00,5.000000000000000000e+00,5.000000000000000000e+00,5.000000000000000000e+00,5.000000000000000000e+00,5.000000000000000000e+00,5.000000000000000000e+00,5.000000000000000000e+00,5.000000000000000000e+00,5.000000000000000000e+00,5.000000000000000000e+00,5.000000000000000000e+00,5.000000000000000000e+00,5.000000000000000000e+00,5.000000000000000000e+00,5.000000000000000000e+00,5.000000000000000000e+00,2.498158454895019531e+00,2.474484443664550781e+00,2.436909914016723633e+00,2.485068798065185547e+00,5.000000000000000000e+00,5.000000000000000000e+00,5.000000000000000000e+00,5.000000000000000000e+00,5.000000000000000000e+00,5.000000000000000000e+00,4.660595417022705078e+00,4.484908580780029297e+00,4.321986198425292969e+00,4.170485973358154297e+00,4.029246807098388672e+00,3.897261142730712891e+00,3.773647785186767578e+00,3.657635211944580078e+00,3.548542976379394531e+00,3.445769548416137695e+00,3.348781824111938477e+00,3.257104396820068359e+00,3.170312643051147461e+00,3.088026523590087891e+00,3.009903907775878906e+00,2.935636520385742188e+00,2.864945650100708008e+00,2.797579288482666016e+00,2.733308315277099609e+00,2.671924114227294922e+00,2.613236427307128906e+00,2.557071447372436523e+00,2.503269910812377930e+00,2.451685905456542969e+00,2.402184724807739258e+00,2.354643106460571289e+00,2.308946371078491211e+00,2.264989852905273438e+00,2.222675800323486328e+00,2.181913614273071289e+00,2.142619609832763672e+00,2.104715824127197266e+00,2.068129539489746094e+00,2.032793760299682617e+00,1.998645186424255371e+00,1.965624928474426270e+00,1.933678030967712402e+00,1.902752876281738281e+00,1.872801423072814941e+00,1.843778252601623535e+00
5.000000000000000000e+00,5.000000000000000000e+00,5.000000000000000000e+00,5.000000000000000000e+00,5.000000000000000000e+00,5.000000000000000000e+00,5.000000000000000000e+00,5.000000000000000000e+00,5.000000000000000000e+00,5.000000000000000000e+00,5.000000000000000000e+00,5.000000000000000000e+00,5.000000000000000000e+00,5.000000000000000000e+00,5.000000000000000000e+00,5.000000000000000000e+00,5.000000000000000000e+00,5.000000000000000000e+00,5.000000000000000000e+00,5.000000000000000000e+00,5.000000000000000000e+00,5.000000000000000000e+00,5.000000000000000000e+00,5.000000000000000000e+00,5.000000000000000000e+00,5.000000000000000000e+00,2.452254295349121094e+00,2.451201438903808594e+00,2.452160596847534180e+00,2.423764705657958984e+00,2.413966894149780273e+00,2.417109727859497070e+00,2.425914287567138672e+00,2.429018974304199219e+00,2.460302352905273438e+00,2.462444067001342773e+00,2.471116304397583008e+00,5.000000000000000000e+00,5.000000000000000000e+00,4.850747108459472656e+00,4.660723686218261719e+00,4.485027790069580078e+00,4.322096824645996094e+00,4.170588493347167969e+00,4.029342651367187500e+00,3.897350788116455078e+00,3.773731946945190430e+00,3.657714128494262695e+00,3.548617124557495117e+00,3.445839643478393555e+00,3.348847866058349609e+00,3.257167100906372070e+00,3.170372009277343750e+00,3.088082790374755859e+00,3.009957313537597656e+00,2.935687303543090820e+00,2.864994049072265625e+00,2.797625541687011719e+00,2.733352422714233398e+00,2.671966314315795898e+00,2.613276958465576172e+00,2.557110071182250977e+00,2.503307104110717773e+00,2.451721429824829102e+00,2.402218818664550781e+00,2.354675769805908203e+00,2.308977842330932617e+00,2.265020132064819336e+00,2.222704887390136719e+00,2.181941747665405273e+00,2.142646551132202148e+00,2.104741811752319336e+00,2.068154811859130859e+00,2.032818317413330078e+00,1.998668789863586426e+00,1.965647816658020020e+00,1.933700084686279297e+00,1.902774214744567871e+00,1.872822165489196777e+00,1.843798279762268066e+00
5.000000000000000000e+00,5.000000000000000000e+00,5.000000000000000000e+00,5.000000000000000000e+00,5.000000000000000000e+00,5.000000000000000000e+00,5.000000000000000000e+00,5.000000000000000000e+00,5.000000000000000000e+00,5.000000000000000000e+00,5.000000000000000000e+00,5.000000000000000000e+00,5.000000000000000000e+00,5.000000000000000000e+00,5.000000000000000000e+00,5.000000000000000000e+00,5.000000000000000000e+00,5.000000000000000000e+00,5.000000000000000000e+00,5.000000000000000000e+00,5.000000000000000000e+00,5.000000000000000000e+00,5.000000000000000000e+00,5.000000000000000000e+00,5.000000000000000000e+00,5.000000000000000000e+00,2.429265260696411133e+00,2.415981054306030273e+00,2.401967763900756836e+00,2.393325090408325195e+00,2.386905193328857422e+00,2.387589454650878906e+00,2.388404846191406250e+00,2.397929668426513672e+00,2.427851438522338867e+00,2.465342044830322266e+00,2.466591358184814453e+00,5.000000000000000000e+00,5.000000000000000000e+00,4.850885868072509766e+00,4.660851955413818359e+00,4.485146522521972656e+00,4.322206974029541016e+00,4.170691490173339844e+00,4.029438495635986328e+00,3.897440910339355469e+00,3.773815870285034180e+00,3.657793045043945312e+00,3.548691511154174805e+00,3.445909738540649414e+00,3.348914146423339844e+00,3.257229566574096680e+00,3.170431375503540039e+00,3.088139057159423828e+00,3.010010719299316406e+00,2.935738086700439453e+00,2.865042448043823242e+00,2.797671556472778320e+00,2.733396530151367188e+00,2.672008514404296875e+00,2.613317251205444336e+00,2.557148694992065430e+00,2.503344058990478516e+00,2.451756715774536133e+00,2.402252912521362305e+00,2.354708433151245117e+00,2.309009313583374023e+00,2.265050411224365234e+00,2.222733974456787109e+00,2.181969642639160156e+00,2.142673730850219727e+00,2.104768037796020508e+00,2.068180084228515625e+00,2.032842636108398438e+00,1.998692393302917480e+00,1.965670824050903320e+00,1.933722138404846191e+00,1.902795791625976562e+00,1.872842907905578613e+00,1.843818306922912598e+00
5.000000000000000000e+00,5.000000000000000000e+00,5.000000000000000000e+00,5.000000000000000000e+00,5.000000000000000000e+00,5.000000000000000000e+00,5.000000000000000000e+00,5.000000000000000000e+00,5.000000000000000000e+00,5.000000000000000000e+00,5.000000000000000000e+00,5.000000000000000000e+00,5.000000000000000000e+00,5.000000000000000000e+00,5.000000000000000000e+00,5.000000000000000000e+00,5.000000000000000000e+00,5.000000000000000000e+00,5.000000000000000000e+00,5.000000000000000000e+00,5.000000000000000000e+00,5.000000000000000000e+00,5.000000000000000000e+00,5.000000000000000000e+00,5.000000000000000000e+00,2.486824274063110352e+00,2.443360090255737305e+00,2.423327684402465820e+00,2.384925603866577148e+00,2.369264841079711914e+00,2.371332168579101562e+00,2.370051860809326172e+00,2.376519203186035156e+00,2.393265485763549805e+00,2.426361799240112305e+00,2.475404024124145508e+00,2.481265306472778320e+00,2.522842168807983398e+00,5.000000000000000000e+00,4.851024627685546875e+00,4.660980224609375000e+00,4.485265254974365234e+00,4.322317123413085938e+00,4.170794010162353516e+00,4.029534339904785156e+00,3.897530555725097656e+00,3.773900508880615234e+00,3.657872438430786133e+00,3.548766136169433594e+00,3.445980072021484375e+00,3.348980188369750977e+00,3.257292270660400391e+00,3.170490741729736328e+00,3.088195323944091797e+00,3.010064363479614258e+00,2.935788869857788086e+00,2.865090847015380859e+00,2.797717809677124023e+00,2.733440637588500977e+00,2.672050476074218750e+00,2.613357543945312500e+00,2.557187318801879883e+00,2.503381013870239258e+00,2.451792240142822266e+00,2.402286767959594727e+00,2.354741096496582031e+00,2.309040784835815430e+00,2.265080690383911133e+00,2.222763061523437500e+00,2.181997776031494141e+00,2.142700672149658203e+00,2.104794263839721680e+00,2.068205356597900391e+00,2.032867193222045898e+00,1.998715996742248535e+00,1.965693593025207520e+00,1.933744192123413086e+00,1.902817130088806152e+00,1.872863531112670898e+00,1.843838572502136230e+00
5.000000000000000000e+00,5.000000000000000000e+00,5.000000000000000000e+00,5.000000000000000000e+00,5.000000000000000000e+00,5.000000000000000000e+00,5.000000000000000000e+00,5.000000000000000000e+00,5.000000000000000000e+00,5.000000000000000000e+00,5.000000000000000000e+00,5.000000000000000000e+00,5.000000000000000000e+00,5.000000000000000000e+00,5.000000000000000000e+00,5.000000000000000000e+00,5.000000000000000000e+00,5.000000000000000000e+00,5.000000000000000000e+00,5.000000000000000000e+00,5.000000000000000000e+00,5.000000000000000000e+00,5.000000000000000000e+00,5.000000000000000000e+00,5.000000000000000000e+00,5.000000000000000000e+00,2.455992698669433594e+00,2.445276498794555664e+00,2.387988567352294922e+00,2.374699115753173828e+00,2.365261077880859375e+00,2.371677637100219727e+00,2.372976064682006836e+00,2.396706104278564453e+00,2.427132129669189453e+00,2.489993810653686523e+00,2.484003543853759766e+00,2.538947105407714844e+00,5.000000000000000000e+00,4.851163387298583984e+00,4.661108493804931641e+00,4.485383987426757812e+00,4.322427272796630859e+00,4.170896530151367188e+00,4.029630184173583984e+00,3.897620201110839844e+00,3.773984432220458984e+00,3.657951354980468750e+00,3.548840522766113281e+00,3.446050167083740234e+00,3.349046707153320312e+00,3.257355213165283203e+00,3.170550346374511719e+00,3.088251590728759766e+00,3.010117769241333008e+00,2.935839891433715820e+00,2.865139484405517578e+00,2.797764062881469727e+00,2.733484745025634766e+00,2.672092676162719727e+00,2.613397836685180664e+00,2.557225942611694336e+00,2.503417968750000000e+00,2.451827764511108398e+00,2.402320861816406250e+00,2.354773998260498047e+00,2.309072256088256836e+00,2.265110969543457031e+00,2.222792387008666992e+00,2.182025909423828125e+00,2.142727851867675781e+00,2.104820251464843750e+00,2.068230628967285156e+00,2.032891511917114258e+00,1.998739480972290039e+00,1.965716361999511719e+00,1.933766245841979980e+00,1.902838468551635742e+00,1.872884273529052734e+00,1.843858718872070312e+00
5.000000000000000000e+00,5.000000000000000000e+00,5.000000000000000000e+00,5.000000000000000000e+00,5.000000000000000000e+00,5.000000000000000000e+00,5.000000000000000000e+00,5.000000000000000000e+00,5.000000000000000000e+00,5.000000000000000000e+00,5.000000000000000000e+00,5.000000000000000000e+00,5.000000000000000000e+00,5.000000000000000000e+00,5.000000000000000000e+00,5.000000000000000000e+00,5.000000000000000000e+00,5.000000000000000000e+00,5.000000000000000000e+00,5.000000000000000000e+00,5.000000000000000000e+00,5.000000000000000000e+00,5.000000000000000000e+00,5.000000000000000000e+00,5.000000000000000000e+00,5.000000000000000000e+00,2.468317508697509766e+00,2.460614919662475586e+00,2.403518676757812500e+00,2.374749183654785156e+00,2.359738111495971680e+00,2.364677667617797852e+00,2.376441955566406250e+00,2.404232978820800781e+00,2.432678222656250000e+00,2.488831043243408203e+00,2.487449169158935547e+00,2.525413990020751953e+00,5.000000000000000000e+00,4.851302623748779297e+00,4.661236763000488281e+00,4.485502719879150391e+00,4.322537422180175781e+00,4.170999526977539062e+00,4.029726028442382812e+00,3.897709846496582031e+00,3.774068593978881836e+00,3.658030509948730469e+00,3.548914909362792969e+00,3.446120262145996094e+00,3.349112987518310547e+00,3.257417917251586914e+00,3.170609712600708008e+00,3.088308334350585938e+00,3.010171413421630859e+00,2.935890913009643555e+00,2.865187883377075195e+00,2.797810077667236328e+00,2.733528852462768555e+00,2.672134876251220703e+00,2.613438129425048828e+00,2.557264566421508789e+00,2.503454923629760742e+00,2.451863288879394531e+00,2.402354955673217773e+00,2.354806661605834961e+00,2.309103727340698242e+00,2.265141248703002930e+00,2.222821474075317383e+00,2.182054042816162109e+00,2.142755031585693359e+00,2.104846477508544922e+00,2.068255901336669922e+00,2.032915830612182617e+00,1.998763084411621094e+00,1.965739250183105469e+00,1.933788299560546875e+00,1.902859926223754883e+00,1.872904896736145020e+00,1.843878746032714844e+00
5.000000000000000000e+00,5.000000000000000000e+00,5.000000000000000000e+00,5.000000000000000000e+00,5.000000000000000000e+00,5.000000000000000000e+00,5.000000000000000000e+00,5.000000000000000000e+00,5.000000000000000000e+00,5.000000000000000000e+00,5.000000000000000000e+00,5.000000000000000000e+00,5.000000000000000000e+00,5.000000000000000000e+00,5.000000000000000000e+00,5.000000000000000000e+00,5.000000000000000000e+00,5.000000000000000000e+00,5.000000000000000000e+00,5.000000000000000000e+00,5.000000000000000000e+00,5.000000000000000000e+00,5.000000000000000000e+00,5.000000000000000000e+00,5.000000000000000000e+00,5.000000000000000000e+00,2.478982210159301758e+00,2.458465337753295898e+00,2.402739286422729492e+00,2.371243715286254883e+00,2.361855506896972656e+00,2.364788293838500977e+00,2.374403715133666992e+00,2.398349523544311523e+00,2.441069126129150391e+00,2.487450361251831055e+00,2.488721609115600586e+00,2.515132665634155273e+00,5.000000000000000000e+00,4.851441383361816406e+00,4.661365032196044922e+00,4.485621452331542969e+00,4.322648048400878906e+00,4.171102046966552734e+00,4.029821872711181641e+00,3.897799491882324219e+00,3.774152517318725586e+00,3.658109426498413086e+00,3.548989057540893555e+00,3.446190357208251953e+00,3.349179267883300781e+00,3.257480382919311523e+00,3.170668840408325195e+00,3.088364601135253906e+00,3.010224819183349609e+00,2.935941934585571289e+00,2.865236520767211914e+00,2.797856807708740234e+00,2.733572959899902344e+00,2.672177076339721680e+00,2.613478422164916992e+00,2.557303190231323242e+00,2.503491878509521484e+00,2.451898574829101562e+00,2.402389049530029297e+00,2.354839324951171875e+00,2.309135198593139648e+00,2.265171527862548828e+00,2.222850561141967773e+00,2.182082176208496094e+00,2.142781972885131836e+00,2.104872703552246094e+00,2.068281173706054688e+00,2.032940149307250977e+00,1.998786687850952148e+00,1.965762019157409668e+00,1.933810353279113770e+00,1.902881264686584473e+00,1.872925639152526855e+00,1.843898773193359375e+00
5.000000000000000000e+00,5.000000000000000000e+00,5.000000000000000000e+00,5.000000000000000000e+00,5.000000000000000000e+00,5.000000000000000000e+00,5.000000000000000000e+00,5.000000000000000000e+00,5.000000000000000000e+00,5.000000000000000000e+00,5.000000000000000000e+00,5.000000000000000000e+00,5.000000000000000000e+00,5.000000000000000000e+00,5.000000000000000000e+00,5.000000000000000000e+00,5.000000000000000000e+00,5.000000000000000000e+00,5.000000000000000000e+00,5.000000000000000000e+00,5.000000000000000000e+00,5.000000000000000000e+00,5.000000000000000000e+00,5.000000000000000000e+00,5.000000000000000000e+00,5.000000000000000000e+00,2.491087198257446289e+00,2.457305431365966797e+00,2.413985013961791992e+00,2.369373321533203125e+00,2.364940643310546875e+00,2.367176294326782227e+00,2.378836631774902344e+00,2.402557373046875000e+00,2.458405256271362305e+00,2.502907037734985352e+00,2.491388797760009766e+00,2.517201423645019531e+00,5.000000000000000000e+00,4.851580619812011719e+00,4.661493301391601562e+00,4.485740184783935547e+00,4.322758674621582031e+00,4.171205043792724609e+00,4.029918193817138672e+00,3.897889137268066406e+00,3.774236679077148438e+00,3.658188343048095703e+00,3.549063444137573242e+00,3.446260452270507812e+00,3.349245309829711914e+00,3.257543087005615234e+00,3.170728206634521484e+00,3.088420867919921875e+00,3.010278463363647461e+00,2.935992717742919922e+00,2.865284919738769531e+00,2.797902822494506836e+00,2.733617067337036133e+00,2.672219276428222656e+00,2.613518953323364258e+00,2.557341814041137695e+00,2.503529071807861328e+00,2.451934099197387695e+00,2.402423143386840820e+00,2.354871988296508789e+00,2.309166669845581055e+00,2.265201807022094727e+00,2.222879886627197266e+00,2.182110309600830078e+00,2.142809152603149414e+00,2.104898691177368164e+00,2.068306207656860352e+00,2.032964706420898438e+00,1.998810291290283203e+00,1.965784788131713867e+00,1.933832526206970215e+00,1.902902603149414062e+00,1.872946381568908691e+00,1.843918800354003906e+00
5.000000000000000000e+00,5.000000000000000000e+00,5.000000000000000000e+00,5.000000000000000000e+00,5.000000000000000000e+00,5.000000000000000000e+00,5.000000000000000000e+00,5.000000000000000000e+00,5.000000000000000000e+00,5.000000000000000000e+00,5.000000000000000000e+00,5.000000000000000000e+00,5.000000000000000000e+00,5.000000000000000000e+00,5.000000000000000000e+00,5.000000000000000000e+00,5.000000000000000000e+00,5.000000000000000000e+00,5.000000000000000000e+00,5.000000000000000000e+00,5.000000000000000000e+00,5.000000000000000000e+00,5.000000000000000000e+00,5.000000000000000000e+00,5.000000000000000000e+00,5.000000000000000000e+00,2.506109714508056641e+00,2.469585895538330078e+00,2.387176513671875000e+00,2.355631351470947266e+00,2.354747295379638672e+00,2.366064786911010742e+00,2.369847774505615234e+00,2.392804861068725586e+00,2.468253612518310547e+00,2.520530700683593750e+00,2.500516176223754883e+00,2.522487401962280273e+00,5.000000000000000000e+00,4.851719379425048828e+00,4.661621570587158203e+00,4.485858917236328125e+00,4.322868824005126953e+00,4.171307563781738281e+00,4.030014038085937500e+00,3.897978782653808594e+00,3.774320602416992188e+00,3.658267259597778320e+00,3.549137830734252930e+00,3.446330547332763672e+00,3.349311590194702148e+00,3.257605552673339844e+00,3.170787572860717773e+00,3.088477134704589844e+00,3.010331869125366211e+00,2.936043500900268555e+00,2.865333318710327148e+00,2.797949075698852539e+00,2.733661174774169922e+00,2.672261476516723633e+00,2.613559246063232422e+00,2.557380437850952148e+00,2.503566026687622070e+00,2.451969861984252930e+00,2.402457237243652344e+00,2.354904890060424805e+00,2.309198141098022461e+00,2.265232086181640625e+00,2.222908973693847656e+00,2.182138204574584961e+00,2.142836332321166992e+00,2.104924917221069336e+00,2.068331480026245117e+00,2.032989025115966797e+00,1.998833775520324707e+00,1.965807557106018066e+00,1.933854579925537109e+00,1.902923941612243652e+00,1.872967004776000977e+00,1.843938946723937988e+00
5.000000000000000000e+00,5.000000000000000000e+00,5.000000000000000000e+00,5.000000000000000000e+00,5.000000000000000000e+00,5.000000000000000000e+00,5.000000000000000000e+00,5.000000000000000000e+00,5.000000000000000000e+00,5.000000000000000000e+00,5.000000000000000000e+00,5.000000000000000000e+00,5.000000000000000000e+00,5.000000000000000000e+00,5.000000000000000000e+00,5.000000000000000000e+00,5.000000000000000000e+00,5.000000000000000000e+00,5.000000000000000000e+00,5.000000000000000000e+00,5.000000000000000000e+00,5.000000000000000000e+00,5.000000000000000000e+00,5.000000000000000000e+00,5.000000000000000000e+00,5.000000000000000000e+00,2.523524522781372070e+00,2.484328985214233398e+00,2.379676342010498047e+00,2.373195409774780273e+00,2.351120948791503906e+00,2.355761289596557617e+00,2.365519523620605469e+00,2.385636329650878906e+00,2.449543237686157227e+00,2.534899234771728516e+00,2.502933979034423828e+00,2.518573284149169922e+00,5.000000000000000000e+00,4.851858139038085938e+00,4.661749839782714844e+00,4.485977649688720703e+00,4.322978973388671875e+00,4.171410083770751953e+00,4.030109882354736328e+00,3.898068428039550781e+00,3.774404764175415039e+00,3.658346176147460938e+00,3.549212217330932617e+00,3.446400642395019531e+00,3.349377870559692383e+00,3.257668256759643555e+00,3.170846939086914062e+00,3.088533401489257812e+00,3.010385274887084961e+00,2.936094522476196289e+00,2.865381717681884766e+00,2.797995328903198242e+00,2.733705282211303711e+00,2.672303676605224609e+00,2.613599538803100586e+00,2.557419061660766602e+00,2.503602981567382812e+00,2.452005386352539062e+00,2.402491331100463867e+00,2.354937791824340820e+00,2.309229850769042969e+00,2.265262603759765625e+00,2.222938299179077148e+00,2.182166337966918945e+00,2.142863273620605469e+00,2.104951143264770508e+00,2.068356752395629883e+00,2.033013343811035156e+00,1.998857378959655762e+00,1.965830445289611816e+00,1.933876633644104004e+00,1.902945399284362793e+00,1.872987747192382812e+00,1.843958973884582520e+00
5.000000000000000000e+00,5.000000000000000000e+00,5.000000000000000000e+00,5.000000000000000000e+00,5.000000000000000000e+00,5.000000000000000000e+00,5.000000000000000000e+00,5.000000000000000000e+00,5.000000000000000000e+00,5.000000000000000000e+00,5.000000000000000000e+00,5.000000000000000000e+00,5.000000000000000000e+00,5.000000000000000000e+00,5.000000000000000000e+00,5.000000000000000000e+00,5.000000000000000000e+00,5.000000000000000000e+00,5.000000000000000000e+00,5.000000000000000000e+00,5.000000000000000000e+00,5.000000000000000000e+00,5.000000000000000000e+00,5.000000000000000000e+00,5.000000000000000000e+00,5.000000000000000000e+00,5.000000000000000000e+00,2.488707780838012695e+00,2.386589527130126953e+00,2.365554332733154297e+00,2.363114833831787109e+00,2.363273143768310547e+00,2.378490924835205078e+00,2.403265476226806641e+00,2.463634729385375977e+00,5.000000000000000000e+00,2.479253053665161133e+00,2.488743782043457031e+00,5.000000000000000000e+00,4.851997375488281250e+00,4.661878585815429688e+00,4.486096858978271484e+00,4.323089122772216797e+00,4.171513080596923828e+00,4.030205726623535156e+00,3.898158073425292969e+00,3.774488687515258789e+00,3.658425331115722656e+00,3.549286365509033203e+00,3.446470737457275391e+00,3.349443912506103516e+00,3.257730960845947266e+00,3.170906305313110352e+00,3.088589668273925781e+00,3.010438919067382812e+00,2.936145305633544922e+00,2.865430355072021484e+00,2.798041582107543945e+00,2.733749389648437500e+00,2.672345638275146484e+00,2.613639831542968750e+00,2.557457685470581055e+00,2.503639936447143555e+00,2.452040672302246094e+00,2.402525424957275391e+00,2.354970455169677734e+00,2.309261322021484375e+00,2.265292882919311523e+00,2.222967386245727539e+00,2.182194709777832031e+00,2.142890691757202148e+00,2.104977369308471680e+00,2.068382263183593750e+00,2.033037900924682617e+00,1.998880982398986816e+00,1.965853214263916016e+00,1.933898687362670898e+00,1.902966737747192383e+00,1.873008489608764648e+00,1.843979001045227051e+00
5.000000000000000000e+00,5.000000000000000000e+00,5.000000000000000000e+00,5.000000000000000000e+00,5.000000000000000000e+00,5.000000000000000000e+00,5.000000000000000000e+00,5.000000000000000000e+00,5.000000000000000000e+00,5.000000000000000000e+00,5.000000000000000000e+00,5.000000000000000000e+00,5.000000000000000000e+00,5.000000000000000000e+00,5.000000000000000000e+00,5.000000000000000000e+00,5.000000000000000000e+00,5.000000000000000000e+00,5.000000000000000000e+00,5.000000000000000000e+00,5.000000000000000000e+00,5.000000000000000000e+00,5.000000000000000000e+00,5.000000000000000000e+00,5.000000000000000000e+00,5.000000000000000000e+00,2.507484674453735352e+00,2.470474720001220703e+00,2.381304979324340820e+00,2.374613523483276367e+00,2.375133991241455078e+00,2.376188278198242188e+00,2.385217666625976562e+00,2.404428243637084961e+00,2.442627429962158203e+00,5.000000000000000000e+00,2.460178136825561523e+00,2.468915939331054688e+00,5.000000000000000000e+00,4.852136611938476562e+00,4.662006855010986328e+00,4.486215591430664062e+00,4.323199748992919922e+00,4.171616077423095703e+00,4.030301570892333984e+00,3.898247718811035156e+00,3.774572849273681641e+00,3.658504247665405273e+00,3.549360752105712891e+00,3.446540832519531250e+00,3.349510192871093750e+00,3.257793426513671875e+00,3.170965671539306641e+00,3.088645935058593750e+00,3.010492324829101562e+00,2.936196088790893555e+00,2.865478754043579102e+00,2.798087596893310547e+00,2.733793497085571289e+00,2.672387838363647461e+00,2.613680124282836914e+00,2.557496309280395508e+00,2.503676891326904297e+00,2.452076196670532227e+00,2.402559518814086914e+00,2.355003118515014648e+00,2.309292793273925781e+00,2.265323162078857422e+00,2.222996473312377930e+00,2.182222843170166016e+00,2.142917633056640625e+00,2.105003356933593750e+00,2.068407297134399414e+00,2.033062219619750977e+00,1.998904824256896973e+00,1.965875983238220215e+00,1.933920741081237793e+00,1.902988076210021973e+00,1.873029112815856934e+00,1.843999147415161133e+00
5.000000000000000000e+00,5.000000000000000000e+00,5.000000000000000000e+00,5.000000000000000000e+00,5.000000000000000000e+00,5.000000000000000000e+00,5.000000000000000000e+00,5.000000000000000000e+00,5.000000000000000000e+00,5.000000000000000000e+00,5.000000000000000000e+00,5.000000000000000000e+00,5.000000000000000000e+00,5.000000000000000000e+00,5.000000000000000000e+00,5.000000000000000000e+00,5.000000000000000000e+00,5.000000000000000000e+00,5.000000000000000000e+00,5.000000000000000000e+00,5.000000000000000000e+00,5.000000000000000000e+00,5.000000000000000000e+00,5.000000000000000000e+00,5.000000000000000000e+00,5.000000000000000000e+00,2.481840133666992188e+00,2.435861110687255859e+00,2.366156578063964844e+00,2.363207578659057617e+00,2.398602008819580078e+00,2.390525102615356445e+00,2.397235870361328125e+00,2.393319368362426758e+00,2.423990011215209961e+00,5.000000000000000000e+00,2.448340177536010742e+00,2.442180156707763672e+00,5.000000000000000000e+00,4.852275371551513672e+00,4.662135124206542969e+00,4.486334323883056641e+00,4.323310375213623047e+00,4.171718597412109375e+00,4.030397415161132812e+00,3.898337841033935547e+00,3.774657249450683594e+00,3.658583164215087891e+00,3.549435138702392578e+00,3.446610927581787109e+00,3.349576473236083984e+00,3.257856130599975586e+00,3.171025037765502930e+00,3.088702201843261719e+00,3.010545730590820312e+00,2.936247110366821289e+00,2.865527153015136719e+00,2.798133850097656250e+00,2.733837604522705078e+00,2.672430038452148438e+00,2.613720417022705078e+00,2.557534933090209961e+00,2.503714084625244141e+00,2.452111721038818359e+00,2.402593612670898438e+00,2.355035781860351562e+00,2.309324264526367188e+00,2.265353441238403320e+00,2.223025798797607422e+00,2.182250738143920898e+00,2.142944812774658203e+00,2.105029582977294922e+00,2.068432569503784180e+00,2.033086776733398438e+00,1.998928427696228027e+00,1.965898871421813965e+00,1.933943033218383789e+00,1.903009414672851562e+00,1.873050093650817871e+00,1.844019174575805664e+00
5.000000000000000000e+00,5.000000000000000000e+00,5.000000000000000000e+00,5.000000000000000000e+00,5.000000000000000000e+00,5.000000000000000000e+00,5.000000000000000000e+00,5.000000000000000000e+00,5.000000000000000000e+00,5.000000000000000000e+00,5.000000000000000000e+00,5.000000000000000000e+00,5.000000000000000000e+00,5.000000000000000000e+00,5.000000000000000000e+00,5.000000000000000000e+00,5.000000000000000000e+00,5.000000000000000000e+00,5.000000000000000000e+00,5.000000000000000000e+00,5.000000000000000000e+00,5.000000000000000000e+00,5.000000000000000000e+00,5.000000000000000000e+00,5.000000000000000000e+00,5.000000000000000000e+00,2.456270694732666016e+00,2.402025938034057617e+00,2.347789525985717773e+00,2.334994554519653320e+00,2.369066953659057617e+00,2.417358636856079102e+00,2.378443241119384766e+00,2.367112636566162109e+00,2.395909786224365234e+00,5.000000000000000000e+00,5.000000000000000000e+00,2.434559583663940430e+00,5.000000000000000000e+00,4.852414131164550781e+00,4.662263393402099609e+00,4.486453056335449219e+00,4.323420524597167969e+00,4.171821117401123047e+00,4.030493259429931641e+00,3.898427486419677734e+00,3.774741411209106445e+00,3.658662557601928711e+00,3.549509763717651367e+00,3.446681261062622070e+00,3.349642992019653320e+00,3.257918834686279297e+00,3.171084165573120117e+00,3.088758468627929688e+00,3.010599374771118164e+00,2.936297893524169922e+00,2.865575551986694336e+00,2.798180103302001953e+00,2.733881711959838867e+00,2.672472238540649414e+00,2.613760709762573242e+00,2.557573556900024414e+00,2.503751039505004883e+00,2.452147245407104492e+00,2.402627706527709961e+00,2.355068683624267578e+00,2.309355735778808594e+00,2.265383720397949219e+00,2.223054885864257812e+00,2.182278871536254883e+00,2.142971754074096680e+00,2.105055809020996094e+00,2.068457841873168945e+00,2.033111095428466797e+00,1.998951911926269531e+00,1.965921640396118164e+00,1.933965086936950684e+00,1.903030872344970703e+00,1.873070716857910156e+00,1.844039201736450195e+00
5.000000000000000000e+00,5.000000000000000000e+00,5.000000000000000000e+00,5.000000000000000000e+00,5.000000000000000000e+00,5.000000000000000000e+00,5.000000000000000000e+00,5.000000000000000000e+00,5.000000000000000000e+00,5.000000000000000000e+00,5.000000000000000000e+00,5.000000000000000000e+00,5.000000000000000000e+00,5.000000000000000000e+00,5.000000000000000000e+00,5.000000000000000000e+00,5.000000000000000000e+00,5.000000000000000000e+00,5.000000000000000000e+00,5.000000000000000000e+00,5.000000000000000000e+00,5.000000000000000000e+00,5.000000000000000000e+00,5.000000000000000000e+00,5.000000000000000000e+00,5.000000000000000000e+00,2.442899227142333984e+00,2.395964860916137695e+00,2.341763973236083984e+00,2.325898408889770508e+00,2.353634119033813477e+00,2.407661437988281250e+00,2.362422227859497070e+00,2.353715181350708008e+00,2.385273218154907227e+00,5.000000000000000000e+00,2.395727872848510742e+00,2.397757291793823242e+00,5.000000000000000000e+00,4.852553367614746094e+00,4.662391662597656250e+00,4.486571788787841797e+00,4.323530673980712891e+00,4.171924114227294922e+00,4.030589103698730469e+00,3.898517131805419922e+00,3.774825572967529297e+00,3.658741474151611328e+00,3.549584150314331055e+00,3.446751356124877930e+00,3.349709033966064453e+00,3.257981777191162109e+00,3.171144008636474609e+00,3.088815212249755859e+00,3.010652780532836914e+00,2.936348676681518555e+00,2.865624189376831055e+00,2.798226356506347656e+00,2.733925819396972656e+00,2.672514200210571289e+00,2.613801002502441406e+00,2.557611942291259766e+00,2.503787994384765625e+00,2.452182769775390625e+00,2.402661561965942383e+00,2.355101346969604492e+00,2.309387207031250000e+00,2.265413999557495117e+00,2.223083972930908203e+00,2.182307004928588867e+00,2.142998933792114258e+00,2.105081796646118164e+00,2.068483114242553711e+00,2.033135414123535156e+00,1.998975515365600586e+00,1.965944409370422363e+00,1.933987140655517578e+00,1.903052210807800293e+00,1.873091459274291992e+00,1.844059348106384277e+00
5.000000000000000000e+00,5.000000000000000000e+00,5.000000000000000000e+00,5.000000000000000000e+00,5.000000000000000000e+00,5.000000000000000000e+00,5.000000000000000000e+00,5.000000000000000000e+00,5.000000000000000000e+00,5.000000000000000000e+00,5.000000000000000000e+00,5.000000000000000000e+00,5.000000000000000000e+00,5.000000000000000000e+00,5.000000000000000000e+00,5.000000000000000000e+00,5.000000000000000000e+00,5.000000000000000000e+00,5.000000000000000000e+00,5.000000000000000000e+00,5.000000000000000000e+00,5.000000000000000000e+00,5.000000000000000000e+00,5.000000000000000000e+00,5.000000000000000000e+00,5.000000000000000000e+00,2.450903415679931641e+00,2.407445669174194336e+00,2.339382410049438477e+00,2.323616504669189453e+00,2.348677158355712891e+00,2.411438941955566406e+00,2.357960224151611328e+00,2.346624374389648438e+00,2.378246784210205078e+00,5.000000000000000000e+00,2.371624231338500977e+00,2.372047901153564453e+00,5.000000000000000000e+00,4.852692604064941406e+00,4.662519931793212891e+00,4.486690998077392578e+00,4.323640823364257812e+00,4.172026634216308594e+00,4.030684947967529297e+00,3.898606777191162109e+00,3.774909496307373047e+00,3.658820629119873047e+00,3.549658536911010742e+00,3.446821451187133789e+00,3.349775314331054688e+00,3.258044242858886719e+00,3.171203136444091797e+00,3.088871479034423828e+00,3.010706424713134766e+00,2.936399936676025391e+00,2.865672826766967773e+00,2.798272609710693359e+00,2.733969926834106445e+00,2.672556400299072266e+00,2.613841295242309570e+00,2.557650566101074219e+00,2.503824949264526367e+00,2.452218294143676758e+00,2.402695655822753906e+00,2.355134010314941406e+00,2.309418678283691406e+00,2.265444278717041016e+00,2.223113298416137695e+00,2.182335138320922852e+00,2.143026113510131836e+00,2.105108022689819336e+00,2.068508386611938477e+00,2.033159971237182617e+00,1.998999118804931641e+00,1.965967178344726562e+00,1.934009313583374023e+00,1.903073549270629883e+00,1.873112201690673828e+00,1.844079375267028809e+00
5.000000000000000000e+00,5.000000000000000000e+00,5.000000000000000000e+00,5.000000000000000000e+00,5.000000000000000000e+00,5.000000000000000000e+00,5.000000000000000000e+00,5.000000000000000000e+00,5.000000000000000000e+00,5.000000000000000000e+00,5.000000000000000000e+00,5.000000000000000000e+00,5.000000000000000000e+00,5.000000000000000000e+00,5.000000000000000000e+00,5.000000000000000000e+00,5.000000000000000000e+00,5.000000000000000000e+00,5.000000000000000000e+00,5.000000000000000000e+00,5.000000000000000000e+00,5.000000000000000000e+00,5.000000000000000000e+00,5.000000000000000000e+00,5.000000000000000000e+00,5.000000000000000000e+00,2.420372247695922852e+00,2.417190313339233398e+00,2.338161945343017578e+00,2.321354627609252930e+00,2.344087123870849609e+00,2.418711423873901367e+00,2.355429887771606445e+00,2.341921806335449219e+00,2.372949838638305664e+00,5.000000000000000000e+00,5.000000000000000000e+00,2.346491336822509766e+00,5.000000000000000000e+00,4.852831363677978516e+00,4.662648200988769531e+00,4.486809730529785156e+00,4.323751449584960938e+00,4.172129631042480469e+00,4.030781269073486328e+00,3.898696660995483398e+00,3.774993658065795898e+00,3.658899545669555664e+00,3.549732923507690430e+00,3.446891546249389648e+00,3.349841594696044922e+00,3.258106946945190430e+00,3.171262502670288086e+00,3.088927745819091797e+00,3.010760068893432617e+00,2.936450719833374023e+00,2.865721225738525391e+00,2.798318862915039062e+00,2.734014272689819336e+00,2.672598838806152344e+00,2.613881826400756836e+00,2.557689189910888672e+00,2.503861904144287109e+00,2.452253580093383789e+00,2.402729749679565430e+00,2.355166673660278320e+00,2.309450149536132812e+00,2.265474557876586914e+00,2.223142385482788086e+00,2.182363271713256836e+00,2.143053054809570312e+00,2.105134248733520508e+00,2.068533658981323242e+00,2.033184289932250977e+00,1.999022722244262695e+00,1.965990066528320312e+00,1.934031367301940918e+00,1.903095006942749023e+00,1.873132824897766113e+00,1.844099402427673340e+00
5.000000000000000000e+00,5.000000000000000000e+00,5.000000000000000000e+00,5.000000000000000000e+00,5.000000000000000000e+00,5.000000000000000000e+00,5.000000000000000000e+00,5.000000000000000000e+00,5.000000000000000000e+00,5.000000000000000000e+00,5.000000000000000000e+00,5.000000000000000000e+00,5.000000000000000000e+00,5.000000000000000000e+00,5.000000000000000000e+00,5.000000000000000000e+00,5.000000000000000000e+00,5.000000000000000000e+00,5.000000000000000000e+00,5.000000000000000000e+00,5.000000000000000000e+00,5.000000000000000000e+00,5.000000000000000000e+00,5.000000000000000000e+00,5.000000000000000000e+00,5.000000000000000000e+00,2.409300327301025391e+00,2.408360481262207031e+00,2.337728500366210938e+00,2.319412946701049805e+00,2.338395595550537109e+00,2.417850494384765625e+00,2.350643396377563477e+00,2.340114116668701172e+00,2.369123458862304688e+00,5.000000000000000000e+00,5.000000000000000000e+00,5.000000000000000000e+00,5.000000000000000000e+00,4.852970600128173828e+00,4.662776470184326172e+00,4.486928462982177734e+00,4.323862075805664062e+00,4.172232151031494141e+00,4.030877113342285156e+00,3.898786306381225586e+00,3.775077819824218750e+00,3.658978462219238281e+00,3.549807310104370117e+00,3.446961641311645508e+00,3.349907875061035156e+00,3.258169651031494141e+00,3.171321868896484375e+00,3.088984012603759766e+00,3.010813474655151367e+00,2.936501741409301758e+00,2.865769624710083008e+00,2.798365116119384766e+00,2.734058380126953125e+00,2.672641038894653320e+00,2.613922119140625000e+00,2.557728052139282227e+00,2.503899097442626953e+00,2.452289342880249023e+00,2.402763843536376953e+00,2.355199575424194336e+00,2.309481620788574219e+00,2.265504837036132812e+00,2.223171472549438477e+00,2.182391405105590820e+00,2.143080234527587891e+00,2.105160236358642578e+00,2.068558931350708008e+00,2.033208608627319336e+00,1.999046325683593750e+00,1.966012835502624512e+00,1.934053421020507812e+00,1.903116345405578613e+00,1.873153567314147949e+00,1.844119548797607422e+00
5.000000000000000000e+00,5.000000000000000000e+00,5.000000000000000000e+00,5.000000000000000000e+00,5.000000000000000000e+00,5.000000000000000000e+00,5.000000000000000000e+00,5.000000000000000000e+00,5.000000000000000000e+00,5.000000000000000000e+00,5.000000000000000000e+00,5.000000000000000000e+00,5.000000000000000000e+00,5.000000000000000000e+00,5.000000000000000000e+00,5.000000000000000000e+00,5.000000000000000000e+00,5.000000000000000000e+00,5.000000000000000000e+00,5.000000000000000000e+00,5.000000000000000000e+00,5.000000000000000000e+00,5.000000000000000000e+00,5.000000000000000000e+00,5.000000000000000000e+00,5.000000000000000000e+00,2.487699270248413086e+00,5.000000000000000000e+00,2.333811521530151367e+00,2.313618898391723633e+00,2.333007812500000000e+00,2.403646707534790039e+00,2.347290039062500000e+00,2.337648868560791016e+00,2.362483978271484375e+00,5.000000000000000000e+00,5.000000000000000000e+00,5.000000000000000000e+00,5.000000000000000000e+00,4.853109359741210938e+00,4.662904739379882812e+00,4.487047672271728516e+00,4.323972225189208984e+00,4.172335147857666016e+00,4.030972957611083984e+00,3.898875951766967773e+00,3.775161981582641602e+00,3.659057617187500000e+00,3.549881696701049805e+00,3.447031736373901367e+00,3.349973917007446289e+00,3.258232355117797852e+00,3.171381235122680664e+00,3.089040279388427734e+00,3.010866880416870117e+00,2.936552524566650391e+00,2.865818262100219727e+00,2.798411369323730469e+00,2.734102487564086914e+00,2.672683000564575195e+00,2.613962411880493164e+00,2.557766675949096680e+00,2.503936052322387695e+00,2.452324867248535156e+00,2.402798175811767578e+00,2.355232477188110352e+00,2.309513092041015625e+00,2.265535116195678711e+00,2.223200798034667969e+00,2.182419538497924805e+00,2.143107414245605469e+00,2.105186462402343750e+00,2.068584203720092773e+00,2.033233165740966797e+00,1.999069809913635254e+00,1.966035604476928711e+00,1.934075474739074707e+00,1.903137683868408203e+00,1.873174309730529785e+00,1.844139575958251953e+00
5.000000000000000000e+00,5.000000000000000000e+00,5.000000000000000000e+00,5.000000000000000000e+00,5.000000000000000000e+00,5.000000000000000000e+00,5.000000000000000000e+00,5.000000000000000000e+00,5.000000000000000000e+00,5.000000000000000000e+00,5.000000000000000000e+00,5.000000000000000000e+00,5.000000000000000000e+00,5.000000000000000000e+00,5.000000000000000000e+00,5.000000000000000000e+00,5.000000000000000000e+00,5.000000000000000000e+00,5.000000000000000000e+00,5.000000000000000000e+00,5.000000000000000000e+00,5.000000000000000000e+00,5.000000000000000000e+00,5.000000000000000000e+00,5.000000000000000000e+00,5.000000000000000000e+00,5.000000000000000000e+00,5.000000000000000000e+00,2.365750551223754883e+00,2.307853698730468750e+00,2.325902462005615234e+00,2.382099151611328125e+00,2.342172145843505859e+00,2.335760593414306641e+00,2.354786872863769531e+00,5.000000000000000000e+00,5.000000000000000000e+00,5.000000000000000000e+00,5.000000000000000000e+00,4.853248596191406250e+00,4.663033008575439453e+00,4.487166404724121094e+00,4.324082851409912109e+00,4.172437667846679688e+00,4.031068801879882812e+00,3.898965597152709961e+00,3.775245904922485352e+00,3.659136533737182617e+00,3.549956083297729492e+00,3.447102069854736328e+00,3.350040197372436523e+00,3.258294820785522461e+00,3.171440601348876953e+00,3.089096546173095703e+00,3.010920524597167969e+00,2.936603546142578125e+00,2.865866661071777344e+00,2.798457622528076172e+00,2.734146595001220703e+00,2.672725200653076172e+00,2.614002704620361328e+00,2.557805299758911133e+00,2.503973245620727539e+00,2.452360391616821289e+00,2.402832269668579102e+00,2.355265140533447266e+00,2.309544563293457031e+00,2.265565395355224609e+00,2.223230123519897461e+00,2.182447671890258789e+00,2.143134593963623047e+00,2.105212688446044922e+00,2.068609476089477539e+00,2.033257484436035156e+00,1.999093413352966309e+00,1.966058492660522461e+00,1.934097528457641602e+00,1.903159022331237793e+00,1.873194932937622070e+00,1.844159603118896484e+00
5.000000000000000000e+00,5.000000000000000000e+00,5.000000000000000000e+00,5.000000000000000000e+00,5.000000000000000000e+00,5.000000000000000000e+00,5.000000000000000000e+00,5.000000000000000000e+00,5.000000000000000000e+00,5.000000000000000000e+00,5.000000000000000000e+00,5.000000000000000000e+00,5.000000000000000000e+00,5.000000000000000000e+00,5.000000000000000000e+00,5.000000000000000000e+00,5.000000000000000000e+00,5.000000000000000000e+00,5.000000000000000000e+00,5.000000000000000000e+00,5.000000000000000000e+00,5.000000000000000000e+00,5.000000000000000000e+00,5.000000000000000000e+00,5.000000000000000000e+00,5.000000000000000000e+00,5.000000000000000000e+00,5.000000000000000000e+00,5.000000000000000000e+00,2.303302049636840820e+00,2.317639589309692383e+00,2.375078201293945312e+00,2.336353063583374023e+00,2.333004236221313477e+00,2.351260900497436523e+00,5.000000000000000000e+00,5.000000000000000000e+00,5.000000000000000000e+00,5.000000000000000000e+00,4.853387832641601562e+00,4.663161754608154297e+00,4.487285614013671875e+00,4.324193000793457031e+00,4.172540664672851562e+00,4.031164646148681641e+00,3.899055480957031250e+00,3.775330066680908203e+00,3.659215450286865234e+00,3.550030469894409180e+00,3.447172164916992188e+00,3.350106477737426758e+00,3.258357524871826172e+00,3.171499967575073242e+00,3.089153051376342773e+00,3.010973930358886719e+00,2.936654329299926758e+00,2.865915060043334961e+00,2.798503875732421875e+00,2.734190702438354492e+00,2.672767400741577148e+00,2.614043235778808594e+00,2.557843923568725586e+00,2.504010200500488281e+00,2.452395677566528320e+00,2.402866363525390625e+00,2.355297803878784180e+00,2.309576034545898438e+00,2.265595674514770508e+00,2.223259210586547852e+00,2.182475805282592773e+00,2.143161773681640625e+00,2.105238914489746094e+00,2.068634748458862305e+00,2.033282041549682617e+00,1.999117016792297363e+00,1.966081261634826660e+00,1.934119582176208496e+00,1.903180480003356934e+00,1.873215675354003906e+00,1.844179749488830566e+00
5.000000000000000000e+00,5.000000000000000000e+00,5.000000000000000000e+00,5.000000000000000000e+00,5.000000000000000000e+00,5.000000000000000000e+00,5.000000000000000000e+00,5.000000000000000000e+00,5.000000000000000000e+00,5.000000000000000000e+00,5.000000000000000000e+00,5.000000000000000000e+00,5.000000000000000000e+00,5.000000000000000000e+00,5.000000000000000000e+00,5.000000000000000000e+00,5.000000000000000000e+00,5.000000000000000000e+00,5.000000000000000000e+00,5.000000000000000000e+00,5.000000000000000000e+00,5.000000000000000000e+00,5.000000000000000000e+00,5.000000000000000000e+00,5.000000000000000000e+00,5.000000000000000000e+00,5.000000000000000000e+00,5.000000000000000000e+00,5.000000000000000000e+00,2.305408716201782227e+00,2.316479444503784180e+00,2.370158195495605469e+00,2.337894916534423828e+00,2.331116199493408203e+00,2.351697206497192383e+00,5.000000000000000000e+00,5.000000000000000000e+00,5.000000000000000000e+00,5.000000000000000000e+00,4.853526592254638672e+00,4.663290023803710938e+00,4.487404346466064453e+00,4.324303627014160156e+00,4.172643661499023438e+00,4.031260967254638672e+00,3.899145126342773438e+00,3.775414228439331055e+00,3.659294605255126953e+00,3.550104618072509766e+00,3.447242259979248047e+00,3.350172758102416992e+00,3.258420228958129883e+00,3.171559333801269531e+00,3.089209318161010742e+00,3.011027336120605469e+00,2.936705350875854492e+00,2.865963697433471680e+00,2.798549890518188477e+00,2.734234809875488281e+00,2.672809600830078125e+00,2.614083528518676758e+00,2.557882547378540039e+00,2.504047155380249023e+00,2.452431201934814453e+00,2.402900218963623047e+00,2.355330705642700195e+00,2.309607505798339844e+00,2.265625953674316406e+00,2.223288297653198242e+00,2.182503938674926758e+00,2.143188714981079102e+00,2.105265140533447266e+00,2.068660020828247070e+00,2.033306360244750977e+00,1.999140620231628418e+00,1.966104269027709961e+00,1.934141635894775391e+00,1.903201818466186523e+00,1.873236417770385742e+00,1.844199776649475098e+00
5.000000000000000000e+00,5.000000000000000000e+00,5.000000000000000000e+00,5.000000000000000000e+00,5.000000000000000000e+00,5.000000000000000000e+00,5.000000000000000000e+00,5.000000000000000000e+00,5.000000000000000000e+00,5.000000000000000000e+00,5.000000000000000000e+00,5.000000000000000000e+00,5.000000000000000000e+00,5.000000000000000000e+00,5.000000000000000000e+00,5.000000000000000000e+00,5.000000000000000000e+00,5.000000000000000000e+00,5.000000000000000000e+00,5.000000000000000000e+00,5.000000000000000000e+00,5.000000000000000000e+00,5.000000000000000000e+00,5.000000000000000000e+00,5.000000000000000000e+00,5.000000000000000000e+00,5.000000000000000000e+00,5.000000000000000000e+00,5.000000000000000000e+00,2.328590869903564453e+00,2.332369565963745117e+00,2.388337373733520508e+00,2.354232072830200195e+00,2.340367078781127930e+00,2.368850708007812500e+00,5.000000000000000000e+00,5.000000000000000000e+00,5.000000000000000000e+00,5.000000000000000000e+00,4.853665828704833984e+00,4.663418292999267578e+00,4.487523078918457031e+00,4.324413776397705078e+00,4.172746181488037109e+00,4.031356811523437500e+00,3.899235248565673828e+00,3.775498628616333008e+00,3.659373998641967773e+00,3.550179004669189453e+00,3.447312355041503906e+00,3.350238800048828125e+00,3.258482933044433594e+00,3.171618700027465820e+00,3.089265584945678711e+00,3.011080980300903320e+00,2.936756134033203125e+00,2.866012096405029297e+00,2.798596143722534180e+00,2.734278917312622070e+00,2.672851800918579102e+00,2.614123821258544922e+00,2.557921171188354492e+00,2.504084110260009766e+00,2.452466726303100586e+00,2.402934312820434570e+00,2.355363368988037109e+00,2.309638977050781250e+00,2.265656232833862305e+00,2.223317623138427734e+00,2.182532072067260742e+00,2.143215894699096680e+00,2.105291128158569336e+00,2.068685293197631836e+00,2.033330678939819336e+00,1.999164223670959473e+00,1.966127157211303711e+00,1.934163808822631836e+00,1.903223395347595215e+00,1.873257040977478027e+00,1.844220042228698730e+00
5.000000000000000000e+00,5.000000000000000000e+00,5.000000000000000000e+00,5.000000000000000000e+00,5.000000000000000000e+00,5.000000000000000000e+00,5.000000000000000000e+00,5.000000000000000000e+00,5.000000000000000000e+00,5.000000000000000000e+00,5.000000000000000000e+00,5.000000000000000000e+00,5.000000000000000000e+00,5.000000000000000000e+00,5.000000000000000000e+00,5.000000000000000000e+00,5.000000000000000000e+00,5.000000000000000000e+00,5.000000000000000000e+00,5.000000000000000000e+00,5.000000000000000000e+00,5.000000000000000000e+00,5.000000000000000000e+00,5.000000000000000000e+00,5.000000000000000000e+00,5.000000000000000000e+00,5.000000000000000000e+00,5.000000000000000000e+00,5.000000000000000000e+00,2.356770992279052734e+00,2.350233793258666992e+00,2.413404703140258789e+00,2.418565750122070312e+00,2.378194808959960938e+00,2.430669784545898438e+00,5.000000000000000000e+00,5.000000000000000000e+00,5.000000000000000000e+00,5.000000000000000000e+00,4.853804588317871094e+00,4.663547039031982422e+00,4.487641811370849609e+00,4.324524402618408203e+00,4.172849178314208984e+00,4.031452655792236328e+00,3.899324893951416016e+00,3.775582790374755859e+00,3.659452915191650391e+00,3.550253868103027344e+00,3.447382926940917969e+00,3.350305557250976562e+00,3.258545875549316406e+00,3.171678066253662109e+00,3.089321851730346680e+00,3.011134386062622070e+00,2.936806917190551758e+00,2.866060495376586914e+00,2.798642396926879883e+00,2.734323024749755859e+00,2.672893762588500977e+00,2.614164113998413086e+00,2.557959794998168945e+00,2.504121065139770508e+00,2.452502250671386719e+00,2.402968406677246094e+00,2.355396032333374023e+00,2.309670448303222656e+00,2.265686511993408203e+00,2.223346710205078125e+00,2.182560205459594727e+00,2.143243074417114258e+00,2.105317354202270508e+00,2.068710565567016602e+00,2.033355236053466797e+00,1.999187707901000977e+00,1.966149926185607910e+00,1.934185862541198730e+00,1.903244733810424805e+00,1.873277783393859863e+00,1.844240069389343262e+00
5.000000000000000000e+00,5.000000000000000000e+00,5.000000000000000000e+00,5.000000000000000000e+00,5.000000000000000000e+00,5.000000000000000000e+00,5.000000000000000000e+00,5.000000000000000000e+00,5.000000000000000000e+00,5.000000000000000000e+00,5.000000000000000000e+00,5.000000000000000000e+00,5.000000000000000000e+00,5.000000000000000000e+00,5.000000000000000000e+00,5.000000000000000000e+00,5.000000000000000000e+00,5.000000000000000000e+00,5.000000000000000000e+00,5.000000000000000000e+00,5.000000000000000000e+00,5.000000000000000000e+00,5.000000000000000000e+00,5.000000000000000000e+00,5.000000000000000000e+00,5.000000000000000000e+00,5.000000000000000000e+00,5.000000000000000000e+00,5.000000000000000000e+00,2.375509738922119141e+00,2.373746395111083984e+00,2.422269105911254883e+00,2.490672826766967773e+00,2.453181028366088867e+00,2.507853746414184570e+00,5.000000000000000000e+00,5.000000000000000000e+00,5.000000000000000000e+00,5.000000000000000000e+00,4.853942871093750000e+00,4.663675308227539062e+00,4.487760543823242188e+00,4.324634552001953125e+00,4.172951698303222656e+00,4.031548500061035156e+00,3.899414777755737305e+00,3.775666952133178711e+00,3.659532070159912109e+00,3.550328254699707031e+00,3.447453022003173828e+00,3.350371599197387695e+00,3.258608579635620117e+00,3.171737670898437500e+00,3.089378595352172852e+00,3.011188268661499023e+00,2.936857938766479492e+00,2.866108894348144531e+00,2.798688650131225586e+00,2.734367132186889648e+00,2.672935962677001953e+00,2.614204406738281250e+00,2.557998180389404297e+00,2.504158258438110352e+00,2.452537775039672852e+00,2.403002500534057617e+00,2.355428934097290039e+00,2.309701919555664062e+00,2.265716791152954102e+00,2.223375797271728516e+00,2.182588338851928711e+00,2.143270015716552734e+00,2.105343580245971680e+00,2.068735837936401367e+00,2.033379554748535156e+00,1.999211311340332031e+00,1.966172695159912109e+00,1.934207916259765625e+00,1.903266191482543945e+00,1.873298525810241699e+00,1.844260215759277344e+00
5.000000000000000000e+00,5.000000000000000000e+00,5.000000000000000000e+00,5.000000000000000000e+00,5.000000000000000000e+00,5.000000000000000000e+00,5.000000000000000000e+00,5.000000000000000000e+00,5.000000000000000000e+00,5.000000000000000000e+00,5.000000000000000000e+00,5.000000000000000000e+00,5.000000000000000000e+00,5.000000000000000000e+00,5.000000000000000000e+00,5.000000000000000000e+00,5.000000000000000000e+00,5.000000000000000000e+00,5.000000000000000000e+00,5.000000000000000000e+00,5.000000000000000000e+00,5.000000000000000000e+00,5.000000000000000000e+00,5.000000000000000000e+00,5.000000000000000000e+00,5.000000000000000000e+00,5.000000000000000000e+00,5.000000000000000000e+00,5.000000000000000000e+00,2.384912014007568359e+00,2.377039909362792969e+00,2.413781642913818359e+00,2.537713050842285156e+00,2.511489629745483398e+00,2.595263242721557617e+00,5.000000000000000000e+00,5.000000000000000000e+00,5.000000000000000000e+00,5.000000000000000000e+00,4.854081153869628906e+00,4.663804054260253906e+00,4.487879753112792969e+00,4.324745178222656250e+00,4.173054695129394531e+00,4.031644344329833984e+00,3.899504423141479492e+00,3.775751113891601562e+00,3.659610986709594727e+00,3.550402641296386719e+00,3.447523117065429688e+00,3.350437879562377930e+00,3.258671045303344727e+00,3.171797037124633789e+00,3.089434862136840820e+00,3.011241674423217773e+00,2.936908960342407227e+00,2.866157770156860352e+00,2.798735141754150391e+00,2.734411239624023438e+00,2.672978162765502930e+00,2.614244699478149414e+00,2.558036804199218750e+00,2.504195213317871094e+00,2.452573299407958984e+00,2.403036594390869141e+00,2.355461597442626953e+00,2.309733390808105469e+00,2.265747308731079102e+00,2.223405122756958008e+00,2.182616472244262695e+00,2.143297195434570312e+00,2.105369806289672852e+00,2.068761110305786133e+00,2.033403873443603516e+00,1.999234914779663086e+00,1.966195583343505859e+00,1.934229969978332520e+00,1.903287529945373535e+00,1.873319268226623535e+00,1.844280242919921875e+00
5.000000000000000000e+00,5.000000000000000000e+00,5.000000000000000000e+00,5.000000000000000000e+00,5.000000000000000000e+00,5.000000000000000000e+00,5.000000000000000000e+00,5.000000000000000000e+00,5.000000000000000000e+00,5.000000000000000000e+00,5.000000000000000000e+00,5.000000000000000000e+00,5.000000000000000000e+00,5.000000000000000000e+00,5.000000000000000000e+00,5.000000000000000000e+00,5.000000000000000000e+00,5.000000000000000000e+00,5.000000000000000000e+00,5.000000000000000000e+00,5.000000000000000000e+00,5.000000000000000000e+00,5.000000000000000000e+00,5.000000000000000000e+00,5.000000000000000000e+00,5.000000000000000000e+00,5.000000000000000000e+00,5.000000000000000000e+00,5.000000000000000000e+00,2.402248382568359375e+00,2.379779100418090820e+00,2.409930229187011719e+00,2.597308635711669922e+00,2.561649799346923828e+00,5.000000000000000000e+00,5.000000000000000000e+00,5.000000000000000000e+00,5.000000000000000000e+00,5.000000000000000000e+00,4.854218959808349609e+00,4.663930892944335938e+00,4.487998485565185547e+00,4.324855804443359375e+00,4.173157691955566406e+00,4.031740665435791016e+00,3.899594068527221680e+00,3.775835275650024414e+00,3.659690141677856445e+00,3.550477027893066406e+00,3.447593212127685547e+00,3.350504159927368164e+00,3.258733749389648438e+00,3.171856403350830078e+00,3.089491128921508789e+00,3.011295318603515625e+00,2.936959981918334961e+00,2.866206169128417969e+00,2.798781394958496094e+00,2.734455585479736328e+00,2.673020601272583008e+00,2.614285230636596680e+00,2.558075666427612305e+00,2.504232168197631836e+00,2.452608823776245117e+00,2.403070688247680664e+00,2.355494260787963867e+00,2.309765100479125977e+00,2.265777587890625000e+00,2.223434209823608398e+00,2.182644367218017578e+00,2.143324375152587891e+00,2.105395793914794922e+00,2.068786382675170898e+00,2.033428430557250977e+00,1.999258518218994141e+00,1.966218352317810059e+00,1.934252023696899414e+00,1.903308868408203125e+00,1.873339891433715820e+00,1.844300270080566406e+00
5.000000000000000000e+00,5.000000000000000000e+00,5.000000000000000000e+00,5.000000000000000000e+00,5.000000000000000000e+00,5.000000000000000000e+00,5.000000000000000000e+00,5.000000000000000000e+00,5.000000000000000000e+00,5.000000000000000000e+00,5.000000000000000000e+00,5.000000000000000000e+00,5.000000000000000000e+00,5.000000000000000000e+00,5.000000000000000000e+00,5.000000000000000000e+00,5.000000000000000000e+00,5.000000000000000000e+00,5.000000000000000000e+00,5.000000000000000000e+00,5.000000000000000000e+00,5.000000000000000000e+00,5.000000000000000000e+00,5.000000000000000000e+00,5.000000000000000000e+00,5.000000000000000000e+00,5.000000000000000000e+00,5.000000000000000000e+00,5.000000000000000000e+00,2.423357963562011719e+00,2.382467985153198242e+00,2.412063360214233398e+00,2.677998065948486328e+00,2.614231824874877930e+00,5.000000000000000000e+00,5.000000000000000000e+00,5.000000000000000000e+00,5.000000000000000000e+00,5.000000000000000000e+00,4.854356765747070312e+00,4.664058208465576172e+00,4.488116264343261719e+00,4.324965953826904297e+00,4.173260211944580078e+00,4.031836509704589844e+00,3.899683952331542969e+00,3.775919437408447266e+00,3.659769058227539062e+00,3.550551414489746094e+00,3.447663307189941406e+00,3.350570440292358398e+00,3.258796453475952148e+00,3.171915769577026367e+00,3.089547395706176758e+00,3.011348724365234375e+00,2.937010765075683594e+00,2.866254568099975586e+00,2.798827648162841797e+00,2.734499692916870117e+00,2.673062801361083984e+00,2.614325523376464844e+00,2.558114290237426758e+00,2.504269361495971680e+00,2.452644348144531250e+00,2.403105020523071289e+00,2.355526924133300781e+00,2.309796571731567383e+00,2.265807867050170898e+00,2.223463296890258789e+00,2.182672500610351562e+00,2.143351554870605469e+00,2.105422019958496094e+00,2.068811416625976562e+00,2.033452749252319336e+00,1.999282121658325195e+00,1.966241240501403809e+00,1.934274196624755859e+00,1.903330326080322266e+00,1.873360633850097656e+00,1.844320416450500488e+00
5.000000000000000000e+00,5.000000000000000000e+00,5.000000000000000000e+00,5.000000000000000000e+00,5.000000000000000000e+00,5.000000000000000000e+00,5.000000000000000000e+00,5.000000000000000000e+00,5.000000000000000000e+00,5.000000000000000000e+00,5.000000000000000000e+00,5.000000000000000000e+00,5.000000000000000000e+00,5.000000000000000000e+00,5.000000000000000000e+00,5.000000000000000000e+00,5.000000000000000000e+00,5.000000000000000000e+00,5.000000000000000000e+00,5.000000000000000000e+00,5.000000000000000000e+00,5.000000000000000000e+00,5.000000000000000000e+00,5.000000000000000000e+00,5.000000000000000000e+00,5.000000000000000000e+00,5.000000000000000000e+00,5.000000000000000000e+00,5.000000000000000000e+00,2.446550607681274414e+00,2.391136169433593750e+00,2.416047811508178711e+00,5.000000000000000000e+00,2.712985754013061523e+00,5.000000000000000000e+00,5.000000000000000000e+00,5.000000000000000000e+00,5.000000000000000000e+00,5.000000000000000000e+00,4.854495048522949219e+00,4.664185523986816406e+00,4.488234519958496094e+00,4.325075626373291016e+00,4.173363208770751953e+00,4.031932353973388672e+00,3.899773597717285156e+00,3.776003360748291016e+00,3.659848213195800781e+00,3.550625801086425781e+00,3.447733402252197266e+00,3.350636720657348633e+00,3.258859157562255859e+00,3.171975135803222656e+00,3.089603662490844727e+00,3.011402368545532227e+00,2.937061786651611328e+00,2.866303205490112305e+00,2.798873662948608398e+00,2.734543800354003906e+00,2.673105001449584961e+00,2.614366054534912109e+00,2.558152914047241211e+00,2.504306316375732422e+00,2.452679872512817383e+00,2.403139114379882812e+00,2.355559825897216797e+00,2.309828042984008789e+00,2.265838146209716797e+00,2.223492622375488281e+00,2.182700634002685547e+00,2.143378496170043945e+00,2.105448246002197266e+00,2.068836688995361328e+00,2.033477067947387695e+00,1.999305725097656250e+00,1.966264009475708008e+00,1.934296250343322754e+00,1.903351664543151855e+00,1.873381376266479492e+00,1.844340443611145020e+00
5.000000000000000000e+00,5.000000000000000000e+00,5.000000000000000000e+00,5.000000000000000000e+00,5.000000000000000000e+00,5.000000000000000000e+00,5.000000000000000000e+00,5.000000000000000000e+00,5.000000000000000000e+00,5.000000000000000000e+00,5.000000000000000000e+00,5.000000000000000000e+00,5.000000000000000000e+00,5.000000000000000000e+00,5.000000000000000000e+00,5.000000000000000000e+00,5.000000000000000000e+00,5.000000000000000000e+00,5.000000000000000000e+00,5.000000000000000000e+00,5.000000000000000000e+00,5.000000000000000000e+00,5.000000000000000000e+00,5.000000000000000000e+00,5.000000000000000000e+00,5.000000000000000000e+00,5.000000000000000000e+00,5.000000000000000000e+00,5.000000000000000000e+00,5.000000000000000000e+00,2.408587455749511719e+00,2.420907974243164062e+00,2.739719867706298828e+00,2.722273111343383789e+00,5.000000000000000000e+00,5.000000000000000000e+00,5.000000000000000000e+00,5.000000000000000000e+00,5.000000000000000000e+00,4.854633331298828125e+00,4.664312839508056641e+00,4.488352298736572266e+00,4.325185298919677734e+00,4.173465728759765625e+00,4.032028198242187500e+00,3.899863481521606445e+00,3.776087522506713867e+00,3.659927129745483398e+00,3.550700187683105469e+00,3.447803735733032227e+00,3.350703001022338867e+00,3.258921861648559570e+00,3.172034502029418945e+00,3.089660167694091797e+00,3.011455774307250977e+00,2.937112569808959961e+00,2.866351604461669922e+00,2.798919916152954102e+00,2.734588146209716797e+00,2.673146963119506836e+00,2.614406347274780273e+00,2.558191537857055664e+00,2.504343271255493164e+00,2.452715396881103516e+00,2.403173208236694336e+00,2.355592727661132812e+00,2.309859514236450195e+00,2.265868425369262695e+00,2.223521947860717773e+00,2.182729005813598633e+00,2.143405914306640625e+00,2.105474472045898438e+00,2.068861961364746094e+00,2.033501625061035156e+00,1.999329328536987305e+00,1.966286778450012207e+00,1.934318304061889648e+00,1.903373003005981445e+00,1.873402118682861328e+00,1.844360589981079102e+00
4.875060081481933594e+00,4.873849391937255859e+00,4.872639179229736328e+00,4.871429920196533203e+00,4.870221138000488281e+00,4.869012355804443359e+00,4.867804527282714844e+00,4.866597652435302734e+00,4.865391254425048828e+00,4.864185333251953125e+00,4.862979888916015625e+00,4.861774921417236328e+00,4.860570907592773438e+00,4.859367370605468750e+00,4.858164787292480469e+00,4.856962203979492188e+00,4.855760574340820312e+00,4.854559421539306641e+00,4.853358745574951172e+00,4.852159023284912109e+00,4.850959300994873047e+00,4.849761009216308594e+00,4.848562717437744141e+00,4.847364902496337891e+00,4.846168041229248047e+00,4.844971179962158203e+00,4.843775749206542969e+00,4.842580318450927734e+00,4.841385841369628906e+00,4.840191841125488281e+00,2.416305303573608398e+00,2.425787687301635742e+00,2.709750890731811523e+00,2.720385074615478516e+00,4.834229946136474609e+00,4.833039283752441406e+00,4.831849575042724609e+00,4.830660343170166016e+00,4.829471588134765625e+00,4.828283309936523438e+00,4.664440155029296875e+00,4.488470554351806641e+00,4.325294971466064453e+00,4.173567295074462891e+00,4.032124519348144531e+00,3.899953126907348633e+00,3.776171684265136719e+00,3.660006284713745117e+00,3.550774574279785156e+00,3.447873830795288086e+00,3.350769281387329102e+00,3.258984565734863281e+00,3.172093868255615234e+00,3.089716434478759766e+00,3.011509180068969727e+00,2.937163591384887695e+00,2.866400003433227539e+00,2.798966169357299805e+00,2.734632253646850586e+00,2.673189163208007812e+00,2.614446640014648438e+00,2.558230161666870117e+00,2.504380464553833008e+00,2.452750921249389648e+00,2.403207063674926758e+00,2.355625391006469727e+00,2.309890985488891602e+00,2.265898704528808594e+00,2.223551034927368164e+00,2.182757139205932617e+00,2.143432855606079102e+00,2.105500698089599609e+00,2.068887472152709961e+00,2.033526182174682617e+00,1.999353051185607910e+00,1.966309666633605957e+00,1.934340357780456543e+00,1.903394460678100586e+00,1.873422741889953613e+00,1.844380617141723633e+00
3.777858495712280273e+00,3.777131080627441406e+00,3.776404142379760742e+00,3.775677680969238281e+00,3.774951696395874023e+00,3.774225473403930664e+00,3.773499727249145508e+00,3.772774219512939453e+00,3.772048950195312500e+00,3.771324396133422852e+00,3.770599842071533203e+00,3.769875288009643555e+00,3.769151210784912109e+00,3.768427371978759766e+00,3.767704248428344727e+00,3.766980886459350586e+00,3.766258001327514648e+00,3.765535116195678711e+00,3.764812707901000977e+00,3.764091014862060547e+00,3.763369083404541016e+00,3.762647390365600586e+00,3.761925935745239258e+00,3.761204957962036133e+00,3.760484695434570312e+00,3.759763956069946289e+00,3.759043931961059570e+00,3.758323907852172852e+00,3.757604598999023438e+00,3.756885051727294922e+00,2.451946258544921875e+00,2.437770605087280273e+00,2.687366724014282227e+00,2.703861236572265625e+00,3.753292560577392578e+00,3.752574682235717773e+00,3.751857280731201172e+00,3.751140117645263672e+00,3.750423431396484375e+00,3.749706745147705078e+00,3.748990535736083984e+00,3.748274326324462891e+00,3.747558355331420898e+00,3.746843338012695312e+00,3.746127843856811523e+00,3.745412826538085938e+00,3.744698047637939453e+00,3.660085201263427734e+00,3.550848960876464844e+00,3.447943925857543945e+00,3.350835323333740234e+00,3.259047031402587891e+00,3.172153234481811523e+00,3.089772701263427734e+00,3.011562824249267578e+00,2.937214374542236328e+00,2.866448640823364258e+00,2.799012422561645508e+00,2.734676361083984375e+00,2.673231363296508789e+00,2.614486932754516602e+00,2.558268785476684570e+00,2.504417419433593750e+00,2.452786445617675781e+00,2.403241157531738281e+00,2.355658054351806641e+00,2.309922456741333008e+00,2.265929222106933594e+00,2.223580121994018555e+00,2.182785272598266602e+00,2.143460035324096680e+00,2.105526685714721680e+00,2.068912744522094727e+00,2.033550500869750977e+00,1.999376654624938965e+00,1.966332435607910156e+00,1.934362649917602539e+00,1.903415799140930176e+00,1.873443484306335449e+00,1.844400644302368164e+00
3.083804130554199219e+00,3.083319664001464844e+00,3.082835197448730469e+00,3.082350969314575195e+00,3.081867218017578125e+00,3.081383228302001953e+00,3.080899477005004883e+00,3.080415725708007812e+00,3.079932212829589844e+00,3.079449176788330078e+00,3.078965902328491211e+00,3.078482866287231445e+00,3.078000068664550781e+00,3.077517271041870117e+00,3.077034950256347656e+00,3.076552629470825195e+00,3.076070308685302734e+00,3.075587987899780273e+00,3.075106143951416016e+00,3.074624538421630859e+00,3.074142932891845703e+00,3.073661327362060547e+00,3.073179960250854492e+00,3.072698593139648438e+00,3.072217941284179688e+00,3.071737051010131836e+00,3.071256160736083984e+00,3.070775508880615234e+00,3.070295333862304688e+00,3.069814920425415039e+00,2.438594341278076172e+00,2.394501447677612305e+00,3.068374872207641602e+00,3.067895412445068359e+00,3.067415952682495117e+00,3.066936492919921875e+00,3.066457271575927734e+00,3.065978050231933594e+00,3.065499544143676758e+00,3.065020561218261719e+00,3.064542055130004883e+00,3.064063310623168945e+00,3.063585042953491211e+00,3.063107013702392578e+00,3.062628984451293945e+00,3.062150955200195312e+00,3.061673402786254883e+00,3.061195611953735352e+00,3.060718536376953125e+00,3.060240983963012695e+00,3.059763908386230469e+00,3.059286832809448242e+00,3.058810234069824219e+00,3.058333396911621094e+00,3.011616230010986328e+00,2.937265396118164062e+00,2.866497039794921875e+00,2.799058675765991211e+00,2.734720468521118164e+00,2.673273563385009766e+00,2.614527225494384766e+00,2.558307409286499023e+00,2.504454374313354492e+00,2.452821969985961914e+00,2.403275251388549805e+00,2.355690956115722656e+00,2.309954166412353516e+00,2.265959501266479492e+00,2.223609447479248047e+00,2.182813405990600586e+00,2.143487215042114258e+00,2.105552911758422852e+00,2.068938016891479492e+00,2.033574819564819336e+00,1.999400258064270020e+00,1.966355323791503906e+00,1.934384822845458984e+00,1.903437137603759766e+00,1.873464345932006836e+00,1.844420790672302246e+00
2.605188608169555664e+00,2.604842662811279297e+00,2.604496955871582031e+00,2.604151248931884766e+00,2.603806018829345703e+00,2.603460550308227539e+00,2.603115081787109375e+00,2.602769851684570312e+00,2.602424621582031250e+00,2.602079629898071289e+00,2.601734638214111328e+00,2.601389884948730469e+00,2.601044893264770508e+00,2.600700139999389648e+00,2.600355863571166992e+00,2.600011348724365234e+00,2.599666833877563477e+00,2.599322319030761719e+00,2.598978042602539062e+00,2.598634004592895508e+00,2.598289966583251953e+00,2.597945928573608398e+00,2.597602128982543945e+00,2.597258329391479492e+00,2.596914768218994141e+00,2.596571207046508789e+00,2.596227645874023438e+00,2.595884084701538086e+00,2.595541000366210938e+00,2.595197677612304688e+00,2.365556240081787109e+00,2.330559015274047852e+00,2.594168424606323242e+00,2.593825578689575195e+00,2.593482732772827148e+00,2.593140125274658203e+00,2.592797517776489258e+00,2.592454910278320312e+00,2.592112541198730469e+00,2.591770172119140625e+00,2.591428041458129883e+00,2.591085910797119141e+00,2.590743780136108398e+00,2.590401887893676758e+00,2.590059995651245117e+00,2.589718103408813477e+00,2.589376449584960938e+00,2.589034795761108398e+00,2.588693380355834961e+00,2.588351964950561523e+00,2.588010549545288086e+00,2.587669372558593750e+00,2.587328195571899414e+00,2.586987257003784180e+00,2.586646080017089844e+00,2.586305141448974609e+00,2.585964441299438477e+00,2.585623979568481445e+00,2.585283279418945312e+00,2.584942579269409180e+00,2.584602117538452148e+00,2.558346033096313477e+00,2.504491329193115234e+00,2.452857494354248047e+00,2.403309345245361328e+00,2.355723619461059570e+00,2.309985637664794922e+00,2.265989780426025391e+00,2.223638534545898438e+00,2.182841300964355469e+00,2.143514156341552734e+00,2.105579137802124023e+00,2.068963289260864258e+00,2.033599376678466797e+00,1.999423861503601074e+00,1.966378092765808105e+00,1.934406876564025879e+00,1.903458595275878906e+00,1.873485088348388672e+00,1.844440817832946777e+00
2.255210161209106445e+00,2.254949569702148438e+00,2.254689216613769531e+00,2.254428625106811523e+00,2.254168272018432617e+00,2.253908157348632812e+00,2.253648042678833008e+00,2.253387928009033203e+00,2.253127813339233398e+00,2.252867698669433594e+00,2.252607822418212891e+00,2.252347707748413086e+00,2.252088069915771484e+00,2.251828193664550781e+00,2.251568555831909180e+00,2.251308917999267578e+00,2.251049280166625977e+00,2.250789642333984375e+00,2.250530242919921875e+00,2.250270843505859375e+00,2.250011444091796875e+00,2.249752283096313477e+00,2.249492883682250977e+00,2.249233722686767578e+00,2.248975515365600586e+00,2.248717784881591797e+00,2.248460292816162109e+00,2.248202562332153320e+00,2.247945308685302734e+00,2.247687816619873047e+00,2.247430324554443359e+00,2.247172832489013672e+00,2.246915578842163086e+00,2.246658563613891602e+00,2.246401309967041016e+00,2.246144056320190430e+00,2.245887041091918945e+00,2.245630025863647461e+00,2.245373249053955078e+00,2.245116233825683594e+00,2.244859457015991211e+00,2.244602680206298828e+00,2.244345903396606445e+00,2.244089365005493164e+00,2.243832826614379883e+00,2.243576288223266602e+00,2.243319749832153320e+00,2.243063211441040039e+00,2.242807149887084961e+00,2.242550849914550781e+00,2.242294549942016602e+00,2.242038249969482422e+00,2.241782188415527344e+00,2.241526126861572266e+00,2.241270303726196289e+00,2.241014242172241211e+00,2.240758419036865234e+00,2.240502595901489258e+00,2.240246772766113281e+00,2.239991188049316406e+00,2.239735364913940430e+00,2.239479780197143555e+00,2.239224433898925781e+00,2.238968849182128906e+00,2.238713502883911133e+00,2.238458156585693359e+00,2.238202810287475586e+00,2.237947702407836914e+00,2.223667621612548828e+00,2.182869434356689453e+00,2.143541336059570312e+00,2.105605363845825195e+00,2.068988561630249023e+00,2.033623695373535156e+00,1.999447464942932129e+00,1.966400861740112305e+00,1.934428930282592773e+00,1.903479933738708496e+00,1.873505830764770508e+00,1.844460964202880859e+00
1.988187074661254883e+00,1.987984776496887207e+00,1.987782239913940430e+00,1.987579941749572754e+00,1.987377405166625977e+00,1.987175226211547852e+00,1.986973047256469727e+00,1.986770749092102051e+00,1.986568689346313477e+00,1.986366391181945801e+00,1.986164331436157227e+00,1.985962152481079102e+00,1.985760331153869629e+00,1.985558390617370605e+00,1.985356330871582031e+00,1.985154509544372559e+00,1.984952569007873535e+00,1.984750866889953613e+00,1.984548926353454590e+00,1.984347343444824219e+00,1.984145522117614746e+00,1.983943939208984375e+00,1.983742475509643555e+00,1.983540773391723633e+00,1.983339309692382812e+00,1.983137726783752441e+00,1.982936382293701172e+00,1.982734799385070801e+00,1.982533574104309082e+00,1.982332348823547363e+00,1.982131004333496094e+00,1.981929779052734375e+00,1.981728434562683105e+00,1.981527447700500488e+00,1.981326222419738770e+00,1.981125235557556152e+00,1.980924248695373535e+00,1.980723142623901367e+00,1.980522274971008301e+00,1.980321288108825684e+00,1.980120420455932617e+00,1.979919552803039551e+00,1.979718804359436035e+00,1.979518175125122070e+00,1.979317307472229004e+00,1.979116797447204590e+00,1.978916049003601074e+00,1.978715538978576660e+00,1.978514790534973145e+00,1.978314399719238281e+00,1.978114008903503418e+00,1.977913498878479004e+00,1.977713227272033691e+00,1.977512717247009277e+00,1.977312564849853516e+00,1.977112174034118652e+00,1.976912021636962891e+00,1.976711869239807129e+00,1.976511597633361816e+00,1.976311683654785156e+00,1.976111412048339844e+00,1.975911498069763184e+00,1.975711464881896973e+00,1.975511550903320312e+00,1.975311756134033203e+00,1.975111842155456543e+00,1.974912047386169434e+00,1.974712133407592773e+00,1.974512577056884766e+00,1.974312663078308105e+00,1.974113106727600098e+00,1.973913669586181641e+00,1.973713874816894531e+00,1.973514437675476074e+00,1.973314881324768066e+00,1.966423749923706055e+00,1.934450984001159668e+00,1.903501272201538086e+00,1.873526573181152344e+00,1.844480991363525391e+00
1.777702450752258301e+00,1.777540683746337891e+00,1.777378678321838379e+00,1.777216911315917969e+00,1.777055025100708008e+00,1.776893377304077148e+00,1.776731610298156738e+00,1.776569962501525879e+00,1.776408433914184570e+00,1.776246666908264160e+00,1.776085138320922852e+00,1.775923490524291992e+00,1.775761961936950684e+00,1.775600314140319824e+00,1.775438904762268066e+00,1.775277614593505859e+00,1.775115966796875000e+00,1.774954676628112793e+00,1.774793267250061035e+00,1.774631977081298828e+00,1.774470567703247070e+00,1.774309396743774414e+00,1.774148225784301758e+00,1.773986816406250000e+00,1.773825764656066895e+00,1.773664474487304688e+00,1.773503422737121582e+00,1.773342132568359375e+00,1.773181200027465820e+00,1.773020267486572266e+00,1.772859096527099609e+00,1.772698163986206055e+00,1.772537112236022949e+00,1.772376298904418945e+00,1.772215247154235840e+00,1.772054433822631836e+00,1.771893501281738281e+00,1.771732687950134277e+00,1.771571993827819824e+00,1.771411180496215820e+00,1.771250486373901367e+00,1.771089673042297363e+00,1.770929098129272461e+00,1.770768404006958008e+00,1.770607829093933105e+00,1.770447373390197754e+00,1.770286679267883301e+00,1.770126223564147949e+00,1.769965648651123047e+00,1.769805312156677246e+00,1.769644737243652344e+00,1.769484400749206543e+00,1.769324064254760742e+00,1.769163608551025391e+00,1.769003391265869141e+00,1.768842935562133789e+00,1.768682837486267090e+00,1.768522500991821289e+00,1.768362283706665039e+00,1.768202185630798340e+00,1.768041968345642090e+00,1.767881989479064941e+00,1.767721772193908691e+00,1.767561793327331543e+00,1.767401695251464844e+00,1.767241716384887695e+00,1.767081856727600098e+00,1.766921758651733398e+00,1.766761898994445801e+00,1.766601920127868652e+00,1.766442179679870605e+00,1.766282200813293457e+00,1.766122579574584961e+00,1.765962839126586914e+00,1.765802979469299316e+00,1.765643358230590820e+00,1.765483617782592773e+00,1.765323996543884277e+00,1.765164256095886230e+00,1.765004754066467285e+00
1.607518196105957031e+00,1.607385754585266113e+00,1.607253551483154297e+00,1.607121229171752930e+00,1.606988906860351562e+00,1.606856703758239746e+00,1.606724381446838379e+00,1.606592178344726562e+00,1.606459856033325195e+00,1.606327772140502930e+00,1.606195688247680664e+00,1.606063365936279297e+00,1.605931401252746582e+00,1.605799198150634766e+00,1.605667114257812500e+00,1.605535030364990234e+00,1.605403065681457520e+00,1.605271100997924805e+00,1.605139017105102539e+00,1.605007052421569824e+00,1.604875087738037109e+00,1.604743242263793945e+00,1.604611158370971680e+00,1.604479432106018066e+00,1.604347586631774902e+00,1.604215621948242188e+00,1.604083895683288574e+00,1.603952050209045410e+00,1.603820323944091797e+00,1.603688478469848633e+00,1.603556752204895020e+00,1.603425145149230957e+00,1.603293418884277344e+00,1.603161811828613281e+00,1.603030085563659668e+00,1.602898478507995605e+00,1.602766752243041992e+00,1.602635264396667480e+00,1.602503776550292969e+00,1.602372169494628906e+00,1.602240681648254395e+00,1.602109074592590332e+00,1.601977705955505371e+00,1.601846218109130859e+00,1.601714849472045898e+00,1.601583361625671387e+00,1.601451992988586426e+00,1.601320743560791016e+00,1.601189255714416504e+00,1.601058006286621094e+00,1.600926637649536133e+00,1.600795388221740723e+00,1.600664019584655762e+00,1.600532889366149902e+00,1.600401759147644043e+00,1.600270509719848633e+00,1.600139379501342773e+00,1.600008130073547363e+00,1.599876999855041504e+00,1.599745869636535645e+00,1.599614858627319336e+00,1.599483847618103027e+00,1.599352717399597168e+00,1.599221706390380859e+00,1.599090695381164551e+00,1.598959684371948242e+00,1.598828673362731934e+00,1.598697781562805176e+00,1.598567008972167969e+00,1.598435997962951660e+00,1.598305225372314453e+00,1.598174214363098145e+00,1.598043441772460938e+00,1.597912549972534180e+00,1.597781896591186523e+00,1.597651243209838867e+00,1.597520351409912109e+00,1.597389698028564453e+00,1.597258925437927246e+00,1.597128272056579590e+00
1.467071533203125000e+00,1.466961264610290527e+00,1.466851115226745605e+00,1.466740846633911133e+00,1.466630697250366211e+00,1.466520547866821289e+00,1.466410279273986816e+00,1.466300249099731445e+00,1.466189980506896973e+00,1.466079950332641602e+00,1.465969800949096680e+00,1.465859770774841309e+00,1.465749740600585938e+00,1.465639591217041016e+00,1.465529680252075195e+00,1.465419530868530273e+00,1.465309619903564453e+00,1.465199589729309082e+00,1.465089678764343262e+00,1.464979767799377441e+00,1.464869737625122070e+00,1.464759826660156250e+00,1.464649915695190430e+00,1.464540123939514160e+00,1.464430093765258789e+00,1.464320302009582520e+00,1.464210510253906250e+00,1.464100718498229980e+00,1.463990926742553711e+00,1.463881015777587891e+00,1.463771343231201172e+00,1.463661551475524902e+00,1.463551878929138184e+00,1.463442206382751465e+00,1.463332414627075195e+00,1.463222742080688477e+00,1.463113069534301758e+00,1.463003396987915039e+00,1.462893724441528320e+00,1.462784171104431152e+00,1.462674617767333984e+00,1.462564945220947266e+00,1.462455511093139648e+00,1.462345838546752930e+00,1.462236404418945312e+00,1.462126731872558594e+00,1.462017297744750977e+00,1.461907863616943359e+00,1.461798310279846191e+00,1.461688995361328125e+00,1.461579442024230957e+00,1.461470127105712891e+00,1.461360573768615723e+00,1.461251258850097656e+00,1.461141824722290039e+00,1.461032509803771973e+00,1.460923194885253906e+00,1.460813879966735840e+00,1.460704565048217773e+00,1.460595250129699707e+00,1.460486054420471191e+00,1.460376739501953125e+00,1.460267543792724609e+00,1.460158348083496094e+00,1.460049033164978027e+00,1.459939956665039062e+00,1.459830641746520996e+00,1.459721565246582031e+00,1.459612369537353516e+00,1.459503293037414551e+00,1.459394216537475586e+00,1.459285020828247070e+00,1.459176063537597656e+00,1.459066867828369141e+00,1.458957910537719727e+00,1.458848834037780762e+00,1.458739876747131348e+00,1.458630919456481934e+00,1.458521842956542969e+00,1.458412885665893555e+00
1.349194288253784180e+00,1.349100947380065918e+00,1.349007725715637207e+00,1.348914504051208496e+00,1.348821401596069336e+00,1.348728060722351074e+00,1.348634958267211914e+00,1.348541855812072754e+00,1.348448634147644043e+00,1.348355531692504883e+00,1.348262310028076172e+00,1.348169326782226562e+00,1.348076105117797852e+00,1.347983121871948242e+00,1.347890019416809082e+00,1.347796916961669922e+00,1.347703933715820312e+00,1.347610831260681152e+00,1.347517848014831543e+00,1.347424745559692383e+00,1.347331881523132324e+00,1.347238898277282715e+00,1.347145915031433105e+00,1.347053050994873047e+00,1.346959948539733887e+00,1.346867084503173828e+00,1.346774101257324219e+00,1.346681237220764160e+00,1.346588373184204102e+00,1.346495509147644043e+00,1.346402645111083984e+00,1.346309781074523926e+00,1.346216917037963867e+00,1.346124053001403809e+00,1.346031308174133301e+00,1.345938563346862793e+00,1.345845699310302734e+00,1.345752954483032227e+00,1.345660090446472168e+00,1.345567345619201660e+00,1.345474600791931152e+00,1.345381855964660645e+00,1.345289230346679688e+00,1.345196485519409180e+00,1.345103859901428223e+00,1.345011115074157715e+00,1.344918489456176758e+00,1.344825744628906250e+00,1.344733119010925293e+00,1.344640612602233887e+00,1.344547867774963379e+00,1.344455361366271973e+00,1.344362735748291016e+00,1.344270229339599609e+00,1.344177603721618652e+00,1.344085097312927246e+00,1.343992590904235840e+00,1.343899965286254883e+00,1.343807458877563477e+00,1.343714952468872070e+00,1.343622565269470215e+00,1.343529939651489258e+00,1.343437552452087402e+00,1.343345165252685547e+00,1.343252658843994141e+00,1.343160271644592285e+00,1.343067765235900879e+00,1.342975497245788574e+00,1.342882990837097168e+00,1.342790722846984863e+00,1.342698216438293457e+00,1.342605948448181152e+00,1.342513680458068848e+00,1.342421293258666992e+00,1.342329025268554688e+00,1.342236638069152832e+00,1.342144489288330078e+00,1.342052102088928223e+00,1.341959834098815918e+00,1.341867685317993164e+00
1.248850703239440918e+00,1.248770833015441895e+00,1.248690962791442871e+00,1.248611092567443848e+00,1.248531222343444824e+00,1.248451352119445801e+00,1.248371601104736328e+00,1.248291730880737305e+00,1.248211860656738281e+00,1.248132109642028809e+00,1.248052239418029785e+00,1.247972488403320312e+00,1.247892737388610840e+00,1.247812986373901367e+00,1.247733116149902344e+00,1.247653484344482422e+00,1.247573733329772949e+00,1.247493982315063477e+00,1.247414350509643555e+00,1.247334599494934082e+00,1.247254848480224609e+00,1.247175216674804688e+00,1.247095584869384766e+00,1.247015953063964844e+00,1.246936202049255371e+00,1.246856570243835449e+00,1.246776938438415527e+00,1.246697306632995605e+00,1.246617674827575684e+00,1.246538043022155762e+00,1.246458530426025391e+00,1.246378898620605469e+00,1.246299386024475098e+00,1.246219754219055176e+00,1.246140241622924805e+00,1.246060609817504883e+00,1.245981097221374512e+00,1.245901703834533691e+00,1.245822072029113770e+00,1.245742678642272949e+00,1.245663046836853027e+00,1.245583653450012207e+00,1.245504140853881836e+00,1.245424747467041016e+00,1.245345354080200195e+00,1.245265841484069824e+00,1.245186448097229004e+00,1.245106935501098633e+00,1.245027542114257812e+00,1.244948148727416992e+00,1.244868755340576172e+00,1.244789481163024902e+00,1.244709968566894531e+00,1.244630694389343262e+00,1.244551301002502441e+00,1.244472026824951172e+00,1.244392633438110352e+00,1.244313359260559082e+00,1.244234085083007812e+00,1.244154691696166992e+00,1.244075417518615723e+00,1.243996143341064453e+00,1.243916869163513184e+00,1.243837594985961914e+00,1.243758320808410645e+00,1.243679165840148926e+00,1.243599891662597656e+00,1.243520736694335938e+00,1.243441462516784668e+00,1.243362307548522949e+00,1.243283033370971680e+00,1.243203878402709961e+00,1.243124842643737793e+00,1.243045568466186523e+00,1.242966532707214355e+00,1.242887258529663086e+00,1.242808222770690918e+00,1.242729067802429199e+00,1.242650032043457031e+00,1.242570877075195312e+00
1.162399649620056152e+00,1.162330508232116699e+00,1.162261247634887695e+00,1.162192106246948242e+00,1.162122964859008789e+00,1.162053704261779785e+00,1.161984562873840332e+00,1.161915302276611328e+00,1.161846280097961426e+00,1.161777019500732422e+00,1.161707878112792969e+00,1.161638855934143066e+00,1.161569714546203613e+00,1.161500573158264160e+00,1.161431431770324707e+00,1.161362409591674805e+00,1.161293268203735352e+00,1.161224246025085449e+00,1.161155223846435547e+00,1.161086082458496094e+00,1.161017060279846191e+00,1.160947918891906738e+00,1.160878896713256836e+00,1.160809874534606934e+00,1.160740852355957031e+00,1.160671949386596680e+00,1.160602807998657227e+00,1.160533905029296875e+00,1.160464882850646973e+00,1.160395860671997070e+00,1.160326838493347168e+00,1.160257935523986816e+00,1.160189032554626465e+00,1.160120010375976562e+00,1.160051107406616211e+00,1.159982085227966309e+00,1.159913301467895508e+00,1.159844279289245605e+00,1.159775376319885254e+00,1.159706592559814453e+00,1.159637570381164551e+00,1.159568786621093750e+00,1.159499883651733398e+00,1.159430980682373047e+00,1.159362077713012695e+00,1.159293293952941895e+00,1.159224510192871094e+00,1.159155607223510742e+00,1.159086823463439941e+00,1.159017920494079590e+00,1.158949136734008789e+00,1.158880352973937988e+00,1.158811569213867188e+00,1.158742785453796387e+00,1.158674001693725586e+00,1.158605217933654785e+00,1.158536434173583984e+00,1.158467769622802734e+00,1.158398866653442383e+00,1.158330202102661133e+00,1.158261537551879883e+00,1.158192753791809082e+00,1.158124089241027832e+00,1.158055424690246582e+00,1.157986760139465332e+00,1.157917976379394531e+00,1.157849311828613281e+00,1.157780647277832031e+00,1.157711982727050781e+00,1.157643318176269531e+00,1.157574653625488281e+00,1.157506108283996582e+00,1.157437443733215332e+00,1.157368779182434082e+00,1.157300233840942383e+00,1.157231569290161133e+00,1.157163023948669434e+00,1.157094359397888184e+00,1.157025814056396484e+00,1.156957268714904785e+00
1.087142705917358398e+00,1.087082266807556152e+00,1.087021589279174805e+00,1.086961150169372559e+00,1.086900591850280762e+00,1.086840152740478516e+00,1.086779594421386719e+00,1.086719155311584473e+00,1.086658596992492676e+00,1.086598157882690430e+00,1.086537718772888184e+00,1.086477160453796387e+00,1.086416721343994141e+00,1.086356282234191895e+00,1.086295843124389648e+00,1.086235404014587402e+00,1.086174845695495605e+00,1.086114525794982910e+00,1.086054086685180664e+00,1.085993647575378418e+00,1.085933208465576172e+00,1.085872769355773926e+00,1.085812449455261230e+00,1.085752010345458984e+00,1.085691690444946289e+00,1.085631251335144043e+00,1.085570931434631348e+00,1.085510611534118652e+00,1.085450172424316406e+00,1.085389852523803711e+00,1.085329532623291016e+00,1.085269212722778320e+00,1.085208773612976074e+00,1.085148572921752930e+00,1.085088253021240234e+00,1.085027933120727539e+00,1.084967613220214844e+00,1.084907293319702148e+00,1.084846973419189453e+00,1.084786653518676758e+00,1.084726452827453613e+00,1.084666132926940918e+00,1.084605932235717773e+00,1.084545612335205078e+00,1.084485411643981934e+00,1.084425091743469238e+00,1.084364891052246094e+00,1.084304690361022949e+00,1.084244489669799805e+00,1.084184169769287109e+00,1.084124088287353516e+00,1.084063768386840820e+00,1.084003686904907227e+00,1.083943367004394531e+00,1.083883285522460938e+00,1.083823084831237793e+00,1.083762884140014648e+00,1.083702802658081055e+00,1.083642601966857910e+00,1.083582401275634766e+00,1.083522319793701172e+00,1.083462119102478027e+00,1.083402037620544434e+00,1.083341836929321289e+00,1.083281755447387695e+00,1.083221673965454102e+00,1.083161592483520508e+00,1.083101391792297363e+00,1.083041429519653320e+00,1.082981348037719727e+00,1.082921266555786133e+00,1.082861185073852539e+00,1.082801103591918945e+00,1.082741022109985352e+00,1.082680940628051758e+00,1.082620978355407715e+00,1.082560896873474121e+00,1.082500815391540527e+00,1.082440853118896484e+00,1.082380771636962891e+00
1.021037936210632324e+00,1.020984649658203125e+00,1.020931124687194824e+00,1.020877838134765625e+00,1.020824432373046875e+00,1.020771026611328125e+00,1.020717620849609375e+00,1.020664334297180176e+00,1.020610928535461426e+00,1.020557522773742676e+00,1.020504236221313477e+00,1.020450830459594727e+00,1.020397543907165527e+00,1.020344257354736328e+00,1.020290851593017578e+00,1.020237565040588379e+00,1.020184159278869629e+00,1.020130872726440430e+00,1.020077586174011230e+00,1.020024299621582031e+00,1.019971013069152832e+00,1.019917726516723633e+00,1.019864439964294434e+00,1.019811153411865234e+00,1.019757866859436035e+00,1.019704580307006836e+00,1.019651412963867188e+00,1.019598126411437988e+00,1.019544839859008789e+00,1.019491672515869141e+00,1.019438385963439941e+00,1.019385099411010742e+00,1.019331932067871094e+00,1.019278645515441895e+00,1.019225478172302246e+00,1.019172310829162598e+00,1.019119024276733398e+00,1.019065856933593750e+00,1.019012689590454102e+00,1.018959403038024902e+00,1.018906235694885254e+00,1.018853068351745605e+00,1.018799901008605957e+00,1.018746852874755859e+00,1.018693566322326660e+00,1.018640518188476562e+00,1.018587231636047363e+00,1.018534183502197266e+00,1.018481016159057617e+00,1.018427848815917969e+00,1.018374800682067871e+00,1.018321633338928223e+00,1.018268585205078125e+00,1.018215417861938477e+00,1.018162250518798828e+00,1.018109202384948730e+00,1.018056154251098633e+00,1.018002986907958984e+00,1.017949938774108887e+00,1.017896890640258789e+00,1.017843723297119141e+00,1.017790675163269043e+00,1.017737627029418945e+00,1.017684578895568848e+00,1.017631530761718750e+00,1.017578482627868652e+00,1.017525434494018555e+00,1.017472386360168457e+00,1.017419338226318359e+00,1.017366290092468262e+00,1.017313361167907715e+00,1.017260313034057617e+00,1.017207264900207520e+00,1.017154335975646973e+00,1.017101287841796875e+00,1.017048358917236328e+00,1.016995310783386230e+00,1.016942381858825684e+00,1.016889452934265137e+00,1.016836404800415039e+00
