5.000000000000000000e+00,5.000000000000000000e+00,5.000000000000000000e+00,5.000000000000000000e+00,5.000000000000000000e+00,5.000000000000000000e+00,5.000000000000000000e+00,5.000000000000000000e+00,5.000000000000000000e+00,5.000000000000000000e+00,5.000000000000000000e+00,5.000000000000000000e+00,5.000000000000000000e+00,5.000000000000000000e+00,5.000000000000000000e+00,5.000000000000000000e+00,5.000000000000000000e+00,5.000000000000000000e+00,5.000000000000000000e+00,5.000000000000000000e+00,5.000000000000000000e+00,5.000000000000000000e+00,5.000000000000000000e+00,5.000000000000000000e+00,5.000000000000000000e+00,5.000000000000000000e+00,5.000000000000000000e+00,2.100927591323852539e+00,2.083372354507446289e+00,2.096624135971069336e+00,2.063224792480468750e+00,2.041503667831420898e+00,2.034847736358642578e+00,2.034097671508789062e+00,2.039306879043579102e+00,2.045110940933227539e+00,2.059837341308593750e+00,2.080192565917968750e+00,2.134231328964233398e+00,2.171313285827636719e+00,2.182082653045654297e+00,4.485036849975585938e+00,4.322105407714843750e+00,4.170598030090332031e+00,4.029352188110351562e+00,3.897360324859619141e+00,3.773741722106933594e+00,3.657723665237426758e+00,3.548626661300659180e+00,3.445849180221557617e+00,3.348857402801513672e+00,3.257176637649536133e+00,3.170381307601928711e+00,3.088091850280761719e+00,3.009966611862182617e+00,2.935696363449096680e+00,2.865003108978271484e+00,2.797634363174438477e+00,2.733361005783081055e+00,2.671975135803222656e+00,2.613285303115844727e+00,2.557118654251098633e+00,2.503315448760986328e+00,2.451729536056518555e+00,2.402226924896240234e+00,2.354683876037597656e+00,2.308985948562622070e+00,2.265028238296508789e+00,2.222712755203247070e+00,2.181949377059936523e+00,2.142654180526733398e+00,2.104749441146850586e+00,2.068162202835083008e+00,2.032825469970703125e+00,1.998676061630249023e+00,1.965654969215393066e+00,1.933707475662231445e+00,1.902781605720520020e+00,1.872829318046569824e+00,1.843805313110351562e+00
5.000000000000000000e+00,5.000000000000000000e+00,5.000000000000000000e+00,5.000000000000000000e+00,5.000000000000000000e+00,5.000000000000000000e+00,5.000000000000000000e+00,5.000000000000000000e+00,5.000000000000000000e+00,5.000000000000000000e+00,5.000000000000000000e+00,5.000000000000000000e+00,5.000000000000000000e+00,5.000000000000000000e+00,5.000000000000000000e+00,5.000000000000000000e+00,5.000000000000000000e+00,5.000000000000000000e+00,5.000000000000000000e+00,5.000000000000000000e+00,5.000000000000000000e+00,5.000000000000000000e+00,5.000000000000000000e+00,5.000000000000000000e+00,5.000000000000000000e+00,5.000000000000000000e+00,5.000000000000000000e+00,2.124534130096435547e+00,2.081756114959716797e+00,2.088161468505859375e+00,2.076131582260131836e+00,2.056734800338745117e+00,2.039327144622802734e+00,2.027771949768066406e+00,2.036150455474853516e+00,2.039493799209594727e+00,2.065530538558959961e+00,2.092453241348266602e+00,2.167793989181518555e+00,2.178571939468383789e+00,2.199325084686279297e+00,4.485154628753662109e+00,4.322215080261230469e+00,4.170700073242187500e+00,4.029447555541992188e+00,3.897449493408203125e+00,3.773824930191040039e+00,3.657802343368530273e+00,3.548700571060180664e+00,3.445918798446655273e+00,3.348923206329345703e+00,3.257238864898681641e+00,3.170440435409545898e+00,3.088147878646850586e+00,3.010019779205322266e+00,2.935746908187866211e+00,2.865051269531250000e+00,2.797680139541625977e+00,2.733404874801635742e+00,2.672016859054565430e+00,2.613325595855712891e+00,2.557157039642333984e+00,2.503352165222167969e+00,2.451764822006225586e+00,2.402260780334472656e+00,2.354716300964355469e+00,2.309017419815063477e+00,2.265058279037475586e+00,2.222741603851318359e+00,2.181977272033691406e+00,2.142681121826171875e+00,2.104775190353393555e+00,2.068187236785888672e+00,2.032849788665771484e+00,1.998699665069580078e+00,1.965677857398986816e+00,1.933729290962219238e+00,1.902802705764770508e+00,1.872849702835083008e+00,1.843825459480285645e+00
5.000000000000000000e+00,5.000000000000000000e+00,5.000000000000000000e+00,5.000000000000000000e+00,5.000000000000000000e+00,5.000000000000000000e+00,5.000000000000000000e+00,5.000000000000000000e+00,5.000000000000000000e+00,5.000000000000000000e+00,5.000000000000000000e+00,5.000000000000000000e+00,5.000000000000000000e+00,5.000000000000000000e+00,5.000000000000000000e+00,5.000000000000000000e+00,5.000000000000000000e+00,5.000000000000000000e+00,5.000000000000000000e+00,5.000000000000000000e+00,5.000000000000000000e+00,5.000000000000000000e+00,5.000000000000000000e+00,5.000000000000000000e+00,5.000000000000000000e+00,5.000000000000000000e+00,5.000000000000000000e+00,2.108616113662719727e+00,2.080085515975952148e+00,2.078726530075073242e+00,2.092204570770263672e+00,2.057262659072875977e+00,2.037504434585571289e+00,2.030021190643310547e+00,2.034360647201538086e+00,2.040617227554321289e+00,2.060990571975708008e+00,2.097100973129272461e+00,2.186827898025512695e+00,2.184475421905517578e+00,2.205682277679443359e+00,4.485272884368896484e+00,4.322324752807617188e+00,4.170802116394042969e+00,4.029542922973632812e+00,3.897538661956787109e+00,3.773908376693725586e+00,3.657880783081054688e+00,3.548774480819702148e+00,3.445988655090332031e+00,3.348989009857177734e+00,3.257300853729248047e+00,3.170499324798583984e+00,3.088203907012939453e+00,3.010072946548461914e+00,2.935797452926635742e+00,2.865099191665649414e+00,2.797726154327392578e+00,2.733448743820190430e+00,2.672058820724487305e+00,2.613365650177001953e+00,2.557195425033569336e+00,2.503388881683349609e+00,2.451800107955932617e+00,2.402294874191284180e+00,2.354748964309692383e+00,2.309048652648925781e+00,2.265088319778442383e+00,2.222770690917968750e+00,2.182005405426025391e+00,2.142707824707031250e+00,2.104801416397094727e+00,2.068212270736694336e+00,2.032873868942260742e+00,1.998723030090332031e+00,1.965700387954711914e+00,1.933751344680786133e+00,1.902824044227600098e+00,1.872870445251464844e+00,1.843845248222351074e+00
5.000000000000000000e+00,5.000000000000000000e+00,5.000000000000000000e+00,5.000000000000000000e+00,5.000000000000000000e+00,5.000000000000000000e+00,5.000000000000000000e+00,5.000000000000000000e+00,5.000000000000000000e+00,5.000000000000000000e+00,5.000000000000000000e+00,5.000000000000000000e+00,5.000000000000000000e+00,5.000000000000000000e+00,5.000000000000000000e+00,5.000000000000000000e+00,5.000000000000000000e+00,5.000000000000000000e+00,5.000000000000000000e+00,5.000000000000000000e+00,5.000000000000000000e+00,5.000000000000000000e+00,5.000000000000000000e+00,5.000000000000000000e+00,5.000000000000000000e+00,5.000000000000000000e+00,5.000000000000000000e+00,2.098513364791870117e+00,2.076411008834838867e+00,2.071421623229980469e+00,2.117128849029541016e+00,2.055465936660766602e+00,2.038870096206665039e+00,2.033286333084106445e+00,2.035650014877319336e+00,2.043044328689575195e+00,2.059680223464965820e+00,2.091959238052368164e+00,2.186376333236694336e+00,2.184710502624511719e+00,2.211570501327514648e+00,4.485390663146972656e+00,4.322434425354003906e+00,4.170904159545898438e+00,4.029637813568115234e+00,3.897627830505371094e+00,3.773992061614990234e+00,3.657959461212158203e+00,3.548848390579223633e+00,3.446058273315429688e+00,3.349054813385009766e+00,3.257363080978393555e+00,3.170558452606201172e+00,3.088259935379028320e+00,3.010126113891601562e+00,2.935847997665405273e+00,2.865147352218627930e+00,2.797772169113159180e+00,2.733492612838745117e+00,2.672100782394409180e+00,2.613405704498291016e+00,2.557233810424804688e+00,2.503425836563110352e+00,2.451835393905639648e+00,2.402328729629516602e+00,2.354781389236450195e+00,2.309079647064208984e+00,2.265118598937988281e+00,2.222799777984619141e+00,2.182033061981201172e+00,2.142735004425048828e+00,2.104827165603637695e+00,2.068237543106079102e+00,2.032898187637329102e+00,1.998746514320373535e+00,1.965723156929016113e+00,1.933773159980773926e+00,1.902845263481140137e+00,1.872890949249267578e+00,1.843865394592285156e+00
5.000000000000000000e+00,5.000000000000000000e+00,5.000000000000000000e+00,5.000000000000000000e+00,5.000000000000000000e+00,5.000000000000000000e+00,5.000000000000000000e+00,5.000000000000000000e+00,5.000000000000000000e+00,5.000000000000000000e+00,5.000000000000000000e+00,5.000000000000000000e+00,5.000000000000000000e+00,5.000000000000000000e+00,5.000000000000000000e+00,5.000000000000000000e+00,5.000000000000000000e+00,5.000000000000000000e+00,5.000000000000000000e+00,5.000000000000000000e+00,5.000000000000000000e+00,5.000000000000000000e+00,5.000000000000000000e+00,5.000000000000000000e+00,5.000000000000000000e+00,5.000000000000000000e+00,5.000000000000000000e+00,2.094011068344116211e+00,2.075592994689941406e+00,2.077969074249267578e+00,5.000000000000000000e+00,2.056665897369384766e+00,2.039007902145385742e+00,2.037475585937500000e+00,2.038973331451416016e+00,2.045782089233398438e+00,2.062791585922241211e+00,2.104147434234619141e+00,2.194818019866943359e+00,2.188306331634521484e+00,2.218495845794677734e+00,4.485508918762207031e+00,4.322544097900390625e+00,4.171006202697753906e+00,4.029733180999755859e+00,3.897716999053955078e+00,3.774075746536254883e+00,3.658037900924682617e+00,3.548922300338745117e+00,3.446127653121948242e+00,3.349120616912841797e+00,3.257425308227539062e+00,3.170617341995239258e+00,3.088315963745117188e+00,3.010179042816162109e+00,2.935898780822753906e+00,2.865195751190185547e+00,2.797818183898925781e+00,2.733536481857299805e+00,2.672142505645751953e+00,2.613445758819580078e+00,2.557272195816040039e+00,2.503462553024291992e+00,2.451870679855346680e+00,2.402362585067749023e+00,2.354814052581787109e+00,2.309111118316650391e+00,2.265148639678955078e+00,2.222828388214111328e+00,2.182060956954956055e+00,2.142761945724487305e+00,2.104853153228759766e+00,2.068262577056884766e+00,2.032922506332397461e+00,1.998769879341125488e+00,1.965745806694030762e+00,1.933794975280761719e+00,1.902866601943969727e+00,1.872911691665649414e+00,1.843885183334350586e+00
5.000000000000000000e+00,5.000000000000000000e+00,5.000000000000000000e+00,5.000000000000000000e+00,5.000000000000000000e+00,5.000000000000000000e+00,5.000000000000000000e+00,5.000000000000000000e+00,5.000000000000000000e+00,5.000000000000000000e+00,5.000000000000000000e+00,5.000000000000000000e+00,5.000000000000000000e+00,5.000000000000000000e+00,5.000000000000000000e+00,5.000000000000000000e+00,5.000000000000000000e+00,5.000000000000000000e+00,5.000000000000000000e+00,5.000000000000000000e+00,5.000000000000000000e+00,5.000000000000000000e+00,5.000000000000000000e+00,5.000000000000000000e+00,5.000000000000000000e+00,5.000000000000000000e+00,5.000000000000000000e+00,2.094027280807495117e+00,2.075335741043090820e+00,2.086227655410766602e+00,2.105792999267578125e+00,2.046287298202514648e+00,2.030825853347778320e+00,2.029105186462402344e+00,2.038173675537109375e+00,2.037449359893798828e+00,2.050967931747436523e+00,2.089242219924926758e+00,2.207759141921997070e+00,2.198147296905517578e+00,2.228600978851318359e+00,4.485627174377441406e+00,4.322653770446777344e+00,4.171108245849609375e+00,4.029828548431396484e+00,3.897806167602539062e+00,3.774159431457519531e+00,3.658116579055786133e+00,3.548996210098266602e+00,3.446197509765625000e+00,3.349186420440673828e+00,3.257487773895263672e+00,3.170676469802856445e+00,3.088371992111206055e+00,3.010232210159301758e+00,2.935949325561523438e+00,2.865243911743164062e+00,2.797864198684692383e+00,2.733580350875854492e+00,2.672184467315673828e+00,2.613485813140869141e+00,2.557310581207275391e+00,2.503499269485473633e+00,2.451905965805053711e+00,2.402396202087402344e+00,2.354846715927124023e+00,2.309142351150512695e+00,2.265178442001342773e+00,2.222857475280761719e+00,2.182088851928710938e+00,2.142788887023925781e+00,2.104879140853881836e+00,2.068287611007690430e+00,2.032946825027465820e+00,1.998793244361877441e+00,1.965768575668334961e+00,1.933817148208618164e+00,1.902887701988220215e+00,1.872932076454162598e+00,1.843905210494995117e+00
5.000000000000000000e+00,5.000000000000000000e+00,5.000000000000000000e+00,5.000000000000000000e+00,5.000000000000000000e+00,5.000000000000000000e+00,5.000000000000000000e+00,5.000000000000000000e+00,5.000000000000000000e+00,5.000000000000000000e+00,5.000000000000000000e+00,5.000000000000000000e+00,5.000000000000000000e+00,5.000000000000000000e+00,5.000000000000000000e+00,5.000000000000000000e+00,5.000000000000000000e+00,5.000000000000000000e+00,5.000000000000000000e+00,5.000000000000000000e+00,5.000000000000000000e+00,5.000000000000000000e+00,5.000000000000000000e+00,5.000000000000000000e+00,5.000000000000000000e+00,5.000000000000000000e+00,5.000000000000000000e+00,2.091026782989501953e+00,2.071295738220214844e+00,2.094558238983154297e+00,2.094392299652099609e+00,2.043479204177856445e+00,2.026583909988403320e+00,2.026311874389648438e+00,2.029406547546386719e+00,2.035753250122070312e+00,2.047088146209716797e+00,2.084831476211547852e+00,2.220566749572753906e+00,2.211700201034545898e+00,2.238251209259033203e+00,4.485744953155517578e+00,4.322763442993164062e+00,4.171210289001464844e+00,4.029923915863037109e+00,3.897895336151123047e+00,3.774242877960205078e+00,3.658194780349731445e+00,3.549070119857788086e+00,3.446267127990722656e+00,3.349252462387084961e+00,3.257550001144409180e+00,3.170735120773315430e+00,3.088427782058715820e+00,3.010285377502441406e+00,2.935999870300292969e+00,2.865292072296142578e+00,2.797909975051879883e+00,2.733624219894409180e+00,2.672226428985595703e+00,2.613525867462158203e+00,2.557348966598510742e+00,2.503536224365234375e+00,2.451941251754760742e+00,2.402430057525634766e+00,2.354879140853881836e+00,2.309173345565795898e+00,2.265208721160888672e+00,2.222886562347412109e+00,2.182116746902465820e+00,2.142815828323364258e+00,2.104905128479003906e+00,2.068312883377075195e+00,2.032971143722534180e+00,1.998816847801208496e+00,1.965791106224060059e+00,1.933838963508605957e+00,1.902909040451049805e+00,1.872952818870544434e+00,1.843925118446350098e+00
5.000000000000000000e+00,5.000000000000000000e+00,5.000000000000000000e+00,5.000000000000000000e+00,5.000000000000000000e+00,5.000000000000000000e+00,5.000000000000000000e+00,5.000000000000000000e+00,5.000000000000000000e+00,5.000000000000000000e+00,5.000000000000000000e+00,5.000000000000000000e+00,5.000000000000000000e+00,5.000000000000000000e+00,5.000000000000000000e+00,5.000000000000000000e+00,5.000000000000000000e+00,5.000000000000000000e+00,5.000000000000000000e+00,5.000000000000000000e+00,5.000000000000000000e+00,5.000000000000000000e+00,5.000000000000000000e+00,5.000000000000000000e+00,5.000000000000000000e+00,5.000000000000000000e+00,5.000000000000000000e+00,2.044482707977294922e+00,2.035346031188964844e+00,2.066007852554321289e+00,2.081091165542602539e+00,2.055233716964721680e+00,2.040128469467163086e+00,2.035792350769042969e+00,2.036978483200073242e+00,2.047384738922119141e+00,2.067538261413574219e+00,2.086961030960083008e+00,2.224921226501464844e+00,2.214105606079101562e+00,2.241107225418090820e+00,4.485863208770751953e+00,4.322873115539550781e+00,4.171312332153320312e+00,4.030019283294677734e+00,3.897984504699707031e+00,3.774326562881469727e+00,3.658273220062255859e+00,3.549144268035888672e+00,3.446336984634399414e+00,3.349318265914916992e+00,3.257612228393554688e+00,3.170794248580932617e+00,3.088483810424804688e+00,3.010338544845581055e+00,2.936050415039062500e+00,2.865340232849121094e+00,2.797955751419067383e+00,2.733668088912963867e+00,2.672268152236938477e+00,2.613566160202026367e+00,2.557387351989746094e+00,2.503572702407836914e+00,2.451976537704467773e+00,2.402463912963867188e+00,2.354911565780639648e+00,2.309204816818237305e+00,2.265238523483276367e+00,2.222915410995483398e+00,2.182144641876220703e+00,2.142842769622802734e+00,2.104931354522705078e+00,2.068337917327880859e+00,2.032995223999023438e+00,1.998840093612670898e+00,1.965813875198364258e+00,1.933861017227172852e+00,1.902930259704589844e+00,1.872973322868347168e+00,1.843945026397705078e+00
5.000000000000000000e+00,5.000000000000000000e+00,5.000000000000000000e+00,5.000000000000000000e+00,5.000000000000000000e+00,5.000000000000000000e+00,5.000000000000000000e+00,5.000000000000000000e+00,5.000000000000000000e+00,5.000000000000000000e+00,5.000000000000000000e+00,5.000000000000000000e+00,5.000000000000000000e+00,5.000000000000000000e+00,5.000000000000000000e+00,5.000000000000000000e+00,5.000000000000000000e+00,5.000000000000000000e+00,5.000000000000000000e+00,5.000000000000000000e+00,5.000000000000000000e+00,5.000000000000000000e+00,5.000000000000000000e+00,5.000000000000000000e+00,5.000000000000000000e+00,5.000000000000000000e+00,5.000000000000000000e+00,2.015020132064819336e+00,2.008846759796142578e+00,2.045077323913574219e+00,2.073158264160156250e+00,2.055474042892456055e+00,2.045398950576782227e+00,2.037515163421630859e+00,2.044171810150146484e+00,2.060201406478881836e+00,2.076818466186523438e+00,2.107270240783691406e+00,2.217658042907714844e+00,2.203984260559082031e+00,2.224454164505004883e+00,4.485980987548828125e+00,4.322982788085937500e+00,4.171414852142333984e+00,4.030114650726318359e+00,3.898073434829711914e+00,3.774410247802734375e+00,3.658351898193359375e+00,3.549218177795410156e+00,3.446406602859497070e+00,3.349383831024169922e+00,3.257674694061279297e+00,3.170853137969970703e+00,3.088539838790893555e+00,3.010391712188720703e+00,2.936100959777832031e+00,2.865388393402099609e+00,2.798001766204833984e+00,2.733711957931518555e+00,2.672310113906860352e+00,2.613606214523315430e+00,2.557425737380981445e+00,2.503609657287597656e+00,2.452011823654174805e+00,2.402497768402099609e+00,2.354943990707397461e+00,2.309236049652099609e+00,2.265268802642822266e+00,2.222944498062133789e+00,2.182172775268554688e+00,2.142869710922241211e+00,2.104957342147827148e+00,2.068362951278686523e+00,2.033019542694091797e+00,1.998863697052001953e+00,1.965836524963378906e+00,1.933882832527160645e+00,1.902951359748840332e+00,1.872994065284729004e+00,1.843965053558349609e+00
5.000000000000000000e+00,5.000000000000000000e+00,5.000000000000000000e+00,5.000000000000000000e+00,5.000000000000000000e+00,5.000000000000000000e+00,5.000000000000000000e+00,5.000000000000000000e+00,5.000000000000000000e+00,5.000000000000000000e+00,5.000000000000000000e+00,5.000000000000000000e+00,5.000000000000000000e+00,5.000000000000000000e+00,5.000000000000000000e+00,5.000000000000000000e+00,5.000000000000000000e+00,5.000000000000000000e+00,5.000000000000000000e+00,5.000000000000000000e+00,5.000000000000000000e+00,5.000000000000000000e+00,5.000000000000000000e+00,5.000000000000000000e+00,5.000000000000000000e+00,5.000000000000000000e+00,5.000000000000000000e+00,1.979557633399963379e+00,1.974628448486328125e+00,2.050729751586914062e+00,2.074204444885253906e+00,2.058033704757690430e+00,2.057485818862915039e+00,2.060822963714599609e+00,2.065096616744995117e+00,2.077048301696777344e+00,2.067514657974243164e+00,2.094617128372192383e+00,2.216554880142211914e+00,2.198066711425781250e+00,2.217693328857421875e+00,4.486099243164062500e+00,4.323092460632324219e+00,4.171516895294189453e+00,4.030209541320800781e+00,3.898162603378295898e+00,3.774493932723999023e+00,3.658430337905883789e+00,3.549292087554931641e+00,3.446476221084594727e+00,3.349449634552001953e+00,3.257736921310424805e+00,3.170912265777587891e+00,3.088595867156982422e+00,3.010445117950439453e+00,2.936151504516601562e+00,2.865436553955078125e+00,2.798047780990600586e+00,2.733755826950073242e+00,2.672352075576782227e+00,2.613646030426025391e+00,2.557464122772216797e+00,2.503646373748779297e+00,2.452047109603881836e+00,2.402531623840332031e+00,2.354976415634155273e+00,2.309267282485961914e+00,2.265298843383789062e+00,2.222973585128784180e+00,2.182200670242309570e+00,2.142896413803100586e+00,2.104983329772949219e+00,2.068387985229492188e+00,2.033043861389160156e+00,1.998887062072753906e+00,1.965859293937683105e+00,1.933904886245727539e+00,1.902972817420959473e+00,1.873014450073242188e+00,1.843984961509704590e+00
5.000000000000000000e+00,5.000000000000000000e+00,5.000000000000000000e+00,5.000000000000000000e+00,5.000000000000000000e+00,5.000000000000000000e+00,5.000000000000000000e+00,5.000000000000000000e+00,5.000000000000000000e+00,5.000000000000000000e+00,5.000000000000000000e+00,5.000000000000000000e+00,5.000000000000000000e+00,5.000000000000000000e+00,5.000000000000000000e+00,5.000000000000000000e+00,5.000000000000000000e+00,5.000000000000000000e+00,5.000000000000000000e+00,5.000000000000000000e+00,5.000000000000000000e+00,5.000000000000000000e+00,5.000000000000000000e+00,5.000000000000000000e+00,5.000000000000000000e+00,5.000000000000000000e+00,5.000000000000000000e+00,1.961868643760681152e+00,1.965230345726013184e+00,5.000000000000000000e+00,2.077311754226684570e+00,2.063530921936035156e+00,2.071357965469360352e+00,2.084740400314331055e+00,2.067183256149291992e+00,2.012680768966674805e+00,2.006570100784301758e+00,2.032220125198364258e+00,2.245934963226318359e+00,2.191495656967163086e+00,2.212523937225341797e+00,4.486217498779296875e+00,4.323202133178710938e+00,4.171618938446044922e+00,4.030304908752441406e+00,3.898251771926879883e+00,3.774577617645263672e+00,3.658509016036987305e+00,3.549365758895874023e+00,3.446546077728271484e+00,3.349515438079833984e+00,3.257799148559570312e+00,3.170971393585205078e+00,3.088651657104492188e+00,3.010498285293579102e+00,2.936202049255371094e+00,2.865484952926635742e+00,2.798093795776367188e+00,2.733799695968627930e+00,2.672394037246704102e+00,2.613686084747314453e+00,2.557502508163452148e+00,2.503682851791381836e+00,2.452082395553588867e+00,2.402565479278564453e+00,2.355009078979492188e+00,2.309298753738403320e+00,2.265329122543334961e+00,2.223002433776855469e+00,2.182228565216064453e+00,2.142923355102539062e+00,2.105009317398071289e+00,2.068413257598876953e+00,2.033068180084228516e+00,1.998910665512084961e+00,1.965881943702697754e+00,1.933926820755004883e+00,1.902993917465209961e+00,1.873035192489624023e+00,1.844004988670349121e+00
5.000000000000000000e+00,5.000000000000000000e+00,5.000000000000000000e+00,5.000000000000000000e+00,5.000000000000000000e+00,5.000000000000000000e+00,5.000000000000000000e+00,5.000000000000000000e+00,5.000000000000000000e+00,5.000000000000000000e+00,5.000000000000000000e+00,5.000000000000000000e+00,5.000000000000000000e+00,5.000000000000000000e+00,5.000000000000000000e+00,5.000000000000000000e+00,5.000000000000000000e+00,5.000000000000000000e+00,5.000000000000000000e+00,5.000000000000000000e+00,5.000000000000000000e+00,5.000000000000000000e+00,5.000000000000000000e+00,5.000000000000000000e+00,5.000000000000000000e+00,5.000000000000000000e+00,5.000000000000000000e+00,1.915608048439025879e+00,1.918615579605102539e+00,5.000000000000000000e+00,2.078368186950683594e+00,2.068471431732177734e+00,2.072433710098266602e+00,2.095739603042602539e+00,2.015780210494995117e+00,1.991084098815917969e+00,1.982834219932556152e+00,2.007756233215332031e+00,2.033547163009643555e+00,2.187133789062500000e+00,2.198238134384155273e+00,4.486335277557373047e+00,4.323311805725097656e+00,4.171720981597900391e+00,4.030400276184082031e+00,3.898340940475463867e+00,3.774661064147949219e+00,3.658587694168090820e+00,3.549439668655395508e+00,3.446615934371948242e+00,3.349581480026245117e+00,3.257861614227294922e+00,3.171030282974243164e+00,3.088707685470581055e+00,3.010551452636718750e+00,2.936252593994140625e+00,2.865533113479614258e+00,2.798139810562133789e+00,2.733843564987182617e+00,2.672435998916625977e+00,2.613726377487182617e+00,2.557540893554687500e+00,2.503719806671142578e+00,2.452117443084716797e+00,2.402599334716796875e+00,2.355041503906250000e+00,2.309329986572265625e+00,2.265359163284301758e+00,2.223031282424926758e+00,2.182256460189819336e+00,2.142950534820556641e+00,2.105035305023193359e+00,2.068438291549682617e+00,2.033092260360717773e+00,1.998934030532836914e+00,1.965904474258422852e+00,1.933948874473571777e+00,1.903015255928039551e+00,1.873055696487426758e+00,1.844024896621704102e+00
5.000000000000000000e+00,5.000000000000000000e+00,5.000000000000000000e+00,5.000000000000000000e+00,5.000000000000000000e+00,5.000000000000000000e+00,5.000000000000000000e+00,5.000000000000000000e+00,5.000000000000000000e+00,5.000000000000000000e+00,5.000000000000000000e+00,5.000000000000000000e+00,5.000000000000000000e+00,5.000000000000000000e+00,5.000000000000000000e+00,5.000000000000000000e+00,5.000000000000000000e+00,5.000000000000000000e+00,5.000000000000000000e+00,5.000000000000000000e+00,5.000000000000000000e+00,5.000000000000000000e+00,5.000000000000000000e+00,5.000000000000000000e+00,5.000000000000000000e+00,5.000000000000000000e+00,5.000000000000000000e+00,1.879122972488403320e+00,1.884364128112792969e+00,5.000000000000000000e+00,2.081405878067016602e+00,2.070795536041259766e+00,2.071591138839721680e+00,2.096742868423461914e+00,2.004636526107788086e+00,1.976694464683532715e+00,1.962717890739440918e+00,1.987134337425231934e+00,2.032592296600341797e+00,2.216923236846923828e+00,2.202903985977172852e+00,4.486453533172607422e+00,4.323421478271484375e+00,4.171823024749755859e+00,4.030495643615722656e+00,3.898430109024047852e+00,3.774744510650634766e+00,3.658666133880615234e+00,3.549513578414916992e+00,3.446685552597045898e+00,3.349647283554077148e+00,3.257923603057861328e+00,3.171089410781860352e+00,3.088763713836669922e+00,3.010604619979858398e+00,2.936303377151489258e+00,2.865581274032592773e+00,2.798185586929321289e+00,2.733887434005737305e+00,2.672477960586547852e+00,2.613766193389892578e+00,2.557579040527343750e+00,2.503756523132324219e+00,2.452152729034423828e+00,2.402633190155029297e+00,2.355074167251586914e+00,2.309361219406127930e+00,2.265389204025268555e+00,2.223060369491577148e+00,2.182284593582153320e+00,2.142977476119995117e+00,2.105061292648315430e+00,2.068463325500488281e+00,2.033116579055786133e+00,1.998957514762878418e+00,1.965927243232727051e+00,1.933970689773559570e+00,1.903036475181579590e+00,1.873076200485229492e+00,1.844044923782348633e+00
5.000000000000000000e+00,5.000000000000000000e+00,5.000000000000000000e+00,5.000000000000000000e+00,5.000000000000000000e+00,5.000000000000000000e+00,5.000000000000000000e+00,5.000000000000000000e+00,5.000000000000000000e+00,5.000000000000000000e+00,5.000000000000000000e+00,5.000000000000000000e+00,5.000000000000000000e+00,5.000000000000000000e+00,5.000000000000000000e+00,5.000000000000000000e+00,5.000000000000000000e+00,5.000000000000000000e+00,5.000000000000000000e+00,5.000000000000000000e+00,5.000000000000000000e+00,5.000000000000000000e+00,5.000000000000000000e+00,5.000000000000000000e+00,5.000000000000000000e+00,5.000000000000000000e+00,1.912877440452575684e+00,1.844491720199584961e+00,5.000000000000000000e+00,5.000000000000000000e+00,2.091571807861328125e+00,2.079401493072509766e+00,2.075643062591552734e+00,2.100206136703491211e+00,2.001999616622924805e+00,1.960779786109924316e+00,1.943005800247192383e+00,1.968839287757873535e+00,2.032513380050659180e+00,2.172993659973144531e+00,2.195015907287597656e+00,4.486571788787841797e+00,4.323531150817871094e+00,4.171925067901611328e+00,4.030591011047363281e+00,3.898519515991210938e+00,3.774827957153320312e+00,3.658744812011718750e+00,3.549587488174438477e+00,3.446755409240722656e+00,3.349713087081909180e+00,3.257985830307006836e+00,3.171148300170898438e+00,3.088819742202758789e+00,3.010657787322998047e+00,2.936353921890258789e+00,2.865629196166992188e+00,2.798231601715087891e+00,2.733931303024291992e+00,2.672519922256469727e+00,2.613806247711181641e+00,2.557617187500000000e+00,2.503793239593505859e+00,2.452188014984130859e+00,2.402667045593261719e+00,2.355106592178344727e+00,2.309392452239990234e+00,2.265419483184814453e+00,2.223089456558227539e+00,2.182312488555908203e+00,2.143004417419433594e+00,2.105087280273437500e+00,2.068488597869873047e+00,2.033140897750854492e+00,1.998980879783630371e+00,1.965949892997741699e+00,1.933992743492126465e+00,1.903057813644409180e+00,1.873096942901611328e+00,1.844064831733703613e+00
5.000000000000000000e+00,5.000000000000000000e+00,5.000000000000000000e+00,5.000000000000000000e+00,5.000000000000000000e+00,5.000000000000000000e+00,5.000000000000000000e+00,5.000000000000000000e+00,5.000000000000000000e+00,5.000000000000000000e+00,5.000000000000000000e+00,5.000000000000000000e+00,5.000000000000000000e+00,5.000000000000000000e+00,5.000000000000000000e+00,5.000000000000000000e+00,5.000000000000000000e+00,5.000000000000000000e+00,5.000000000000000000e+00,5.000000000000000000e+00,5.000000000000000000e+00,5.000000000000000000e+00,5.000000000000000000e+00,5.000000000000000000e+00,5.000000000000000000e+00,5.000000000000000000e+00,1.855478525161743164e+00,5.000000000000000000e+00,5.000000000000000000e+00,5.000000000000000000e+00,2.103633403778076172e+00,2.090722799301147461e+00,2.083630561828613281e+00,2.109660625457763672e+00,1.999342083930969238e+00,1.943437337875366211e+00,1.926814317703247070e+00,1.948788046836853027e+00,2.032311439514160156e+00,2.170202016830444336e+00,2.172752618789672852e+00,4.486690044403076172e+00,4.323640823364257812e+00,4.172027587890625000e+00,4.030686378479003906e+00,3.898608684539794922e+00,3.774911642074584961e+00,3.658823251724243164e+00,3.549661636352539062e+00,3.446824789047241211e+00,3.349779129028320312e+00,3.258048057556152344e+00,3.171207427978515625e+00,3.088875770568847656e+00,3.010710716247558594e+00,2.936404466629028320e+00,2.865677356719970703e+00,2.798277616500854492e+00,2.733974933624267578e+00,2.672561645507812500e+00,2.613846302032470703e+00,2.557655572891235352e+00,2.503830194473266602e+00,2.452223300933837891e+00,2.402700901031494141e+00,2.355139255523681641e+00,2.309423685073852539e+00,2.265449523925781250e+00,2.223118305206298828e+00,2.182340383529663086e+00,2.143031358718872070e+00,2.105113267898559570e+00,2.068513631820678711e+00,2.033164978027343750e+00,1.999004483222961426e+00,1.965972661972045898e+00,1.934014558792114258e+00,1.903079032897949219e+00,1.873117446899414062e+00,1.844084858894348145e+00
5.000000000000000000e+00,5.000000000000000000e+00,5.000000000000000000e+00,5.000000000000000000e+00,5.000000000000000000e+00,5.000000000000000000e+00,5.000000000000000000e+00,5.000000000000000000e+00,5.000000000000000000e+00,5.000000000000000000e+00,5.000000000000000000e+00,5.000000000000000000e+00,5.000000000000000000e+00,5.000000000000000000e+00,5.000000000000000000e+00,5.000000000000000000e+00,5.000000000000000000e+00,5.000000000000000000e+00,5.000000000000000000e+00,5.000000000000000000e+00,5.000000000000000000e+00,5.000000000000000000e+00,5.000000000000000000e+00,5.000000000000000000e+00,5.000000000000000000e+00,5.000000000000000000e+00,5.000000000000000000e+00,5.000000000000000000e+00,5.000000000000000000e+00,5.000000000000000000e+00,2.118452787399291992e+00,2.103813648223876953e+00,2.095860242843627930e+00,2.122152805328369141e+00,1.996691942214965820e+00,1.927310347557067871e+00,1.911633729934692383e+00,1.924429535865783691e+00,5.000000000000000000e+00,4.852827072143554688e+00,2.178722381591796875e+00,4.486808300018310547e+00,4.323750972747802734e+00,4.172129154205322266e+00,4.030781745910644531e+00,3.898697853088378906e+00,3.774995326995849609e+00,3.658901929855346680e+00,3.549735546112060547e+00,3.446894407272338867e+00,3.349844932556152344e+00,3.258110523223876953e+00,3.171266555786132812e+00,3.088931798934936523e+00,3.010764122009277344e+00,2.936455249786376953e+00,2.865725755691528320e+00,2.798323631286621094e+00,2.734018802642822266e+00,2.672603368759155273e+00,2.613886594772338867e+00,2.557693958282470703e+00,2.503866910934448242e+00,2.452258586883544922e+00,2.402734756469726562e+00,2.355171918869018555e+00,2.309455156326293945e+00,2.265479564666748047e+00,2.223147392272949219e+00,2.182368278503417969e+00,2.143058300018310547e+00,2.105139255523681641e+00,2.068538665771484375e+00,2.033189296722412109e+00,1.999027848243713379e+00,1.965995192527770996e+00,1.934036493301391602e+00,1.903100371360778809e+00,1.873138070106506348e+00,1.844104647636413574e+00
5.000000000000000000e+00,5.000000000000000000e+00,5.000000000000000000e+00,5.000000000000000000e+00,5.000000000000000000e+00,5.000000000000000000e+00,5.000000000000000000e+00,5.000000000000000000e+00,5.000000000000000000e+00,5.000000000000000000e+00,5.000000000000000000e+00,5.000000000000000000e+00,5.000000000000000000e+00,5.000000000000000000e+00,5.000000000000000000e+00,5.000000000000000000e+00,5.000000000000000000e+00,5.000000000000000000e+00,5.000000000000000000e+00,5.000000000000000000e+00,5.000000000000000000e+00,5.000000000000000000e+00,5.000000000000000000e+00,5.000000000000000000e+00,5.000000000000000000e+00,5.000000000000000000e+00,5.000000000000000000e+00,5.000000000000000000e+00,5.000000000000000000e+00,5.000000000000000000e+00,2.160088777542114258e+00,2.117649793624877930e+00,2.108234643936157227e+00,2.132899045944213867e+00,1.984356760978698730e+00,1.906993627548217773e+00,1.895900726318359375e+00,1.903732895851135254e+00,5.000000000000000000e+00,4.852965354919433594e+00,2.172062158584594727e+00,4.486926078796386719e+00,4.323860168457031250e+00,4.172231674194335938e+00,4.030877113342285156e+00,3.898787260055541992e+00,3.775079011917114258e+00,3.658980131149291992e+00,3.549809455871582031e+00,3.446964263916015625e+00,3.349910736083984375e+00,3.258172750473022461e+00,3.171325206756591797e+00,3.088987827301025391e+00,3.010817289352416992e+00,2.936505794525146484e+00,2.865773916244506836e+00,2.798369407653808594e+00,2.734062671661376953e+00,2.672645092010498047e+00,2.613926649093627930e+00,2.557732582092285156e+00,2.503903865814208984e+00,2.452293872833251953e+00,2.402768611907958984e+00,2.355204343795776367e+00,2.309486389160156250e+00,2.265509605407714844e+00,2.223176479339599609e+00,2.182396173477172852e+00,2.143085241317749023e+00,2.105165243148803711e+00,2.068563938140869141e+00,2.033213615417480469e+00,1.999051094055175781e+00,1.966018080711364746e+00,1.934058547019958496e+00,1.903121471405029297e+00,1.873158574104309082e+00,1.844124555587768555e+00
5.000000000000000000e+00,5.000000000000000000e+00,5.000000000000000000e+00,5.000000000000000000e+00,5.000000000000000000e+00,5.000000000000000000e+00,5.000000000000000000e+00,5.000000000000000000e+00,5.000000000000000000e+00,5.000000000000000000e+00,5.000000000000000000e+00,5.000000000000000000e+00,5.000000000000000000e+00,5.000000000000000000e+00,5.000000000000000000e+00,5.000000000000000000e+00,5.000000000000000000e+00,5.000000000000000000e+00,5.000000000000000000e+00,5.000000000000000000e+00,5.000000000000000000e+00,5.000000000000000000e+00,5.000000000000000000e+00,5.000000000000000000e+00,5.000000000000000000e+00,5.000000000000000000e+00,5.000000000000000000e+00,5.000000000000000000e+00,5.000000000000000000e+00,5.000000000000000000e+00,5.000000000000000000e+00,2.132452249526977539e+00,2.120641946792602539e+00,2.143754720687866211e+00,5.000000000000000000e+00,1.888047814369201660e+00,1.879155158996582031e+00,1.886929631233215332e+00,5.000000000000000000e+00,4.853103637695312500e+00,4.662900924682617188e+00,4.487044334411621094e+00,4.323969841003417969e+00,4.172333717346191406e+00,4.030972480773925781e+00,3.898876428604125977e+00,3.775162696838378906e+00,3.659058809280395508e+00,3.549883604049682617e+00,3.447033882141113281e+00,3.349976778030395508e+00,3.258235216140747070e+00,3.171384334564208984e+00,3.089043617248535156e+00,3.010870456695556641e+00,2.936556339263916016e+00,2.865821838378906250e+00,2.798415184020996094e+00,2.734106540679931641e+00,2.672687053680419922e+00,2.613966703414916992e+00,2.557770967483520508e+00,2.503940343856811523e+00,2.452329158782958984e+00,2.402802467346191406e+00,2.355237007141113281e+00,2.309517621994018555e+00,2.265539646148681641e+00,2.223205566406250000e+00,2.182424306869506836e+00,2.143112182617187500e+00,2.105191230773925781e+00,2.068588972091674805e+00,2.033237934112548828e+00,1.999074697494506836e+00,1.966040611267089844e+00,1.934080362319946289e+00,1.903142929077148438e+00,1.873179316520690918e+00,1.844144582748413086e+00
5.000000000000000000e+00,5.000000000000000000e+00,5.000000000000000000e+00,5.000000000000000000e+00,5.000000000000000000e+00,5.000000000000000000e+00,5.000000000000000000e+00,5.000000000000000000e+00,5.000000000000000000e+00,5.000000000000000000e+00,5.000000000000000000e+00,5.000000000000000000e+00,5.000000000000000000e+00,5.000000000000000000e+00,5.000000000000000000e+00,5.000000000000000000e+00,5.000000000000000000e+00,5.000000000000000000e+00,5.000000000000000000e+00,5.000000000000000000e+00,5.000000000000000000e+00,5.000000000000000000e+00,5.000000000000000000e+00,5.000000000000000000e+00,5.000000000000000000e+00,5.000000000000000000e+00,5.000000000000000000e+00,5.000000000000000000e+00,5.000000000000000000e+00,5.000000000000000000e+00,5.000000000000000000e+00,2.143004179000854492e+00,2.131801128387451172e+00,2.155162572860717773e+00,5.000000000000000000e+00,1.877543687820434570e+00,1.871212482452392578e+00,1.879233121871948242e+00,5.000000000000000000e+00,4.853241920471191406e+00,4.663028240203857422e+00,4.487162590026855469e+00,4.324079990386962891e+00,4.172435760498046875e+00,4.031067848205566406e+00,3.898965120315551758e+00,3.775246381759643555e+00,3.659137248992919922e+00,3.549957513809204102e+00,3.447103738784790039e+00,3.350042104721069336e+00,3.258297443389892578e+00,3.171443462371826172e+00,3.089099645614624023e+00,3.010923624038696289e+00,2.936606884002685547e+00,2.865869998931884766e+00,2.798460960388183594e+00,2.734150409698486328e+00,2.672729015350341797e+00,2.614006757736206055e+00,2.557809352874755859e+00,2.503977298736572266e+00,2.452364444732666016e+00,2.402836322784423828e+00,2.355269432067871094e+00,2.309549093246459961e+00,2.265569686889648438e+00,2.223234415054321289e+00,2.182452201843261719e+00,2.143139123916625977e+00,2.105217218399047852e+00,2.068614006042480469e+00,2.033262252807617188e+00,1.999098062515258789e+00,1.966063380241394043e+00,1.934102416038513184e+00,1.903164029121398926e+00,1.873199820518493652e+00,1.844164490699768066e+00
5.000000000000000000e+00,5.000000000000000000e+00,5.000000000000000000e+00,5.000000000000000000e+00,5.000000000000000000e+00,5.000000000000000000e+00,5.000000000000000000e+00,5.000000000000000000e+00,5.000000000000000000e+00,5.000000000000000000e+00,5.000000000000000000e+00,5.000000000000000000e+00,5.000000000000000000e+00,5.000000000000000000e+00,5.000000000000000000e+00,5.000000000000000000e+00,5.000000000000000000e+00,5.000000000000000000e+00,5.000000000000000000e+00,5.000000000000000000e+00,5.000000000000000000e+00,5.000000000000000000e+00,5.000000000000000000e+00,5.000000000000000000e+00,5.000000000000000000e+00,5.000000000000000000e+00,5.000000000000000000e+00,5.000000000000000000e+00,5.000000000000000000e+00,5.000000000000000000e+00,5.000000000000000000e+00,2.157941102981567383e+00,2.143131017684936523e+00,2.164168357849121094e+00,5.000000000000000000e+00,1.883294105529785156e+00,1.874600052833557129e+00,1.883211255073547363e+00,5.000000000000000000e+00,4.853380203247070312e+00,4.663155555725097656e+00,4.487280368804931641e+00,4.324189662933349609e+00,4.172538280487060547e+00,4.031162738800048828e+00,3.899054527282714844e+00,3.775330066680908203e+00,3.659215927124023438e+00,3.550031423568725586e+00,3.447173595428466797e+00,3.350108146667480469e+00,3.258359670639038086e+00,3.171502351760864258e+00,3.089155673980712891e+00,3.010976791381835938e+00,2.936657190322875977e+00,2.865918397903442383e+00,2.798506975173950195e+00,2.734194278717041016e+00,2.672770977020263672e+00,2.614046812057495117e+00,2.557847738265991211e+00,2.504014015197753906e+00,2.452399969100952148e+00,2.402870416641235352e+00,2.355301856994628906e+00,2.309580326080322266e+00,2.265599966049194336e+00,2.223263502120971680e+00,2.182480096817016602e+00,2.143166065216064453e+00,2.105243206024169922e+00,2.068639039993286133e+00,2.033286333084106445e+00,1.999121665954589844e+00,1.966086030006408691e+00,1.934124350547790527e+00,1.903185248374938965e+00,1.873220443725585938e+00,1.844184517860412598e+00
4.963974475860595703e+00,4.975230216979980469e+00,5.000000000000000000e+00,5.000000000000000000e+00,5.000000000000000000e+00,5.000000000000000000e+00,5.000000000000000000e+00,5.000000000000000000e+00,5.000000000000000000e+00,5.000000000000000000e+00,5.000000000000000000e+00,5.000000000000000000e+00,5.000000000000000000e+00,5.000000000000000000e+00,5.000000000000000000e+00,5.000000000000000000e+00,5.000000000000000000e+00,5.000000000000000000e+00,5.000000000000000000e+00,5.000000000000000000e+00,5.000000000000000000e+00,5.000000000000000000e+00,5.000000000000000000e+00,5.000000000000000000e+00,5.000000000000000000e+00,5.000000000000000000e+00,5.000000000000000000e+00,5.000000000000000000e+00,5.000000000000000000e+00,5.000000000000000000e+00,5.000000000000000000e+00,2.177234411239624023e+00,2.154581785202026367e+00,2.172991275787353516e+00,5.000000000000000000e+00,1.895304918289184570e+00,1.879693984985351562e+00,1.891468286514282227e+00,5.000000000000000000e+00,4.853518486022949219e+00,4.663283348083496094e+00,4.487398624420166016e+00,4.324299335479736328e+00,4.172640323638916016e+00,4.031258583068847656e+00,3.899143695831298828e+00,3.775413751602172852e+00,3.659294605255126953e+00,3.550105094909667969e+00,3.447243213653564453e+00,3.350173950195312500e+00,3.258422136306762695e+00,3.171561479568481445e+00,3.089211463928222656e+00,3.011029958724975586e+00,2.936707735061645508e+00,2.865966558456420898e+00,2.798552989959716797e+00,2.734238147735595703e+00,2.672812938690185547e+00,2.614086866378784180e+00,2.557886123657226562e+00,2.504050731658935547e+00,2.452435255050659180e+00,2.402904272079467773e+00,2.355334520339965820e+00,2.309611558914184570e+00,2.265630006790161133e+00,2.223292589187622070e+00,2.182507991790771484e+00,2.143193006515502930e+00,2.105269432067871094e+00,2.068664312362670898e+00,2.033310651779174805e+00,1.999145030975341797e+00,1.966108560562133789e+00,1.934146404266357422e+00,1.903206586837768555e+00,1.873240947723388672e+00,1.844204425811767578e+00
4.897966384887695312e+00,5.000000000000000000e+00,5.000000000000000000e+00,5.000000000000000000e+00,5.000000000000000000e+00,5.000000000000000000e+00,5.000000000000000000e+00,5.000000000000000000e+00,5.000000000000000000e+00,5.000000000000000000e+00,5.000000000000000000e+00,5.000000000000000000e+00,5.000000000000000000e+00,5.000000000000000000e+00,5.000000000000000000e+00,5.000000000000000000e+00,5.000000000000000000e+00,5.000000000000000000e+00,5.000000000000000000e+00,5.000000000000000000e+00,5.000000000000000000e+00,5.000000000000000000e+00,5.000000000000000000e+00,5.000000000000000000e+00,5.000000000000000000e+00,5.000000000000000000e+00,5.000000000000000000e+00,5.000000000000000000e+00,5.000000000000000000e+00,5.000000000000000000e+00,5.000000000000000000e+00,2.256776332855224609e+00,2.167362928390502930e+00,2.184233665466308594e+00,5.000000000000000000e+00,1.907981634140014648e+00,1.886617183685302734e+00,1.894876480102539062e+00,1.947318196296691895e+00,4.853656768798828125e+00,4.663411140441894531e+00,4.487516880035400391e+00,4.324409008026123047e+00,4.172742366790771484e+00,4.031353950500488281e+00,3.899232864379882812e+00,3.775497436523437500e+00,3.659373283386230469e+00,3.550179004669189453e+00,3.447313070297241211e+00,3.350239992141723633e+00,3.258484363555908203e+00,3.171620368957519531e+00,3.089267253875732422e+00,3.011083126068115234e+00,2.936758518218994141e+00,2.866014719009399414e+00,2.798599004745483398e+00,2.734281778335571289e+00,2.672854900360107422e+00,2.614126920700073242e+00,2.557924509048461914e+00,2.504087686538696289e+00,2.452470302581787109e+00,2.402938127517700195e+00,2.355367183685302734e+00,2.309643030166625977e+00,2.265660285949707031e+00,2.223321437835693359e+00,2.182536125183105469e+00,2.143219947814941406e+00,2.105295419692993164e+00,2.068689346313476562e+00,2.033334970474243164e+00,1.999168634414672852e+00,1.966131329536437988e+00,1.934168219566345215e+00,1.903227686882019043e+00,1.873261690139770508e+00,1.844224452972412109e+00
5.000000000000000000e+00,5.000000000000000000e+00,5.000000000000000000e+00,5.000000000000000000e+00,5.000000000000000000e+00,5.000000000000000000e+00,5.000000000000000000e+00,5.000000000000000000e+00,5.000000000000000000e+00,5.000000000000000000e+00,5.000000000000000000e+00,5.000000000000000000e+00,5.000000000000000000e+00,5.000000000000000000e+00,5.000000000000000000e+00,5.000000000000000000e+00,5.000000000000000000e+00,5.000000000000000000e+00,5.000000000000000000e+00,5.000000000000000000e+00,5.000000000000000000e+00,5.000000000000000000e+00,5.000000000000000000e+00,5.000000000000000000e+00,5.000000000000000000e+00,5.000000000000000000e+00,5.000000000000000000e+00,5.000000000000000000e+00,5.000000000000000000e+00,5.000000000000000000e+00,5.000000000000000000e+00,2.262005090713500977e+00,2.196535110473632812e+00,2.218866348266601562e+00,5.000000000000000000e+00,1.920829057693481445e+00,1.896045804023742676e+00,1.895731210708618164e+00,1.937164902687072754e+00,4.853795051574707031e+00,4.663538932800292969e+00,4.487635135650634766e+00,4.324518680572509766e+00,4.172844409942626953e+00,4.031449317932128906e+00,3.899322271347045898e+00,3.775580644607543945e+00,3.659451723098754883e+00,3.550253152847290039e+00,3.447382926940917969e+00,3.350305795669555664e+00,3.258546590805053711e+00,3.171679258346557617e+00,3.089323282241821289e+00,3.011136293411254883e+00,2.936809062957763672e+00,2.866062879562377930e+00,2.798645019531250000e+00,2.734325647354125977e+00,2.672896862030029297e+00,2.614167213439941406e+00,2.557962894439697266e+00,2.504124402999877930e+00,2.452505588531494141e+00,2.402971982955932617e+00,2.355399608612060547e+00,2.309674263000488281e+00,2.265690326690673828e+00,2.223350524902343750e+00,2.182564020156860352e+00,2.143246889114379883e+00,2.105321407318115234e+00,2.068714380264282227e+00,2.033359050750732422e+00,1.999191880226135254e+00,1.966153979301452637e+00,1.934190273284912109e+00,1.903249144554138184e+00,1.873282194137573242e+00,1.844244360923767090e+00
5.000000000000000000e+00,5.000000000000000000e+00,5.000000000000000000e+00,5.000000000000000000e+00,5.000000000000000000e+00,5.000000000000000000e+00,5.000000000000000000e+00,5.000000000000000000e+00,5.000000000000000000e+00,5.000000000000000000e+00,5.000000000000000000e+00,5.000000000000000000e+00,5.000000000000000000e+00,5.000000000000000000e+00,5.000000000000000000e+00,5.000000000000000000e+00,5.000000000000000000e+00,5.000000000000000000e+00,5.000000000000000000e+00,5.000000000000000000e+00,5.000000000000000000e+00,5.000000000000000000e+00,5.000000000000000000e+00,5.000000000000000000e+00,5.000000000000000000e+00,5.000000000000000000e+00,5.000000000000000000e+00,5.000000000000000000e+00,5.000000000000000000e+00,5.000000000000000000e+00,5.000000000000000000e+00,2.292209863662719727e+00,2.243943929672241211e+00,2.264004230499267578e+00,5.000000000000000000e+00,1.918556690216064453e+00,1.890971064567565918e+00,1.886958003044128418e+00,1.933126211166381836e+00,4.853931903839111328e+00,4.663666248321533203e+00,4.487753391265869141e+00,4.324628353118896484e+00,4.172946929931640625e+00,4.031544685363769531e+00,3.899411439895629883e+00,3.775664329528808594e+00,3.659530401229858398e+00,3.550327062606811523e+00,3.447452545166015625e+00,3.350371360778808594e+00,3.258608579635620117e+00,3.171738386154174805e+00,3.089379310607910156e+00,3.011189699172973633e+00,2.936859846115112305e+00,2.866111040115356445e+00,2.798691034317016602e+00,2.734369754791259766e+00,2.672938823699951172e+00,2.614207267761230469e+00,2.558001279830932617e+00,2.504161357879638672e+00,2.452540874481201172e+00,2.403005838394165039e+00,2.355432271957397461e+00,2.309705495834350586e+00,2.265720605850219727e+00,2.223379373550415039e+00,2.182591915130615234e+00,2.143273830413818359e+00,2.105347394943237305e+00,2.068739652633666992e+00,2.033383369445800781e+00,1.999215483665466309e+00,1.966176748275756836e+00,1.934212207794189453e+00,1.903270244598388672e+00,1.873302698135375977e+00,1.844264388084411621e+00
5.000000000000000000e+00,5.000000000000000000e+00,5.000000000000000000e+00,5.000000000000000000e+00,5.000000000000000000e+00,5.000000000000000000e+00,5.000000000000000000e+00,5.000000000000000000e+00,5.000000000000000000e+00,5.000000000000000000e+00,5.000000000000000000e+00,5.000000000000000000e+00,5.000000000000000000e+00,5.000000000000000000e+00,5.000000000000000000e+00,5.000000000000000000e+00,5.000000000000000000e+00,5.000000000000000000e+00,5.000000000000000000e+00,5.000000000000000000e+00,5.000000000000000000e+00,5.000000000000000000e+00,5.000000000000000000e+00,5.000000000000000000e+00,5.000000000000000000e+00,5.000000000000000000e+00,5.000000000000000000e+00,5.000000000000000000e+00,5.000000000000000000e+00,5.000000000000000000e+00,5.000000000000000000e+00,2.330296993255615234e+00,2.279323101043701172e+00,2.295804500579833984e+00,5.000000000000000000e+00,1.917324304580688477e+00,1.885885238647460938e+00,1.878265857696533203e+00,1.928535699844360352e+00,4.854070186614990234e+00,4.663794040679931641e+00,4.487871646881103516e+00,4.324738502502441406e+00,4.173048973083496094e+00,4.031639575958251953e+00,3.899500846862792969e+00,3.775748014450073242e+00,3.659609079360961914e+00,3.550401210784912109e+00,3.447522163391113281e+00,3.350437402725219727e+00,3.258670806884765625e+00,3.171797513961791992e+00,3.089435338973999023e+00,3.011242866516113281e+00,2.936910390853881836e+00,2.866159200668334961e+00,2.798737049102783203e+00,2.734413623809814453e+00,2.672980785369873047e+00,2.614247322082519531e+00,2.558039665222167969e+00,2.504198074340820312e+00,2.452576160430908203e+00,2.403039932250976562e+00,2.355464696884155273e+00,2.309736728668212891e+00,2.265750646591186523e+00,2.223408460617065430e+00,2.182620048522949219e+00,2.143300771713256836e+00,2.105373382568359375e+00,2.068764686584472656e+00,2.033407688140869141e+00,1.999238848686218262e+00,1.966199398040771484e+00,1.934234023094177246e+00,1.903291583061218262e+00,1.873323440551757812e+00,1.844284296035766602e+00
5.000000000000000000e+00,5.000000000000000000e+00,5.000000000000000000e+00,5.000000000000000000e+00,5.000000000000000000e+00,5.000000000000000000e+00,5.000000000000000000e+00,5.000000000000000000e+00,5.000000000000000000e+00,5.000000000000000000e+00,5.000000000000000000e+00,5.000000000000000000e+00,5.000000000000000000e+00,5.000000000000000000e+00,5.000000000000000000e+00,5.000000000000000000e+00,5.000000000000000000e+00,5.000000000000000000e+00,5.000000000000000000e+00,5.000000000000000000e+00,5.000000000000000000e+00,5.000000000000000000e+00,5.000000000000000000e+00,5.000000000000000000e+00,5.000000000000000000e+00,5.000000000000000000e+00,5.000000000000000000e+00,5.000000000000000000e+00,5.000000000000000000e+00,5.000000000000000000e+00,5.000000000000000000e+00,5.000000000000000000e+00,2.299717426300048828e+00,2.312634944915771484e+00,5.000000000000000000e+00,1.916093349456787109e+00,1.879626989364624023e+00,1.869653224945068359e+00,1.924073100090026855e+00,4.854208946228027344e+00,4.663920402526855469e+00,4.487989902496337891e+00,4.324848175048828125e+00,4.173151016235351562e+00,4.031735420227050781e+00,3.899590015411376953e+00,3.775831699371337891e+00,3.659687757492065430e+00,3.550474882125854492e+00,3.447591543197631836e+00,3.350503206253051758e+00,3.258733272552490234e+00,3.171856403350830078e+00,3.089491367340087891e+00,3.011295795440673828e+00,2.936960935592651367e+00,2.866207361221313477e+00,2.798782825469970703e+00,2.734457492828369141e+00,2.673022508621215820e+00,2.614287376403808594e+00,2.558078050613403320e+00,2.504235029220581055e+00,2.452611446380615234e+00,2.403073787689208984e+00,2.355497360229492188e+00,2.309768199920654297e+00,2.265780687332153320e+00,2.223437547683715820e+00,2.182647943496704102e+00,2.143327713012695312e+00,2.105399370193481445e+00,2.068789958953857422e+00,2.033432006835937500e+00,1.999262452125549316e+00,1.966222167015075684e+00,1.934256076812744141e+00,1.903312802314758301e+00,1.873343944549560547e+00,1.844304323196411133e+00
5.000000000000000000e+00,5.000000000000000000e+00,5.000000000000000000e+00,5.000000000000000000e+00,5.000000000000000000e+00,5.000000000000000000e+00,5.000000000000000000e+00,5.000000000000000000e+00,5.000000000000000000e+00,5.000000000000000000e+00,5.000000000000000000e+00,5.000000000000000000e+00,5.000000000000000000e+00,5.000000000000000000e+00,5.000000000000000000e+00,5.000000000000000000e+00,5.000000000000000000e+00,5.000000000000000000e+00,5.000000000000000000e+00,5.000000000000000000e+00,5.000000000000000000e+00,5.000000000000000000e+00,5.000000000000000000e+00,5.000000000000000000e+00,5.000000000000000000e+00,5.000000000000000000e+00,5.000000000000000000e+00,5.000000000000000000e+00,5.000000000000000000e+00,5.000000000000000000e+00,5.000000000000000000e+00,5.000000000000000000e+00,2.323368549346923828e+00,2.328802585601806641e+00,5.000000000000000000e+00,1.915397167205810547e+00,1.873619079589843750e+00,1.864110112190246582e+00,1.919925332069396973e+00,4.854347229003906250e+00,4.664048194885253906e+00,4.488106727600097656e+00,4.324957847595214844e+00,4.173253536224365234e+00,4.031830787658691406e+00,3.899679422378540039e+00,3.775915622711181641e+00,3.659766197204589844e+00,3.550548791885375977e+00,3.447661399841308594e+00,3.350569248199462891e+00,3.258795499801635742e+00,3.171915531158447266e+00,3.089547395706176758e+00,3.011348962783813477e+00,2.937011718750000000e+00,2.866255760192871094e+00,2.798828840255737305e+00,2.734501361846923828e+00,2.673064470291137695e+00,2.614327669143676758e+00,2.558116436004638672e+00,2.504271745681762695e+00,2.452646970748901367e+00,2.403107404708862305e+00,2.355530023574829102e+00,2.309799432754516602e+00,2.265810966491699219e+00,2.223466396331787109e+00,2.182675838470458984e+00,2.143354654312133789e+00,2.105425357818603516e+00,2.068814992904663086e+00,2.033456087112426758e+00,1.999285817146301270e+00,1.966244816780090332e+00,1.934277892112731934e+00,1.903334140777587891e+00,1.873364567756652832e+00,1.844324231147766113e+00
5.000000000000000000e+00,5.000000000000000000e+00,5.000000000000000000e+00,5.000000000000000000e+00,5.000000000000000000e+00,5.000000000000000000e+00,5.000000000000000000e+00,5.000000000000000000e+00,5.000000000000000000e+00,5.000000000000000000e+00,5.000000000000000000e+00,5.000000000000000000e+00,5.000000000000000000e+00,5.000000000000000000e+00,5.000000000000000000e+00,5.000000000000000000e+00,5.000000000000000000e+00,5.000000000000000000e+00,5.000000000000000000e+00,5.000000000000000000e+00,5.000000000000000000e+00,5.000000000000000000e+00,5.000000000000000000e+00,5.000000000000000000e+00,5.000000000000000000e+00,5.000000000000000000e+00,5.000000000000000000e+00,5.000000000000000000e+00,5.000000000000000000e+00,5.000000000000000000e+00,5.000000000000000000e+00,5.000000000000000000e+00,2.353110790252685547e+00,2.346119165420532227e+00,5.000000000000000000e+00,1.921837687492370605e+00,1.868596911430358887e+00,1.866086840629577637e+00,1.916952013969421387e+00,4.854485988616943359e+00,4.664175987243652344e+00,4.488224983215332031e+00,4.325066089630126953e+00,4.173355579376220703e+00,4.031926155090332031e+00,3.899768590927124023e+00,3.775999069213867188e+00,3.659844398498535156e+00,3.550622940063476562e+00,3.447731018066406250e+00,3.350635051727294922e+00,3.258857965469360352e+00,3.171974420547485352e+00,3.089603424072265625e+00,3.011402368545532227e+00,2.937062263488769531e+00,2.866303920745849609e+00,2.798874616622924805e+00,2.734545230865478516e+00,2.673106431961059570e+00,2.614367723464965820e+00,2.558154821395874023e+00,2.504308462142944336e+00,2.452682256698608398e+00,2.403141260147094727e+00,2.355562448501586914e+00,2.309830665588378906e+00,2.265841007232666016e+00,2.223495483398437500e+00,2.182703733444213867e+00,2.143381834030151367e+00,2.105451345443725586e+00,2.068840026855468750e+00,2.033480405807495117e+00,1.999309182167053223e+00,1.966267585754394531e+00,1.934300065040588379e+00,1.903355360031127930e+00,1.873385071754455566e+00,1.844344139099121094e+00
5.000000000000000000e+00,5.000000000000000000e+00,5.000000000000000000e+00,5.000000000000000000e+00,5.000000000000000000e+00,4.931484222412109375e+00,5.000000000000000000e+00,5.000000000000000000e+00,5.000000000000000000e+00,5.000000000000000000e+00,5.000000000000000000e+00,5.000000000000000000e+00,5.000000000000000000e+00,5.000000000000000000e+00,5.000000000000000000e+00,5.000000000000000000e+00,5.000000000000000000e+00,5.000000000000000000e+00,5.000000000000000000e+00,5.000000000000000000e+00,5.000000000000000000e+00,5.000000000000000000e+00,5.000000000000000000e+00,5.000000000000000000e+00,5.000000000000000000e+00,5.000000000000000000e+00,5.000000000000000000e+00,5.000000000000000000e+00,5.000000000000000000e+00,5.000000000000000000e+00,5.000000000000000000e+00,5.000000000000000000e+00,2.395824432373046875e+00,2.364781618118286133e+00,5.000000000000000000e+00,5.000000000000000000e+00,1.863601326942443848e+00,1.865567684173583984e+00,1.914683461189270020e+00,4.854624271392822266e+00,4.664304256439208984e+00,4.488343238830566406e+00,4.325176239013671875e+00,4.173457622528076172e+00,4.032021522521972656e+00,3.899857759475708008e+00,3.776082754135131836e+00,3.659923076629638672e+00,3.550696849822998047e+00,3.447800874710083008e+00,3.350701093673706055e+00,3.258920192718505859e+00,3.172033548355102539e+00,3.089659690856933594e+00,3.011455535888671875e+00,2.937113046646118164e+00,2.866352081298828125e+00,2.798920631408691406e+00,2.734589099884033203e+00,2.673148393630981445e+00,2.614407777786254883e+00,2.558193206787109375e+00,2.504345178604125977e+00,2.452717542648315430e+00,2.403175354003906250e+00,2.355595111846923828e+00,2.309862136840820312e+00,2.265871047973632812e+00,2.223524570465087891e+00,2.182731628417968750e+00,2.143408775329589844e+00,2.105477333068847656e+00,2.068865060806274414e+00,2.033504724502563477e+00,1.999332785606384277e+00,1.966290116310119629e+00,1.934321880340576172e+00,1.903376698493957520e+00,1.873405814170837402e+00,1.844364166259765625e+00
4.875212669372558594e+00,4.874001979827880859e+00,4.872791767120361328e+00,4.871582984924316406e+00,4.870374202728271484e+00,4.869165897369384766e+00,4.867958068847656250e+00,4.866751194000244141e+00,4.865545272827148438e+00,4.864339351654052734e+00,4.863134384155273438e+00,4.861929416656494141e+00,4.860725402832031250e+00,4.859522342681884766e+00,4.858319759368896484e+00,4.857117652893066406e+00,4.855916023254394531e+00,4.854714870452880859e+00,4.853514671325683594e+00,4.852314949035644531e+00,4.851115703582763672e+00,4.849916934967041016e+00,4.848719120025634766e+00,4.847521781921386719e+00,4.846324920654296875e+00,4.845129013061523438e+00,4.843933105468750000e+00,4.842738151550292969e+00,4.841543674468994141e+00,4.840349674224853516e+00,4.839156627655029297e+00,4.837963581085205078e+00,2.440117597579956055e+00,2.392720460891723633e+00,4.834389209747314453e+00,4.833199024200439453e+00,1.858835697174072266e+00,1.860350251197814941e+00,1.912419915199279785e+00,4.828443527221679688e+00,4.664432048797607422e+00,4.488461971282958984e+00,4.325286388397216797e+00,4.173558712005615234e+00,4.032116889953613281e+00,3.899946451187133789e+00,3.776166439056396484e+00,3.660001516342163086e+00,3.550770998001098633e+00,3.447870731353759766e+00,3.350766658782958984e+00,3.258982658386230469e+00,3.172092437744140625e+00,3.089715719223022461e+00,3.011508703231811523e+00,2.937163352966308594e+00,2.866400241851806641e+00,2.798966646194458008e+00,2.734632968902587891e+00,2.673190355300903320e+00,2.614447832107543945e+00,2.558231592178344727e+00,2.504381895065307617e+00,2.452752828598022461e+00,2.403209209442138672e+00,2.355627775192260742e+00,2.309893369674682617e+00,2.265901088714599609e+00,2.223553657531738281e+00,2.182759761810302734e+00,2.143435716629028320e+00,2.105503320693969727e+00,2.068890333175659180e+00,2.033529043197631836e+00,1.999356031417846680e+00,1.966313004493713379e+00,1.934343934059143066e+00,1.903397917747497559e+00,1.873426318168640137e+00,1.844384074211120605e+00
3.778028488159179688e+00,3.777301549911499023e+00,3.776574611663818359e+00,3.775848388671875000e+00,3.775122404098510742e+00,3.774396181106567383e+00,3.773670673370361328e+00,3.772945165634155273e+00,3.772220373153686523e+00,3.771495580673217773e+00,3.770771026611328125e+00,3.770046949386596680e+00,3.769322633743286133e+00,3.768599271774291992e+00,3.767875909805297852e+00,3.767152547836303711e+00,3.766429901123046875e+00,3.765707254409790039e+00,3.764985084533691406e+00,3.764263153076171875e+00,3.763541221618652344e+00,3.762820005416870117e+00,3.762098550796508789e+00,3.761377811431884766e+00,3.760657310485839844e+00,3.759936809539794922e+00,3.759217023849487305e+00,3.758497238159179688e+00,3.757777452468872070e+00,3.757058382034301758e+00,3.756339311599731445e+00,3.755620718002319336e+00,3.754902362823486328e+00,2.429164886474609375e+00,3.753466367721557617e+00,3.752748489379882812e+00,1.856071710586547852e+00,1.855161905288696289e+00,1.910162091255187988e+00,3.749881267547607422e+00,3.749164581298828125e+00,3.748448848724365234e+00,3.747733354568481445e+00,3.747017860412597656e+00,3.746302843093872070e+00,3.745587587356567383e+00,3.744873285293579102e+00,3.660080194473266602e+00,3.550844907760620117e+00,3.447940587997436523e+00,3.350832462310791016e+00,3.259045124053955078e+00,3.172151565551757812e+00,3.089771747589111328e+00,3.011562108993530273e+00,2.937213897705078125e+00,2.866448640823364258e+00,2.799012660980224609e+00,2.734676837921142578e+00,2.673232316970825195e+00,2.614487886428833008e+00,2.558270215988159180e+00,2.504418849945068359e+00,2.452788114547729492e+00,2.403243064880371094e+00,2.355660200119018555e+00,2.309924602508544922e+00,2.265931367874145508e+00,2.223582506179809570e+00,2.182787656784057617e+00,2.143462419509887695e+00,2.105529546737670898e+00,2.068915367126464844e+00,2.033553361892700195e+00,1.999379634857177734e+00,1.966335535049438477e+00,1.934365749359130859e+00,1.903419017791748047e+00,1.873447060585021973e+00,1.844404101371765137e+00
3.083970308303833008e+00,3.083485603332519531e+00,3.083001375198364258e+00,3.082517385482788086e+00,3.082033395767211914e+00,3.081549644470214844e+00,3.081065654754638672e+00,3.080582380294799805e+00,3.080099105834960938e+00,3.079615592956542969e+00,3.079132556915283203e+00,3.078649520874023438e+00,3.078166961669921875e+00,3.077684402465820312e+00,3.077201843261718750e+00,3.076719522476196289e+00,3.076237201690673828e+00,3.075755357742309570e+00,3.075273513793945312e+00,3.074791669845581055e+00,3.074310064315795898e+00,3.073828458786010742e+00,3.073347330093383789e+00,3.072866439819335938e+00,3.072385311126708984e+00,3.071904659271240234e+00,3.071423768997192383e+00,3.070943355560302734e+00,3.070463180541992188e+00,3.069982767105102539e+00,3.069502830505371094e+00,3.069022655487060547e+00,3.068542957305908203e+00,2.395870447158813477e+00,2.415562152862548828e+00,3.067104578018188477e+00,1.868222475051879883e+00,1.864260435104370117e+00,3.065667867660522461e+00,3.065188884735107422e+00,3.064710378646850586e+00,3.064231872558593750e+00,3.063753604888916016e+00,3.063275814056396484e+00,3.062797546386718750e+00,3.062319755554199219e+00,3.061842203140258789e+00,3.061364650726318359e+00,3.060887336730957031e+00,3.060410022735595703e+00,3.059932947158813477e+00,3.059456110000610352e+00,3.058979272842407227e+00,3.058502674102783203e+00,3.011615276336669922e+00,2.937264680862426758e+00,2.866496801376342773e+00,2.799058675765991211e+00,2.734720706939697266e+00,2.673274278640747070e+00,2.614528179168701172e+00,2.558308601379394531e+00,2.504455566406250000e+00,2.452823400497436523e+00,2.403276920318603516e+00,2.355692625045776367e+00,2.309956073760986328e+00,2.265961408615112305e+00,2.223611593246459961e+00,2.182815551757812500e+00,2.143489599227905273e+00,2.105555534362792969e+00,2.068940401077270508e+00,2.033577680587768555e+00,1.999402999877929688e+00,1.966358184814453125e+00,1.934387922286987305e+00,1.903440356254577637e+00,1.873467564582824707e+00,1.844424009323120117e+00
2.605344533920288086e+00,2.604998826980590820e+00,2.604653120040893555e+00,2.604307651519775391e+00,2.603962182998657227e+00,2.603616714477539062e+00,2.603271484375000000e+00,2.602926015853881836e+00,2.602581024169921875e+00,2.602236032485961914e+00,2.601891040802001953e+00,2.601546287536621094e+00,2.601201534271240234e+00,2.600856781005859375e+00,2.600512266159057617e+00,2.600167751312255859e+00,2.599823474884033203e+00,2.599479198455810547e+00,2.599134922027587891e+00,2.598790884017944336e+00,2.598446846008300781e+00,2.598102807998657227e+00,2.597759008407592773e+00,2.597415208816528320e+00,2.597071647644042969e+00,2.596728086471557617e+00,2.596384763717651367e+00,2.596041440963745117e+00,2.595697879791259766e+00,2.595354795455932617e+00,2.595011711120605469e+00,2.594668626785278320e+00,2.594325780868530273e+00,2.357863664627075195e+00,2.336855411529541016e+00,2.593297481536865234e+00,1.802411198616027832e+00,1.774118185043334961e+00,2.592270135879516602e+00,2.591927766799926758e+00,2.591585397720336914e+00,2.591243505477905273e+00,2.590901613235473633e+00,2.590559482574462891e+00,2.590217828750610352e+00,2.589875936508178711e+00,2.589534282684326172e+00,2.589192867279052734e+00,2.588851213455200195e+00,2.588509798049926758e+00,2.588168382644653320e+00,2.587827444076538086e+00,2.587486267089843750e+00,2.587145090103149414e+00,2.586804389953613281e+00,2.586463451385498047e+00,2.586122751235961914e+00,2.585782051086425781e+00,2.585441350936889648e+00,2.585100889205932617e+00,2.584760427474975586e+00,2.558346986770629883e+00,2.504492521286010742e+00,2.452858686447143555e+00,2.403311014175415039e+00,2.355725288391113281e+00,2.309987306594848633e+00,2.265991687774658203e+00,2.223640441894531250e+00,2.182843685150146484e+00,2.143516540527343750e+00,2.105581521987915039e+00,2.068965673446655273e+00,2.033601760864257812e+00,1.999426603317260742e+00,1.966380953788757324e+00,1.934409737586975098e+00,1.903461575508117676e+00,1.873488306999206543e+00,1.844444036483764648e+00
2.255348682403564453e+00,2.255088329315185547e+00,2.254828214645385742e+00,2.254568099975585938e+00,2.254308223724365234e+00,2.254048347473144531e+00,2.253788232803344727e+00,2.253528356552124023e+00,2.253268718719482422e+00,2.253009080886840820e+00,2.252749204635620117e+00,2.252489805221557617e+00,2.252230167388916016e+00,2.251970767974853516e+00,2.251711368560791016e+00,2.251451969146728516e+00,2.251192808151245117e+00,2.250933408737182617e+00,2.250674247741699219e+00,2.250415086746215820e+00,2.250156164169311523e+00,2.249897241592407227e+00,2.249638080596923828e+00,2.249379396438598633e+00,2.249121189117431641e+00,2.248863697052001953e+00,2.248605966567993164e+00,2.248348474502563477e+00,2.248090982437133789e+00,2.247833490371704102e+00,2.247576236724853516e+00,2.247318744659423828e+00,2.247061491012573242e+00,2.246804475784301758e+00,2.246547222137451172e+00,2.246290206909179688e+00,1.733222484588623047e+00,1.733032941818237305e+00,1.748405814170837402e+00,2.245262384414672852e+00,2.245005607604980469e+00,2.244748830795288086e+00,2.244492053985595703e+00,2.244235515594482422e+00,2.243978977203369141e+00,2.243722438812255859e+00,2.243466138839721680e+00,2.243209600448608398e+00,2.242953300476074219e+00,2.242697000503540039e+00,2.242440938949584961e+00,2.242184877395629883e+00,2.241928577423095703e+00,2.241672754287719727e+00,2.241416692733764648e+00,2.241160869598388672e+00,2.240905046463012695e+00,2.240648984909057617e+00,2.240393400192260742e+00,2.240137577056884766e+00,2.239881992340087891e+00,2.239626646041870117e+00,2.239371061325073242e+00,2.239115715026855469e+00,2.238860130310058594e+00,2.238604784011840820e+00,2.238349676132202148e+00,2.238094329833984375e+00,2.223669528961181641e+00,2.182871580123901367e+00,2.143543481826782227e+00,2.105607509613037109e+00,2.068990707397460938e+00,2.033626079559326172e+00,1.999449968338012695e+00,1.966403484344482422e+00,1.934431791305541992e+00,1.903482913970947266e+00,1.873508810997009277e+00,1.844463944435119629e+00
1.988299250602722168e+00,1.988097071647644043e+00,1.987894773483276367e+00,1.987692713737487793e+00,1.987490653991699219e+00,1.987288475036621094e+00,1.987086534500122070e+00,1.986884593963623047e+00,1.986682534217834473e+00,1.986480712890625000e+00,1.986278891563415527e+00,1.986077189445495605e+00,1.985875248908996582e+00,1.985673546791076660e+00,1.985471963882446289e+00,1.985270142555236816e+00,1.985068559646606445e+00,1.984867095947265625e+00,1.984665393829345703e+00,1.984463930130004883e+00,1.984262585639953613e+00,1.984061241149902344e+00,1.983859777450561523e+00,1.983658432960510254e+00,1.983457326889038086e+00,1.983255863189697266e+00,1.983054757118225098e+00,1.982853651046752930e+00,1.982652425765991211e+00,1.982451319694519043e+00,1.982250452041625977e+00,1.982049226760864258e+00,1.981848359107971191e+00,1.981647491455078125e+00,1.981446743011474609e+00,1.981245636940002441e+00,1.981045007705688477e+00,1.980844259262084961e+00,1.980643391609191895e+00,1.980442762374877930e+00,1.980242252349853516e+00,1.980041503906250000e+00,1.979840993881225586e+00,1.979640603065490723e+00,1.979440212249755859e+00,1.979239583015441895e+00,1.979039192199707031e+00,1.978838920593261719e+00,1.978638529777526855e+00,1.978438258171081543e+00,1.978238105773925781e+00,1.978037834167480469e+00,1.977837681770324707e+00,1.977637648582458496e+00,1.977437496185302734e+00,1.977237462997436523e+00,1.977037549018859863e+00,1.976837635040283203e+00,1.976637601852416992e+00,1.976437807083129883e+00,1.976238131523132324e+00,1.976038098335266113e+00,1.975838422775268555e+00,1.975638866424560547e+00,1.975438952445983887e+00,1.975239396095275879e+00,1.975039958953857422e+00,1.974840521812438965e+00,1.974640846252441406e+00,1.974441409111022949e+00,1.974242091178894043e+00,1.974042534828186035e+00,1.973843216896057129e+00,1.973644018173217773e+00,1.973444581031799316e+00,1.966426372528076172e+00,1.934453725814819336e+00,1.903504133224487305e+00,1.873529195785522461e+00,1.844483971595764160e+00
1.777795672416687012e+00,1.777633905410766602e+00,1.777472257614135742e+00,1.777310729026794434e+00,1.777149200439453125e+00,1.776987552642822266e+00,1.776826024055480957e+00,1.776664614677429199e+00,1.776502966880798340e+00,1.776341557502746582e+00,1.776180267333984375e+00,1.776018738746643066e+00,1.775857448577880859e+00,1.775696158409118652e+00,1.775534987449645996e+00,1.775373578071594238e+00,1.775212407112121582e+00,1.775051236152648926e+00,1.774889945983886719e+00,1.774728775024414062e+00,1.774567723274230957e+00,1.774406552314758301e+00,1.774245500564575195e+00,1.774084568023681641e+00,1.773923397064208984e+00,1.773762464523315430e+00,1.773601651191711426e+00,1.773440837860107422e+00,1.773279786109924316e+00,1.773118972778320312e+00,1.772958159446716309e+00,1.772797226905822754e+00,1.772636532783508301e+00,1.772475838661193848e+00,1.772315025329589844e+00,1.772154450416564941e+00,1.771993756294250488e+00,1.771833181381225586e+00,1.771672487258911133e+00,1.771512031555175781e+00,1.771351456642150879e+00,1.771190881729125977e+00,1.771030426025390625e+00,1.770870089530944824e+00,1.770709514617919922e+00,1.770549178123474121e+00,1.770388841629028320e+00,1.770228624343872070e+00,1.770068168640136719e+00,1.769907951354980469e+00,1.769747734069824219e+00,1.769587397575378418e+00,1.769427299499511719e+00,1.769267201423645020e+00,1.769106864929199219e+00,1.768946886062622070e+00,1.768786787986755371e+00,1.768626689910888672e+00,1.768466711044311523e+00,1.768306732177734375e+00,1.768146872520446777e+00,1.767986893653869629e+00,1.767827033996582031e+00,1.767667174339294434e+00,1.767507195472717285e+00,1.767347455024719238e+00,1.767187714576721191e+00,1.767027854919433594e+00,1.766868233680725098e+00,1.766708493232727051e+00,1.766548991203308105e+00,1.766389131546020508e+00,1.766229629516601562e+00,1.766070127487182617e+00,1.765910387039184570e+00,1.765751004219055176e+00,1.765591502189636230e+00,1.765432000160217285e+00,1.765272617340087891e+00,1.765113234519958496e+00
1.607597470283508301e+00,1.607465147972106934e+00,1.607332944869995117e+00,1.607200860977172852e+00,1.607068657875061035e+00,1.606936573982238770e+00,1.606804490089416504e+00,1.606672525405883789e+00,1.606540322303771973e+00,1.606408357620239258e+00,1.606276392936706543e+00,1.606144309043884277e+00,1.606012344360351562e+00,1.605880498886108398e+00,1.605748414993286133e+00,1.605616569519042969e+00,1.605484724044799805e+00,1.605352759361267090e+00,1.605221033096313477e+00,1.605089306831359863e+00,1.604957461357116699e+00,1.604825615882873535e+00,1.604693889617919922e+00,1.604562282562255859e+00,1.604430437088012695e+00,1.604298830032348633e+00,1.604167222976684570e+00,1.604035496711730957e+00,1.603903889656066895e+00,1.603772282600402832e+00,1.603640794754028320e+00,1.603509187698364258e+00,1.603377699851989746e+00,1.603246212005615234e+00,1.603114604949951172e+00,1.602983117103576660e+00,1.602851748466491699e+00,1.602720260620117188e+00,1.602588891983032227e+00,1.602457523345947266e+00,1.602326154708862305e+00,1.602194786071777344e+00,1.602063536643981934e+00,1.601932287216186523e+00,1.601800918579101562e+00,1.601669669151306152e+00,1.601538538932800293e+00,1.601407170295715332e+00,1.601276040077209473e+00,1.601144909858703613e+00,1.601013660430908203e+00,1.600882649421691895e+00,1.600751638412475586e+00,1.600620508193969727e+00,1.600489377975463867e+00,1.600358366966247559e+00,1.600227475166320801e+00,1.600096344947814941e+00,1.599965333938598633e+00,1.599834442138671875e+00,1.599703431129455566e+00,1.599572539329528809e+00,1.599441766738891602e+00,1.599310874938964844e+00,1.599179983139038086e+00,1.599049210548400879e+00,1.598918437957763672e+00,1.598787546157836914e+00,1.598656892776489258e+00,1.598526120185852051e+00,1.598395347595214844e+00,1.598264694213867188e+00,1.598134040832519531e+00,1.598003268241882324e+00,1.597872734069824219e+00,1.597742199897766113e+00,1.597611665725708008e+00,1.597481012344360352e+00,1.597350478172302246e+00,1.597219944000244141e+00
1.467139959335327148e+00,1.467029809951782227e+00,1.466919660568237305e+00,1.466809630393981934e+00,1.466699481010437012e+00,1.466589450836181641e+00,1.466479539871215820e+00,1.466369390487670898e+00,1.466259479522705078e+00,1.466149449348449707e+00,1.466039419174194336e+00,1.465929508209228516e+00,1.465819597244262695e+00,1.465709805488586426e+00,1.465599775314331055e+00,1.465489983558654785e+00,1.465380072593688965e+00,1.465270161628723145e+00,1.465160369873046875e+00,1.465050578117370605e+00,1.464940667152404785e+00,1.464830994606018066e+00,1.464721202850341797e+00,1.464611530303955078e+00,1.464501738548278809e+00,1.464392066001892090e+00,1.464282393455505371e+00,1.464172601699829102e+00,1.464062929153442383e+00,1.463953375816345215e+00,1.463843584060668945e+00,1.463734030723571777e+00,1.463624477386474609e+00,1.463514924049377441e+00,1.463405251502990723e+00,1.463295817375183105e+00,1.463186264038085938e+00,1.463076710700988770e+00,1.462967276573181152e+00,1.462857723236083984e+00,1.462748169898986816e+00,1.462638854980468750e+00,1.462529420852661133e+00,1.462419867515563965e+00,1.462310552597045898e+00,1.462201237678527832e+00,1.462091803550720215e+00,1.461982369422912598e+00,1.461873173713684082e+00,1.461763858795166016e+00,1.461654424667358398e+00,1.461545228958129883e+00,1.461435914039611816e+00,1.461326599121093750e+00,1.461217403411865234e+00,1.461108207702636719e+00,1.460999011993408203e+00,1.460889816284179688e+00,1.460780620574951172e+00,1.460671544075012207e+00,1.460562348365783691e+00,1.460453271865844727e+00,1.460344195365905762e+00,1.460234999656677246e+00,1.460125923156738281e+00,1.460016846656799316e+00,1.459907770156860352e+00,1.459798812866210938e+00,1.459689855575561523e+00,1.459580898284912109e+00,1.459471821784973145e+00,1.459362864494323730e+00,1.459253907203674316e+00,1.459144949913024902e+00,1.459036111831665039e+00,1.458927154541015625e+00,1.458818197250366211e+00,1.458709359169006348e+00,1.458600640296936035e+00,1.458491802215576172e+00
1.349254012107849121e+00,1.349160909652709961e+00,1.349067926406860352e+00,1.348974823951721191e+00,1.348881602287292480e+00,1.348788619041442871e+00,1.348695516586303711e+00,1.348602414131164551e+00,1.348509430885314941e+00,1.348416447639465332e+00,1.348323345184326172e+00,1.348230361938476562e+00,1.348137497901916504e+00,1.348044395446777344e+00,1.347951412200927734e+00,1.347858548164367676e+00,1.347765684127807617e+00,1.347672700881958008e+00,1.347579836845397949e+00,1.347486972808837891e+00,1.347393989562988281e+00,1.347301125526428223e+00,1.347208380699157715e+00,1.347115397453308105e+00,1.347022652626037598e+00,1.346929788589477539e+00,1.346837043762207031e+00,1.346744179725646973e+00,1.346651434898376465e+00,1.346558690071105957e+00,1.346465826034545898e+00,1.346373200416564941e+00,1.346280455589294434e+00,1.346187710762023926e+00,1.346094965934753418e+00,1.346002340316772461e+00,1.345909595489501953e+00,1.345816969871520996e+00,1.345724344253540039e+00,1.345631718635559082e+00,1.345538973808288574e+00,1.345446467399597168e+00,1.345353841781616211e+00,1.345261216163635254e+00,1.345168709754943848e+00,1.345076084136962891e+00,1.344983458518981934e+00,1.344890952110290527e+00,1.344798445701599121e+00,1.344706058502197266e+00,1.344613432884216309e+00,1.344520926475524902e+00,1.344428539276123047e+00,1.344336032867431641e+00,1.344243526458740234e+00,1.344151139259338379e+00,1.344058632850646973e+00,1.343966245651245117e+00,1.343873977661132812e+00,1.343781471252441406e+00,1.343689084053039551e+00,1.343596816062927246e+00,1.343504428863525391e+00,1.343412041664123535e+00,1.343319773674011230e+00,1.343227505683898926e+00,1.343135118484497070e+00,1.343042850494384766e+00,1.342950582504272461e+00,1.342858314514160156e+00,1.342766046524047852e+00,1.342673897743225098e+00,1.342581629753112793e+00,1.342489361763000488e+00,1.342397212982177734e+00,1.342305064201354980e+00,1.342212796211242676e+00,1.342120647430419922e+00,1.342028617858886719e+00,1.341936349868774414e+00
1.248903751373291016e+00,1.248824000358581543e+00,1.248744249343872070e+00,1.248664379119873047e+00,1.248584628105163574e+00,1.248504996299743652e+00,1.248425126075744629e+00,1.248345494270324707e+00,1.248265743255615234e+00,1.248186111450195312e+00,1.248106360435485840e+00,1.248026609420776367e+00,1.247946977615356445e+00,1.247867226600646973e+00,1.247787594795227051e+00,1.247707962989807129e+00,1.247628331184387207e+00,1.247548699378967285e+00,1.247469186782836914e+00,1.247389554977416992e+00,1.247309923171997070e+00,1.247230291366577148e+00,1.247150778770446777e+00,1.247071146965026855e+00,1.246991634368896484e+00,1.246912121772766113e+00,1.246832489967346191e+00,1.246752977371215820e+00,1.246673464775085449e+00,1.246593952178955078e+00,1.246514439582824707e+00,1.246435046195983887e+00,1.246355533599853516e+00,1.246276021003723145e+00,1.246196627616882324e+00,1.246117234230041504e+00,1.246037721633911133e+00,1.245958328247070312e+00,1.245878934860229492e+00,1.245799422264099121e+00,1.245720028877258301e+00,1.245640754699707031e+00,1.245561361312866211e+00,1.245481967926025391e+00,1.245402574539184570e+00,1.245323300361633301e+00,1.245243906974792480e+00,1.245164632797241211e+00,1.245085358619689941e+00,1.245005965232849121e+00,1.244926691055297852e+00,1.244847416877746582e+00,1.244768142700195312e+00,1.244688868522644043e+00,1.244609594345092773e+00,1.244530439376831055e+00,1.244451165199279785e+00,1.244371891021728516e+00,1.244292736053466797e+00,1.244213461875915527e+00,1.244134306907653809e+00,1.244055151939392090e+00,1.243975877761840820e+00,1.243896842002868652e+00,1.243817687034606934e+00,1.243738532066345215e+00,1.243659377098083496e+00,1.243580222129821777e+00,1.243501186370849609e+00,1.243422031402587891e+00,1.243342995643615723e+00,1.243263959884643555e+00,1.243184804916381836e+00,1.243105769157409668e+00,1.243026733398437500e+00,1.242947578430175781e+00,1.242868661880493164e+00,1.242789626121520996e+00,1.242710590362548828e+00,1.242631554603576660e+00
1.162447214126586914e+00,1.162378072738647461e+00,1.162308931350708008e+00,1.162239789962768555e+00,1.162170767784118652e+00,1.162101626396179199e+00,1.162032485008239746e+00,1.161963462829589844e+00,1.161894440650939941e+00,1.161825299263000488e+00,1.161756277084350586e+00,1.161687254905700684e+00,1.161618232727050781e+00,1.161549210548400879e+00,1.161480188369750977e+00,1.161411166191101074e+00,1.161342144012451172e+00,1.161273121833801270e+00,1.161204218864440918e+00,1.161135196685791016e+00,1.161066174507141113e+00,1.160997271537780762e+00,1.160928249359130859e+00,1.160859346389770508e+00,1.160790443420410156e+00,1.160721540451049805e+00,1.160652518272399902e+00,1.160583615303039551e+00,1.160514712333679199e+00,1.160445809364318848e+00,1.160376906394958496e+00,1.160308122634887695e+00,1.160239219665527344e+00,1.160170316696166992e+00,1.160101532936096191e+00,1.160032629966735840e+00,1.159963726997375488e+00,1.159894943237304688e+00,1.159826159477233887e+00,1.159757256507873535e+00,1.159688472747802734e+00,1.159619688987731934e+00,1.159550905227661133e+00,1.159482121467590332e+00,1.159413337707519531e+00,1.159344553947448730e+00,1.159275770187377930e+00,1.159207105636596680e+00,1.159138321876525879e+00,1.159069538116455078e+00,1.159000873565673828e+00,1.158932209014892578e+00,1.158863425254821777e+00,1.158794760704040527e+00,1.158726096153259277e+00,1.158657312393188477e+00,1.158588647842407227e+00,1.158519983291625977e+00,1.158451437950134277e+00,1.158382654190063477e+00,1.158314108848571777e+00,1.158245444297790527e+00,1.158176779747009277e+00,1.158108234405517578e+00,1.158039569854736328e+00,1.157971024513244629e+00,1.157902359962463379e+00,1.157833814620971680e+00,1.157765150070190430e+00,1.157696604728698730e+00,1.157628178596496582e+00,1.157559633255004883e+00,1.157490968704223633e+00,1.157422423362731934e+00,1.157353997230529785e+00,1.157285451889038086e+00,1.157216906547546387e+00,1.157148480415344238e+00,1.157079815864562988e+00,1.157011389732360840e+00
1.087185621261596680e+00,1.087125182151794434e+00,1.087064623832702637e+00,1.087004303932189941e+00,1.086943864822387695e+00,1.086883425712585449e+00,1.086822986602783203e+00,1.086762547492980957e+00,1.086702108383178711e+00,1.086641669273376465e+00,1.086581349372863770e+00,1.086520910263061523e+00,1.086460471153259277e+00,1.086400151252746582e+00,1.086339712142944336e+00,1.086279392242431641e+00,1.086218953132629395e+00,1.086158633232116699e+00,1.086098313331604004e+00,1.086037993431091309e+00,1.085977673530578613e+00,1.085917353630065918e+00,1.085856914520263672e+00,1.085796594619750977e+00,1.085736393928527832e+00,1.085675954818725586e+00,1.085615754127502441e+00,1.085555434226989746e+00,1.085495233535766602e+00,1.085434913635253906e+00,1.085374593734741211e+00,1.085314393043518066e+00,1.085254073143005371e+00,1.085193872451782227e+00,1.085133671760559082e+00,1.085073351860046387e+00,1.085013151168823242e+00,1.084952950477600098e+00,1.084892630577087402e+00,1.084832549095153809e+00,1.084772348403930664e+00,1.084712147712707520e+00,1.084651827812194824e+00,1.084591746330261230e+00,1.084531545639038086e+00,1.084471344947814941e+00,1.084411144256591797e+00,1.084351062774658203e+00,1.084290862083435059e+00,1.084230780601501465e+00,1.084170579910278320e+00,1.084110498428344727e+00,1.084050297737121582e+00,1.083990216255187988e+00,1.083930134773254395e+00,1.083870053291320801e+00,1.083809971809387207e+00,1.083749890327453613e+00,1.083689689636230469e+00,1.083629727363586426e+00,1.083569645881652832e+00,1.083509564399719238e+00,1.083449482917785645e+00,1.083389520645141602e+00,1.083329439163208008e+00,1.083269357681274414e+00,1.083209395408630371e+00,1.083149313926696777e+00,1.083089232444763184e+00,1.083029270172119141e+00,1.082969307899475098e+00,1.082909226417541504e+00,1.082849264144897461e+00,1.082789301872253418e+00,1.082729339599609375e+00,1.082669377326965332e+00,1.082609415054321289e+00,1.082549452781677246e+00,1.082489490509033203e+00,1.082429528236389160e+00
1.021077036857604980e+00,1.021023631095886230e+00,1.020970344543457031e+00,1.020916938781738281e+00,1.020863652229309082e+00,1.020810365676879883e+00,1.020757079124450684e+00,1.020703792572021484e+00,1.020650386810302734e+00,1.020597100257873535e+00,1.020543932914733887e+00,1.020490646362304688e+00,1.020437359809875488e+00,1.020384073257446289e+00,1.020330786705017090e+00,1.020277500152587891e+00,1.020224332809448242e+00,1.020171046257019043e+00,1.020117759704589844e+00,1.020064592361450195e+00,1.020011305809020996e+00,1.019958138465881348e+00,1.019904851913452148e+00,1.019851684570312500e+00,1.019798517227172852e+00,1.019745230674743652e+00,1.019692063331604004e+00,1.019638895988464355e+00,1.019585728645324707e+00,1.019532561302185059e+00,1.019479393959045410e+00,1.019426107406616211e+00,1.019373059272766113e+00,1.019319891929626465e+00,1.019266724586486816e+00,1.019213557243347168e+00,1.019160389900207520e+00,1.019107341766357422e+00,1.019054174423217773e+00,1.019001007080078125e+00,1.018947958946228027e+00,1.018894791603088379e+00,1.018841743469238281e+00,1.018788576126098633e+00,1.018735527992248535e+00,1.018682360649108887e+00,1.018629312515258789e+00,1.018576264381408691e+00,1.018523216247558594e+00,1.018470048904418945e+00,1.018417119979858398e+00,1.018363952636718750e+00,1.018310904502868652e+00,1.018257856369018555e+00,1.018204808235168457e+00,1.018151760101318359e+00,1.018098831176757812e+00,1.018045783042907715e+00,1.017992734909057617e+00,1.017939686775207520e+00,1.017886757850646973e+00,1.017833709716796875e+00,1.017780661582946777e+00,1.017727732658386230e+00,1.017674684524536133e+00,1.017621755599975586e+00,1.017568826675415039e+00,1.017515897750854492e+00,1.017462849617004395e+00,1.017409920692443848e+00,1.017356991767883301e+00,1.017303943634033203e+00,1.017251014709472656e+00,1.017198085784912109e+00,1.017145156860351562e+00,1.017092227935791016e+00,1.017039299011230469e+00,1.016986489295959473e+00,1.016933560371398926e+00,1.016880631446838379e+00
9.625473022460937500e-01,9.624999165534973145e-01,9.624525308609008789e-01,9.624051451683044434e-01,9.623577594757080078e-01,9.623103141784667969e-01,9.622629284858703613e-01,9.622156023979187012e-01,9.621682167053222656e-01,9.621208906173706055e-01,9.620735645294189453e-01,9.620261192321777344e-01,9.619787931442260742e-01,9.619314670562744141e-01,9.618841409683227539e-01,9.618368744850158691e-01,9.617895483970642090e-01,9.617422223091125488e-01,9.616948366165161133e-01,9.616475105285644531e-01,9.616002440452575684e-01,9.615529775619506836e-01,9.615056514739990234e-01,9.614583849906921387e-01,9.614109992980957031e-01,9.613637328147888184e-01,9.613164663314819336e-01,9.612691998481750488e-01,9.612219929695129395e-01,9.611747264862060547e-01,9.611274600028991699e-01,9.610801339149475098e-01,9.610328674316406250e-01,9.609856605529785156e-01,9.609384536743164062e-01,9.608911871910095215e-01,9.608439803123474121e-01,9.607967734336853027e-01,9.607494473457336426e-01,9.607023000717163086e-01,9.606550931930541992e-01,9.606078863143920898e-01,9.605606794357299805e-01,9.605135321617126465e-01,9.604662060737609863e-01,9.604190587997436523e-01,9.603718519210815430e-01,9.603247046470642090e-01,9.602775573730468750e-01,9.602304100990295410e-01,9.601832628250122070e-01,9.601359963417053223e-01,9.600888490676879883e-01,9.600417017936706543e-01,9.599945545196533203e-01,9.599474072456359863e-01,9.599003195762634277e-01,9.598530530929565430e-01,9.598059654235839844e-01,9.597588777542114258e-01,9.597117304801940918e-01,9.596646428108215332e-01,9.596175551414489746e-01,9.595704674720764160e-01,9.595232605934143066e-01,9.594761729240417480e-01,9.594290852546691895e-01,9.593820571899414062e-01,9.593349695205688477e-01,9.592878818511962891e-01,9.592408537864685059e-01,9.591936469078063965e-01,9.591466188430786133e-01,9.590995907783508301e-01,9.590525627136230469e-01,9.590054750442504883e-01,9.589584469795227051e-01,9.589112997055053711e-01,9.588643312454223633e-01,9.588173031806945801e-01
9.103637933731079102e-01,9.103214144706726074e-01,9.102790355682373047e-01,9.102366566658020020e-01,9.101941585540771484e-01,9.101518392562866211e-01,9.101094603538513184e-01,9.100670814514160156e-01,9.100247621536254883e-01,9.099823832511901855e-01,9.099400639533996582e-01,9.098976254463195801e-01,9.098552465438842773e-01,9.098129272460937500e-01,9.097706079483032227e-01,9.097282886505126953e-01,9.096859693527221680e-01,9.096435308456420898e-01,9.096012115478515625e-01,9.095588922500610352e-01,9.095165729522705078e-01,9.094743132591247559e-01,9.094319939613342285e-01,9.093896746635437012e-01,9.093472957611083984e-01,9.093050360679626465e-01,9.092627167701721191e-01,9.092204570770263672e-01,9.091781973838806152e-01,9.091359376907348633e-01,9.090936183929443359e-01,9.090512990951538086e-01,9.090090394020080566e-01,9.089667797088623047e-01,9.089245200157165527e-01,9.088822603225708008e-01,9.088400006294250488e-01,9.087976813316345215e-01,9.087554812431335449e-01,9.087132215499877930e-01,9.086710214614868164e-01,9.086287617683410645e-01,9.085865616798400879e-01,9.085443615913391113e-01,9.085020422935485840e-01,9.084598422050476074e-01,9.084176421165466309e-01,9.083754420280456543e-01,9.083332419395446777e-01,9.082910418510437012e-01,9.082487225532531738e-01,9.082065224647521973e-01,9.081643819808959961e-01,9.081221818923950195e-01,9.080800414085388184e-01,9.080378413200378418e-01,9.079957008361816406e-01,9.079534411430358887e-01,9.079113006591796875e-01,9.078691005706787109e-01,9.078269600868225098e-01,9.077848196029663086e-01,9.077426791191101074e-01,9.077005386352539062e-01,9.076583385467529297e-01,9.076161980628967285e-01,9.075740575790405273e-01,9.075319170951843262e-01,9.074898362159729004e-01,9.074476957321166992e-01,9.074054956436157227e-01,9.073634147644042969e-01,9.073212742805480957e-01,9.072791934013366699e-01,9.072371125221252441e-01,9.071950316429138184e-01,9.071528911590576172e-01,9.071107506752014160e-01,9.070686697959899902e-01,9.070265889167785645e-01
8.635474443435668945e-01,8.635092973709106445e-01,8.634712100028991699e-01,8.634330630302429199e-01,8.633948564529418945e-01,8.633567094802856445e-01,8.633186221122741699e-01,8.632804751396179199e-01,8.632423877716064453e-01,8.632043004035949707e-01,8.631660938262939453e-01,8.631280064582824707e-01,8.630898594856262207e-01,8.630517721176147461e-01,8.630136847496032715e-01,8.629755973815917969e-01,8.629375100135803223e-01,8.628993630409240723e-01,8.628612756729125977e-01,8.628231883049011230e-01,8.627851605415344238e-01,8.627470731735229492e-01,8.627089858055114746e-01,8.626709580421447754e-01,8.626328110694885254e-01,8.625947237014770508e-01,8.625566959381103516e-01,8.625186681747436523e-01,8.624805808067321777e-01,8.624425530433654785e-01,8.624044656753540039e-01,8.623663783073425293e-01,8.623283505439758301e-01,8.622903227806091309e-01,8.622522950172424316e-01,8.622143268585205078e-01,8.621762990951538086e-01,8.621381521224975586e-01,8.621001839637756348e-01,8.620621562004089355e-01,8.620241880416870117e-01,8.619861602783203125e-01,8.619481921195983887e-01,8.619101047515869141e-01,8.618720769882202148e-01,8.618341088294982910e-01,8.617961406707763672e-01,8.617581129074096680e-01,8.617201447486877441e-01,8.616821765899658203e-01,8.616441488265991211e-01,8.616061806678771973e-01,8.615682125091552734e-01,8.615302443504333496e-01,8.614922761917114258e-01,8.614543080329895020e-01,8.614163994789123535e-01,8.613783717155456543e-01,8.613404035568237305e-01,8.613024353981018066e-01,8.612645268440246582e-01,8.612266182899475098e-01,8.611886501312255859e-01,8.611506223678588867e-01,8.611127138137817383e-01,8.610748052597045898e-01,8.610368967056274414e-01,8.609989881515502930e-01,8.609610795974731445e-01,8.609231710433959961e-01,8.608851432800292969e-01,8.608472347259521484e-01,8.608093857765197754e-01,8.607714772224426270e-01,8.607335686683654785e-01,8.606957197189331055e-01,8.606577515602111816e-01,8.606198430061340332e-01,8.605819940567016602e-01,8.605440855026245117e-01
8.213107585906982422e-01,8.212763071060180664e-01,8.212417960166931152e-01,8.212072849273681641e-01,8.211727142333984375e-01,8.211382627487182617e-01,8.211037516593933105e-01,8.210693001747131348e-01,8.210347890853881836e-01,8.210003376007080078e-01,8.209657669067382812e-01,8.209313154220581055e-01,8.208968639373779297e-01,8.208624124526977539e-01,8.208279609680175781e-01,8.207935094833374023e-01,8.207590579986572266e-01,8.207244873046875000e-01,8.206900954246520996e-01,8.206556439399719238e-01,8.206211924552917480e-01,8.205867409706115723e-01,8.205523490905761719e-01,8.205177783966064453e-01,8.204833865165710449e-01,8.204489350318908691e-01,8.204145431518554688e-01,8.203800916671752930e-01,8.203456997871398926e-01,8.203113079071044922e-01,8.202767968177795410e-01,8.202424049377441406e-01,8.202079534530639648e-01,8.201735615730285645e-01,8.201391696929931641e-01,8.201047778129577637e-01,8.200703263282775879e-01,8.200359344482421875e-01,8.200015425682067871e-01,8.199671506881713867e-01,8.199327588081359863e-01,8.198983669281005859e-01,8.198639750480651855e-01,8.198295235633850098e-01,8.197951912879943848e-01,8.197607994079589844e-01,8.197264075279235840e-01,8.196920752525329590e-01,8.196576833724975586e-01,8.196233510971069336e-01,8.195888996124267578e-01,8.195545673370361328e-01,8.195202350616455078e-01,8.194859027862548828e-01,8.194515109062194824e-01,8.194171786308288574e-01,8.193827867507934570e-01,8.193484544754028320e-01,8.193141222000122070e-01,8.192797899246215820e-01,8.192454576492309570e-01,8.192111253738403320e-01,8.191767930984497070e-01,8.191424012184143066e-01,8.191081285476684570e-01,8.190737962722778320e-01,8.190394639968872070e-01,8.190051913261413574e-01,8.189708590507507324e-01,8.189364671707153320e-01,8.189021944999694824e-01,8.188679218292236328e-01,8.188335895538330078e-01,8.187993168830871582e-01,8.187650442123413086e-01,8.187307715415954590e-01,8.186963796615600586e-01,8.186621069908142090e-01,8.186278343200683594e-01,8.185935616493225098e-01
