5.000000000000000000e+00,5.000000000000000000e+00,5.000000000000000000e+00,5.000000000000000000e+00,5.000000000000000000e+00,5.000000000000000000e+00,5.000000000000000000e+00,5.000000000000000000e+00,5.000000000000000000e+00,5.000000000000000000e+00,5.000000000000000000e+00,5.000000000000000000e+00,5.000000000000000000e+00,5.000000000000000000e+00,5.000000000000000000e+00,5.000000000000000000e+00,5.000000000000000000e+00,5.000000000000000000e+00,5.000000000000000000e+00,5.000000000000000000e+00,5.000000000000000000e+00,5.000000000000000000e+00,5.000000000000000000e+00,5.000000000000000000e+00,5.000000000000000000e+00,5.000000000000000000e+00,5.000000000000000000e+00,5.000000000000000000e+00,5.000000000000000000e+00,5.000000000000000000e+00,5.000000000000000000e+00,5.000000000000000000e+00,5.000000000000000000e+00,5.000000000000000000e+00,5.000000000000000000e+00,5.000000000000000000e+00,5.000000000000000000e+00,5.000000000000000000e+00,5.000000000000000000e+00,5.000000000000000000e+00,5.000000000000000000e+00,5.000000000000000000e+00,4.322342395782470703e+00,4.170813560485839844e+00,4.029549121856689453e+00,3.897540807723999023e+00,3.773907184600830078e+00,3.657875776290893555e+00,3.548766613006591797e+00,3.445977926254272461e+00,3.348975896835327148e+00,3.257285833358764648e+00,3.170482635498046875e+00,3.088185548782348633e+00,3.010052919387817383e+00,2.935776472091674805e+00,2.865077018737792969e+00,2.797702789306640625e+00,2.733424663543701172e+00,2.672033786773681641e+00,2.613339900970458984e+00,2.557169198989868164e+00,2.503362178802490234e+00,2.451772928237915039e+00,2.402266979217529297e+00,2.354721069335937500e+00,2.309020280838012695e+00,2.265059709548950195e+00,2.222741842269897461e+00,2.181976318359375000e+00,2.142678976058959961e+00,2.104772329330444336e+00,2.068183183670043945e+00,2.032844781875610352e+00,1.998693585395812988e+00,1.965671062469482422e+00,1.933721780776977539e+00,1.902794480323791504e+00,1.872841000556945801e+00,1.843815684318542480e+00
5.000000000000000000e+00,5.000000000000000000e+00,5.000000000000000000e+00,5.000000000000000000e+00,5.000000000000000000e+00,5.000000000000000000e+00,5.000000000000000000e+00,5.000000000000000000e+00,5.000000000000000000e+00,5.000000000000000000e+00,5.000000000000000000e+00,5.000000000000000000e+00,5.000000000000000000e+00,5.000000000000000000e+00,5.000000000000000000e+00,5.000000000000000000e+00,5.000000000000000000e+00,5.000000000000000000e+00,5.000000000000000000e+00,5.000000000000000000e+00,5.000000000000000000e+00,5.000000000000000000e+00,5.000000000000000000e+00,5.000000000000000000e+00,5.000000000000000000e+00,5.000000000000000000e+00,5.000000000000000000e+00,5.000000000000000000e+00,5.000000000000000000e+00,5.000000000000000000e+00,5.000000000000000000e+00,5.000000000000000000e+00,5.000000000000000000e+00,5.000000000000000000e+00,5.000000000000000000e+00,5.000000000000000000e+00,5.000000000000000000e+00,5.000000000000000000e+00,5.000000000000000000e+00,5.000000000000000000e+00,5.000000000000000000e+00,4.485414981842041016e+00,4.322452545166015625e+00,4.170916080474853516e+00,4.029644966125488281e+00,3.897630453109741211e+00,3.773990869522094727e+00,3.657954692840576172e+00,3.548840999603271484e+00,3.446047782897949219e+00,3.349042177200317383e+00,3.257348537445068359e+00,3.170542001724243164e+00,3.088241815567016602e+00,3.010106325149536133e+00,2.935827255249023438e+00,2.865125417709350586e+00,2.797749042510986328e+00,2.733468770980834961e+00,2.672075986862182617e+00,2.613380193710327148e+00,2.557207822799682617e+00,2.503399133682250977e+00,2.451808452606201172e+00,2.402301073074340820e+00,2.354753494262695312e+00,2.309051513671875000e+00,2.265089988708496094e+00,2.222771167755126953e+00,2.182004451751708984e+00,2.142706155776977539e+00,2.104798316955566406e+00,2.068208456039428711e+00,2.032869100570678711e+00,1.998717188835144043e+00,1.965693831443786621e+00,1.933743834495544434e+00,1.902815937995910645e+00,1.872861504554748535e+00,1.843835711479187012e+00
5.000000000000000000e+00,5.000000000000000000e+00,5.000000000000000000e+00,5.000000000000000000e+00,5.000000000000000000e+00,5.000000000000000000e+00,5.000000000000000000e+00,5.000000000000000000e+00,5.000000000000000000e+00,5.000000000000000000e+00,5.000000000000000000e+00,5.000000000000000000e+00,5.000000000000000000e+00,5.000000000000000000e+00,5.000000000000000000e+00,5.000000000000000000e+00,5.000000000000000000e+00,5.000000000000000000e+00,5.000000000000000000e+00,5.000000000000000000e+00,5.000000000000000000e+00,5.000000000000000000e+00,5.000000000000000000e+00,5.000000000000000000e+00,5.000000000000000000e+00,5.000000000000000000e+00,5.000000000000000000e+00,5.000000000000000000e+00,5.000000000000000000e+00,5.000000000000000000e+00,5.000000000000000000e+00,5.000000000000000000e+00,5.000000000000000000e+00,5.000000000000000000e+00,5.000000000000000000e+00,5.000000000000000000e+00,5.000000000000000000e+00,5.000000000000000000e+00,5.000000000000000000e+00,5.000000000000000000e+00,4.661275386810302734e+00,4.485533714294433594e+00,4.322562217712402344e+00,4.171018600463867188e+00,4.029740810394287109e+00,3.897720098495483398e+00,3.774074792861938477e+00,3.658033609390258789e+00,3.548915147781372070e+00,3.446117877960205078e+00,3.349108219146728516e+00,3.257411241531372070e+00,3.170600891113281250e+00,3.088298082351684570e+00,3.010159730911254883e+00,2.935877799987792969e+00,2.865173816680908203e+00,2.797795295715332031e+00,2.733512639999389648e+00,2.672117948532104492e+00,2.613420486450195312e+00,2.557246446609497070e+00,2.503436088562011719e+00,2.451843976974487305e+00,2.402335166931152344e+00,2.354786396026611328e+00,2.309082984924316406e+00,2.265120267868041992e+00,2.222800016403198242e+00,2.182032346725463867e+00,2.142733335494995117e+00,2.104824304580688477e+00,2.068233728408813477e+00,2.032893657684326172e+00,1.998740673065185547e+00,1.965716600418090820e+00,1.933766007423400879e+00,1.902837395668029785e+00,1.872882127761840820e+00,1.843855857849121094e+00
5.000000000000000000e+00,5.000000000000000000e+00,5.000000000000000000e+00,5.000000000000000000e+00,5.000000000000000000e+00,5.000000000000000000e+00,5.000000000000000000e+00,5.000000000000000000e+00,5.000000000000000000e+00,5.000000000000000000e+00,5.000000000000000000e+00,5.000000000000000000e+00,5.000000000000000000e+00,5.000000000000000000e+00,5.000000000000000000e+00,5.000000000000000000e+00,5.000000000000000000e+00,5.000000000000000000e+00,5.000000000000000000e+00,5.000000000000000000e+00,5.000000000000000000e+00,5.000000000000000000e+00,5.000000000000000000e+00,5.000000000000000000e+00,5.000000000000000000e+00,5.000000000000000000e+00,5.000000000000000000e+00,5.000000000000000000e+00,5.000000000000000000e+00,5.000000000000000000e+00,5.000000000000000000e+00,5.000000000000000000e+00,5.000000000000000000e+00,5.000000000000000000e+00,5.000000000000000000e+00,5.000000000000000000e+00,5.000000000000000000e+00,5.000000000000000000e+00,5.000000000000000000e+00,4.851487636566162109e+00,4.661403179168701172e+00,4.485652446746826172e+00,4.322672843933105469e+00,4.171121597290039062e+00,4.029836654663085938e+00,3.897809267044067383e+00,3.774158954620361328e+00,3.658112525939941406e+00,3.548989057540893555e+00,3.446187734603881836e+00,3.349174499511718750e+00,3.257473707199096680e+00,3.170660257339477539e+00,3.088354349136352539e+00,3.010213375091552734e+00,2.935928821563720703e+00,2.865222215652465820e+00,2.797841548919677734e+00,2.733556747436523438e+00,2.672160148620605469e+00,2.613460779190063477e+00,2.557284832000732422e+00,2.503473043441772461e+00,2.451879262924194336e+00,2.402369022369384766e+00,2.354819059371948242e+00,2.309114456176757812e+00,2.265150547027587891e+00,2.222829341888427734e+00,2.182060480117797852e+00,2.142760276794433594e+00,2.104850530624389648e+00,2.068258762359619141e+00,2.032917976379394531e+00,1.998764276504516602e+00,1.965739369392395020e+00,1.933788061141967773e+00,1.902858495712280273e+00,1.872902989387512207e+00,1.843876004219055176e+00
5.000000000000000000e+00,5.000000000000000000e+00,5.000000000000000000e+00,5.000000000000000000e+00,5.000000000000000000e+00,5.000000000000000000e+00,5.000000000000000000e+00,5.000000000000000000e+00,5.000000000000000000e+00,5.000000000000000000e+00,5.000000000000000000e+00,5.000000000000000000e+00,5.000000000000000000e+00,5.000000000000000000e+00,5.000000000000000000e+00,5.000000000000000000e+00,5.000000000000000000e+00,5.000000000000000000e+00,5.000000000000000000e+00,5.000000000000000000e+00,5.000000000000000000e+00,5.000000000000000000e+00,5.000000000000000000e+00,5.000000000000000000e+00,5.000000000000000000e+00,5.000000000000000000e+00,5.000000000000000000e+00,5.000000000000000000e+00,5.000000000000000000e+00,5.000000000000000000e+00,5.000000000000000000e+00,5.000000000000000000e+00,5.000000000000000000e+00,5.000000000000000000e+00,5.000000000000000000e+00,5.000000000000000000e+00,5.000000000000000000e+00,5.000000000000000000e+00,5.000000000000000000e+00,4.851626873016357422e+00,4.661531448364257812e+00,4.485771179199218750e+00,4.322782993316650391e+00,4.171223640441894531e+00,4.029932498931884766e+00,3.897898912429809570e+00,3.774242877960205078e+00,3.658191442489624023e+00,3.549063444137573242e+00,3.446257829666137695e+00,3.349240779876708984e+00,3.257536172866821289e+00,3.170719623565673828e+00,3.088410615921020508e+00,3.010266542434692383e+00,2.935979604721069336e+00,2.865270853042602539e+00,2.797887802124023438e+00,2.733600854873657227e+00,2.672202348709106445e+00,2.613501071929931641e+00,2.557323455810546875e+00,2.503509998321533203e+00,2.451914787292480469e+00,2.402403116226196289e+00,2.354851722717285156e+00,2.309145927429199219e+00,2.265180826187133789e+00,2.222858428955078125e+00,2.182088613510131836e+00,2.142787218093872070e+00,2.104876756668090820e+00,2.068284034729003906e+00,2.032942295074462891e+00,1.998787879943847656e+00,1.965762257575988770e+00,1.933810114860534668e+00,1.902879834175109863e+00,1.872923731803894043e+00,1.843896031379699707e+00
5.000000000000000000e+00,5.000000000000000000e+00,5.000000000000000000e+00,5.000000000000000000e+00,5.000000000000000000e+00,5.000000000000000000e+00,5.000000000000000000e+00,5.000000000000000000e+00,5.000000000000000000e+00,5.000000000000000000e+00,5.000000000000000000e+00,5.000000000000000000e+00,5.000000000000000000e+00,5.000000000000000000e+00,5.000000000000000000e+00,5.000000000000000000e+00,5.000000000000000000e+00,5.000000000000000000e+00,5.000000000000000000e+00,5.000000000000000000e+00,5.000000000000000000e+00,5.000000000000000000e+00,5.000000000000000000e+00,5.000000000000000000e+00,5.000000000000000000e+00,5.000000000000000000e+00,5.000000000000000000e+00,5.000000000000000000e+00,5.000000000000000000e+00,5.000000000000000000e+00,5.000000000000000000e+00,5.000000000000000000e+00,5.000000000000000000e+00,5.000000000000000000e+00,5.000000000000000000e+00,5.000000000000000000e+00,5.000000000000000000e+00,5.000000000000000000e+00,5.000000000000000000e+00,4.851765632629394531e+00,4.661659717559814453e+00,4.485889911651611328e+00,4.322893142700195312e+00,4.171326637268066406e+00,4.030027866363525391e+00,3.897988557815551758e+00,3.774327039718627930e+00,3.658270597457885742e+00,3.549137830734252930e+00,3.446327924728393555e+00,3.349306821823120117e+00,3.257598638534545898e+00,3.170778989791870117e+00,3.088466882705688477e+00,3.010319948196411133e+00,2.936030387878417969e+00,2.865319252014160156e+00,2.797933816909790039e+00,2.733644962310791016e+00,2.672244310379028320e+00,2.613541126251220703e+00,2.557361841201782227e+00,2.503546953201293945e+00,2.451950311660766602e+00,2.402437210083007812e+00,2.354884386062622070e+00,2.309177398681640625e+00,2.265211105346679688e+00,2.222887516021728516e+00,2.182116746902465820e+00,2.142814397811889648e+00,2.104902744293212891e+00,2.068309307098388672e+00,2.032966613769531250e+00,1.998811483383178711e+00,1.965785026550292969e+00,1.933831930160522461e+00,1.902901291847229004e+00,1.872944355010986328e+00,1.843916177749633789e+00
5.000000000000000000e+00,5.000000000000000000e+00,5.000000000000000000e+00,5.000000000000000000e+00,5.000000000000000000e+00,5.000000000000000000e+00,5.000000000000000000e+00,5.000000000000000000e+00,5.000000000000000000e+00,5.000000000000000000e+00,5.000000000000000000e+00,5.000000000000000000e+00,5.000000000000000000e+00,5.000000000000000000e+00,5.000000000000000000e+00,5.000000000000000000e+00,5.000000000000000000e+00,5.000000000000000000e+00,5.000000000000000000e+00,5.000000000000000000e+00,5.000000000000000000e+00,5.000000000000000000e+00,5.000000000000000000e+00,5.000000000000000000e+00,5.000000000000000000e+00,5.000000000000000000e+00,5.000000000000000000e+00,5.000000000000000000e+00,5.000000000000000000e+00,5.000000000000000000e+00,5.000000000000000000e+00,5.000000000000000000e+00,5.000000000000000000e+00,5.000000000000000000e+00,5.000000000000000000e+00,5.000000000000000000e+00,5.000000000000000000e+00,5.000000000000000000e+00,5.000000000000000000e+00,4.851904392242431641e+00,4.661787986755371094e+00,4.486008644104003906e+00,4.323003292083740234e+00,4.171429157257080078e+00,4.030123710632324219e+00,3.898078441619873047e+00,3.774411201477050781e+00,3.658349037170410156e+00,3.549212217330932617e+00,3.446398019790649414e+00,3.349372863769531250e+00,3.257661342620849609e+00,3.170838356018066406e+00,3.088523149490356445e+00,3.010373353958129883e+00,2.936081409454345703e+00,2.865367650985717773e+00,2.797979831695556641e+00,2.733689069747924805e+00,2.672286510467529297e+00,2.613581657409667969e+00,2.557400465011596680e+00,2.503583908081054688e+00,2.451985597610473633e+00,2.402471303939819336e+00,2.354917287826538086e+00,2.309208869934082031e+00,2.265241384506225586e+00,2.222916841506958008e+00,2.182144880294799805e+00,2.142841339111328125e+00,2.104928970336914062e+00,2.068334579467773438e+00,2.032990932464599609e+00,1.998834967613220215e+00,1.965807795524597168e+00,1.933853983879089355e+00,1.902922630310058594e+00,1.872965097427368164e+00,1.843936204910278320e+00
5.000000000000000000e+00,5.000000000000000000e+00,5.000000000000000000e+00,5.000000000000000000e+00,5.000000000000000000e+00,5.000000000000000000e+00,5.000000000000000000e+00,5.000000000000000000e+00,5.000000000000000000e+00,5.000000000000000000e+00,5.000000000000000000e+00,5.000000000000000000e+00,5.000000000000000000e+00,5.000000000000000000e+00,5.000000000000000000e+00,5.000000000000000000e+00,5.000000000000000000e+00,5.000000000000000000e+00,5.000000000000000000e+00,5.000000000000000000e+00,5.000000000000000000e+00,5.000000000000000000e+00,5.000000000000000000e+00,5.000000000000000000e+00,5.000000000000000000e+00,5.000000000000000000e+00,5.000000000000000000e+00,5.000000000000000000e+00,5.000000000000000000e+00,5.000000000000000000e+00,5.000000000000000000e+00,5.000000000000000000e+00,5.000000000000000000e+00,5.000000000000000000e+00,5.000000000000000000e+00,5.000000000000000000e+00,5.000000000000000000e+00,5.000000000000000000e+00,5.000000000000000000e+00,4.852043151855468750e+00,4.661915779113769531e+00,4.486127376556396484e+00,4.323113441467285156e+00,4.171531677246093750e+00,4.030219554901123047e+00,3.898168087005615234e+00,3.774495124816894531e+00,3.658427953720092773e+00,3.549286365509033203e+00,3.446468114852905273e+00,3.349438905715942383e+00,3.257723808288574219e+00,3.170897483825683594e+00,3.088579177856445312e+00,3.010426998138427734e+00,2.936132192611694336e+00,2.865415811538696289e+00,2.798026084899902344e+00,2.733733177185058594e+00,2.672328472137451172e+00,2.613621950149536133e+00,2.557439088821411133e+00,2.503620862960815430e+00,2.452021121978759766e+00,2.402505397796630859e+00,2.354949951171875000e+00,2.309240341186523438e+00,2.265271663665771484e+00,2.222945928573608398e+00,2.182172775268554688e+00,2.142868518829345703e+00,2.104955196380615234e+00,2.068359613418579102e+00,2.033015489578247070e+00,1.998858571052551270e+00,1.965830445289611816e+00,1.933876037597656250e+00,1.902943968772888184e+00,1.872985720634460449e+00,1.843956232070922852e+00
5.000000000000000000e+00,5.000000000000000000e+00,5.000000000000000000e+00,5.000000000000000000e+00,5.000000000000000000e+00,5.000000000000000000e+00,5.000000000000000000e+00,5.000000000000000000e+00,5.000000000000000000e+00,5.000000000000000000e+00,5.000000000000000000e+00,5.000000000000000000e+00,5.000000000000000000e+00,5.000000000000000000e+00,5.000000000000000000e+00,5.000000000000000000e+00,5.000000000000000000e+00,5.000000000000000000e+00,5.000000000000000000e+00,5.000000000000000000e+00,5.000000000000000000e+00,5.000000000000000000e+00,5.000000000000000000e+00,5.000000000000000000e+00,5.000000000000000000e+00,5.000000000000000000e+00,5.000000000000000000e+00,5.000000000000000000e+00,5.000000000000000000e+00,5.000000000000000000e+00,5.000000000000000000e+00,5.000000000000000000e+00,5.000000000000000000e+00,5.000000000000000000e+00,5.000000000000000000e+00,5.000000000000000000e+00,5.000000000000000000e+00,5.000000000000000000e+00,5.000000000000000000e+00,4.852181911468505859e+00,4.662044048309326172e+00,4.486245632171630859e+00,4.323223590850830078e+00,4.171634197235107422e+00,4.030315399169921875e+00,3.898257732391357422e+00,3.774578809738159180e+00,3.658507108688354492e+00,3.549360752105712891e+00,3.446537971496582031e+00,3.349505186080932617e+00,3.257786512374877930e+00,3.170956850051879883e+00,3.088635444641113281e+00,3.010480403900146484e+00,2.936182975769042969e+00,2.865464210510253906e+00,2.798072338104248047e+00,2.733777284622192383e+00,2.672370672225952148e+00,2.613662242889404297e+00,2.557477712631225586e+00,2.503657817840576172e+00,2.452056646347045898e+00,2.402539253234863281e+00,2.354982376098632812e+00,2.309271812438964844e+00,2.265301942825317383e+00,2.222975015640258789e+00,2.182200908660888672e+00,2.142895698547363281e+00,2.104981184005737305e+00,2.068384885787963867e+00,2.033039808273315430e+00,1.998882174491882324e+00,1.965853214263916016e+00,1.933898091316223145e+00,1.902965307235717773e+00,1.873006463050842285e+00,1.843976378440856934e+00
5.000000000000000000e+00,5.000000000000000000e+00,5.000000000000000000e+00,5.000000000000000000e+00,5.000000000000000000e+00,5.000000000000000000e+00,5.000000000000000000e+00,5.000000000000000000e+00,5.000000000000000000e+00,5.000000000000000000e+00,5.000000000000000000e+00,5.000000000000000000e+00,5.000000000000000000e+00,5.000000000000000000e+00,5.000000000000000000e+00,5.000000000000000000e+00,5.000000000000000000e+00,5.000000000000000000e+00,5.000000000000000000e+00,5.000000000000000000e+00,5.000000000000000000e+00,5.000000000000000000e+00,5.000000000000000000e+00,5.000000000000000000e+00,5.000000000000000000e+00,5.000000000000000000e+00,5.000000000000000000e+00,5.000000000000000000e+00,5.000000000000000000e+00,5.000000000000000000e+00,5.000000000000000000e+00,5.000000000000000000e+00,5.000000000000000000e+00,5.000000000000000000e+00,5.000000000000000000e+00,5.000000000000000000e+00,5.000000000000000000e+00,5.000000000000000000e+00,5.000000000000000000e+00,4.852320671081542969e+00,4.662172317504882812e+00,4.486364364624023438e+00,4.323334217071533203e+00,4.171737194061279297e+00,4.030411243438720703e+00,3.898347377777099609e+00,3.774662971496582031e+00,3.658586025238037109e+00,3.549435138702392578e+00,3.446608066558837891e+00,3.349571466445922852e+00,3.257849216461181641e+00,3.171015977859497070e+00,3.088691711425781250e+00,3.010533809661865234e+00,2.936233758926391602e+00,2.865512847900390625e+00,2.798118591308593750e+00,2.733821392059326172e+00,2.672412872314453125e+00,2.613702535629272461e+00,2.557516336441040039e+00,2.503694772720336914e+00,2.452091932296752930e+00,2.402573347091674805e+00,2.355015277862548828e+00,2.309303283691406250e+00,2.265332221984863281e+00,2.223004102706909180e+00,2.182229042053222656e+00,2.142922639846801758e+00,2.105007171630859375e+00,2.068410158157348633e+00,2.033064126968383789e+00,1.998905777931213379e+00,1.965875983238220215e+00,1.933920145034790039e+00,1.902986645698547363e+00,1.873027205467224121e+00,1.843996405601501465e+00
5.000000000000000000e+00,5.000000000000000000e+00,5.000000000000000000e+00,5.000000000000000000e+00,5.000000000000000000e+00,5.000000000000000000e+00,5.000000000000000000e+00,5.000000000000000000e+00,5.000000000000000000e+00,5.000000000000000000e+00,5.000000000000000000e+00,5.000000000000000000e+00,5.000000000000000000e+00,5.000000000000000000e+00,5.000000000000000000e+00,5.000000000000000000e+00,5.000000000000000000e+00,5.000000000000000000e+00,5.000000000000000000e+00,5.000000000000000000e+00,5.000000000000000000e+00,5.000000000000000000e+00,5.000000000000000000e+00,5.000000000000000000e+00,5.000000000000000000e+00,5.000000000000000000e+00,5.000000000000000000e+00,5.000000000000000000e+00,5.000000000000000000e+00,5.000000000000000000e+00,5.000000000000000000e+00,5.000000000000000000e+00,5.000000000000000000e+00,5.000000000000000000e+00,5.000000000000000000e+00,5.000000000000000000e+00,5.000000000000000000e+00,5.000000000000000000e+00,5.000000000000000000e+00,4.852459430694580078e+00,4.662300586700439453e+00,4.486483097076416016e+00,4.323443889617919922e+00,4.171839714050292969e+00,4.030507087707519531e+00,3.898436546325683594e+00,3.774746894836425781e+00,3.658664941787719727e+00,3.549509525299072266e+00,3.446678161621093750e+00,3.349637508392333984e+00,3.257911920547485352e+00,3.171075344085693359e+00,3.088747978210449219e+00,3.010587453842163086e+00,2.936284542083740234e+00,2.865561246871948242e+00,2.798164606094360352e+00,2.733865261077880859e+00,2.672454833984375000e+00,2.613742828369140625e+00,2.557554721832275391e+00,2.503731727600097656e+00,2.452127456665039062e+00,2.402607440948486328e+00,2.355047941207885742e+00,2.309334754943847656e+00,2.265362501144409180e+00,2.223033189773559570e+00,2.182257175445556641e+00,2.142949819564819336e+00,2.105033397674560547e+00,2.068435430526733398e+00,2.033088445663452148e+00,1.998929142951965332e+00,1.965898871421813965e+00,1.933942317962646484e+00,1.903008103370666504e+00,1.873047828674316406e+00,1.844016432762145996e+00
5.000000000000000000e+00,5.000000000000000000e+00,5.000000000000000000e+00,5.000000000000000000e+00,5.000000000000000000e+00,5.000000000000000000e+00,5.000000000000000000e+00,5.000000000000000000e+00,5.000000000000000000e+00,5.000000000000000000e+00,5.000000000000000000e+00,5.000000000000000000e+00,5.000000000000000000e+00,5.000000000000000000e+00,5.000000000000000000e+00,5.000000000000000000e+00,5.000000000000000000e+00,5.000000000000000000e+00,5.000000000000000000e+00,5.000000000000000000e+00,5.000000000000000000e+00,5.000000000000000000e+00,5.000000000000000000e+00,5.000000000000000000e+00,5.000000000000000000e+00,5.000000000000000000e+00,5.000000000000000000e+00,5.000000000000000000e+00,5.000000000000000000e+00,5.000000000000000000e+00,5.000000000000000000e+00,5.000000000000000000e+00,5.000000000000000000e+00,5.000000000000000000e+00,5.000000000000000000e+00,5.000000000000000000e+00,5.000000000000000000e+00,5.000000000000000000e+00,5.000000000000000000e+00,4.852598667144775391e+00,4.662428379058837891e+00,4.486601829528808594e+00,4.323554515838623047e+00,4.171942234039306641e+00,4.030602931976318359e+00,3.898526191711425781e+00,3.774831056594848633e+00,3.658743858337402344e+00,3.549583435058593750e+00,3.446748256683349609e+00,3.349703788757324219e+00,3.257974147796630859e+00,3.171134710311889648e+00,3.088804244995117188e+00,3.010640859603881836e+00,2.936335325241088867e+00,2.865609645843505859e+00,2.798210859298706055e+00,2.733909368515014648e+00,2.672497034072875977e+00,2.613783121109008789e+00,2.557593345642089844e+00,2.503768682479858398e+00,2.452162981033325195e+00,2.402641296386718750e+00,2.355080604553222656e+00,2.309366226196289062e+00,2.265392541885375977e+00,2.223062276840209961e+00,2.182285070419311523e+00,2.142976999282836914e+00,2.105059623718261719e+00,2.068460702896118164e+00,2.033113002777099609e+00,1.998952627182006836e+00,1.965921640396118164e+00,1.933964371681213379e+00,1.903029441833496094e+00,1.873068571090698242e+00,1.844036459922790527e+00
5.000000000000000000e+00,5.000000000000000000e+00,5.000000000000000000e+00,5.000000000000000000e+00,5.000000000000000000e+00,5.000000000000000000e+00,5.000000000000000000e+00,5.000000000000000000e+00,5.000000000000000000e+00,5.000000000000000000e+00,5.000000000000000000e+00,5.000000000000000000e+00,5.000000000000000000e+00,5.000000000000000000e+00,5.000000000000000000e+00,5.000000000000000000e+00,5.000000000000000000e+00,5.000000000000000000e+00,5.000000000000000000e+00,5.000000000000000000e+00,5.000000000000000000e+00,5.000000000000000000e+00,5.000000000000000000e+00,5.000000000000000000e+00,5.000000000000000000e+00,5.000000000000000000e+00,5.000000000000000000e+00,5.000000000000000000e+00,5.000000000000000000e+00,5.000000000000000000e+00,5.000000000000000000e+00,5.000000000000000000e+00,5.000000000000000000e+00,5.000000000000000000e+00,5.000000000000000000e+00,5.000000000000000000e+00,5.000000000000000000e+00,5.000000000000000000e+00,5.000000000000000000e+00,4.852737426757812500e+00,4.662556648254394531e+00,4.486720561981201172e+00,4.323664665222167969e+00,4.172044754028320312e+00,4.030698299407958984e+00,3.898615837097167969e+00,3.774915218353271484e+00,3.658823013305664062e+00,3.549657821655273438e+00,3.446818351745605469e+00,3.349770069122314453e+00,3.258036851882934570e+00,3.171194076538085938e+00,3.088860511779785156e+00,3.010694026947021484e+00,2.936386346817016602e+00,2.865658044815063477e+00,2.798256874084472656e+00,2.733953475952148438e+00,2.672539234161376953e+00,2.613823175430297852e+00,2.557631969451904297e+00,2.503805637359619141e+00,2.452198505401611328e+00,2.402675390243530273e+00,2.355113267898559570e+00,2.309397697448730469e+00,2.265422821044921875e+00,2.223091602325439453e+00,2.182313203811645508e+00,2.143003940582275391e+00,2.105085611343383789e+00,2.068485975265502930e+00,2.033137321472167969e+00,1.998976230621337891e+00,1.965944409370422363e+00,1.933986425399780273e+00,1.903050780296325684e+00,1.873089313507080078e+00,1.844056606292724609e+00
5.000000000000000000e+00,5.000000000000000000e+00,5.000000000000000000e+00,5.000000000000000000e+00,5.000000000000000000e+00,5.000000000000000000e+00,5.000000000000000000e+00,5.000000000000000000e+00,5.000000000000000000e+00,5.000000000000000000e+00,5.000000000000000000e+00,5.000000000000000000e+00,5.000000000000000000e+00,5.000000000000000000e+00,5.000000000000000000e+00,5.000000000000000000e+00,5.000000000000000000e+00,5.000000000000000000e+00,5.000000000000000000e+00,5.000000000000000000e+00,5.000000000000000000e+00,5.000000000000000000e+00,5.000000000000000000e+00,4.900454998016357422e+00,4.924580097198486328e+00,5.000000000000000000e+00,5.000000000000000000e+00,5.000000000000000000e+00,5.000000000000000000e+00,5.000000000000000000e+00,5.000000000000000000e+00,5.000000000000000000e+00,5.000000000000000000e+00,5.000000000000000000e+00,5.000000000000000000e+00,5.000000000000000000e+00,5.000000000000000000e+00,5.000000000000000000e+00,5.000000000000000000e+00,4.852876186370849609e+00,4.662684917449951172e+00,4.486839294433593750e+00,4.323774814605712891e+00,4.172147750854492188e+00,4.030794143676757812e+00,3.898705720901489258e+00,3.774999141693115234e+00,3.658901453018188477e+00,3.549732208251953125e+00,3.446888446807861328e+00,3.349835872650146484e+00,3.258099317550659180e+00,3.171253204345703125e+00,3.088917016983032227e+00,3.010747671127319336e+00,2.936437129974365234e+00,2.865706682205200195e+00,2.798303127288818359e+00,2.733997583389282227e+00,2.672581434249877930e+00,2.613863468170166016e+00,2.557670593261718750e+00,2.503842830657958984e+00,2.452233791351318359e+00,2.402709484100341797e+00,2.355146169662475586e+00,2.309428930282592773e+00,2.265453100204467773e+00,2.223120689392089844e+00,2.182341337203979492e+00,2.143030881881713867e+00,2.105111837387084961e+00,2.068511247634887695e+00,2.033161640167236328e+00,1.998999834060668945e+00,1.965967178344726562e+00,1.934008479118347168e+00,1.903072237968444824e+00,1.873109936714172363e+00,1.844076395034790039e+00
5.000000000000000000e+00,5.000000000000000000e+00,5.000000000000000000e+00,5.000000000000000000e+00,5.000000000000000000e+00,5.000000000000000000e+00,5.000000000000000000e+00,5.000000000000000000e+00,5.000000000000000000e+00,5.000000000000000000e+00,5.000000000000000000e+00,5.000000000000000000e+00,5.000000000000000000e+00,5.000000000000000000e+00,5.000000000000000000e+00,5.000000000000000000e+00,5.000000000000000000e+00,5.000000000000000000e+00,5.000000000000000000e+00,5.000000000000000000e+00,5.000000000000000000e+00,5.000000000000000000e+00,5.000000000000000000e+00,4.910129547119140625e+00,4.921922683715820312e+00,5.000000000000000000e+00,5.000000000000000000e+00,5.000000000000000000e+00,5.000000000000000000e+00,5.000000000000000000e+00,5.000000000000000000e+00,5.000000000000000000e+00,5.000000000000000000e+00,5.000000000000000000e+00,5.000000000000000000e+00,5.000000000000000000e+00,5.000000000000000000e+00,5.000000000000000000e+00,5.000000000000000000e+00,4.853014945983886719e+00,4.662812709808349609e+00,4.486958026885986328e+00,4.323884963989257812e+00,4.172250270843505859e+00,4.030889987945556641e+00,3.898795366287231445e+00,3.775083303451538086e+00,3.658980607986450195e+00,3.549806594848632812e+00,3.446958541870117188e+00,3.349902153015136719e+00,3.258162021636962891e+00,3.171312570571899414e+00,3.088973045349121094e+00,3.010801076889038086e+00,2.936488151550292969e+00,2.865754842758178711e+00,2.798349380493164062e+00,2.734041690826416016e+00,2.672623395919799805e+00,2.613903760910034180e+00,2.557709217071533203e+00,2.503879785537719727e+00,2.452269315719604492e+00,2.402743577957153320e+00,2.355178833007812500e+00,2.309460401535034180e+00,2.265483379364013672e+00,2.223149776458740234e+00,2.182369470596313477e+00,2.143058061599731445e+00,2.105138063430786133e+00,2.068536281585693359e+00,2.033185958862304688e+00,1.999023437500000000e+00,1.965990066528320312e+00,1.934030532836914062e+00,1.903093576431274414e+00,1.873130679130554199e+00,1.844096541404724121e+00
5.000000000000000000e+00,5.000000000000000000e+00,5.000000000000000000e+00,5.000000000000000000e+00,5.000000000000000000e+00,5.000000000000000000e+00,5.000000000000000000e+00,5.000000000000000000e+00,5.000000000000000000e+00,5.000000000000000000e+00,5.000000000000000000e+00,5.000000000000000000e+00,5.000000000000000000e+00,5.000000000000000000e+00,5.000000000000000000e+00,5.000000000000000000e+00,5.000000000000000000e+00,5.000000000000000000e+00,5.000000000000000000e+00,5.000000000000000000e+00,5.000000000000000000e+00,5.000000000000000000e+00,5.000000000000000000e+00,5.000000000000000000e+00,4.988914012908935547e+00,5.000000000000000000e+00,5.000000000000000000e+00,5.000000000000000000e+00,5.000000000000000000e+00,5.000000000000000000e+00,5.000000000000000000e+00,5.000000000000000000e+00,5.000000000000000000e+00,5.000000000000000000e+00,5.000000000000000000e+00,5.000000000000000000e+00,5.000000000000000000e+00,5.000000000000000000e+00,5.000000000000000000e+00,4.853154182434082031e+00,4.662941455841064453e+00,4.487076759338378906e+00,4.323995590209960938e+00,4.172352790832519531e+00,4.030985832214355469e+00,3.898885011672973633e+00,3.775166988372802734e+00,3.659059524536132812e+00,3.549880981445312500e+00,3.447028636932373047e+00,3.349968194961547852e+00,3.258224725723266602e+00,3.171371936798095703e+00,3.089029312133789062e+00,3.010854482650756836e+00,2.936538934707641602e+00,2.865803241729736328e+00,2.798395395278930664e+00,2.734085798263549805e+00,2.672665357589721680e+00,2.613944053649902344e+00,2.557747840881347656e+00,2.503916501998901367e+00,2.452304840087890625e+00,2.402777671813964844e+00,2.355211496353149414e+00,2.309491872787475586e+00,2.265513658523559570e+00,2.223179101943969727e+00,2.182397365570068359e+00,2.143085241317749023e+00,2.105164289474487305e+00,2.068561553955078125e+00,2.033210277557373047e+00,1.999046921730041504e+00,1.966012835502624512e+00,1.934052586555480957e+00,1.903114914894104004e+00,1.873151183128356934e+00,1.844116568565368652e+00
5.000000000000000000e+00,5.000000000000000000e+00,5.000000000000000000e+00,5.000000000000000000e+00,5.000000000000000000e+00,5.000000000000000000e+00,5.000000000000000000e+00,5.000000000000000000e+00,5.000000000000000000e+00,5.000000000000000000e+00,5.000000000000000000e+00,5.000000000000000000e+00,5.000000000000000000e+00,5.000000000000000000e+00,5.000000000000000000e+00,5.000000000000000000e+00,5.000000000000000000e+00,5.000000000000000000e+00,5.000000000000000000e+00,5.000000000000000000e+00,5.000000000000000000e+00,4.938143253326416016e+00,4.945710659027099609e+00,4.923377990722656250e+00,4.936425209045410156e+00,4.969883441925048828e+00,4.990606307983398438e+00,5.000000000000000000e+00,5.000000000000000000e+00,5.000000000000000000e+00,5.000000000000000000e+00,5.000000000000000000e+00,5.000000000000000000e+00,5.000000000000000000e+00,5.000000000000000000e+00,5.000000000000000000e+00,5.000000000000000000e+00,5.000000000000000000e+00,5.000000000000000000e+00,4.853292942047119141e+00,4.663069725036621094e+00,4.487195491790771484e+00,4.324105739593505859e+00,4.172455310821533203e+00,4.031081676483154297e+00,3.898974657058715820e+00,3.775251150131225586e+00,3.659138441085815430e+00,3.549955129623413086e+00,3.447098493576049805e+00,3.350034475326538086e+00,3.258287429809570312e+00,3.171431064605712891e+00,3.089085578918457031e+00,3.010908126831054688e+00,2.936589956283569336e+00,2.865851640701293945e+00,2.798441648483276367e+00,2.734129905700683594e+00,2.672707557678222656e+00,2.613984584808349609e+00,2.557786226272583008e+00,2.503953456878662109e+00,2.452340126037597656e+00,2.402811765670776367e+00,2.355244159698486328e+00,2.309523344039916992e+00,2.265543937683105469e+00,2.223207950592041016e+00,2.182425498962402344e+00,2.143112182617187500e+00,2.105190277099609375e+00,2.068586826324462891e+00,2.033234834671020508e+00,1.999070525169372559e+00,1.966035604476928711e+00,1.934074759483337402e+00,1.903136253356933594e+00,1.873171925544738770e+00,1.844136595726013184e+00
5.000000000000000000e+00,5.000000000000000000e+00,5.000000000000000000e+00,5.000000000000000000e+00,5.000000000000000000e+00,5.000000000000000000e+00,5.000000000000000000e+00,5.000000000000000000e+00,5.000000000000000000e+00,5.000000000000000000e+00,5.000000000000000000e+00,5.000000000000000000e+00,5.000000000000000000e+00,5.000000000000000000e+00,5.000000000000000000e+00,5.000000000000000000e+00,5.000000000000000000e+00,5.000000000000000000e+00,5.000000000000000000e+00,5.000000000000000000e+00,5.000000000000000000e+00,4.933922767639160156e+00,4.896996974945068359e+00,4.877593040466308594e+00,4.892074584960937500e+00,4.932934761047363281e+00,5.000000000000000000e+00,5.000000000000000000e+00,5.000000000000000000e+00,5.000000000000000000e+00,5.000000000000000000e+00,5.000000000000000000e+00,5.000000000000000000e+00,5.000000000000000000e+00,5.000000000000000000e+00,5.000000000000000000e+00,5.000000000000000000e+00,5.000000000000000000e+00,5.000000000000000000e+00,4.853431701660156250e+00,4.663197994232177734e+00,4.487314224243164062e+00,4.324215888977050781e+00,4.172558307647705078e+00,4.031177520751953125e+00,3.899064540863037109e+00,3.775335073471069336e+00,3.659217596054077148e+00,3.550029516220092773e+00,3.447168588638305664e+00,3.350100755691528320e+00,3.258349895477294922e+00,3.171490430831909180e+00,3.089141845703125000e+00,3.010961532592773438e+00,2.936640501022338867e+00,2.865900278091430664e+00,2.798487901687622070e+00,2.734173774719238281e+00,2.672749757766723633e+00,2.614024877548217773e+00,2.557824850082397461e+00,2.503990411758422852e+00,2.452375650405883789e+00,2.402845859527587891e+00,2.355276823043823242e+00,2.309554815292358398e+00,2.265574216842651367e+00,2.223237276077270508e+00,2.182453632354736328e+00,2.143139362335205078e+00,2.105216264724731445e+00,2.068612098693847656e+00,2.033259153366088867e+00,1.999094128608703613e+00,1.966058492660522461e+00,1.934096813201904297e+00,1.903157711029052734e+00,1.873192548751831055e+00,1.844156742095947266e+00
5.000000000000000000e+00,5.000000000000000000e+00,5.000000000000000000e+00,5.000000000000000000e+00,5.000000000000000000e+00,5.000000000000000000e+00,5.000000000000000000e+00,5.000000000000000000e+00,5.000000000000000000e+00,5.000000000000000000e+00,5.000000000000000000e+00,5.000000000000000000e+00,5.000000000000000000e+00,5.000000000000000000e+00,5.000000000000000000e+00,5.000000000000000000e+00,5.000000000000000000e+00,5.000000000000000000e+00,5.000000000000000000e+00,5.000000000000000000e+00,5.000000000000000000e+00,4.979472637176513672e+00,4.907774925231933594e+00,4.873512268066406250e+00,4.885151386260986328e+00,4.948245048522949219e+00,5.000000000000000000e+00,5.000000000000000000e+00,5.000000000000000000e+00,5.000000000000000000e+00,5.000000000000000000e+00,5.000000000000000000e+00,5.000000000000000000e+00,5.000000000000000000e+00,5.000000000000000000e+00,5.000000000000000000e+00,5.000000000000000000e+00,5.000000000000000000e+00,5.000000000000000000e+00,4.853570461273193359e+00,4.663325786590576172e+00,4.487432956695556641e+00,4.324326038360595703e+00,4.172660827636718750e+00,4.031273365020751953e+00,3.899153709411621094e+00,3.775419235229492188e+00,3.659296512603759766e+00,3.550103664398193359e+00,3.447238683700561523e+00,3.350167036056518555e+00,3.258412361145019531e+00,3.171549797058105469e+00,3.089198112487792969e+00,3.011014938354492188e+00,2.936691284179687500e+00,2.865948677062988281e+00,2.798534154891967773e+00,2.734217882156372070e+00,2.672791957855224609e+00,2.614065170288085938e+00,2.557863235473632812e+00,2.504027605056762695e+00,2.452411174774169922e+00,2.402879714965820312e+00,2.355309724807739258e+00,2.309586286544799805e+00,2.265604257583618164e+00,2.223266363143920898e+00,2.182481765747070312e+00,2.143166542053222656e+00,2.105242490768432617e+00,2.068637371063232422e+00,2.033283472061157227e+00,1.999117732048034668e+00,1.966081261634826660e+00,1.934118866920471191e+00,1.903178811073303223e+00,1.873213291168212891e+00,1.844176769256591797e+00
5.000000000000000000e+00,5.000000000000000000e+00,5.000000000000000000e+00,5.000000000000000000e+00,5.000000000000000000e+00,5.000000000000000000e+00,5.000000000000000000e+00,5.000000000000000000e+00,5.000000000000000000e+00,5.000000000000000000e+00,5.000000000000000000e+00,5.000000000000000000e+00,5.000000000000000000e+00,5.000000000000000000e+00,5.000000000000000000e+00,5.000000000000000000e+00,5.000000000000000000e+00,5.000000000000000000e+00,5.000000000000000000e+00,5.000000000000000000e+00,5.000000000000000000e+00,5.000000000000000000e+00,4.972003936767578125e+00,4.876071929931640625e+00,4.890244007110595703e+00,4.958478450775146484e+00,5.000000000000000000e+00,5.000000000000000000e+00,5.000000000000000000e+00,5.000000000000000000e+00,5.000000000000000000e+00,5.000000000000000000e+00,5.000000000000000000e+00,5.000000000000000000e+00,5.000000000000000000e+00,5.000000000000000000e+00,5.000000000000000000e+00,5.000000000000000000e+00,5.000000000000000000e+00,4.853709697723388672e+00,4.663454055786132812e+00,4.487551689147949219e+00,4.324436664581298828e+00,4.172763347625732422e+00,4.031369209289550781e+00,3.899243354797363281e+00,3.775503396987915039e+00,3.659375667572021484e+00,3.550178050994873047e+00,3.447308778762817383e+00,3.350233316421508789e+00,3.258475065231323242e+00,3.171609163284301758e+00,3.089254379272460938e+00,3.011068344116210938e+00,2.936742305755615234e+00,2.865997076034545898e+00,2.798580169677734375e+00,2.734261989593505859e+00,2.672834157943725586e+00,2.614105463027954102e+00,2.557901859283447266e+00,2.504064559936523438e+00,2.452446699142456055e+00,2.402913808822631836e+00,2.355342388153076172e+00,2.309617757797241211e+00,2.265634536743164062e+00,2.223295450210571289e+00,2.182509899139404297e+00,2.143193483352661133e+00,2.105268716812133789e+00,2.068662643432617188e+00,2.033307790756225586e+00,1.999141335487365723e+00,1.966104030609130859e+00,1.934140920639038086e+00,1.903200268745422363e+00,1.873234033584594727e+00,1.844196796417236328e+00
5.000000000000000000e+00,5.000000000000000000e+00,5.000000000000000000e+00,5.000000000000000000e+00,5.000000000000000000e+00,5.000000000000000000e+00,5.000000000000000000e+00,5.000000000000000000e+00,5.000000000000000000e+00,5.000000000000000000e+00,5.000000000000000000e+00,5.000000000000000000e+00,5.000000000000000000e+00,5.000000000000000000e+00,5.000000000000000000e+00,5.000000000000000000e+00,5.000000000000000000e+00,5.000000000000000000e+00,5.000000000000000000e+00,5.000000000000000000e+00,5.000000000000000000e+00,5.000000000000000000e+00,4.902437686920166016e+00,4.860904693603515625e+00,4.879678726196289062e+00,4.944647312164306641e+00,5.000000000000000000e+00,5.000000000000000000e+00,5.000000000000000000e+00,5.000000000000000000e+00,5.000000000000000000e+00,5.000000000000000000e+00,5.000000000000000000e+00,5.000000000000000000e+00,5.000000000000000000e+00,5.000000000000000000e+00,5.000000000000000000e+00,5.000000000000000000e+00,5.000000000000000000e+00,4.853848457336425781e+00,4.663582324981689453e+00,4.487670421600341797e+00,4.324546813964843750e+00,4.172866344451904297e+00,4.031465053558349609e+00,3.899333000183105469e+00,3.775587558746337891e+00,3.659454107284545898e+00,3.550252437591552734e+00,3.447378873825073242e+00,3.350299358367919922e+00,3.258537530899047852e+00,3.171668529510498047e+00,3.089310884475708008e+00,3.011121749877929688e+00,2.936793088912963867e+00,2.866045475006103516e+00,2.798626422882080078e+00,2.734306097030639648e+00,2.672876119613647461e+00,2.614145517349243164e+00,2.557940483093261719e+00,2.504101514816284180e+00,2.452481985092163086e+00,2.402947902679443359e+00,2.355375051498413086e+00,2.309649229049682617e+00,2.265664815902709961e+00,2.223324775695800781e+00,2.182538032531738281e+00,2.143220663070678711e+00,2.105294704437255859e+00,2.068687915802001953e+00,2.033332347869873047e+00,1.999164938926696777e+00,1.966126918792724609e+00,1.934162735939025879e+00,1.903221607208251953e+00,1.873254656791687012e+00,1.844216942787170410e+00
5.000000000000000000e+00,5.000000000000000000e+00,5.000000000000000000e+00,5.000000000000000000e+00,5.000000000000000000e+00,5.000000000000000000e+00,5.000000000000000000e+00,5.000000000000000000e+00,5.000000000000000000e+00,5.000000000000000000e+00,5.000000000000000000e+00,5.000000000000000000e+00,5.000000000000000000e+00,5.000000000000000000e+00,5.000000000000000000e+00,5.000000000000000000e+00,5.000000000000000000e+00,5.000000000000000000e+00,5.000000000000000000e+00,5.000000000000000000e+00,5.000000000000000000e+00,5.000000000000000000e+00,4.889171600341796875e+00,4.886419773101806641e+00,4.901847362518310547e+00,4.949967384338378906e+00,5.000000000000000000e+00,5.000000000000000000e+00,5.000000000000000000e+00,5.000000000000000000e+00,5.000000000000000000e+00,5.000000000000000000e+00,5.000000000000000000e+00,5.000000000000000000e+00,5.000000000000000000e+00,5.000000000000000000e+00,5.000000000000000000e+00,5.000000000000000000e+00,5.000000000000000000e+00,4.853987216949462891e+00,4.663711071014404297e+00,4.487789154052734375e+00,4.324656963348388672e+00,4.172968864440917969e+00,4.031560897827148438e+00,3.899422883987426758e+00,3.775671720504760742e+00,3.659533262252807617e+00,3.550326824188232422e+00,3.447448968887329102e+00,3.350365400314331055e+00,3.258600234985351562e+00,3.171727895736694336e+00,3.089366912841796875e+00,3.011175155639648438e+00,2.936844110488891602e+00,2.866094112396240234e+00,2.798672437667846680e+00,2.734350204467773438e+00,2.672918319702148438e+00,2.614185810089111328e+00,2.557979106903076172e+00,2.504138469696044922e+00,2.452517509460449219e+00,2.402981996536254883e+00,2.355407714843750000e+00,2.309680461883544922e+00,2.265695095062255859e+00,2.223353862762451172e+00,2.182565927505493164e+00,2.143247604370117188e+00,2.105320930480957031e+00,2.068712949752807617e+00,2.033356666564941406e+00,1.999188423156738281e+00,1.966149687767028809e+00,1.934184908866882324e+00,1.903242945671081543e+00,1.873275399208068848e+00,1.844236969947814941e+00
5.000000000000000000e+00,5.000000000000000000e+00,5.000000000000000000e+00,5.000000000000000000e+00,5.000000000000000000e+00,5.000000000000000000e+00,5.000000000000000000e+00,5.000000000000000000e+00,5.000000000000000000e+00,5.000000000000000000e+00,5.000000000000000000e+00,5.000000000000000000e+00,5.000000000000000000e+00,5.000000000000000000e+00,5.000000000000000000e+00,5.000000000000000000e+00,5.000000000000000000e+00,5.000000000000000000e+00,5.000000000000000000e+00,5.000000000000000000e+00,5.000000000000000000e+00,4.953442096710205078e+00,4.859705448150634766e+00,4.874474048614501953e+00,4.887684822082519531e+00,4.901719093322753906e+00,5.000000000000000000e+00,5.000000000000000000e+00,5.000000000000000000e+00,5.000000000000000000e+00,5.000000000000000000e+00,5.000000000000000000e+00,5.000000000000000000e+00,5.000000000000000000e+00,5.000000000000000000e+00,5.000000000000000000e+00,5.000000000000000000e+00,5.000000000000000000e+00,5.000000000000000000e+00,4.854126453399658203e+00,4.663838863372802734e+00,4.487907886505126953e+00,4.324767112731933594e+00,4.173071384429931641e+00,4.031656742095947266e+00,3.899512529373168945e+00,3.775755882263183594e+00,3.659612178802490234e+00,3.550401210784912109e+00,3.447519063949584961e+00,3.350431680679321289e+00,3.258662939071655273e+00,3.171787261962890625e+00,3.089423179626464844e+00,3.011228799819946289e+00,2.936894893646240234e+00,2.866142272949218750e+00,2.798718690872192383e+00,2.734394311904907227e+00,2.672960281372070312e+00,2.614226102828979492e+00,2.558017730712890625e+00,2.504175424575805664e+00,2.452553033828735352e+00,2.403015851974487305e+00,2.355440616607666016e+00,2.309711933135986328e+00,2.265725374221801758e+00,2.223382949829101562e+00,2.182594060897827148e+00,2.143274784088134766e+00,2.105347156524658203e+00,2.068738222122192383e+00,2.033380985260009766e+00,1.999212026596069336e+00,1.966172337532043457e+00,1.934206962585449219e+00,1.903264284133911133e+00,1.873296141624450684e+00,1.844257116317749023e+00
5.000000000000000000e+00,5.000000000000000000e+00,5.000000000000000000e+00,5.000000000000000000e+00,5.000000000000000000e+00,5.000000000000000000e+00,5.000000000000000000e+00,5.000000000000000000e+00,5.000000000000000000e+00,5.000000000000000000e+00,5.000000000000000000e+00,5.000000000000000000e+00,5.000000000000000000e+00,5.000000000000000000e+00,5.000000000000000000e+00,5.000000000000000000e+00,5.000000000000000000e+00,5.000000000000000000e+00,5.000000000000000000e+00,5.000000000000000000e+00,5.000000000000000000e+00,4.925714015960693359e+00,4.854451656341552734e+00,4.859156608581542969e+00,4.864712715148925781e+00,4.880017757415771484e+00,4.911708354949951172e+00,4.969531536102294922e+00,5.000000000000000000e+00,5.000000000000000000e+00,5.000000000000000000e+00,5.000000000000000000e+00,5.000000000000000000e+00,5.000000000000000000e+00,5.000000000000000000e+00,5.000000000000000000e+00,5.000000000000000000e+00,5.000000000000000000e+00,5.000000000000000000e+00,4.854265213012695312e+00,4.663967132568359375e+00,4.488026618957519531e+00,4.324877738952636719e+00,4.173174381256103516e+00,4.031752586364746094e+00,3.899602413177490234e+00,3.775839567184448242e+00,3.659691333770751953e+00,3.550475358963012695e+00,3.447588920593261719e+00,3.350497722625732422e+00,3.258725643157958984e+00,3.171846151351928711e+00,3.089479446411132812e+00,3.011282205581665039e+00,2.936945915222167969e+00,2.866190671920776367e+00,2.798764944076538086e+00,2.734438419342041016e+00,2.673002481460571289e+00,2.614266633987426758e+00,2.558056354522705078e+00,2.504212379455566406e+00,2.452588558197021484e+00,2.403049945831298828e+00,2.355473041534423828e+00,2.309743404388427734e+00,2.265755653381347656e+00,2.223412036895751953e+00,2.182622194290161133e+00,2.143301963806152344e+00,2.105373382568359375e+00,2.068763494491577148e+00,2.033405542373657227e+00,1.999235630035400391e+00,1.966195106506347656e+00,1.934229016304016113e+00,1.903285741806030273e+00,1.873316884040832520e+00,1.844277143478393555e+00
5.000000000000000000e+00,5.000000000000000000e+00,5.000000000000000000e+00,5.000000000000000000e+00,5.000000000000000000e+00,5.000000000000000000e+00,5.000000000000000000e+00,5.000000000000000000e+00,5.000000000000000000e+00,5.000000000000000000e+00,5.000000000000000000e+00,5.000000000000000000e+00,5.000000000000000000e+00,5.000000000000000000e+00,5.000000000000000000e+00,5.000000000000000000e+00,5.000000000000000000e+00,5.000000000000000000e+00,5.000000000000000000e+00,5.000000000000000000e+00,5.000000000000000000e+00,4.877903938293457031e+00,4.856420040130615234e+00,4.852483272552490234e+00,4.849002361297607422e+00,4.864035606384277344e+00,5.000000000000000000e+00,5.000000000000000000e+00,5.000000000000000000e+00,5.000000000000000000e+00,5.000000000000000000e+00,5.000000000000000000e+00,5.000000000000000000e+00,5.000000000000000000e+00,5.000000000000000000e+00,5.000000000000000000e+00,5.000000000000000000e+00,5.000000000000000000e+00,5.000000000000000000e+00,4.854403972625732422e+00,4.664095401763916016e+00,4.488145351409912109e+00,4.324987888336181641e+00,4.173276901245117188e+00,4.031848430633544922e+00,3.899692058563232422e+00,3.775923490524291992e+00,3.659770250320434570e+00,3.550549745559692383e+00,3.447659015655517578e+00,3.350564002990722656e+00,3.258788347244262695e+00,3.171905517578125000e+00,3.089535713195800781e+00,3.011335849761962891e+00,2.936996459960937500e+00,2.866239309310913086e+00,2.798811197280883789e+00,2.734482526779174805e+00,2.673044681549072266e+00,2.614306926727294922e+00,2.558094978332519531e+00,2.504249334335327148e+00,2.452624082565307617e+00,2.403084039688110352e+00,2.355505943298339844e+00,2.309775114059448242e+00,2.265786170959472656e+00,2.223441362380981445e+00,2.182650327682495117e+00,2.143328905105590820e+00,2.105399370193481445e+00,2.068788766860961914e+00,2.033429861068725586e+00,1.999258995056152344e+00,1.966217875480651855e+00,1.934251070022583008e+00,1.903307080268859863e+00,1.873337507247924805e+00,1.844297170639038086e+00
5.000000000000000000e+00,5.000000000000000000e+00,5.000000000000000000e+00,5.000000000000000000e+00,5.000000000000000000e+00,5.000000000000000000e+00,5.000000000000000000e+00,5.000000000000000000e+00,5.000000000000000000e+00,5.000000000000000000e+00,5.000000000000000000e+00,5.000000000000000000e+00,5.000000000000000000e+00,5.000000000000000000e+00,5.000000000000000000e+00,5.000000000000000000e+00,5.000000000000000000e+00,5.000000000000000000e+00,5.000000000000000000e+00,5.000000000000000000e+00,5.000000000000000000e+00,5.000000000000000000e+00,5.000000000000000000e+00,4.844047546386718750e+00,4.839044570922851562e+00,4.842773437500000000e+00,5.000000000000000000e+00,5.000000000000000000e+00,5.000000000000000000e+00,5.000000000000000000e+00,5.000000000000000000e+00,5.000000000000000000e+00,5.000000000000000000e+00,5.000000000000000000e+00,5.000000000000000000e+00,5.000000000000000000e+00,5.000000000000000000e+00,5.000000000000000000e+00,5.000000000000000000e+00,4.854543209075927734e+00,4.664223670959472656e+00,4.488264560699462891e+00,4.325098037719726562e+00,4.173379898071289062e+00,4.031944274902343750e+00,3.899781227111816406e+00,3.776007652282714844e+00,3.659849405288696289e+00,3.550623893737792969e+00,3.447729349136352539e+00,3.350630283355712891e+00,3.258850812911987305e+00,3.171965122222900391e+00,3.089592218399047852e+00,3.011389255523681641e+00,2.937047481536865234e+00,2.866287708282470703e+00,2.798857450485229492e+00,2.734526634216308594e+00,2.673086881637573242e+00,2.614347219467163086e+00,2.558133363723754883e+00,2.504286289215087891e+00,2.452659368515014648e+00,2.403118133544921875e+00,2.355538606643676758e+00,2.309806585311889648e+00,2.265816450119018555e+00,2.223470449447631836e+00,2.182678461074829102e+00,2.143356084823608398e+00,2.105425357818603516e+00,2.068814039230346680e+00,2.033454179763793945e+00,1.999282598495483398e+00,1.966240763664245605e+00,1.934273123741149902e+00,1.903328418731689453e+00,1.873358249664306641e+00,1.844317317008972168e+00
5.000000000000000000e+00,5.000000000000000000e+00,5.000000000000000000e+00,5.000000000000000000e+00,5.000000000000000000e+00,5.000000000000000000e+00,5.000000000000000000e+00,5.000000000000000000e+00,5.000000000000000000e+00,5.000000000000000000e+00,5.000000000000000000e+00,5.000000000000000000e+00,5.000000000000000000e+00,5.000000000000000000e+00,5.000000000000000000e+00,5.000000000000000000e+00,5.000000000000000000e+00,5.000000000000000000e+00,5.000000000000000000e+00,5.000000000000000000e+00,5.000000000000000000e+00,5.000000000000000000e+00,5.000000000000000000e+00,4.840305328369140625e+00,4.844955444335937500e+00,4.837672710418701172e+00,5.000000000000000000e+00,5.000000000000000000e+00,5.000000000000000000e+00,5.000000000000000000e+00,5.000000000000000000e+00,5.000000000000000000e+00,5.000000000000000000e+00,5.000000000000000000e+00,5.000000000000000000e+00,5.000000000000000000e+00,5.000000000000000000e+00,5.000000000000000000e+00,5.000000000000000000e+00,4.854681491851806641e+00,4.664351940155029297e+00,4.488383293151855469e+00,4.325208663940429688e+00,4.173482418060302734e+00,4.032040119171142578e+00,3.899871110916137695e+00,3.776091814041137695e+00,3.659928321838378906e+00,3.550698280334472656e+00,3.447799444198608398e+00,3.350696563720703125e+00,3.258913278579711914e+00,3.172024488449096680e+00,3.089648485183715820e+00,3.011442422866821289e+00,2.937098264694213867e+00,2.866336107254028320e+00,2.798903703689575195e+00,2.734570741653442383e+00,2.673129081726074219e+00,2.614387512207031250e+00,2.558171987533569336e+00,2.504323482513427734e+00,2.452694892883300781e+00,2.403151988983154297e+00,2.355571269989013672e+00,2.309838056564331055e+00,2.265846490859985352e+00,2.223499536514282227e+00,2.182706594467163086e+00,2.143383026123046875e+00,2.105451583862304688e+00,2.068839311599731445e+00,2.033478736877441406e+00,1.999306201934814453e+00,1.966263532638549805e+00,1.934295177459716797e+00,1.903349876403808594e+00,1.873378992080688477e+00,1.844337344169616699e+00
5.000000000000000000e+00,5.000000000000000000e+00,5.000000000000000000e+00,5.000000000000000000e+00,5.000000000000000000e+00,5.000000000000000000e+00,5.000000000000000000e+00,5.000000000000000000e+00,5.000000000000000000e+00,5.000000000000000000e+00,5.000000000000000000e+00,5.000000000000000000e+00,5.000000000000000000e+00,5.000000000000000000e+00,5.000000000000000000e+00,5.000000000000000000e+00,5.000000000000000000e+00,5.000000000000000000e+00,5.000000000000000000e+00,5.000000000000000000e+00,5.000000000000000000e+00,5.000000000000000000e+00,5.000000000000000000e+00,4.877395629882812500e+00,5.000000000000000000e+00,4.935363292694091797e+00,5.000000000000000000e+00,5.000000000000000000e+00,5.000000000000000000e+00,5.000000000000000000e+00,5.000000000000000000e+00,5.000000000000000000e+00,5.000000000000000000e+00,5.000000000000000000e+00,5.000000000000000000e+00,5.000000000000000000e+00,5.000000000000000000e+00,5.000000000000000000e+00,5.000000000000000000e+00,4.854819297790527344e+00,4.664480209350585938e+00,4.488502025604248047e+00,4.325318813323974609e+00,4.173584938049316406e+00,4.032135963439941406e+00,3.899960756301879883e+00,3.776175975799560547e+00,3.660007476806640625e+00,3.550772666931152344e+00,3.447869539260864258e+00,3.350762844085693359e+00,3.258975982666015625e+00,3.172083854675292969e+00,3.089704751968383789e+00,3.011496067047119141e+00,2.937149286270141602e+00,2.866384744644165039e+00,2.798949718475341797e+00,2.734614849090576172e+00,2.673171043395996094e+00,2.614427566528320312e+00,2.558210611343383789e+00,2.504360437393188477e+00,2.452730417251586914e+00,2.403186082839965820e+00,2.355604171752929688e+00,2.309869527816772461e+00,2.265876770019531250e+00,2.223528861999511719e+00,2.182734727859497070e+00,2.143410205841064453e+00,2.105477809906005859e+00,2.068864583969116211e+00,2.033502817153930664e+00,1.999329805374145508e+00,1.966286301612854004e+00,1.934317350387573242e+00,1.903371214866638184e+00,1.873399615287780762e+00,1.844357371330261230e+00
5.000000000000000000e+00,5.000000000000000000e+00,5.000000000000000000e+00,5.000000000000000000e+00,5.000000000000000000e+00,5.000000000000000000e+00,5.000000000000000000e+00,5.000000000000000000e+00,5.000000000000000000e+00,5.000000000000000000e+00,5.000000000000000000e+00,5.000000000000000000e+00,5.000000000000000000e+00,5.000000000000000000e+00,5.000000000000000000e+00,5.000000000000000000e+00,5.000000000000000000e+00,5.000000000000000000e+00,5.000000000000000000e+00,5.000000000000000000e+00,5.000000000000000000e+00,5.000000000000000000e+00,5.000000000000000000e+00,4.901010036468505859e+00,5.000000000000000000e+00,5.000000000000000000e+00,5.000000000000000000e+00,5.000000000000000000e+00,5.000000000000000000e+00,5.000000000000000000e+00,5.000000000000000000e+00,5.000000000000000000e+00,5.000000000000000000e+00,5.000000000000000000e+00,5.000000000000000000e+00,5.000000000000000000e+00,5.000000000000000000e+00,5.000000000000000000e+00,5.000000000000000000e+00,4.854957103729248047e+00,4.664607524871826172e+00,4.488620758056640625e+00,4.325428962707519531e+00,4.173687934875488281e+00,4.032231807708740234e+00,3.900050640106201172e+00,3.776260137557983398e+00,3.660086154937744141e+00,3.550847053527832031e+00,3.447939634323120117e+00,3.350828647613525391e+00,3.259038686752319336e+00,3.172143220901489258e+00,3.089760780334472656e+00,3.011549472808837891e+00,2.937200069427490234e+00,2.866433143615722656e+00,2.798995971679687500e+00,2.734658956527709961e+00,2.673213243484497070e+00,2.614468097686767578e+00,2.558249235153198242e+00,2.504397392272949219e+00,2.452765703201293945e+00,2.403220176696777344e+00,2.355636835098266602e+00,2.309900760650634766e+00,2.265907049179077148e+00,2.223557949066162109e+00,2.182762622833251953e+00,2.143437385559082031e+00,2.105504035949707031e+00,2.068889617919921875e+00,2.033527374267578125e+00,1.999353289604187012e+00,1.966309189796447754e+00,1.934339404106140137e+00,1.903392553329467773e+00,1.873420357704162598e+00,1.844377279281616211e+00
5.000000000000000000e+00,5.000000000000000000e+00,5.000000000000000000e+00,5.000000000000000000e+00,5.000000000000000000e+00,5.000000000000000000e+00,5.000000000000000000e+00,5.000000000000000000e+00,5.000000000000000000e+00,5.000000000000000000e+00,5.000000000000000000e+00,5.000000000000000000e+00,5.000000000000000000e+00,5.000000000000000000e+00,5.000000000000000000e+00,5.000000000000000000e+00,5.000000000000000000e+00,5.000000000000000000e+00,5.000000000000000000e+00,5.000000000000000000e+00,5.000000000000000000e+00,5.000000000000000000e+00,5.000000000000000000e+00,4.922280788421630859e+00,5.000000000000000000e+00,5.000000000000000000e+00,5.000000000000000000e+00,5.000000000000000000e+00,5.000000000000000000e+00,5.000000000000000000e+00,5.000000000000000000e+00,5.000000000000000000e+00,5.000000000000000000e+00,5.000000000000000000e+00,5.000000000000000000e+00,5.000000000000000000e+00,5.000000000000000000e+00,5.000000000000000000e+00,5.000000000000000000e+00,4.855095386505126953e+00,4.664734840393066406e+00,4.488738536834716797e+00,4.325539588928222656e+00,4.173790454864501953e+00,4.032327651977539062e+00,3.900140285491943359e+00,3.776344299316406250e+00,3.660165071487426758e+00,3.550921440124511719e+00,3.448009729385375977e+00,3.350894927978515625e+00,3.259101390838623047e+00,3.172202587127685547e+00,3.089817047119140625e+00,3.011603116989135742e+00,2.937251091003417969e+00,2.866481304168701172e+00,2.799041986465454102e+00,2.734703063964843750e+00,2.673255205154418945e+00,2.614508390426635742e+00,2.558287858963012695e+00,2.504434347152709961e+00,2.452801227569580078e+00,2.403254270553588867e+00,2.355669498443603516e+00,2.309932231903076172e+00,2.265937328338623047e+00,2.223587036132812500e+00,2.182790756225585938e+00,2.143464326858520508e+00,2.105530023574829102e+00,2.068914890289306641e+00,2.033551692962646484e+00,1.999376893043518066e+00,1.966331958770751953e+00,1.934361457824707031e+00,1.903414011001586914e+00,1.873441100120544434e+00,1.844397306442260742e+00
5.000000000000000000e+00,5.000000000000000000e+00,5.000000000000000000e+00,5.000000000000000000e+00,5.000000000000000000e+00,5.000000000000000000e+00,5.000000000000000000e+00,5.000000000000000000e+00,5.000000000000000000e+00,5.000000000000000000e+00,5.000000000000000000e+00,5.000000000000000000e+00,5.000000000000000000e+00,5.000000000000000000e+00,5.000000000000000000e+00,5.000000000000000000e+00,5.000000000000000000e+00,5.000000000000000000e+00,5.000000000000000000e+00,5.000000000000000000e+00,5.000000000000000000e+00,5.000000000000000000e+00,5.000000000000000000e+00,4.964644432067871094e+00,5.000000000000000000e+00,5.000000000000000000e+00,5.000000000000000000e+00,5.000000000000000000e+00,5.000000000000000000e+00,5.000000000000000000e+00,5.000000000000000000e+00,5.000000000000000000e+00,5.000000000000000000e+00,5.000000000000000000e+00,5.000000000000000000e+00,5.000000000000000000e+00,5.000000000000000000e+00,5.000000000000000000e+00,5.000000000000000000e+00,4.855233192443847656e+00,4.664862155914306641e+00,4.488856792449951172e+00,4.325649261474609375e+00,4.173892974853515625e+00,4.032423973083496094e+00,3.900230169296264648e+00,3.776427984237670898e+00,3.660244226455688477e+00,3.550995826721191406e+00,3.448079586029052734e+00,3.350961208343505859e+00,3.259163856506347656e+00,3.172261953353881836e+00,3.089873552322387695e+00,3.011656522750854492e+00,2.937301874160766602e+00,2.866529941558837891e+00,2.799088239669799805e+00,2.734747171401977539e+00,2.673297405242919922e+00,2.614548683166503906e+00,2.558326482772827148e+00,2.504471302032470703e+00,2.452836751937866211e+00,2.403288364410400391e+00,2.355702161788940430e+00,2.309963703155517578e+00,2.265967607498168945e+00,2.223616361618041992e+00,2.182818889617919922e+00,2.143491506576538086e+00,2.105556249618530273e+00,2.068940162658691406e+00,2.033576011657714844e+00,1.999400496482849121e+00,1.966354846954345703e+00,1.934383511543273926e+00,1.903435349464416504e+00,1.873461604118347168e+00,1.844417452812194824e+00
5.000000000000000000e+00,5.000000000000000000e+00,5.000000000000000000e+00,5.000000000000000000e+00,5.000000000000000000e+00,5.000000000000000000e+00,5.000000000000000000e+00,5.000000000000000000e+00,5.000000000000000000e+00,5.000000000000000000e+00,5.000000000000000000e+00,5.000000000000000000e+00,5.000000000000000000e+00,5.000000000000000000e+00,5.000000000000000000e+00,5.000000000000000000e+00,5.000000000000000000e+00,5.000000000000000000e+00,5.000000000000000000e+00,5.000000000000000000e+00,5.000000000000000000e+00,5.000000000000000000e+00,5.000000000000000000e+00,5.000000000000000000e+00,5.000000000000000000e+00,5.000000000000000000e+00,5.000000000000000000e+00,5.000000000000000000e+00,5.000000000000000000e+00,5.000000000000000000e+00,5.000000000000000000e+00,5.000000000000000000e+00,5.000000000000000000e+00,5.000000000000000000e+00,5.000000000000000000e+00,5.000000000000000000e+00,5.000000000000000000e+00,5.000000000000000000e+00,5.000000000000000000e+00,4.855370998382568359e+00,4.664989471435546875e+00,4.488974571228027344e+00,4.325758934020996094e+00,4.173995971679687500e+00,4.032519340515136719e+00,3.900319814682006836e+00,3.776512145996093750e+00,3.660323143005371094e+00,3.551070213317871094e+00,3.448149681091308594e+00,3.351027488708496094e+00,3.259226560592651367e+00,3.172321081161499023e+00,3.089929819107055664e+00,3.011710166931152344e+00,2.937352657318115234e+00,2.866578340530395508e+00,2.799134492874145508e+00,2.734791278839111328e+00,2.673339605331420898e+00,2.614588975906372070e+00,2.558365106582641602e+00,2.504508256912231445e+00,2.452872276306152344e+00,2.403322458267211914e+00,2.355734825134277344e+00,2.309995174407958984e+00,2.265997886657714844e+00,2.223645448684692383e+00,2.182847023010253906e+00,2.143518686294555664e+00,2.105582237243652344e+00,2.068965435028076172e+00,2.033600568771362305e+00,1.999424099922180176e+00,1.966377615928649902e+00,1.934405684471130371e+00,1.903456687927246094e+00,1.873482346534729004e+00,1.844437479972839355e+00
4.874976158142089844e+00,4.873764991760253906e+00,4.872554779052734375e+00,4.871345520019531250e+00,4.870136737823486328e+00,4.868927955627441406e+00,4.867720127105712891e+00,4.866513252258300781e+00,4.865306854248046875e+00,4.864100456237792969e+00,4.862895011901855469e+00,4.861690998077392578e+00,4.860486507415771484e+00,4.859282970428466797e+00,4.858079910278320312e+00,4.856877803802490234e+00,4.855675697326660156e+00,4.854474544525146484e+00,4.853273868560791016e+00,4.852074146270751953e+00,4.850874900817871094e+00,4.849676132202148438e+00,4.848477840423583984e+00,4.847280502319335938e+00,4.846083164215087891e+00,4.844886779785156250e+00,4.843690872192382812e+00,4.842495918273925781e+00,4.841300964355468750e+00,4.840106964111328125e+00,4.838913440704345703e+00,4.837720394134521484e+00,4.836528301239013672e+00,4.835336208343505859e+00,4.834145069122314453e+00,4.832954883575439453e+00,4.831764698028564453e+00,4.830575466156005859e+00,4.829386234283447266e+00,4.828198432922363281e+00,4.665116786956787109e+00,4.489092350006103516e+00,4.325868129730224609e+00,4.174097537994384766e+00,4.032615184783935547e+00,3.900409221649169922e+00,3.776596307754516602e+00,3.660402297973632812e+00,3.551144599914550781e+00,3.448220014572143555e+00,3.351093769073486328e+00,3.259289264678955078e+00,3.172380447387695312e+00,3.089986085891723633e+00,3.011763572692871094e+00,2.937403440475463867e+00,2.866626977920532227e+00,2.799180746078491211e+00,2.734835147857666016e+00,2.673381805419921875e+00,2.614629268646240234e+00,2.558403491973876953e+00,2.504545211791992188e+00,2.452907800674438477e+00,2.403356552124023438e+00,2.355767726898193359e+00,2.310026645660400391e+00,2.266028404235839844e+00,2.223674535751342773e+00,2.182875156402587891e+00,2.143545627593994141e+00,2.105608463287353516e+00,2.068990707397460938e+00,2.033624887466430664e+00,1.999447703361511230e+00,1.966400384902954102e+00,1.934427738189697266e+00,1.903477907180786133e+00,1.873502969741821289e+00,1.844457626342773438e+00
3.777779579162597656e+00,3.777052402496337891e+00,3.776325702667236328e+00,3.775599002838134766e+00,3.774872541427612305e+00,3.774146556854248047e+00,3.773420810699462891e+00,3.772695302963256836e+00,3.771970510482788086e+00,3.771245479583740234e+00,3.770520925521850586e+00,3.769796609878540039e+00,3.769072532653808594e+00,3.768348693847656250e+00,3.767625093460083008e+00,3.766901969909667969e+00,3.766179323196411133e+00,3.765456676483154297e+00,3.764734268188476562e+00,3.764011859893798828e+00,3.763290166854858398e+00,3.762568473815917969e+00,3.761847257614135742e+00,3.761126041412353516e+00,3.760405778884887695e+00,3.759685277938842773e+00,3.758965015411376953e+00,3.758245229721069336e+00,3.757525444030761719e+00,3.756806135177612305e+00,3.756087064743041992e+00,3.755367994308471680e+00,3.754649877548217773e+00,3.753931760787963867e+00,3.753213644027709961e+00,3.752496004104614258e+00,3.751778364181518555e+00,3.751061201095581055e+00,3.750344276428222656e+00,3.749627590179443359e+00,3.748911619186401367e+00,3.748195648193359375e+00,3.747479677200317383e+00,3.746764183044433594e+00,3.746048927307128906e+00,3.745333909988403320e+00,3.744619131088256836e+00,3.660481452941894531e+00,3.551218748092651367e+00,3.448290109634399414e+00,3.351160049438476562e+00,3.259351730346679688e+00,3.172439813613891602e+00,3.090042591094970703e+00,3.011817216873168945e+00,2.937454462051391602e+00,2.866675376892089844e+00,2.799226999282836914e+00,2.734879255294799805e+00,2.673424005508422852e+00,2.614669799804687500e+00,2.558442115783691406e+00,2.504582166671752930e+00,2.452943325042724609e+00,2.403390407562255859e+00,2.355800390243530273e+00,2.310058116912841797e+00,2.266058444976806641e+00,2.223703622817993164e+00,2.182903289794921875e+00,2.143572807312011719e+00,2.105634689331054688e+00,2.069015979766845703e+00,2.033649206161499023e+00,1.999471306800842285e+00,1.966423273086547852e+00,1.934449791908264160e+00,1.903499245643615723e+00,1.873523712158203125e+00,1.844477653503417969e+00
3.083732843399047852e+00,3.083248615264892578e+00,3.082764148712158203e+00,3.082279920578002930e+00,3.081795692443847656e+00,3.081311941146850586e+00,3.080828189849853516e+00,3.080344438552856445e+00,3.079860925674438477e+00,3.079377889633178711e+00,3.078894853591918945e+00,3.078411817550659180e+00,3.077928781509399414e+00,3.077446222305297852e+00,3.076963663101196289e+00,3.076481103897094727e+00,3.075998783111572266e+00,3.075516939163208008e+00,3.075035095214843750e+00,3.074553251266479492e+00,3.074071645736694336e+00,3.073590040206909180e+00,3.073108673095703125e+00,3.072627544403076172e+00,3.072146415710449219e+00,3.071665763854980469e+00,3.071185111999511719e+00,3.070704460144042969e+00,3.070224046707153320e+00,3.069743633270263672e+00,3.069263458251953125e+00,3.068783521652221680e+00,3.068303585052490234e+00,3.067824125289916992e+00,3.067344665527343750e+00,3.066865205764770508e+00,3.066385984420776367e+00,3.065907001495361328e+00,3.065428018569946289e+00,3.064949274063110352e+00,3.064470529556274414e+00,3.063992261886596680e+00,3.063513994216918945e+00,3.063035726547241211e+00,3.062557697296142578e+00,3.062079906463623047e+00,3.061602115631103516e+00,3.061124324798583984e+00,3.060647010803222656e+00,3.060169696807861328e+00,3.059692859649658203e+00,3.059215784072875977e+00,3.058738946914672852e+00,3.058262109756469727e+00,3.011870384216308594e+00,2.937505245208740234e+00,2.866723775863647461e+00,2.799273014068603516e+00,2.734923601150512695e+00,2.673466205596923828e+00,2.614709854125976562e+00,2.558480739593505859e+00,2.504619359970092773e+00,2.452978849411010742e+00,2.403424501419067383e+00,2.355833053588867188e+00,2.310089826583862305e+00,2.266088724136352539e+00,2.223732948303222656e+00,2.182931184768676758e+00,2.143599748611450195e+00,2.105660676956176758e+00,2.069041252136230469e+00,2.033673524856567383e+00,1.999494910240173340e+00,1.966446042060852051e+00,1.934471607208251953e+00,1.903520703315734863e+00,1.873544454574584961e+00,1.844497680664062500e+00
2.605124235153198242e+00,2.604778289794921875e+00,2.604432821273803711e+00,2.604087114334106445e+00,2.603741645812988281e+00,2.603396177291870117e+00,2.603050947189331055e+00,2.602705717086791992e+00,2.602360486984252930e+00,2.602015256881713867e+00,2.601670503616333008e+00,2.601325750350952148e+00,2.600980758666992188e+00,2.600636243820190430e+00,2.600291490554809570e+00,2.599946975708007812e+00,2.599602460861206055e+00,2.599258184432983398e+00,2.598914146423339844e+00,2.598569869995117188e+00,2.598225831985473633e+00,2.597881793975830078e+00,2.597537994384765625e+00,2.597194194793701172e+00,2.596850395202636719e+00,2.596506834030151367e+00,2.596163511276245117e+00,2.595819950103759766e+00,2.595476627349853516e+00,2.595133543014526367e+00,2.594790220260620117e+00,2.594447135925292969e+00,2.594104290008544922e+00,2.593761205673217773e+00,2.593418598175048828e+00,2.593075990676879883e+00,2.592733383178710938e+00,2.592390775680541992e+00,2.592048406600952148e+00,2.591706037521362305e+00,2.591363668441772461e+00,2.591021537780761719e+00,2.590679645538330078e+00,2.590337753295898438e+00,2.589995861053466797e+00,2.589653968811035156e+00,2.589312314987182617e+00,2.588970661163330078e+00,2.588629007339477539e+00,2.588287591934204102e+00,2.587946176528930664e+00,2.587605237960815430e+00,2.587264060974121094e+00,2.586922883987426758e+00,2.586581945419311523e+00,2.586241006851196289e+00,2.585900306701660156e+00,2.585559606552124023e+00,2.585218906402587891e+00,2.584878444671630859e+00,2.584537982940673828e+00,2.558519363403320312e+00,2.504656314849853516e+00,2.453014135360717773e+00,2.403458595275878906e+00,2.355865955352783203e+00,2.310121059417724609e+00,2.266119003295898438e+00,2.223762035369873047e+00,2.182959318161010742e+00,2.143626928329467773e+00,2.105686902999877930e+00,2.069066524505615234e+00,2.033698081970214844e+00,1.999518513679504395e+00,1.966468930244445801e+00,1.934493780136108398e+00,1.903542041778564453e+00,1.873565196990966797e+00,1.844517827033996582e+00
2.255155086517333984e+00,2.254894495010375977e+00,2.254633903503417969e+00,2.254373311996459961e+00,2.254112958908081055e+00,2.253852605819702148e+00,2.253592252731323242e+00,2.253331899642944336e+00,2.253071546554565430e+00,2.252811670303344727e+00,2.252551555633544922e+00,2.252291440963745117e+00,2.252031326293945312e+00,2.251771450042724609e+00,2.251511573791503906e+00,2.251251697540283203e+00,2.250992059707641602e+00,2.250732421875000000e+00,2.250472784042358398e+00,2.250213146209716797e+00,2.249953746795654297e+00,2.249694347381591797e+00,2.249434947967529297e+00,2.249175548553466797e+00,2.248917341232299805e+00,2.248659610748291016e+00,2.248402118682861328e+00,2.248144626617431641e+00,2.247887134552001953e+00,2.247629642486572266e+00,2.247372150421142578e+00,2.247114896774291992e+00,2.246857404708862305e+00,2.246600389480590820e+00,2.246343135833740234e+00,2.246086120605468750e+00,2.245829105377197266e+00,2.245572090148925781e+00,2.245315074920654297e+00,2.245058059692382812e+00,2.244801282882690430e+00,2.244544506072998047e+00,2.244287729263305664e+00,2.244031429290771484e+00,2.243774652481079102e+00,2.243518114089965820e+00,2.243261814117431641e+00,2.243005275726318359e+00,2.242748975753784180e+00,2.242492675781250000e+00,2.242236375808715820e+00,2.241980075836181641e+00,2.241724252700805664e+00,2.241468191146850586e+00,2.241212129592895508e+00,2.240956068038940430e+00,2.240700244903564453e+00,2.240444421768188477e+00,2.240188598632812500e+00,2.239933013916015625e+00,2.239677429199218750e+00,2.239421844482421875e+00,2.239166259765625000e+00,2.238910675048828125e+00,2.238655328750610352e+00,2.238399982452392578e+00,2.238144636154174805e+00,2.237889289855957031e+00,2.223791122436523438e+00,2.182987451553344727e+00,2.143654108047485352e+00,2.105713129043579102e+00,2.069091558456420898e+00,2.033722400665283203e+00,1.999542117118835449e+00,1.966491699218750000e+00,1.934515833854675293e+00,1.903563380241394043e+00,1.873585820198059082e+00,1.844537854194641113e+00
1.988145470619201660e+00,1.987942814826965332e+00,1.987740278244018555e+00,1.987537741661071777e+00,1.987335324287414551e+00,1.987132906913757324e+00,1.986930489540100098e+00,1.986728191375732422e+00,1.986526131629943848e+00,1.986323833465576172e+00,1.986121535301208496e+00,1.985919356346130371e+00,1.985717296600341797e+00,1.985515236854553223e+00,1.985313177108764648e+00,1.985111117362976074e+00,1.984909176826477051e+00,1.984707236289978027e+00,1.984505295753479004e+00,1.984303474426269531e+00,1.984101653099060059e+00,1.983899831771850586e+00,1.983698129653930664e+00,1.983496427536010742e+00,1.983294844627380371e+00,1.983093142509460449e+00,1.982891798019409180e+00,1.982690334320068359e+00,1.982488870620727539e+00,1.982287406921386719e+00,1.982086062431335449e+00,1.981884598731994629e+00,1.981683373451232910e+00,1.981482028961181641e+00,1.981280803680419922e+00,1.981079578399658203e+00,1.980878472328186035e+00,1.980677366256713867e+00,1.980476260185241699e+00,1.980275154113769531e+00,1.980074167251586914e+00,1.979873299598693848e+00,1.979672312736511230e+00,1.979471683502197266e+00,1.979270815849304199e+00,1.979070067405700684e+00,1.978869318962097168e+00,1.978668570518493652e+00,1.978467941284179688e+00,1.978267312049865723e+00,1.978066682815551758e+00,1.977866172790527344e+00,1.977665662765502930e+00,1.977465152740478516e+00,1.977264761924743652e+00,1.977064371109008789e+00,1.976863980293273926e+00,1.976663708686828613e+00,1.976463437080383301e+00,1.976263165473937988e+00,1.976063013076782227e+00,1.975863099098205566e+00,1.975663065910339355e+00,1.975462913513183594e+00,1.975262880325317383e+00,1.975062966346740723e+00,1.974863052368164062e+00,1.974663138389587402e+00,1.974463224411010742e+00,1.974263429641723633e+00,1.974063634872436523e+00,1.973863959312438965e+00,1.973664164543151855e+00,1.973464608192443848e+00,1.973264932632446289e+00,1.966514348983764648e+00,1.934537887573242188e+00,1.903584837913513184e+00,1.873606562614440918e+00,1.844558000564575195e+00
1.777669787406921387e+00,1.777507901191711426e+00,1.777345895767211914e+00,1.777184009552001953e+00,1.777022123336791992e+00,1.776860237121582031e+00,1.776698470115661621e+00,1.776536822319030762e+00,1.776375055313110352e+00,1.776213407516479492e+00,1.776051640510559082e+00,1.775889992713928223e+00,1.775728344917297363e+00,1.775566697120666504e+00,1.775405168533325195e+00,1.775243520736694336e+00,1.775081992149353027e+00,1.774920582771301270e+00,1.774759054183959961e+00,1.774597644805908203e+00,1.774436235427856445e+00,1.774274826049804688e+00,1.774113416671752930e+00,1.773952126502990723e+00,1.773790836334228516e+00,1.773629784584045410e+00,1.773468494415283203e+00,1.773307323455810547e+00,1.773146152496337891e+00,1.772984981536865234e+00,1.772823810577392578e+00,1.772662758827209473e+00,1.772501707077026367e+00,1.772340655326843262e+00,1.772179722785949707e+00,1.772018671035766602e+00,1.771857738494873047e+00,1.771696805953979492e+00,1.771535992622375488e+00,1.771375060081481934e+00,1.771214246749877930e+00,1.771053433418273926e+00,1.770892858505249023e+00,1.770732164382934570e+00,1.770571470260620117e+00,1.770410776138305664e+00,1.770250082015991211e+00,1.770089507102966309e+00,1.769928812980651855e+00,1.769768238067626953e+00,1.769607782363891602e+00,1.769447207450866699e+00,1.769286751747131348e+00,1.769126296043395996e+00,1.768965840339660645e+00,1.768805503845214844e+00,1.768645167350769043e+00,1.768484830856323242e+00,1.768324494361877441e+00,1.768164277076721191e+00,1.768004179000854492e+00,1.767843961715698242e+00,1.767683744430541992e+00,1.767523646354675293e+00,1.767363429069519043e+00,1.767203330993652344e+00,1.767043232917785645e+00,1.766883254051208496e+00,1.766723275184631348e+00,1.766563296318054199e+00,1.766403317451477051e+00,1.766243338584899902e+00,1.766083478927612305e+00,1.765923619270324707e+00,1.765763759613037109e+00,1.765604019165039062e+00,1.765444278717041016e+00,1.765284657478332520e+00,1.765124917030334473e+00,1.764965295791625977e+00
1.607492208480834961e+00,1.607359766960144043e+00,1.607227325439453125e+00,1.607095003128051758e+00,1.606962561607360840e+00,1.606830239295959473e+00,1.606698036193847656e+00,1.606565713882446289e+00,1.606433391571044922e+00,1.606301188468933105e+00,1.606168866157531738e+00,1.606036663055419922e+00,1.605904459953308105e+00,1.605772256851196289e+00,1.605640053749084473e+00,1.605507969856262207e+00,1.605375885963439941e+00,1.605243802070617676e+00,1.605111718177795410e+00,1.604979634284973145e+00,1.604847550392150879e+00,1.604715585708618164e+00,1.604583621025085449e+00,1.604451775550842285e+00,1.604319810867309570e+00,1.604187846183776855e+00,1.604056000709533691e+00,1.603924155235290527e+00,1.603792309761047363e+00,1.603660464286804199e+00,1.603528618812561035e+00,1.603396773338317871e+00,1.603265047073364258e+00,1.603133320808410645e+00,1.603001594543457031e+00,1.602869868278503418e+00,1.602738142013549805e+00,1.602606534957885742e+00,1.602474808692932129e+00,1.602343201637268066e+00,1.602211594581604004e+00,1.602080225944519043e+00,1.601948618888854980e+00,1.601817131042480469e+00,1.601685643196105957e+00,1.601554155349731445e+00,1.601422667503356934e+00,1.601291179656982422e+00,1.601159811019897461e+00,1.601028323173522949e+00,1.600896954536437988e+00,1.600765585899353027e+00,1.600634336471557617e+00,1.600502967834472656e+00,1.600371718406677246e+00,1.600240468978881836e+00,1.600109100341796875e+00,1.599977850914001465e+00,1.599846720695495605e+00,1.599715590476989746e+00,1.599584460258483887e+00,1.599453330039978027e+00,1.599322199821472168e+00,1.599191069602966309e+00,1.599060058593750000e+00,1.598928928375244141e+00,1.598797917366027832e+00,1.598666906356811523e+00,1.598535895347595215e+00,1.598404884338378906e+00,1.598273992538452148e+00,1.598143100738525391e+00,1.598012089729309082e+00,1.597881197929382324e+00,1.597750425338745117e+00,1.597619533538818359e+00,1.597488880157470703e+00,1.597358107566833496e+00,1.597227334976196289e+00,1.597096562385559082e+00
1.467050433158874512e+00,1.466940045356750488e+00,1.466829776763916016e+00,1.466719508171081543e+00,1.466609239578247070e+00,1.466499090194702148e+00,1.466388940811157227e+00,1.466278672218322754e+00,1.466168522834777832e+00,1.466058254241943359e+00,1.465948104858398438e+00,1.465837955474853516e+00,1.465727806091308594e+00,1.465617656707763672e+00,1.465507626533508301e+00,1.465397477149963379e+00,1.465287446975708008e+00,1.465177416801452637e+00,1.465067386627197266e+00,1.464957356452941895e+00,1.464847326278686523e+00,1.464737415313720703e+00,1.464627504348754883e+00,1.464517593383789062e+00,1.464407682418823242e+00,1.464297771453857422e+00,1.464187860488891602e+00,1.464077949523925781e+00,1.463968038558959961e+00,1.463858246803283691e+00,1.463748335838317871e+00,1.463638544082641602e+00,1.463528752326965332e+00,1.463418960571289062e+00,1.463309168815612793e+00,1.463199377059936523e+00,1.463089704513549805e+00,1.462979912757873535e+00,1.462870240211486816e+00,1.462760567665100098e+00,1.462651014328002930e+00,1.462541341781616211e+00,1.462431788444519043e+00,1.462322115898132324e+00,1.462212562561035156e+00,1.462102890014648438e+00,1.461993336677551270e+00,1.461883783340454102e+00,1.461774230003356934e+00,1.461664795875549316e+00,1.461555242538452148e+00,1.461445808410644531e+00,1.461336255073547363e+00,1.461226820945739746e+00,1.461117386817932129e+00,1.461007952690124512e+00,1.460898518562316895e+00,1.460789322853088379e+00,1.460679888725280762e+00,1.460570573806762695e+00,1.460461258888244629e+00,1.460351943969726562e+00,1.460242629051208496e+00,1.460133314132690430e+00,1.460023999214172363e+00,1.459914803504943848e+00,1.459805488586425781e+00,1.459696292877197266e+00,1.459587097167968750e+00,1.459477901458740234e+00,1.459368705749511719e+00,1.459259510040283203e+00,1.459150433540344238e+00,1.459041237831115723e+00,1.458932161331176758e+00,1.458823204040527344e+00,1.458714127540588379e+00,1.458605051040649414e+00,1.458495974540710449e+00,1.458386898040771484e+00
1.349176764488220215e+00,1.349083542823791504e+00,1.348990201950073242e+00,1.348896980285644531e+00,1.348803758621215820e+00,1.348710536956787109e+00,1.348617315292358398e+00,1.348524093627929688e+00,1.348430871963500977e+00,1.348337650299072266e+00,1.348244428634643555e+00,1.348151326179504395e+00,1.348058104515075684e+00,1.347965002059936523e+00,1.347871899604797363e+00,1.347778797149658203e+00,1.347685694694519043e+00,1.347592592239379883e+00,1.347499489784240723e+00,1.347406387329101562e+00,1.347313404083251953e+00,1.347220420837402344e+00,1.347127437591552734e+00,1.347034454345703125e+00,1.346941351890563965e+00,1.346848368644714355e+00,1.346755385398864746e+00,1.346662521362304688e+00,1.346569538116455078e+00,1.346476554870605469e+00,1.346383690834045410e+00,1.346290707588195801e+00,1.346197843551635742e+00,1.346104979515075684e+00,1.346012115478515625e+00,1.345919251441955566e+00,1.345826387405395508e+00,1.345733523368835449e+00,1.345640659332275391e+00,1.345548033714294434e+00,1.345455169677734375e+00,1.345362424850463867e+00,1.345269560813903809e+00,1.345176815986633301e+00,1.345084071159362793e+00,1.344991326332092285e+00,1.344898700714111328e+00,1.344805955886840820e+00,1.344713211059570312e+00,1.344620585441589355e+00,1.344527840614318848e+00,1.344435214996337891e+00,1.344342589378356934e+00,1.344249963760375977e+00,1.344157338142395020e+00,1.344064712524414062e+00,1.343972206115722656e+00,1.343879580497741699e+00,1.343787074089050293e+00,1.343694448471069336e+00,1.343601942062377930e+00,1.343509435653686523e+00,1.343416929244995117e+00,1.343324422836303711e+00,1.343231916427612305e+00,1.343139410018920898e+00,1.343046903610229492e+00,1.342954516410827637e+00,1.342862010002136230e+00,1.342769622802734375e+00,1.342677235603332520e+00,1.342584848403930664e+00,1.342492461204528809e+00,1.342400074005126953e+00,1.342307806015014648e+00,1.342215418815612793e+00,1.342123031616210938e+00,1.342030763626098633e+00,1.341938376426696777e+00,1.341846108436584473e+00
1.248836159706115723e+00,1.248756289482116699e+00,1.248676300048828125e+00,1.248596429824829102e+00,1.248516559600830078e+00,1.248436689376831055e+00,1.248356819152832031e+00,1.248276948928833008e+00,1.248197078704833984e+00,1.248117208480834961e+00,1.248037338256835938e+00,1.247957468032836914e+00,1.247877717018127441e+00,1.247797846794128418e+00,1.247718095779418945e+00,1.247638225555419922e+00,1.247558474540710449e+00,1.247478723526000977e+00,1.247398972511291504e+00,1.247319102287292480e+00,1.247239470481872559e+00,1.247159719467163086e+00,1.247080087661743164e+00,1.247000336647033691e+00,1.246920585632324219e+00,1.246840953826904297e+00,1.246761202812194824e+00,1.246681571006774902e+00,1.246601939201354980e+00,1.246522307395935059e+00,1.246442556381225586e+00,1.246362924575805664e+00,1.246283292770385742e+00,1.246203780174255371e+00,1.246124148368835449e+00,1.246044516563415527e+00,1.245965003967285156e+00,1.245885372161865234e+00,1.245805859565734863e+00,1.245726346969604492e+00,1.245646834373474121e+00,1.245567321777343750e+00,1.245487809181213379e+00,1.245408296585083008e+00,1.245328783988952637e+00,1.245249271392822266e+00,1.245169758796691895e+00,1.245090365409851074e+00,1.245010852813720703e+00,1.244931459426879883e+00,1.244851946830749512e+00,1.244772553443908691e+00,1.244693160057067871e+00,1.244613647460937500e+00,1.244534254074096680e+00,1.244454979896545410e+00,1.244375586509704590e+00,1.244296312332153320e+00,1.244216918945312500e+00,1.244137525558471680e+00,1.244058251380920410e+00,1.243978857994079590e+00,1.243899583816528320e+00,1.243820309638977051e+00,1.243740916252136230e+00,1.243661642074584961e+00,1.243582367897033691e+00,1.243503093719482422e+00,1.243423819541931152e+00,1.243344664573669434e+00,1.243265390396118164e+00,1.243186116218566895e+00,1.243106961250305176e+00,1.243027806282043457e+00,1.242948651313781738e+00,1.242869496345520020e+00,1.242790222167968750e+00,1.242711067199707031e+00,1.242631912231445312e+00,1.242552757263183594e+00
1.162387371063232422e+00,1.162318110466003418e+00,1.162248969078063965e+00,1.162179708480834961e+00,1.162110567092895508e+00,1.162041306495666504e+00,1.161972045898437500e+00,1.161902904510498047e+00,1.161833643913269043e+00,1.161764502525329590e+00,1.161695361137390137e+00,1.161626100540161133e+00,1.161556959152221680e+00,1.161487817764282227e+00,1.161418676376342773e+00,1.161349534988403320e+00,1.161280393600463867e+00,1.161211252212524414e+00,1.161142110824584961e+00,1.161073088645935059e+00,1.161004066467285156e+00,1.160934925079345703e+00,1.160865902900695801e+00,1.160796761512756348e+00,1.160727739334106445e+00,1.160658597946166992e+00,1.160589575767517090e+00,1.160520553588867188e+00,1.160451531410217285e+00,1.160382509231567383e+00,1.160313487052917480e+00,1.160244464874267578e+00,1.160175442695617676e+00,1.160106420516967773e+00,1.160037517547607422e+00,1.159968495368957520e+00,1.159899592399597168e+00,1.159830689430236816e+00,1.159761667251586914e+00,1.159692764282226562e+00,1.159623861312866211e+00,1.159554839134216309e+00,1.159485936164855957e+00,1.159417033195495605e+00,1.159348130226135254e+00,1.159279227256774902e+00,1.159210324287414551e+00,1.159141540527343750e+00,1.159072637557983398e+00,1.159003734588623047e+00,1.158934950828552246e+00,1.158866047859191895e+00,1.158797264099121094e+00,1.158728361129760742e+00,1.158659696578979492e+00,1.158590793609619141e+00,1.158522009849548340e+00,1.158453226089477539e+00,1.158384442329406738e+00,1.158315658569335938e+00,1.158246874809265137e+00,1.158178210258483887e+00,1.158109426498413086e+00,1.158040642738342285e+00,1.157971978187561035e+00,1.157903194427490234e+00,1.157834529876708984e+00,1.157765746116638184e+00,1.157697081565856934e+00,1.157628417015075684e+00,1.157559633255004883e+00,1.157490968704223633e+00,1.157422423362731934e+00,1.157353758811950684e+00,1.157285094261169434e+00,1.157216429710388184e+00,1.157147765159606934e+00,1.157079100608825684e+00,1.157010555267333984e+00,1.156941890716552734e+00
1.087132334709167480e+00,1.087071776390075684e+00,1.087011218070983887e+00,1.086950659751892090e+00,1.086890101432800293e+00,1.086829543113708496e+00,1.086768984794616699e+00,1.086708426475524902e+00,1.086647987365722656e+00,1.086587429046630859e+00,1.086526870727539062e+00,1.086466431617736816e+00,1.086405873298645020e+00,1.086345434188842773e+00,1.086284875869750977e+00,1.086224436759948730e+00,1.086163878440856934e+00,1.086103439331054688e+00,1.086043119430541992e+00,1.085982561111450195e+00,1.085922122001647949e+00,1.085861682891845703e+00,1.085801243782043457e+00,1.085740804672241211e+00,1.085680484771728516e+00,1.085620045661926270e+00,1.085559606552124023e+00,1.085499167442321777e+00,1.085438847541809082e+00,1.085378408432006836e+00,1.085318088531494141e+00,1.085257649421691895e+00,1.085197329521179199e+00,1.085136890411376953e+00,1.085076570510864258e+00,1.085016250610351562e+00,1.084955930709838867e+00,1.084895610809326172e+00,1.084835290908813477e+00,1.084774971008300781e+00,1.084714651107788086e+00,1.084654331207275391e+00,1.084594011306762695e+00,1.084533691406250000e+00,1.084473490715026855e+00,1.084413170814514160e+00,1.084352850914001465e+00,1.084292650222778320e+00,1.084232330322265625e+00,1.084172129631042480e+00,1.084111809730529785e+00,1.084051609039306641e+00,1.083991408348083496e+00,1.083931207656860352e+00,1.083871006965637207e+00,1.083810806274414062e+00,1.083750605583190918e+00,1.083690404891967773e+00,1.083630204200744629e+00,1.083570003509521484e+00,1.083509802818298340e+00,1.083449602127075195e+00,1.083389520645141602e+00,1.083329319953918457e+00,1.083269119262695312e+00,1.083209037780761719e+00,1.083148837089538574e+00,1.083088755607604980e+00,1.083028554916381836e+00,1.082968473434448242e+00,1.082908391952514648e+00,1.082848310470581055e+00,1.082788228988647461e+00,1.082728147506713867e+00,1.082668066024780273e+00,1.082607984542846680e+00,1.082547903060913086e+00,1.082487821578979492e+00,1.082427740097045898e+00,1.082367658615112305e+00
1.021029114723205566e+00,1.020975589752197266e+00,1.020922183990478516e+00,1.020868778228759766e+00,1.020815372467041016e+00,1.020761966705322266e+00,1.020708560943603516e+00,1.020655155181884766e+00,1.020601749420166016e+00,1.020548343658447266e+00,1.020494937896728516e+00,1.020441651344299316e+00,1.020388245582580566e+00,1.020334839820861816e+00,1.020281434059143066e+00,1.020228147506713867e+00,1.020174741744995117e+00,1.020121455192565918e+00,1.020068168640136719e+00,1.020014882087707520e+00,1.019961476325988770e+00,1.019908189773559570e+00,1.019854903221130371e+00,1.019801497459411621e+00,1.019748210906982422e+00,1.019694924354553223e+00,1.019641637802124023e+00,1.019588351249694824e+00,1.019535064697265625e+00,1.019481778144836426e+00,1.019428491592407227e+00,1.019375205039978027e+00,1.019322037696838379e+00,1.019268751144409180e+00,1.019215464591979980e+00,1.019162297248840332e+00,1.019109010696411133e+00,1.019055843353271484e+00,1.019002556800842285e+00,1.018949389457702637e+00,1.018896102905273438e+00,1.018842935562133789e+00,1.018789768218994141e+00,1.018736481666564941e+00,1.018683314323425293e+00,1.018630146980285645e+00,1.018576979637145996e+00,1.018523812294006348e+00,1.018470644950866699e+00,1.018417477607727051e+00,1.018364310264587402e+00,1.018311142921447754e+00,1.018257975578308105e+00,1.018204927444458008e+00,1.018151760101318359e+00,1.018098592758178711e+00,1.018045425415039062e+00,1.017992377281188965e+00,1.017939209938049316e+00,1.017886161804199219e+00,1.017832994461059570e+00,1.017779946327209473e+00,1.017726778984069824e+00,1.017673730850219727e+00,1.017620682716369629e+00,1.017567515373229980e+00,1.017514467239379883e+00,1.017461419105529785e+00,1.017408370971679688e+00,1.017355322837829590e+00,1.017302274703979492e+00,1.017249226570129395e+00,1.017196178436279297e+00,1.017143130302429199e+00,1.017090201377868652e+00,1.017037153244018555e+00,1.016984105110168457e+00,1.016931056976318359e+00,1.016878128051757812e+00,1.016825079917907715e+00
9.625038504600524902e-01,9.624564051628112793e-01,9.624089002609252930e-01,9.623613953590393066e-01,9.623139500617980957e-01,9.622664451599121094e-01,9.622189998626708984e-01,9.621715545654296875e-01,9.621241092681884766e-01,9.620766639709472656e-01,9.620292186737060547e-01,9.619817733764648438e-01,9.619343280792236328e-01,9.618869423866271973e-01,9.618394970893859863e-01,9.617920517921447754e-01,9.617447853088378906e-01,9.616973400115966797e-01,9.616499543190002441e-01,9.616025686264038086e-01,9.615551829338073730e-01,9.615077376365661621e-01,9.614603519439697266e-01,9.614130258560180664e-01,9.613656401634216309e-01,9.613182544708251953e-01,9.612708687782287598e-01,9.612235426902770996e-01,9.611761569976806641e-01,9.611287713050842285e-01,9.610814452171325684e-01,9.610341191291809082e-01,9.609867930412292480e-01,9.609394073486328125e-01,9.608920812606811523e-01,9.608447551727294922e-01,9.607974290847778320e-01,9.607501029968261719e-01,9.607028365135192871e-01,9.606555104255676270e-01,9.606081843376159668e-01,9.605609178543090820e-01,9.605135917663574219e-01,9.604663252830505371e-01,9.604190587997436523e-01,9.603717327117919922e-01,9.603244662284851074e-01,9.602771997451782227e-01,9.602299332618713379e-01,9.601826667785644531e-01,9.601354598999023438e-01,9.600883126258850098e-01,9.600410461425781250e-01,9.599937796592712402e-01,9.599465727806091309e-01,9.598993062973022461e-01,9.598520994186401367e-01,9.598048925399780273e-01,9.597576260566711426e-01,9.597104191780090332e-01,9.596632122993469238e-01,9.596160054206848145e-01,9.595687985420227051e-01,9.595215916633605957e-01,9.594744443893432617e-01,9.594272375106811523e-01,9.593800306320190430e-01,9.593328833580017090e-01,9.592856764793395996e-01,9.592385292053222656e-01,9.591913819313049316e-01,9.591442346572875977e-01,9.590970277786254883e-01,9.590498805046081543e-01,9.590027332305908203e-01,9.589556455612182617e-01,9.589084982872009277e-01,9.588613510131835938e-01,9.588142037391662598e-01,9.587671160697937012e-01
