5.000000000000000000e+00,5.000000000000000000e+00,5.000000000000000000e+00,5.000000000000000000e+00,5.000000000000000000e+00,5.000000000000000000e+00,5.000000000000000000e+00,5.000000000000000000e+00,5.000000000000000000e+00,5.000000000000000000e+00,5.000000000000000000e+00,5.000000000000000000e+00,5.000000000000000000e+00,5.000000000000000000e+00,5.000000000000000000e+00,5.000000000000000000e+00,5.000000000000000000e+00,5.000000000000000000e+00,5.000000000000000000e+00,5.000000000000000000e+00,5.000000000000000000e+00,5.000000000000000000e+00,5.000000000000000000e+00,5.000000000000000000e+00,5.000000000000000000e+00,5.000000000000000000e+00,5.000000000000000000e+00,5.000000000000000000e+00,5.000000000000000000e+00,5.000000000000000000e+00,1.340799570083618164e+00,1.319896697998046875e+00,1.315119862556457520e+00,1.311123847961425781e+00,1.316213846206665039e+00,1.337985515594482422e+00,5.000000000000000000e+00,5.000000000000000000e+00,1.227743268013000488e+00,1.184045314788818359e+00,1.155685782432556152e+00,1.152061104774475098e+00,1.150384545326232910e+00,1.146061062812805176e+00,1.163268446922302246e+00,1.426514148712158203e+00,3.776168346405029297e+00,3.659991979598999023e+00,3.550750970840454102e+00,3.447841882705688477e+00,3.350729942321777344e+00,3.258938789367675781e+00,3.172042369842529297e+00,3.089659929275512695e+00,3.011448144912719727e+00,2.937098503112792969e+00,2.866331338882446289e+00,2.798894405364990234e+00,2.734557628631591797e+00,2.673112154006958008e+00,2.614367485046386719e+00,2.558148860931396484e+00,2.504297494888305664e+00,2.452666521072387695e+00,2.403121471405029297e+00,2.355538606643676758e+00,2.309803247451782227e+00,2.265810012817382812e+00,2.223461627960205078e+00,2.182667016983032227e+00,2.143342256546020508e+00,2.105409622192382812e+00,2.068796157836914062e+00,2.033434391021728516e+00,1.999261379241943359e+00,1.966217637062072754e+00,1.934248566627502441e+00,1.903302550315856934e+00,1.873331069946289062e+00,1.844288945198059082e+00
5.000000000000000000e+00,5.000000000000000000e+00,5.000000000000000000e+00,5.000000000000000000e+00,5.000000000000000000e+00,5.000000000000000000e+00,5.000000000000000000e+00,5.000000000000000000e+00,5.000000000000000000e+00,5.000000000000000000e+00,5.000000000000000000e+00,5.000000000000000000e+00,5.000000000000000000e+00,5.000000000000000000e+00,5.000000000000000000e+00,5.000000000000000000e+00,5.000000000000000000e+00,5.000000000000000000e+00,5.000000000000000000e+00,5.000000000000000000e+00,5.000000000000000000e+00,5.000000000000000000e+00,5.000000000000000000e+00,5.000000000000000000e+00,5.000000000000000000e+00,5.000000000000000000e+00,5.000000000000000000e+00,5.000000000000000000e+00,5.000000000000000000e+00,5.000000000000000000e+00,1.359171748161315918e+00,1.328600049018859863e+00,1.323158621788024902e+00,1.318960547447204590e+00,1.325794458389282227e+00,1.346998810768127441e+00,5.000000000000000000e+00,5.000000000000000000e+00,1.225963592529296875e+00,1.179256319999694824e+00,1.152460813522338867e+00,1.140095233917236328e+00,1.138636589050292969e+00,1.137181639671325684e+00,1.141992688179016113e+00,1.417135119438171387e+00,3.776252508163452148e+00,3.660071372985839844e+00,3.550825357437133789e+00,3.447911977767944336e+00,3.350796222686767578e+00,3.259001493453979492e+00,3.172101974487304688e+00,3.089716196060180664e+00,3.011501789093017578e+00,2.937149524688720703e+00,2.866379976272583008e+00,2.798940420150756836e+00,2.734601736068725586e+00,2.673154354095458984e+00,2.614407777786254883e+00,2.558187723159790039e+00,2.504334449768066406e+00,2.452702045440673828e+00,2.403155565261840820e+00,2.355571269989013672e+00,2.309834718704223633e+00,2.265840291976928711e+00,2.223490715026855469e+00,2.182695150375366211e+00,2.143369436264038086e+00,2.105435848236083984e+00,2.068821430206298828e+00,2.033458948135375977e+00,1.999284982681274414e+00,1.966240763664245605e+00,1.934270739555358887e+00,1.903323888778686523e+00,1.873351812362670898e+00,1.844308972358703613e+00
5.000000000000000000e+00,5.000000000000000000e+00,5.000000000000000000e+00,5.000000000000000000e+00,5.000000000000000000e+00,5.000000000000000000e+00,5.000000000000000000e+00,5.000000000000000000e+00,5.000000000000000000e+00,5.000000000000000000e+00,5.000000000000000000e+00,5.000000000000000000e+00,5.000000000000000000e+00,5.000000000000000000e+00,5.000000000000000000e+00,5.000000000000000000e+00,5.000000000000000000e+00,5.000000000000000000e+00,5.000000000000000000e+00,5.000000000000000000e+00,5.000000000000000000e+00,5.000000000000000000e+00,5.000000000000000000e+00,5.000000000000000000e+00,5.000000000000000000e+00,5.000000000000000000e+00,5.000000000000000000e+00,5.000000000000000000e+00,5.000000000000000000e+00,5.000000000000000000e+00,1.378054141998291016e+00,1.337418913841247559e+00,1.331905245780944824e+00,1.326891541481018066e+00,1.335515379905700684e+00,1.355464935302734375e+00,5.000000000000000000e+00,5.000000000000000000e+00,1.263223290443420410e+00,1.175888776779174805e+00,1.149253726005554199e+00,1.128375411033630371e+00,1.126946568489074707e+00,1.126183032989501953e+00,1.125525593757629395e+00,1.409387707710266113e+00,3.776336669921875000e+00,3.660150289535522461e+00,3.550899982452392578e+00,3.447982072830200195e+00,3.350862503051757812e+00,3.259064197540283203e+00,3.172161340713500977e+00,3.089772701263427734e+00,3.011555194854736328e+00,2.937200307846069336e+00,2.866428613662719727e+00,2.798986911773681641e+00,2.734645843505859375e+00,2.673196554183959961e+00,2.614448070526123047e+00,2.558226346969604492e+00,2.504371643066406250e+00,2.452737569808959961e+00,2.403189659118652344e+00,2.355604171752929688e+00,2.309866189956665039e+00,2.265870571136474609e+00,2.223520040512084961e+00,2.182723283767700195e+00,2.143396615982055664e+00,2.105462074279785156e+00,2.068846702575683594e+00,2.033483266830444336e+00,1.999308586120605469e+00,1.966263532638549805e+00,1.934293031692504883e+00,1.903345346450805664e+00,1.873372435569763184e+00,1.844328999519348145e+00
5.000000000000000000e+00,5.000000000000000000e+00,5.000000000000000000e+00,5.000000000000000000e+00,5.000000000000000000e+00,5.000000000000000000e+00,5.000000000000000000e+00,5.000000000000000000e+00,5.000000000000000000e+00,5.000000000000000000e+00,5.000000000000000000e+00,5.000000000000000000e+00,5.000000000000000000e+00,5.000000000000000000e+00,5.000000000000000000e+00,5.000000000000000000e+00,5.000000000000000000e+00,5.000000000000000000e+00,5.000000000000000000e+00,5.000000000000000000e+00,5.000000000000000000e+00,5.000000000000000000e+00,5.000000000000000000e+00,5.000000000000000000e+00,5.000000000000000000e+00,5.000000000000000000e+00,5.000000000000000000e+00,5.000000000000000000e+00,5.000000000000000000e+00,5.000000000000000000e+00,1.398671030998229980e+00,1.345950245857238770e+00,1.340768098831176758e+00,1.335226893424987793e+00,1.344276785850524902e+00,1.364038109779357910e+00,5.000000000000000000e+00,5.000000000000000000e+00,5.000000000000000000e+00,1.172550201416015625e+00,1.145782709121704102e+00,1.121364355087280273e+00,1.119292736053466797e+00,1.119248747825622559e+00,1.118772387504577637e+00,1.409980773925781250e+00,3.776420831680297852e+00,3.660229444503784180e+00,3.550974369049072266e+00,3.448052644729614258e+00,3.350928783416748047e+00,3.259126901626586914e+00,3.172220706939697266e+00,3.089829206466674805e+00,3.011609077453613281e+00,2.937251329421997070e+00,2.866477012634277344e+00,2.799033164978027344e+00,2.734690189361572266e+00,2.673238754272460938e+00,2.614488363265991211e+00,2.558264970779418945e+00,2.504408597946166992e+00,2.452773094177246094e+00,2.403223752975463867e+00,2.355636835098266602e+00,2.309897661209106445e+00,2.265901088714599609e+00,2.223549127578735352e+00,2.182751417160034180e+00,2.143423795700073242e+00,2.105488300323486328e+00,2.068871974945068359e+00,2.033507823944091797e+00,1.999332189559936523e+00,1.966286301612854004e+00,1.934315085411071777e+00,1.903366684913635254e+00,1.873393177986145020e+00,1.844349145889282227e+00
5.000000000000000000e+00,5.000000000000000000e+00,5.000000000000000000e+00,5.000000000000000000e+00,5.000000000000000000e+00,5.000000000000000000e+00,5.000000000000000000e+00,5.000000000000000000e+00,5.000000000000000000e+00,5.000000000000000000e+00,5.000000000000000000e+00,5.000000000000000000e+00,5.000000000000000000e+00,5.000000000000000000e+00,5.000000000000000000e+00,5.000000000000000000e+00,5.000000000000000000e+00,5.000000000000000000e+00,5.000000000000000000e+00,5.000000000000000000e+00,5.000000000000000000e+00,5.000000000000000000e+00,5.000000000000000000e+00,5.000000000000000000e+00,5.000000000000000000e+00,5.000000000000000000e+00,5.000000000000000000e+00,5.000000000000000000e+00,5.000000000000000000e+00,5.000000000000000000e+00,1.455506324768066406e+00,1.353070497512817383e+00,1.347293853759765625e+00,1.342247366905212402e+00,1.352867364883422852e+00,1.372860312461853027e+00,5.000000000000000000e+00,5.000000000000000000e+00,5.000000000000000000e+00,1.168426632881164551e+00,1.142234086990356445e+00,1.120005607604980469e+00,1.114490270614624023e+00,1.115257859230041504e+00,1.116045832633972168e+00,3.900321245193481445e+00,3.776504993438720703e+00,3.660308361053466797e+00,3.551048755645751953e+00,3.448122978210449219e+00,3.350995302200317383e+00,3.259189605712890625e+00,3.172280073165893555e+00,3.089885473251342773e+00,3.011662483215332031e+00,2.937302350997924805e+00,2.866525411605834961e+00,2.799079418182373047e+00,2.734734296798706055e+00,2.673280954360961914e+00,2.614528656005859375e+00,2.558303594589233398e+00,2.504445552825927734e+00,2.452808618545532227e+00,2.403257846832275391e+00,2.355669498443603516e+00,2.309929132461547852e+00,2.265931367874145508e+00,2.223578453063964844e+00,2.182779550552368164e+00,2.143450736999511719e+00,2.105514287948608398e+00,2.068897247314453125e+00,2.033532142639160156e+00,1.999355673789978027e+00,1.966309189796447754e+00,1.934337139129638672e+00,1.903388261795043945e+00,1.873413920402526855e+00,1.844369173049926758e+00
5.000000000000000000e+00,5.000000000000000000e+00,5.000000000000000000e+00,5.000000000000000000e+00,5.000000000000000000e+00,5.000000000000000000e+00,5.000000000000000000e+00,5.000000000000000000e+00,5.000000000000000000e+00,5.000000000000000000e+00,5.000000000000000000e+00,5.000000000000000000e+00,5.000000000000000000e+00,5.000000000000000000e+00,5.000000000000000000e+00,5.000000000000000000e+00,5.000000000000000000e+00,5.000000000000000000e+00,5.000000000000000000e+00,5.000000000000000000e+00,5.000000000000000000e+00,5.000000000000000000e+00,5.000000000000000000e+00,5.000000000000000000e+00,5.000000000000000000e+00,5.000000000000000000e+00,5.000000000000000000e+00,5.000000000000000000e+00,5.000000000000000000e+00,5.000000000000000000e+00,5.000000000000000000e+00,1.363237261772155762e+00,1.353734493255615234e+00,1.348639845848083496e+00,1.361679553985595703e+00,1.381283760070800781e+00,5.000000000000000000e+00,5.000000000000000000e+00,5.000000000000000000e+00,4.855602264404296875e+00,1.143922805786132812e+00,1.121219277381896973e+00,1.116213679313659668e+00,1.116263628005981445e+00,1.116313576698303223e+00,3.900410890579223633e+00,3.776589632034301758e+00,3.660387516021728516e+00,3.551123380661010742e+00,3.448193073272705078e+00,3.351061582565307617e+00,3.259252548217773438e+00,3.172339677810668945e+00,3.089941740036010742e+00,3.011716127395629883e+00,2.937353372573852539e+00,2.866574048995971680e+00,2.799125671386718750e+00,2.734778404235839844e+00,2.673323154449462891e+00,2.614569187164306641e+00,2.558342218399047852e+00,2.504482746124267578e+00,2.452844142913818359e+00,2.403291940689086914e+00,2.355702400207519531e+00,2.309960842132568359e+00,2.265961647033691406e+00,2.223607540130615234e+00,2.182807683944702148e+00,2.143477916717529297e+00,2.105540513992309570e+00,2.068922519683837891e+00,2.033556699752807617e+00,1.999379277229309082e+00,1.966331958770751953e+00,1.934359192848205566e+00,1.903409600257873535e+00,1.873434782028198242e+00,1.844389200210571289e+00
5.000000000000000000e+00,5.000000000000000000e+00,5.000000000000000000e+00,5.000000000000000000e+00,5.000000000000000000e+00,5.000000000000000000e+00,5.000000000000000000e+00,5.000000000000000000e+00,5.000000000000000000e+00,5.000000000000000000e+00,5.000000000000000000e+00,5.000000000000000000e+00,5.000000000000000000e+00,5.000000000000000000e+00,5.000000000000000000e+00,5.000000000000000000e+00,5.000000000000000000e+00,5.000000000000000000e+00,5.000000000000000000e+00,5.000000000000000000e+00,5.000000000000000000e+00,5.000000000000000000e+00,5.000000000000000000e+00,5.000000000000000000e+00,5.000000000000000000e+00,5.000000000000000000e+00,5.000000000000000000e+00,5.000000000000000000e+00,5.000000000000000000e+00,5.000000000000000000e+00,5.000000000000000000e+00,1.376698374748229980e+00,1.360237121582031250e+00,1.355093479156494141e+00,1.370607495307922363e+00,1.388169646263122559e+00,5.000000000000000000e+00,5.000000000000000000e+00,5.000000000000000000e+00,4.855741500854492188e+00,1.146841406822204590e+00,1.125687122344970703e+00,1.119761586189270020e+00,1.119875073432922363e+00,1.119988560676574707e+00,3.900500774383544922e+00,3.776673793792724609e+00,3.660466909408569336e+00,3.551197767257690430e+00,3.448263168334960938e+00,3.351127862930297852e+00,3.259315252304077148e+00,3.172399282455444336e+00,3.089998006820678711e+00,3.011769533157348633e+00,2.937404155731201172e+00,2.866622686386108398e+00,2.799171924591064453e+00,2.734822511672973633e+00,2.673365354537963867e+00,2.614609479904174805e+00,2.558380842208862305e+00,2.504519701004028320e+00,2.452879667282104492e+00,2.403326034545898438e+00,2.355735301971435547e+00,2.309992313385009766e+00,2.265991926193237305e+00,2.223636865615844727e+00,2.182835817337036133e+00,2.143505096435546875e+00,2.105566740036010742e+00,2.068947792053222656e+00,2.033581018447875977e+00,1.999402880668640137e+00,1.966354846954345703e+00,1.934381365776062012e+00,1.903431057929992676e+00,1.873455524444580078e+00,1.844409465789794922e+00
5.000000000000000000e+00,5.000000000000000000e+00,5.000000000000000000e+00,5.000000000000000000e+00,5.000000000000000000e+00,5.000000000000000000e+00,5.000000000000000000e+00,5.000000000000000000e+00,5.000000000000000000e+00,5.000000000000000000e+00,5.000000000000000000e+00,5.000000000000000000e+00,5.000000000000000000e+00,5.000000000000000000e+00,5.000000000000000000e+00,5.000000000000000000e+00,5.000000000000000000e+00,5.000000000000000000e+00,5.000000000000000000e+00,5.000000000000000000e+00,5.000000000000000000e+00,5.000000000000000000e+00,5.000000000000000000e+00,5.000000000000000000e+00,5.000000000000000000e+00,5.000000000000000000e+00,5.000000000000000000e+00,5.000000000000000000e+00,5.000000000000000000e+00,5.000000000000000000e+00,5.000000000000000000e+00,1.400671958923339844e+00,1.369360923767089844e+00,1.361609220504760742e+00,1.378781676292419434e+00,1.395124316215515137e+00,5.000000000000000000e+00,5.000000000000000000e+00,5.000000000000000000e+00,4.855881214141845703e+00,1.153141140937805176e+00,1.129368662834167480e+00,1.123584270477294922e+00,1.123698472976684570e+00,1.124367594718933105e+00,3.900590658187866211e+00,3.776757955551147461e+00,3.660546064376831055e+00,3.551272392272949219e+00,3.448333263397216797e+00,3.351194143295288086e+00,3.259377956390380859e+00,3.172458648681640625e+00,3.090054750442504883e+00,3.011823177337646484e+00,2.937455177307128906e+00,2.866671085357666016e+00,2.799218416213989258e+00,2.734866619110107422e+00,2.673407554626464844e+00,2.614650011062622070e+00,2.558419466018676758e+00,2.504556894302368164e+00,2.452915191650390625e+00,2.403360128402709961e+00,2.355767965316772461e+00,2.310023784637451172e+00,2.266022205352783203e+00,2.223665952682495117e+00,2.182863950729370117e+00,2.143532276153564453e+00,2.105592966079711914e+00,2.068973064422607422e+00,2.033605337142944336e+00,1.999426484107971191e+00,1.966377615928649902e+00,1.934403419494628906e+00,1.903452396392822266e+00,1.873476266860961914e+00,1.844429612159729004e+00
5.000000000000000000e+00,5.000000000000000000e+00,5.000000000000000000e+00,5.000000000000000000e+00,5.000000000000000000e+00,5.000000000000000000e+00,5.000000000000000000e+00,5.000000000000000000e+00,5.000000000000000000e+00,5.000000000000000000e+00,5.000000000000000000e+00,5.000000000000000000e+00,5.000000000000000000e+00,5.000000000000000000e+00,5.000000000000000000e+00,5.000000000000000000e+00,5.000000000000000000e+00,5.000000000000000000e+00,5.000000000000000000e+00,5.000000000000000000e+00,5.000000000000000000e+00,5.000000000000000000e+00,5.000000000000000000e+00,5.000000000000000000e+00,5.000000000000000000e+00,5.000000000000000000e+00,5.000000000000000000e+00,5.000000000000000000e+00,5.000000000000000000e+00,5.000000000000000000e+00,5.000000000000000000e+00,1.425495028495788574e+00,1.379774928092956543e+00,1.368362069129943848e+00,1.385642528533935547e+00,1.402149200439453125e+00,5.000000000000000000e+00,5.000000000000000000e+00,5.000000000000000000e+00,4.856020450592041016e+00,1.159510493278503418e+00,1.135706901550292969e+00,1.129384875297546387e+00,1.127548098564147949e+00,1.138092637062072754e+00,3.900680303573608398e+00,3.776842117309570312e+00,3.660625219345092773e+00,3.551347017288208008e+00,3.448403835296630859e+00,3.351260423660278320e+00,3.259440660476684570e+00,3.172518014907836914e+00,3.090111017227172852e+00,3.011876821517944336e+00,2.937506198883056641e+00,2.866719722747802734e+00,2.799264669418334961e+00,2.734910964965820312e+00,2.673449754714965820e+00,2.614690303802490234e+00,2.558458089828491211e+00,2.504593849182128906e+00,2.452950954437255859e+00,2.403394222259521484e+00,2.355800628662109375e+00,2.310055255889892578e+00,2.266052722930908203e+00,2.223695039749145508e+00,2.182892084121704102e+00,2.143559455871582031e+00,2.105619192123413086e+00,2.068998336791992188e+00,2.033629894256591797e+00,1.999450087547302246e+00,1.966400384902954102e+00,1.934425473213195801e+00,1.903473734855651855e+00,1.873496890068054199e+00,1.844449639320373535e+00
5.000000000000000000e+00,5.000000000000000000e+00,5.000000000000000000e+00,5.000000000000000000e+00,5.000000000000000000e+00,5.000000000000000000e+00,5.000000000000000000e+00,5.000000000000000000e+00,5.000000000000000000e+00,5.000000000000000000e+00,5.000000000000000000e+00,5.000000000000000000e+00,5.000000000000000000e+00,5.000000000000000000e+00,5.000000000000000000e+00,5.000000000000000000e+00,5.000000000000000000e+00,5.000000000000000000e+00,5.000000000000000000e+00,5.000000000000000000e+00,5.000000000000000000e+00,5.000000000000000000e+00,5.000000000000000000e+00,5.000000000000000000e+00,5.000000000000000000e+00,5.000000000000000000e+00,5.000000000000000000e+00,5.000000000000000000e+00,5.000000000000000000e+00,5.000000000000000000e+00,5.000000000000000000e+00,1.455615878105163574e+00,1.389016032218933105e+00,1.377858161926269531e+00,1.394515156745910645e+00,1.410284161567687988e+00,5.000000000000000000e+00,5.000000000000000000e+00,5.000000000000000000e+00,4.856159687042236328e+00,1.165950536727905273e+00,1.142116665840148926e+00,1.135723352432250977e+00,1.131424188613891602e+00,1.147462010383605957e+00,3.900770664215087891e+00,3.776926279067993164e+00,3.660704135894775391e+00,3.551421403884887695e+00,3.448474168777465820e+00,3.351326942443847656e+00,3.259503364562988281e+00,3.172577381134033203e+00,3.090167522430419922e+00,3.011930465698242188e+00,2.937557220458984375e+00,2.866768121719360352e+00,2.799310922622680664e+00,2.734955072402954102e+00,2.673492193222045898e+00,2.614730596542358398e+00,2.558496713638305664e+00,2.504630804061889648e+00,2.452986240386962891e+00,2.403428554534912109e+00,2.355833530426025391e+00,2.310086727142333984e+00,2.266083002090454102e+00,2.223724365234375000e+00,2.182920217514038086e+00,2.143586635589599609e+00,2.105645418167114258e+00,2.069023609161376953e+00,2.033654451370239258e+00,1.999473690986633301e+00,1.966423273086547852e+00,1.934447526931762695e+00,1.903495192527770996e+00,1.873517632484436035e+00,1.844469785690307617e+00
5.000000000000000000e+00,5.000000000000000000e+00,5.000000000000000000e+00,5.000000000000000000e+00,5.000000000000000000e+00,5.000000000000000000e+00,5.000000000000000000e+00,5.000000000000000000e+00,5.000000000000000000e+00,5.000000000000000000e+00,5.000000000000000000e+00,5.000000000000000000e+00,5.000000000000000000e+00,5.000000000000000000e+00,5.000000000000000000e+00,5.000000000000000000e+00,5.000000000000000000e+00,5.000000000000000000e+00,5.000000000000000000e+00,5.000000000000000000e+00,5.000000000000000000e+00,5.000000000000000000e+00,5.000000000000000000e+00,5.000000000000000000e+00,5.000000000000000000e+00,5.000000000000000000e+00,5.000000000000000000e+00,5.000000000000000000e+00,5.000000000000000000e+00,5.000000000000000000e+00,5.000000000000000000e+00,1.451243758201599121e+00,1.404610633850097656e+00,1.389344334602355957e+00,1.406462550163269043e+00,1.442328691482543945e+00,5.000000000000000000e+00,5.000000000000000000e+00,5.000000000000000000e+00,4.856298923492431641e+00,1.169795513153076172e+00,1.148599267005920410e+00,1.142133235931396484e+00,1.135739922523498535e+00,1.150945305824279785e+00,3.900860309600830078e+00,3.777010917663574219e+00,3.660783290863037109e+00,3.551495790481567383e+00,3.448544263839721680e+00,3.351393222808837891e+00,3.259566307067871094e+00,3.172636747360229492e+00,3.090223789215087891e+00,3.011983871459960938e+00,2.937608242034912109e+00,2.866816759109497070e+00,2.799357175827026367e+00,2.734999179840087891e+00,2.673534393310546875e+00,2.614771127700805664e+00,2.558535337448120117e+00,2.504667997360229492e+00,2.453021764755249023e+00,2.403462648391723633e+00,2.355866432189941406e+00,2.310118436813354492e+00,2.266113281250000000e+00,2.223753690719604492e+00,2.182948589324951172e+00,2.143613576889038086e+00,2.105671405792236328e+00,2.069048881530761719e+00,2.033678770065307617e+00,1.999497532844543457e+00,1.966446042060852051e+00,1.934469699859619141e+00,1.903516530990600586e+00,1.873538374900817871e+00,1.844489812850952148e+00
5.000000000000000000e+00,5.000000000000000000e+00,5.000000000000000000e+00,5.000000000000000000e+00,5.000000000000000000e+00,5.000000000000000000e+00,5.000000000000000000e+00,5.000000000000000000e+00,5.000000000000000000e+00,5.000000000000000000e+00,5.000000000000000000e+00,5.000000000000000000e+00,5.000000000000000000e+00,5.000000000000000000e+00,5.000000000000000000e+00,5.000000000000000000e+00,5.000000000000000000e+00,5.000000000000000000e+00,5.000000000000000000e+00,5.000000000000000000e+00,5.000000000000000000e+00,5.000000000000000000e+00,5.000000000000000000e+00,5.000000000000000000e+00,5.000000000000000000e+00,5.000000000000000000e+00,5.000000000000000000e+00,5.000000000000000000e+00,5.000000000000000000e+00,5.000000000000000000e+00,5.000000000000000000e+00,1.460437417030334473e+00,1.428051233291625977e+00,1.413707375526428223e+00,1.433383226394653320e+00,5.000000000000000000e+00,5.000000000000000000e+00,5.000000000000000000e+00,5.000000000000000000e+00,4.856438159942626953e+00,1.173217415809631348e+00,1.153394222259521484e+00,1.147078633308410645e+00,1.140831589698791504e+00,1.154449820518493652e+00,3.900950193405151367e+00,3.777095079421997070e+00,3.660862684249877930e+00,3.551570177078247070e+00,3.448614358901977539e+00,3.351459503173828125e+00,3.259629011154174805e+00,3.172696590423583984e+00,3.090280055999755859e+00,3.012037515640258789e+00,2.937659025192260742e+00,2.866865396499633789e+00,2.799403429031372070e+00,2.735043525695800781e+00,2.673576354980468750e+00,2.614811420440673828e+00,2.558574199676513672e+00,2.504704952239990234e+00,2.453057289123535156e+00,2.403496742248535156e+00,2.355899095535278320e+00,2.310149908065795898e+00,2.266143560409545898e+00,2.223782777786254883e+00,2.182976722717285156e+00,2.143640995025634766e+00,2.105697631835937500e+00,2.069074153900146484e+00,2.033703088760375977e+00,1.999521136283874512e+00,1.966469168663024902e+00,1.934491753578186035e+00,1.903537988662719727e+00,1.873559117317199707e+00,1.844509959220886230e+00
5.000000000000000000e+00,5.000000000000000000e+00,5.000000000000000000e+00,5.000000000000000000e+00,5.000000000000000000e+00,5.000000000000000000e+00,5.000000000000000000e+00,5.000000000000000000e+00,5.000000000000000000e+00,5.000000000000000000e+00,5.000000000000000000e+00,5.000000000000000000e+00,5.000000000000000000e+00,5.000000000000000000e+00,5.000000000000000000e+00,5.000000000000000000e+00,5.000000000000000000e+00,5.000000000000000000e+00,5.000000000000000000e+00,5.000000000000000000e+00,5.000000000000000000e+00,5.000000000000000000e+00,5.000000000000000000e+00,5.000000000000000000e+00,5.000000000000000000e+00,5.000000000000000000e+00,5.000000000000000000e+00,5.000000000000000000e+00,5.000000000000000000e+00,5.000000000000000000e+00,5.000000000000000000e+00,1.476377487182617188e+00,1.457364201545715332e+00,1.442736506462097168e+00,1.466151118278503418e+00,5.000000000000000000e+00,5.000000000000000000e+00,5.000000000000000000e+00,5.000000000000000000e+00,4.856577396392822266e+00,1.172402143478393555e+00,1.151297569274902344e+00,1.145147085189819336e+00,1.138921141624450684e+00,1.149633288383483887e+00,3.901039838790893555e+00,3.777179241180419922e+00,3.660941839218139648e+00,3.551645040512084961e+00,3.448684692382812500e+00,3.351525783538818359e+00,3.259691715240478516e+00,3.172755956649780273e+00,3.090336799621582031e+00,3.012090921401977539e+00,2.937710046768188477e+00,2.866914033889770508e+00,2.799449920654296875e+00,2.735087633132934570e+00,2.673618555068969727e+00,2.614851951599121094e+00,2.558612823486328125e+00,2.504742145538330078e+00,2.453092813491821289e+00,2.403530836105346680e+00,2.355931997299194336e+00,2.310181379318237305e+00,2.266174077987670898e+00,2.223812103271484375e+00,2.183004617691040039e+00,2.143667936325073242e+00,2.105723857879638672e+00,2.069099426269531250e+00,2.033727645874023438e+00,1.999544620513916016e+00,1.966491937637329102e+00,1.934514045715332031e+00,1.903559327125549316e+00,1.873579740524291992e+00,1.844529986381530762e+00
5.000000000000000000e+00,5.000000000000000000e+00,5.000000000000000000e+00,5.000000000000000000e+00,5.000000000000000000e+00,5.000000000000000000e+00,5.000000000000000000e+00,5.000000000000000000e+00,5.000000000000000000e+00,5.000000000000000000e+00,5.000000000000000000e+00,5.000000000000000000e+00,5.000000000000000000e+00,5.000000000000000000e+00,5.000000000000000000e+00,5.000000000000000000e+00,5.000000000000000000e+00,5.000000000000000000e+00,5.000000000000000000e+00,5.000000000000000000e+00,5.000000000000000000e+00,5.000000000000000000e+00,5.000000000000000000e+00,5.000000000000000000e+00,5.000000000000000000e+00,5.000000000000000000e+00,5.000000000000000000e+00,5.000000000000000000e+00,5.000000000000000000e+00,5.000000000000000000e+00,1.537206292152404785e+00,1.495794177055358887e+00,1.480309844017028809e+00,1.472982764244079590e+00,1.516266465187072754e+00,5.000000000000000000e+00,5.000000000000000000e+00,5.000000000000000000e+00,5.000000000000000000e+00,4.856716632843017578e+00,1.171098709106445312e+00,1.148694276809692383e+00,1.143222093582153320e+00,1.137017130851745605e+00,1.144710421562194824e+00,3.901130199432373047e+00,3.777263402938842773e+00,3.661020994186401367e+00,3.551719427108764648e+00,3.448755025863647461e+00,3.351592063903808594e+00,3.259754419326782227e+00,3.172815322875976562e+00,3.090393066406250000e+00,3.012144804000854492e+00,2.937761068344116211e+00,2.866962432861328125e+00,2.799496173858642578e+00,2.735131978988647461e+00,2.673660755157470703e+00,2.614892244338989258e+00,2.558651447296142578e+00,2.504779100418090820e+00,2.453128576278686523e+00,2.403564929962158203e+00,2.355964660644531250e+00,2.310213088989257812e+00,2.266204357147216797e+00,2.223841190338134766e+00,2.183032751083374023e+00,2.143695116043090820e+00,2.105750083923339844e+00,2.069124937057495117e+00,2.033751964569091797e+00,1.999568223953247070e+00,1.966514706611633301e+00,1.934536099433898926e+00,1.903580904006958008e+00,1.873600482940673828e+00,1.844550013542175293e+00
5.000000000000000000e+00,5.000000000000000000e+00,5.000000000000000000e+00,5.000000000000000000e+00,5.000000000000000000e+00,5.000000000000000000e+00,5.000000000000000000e+00,5.000000000000000000e+00,5.000000000000000000e+00,5.000000000000000000e+00,5.000000000000000000e+00,5.000000000000000000e+00,5.000000000000000000e+00,5.000000000000000000e+00,5.000000000000000000e+00,5.000000000000000000e+00,5.000000000000000000e+00,5.000000000000000000e+00,5.000000000000000000e+00,5.000000000000000000e+00,5.000000000000000000e+00,5.000000000000000000e+00,5.000000000000000000e+00,5.000000000000000000e+00,5.000000000000000000e+00,5.000000000000000000e+00,5.000000000000000000e+00,5.000000000000000000e+00,5.000000000000000000e+00,5.000000000000000000e+00,5.000000000000000000e+00,1.514985561370849609e+00,1.501594901084899902e+00,1.506082415580749512e+00,1.538002014160156250e+00,5.000000000000000000e+00,5.000000000000000000e+00,5.000000000000000000e+00,5.000000000000000000e+00,4.856855869293212891e+00,1.169798016548156738e+00,1.146102666854858398e+00,1.141114473342895508e+00,1.135119199752807617e+00,1.139829397201538086e+00,3.901220083236694336e+00,3.777347564697265625e+00,3.661099910736083984e+00,3.551793813705444336e+00,3.448825359344482422e+00,3.351658821105957031e+00,3.259817123413085938e+00,3.172874689102172852e+00,3.090449571609497070e+00,3.012198448181152344e+00,2.937812089920043945e+00,2.867010831832885742e+00,2.799542427062988281e+00,2.735176086425781250e+00,2.673703193664550781e+00,2.614932537078857422e+00,2.558690071105957031e+00,2.504816055297851562e+00,2.453164100646972656e+00,2.403599262237548828e+00,2.355997323989868164e+00,2.310244560241699219e+00,2.266234636306762695e+00,2.223870515823364258e+00,2.183060884475708008e+00,2.143722295761108398e+00,2.105776309967041016e+00,2.069150209426879883e+00,2.033776521682739258e+00,1.999591827392578125e+00,1.966537594795227051e+00,1.934558153152465820e+00,1.903602242469787598e+00,1.873621225357055664e+00,1.844570159912109375e+00
5.000000000000000000e+00,5.000000000000000000e+00,5.000000000000000000e+00,5.000000000000000000e+00,5.000000000000000000e+00,5.000000000000000000e+00,5.000000000000000000e+00,5.000000000000000000e+00,5.000000000000000000e+00,5.000000000000000000e+00,5.000000000000000000e+00,5.000000000000000000e+00,5.000000000000000000e+00,5.000000000000000000e+00,5.000000000000000000e+00,5.000000000000000000e+00,5.000000000000000000e+00,5.000000000000000000e+00,5.000000000000000000e+00,5.000000000000000000e+00,5.000000000000000000e+00,5.000000000000000000e+00,5.000000000000000000e+00,5.000000000000000000e+00,5.000000000000000000e+00,5.000000000000000000e+00,5.000000000000000000e+00,5.000000000000000000e+00,5.000000000000000000e+00,5.000000000000000000e+00,5.000000000000000000e+00,1.534098267555236816e+00,1.515864849090576172e+00,1.522628188133239746e+00,1.554079651832580566e+00,5.000000000000000000e+00,5.000000000000000000e+00,5.000000000000000000e+00,5.000000000000000000e+00,4.856994628906250000e+00,1.168500423431396484e+00,1.143522739410400391e+00,1.138556957244873047e+00,1.133227705955505371e+00,1.134989857673645020e+00,3.901309728622436523e+00,3.777432203292846680e+00,3.661179065704345703e+00,3.551868200302124023e+00,3.448895454406738281e+00,3.351725101470947266e+00,3.259880065917968750e+00,3.172934055328369141e+00,3.090505838394165039e+00,3.012251853942871094e+00,2.937863111495971680e+00,2.867059707641601562e+00,2.799588680267333984e+00,2.735220193862915039e+00,2.673745393753051758e+00,2.614973068237304688e+00,2.558728694915771484e+00,2.504853248596191406e+00,2.453199625015258789e+00,2.403633356094360352e+00,2.356030225753784180e+00,2.310276031494140625e+00,2.266265153884887695e+00,2.223899602890014648e+00,2.183089256286621094e+00,2.143749475479125977e+00,2.105802536010742188e+00,2.069175481796264648e+00,2.033800840377807617e+00,1.999615430831909180e+00,1.966560363769531250e+00,1.934580326080322266e+00,1.903623700141906738e+00,1.873642206192016602e+00,1.844590187072753906e+00
5.000000000000000000e+00,5.000000000000000000e+00,5.000000000000000000e+00,5.000000000000000000e+00,5.000000000000000000e+00,5.000000000000000000e+00,5.000000000000000000e+00,5.000000000000000000e+00,5.000000000000000000e+00,5.000000000000000000e+00,5.000000000000000000e+00,5.000000000000000000e+00,5.000000000000000000e+00,5.000000000000000000e+00,5.000000000000000000e+00,5.000000000000000000e+00,5.000000000000000000e+00,5.000000000000000000e+00,5.000000000000000000e+00,5.000000000000000000e+00,5.000000000000000000e+00,5.000000000000000000e+00,5.000000000000000000e+00,5.000000000000000000e+00,5.000000000000000000e+00,5.000000000000000000e+00,5.000000000000000000e+00,5.000000000000000000e+00,5.000000000000000000e+00,5.000000000000000000e+00,5.000000000000000000e+00,1.553699493408203125e+00,1.530408620834350586e+00,1.539541721343994141e+00,1.570496916770935059e+00,5.000000000000000000e+00,5.000000000000000000e+00,5.000000000000000000e+00,5.000000000000000000e+00,4.857132911682128906e+00,1.167652010917663574e+00,1.140954494476318359e+00,1.136010885238647461e+00,1.131109952926635742e+00,1.130191206932067871e+00,3.901399612426757812e+00,3.777516365051269531e+00,3.661258697509765625e+00,3.551942825317382812e+00,3.448965787887573242e+00,3.351791381835937500e+00,3.259942770004272461e+00,3.172993898391723633e+00,3.090562105178833008e+00,3.012305498123168945e+00,2.937913894653320312e+00,2.867108106613159180e+00,2.799634933471679688e+00,2.735264301300048828e+00,2.673787593841552734e+00,2.615013360977172852e+00,2.558767557144165039e+00,2.504890203475952148e+00,2.453235149383544922e+00,2.403667449951171875e+00,2.356063127517700195e+00,2.310307502746582031e+00,2.266295433044433594e+00,2.223928928375244141e+00,2.183117389678955078e+00,2.143776655197143555e+00,2.105828523635864258e+00,2.069200754165649414e+00,2.033825397491455078e+00,1.999639034271240234e+00,1.966583251953125000e+00,1.934602379798889160e+00,1.903645038604736328e+00,1.873662829399108887e+00,1.844610452651977539e+00
5.000000000000000000e+00,5.000000000000000000e+00,5.000000000000000000e+00,5.000000000000000000e+00,5.000000000000000000e+00,5.000000000000000000e+00,5.000000000000000000e+00,5.000000000000000000e+00,5.000000000000000000e+00,5.000000000000000000e+00,5.000000000000000000e+00,5.000000000000000000e+00,5.000000000000000000e+00,5.000000000000000000e+00,5.000000000000000000e+00,5.000000000000000000e+00,5.000000000000000000e+00,5.000000000000000000e+00,5.000000000000000000e+00,5.000000000000000000e+00,5.000000000000000000e+00,5.000000000000000000e+00,5.000000000000000000e+00,5.000000000000000000e+00,5.000000000000000000e+00,5.000000000000000000e+00,5.000000000000000000e+00,5.000000000000000000e+00,5.000000000000000000e+00,5.000000000000000000e+00,5.000000000000000000e+00,1.573807954788208008e+00,1.545839071273803711e+00,1.556397080421447754e+00,1.587264895439147949e+00,5.000000000000000000e+00,5.000000000000000000e+00,5.000000000000000000e+00,5.000000000000000000e+00,4.857271671295166016e+00,1.166841149330139160e+00,1.138397693634033203e+00,1.133476138114929199e+00,1.128597021102905273e+00,1.125432968139648438e+00,3.901489496231079102e+00,3.777600526809692383e+00,3.661337614059448242e+00,3.552017688751220703e+00,3.449035882949829102e+00,3.351857662200927734e+00,3.260005474090576172e+00,3.173053264617919922e+00,3.090618848800659180e+00,3.012358903884887695e+00,2.937964916229248047e+00,2.867156744003295898e+00,2.799681186676025391e+00,2.735308408737182617e+00,2.673829793930053711e+00,2.615053892135620117e+00,2.558806180953979492e+00,2.504927396774291992e+00,2.453270673751831055e+00,2.403701543807983398e+00,2.356095790863037109e+00,2.310339212417602539e+00,2.266325712203979492e+00,2.223958015441894531e+00,2.183145523071289062e+00,2.143803834915161133e+00,2.105854988098144531e+00,2.069225788116455078e+00,2.033849716186523438e+00,1.999662637710571289e+00,1.966606020927429199e+00,1.934624433517456055e+00,1.903666496276855469e+00,1.873683571815490723e+00,1.844630599021911621e+00
5.000000000000000000e+00,5.000000000000000000e+00,5.000000000000000000e+00,5.000000000000000000e+00,5.000000000000000000e+00,5.000000000000000000e+00,5.000000000000000000e+00,5.000000000000000000e+00,5.000000000000000000e+00,5.000000000000000000e+00,5.000000000000000000e+00,5.000000000000000000e+00,5.000000000000000000e+00,5.000000000000000000e+00,5.000000000000000000e+00,5.000000000000000000e+00,5.000000000000000000e+00,5.000000000000000000e+00,5.000000000000000000e+00,5.000000000000000000e+00,5.000000000000000000e+00,5.000000000000000000e+00,5.000000000000000000e+00,5.000000000000000000e+00,5.000000000000000000e+00,5.000000000000000000e+00,5.000000000000000000e+00,5.000000000000000000e+00,5.000000000000000000e+00,5.000000000000000000e+00,5.000000000000000000e+00,1.595156192779541016e+00,1.563294410705566406e+00,1.573077917098999023e+00,5.000000000000000000e+00,5.000000000000000000e+00,5.000000000000000000e+00,5.000000000000000000e+00,5.000000000000000000e+00,4.857410430908203125e+00,1.167552709579467773e+00,1.137639760971069336e+00,1.131341814994812012e+00,1.126428842544555664e+00,1.125676035881042480e+00,3.901579618453979492e+00,3.777684926986694336e+00,3.661416769027709961e+00,3.552092075347900391e+00,3.449106454849243164e+00,3.351923942565917969e+00,3.260068416595458984e+00,3.173112630844116211e+00,3.090675115585327148e+00,3.012412786483764648e+00,2.938015937805175781e+00,2.867205142974853516e+00,2.799727439880371094e+00,2.735352993011474609e+00,2.673871994018554688e+00,2.615094184875488281e+00,2.558844804763793945e+00,2.504964351654052734e+00,2.453306198120117188e+00,2.403735637664794922e+00,2.356128692626953125e+00,2.310370683670043945e+00,2.266356229782104492e+00,2.223987340927124023e+00,2.183173656463623047e+00,2.143830776214599609e+00,2.105880975723266602e+00,2.069251298904418945e+00,2.033874273300170898e+00,1.999686241149902344e+00,1.966628909111022949e+00,1.934646487236022949e+00,1.903687834739685059e+00,1.873704314231872559e+00,1.844650626182556152e+00
5.000000000000000000e+00,5.000000000000000000e+00,5.000000000000000000e+00,5.000000000000000000e+00,5.000000000000000000e+00,5.000000000000000000e+00,5.000000000000000000e+00,5.000000000000000000e+00,5.000000000000000000e+00,5.000000000000000000e+00,5.000000000000000000e+00,5.000000000000000000e+00,5.000000000000000000e+00,5.000000000000000000e+00,5.000000000000000000e+00,5.000000000000000000e+00,5.000000000000000000e+00,5.000000000000000000e+00,5.000000000000000000e+00,5.000000000000000000e+00,5.000000000000000000e+00,5.000000000000000000e+00,5.000000000000000000e+00,5.000000000000000000e+00,5.000000000000000000e+00,5.000000000000000000e+00,5.000000000000000000e+00,5.000000000000000000e+00,5.000000000000000000e+00,5.000000000000000000e+00,5.000000000000000000e+00,1.618611097335815430e+00,1.588997364044189453e+00,1.591817736625671387e+00,5.000000000000000000e+00,5.000000000000000000e+00,5.000000000000000000e+00,5.000000000000000000e+00,5.000000000000000000e+00,4.857548713684082031e+00,1.169212102890014648e+00,1.139163136482238770e+00,1.129433512687683105e+00,1.124537110328674316e+00,1.131005525588989258e+00,3.901669502258300781e+00,3.777769088745117188e+00,3.661495923995971680e+00,3.552166461944580078e+00,3.449176549911499023e+00,3.351990699768066406e+00,3.260131120681762695e+00,3.173171997070312500e+00,3.090731620788574219e+00,3.012466430664062500e+00,2.938066959381103516e+00,2.867253780364990234e+00,2.799773693084716797e+00,2.735397100448608398e+00,2.673914432525634766e+00,2.615134477615356445e+00,2.558883428573608398e+00,2.505001544952392578e+00,2.453341722488403320e+00,2.403769731521606445e+00,2.356161355972290039e+00,2.310402154922485352e+00,2.266386508941650391e+00,2.224016666412353516e+00,2.183201789855957031e+00,2.143857955932617188e+00,2.105907201766967773e+00,2.069276571273803711e+00,2.033898591995239258e+00,1.999709844589233398e+00,1.966651678085327148e+00,1.934668660163879395e+00,1.903709173202514648e+00,1.873725056648254395e+00,1.844670772552490234e+00
4.871769428253173828e+00,4.870548248291015625e+00,4.869328022003173828e+00,4.868107795715332031e+00,4.866888523101806641e+00,4.865670204162597656e+00,4.864451885223388672e+00,4.863234043121337891e+00,4.862017631530761719e+00,4.860801219940185547e+00,4.859585285186767578e+00,4.858370780944824219e+00,4.857156276702880859e+00,4.855942249298095703e+00,4.854729175567626953e+00,4.853516578674316406e+00,4.852304458618164062e+00,4.851093292236328125e+00,4.849882602691650391e+00,4.848671913146972656e+00,4.847462654113769531e+00,4.846253871917724609e+00,4.845045089721679688e+00,4.843837738037109375e+00,4.842630386352539062e+00,4.841423511505126953e+00,4.840218067169189453e+00,4.839012145996093750e+00,4.837807655334472656e+00,4.836603641510009766e+00,4.835399627685546875e+00,1.642776608467102051e+00,1.609678864479064941e+00,1.611009359359741211e+00,4.830591201782226562e+00,4.829391002655029297e+00,4.828190803527832031e+00,4.826991558074951172e+00,4.825792789459228516e+00,4.824594497680664062e+00,4.667114257812500000e+00,1.140690565109252930e+00,1.127531647682189941e+00,1.122651576995849609e+00,1.136148571968078613e+00,3.901759386062622070e+00,3.777853727340698242e+00,3.661575078964233398e+00,3.552240848541259766e+00,3.449246883392333984e+00,3.352056980133056641e+00,3.260194063186645508e+00,3.173231601715087891e+00,3.090787887573242188e+00,3.012519836425781250e+00,2.938117980957031250e+00,2.867302417755126953e+00,2.799819946289062500e+00,2.735441207885742188e+00,2.673956632614135742e+00,2.615175008773803711e+00,2.558922052383422852e+00,2.505038499832153320e+00,2.453377246856689453e+00,2.403803825378417969e+00,2.356194257736206055e+00,2.310433626174926758e+00,2.266416788101196289e+00,2.224045753479003906e+00,2.183229923248291016e+00,2.143885135650634766e+00,2.105933427810668945e+00,2.069301843643188477e+00,2.033923149108886719e+00,1.999733686447143555e+00,1.966674566268920898e+00,1.934690713882446289e+00,1.903730630874633789e+00,1.873745679855346680e+00,1.844690799713134766e+00
3.776622295379638672e+00,3.775888442993164062e+00,3.775154590606689453e+00,3.774421215057373047e+00,3.773688554763793945e+00,3.772955656051635742e+00,3.772223234176635742e+00,3.771491050720214844e+00,3.770759105682373047e+00,3.770027399063110352e+00,3.769296407699584961e+00,3.768565416336059570e+00,3.767834424972534180e+00,3.767103910446166992e+00,3.766373872756958008e+00,3.765643835067749023e+00,3.764914512634277344e+00,3.764184951782226562e+00,3.763455867767333984e+00,3.762727022171020508e+00,3.761998653411865234e+00,3.761270284652709961e+00,3.760542869567871094e+00,3.759814977645874023e+00,3.759087562561035156e+00,3.758360385894775391e+00,3.757633686065673828e+00,3.756906986236572266e+00,3.756181240081787109e+00,3.755455017089843750e+00,3.754729270935058594e+00,1.668052434921264648e+00,1.628713846206665039e+00,1.630669355392456055e+00,3.751829147338867188e+00,3.751105308532714844e+00,3.750381231307983398e+00,3.749657392501831055e+00,3.748933792114257812e+00,3.748210668563842773e+00,3.747487783432006836e+00,1.142222166061401367e+00,1.125636100769042969e+00,1.120772480964660645e+00,1.134096622467041016e+00,3.743877649307250977e+00,3.743156194686889648e+00,3.661654472351074219e+00,3.552315473556518555e+00,3.449316978454589844e+00,3.352123260498046875e+00,3.260256767272949219e+00,3.173291206359863281e+00,3.090844392776489258e+00,3.012573480606079102e+00,2.938169002532958984e+00,2.867351055145263672e+00,2.799866199493408203e+00,2.735485315322875977e+00,2.673998832702636719e+00,2.615215539932250977e+00,2.558960914611816406e+00,2.505075454711914062e+00,2.453412771224975586e+00,2.403837919235229492e+00,2.356227159500122070e+00,2.310465335845947266e+00,2.266447067260742188e+00,2.224075078964233398e+00,2.183258056640625000e+00,2.143912315368652344e+00,2.105959653854370117e+00,2.069327116012573242e+00,2.033947467803955078e+00,1.999757289886474609e+00,1.966697573661804199e+00,1.934712767601013184e+00,1.903751969337463379e+00,1.873766422271728516e+00,1.844710826873779297e+00
3.083473920822143555e+00,3.082984685897827148e+00,3.082495689392089844e+00,3.082006931304931641e+00,3.081518173217773438e+00,3.081029415130615234e+00,3.080540895462036133e+00,3.080052614212036133e+00,3.079564571380615234e+00,3.079076766967773438e+00,3.078588724136352539e+00,3.078101158142089844e+00,3.077613592147827148e+00,3.077126026153564453e+00,3.076638936996459961e+00,3.076152086257934570e+00,3.075664997100830078e+00,3.075178146362304688e+00,3.074691534042358398e+00,3.074205160140991211e+00,3.073718786239624023e+00,3.073232650756835938e+00,3.072746753692626953e+00,3.072260856628417969e+00,3.071775197982788086e+00,3.071289539337158203e+00,3.070804119110107422e+00,3.070318937301635742e+00,3.069833993911743164e+00,3.069349050521850586e+00,3.068864345550537109e+00,3.068379640579223633e+00,1.671744585037231445e+00,1.650956749916076660e+00,3.066926956176757812e+00,3.066442966461181641e+00,3.065958976745605469e+00,3.065475463867187500e+00,3.064991712570190430e+00,3.064508438110351562e+00,3.064025402069091797e+00,1.143757820129394531e+00,1.124489903450012207e+00,1.118899583816528320e+00,1.132051944732666016e+00,3.061611175537109375e+00,3.061129093170166016e+00,3.060647010803222656e+00,3.060164928436279297e+00,3.059683084487915039e+00,3.059201240539550781e+00,3.058719635009765625e+00,3.058238506317138672e+00,3.057757139205932617e+00,3.012627124786376953e+00,2.938219785690307617e+00,2.867399454116821289e+00,2.799912929534912109e+00,2.735529422760009766e+00,2.674041032791137695e+00,2.615255832672119141e+00,2.558999538421630859e+00,2.505112648010253906e+00,2.453448295593261719e+00,2.403872013092041016e+00,2.356259822845458984e+00,2.310496807098388672e+00,2.266477346420288086e+00,2.224104166030883789e+00,2.183286190032958984e+00,2.143939495086669922e+00,2.105985879898071289e+00,2.069352388381958008e+00,2.033972024917602539e+00,1.999780893325805664e+00,1.966720342636108398e+00,1.934735059738159180e+00,1.903773427009582520e+00,1.873787164688110352e+00,1.844730973243713379e+00
2.605305194854736328e+00,2.604955911636352539e+00,2.604606628417968750e+00,2.604257822036743164e+00,2.603908777236938477e+00,2.603559970855712891e+00,2.603210926055908203e+00,2.602862358093261719e+00,2.602513551712036133e+00,2.602165222167968750e+00,2.601816892623901367e+00,2.601468324661254883e+00,2.601120233535766602e+00,2.600771903991699219e+00,2.600423812866210938e+00,2.600076198577880859e+00,2.599728107452392578e+00,2.599380493164062500e+00,2.599032640457153320e+00,2.598685026168823242e+00,2.598337411880493164e+00,2.597990274429321289e+00,2.597642898559570312e+00,2.597295761108398438e+00,2.596948623657226562e+00,2.596601486206054688e+00,2.596254587173461914e+00,2.595907688140869141e+00,2.595561027526855469e+00,2.595214366912841797e+00,2.594867706298828125e+00,2.594521284103393555e+00,1.673304319381713867e+00,1.665980458259582520e+00,2.593482494354248047e+00,2.593136310577392578e+00,2.592790126800537109e+00,2.592444181442260742e+00,2.592098474502563477e+00,2.591752767562866211e+00,2.591407060623168945e+00,1.145297646522521973e+00,1.123680353164672852e+00,1.117033004760742188e+00,1.130014777183532715e+00,2.589680433273315430e+00,2.589335203170776367e+00,2.588990211486816406e+00,2.588645219802856445e+00,2.588300466537475586e+00,2.587955713272094727e+00,2.587611198425292969e+00,2.587266683578491211e+00,2.586922168731689453e+00,2.586577892303466797e+00,2.586233377456665039e+00,2.585889339447021484e+00,2.585545301437377930e+00,2.585201263427734375e+00,2.584857463836669922e+00,2.584513664245605469e+00,2.559038400650024414e+00,2.505149841308593750e+00,2.453484058380126953e+00,2.403906106948852539e+00,2.356292486190795898e+00,2.310528278350830078e+00,2.266507863998413086e+00,2.224133253097534180e+00,2.183314323425292969e+00,2.143966674804687500e+00,2.106012105941772461e+00,2.069377660751342773e+00,2.033996343612670898e+00,1.999804496765136719e+00,1.966743230819702148e+00,1.934757232666015625e+00,1.903795003890991211e+00,1.873807907104492188e+00,1.844751000404357910e+00
2.255485296249389648e+00,2.255225419998168945e+00,2.254965543746948242e+00,2.254705905914306641e+00,2.254446268081665039e+00,2.254186630249023438e+00,2.253927230834960938e+00,2.253667593002319336e+00,2.253408193588256836e+00,2.253149032592773438e+00,2.252889633178710938e+00,2.252630472183227539e+00,2.252371311187744141e+00,2.252112150192260742e+00,2.251852989196777344e+00,2.251594305038452148e+00,2.251335382461547852e+00,2.251076459884643555e+00,2.250817537307739258e+00,2.250558853149414062e+00,2.250300168991088867e+00,2.250041484832763672e+00,2.249783039093017578e+00,2.249523878097534180e+00,2.249263525009155273e+00,2.249003171920776367e+00,2.248743057250976562e+00,2.248482942581176758e+00,2.248222589492797852e+00,2.247962474822998047e+00,2.247702360153198242e+00,2.247442483901977539e+00,1.656735181808471680e+00,1.646462798118591309e+00,2.246663093566894531e+00,2.246403217315673828e+00,2.246143579483032227e+00,2.245883941650390625e+00,2.245624542236328125e+00,2.245364904403686523e+00,2.245105504989624023e+00,1.146841645240783691e+00,1.122871994972229004e+00,1.115172624588012695e+00,1.127984762191772461e+00,2.243809223175048828e+00,2.243550062179565430e+00,2.243291139602661133e+00,2.243032217025756836e+00,2.242773294448852539e+00,2.242514371871948242e+00,2.242255687713623047e+00,2.241997003555297852e+00,2.241738319396972656e+00,2.241479635238647461e+00,2.241221189498901367e+00,2.240962505340576172e+00,2.240704298019409180e+00,2.240445852279663086e+00,2.240187644958496094e+00,2.239929437637329102e+00,2.239671230316162109e+00,2.239413022994995117e+00,2.239155054092407227e+00,2.238897085189819336e+00,2.238639116287231445e+00,2.238381147384643555e+00,2.238123416900634766e+00,2.224162578582763672e+00,2.183342456817626953e+00,2.143993854522705078e+00,2.106038331985473633e+00,2.069402933120727539e+00,2.034020900726318359e+00,1.999828100204467773e+00,1.966765999794006348e+00,1.934779286384582520e+00,1.903816342353820801e+00,1.873828649520874023e+00,1.844771146774291992e+00
1.988401055335998535e+00,1.988199114799499512e+00,1.987997293472290039e+00,1.987795352935791016e+00,1.987593531608581543e+00,1.987391829490661621e+00,1.987190008163452148e+00,1.986988425254821777e+00,1.986786723136901855e+00,1.986585140228271484e+00,1.986383557319641113e+00,1.986181974411010742e+00,1.985980510711669922e+00,1.985779047012329102e+00,1.985577702522277832e+00,1.985376358032226562e+00,1.985175013542175293e+00,1.984973669052124023e+00,1.984772443771362305e+00,1.984571337699890137e+00,1.984370112419128418e+00,1.984169006347656250e+00,1.983967900276184082e+00,1.983766794204711914e+00,1.983565807342529297e+00,1.983364939689636230e+00,1.983163952827453613e+00,1.982963085174560547e+00,1.982762217521667480e+00,1.982561469078063965e+00,1.982360720634460449e+00,1.982159972190856934e+00,1.636613845825195312e+00,1.626404047012329102e+00,1.628723263740539551e+00,1.981357812881469727e+00,1.981157302856445312e+00,1.980956792831420898e+00,1.980756402015686035e+00,1.980556011199951172e+00,1.980355620384216309e+00,1.980155348777770996e+00,1.139862895011901855e+00,1.129704952239990234e+00,1.163946270942687988e+00,1.979354500770568848e+00,1.979154348373413086e+00,1.978954315185546875e+00,1.978754281997680664e+00,1.978554248809814453e+00,1.978354334831237793e+00,1.978154420852661133e+00,1.977954506874084473e+00,1.977754712104797363e+00,1.977554917335510254e+00,1.977355122566223145e+00,1.977155447006225586e+00,1.976955771446228027e+00,1.976756215095520020e+00,1.976556539535522461e+00,1.976357102394104004e+00,1.976157546043395996e+00,1.975958108901977539e+00,1.975758671760559082e+00,1.975559234619140625e+00,1.975359916687011719e+00,1.975160598754882812e+00,1.974961400032043457e+00,1.974762082099914551e+00,1.974563002586364746e+00,1.974363803863525391e+00,1.974164724349975586e+00,1.973965644836425781e+00,1.973766565322875977e+00,1.973567605018615723e+00,1.966788887977600098e+00,1.934801340103149414e+00,1.903837800025939941e+00,1.873849511146545410e+00,1.844791173934936523e+00
1.777873516082763672e+00,1.777711987495422363e+00,1.777550578117370605e+00,1.777389407157897949e+00,1.777228116989135742e+00,1.777066707611083984e+00,1.776905417442321777e+00,1.776744127273559570e+00,1.776582956314086914e+00,1.776421785354614258e+00,1.776260495185852051e+00,1.776099443435668945e+00,1.775938272476196289e+00,1.775777220726013184e+00,1.775616168975830078e+00,1.775455117225646973e+00,1.775294065475463867e+00,1.775133132934570312e+00,1.774972200393676758e+00,1.774811267852783203e+00,1.774650335311889648e+00,1.774489521980285645e+00,1.774328708648681641e+00,1.774167895317077637e+00,1.774007081985473633e+00,1.773846387863159180e+00,1.773685693740844727e+00,1.773524999618530273e+00,1.773364305496215820e+00,1.773203611373901367e+00,1.773043036460876465e+00,1.772882461547851562e+00,1.618035435676574707e+00,1.596618413925170898e+00,1.598222255706787109e+00,1.772240519523620605e+00,1.772080063819885254e+00,1.771919727325439453e+00,1.771759271621704102e+00,1.771598935127258301e+00,1.771438717842102051e+00,1.172251224517822266e+00,1.132721900939941406e+00,1.120317339897155762e+00,1.157156348228454590e+00,1.770637512207031250e+00,1.770477414131164551e+00,1.770317316055297852e+00,1.770157217979431152e+00,1.769997239112854004e+00,1.769837141036987305e+00,1.769677162170410156e+00,1.769517183303833008e+00,1.769357323646545410e+00,1.769197344779968262e+00,1.769037485122680664e+00,1.768877625465393066e+00,1.768717885017395020e+00,1.768558025360107422e+00,1.768398284912109375e+00,1.768238544464111328e+00,1.768078923225402832e+00,1.767919182777404785e+00,1.767759561538696289e+00,1.767599940299987793e+00,1.767440319061279297e+00,1.767280817031860352e+00,1.767121315002441406e+00,1.766961812973022461e+00,1.766802310943603516e+00,1.766642928123474121e+00,1.766483426094055176e+00,1.766324043273925781e+00,1.766164779663085938e+00,1.766005396842956543e+00,1.765846133232116699e+00,1.765686869621276855e+00,1.765527606010437012e+00,1.765368461608886719e+00,1.765209317207336426e+00
1.607658267021179199e+00,1.607526302337646484e+00,1.607394218444824219e+00,1.607262253761291504e+00,1.607130408287048340e+00,1.606998443603515625e+00,1.606866478919982910e+00,1.606734633445739746e+00,1.606602787971496582e+00,1.606470942497253418e+00,1.606339097023010254e+00,1.606207370758056641e+00,1.606075525283813477e+00,1.605943799018859863e+00,1.605812072753906250e+00,1.605680346488952637e+00,1.605548739433288574e+00,1.605417013168334961e+00,1.605285406112670898e+00,1.605153799057006836e+00,1.605022192001342773e+00,1.604890584945678711e+00,1.604758977890014648e+00,1.604627490043640137e+00,1.604496002197265625e+00,1.604364514350891113e+00,1.604233026504516602e+00,1.604101538658142090e+00,1.603970170021057129e+00,1.603838682174682617e+00,1.603707313537597656e+00,1.603575944900512695e+00,1.593502640724182129e+00,1.577678084373474121e+00,1.603181958198547363e+00,1.603050708770751953e+00,1.602919459342956543e+00,1.602788209915161133e+00,1.602656960487365723e+00,1.602525830268859863e+00,1.602394700050354004e+00,1.170060157775878906e+00,1.121987700462341309e+00,1.101416349411010742e+00,1.102111816406250000e+00,1.601739168167114258e+00,1.601608037948608398e+00,1.601477026939392090e+00,1.601346015930175781e+00,1.601215124130249023e+00,1.601084113121032715e+00,1.600953221321105957e+00,1.600822329521179199e+00,1.600691437721252441e+00,1.600560545921325684e+00,1.600429654121398926e+00,1.600298881530761719e+00,1.600168108940124512e+00,1.600037336349487305e+00,1.599906444549560547e+00,1.599775671958923340e+00,1.599645018577575684e+00,1.599514365196228027e+00,1.599383592605590820e+00,1.599252939224243164e+00,1.599122405052185059e+00,1.598991751670837402e+00,1.598861098289489746e+00,1.598730683326721191e+00,1.598600149154663086e+00,1.598469614982604980e+00,1.598339200019836426e+00,1.598208665847778320e+00,1.598078250885009766e+00,1.597947716712951660e+00,1.597817301750183105e+00,1.597686886787414551e+00,1.597556591033935547e+00,1.597426176071166992e+00,1.597295880317687988e+00
1.467188239097595215e+00,1.467078208923339844e+00,1.466968297958374023e+00,1.466858386993408203e+00,1.466748476028442383e+00,1.466638565063476562e+00,1.466528773307800293e+00,1.466418862342834473e+00,1.466309070587158203e+00,1.466199159622192383e+00,1.466089367866516113e+00,1.465979576110839844e+00,1.465869903564453125e+00,1.465760111808776855e+00,1.465650320053100586e+00,1.465540647506713867e+00,1.465430974960327148e+00,1.465321302413940430e+00,1.465211629867553711e+00,1.465101957321166992e+00,1.464992284774780273e+00,1.464882612228393555e+00,1.464773058891296387e+00,1.464663505554199219e+00,1.464553833007812500e+00,1.464444279670715332e+00,1.464334726333618164e+00,1.464225292205810547e+00,1.464115738868713379e+00,1.464006304740905762e+00,1.463896751403808594e+00,1.463787317276000977e+00,1.463677883148193359e+00,1.463568449020385742e+00,1.463459014892578125e+00,1.463349699974060059e+00,1.463240265846252441e+00,1.463130950927734375e+00,1.463021516799926758e+00,1.462912321090698242e+00,1.462803006172180176e+00,1.168520927429199219e+00,1.106895804405212402e+00,1.071387767791748047e+00,1.057105302810668945e+00,1.072774291038513184e+00,1.462147593498229980e+00,1.462038397789001465e+00,1.461929202079772949e+00,1.461820006370544434e+00,1.461710810661315918e+00,1.461601734161376953e+00,1.461492657661437988e+00,1.461383461952209473e+00,1.461274385452270508e+00,1.461165308952331543e+00,1.461056351661682129e+00,1.460947275161743164e+00,1.460838317871093750e+00,1.460729241371154785e+00,1.460620284080505371e+00,1.460511326789855957e+00,1.460402369499206543e+00,1.460293412208557129e+00,1.460184454917907715e+00,1.460075616836547852e+00,1.459966659545898438e+00,1.459857821464538574e+00,1.459748983383178711e+00,1.459640145301818848e+00,1.459531307220458984e+00,1.459422469139099121e+00,1.459313750267028809e+00,1.459204912185668945e+00,1.459096193313598633e+00,1.458987474441528320e+00,1.458878755569458008e+00,1.458770036697387695e+00,1.458661317825317383e+00,1.458552598953247070e+00
1.349292874336242676e+00,1.349199891090393066e+00,1.349106907844543457e+00,1.349013924598693848e+00,1.348921060562133789e+00,1.348828077316284180e+00,1.348735094070434570e+00,1.348642230033874512e+00,1.348549365997314453e+00,1.348456501960754395e+00,1.348363637924194336e+00,1.348270773887634277e+00,1.348177909851074219e+00,1.348085165023803711e+00,1.347992300987243652e+00,1.347899436950683594e+00,1.347806692123413086e+00,1.347713947296142578e+00,1.347621083259582520e+00,1.347528338432312012e+00,1.347435593605041504e+00,1.347342967987060547e+00,1.347250223159790039e+00,1.347157478332519531e+00,1.347064733505249023e+00,1.346972107887268066e+00,1.346879482269287109e+00,1.346786737442016602e+00,1.346694111824035645e+00,1.346601486206054688e+00,1.346508860588073730e+00,1.346416234970092773e+00,1.346323728561401367e+00,1.346231102943420410e+00,1.346138477325439453e+00,1.346045970916748047e+00,1.345953464508056641e+00,1.345860838890075684e+00,1.345768332481384277e+00,1.345675826072692871e+00,1.345583319664001465e+00,1.162075042724609375e+00,1.110513448715209961e+00,1.045460224151611328e+00,1.018056154251098633e+00,9.882091879844665527e-01,9.712426066398620605e-01,1.344936251640319824e+00,1.344843864440917969e+00,1.344751477241516113e+00,1.344659090042114258e+00,1.344566822052001953e+00,1.344474434852600098e+00,1.344382047653198242e+00,1.344289779663085938e+00,1.344197511672973633e+00,1.344105243682861328e+00,1.344012856483459473e+00,1.343920588493347168e+00,1.343828439712524414e+00,1.343736171722412109e+00,1.343643903732299805e+00,1.343551754951477051e+00,1.343459486961364746e+00,1.343367338180541992e+00,1.343275189399719238e+00,1.343182921409606934e+00,1.343090772628784180e+00,1.342998623847961426e+00,1.342906594276428223e+00,1.342814445495605469e+00,1.342722296714782715e+00,1.342630267143249512e+00,1.342538118362426758e+00,1.342446088790893555e+00,1.342354059219360352e+00,1.342262029647827148e+00,1.342170000076293945e+00,1.342077970504760742e+00,1.341985940933227539e+00
1.248935341835021973e+00,1.248855710029602051e+00,1.248776078224182129e+00,1.248696327209472656e+00,1.248616695404052734e+00,1.248537063598632812e+00,1.248457431793212891e+00,1.248377919197082520e+00,1.248298287391662598e+00,1.248218655586242676e+00,1.248139142990112305e+00,1.248059511184692383e+00,1.247979998588562012e+00,1.247900366783142090e+00,1.247820854187011719e+00,1.247741341590881348e+00,1.247661828994750977e+00,1.247582316398620605e+00,1.247502803802490234e+00,1.247423291206359863e+00,1.247343778610229492e+00,1.247264385223388672e+00,1.247184872627258301e+00,1.247105479240417480e+00,1.247025966644287109e+00,1.246946573257446289e+00,1.246867179870605469e+00,1.246787786483764648e+00,1.246708393096923828e+00,1.246628999710083008e+00,1.246549606323242188e+00,1.246470212936401367e+00,1.246390819549560547e+00,1.246311545372009277e+00,1.246232151985168457e+00,1.246152877807617188e+00,1.246073484420776367e+00,1.245994210243225098e+00,1.245914936065673828e+00,1.245835661888122559e+00,1.245756387710571289e+00,1.164771318435668945e+00,1.125448465347290039e+00,1.032437682151794434e+00,9.977732896804809570e-01,9.693902134895324707e-01,9.705995917320251465e-01,9.811902046203613281e-01,1.021062254905700684e+00,1.245043277740478516e+00,1.244964122772216797e+00,1.244884967803955078e+00,1.244805812835693359e+00,1.244726657867431641e+00,1.244647502899169922e+00,1.244568347930908203e+00,1.244489192962646484e+00,1.244410157203674316e+00,1.244331002235412598e+00,1.244251966476440430e+00,1.244172930717468262e+00,1.244093775749206543e+00,1.244014739990234375e+00,1.243935704231262207e+00,1.243856668472290039e+00,1.243777632713317871e+00,1.243698596954345703e+00,1.243619680404663086e+00,1.243540644645690918e+00,1.243461608886718750e+00,1.243382692337036133e+00,1.243303656578063965e+00,1.243224740028381348e+00,1.243145823478698730e+00,1.243066906929016113e+00,1.242987990379333496e+00,1.242909073829650879e+00,1.242830276489257812e+00,1.242751359939575195e+00,1.242672443389892578e+00
1.162472963333129883e+00,1.162403941154479980e+00,1.162335038185119629e+00,1.162266016006469727e+00,1.162196993827819824e+00,1.162127971649169922e+00,1.162058949470520020e+00,1.161990046501159668e+00,1.161921024322509766e+00,1.161852121353149414e+00,1.161783099174499512e+00,1.161714196205139160e+00,1.161645293235778809e+00,1.161576390266418457e+00,1.161507487297058105e+00,1.161438465118408203e+00,1.161369562149047852e+00,1.161300778388977051e+00,1.161231875419616699e+00,1.161162972450256348e+00,1.161094069480895996e+00,1.161025285720825195e+00,1.160956382751464844e+00,1.160887479782104492e+00,1.160818696022033691e+00,1.160749912261962891e+00,1.160681009292602539e+00,1.160612225532531738e+00,1.160543441772460938e+00,1.160474658012390137e+00,1.160405874252319336e+00,1.160337090492248535e+00,1.160268306732177734e+00,1.160199522972106934e+00,1.160130739212036133e+00,1.160062074661254883e+00,1.159993290901184082e+00,1.159924507141113281e+00,1.159855842590332031e+00,1.159787058830261230e+00,1.159718394279479980e+00,1.159649729728698730e+00,1.159581065177917480e+00,1.159512281417846680e+00,1.016062498092651367e+00,1.020355463027954102e+00,1.159306406974792480e+00,1.159237742424011230e+00,1.159169077873229980e+00,1.159100532531738281e+00,1.159031867980957031e+00,1.158963203430175781e+00,1.158894658088684082e+00,1.158825993537902832e+00,1.158757448196411133e+00,1.158688902854919434e+00,1.158620238304138184e+00,1.158551692962646484e+00,1.158483147621154785e+00,1.158414602279663086e+00,1.158346056938171387e+00,1.158277511596679688e+00,1.158208966255187988e+00,1.158140540122985840e+00,1.158071994781494141e+00,1.158003449440002441e+00,1.157935023307800293e+00,1.157866477966308594e+00,1.157798051834106445e+00,1.157729625701904297e+00,1.157661080360412598e+00,1.157592654228210449e+00,1.157524228096008301e+00,1.157455801963806152e+00,1.157387375831604004e+00,1.157318949699401855e+00,1.157250523567199707e+00,1.157182097434997559e+00,1.157113671302795410e+00,1.157045364379882812e+00
1.087206959724426270e+00,1.087146520614624023e+00,1.087086200714111328e+00,1.087025761604309082e+00,1.086965441703796387e+00,1.086905121803283691e+00,1.086844801902770996e+00,1.086784482002258301e+00,1.086724042892456055e+00,1.086663722991943359e+00,1.086603403091430664e+00,1.086543202400207520e+00,1.086482882499694824e+00,1.086422562599182129e+00,1.086362242698669434e+00,1.086302042007446289e+00,1.086241722106933594e+00,1.086181521415710449e+00,1.086121201515197754e+00,1.086061000823974609e+00,1.086000800132751465e+00,1.085940480232238770e+00,1.085880279541015625e+00,1.085820078849792480e+00,1.085759878158569336e+00,1.085699558258056641e+00,1.085639357566833496e+00,1.085579156875610352e+00,1.085518956184387207e+00,1.085458874702453613e+00,1.085398674011230469e+00,1.085338473320007324e+00,1.085278272628784180e+00,1.085218191146850586e+00,1.085157990455627441e+00,1.085097789764404297e+00,1.085037708282470703e+00,1.084977626800537109e+00,1.084917426109313965e+00,1.084857344627380371e+00,1.084797263145446777e+00,1.084737062454223633e+00,1.084676980972290039e+00,1.084616899490356445e+00,1.084556818008422852e+00,1.084496736526489258e+00,1.084436655044555664e+00,1.084376573562622070e+00,1.084316492080688477e+00,1.084256410598754883e+00,1.084196448326110840e+00,1.084136366844177246e+00,1.084076285362243652e+00,1.084016323089599609e+00,1.083956241607666016e+00,1.083896279335021973e+00,1.083836317062377930e+00,1.083776235580444336e+00,1.083716273307800293e+00,1.083656311035156250e+00,1.083596348762512207e+00,1.083536386489868164e+00,1.083476305007934570e+00,1.083416342735290527e+00,1.083356499671936035e+00,1.083296537399291992e+00,1.083236575126647949e+00,1.083176612854003906e+00,1.083116650581359863e+00,1.083056807518005371e+00,1.082996845245361328e+00,1.082936882972717285e+00,1.082877039909362793e+00,1.082817196846008301e+00,1.082757234573364258e+00,1.082697391510009766e+00,1.082637548446655273e+00,1.082577586174011230e+00,1.082517743110656738e+00,1.082457900047302246e+00
1.021094679832458496e+00,1.021041393280029297e+00,1.020988106727600098e+00,1.020934939384460449e+00,1.020881652832031250e+00,1.020828366279602051e+00,1.020775198936462402e+00,1.020721912384033203e+00,1.020668745040893555e+00,1.020615577697753906e+00,1.020562291145324707e+00,1.020509123802185059e+00,1.020455956459045410e+00,1.020402789115905762e+00,1.020349621772766113e+00,1.020296335220336914e+00,1.020243167877197266e+00,1.020190000534057617e+00,1.020136833190917969e+00,1.020083785057067871e+00,1.020030617713928223e+00,1.019977450370788574e+00,1.019924283027648926e+00,1.019871115684509277e+00,1.019818067550659180e+00,1.019764900207519531e+00,1.019711852073669434e+00,1.019658684730529785e+00,1.019605517387390137e+00,1.019552469253540039e+00,1.019499421119689941e+00,1.019446253776550293e+00,1.019393205642700195e+00,1.019340157508850098e+00,1.019287109375000000e+00,1.019233942031860352e+00,1.019180893898010254e+00,1.019127845764160156e+00,1.019074797630310059e+00,1.019021749496459961e+00,1.018968701362609863e+00,1.018915653228759766e+00,1.018862724304199219e+00,1.018809676170349121e+00,1.018756628036499023e+00,1.018703579902648926e+00,1.018650650978088379e+00,1.018597602844238281e+00,1.018544554710388184e+00,1.018491625785827637e+00,1.018438696861267090e+00,1.018385648727416992e+00,1.018332719802856445e+00,1.018279671669006348e+00,1.018226742744445801e+00,1.018173813819885254e+00,1.018120884895324707e+00,1.018067955970764160e+00,1.018014907836914062e+00,1.017961978912353516e+00,1.017909049987792969e+00,1.017856121063232422e+00,1.017803192138671875e+00,1.017750382423400879e+00,1.017697453498840332e+00,1.017644524574279785e+00,1.017591595649719238e+00,1.017538785934448242e+00,1.017485857009887695e+00,1.017432928085327148e+00,1.017380118370056152e+00,1.017327189445495605e+00,1.017274379730224609e+00,1.017221450805664062e+00,1.017168641090393066e+00,1.017115831375122070e+00,1.017063021659851074e+00,1.017010092735290527e+00,1.016957283020019531e+00,1.016904473304748535e+00
9.625619649887084961e-01,9.625145792961120605e-01,9.624673128128051758e-01,9.624199271202087402e-01,9.623726606369018555e-01,9.623253345489501953e-01,9.622780680656433105e-01,9.622306823730468750e-01,9.621834754943847656e-01,9.621361494064331055e-01,9.620888829231262207e-01,9.620415568351745605e-01,9.619943499565124512e-01,9.619470238685607910e-01,9.618998169898986816e-01,9.618524909019470215e-01,9.618052840232849121e-01,9.617580175399780273e-01,9.617108106613159180e-01,9.616634845733642578e-01,9.616163372993469238e-01,9.615690708160400391e-01,9.615218639373779297e-01,9.614745974540710449e-01,9.614274501800537109e-01,9.613801836967468262e-01,9.613330364227294922e-01,9.612857699394226074e-01,9.612386226654052734e-01,9.611913561820983887e-01,9.611442089080810547e-01,9.610970020294189453e-01,9.610498547554016113e-01,9.610026478767395020e-01,9.609555006027221680e-01,9.609082937240600586e-01,9.608611464500427246e-01,9.608139395713806152e-01,9.607668519020080566e-01,9.607196450233459473e-01,9.606725573539733887e-01,9.606253504753112793e-01,9.605782628059387207e-01,9.605311155319213867e-01,9.604840278625488281e-01,9.604368805885314941e-01,9.603897929191589355e-01,9.603426456451416016e-01,9.602955579757690430e-01,9.602484107017517090e-01,9.602013826370239258e-01,9.601543545722961426e-01,9.601072072982788086e-01,9.600601792335510254e-01,9.600130319595336914e-01,9.599660038948059082e-01,9.599188566207885742e-01,9.598718881607055664e-01,9.598247408866882324e-01,9.597777128219604492e-01,9.597306251525878906e-01,9.596836566925048828e-01,9.596365690231323242e-01,9.595895409584045410e-01,9.595424532890319824e-01,9.594954848289489746e-01,9.594483971595764160e-01,9.594014286994934082e-01,9.593544006347656250e-01,9.593074321746826172e-01,9.592603445053100586e-01,9.592134356498718262e-01,9.591663479804992676e-01,9.591194391250610352e-01,9.590724110603332520e-01,9.590254426002502441e-01,9.589784145355224609e-01,9.589315056800842285e-01,9.588844776153564453e-01,9.588375687599182129e-01
9.103759527206420898e-01,9.103336334228515625e-01,9.102912545204162598e-01,9.102489948272705078e-01,9.102066159248352051e-01,9.101643562316894531e-01,9.101219773292541504e-01,9.100797176361083984e-01,9.100373983383178711e-01,9.099951386451721191e-01,9.099527597427368164e-01,9.099105000495910645e-01,9.098681807518005371e-01,9.098259210586547852e-01,9.097836017608642578e-01,9.097414016723632812e-01,9.096990823745727539e-01,9.096568226814270020e-01,9.096145033836364746e-01,9.095723032951354980e-01,9.095299839973449707e-01,9.094877839088439941e-01,9.094455838203430176e-01,9.094033241271972656e-01,9.093611240386962891e-01,9.093188047409057617e-01,9.092766642570495605e-01,9.092343449592590332e-01,9.091922044754028320e-01,9.091498851776123047e-01,9.091077446937561035e-01,9.090654850006103516e-01,9.090232849121093750e-01,9.089810252189636230e-01,9.089388847351074219e-01,9.088966250419616699e-01,9.088544845581054688e-01,9.088122844696044922e-01,9.087701439857482910e-01,9.087278842926025391e-01,9.086857438087463379e-01,9.086435437202453613e-01,9.086014032363891602e-01,9.085592031478881836e-01,9.085170626640319824e-01,9.084748625755310059e-01,9.084327816963195801e-01,9.083905816078186035e-01,9.083484411239624023e-01,9.083062410354614258e-01,9.082641601562500000e-01,9.082220196723937988e-01,9.081799387931823730e-01,9.081377387046813965e-01,9.080956578254699707e-01,9.080534577369689941e-01,9.080114364624023438e-01,9.079692363739013672e-01,9.079272150993347168e-01,9.078850150108337402e-01,9.078429937362670898e-01,9.078008532524108887e-01,9.077587723731994629e-01,9.077166318893432617e-01,9.076746106147766113e-01,9.076324701309204102e-01,9.075904488563537598e-01,9.075483083724975586e-01,9.075062870979309082e-01,9.074642062187194824e-01,9.074221849441528320e-01,9.073801040649414062e-01,9.073380827903747559e-01,9.072959423065185547e-01,9.072539806365966797e-01,9.072118997573852539e-01,9.071698784828186035e-01,9.071277976036071777e-01,9.070858359336853027e-01,9.070437550544738770e-01
8.635575771331787109e-01,8.635195493698120117e-01,8.634814023971557617e-01,8.634433746337890625e-01,8.634052276611328125e-01,8.633671998977661133e-01,8.633291125297546387e-01,8.632910847663879395e-01,8.632529377937316895e-01,8.632149696350097656e-01,8.631768226623535156e-01,8.631387948989868164e-01,8.631007075309753418e-01,8.630627393722534180e-01,8.630246520042419434e-01,8.629866242408752441e-01,8.629485368728637695e-01,8.629105687141418457e-01,8.628724813461303711e-01,8.628344535827636719e-01,8.627964258193969727e-01,8.627584576606750488e-01,8.627203702926635742e-01,8.626824021339416504e-01,8.626443147659301758e-01,8.626063466072082520e-01,8.625683188438415527e-01,8.625303506851196289e-01,8.624923229217529297e-01,8.624543547630310059e-01,8.624163269996643066e-01,8.623783588409423828e-01,8.623403310775756836e-01,8.623024225234985352e-01,8.622643947601318359e-01,8.622264266014099121e-01,8.621883988380432129e-01,8.621504902839660645e-01,8.621124625205993652e-01,8.620745539665222168e-01,8.620365858078002930e-01,8.619986176490783691e-01,8.619606494903564453e-01,8.619227409362792969e-01,8.618847727775573730e-01,8.618468642234802246e-01,8.618088960647583008e-01,8.617709875106811523e-01,8.617330193519592285e-01,8.616951107978820801e-01,8.616571426391601562e-01,8.616192340850830078e-01,8.615813255310058594e-01,8.615434169769287109e-01,8.615054488182067871e-01,8.614675998687744141e-01,8.614296317100524902e-01,8.613917827606201172e-01,8.613538146018981934e-01,8.613159656524658203e-01,8.612780570983886719e-01,8.612402081489562988e-01,8.612022995948791504e-01,8.611644506454467773e-01,8.611264824867248535e-01,8.610886931419372559e-01,8.610507845878601074e-01,8.610129356384277344e-01,8.609750270843505859e-01,8.609371781349182129e-01,8.608993291854858398e-01,8.608614802360534668e-01,8.608235716819763184e-01,8.607857823371887207e-01,8.607478737831115723e-01,8.607100844383239746e-01,8.606722354888916016e-01,8.606343865394592285e-01,8.605965375900268555e-01,8.605587482452392578e-01
8.213192224502563477e-01,8.212847113609313965e-01,8.212503194808959961e-01,8.212158083915710449e-01,8.211814165115356445e-01,8.211469054222106934e-01,8.211125135421752930e-01,8.210780620574951172e-01,8.210436701774597168e-01,8.210091590881347656e-01,8.209747672080993652e-01,8.209403157234191895e-01,8.209059238433837891e-01,8.208714723587036133e-01,8.208370804786682129e-01,8.208026289939880371e-01,8.207682967185974121e-01,8.207338452339172363e-01,8.206994533538818359e-01,8.206650018692016602e-01,8.206306695938110352e-01,8.205962181091308594e-01,8.205618858337402344e-01,8.205274343490600586e-01,8.204931020736694336e-01,8.204586505889892578e-01,8.204243183135986328e-01,8.203899264335632324e-01,8.203555345535278320e-01,8.203211426734924316e-01,8.202868103981018066e-01,8.202524185180664062e-01,8.202180862426757812e-01,8.201836943626403809e-01,8.201493620872497559e-01,8.201149702072143555e-01,8.200806379318237305e-01,8.200462460517883301e-01,8.200119137763977051e-01,8.199775815010070801e-01,8.199432492256164551e-01,8.199088573455810547e-01,8.198745846748352051e-01,8.198401927947998047e-01,8.198059201240539551e-01,8.197715282440185547e-01,8.197372555732727051e-01,8.197028636932373047e-01,8.196685910224914551e-01,8.196342587471008301e-01,8.195999860763549805e-01,8.195655941963195801e-01,8.195313215255737305e-01,8.194969892501831055e-01,8.194627165794372559e-01,8.194283843040466309e-01,8.193941712379455566e-01,8.193598985671997070e-01,8.193255662918090820e-01,8.192912936210632324e-01,8.192569613456726074e-01,8.192227482795715332e-01,8.191884160041809082e-01,8.191542029380798340e-01,8.191198706626892090e-01,8.190856575965881348e-01,8.190513253211975098e-01,8.190171122550964355e-01,8.189827799797058105e-01,8.189485669136047363e-01,8.189142942428588867e-01,8.188800811767578125e-01,8.188457489013671875e-01,8.188115358352661133e-01,8.187772631645202637e-01,8.187430500984191895e-01,8.187087774276733398e-01,8.186745643615722656e-01,8.186402916908264160e-01,8.186061382293701172e-01
7.830200791358947754e-01,7.829887866973876953e-01,7.829574346542358398e-01,7.829261422157287598e-01,7.828947901725769043e-01,7.828634977340698242e-01,7.828322052955627441e-01,7.828009128570556641e-01,7.827695608139038086e-01,7.827383279800415039e-01,7.827069759368896484e-01,7.826757431030273438e-01,7.826443910598754883e-01,7.826131582260131836e-01,7.825818061828613281e-01,7.825505733489990234e-01,7.825192809104919434e-01,7.824880480766296387e-01,7.824566960334777832e-01,7.824254631996154785e-01,7.823941707611083984e-01,7.823629379272460938e-01,7.823316454887390137e-01,7.823004126548767090e-01,7.822691202163696289e-01,7.822378873825073242e-01,7.822065949440002441e-01,7.821753621101379395e-01,7.821441888809204102e-01,7.821128964424133301e-01,7.820816636085510254e-01,7.820503711700439453e-01,7.820191979408264160e-01,7.819879055023193359e-01,7.819567322731018066e-01,7.819254398345947266e-01,7.818942666053771973e-01,7.818629741668701172e-01,7.818318009376525879e-01,7.818005681037902832e-01,7.817693352699279785e-01,7.817381024360656738e-01,7.817069292068481445e-01,7.816756963729858398e-01,7.816445231437683105e-01,7.816132307052612305e-01,7.815820574760437012e-01,7.815508246421813965e-01,7.815196514129638672e-01,7.814884185791015625e-01,7.814573049545288086e-01,7.814260721206665039e-01,7.813948988914489746e-01,7.813636660575866699e-01,7.813325524330139160e-01,7.813013195991516113e-01,7.812701463699340820e-01,7.812389731407165527e-01,7.812077999114990234e-01,7.811766266822814941e-01,7.811454534530639648e-01,7.811142802238464355e-01,7.810831069946289062e-01,7.810519337654113770e-01,7.810208201408386230e-01,7.809895873069763184e-01,7.809584736824035645e-01,7.809273004531860352e-01,7.808961868286132812e-01,7.808650135993957520e-01,7.808338999748229980e-01,7.808027267456054688e-01,7.807716131210327148e-01,7.807404398918151855e-01,7.807093262672424316e-01,7.806781530380249023e-01,7.806470990180969238e-01,7.806159257888793945e-01,7.805848121643066406e-01,7.805536389350891113e-01
7.481336593627929688e-01,7.481051087379455566e-01,7.480764985084533691e-01,7.480479478836059570e-01,7.480193376541137695e-01,7.479907870292663574e-01,7.479621767997741699e-01,7.479336261749267578e-01,7.479050159454345703e-01,7.478764653205871582e-01,7.478478550910949707e-01,7.478193640708923340e-01,7.477907538414001465e-01,7.477622032165527344e-01,7.477335929870605469e-01,7.477051019668579102e-01,7.476764917373657227e-01,7.476480007171630859e-01,7.476193904876708984e-01,7.475908994674682617e-01,7.475622892379760742e-01,7.475337982177734375e-01,7.475051879882812500e-01,7.474766969680786133e-01,7.474481463432312012e-01,7.474196553230285645e-01,7.473910450935363770e-01,7.473625540733337402e-01,7.473340034484863281e-01,7.473055124282836914e-01,7.472769618034362793e-01,7.472484707832336426e-01,7.472199201583862305e-01,7.471914291381835938e-01,7.471628785133361816e-01,7.471343874931335449e-01,7.471058368682861328e-01,7.470773458480834961e-01,7.470487952232360840e-01,7.470203638076782227e-01,7.469918131828308105e-01,7.469633221626281738e-01,7.469347715377807617e-01,7.469063401222229004e-01,7.468777894973754883e-01,7.468493580818176270e-01,7.468208074569702148e-01,7.467923760414123535e-01,7.467638254165649414e-01,7.467353940010070801e-01,7.467068433761596680e-01,7.466784119606018066e-01,7.466499209403991699e-01,7.466214895248413086e-01,7.465929388999938965e-01,7.465645074844360352e-01,7.465360164642333984e-01,7.465075850486755371e-01,7.464790940284729004e-01,7.464506626129150391e-01,7.464221715927124023e-01,7.463937401771545410e-01,7.463652491569519043e-01,7.463368177413940430e-01,7.463083267211914062e-01,7.462798953056335449e-01,7.462514638900756836e-01,7.462230324745178223e-01,7.461945414543151855e-01,7.461661696434020996e-01,7.461376786231994629e-01,7.461092472076416016e-01,7.460808157920837402e-01,7.460523843765258789e-01,7.460239529609680176e-01,7.459955215454101562e-01,7.459670901298522949e-01,7.459387183189392090e-01,7.459102272987365723e-01,7.458818554878234863e-01
7.162232995033264160e-01,7.161970734596252441e-01,7.161709070205688477e-01,7.161446809768676758e-01,7.161185145378112793e-01,7.160922884941101074e-01,7.160661220550537109e-01,7.160398960113525391e-01,7.160137295722961426e-01,7.159875631332397461e-01,7.159613966941833496e-01,7.159351706504821777e-01,7.159090042114257812e-01,7.158827781677246094e-01,7.158566713333129883e-01,7.158304452896118164e-01,7.158043384552001953e-01,7.157781124114990234e-01,7.157519459724426270e-01,7.157257795333862305e-01,7.156996130943298340e-01,7.156734466552734375e-01,7.156472802162170410e-01,7.156211137771606445e-01,7.155950069427490234e-01,7.155687808990478516e-01,7.155426740646362305e-01,7.155165076255798340e-01,7.154904007911682129e-01,7.154641747474670410e-01,7.154380679130554199e-01,7.154119014739990234e-01,7.153857946395874023e-01,7.153596282005310059e-01,7.153335213661193848e-01,7.153073549270629883e-01,7.152812480926513672e-01,7.152550816535949707e-01,7.152289748191833496e-01,7.152028083801269531e-01,7.151767015457153320e-01,7.151505351066589355e-01,7.151244878768920898e-01,7.150983214378356934e-01,7.150722146034240723e-01,7.150461077690124512e-01,7.150200009346008301e-01,7.149938344955444336e-01,7.149677872657775879e-01,7.149416208267211914e-01,7.149155735969543457e-01,7.148894071578979492e-01,7.148633599281311035e-01,7.148371934890747070e-01,7.148111462593078613e-01,7.147849798202514648e-01,7.147589325904846191e-01,7.147328257560729980e-01,7.147067785263061523e-01,7.146806120872497559e-01,7.146545648574829102e-01,7.146284580230712891e-01,7.146024107933044434e-01,7.145763635635375977e-01,7.145502567291259766e-01,7.145241498947143555e-01,7.144980430603027344e-01,7.144719958305358887e-01,7.144459486007690430e-01,7.144199013710021973e-01,7.143937945365905762e-01,7.143677473068237305e-01,7.143416404724121094e-01,7.143155932426452637e-01,7.142894864082336426e-01,7.142634987831115723e-01,7.142373919486999512e-01,7.142113447189331055e-01,7.141852974891662598e-01,7.141592502593994141e-01
6.869237422943115234e-01,6.868996620178222656e-01,6.868755221366882324e-01,6.868514418601989746e-01,6.868273019790649414e-01,6.868032813072204590e-01,6.867791414260864258e-01,6.867550611495971680e-01,6.867309808731079102e-01,6.867069005966186523e-01,6.866827607154846191e-01,6.866587400436401367e-01,6.866346001625061035e-01,6.866105794906616211e-01,6.865864396095275879e-01,6.865624189376831055e-01,6.865382790565490723e-01,6.865142583847045898e-01,6.864901185035705566e-01,6.864660978317260742e-01,6.864420175552368164e-01,6.864179372787475586e-01,6.863938570022583008e-01,6.863698363304138184e-01,6.863457560539245605e-01,6.863216757774353027e-01,6.862975955009460449e-01,6.862735748291015625e-01,6.862494945526123047e-01,6.862254738807678223e-01,6.862013936042785645e-01,6.861773729324340820e-01,6.861532926559448242e-01,6.861292719841003418e-01,6.861052513122558594e-01,6.860811710357666016e-01,6.860571503639221191e-01,6.860330700874328613e-01,6.860090494155883789e-01,6.859850287437438965e-01,6.859610080718994141e-01,6.859369277954101562e-01,6.859129071235656738e-01,6.858888864517211914e-01,6.858648657798767090e-01,6.858407855033874512e-01,6.858168244361877441e-01,6.857927441596984863e-01,6.857687830924987793e-01,6.857447028160095215e-01,6.857207417488098145e-01,6.856966614723205566e-01,6.856727004051208496e-01,6.856486201286315918e-01,6.856246590614318848e-01,6.856006383895874023e-01,6.855766177177429199e-01,6.855525970458984375e-01,6.855286359786987305e-01,6.855046153068542480e-01,6.854805946350097656e-01,6.854565739631652832e-01,6.854326128959655762e-01,6.854085922241210938e-01,6.853846311569213867e-01,6.853606104850769043e-01,6.853366494178771973e-01,6.853126287460327148e-01,6.852886676788330078e-01,6.852646470069885254e-01,6.852406859397888184e-01,6.852166652679443359e-01,6.851927042007446289e-01,6.851686835289001465e-01,6.851447224617004395e-01,6.851207613945007324e-01,6.850968003273010254e-01,6.850727796554565430e-01,6.850488781929016113e-01,6.850248575210571289e-01
6.599271893501281738e-01,6.599048972129821777e-01,6.598826646804809570e-01,6.598604917526245117e-01,6.598381996154785156e-01,6.598159670829772949e-01,6.597937345504760742e-01,6.597715020179748535e-01,6.597492694854736328e-01,6.597270369529724121e-01,6.597048044204711914e-01,6.596825718879699707e-01,6.596603393554687500e-01,6.596381068229675293e-01,6.596158742904663086e-01,6.595937013626098633e-01,6.595714092254638672e-01,6.595492362976074219e-01,6.595270037651062012e-01,6.595047712326049805e-01,6.594825387001037598e-01,6.594603657722473145e-01,6.594381332397460938e-01,6.594159603118896484e-01,6.593937277793884277e-01,6.593714952468872070e-01,6.593492627143859863e-01,6.593270897865295410e-01,6.593048572540283203e-01,6.592826843261718750e-01,6.592604517936706543e-01,6.592382788658142090e-01,6.592160463333129883e-01,6.591938734054565430e-01,6.591717004776000977e-01,6.591495275497436523e-01,6.591272950172424316e-01,6.591051220893859863e-01,6.590828895568847656e-01,6.590607762336730957e-01,6.590385437011718750e-01,6.590163707733154297e-01,6.589941978454589844e-01,6.589720249176025391e-01,6.589497923851013184e-01,6.589276790618896484e-01,6.589054465293884277e-01,6.588832736015319824e-01,6.588611006736755371e-01,6.588389277458190918e-01,6.588167548179626465e-01,6.587945818901062012e-01,6.587724089622497559e-01,6.587502956390380859e-01,6.587280631065368652e-01,6.587059497833251953e-01,6.586837768554687500e-01,6.586616039276123047e-01,6.586394309997558594e-01,6.586173176765441895e-01,6.585950851440429688e-01,6.585729718208312988e-01,6.585507988929748535e-01,6.585286855697631836e-01,6.585065126419067383e-01,6.584843993186950684e-01,6.584622263908386230e-01,6.584400534629821777e-01,6.584178805351257324e-01,6.583957672119140625e-01,6.583735942840576172e-01,6.583514809608459473e-01,6.583293676376342773e-01,6.583072543144226074e-01,6.582850813865661621e-01,6.582629680633544922e-01,6.582407951354980469e-01,6.582186818122863770e-01,6.581965088844299316e-01,6.581744551658630371e-01
6.349723339080810547e-01,6.349517107009887695e-01,6.349311470985412598e-01,6.349105238914489746e-01,6.348899602890014648e-01,6.348693370819091797e-01,6.348487734794616699e-01,6.348281502723693848e-01,6.348075866699218750e-01,6.347870230674743652e-01,6.347664594650268555e-01,6.347458362579345703e-01,6.347252726554870605e-01,6.347046494483947754e-01,6.346841454505920410e-01,6.346635222434997559e-01,6.346429586410522461e-01,6.346223950386047363e-01,6.346018314361572266e-01,6.345812082290649414e-01,6.345607042312622070e-01,6.345400810241699219e-01,6.345195770263671875e-01,6.344989538192749023e-01,6.344783902168273926e-01,6.344578266143798828e-01,6.344373226165771484e-01,6.344166994094848633e-01,6.343961954116821289e-01,6.343755722045898438e-01,6.343550682067871094e-01,6.343345046043395996e-01,6.343139410018920898e-01,6.342933773994445801e-01,6.342728734016418457e-01,6.342522501945495605e-01,6.342317461967468262e-01,6.342111825942993164e-01,6.341906785964965820e-01,6.341701149940490723e-01,6.341495513916015625e-01,6.341289877891540527e-01,6.341084837913513184e-01,6.340879201889038086e-01,6.340674161911010742e-01,6.340468525886535645e-01,6.340263485908508301e-01,6.340057849884033203e-01,6.339852809906005859e-01,6.339647173881530762e-01,6.339442133903503418e-01,6.339236497879028320e-01,6.339031457901000977e-01,6.338826417922973633e-01,6.338621377944946289e-01,6.338415741920471191e-01,6.338210701942443848e-01,6.338005065917968750e-01,6.337800621986389160e-01,6.337594985961914062e-01,6.337389945983886719e-01,6.337184906005859375e-01,6.336979866027832031e-01,6.336774230003356934e-01,6.336569190025329590e-01,6.336364150047302246e-01,6.336159110069274902e-01,6.335954070091247559e-01,6.335749030113220215e-01,6.335544586181640625e-01,6.335338950157165527e-01,6.335134506225585938e-01,6.334928870201110840e-01,6.334724426269531250e-01,6.334519386291503906e-01,6.334314346313476562e-01,6.334109306335449219e-01,6.333904266357421875e-01,6.333699226379394531e-01,6.333494782447814941e-01
6.118360161781311035e-01,6.118168830871582031e-01,6.117977499961853027e-01,6.117786765098571777e-01,6.117595434188842773e-01,6.117404103279113770e-01,6.117212772369384766e-01,6.117022037506103516e-01,6.116830706596374512e-01,6.116639971733093262e-01,6.116448640823364258e-01,6.116257905960083008e-01,6.116066575050354004e-01,6.115875244140625000e-01,6.115684509277343750e-01,6.115493178367614746e-01,6.115301847457885742e-01,6.115111112594604492e-01,6.114920377731323242e-01,6.114729046821594238e-01,6.114538311958312988e-01,6.114347577095031738e-01,6.114156246185302734e-01,6.113965511322021484e-01,6.113774180412292480e-01,6.113583445549011230e-01,6.113392710685729980e-01,6.113201975822448730e-01,6.113010644912719727e-01,6.112819910049438477e-01,6.112629175186157227e-01,6.112438440322875977e-01,6.112247109413146973e-01,6.112056374549865723e-01,6.111865639686584473e-01,6.111674904823303223e-01,6.111484169960021973e-01,6.111293435096740723e-01,6.111102104187011719e-01,6.110911965370178223e-01,6.110721230506896973e-01,6.110530495643615723e-01,6.110339760780334473e-01,6.110149025917053223e-01,6.109958291053771973e-01,6.109767556190490723e-01,6.109576821327209473e-01,6.109386086463928223e-01,6.109195947647094727e-01,6.109004616737365723e-01,6.108814477920532227e-01,6.108623743057250977e-01,6.108433008193969727e-01,6.108242273330688477e-01,6.108052134513854980e-01,6.107861399650573730e-01,6.107670664787292480e-01,6.107479929924011230e-01,6.107289791107177734e-01,6.107099056243896484e-01,6.106908917427062988e-01,6.106718182563781738e-01,6.106528043746948242e-01,6.106337308883666992e-01,6.106146574020385742e-01,6.105956435203552246e-01,6.105765700340270996e-01,6.105575561523437500e-01,6.105385422706604004e-01,6.105194687843322754e-01,6.105004549026489258e-01,6.104813814163208008e-01,6.104623675346374512e-01,6.104432940483093262e-01,6.104242801666259766e-01,6.104052066802978516e-01,6.103862524032592773e-01,6.103671789169311523e-01,6.103481650352478027e-01,6.103290915489196777e-01
5.903264284133911133e-01,5.903086066246032715e-01,5.902908444404602051e-01,5.902730226516723633e-01,5.902552604675292969e-01,5.902374386787414551e-01,5.902196764945983887e-01,5.902018547058105469e-01,5.901840925216674805e-01,5.901663303375244141e-01,5.901485085487365723e-01,5.901307463645935059e-01,5.901129245758056641e-01,5.900951623916625977e-01,5.900773406028747559e-01,5.900595784187316895e-01,5.900417566299438477e-01,5.900239944458007812e-01,5.900062322616577148e-01,5.899884700775146484e-01,5.899706482887268066e-01,5.899528861045837402e-01,5.899350643157958984e-01,5.899173617362976074e-01,5.898995399475097656e-01,5.898817777633666992e-01,5.898640155792236328e-01,5.898462533950805664e-01,5.898284912109375000e-01,5.898107290267944336e-01,5.897929072380065918e-01,5.897752046585083008e-01,5.897573828697204590e-01,5.897396206855773926e-01,5.897218585014343262e-01,5.897040963172912598e-01,5.896863341331481934e-01,5.896685719490051270e-01,5.896508097648620605e-01,5.896330475807189941e-01,5.896152853965759277e-01,5.895975828170776367e-01,5.895797610282897949e-01,5.895620584487915039e-01,5.895442962646484375e-01,5.895265340805053711e-01,5.895087718963623047e-01,5.894910097122192383e-01,5.894732475280761719e-01,5.894555449485778809e-01,5.894377827644348145e-01,5.894200205802917480e-01,5.894022583961486816e-01,5.893845558166503906e-01,5.893667936325073242e-01,5.893490910530090332e-01,5.893313288688659668e-01,5.893135666847229004e-01,5.892958045005798340e-01,5.892781019210815430e-01,5.892603397369384766e-01,5.892426371574401855e-01,5.892248749732971191e-01,5.892071723937988281e-01,5.891894102096557617e-01,5.891717076301574707e-01,5.891539454460144043e-01,5.891362428665161133e-01,5.891184806823730469e-01,5.891007781028747559e-01,5.890830159187316895e-01,5.890653133392333984e-01,5.890475511550903320e-01,5.890298485755920410e-01,5.890121459960937500e-01,5.889944434165954590e-01,5.889766812324523926e-01,5.889589786529541016e-01,5.889412760734558105e-01,5.889235734939575195e-01
5.702779293060302734e-01,5.702612996101379395e-01,5.702447295188903809e-01,5.702280998229980469e-01,5.702114701271057129e-01,5.701948404312133789e-01,5.701782703399658203e-01,5.701616406440734863e-01,5.701450705528259277e-01,5.701284408569335938e-01,5.701118707656860352e-01,5.700952410697937012e-01,5.700786709785461426e-01,5.700620412826538086e-01,5.700454711914062500e-01,5.700288414955139160e-01,5.700122714042663574e-01,5.699956417083740234e-01,5.699790716171264648e-01,5.699624419212341309e-01,5.699458718299865723e-01,5.699292421340942383e-01,5.699126720428466797e-01,5.698960423469543457e-01,5.698794722557067871e-01,5.698629021644592285e-01,5.698463320732116699e-01,5.698297023773193359e-01,5.698131322860717773e-01,5.697965621948242188e-01,5.697799921035766602e-01,5.697633624076843262e-01,5.697467923164367676e-01,5.697302222251892090e-01,5.697136521339416504e-01,5.696970820426940918e-01,5.696805119514465332e-01,5.696638822555541992e-01,5.696473717689514160e-01,5.696307420730590820e-01,5.696141719818115234e-01,5.695976018905639648e-01,5.695810317993164062e-01,5.695644617080688477e-01,5.695478916168212891e-01,5.695313215255737305e-01,5.695147514343261719e-01,5.694981813430786133e-01,5.694816112518310547e-01,5.694650411605834961e-01,5.694484710693359375e-01,5.694319009780883789e-01,5.694153904914855957e-01,5.693988204002380371e-01,5.693822503089904785e-01,5.693656802177429199e-01,5.693491101264953613e-01,5.693325400352478027e-01,5.693160295486450195e-01,5.692994594573974609e-01,5.692828893661499023e-01,5.692663192749023438e-01,5.692498087882995605e-01,5.692332386970520020e-01,5.692166686058044434e-01,5.692000985145568848e-01,5.691835880279541016e-01,5.691670179367065430e-01,5.691505074501037598e-01,5.691339373588562012e-01,5.691174268722534180e-01,5.691008567810058594e-01,5.690842866897583008e-01,5.690677762031555176e-01,5.690512061119079590e-01,5.690346956253051758e-01,5.690181255340576172e-01,5.690016150474548340e-01,5.689850449562072754e-01,5.689685344696044922e-01
