5.000000000000000000e+00,5.000000000000000000e+00,5.000000000000000000e+00,5.000000000000000000e+00,5.000000000000000000e+00,5.000000000000000000e+00,5.000000000000000000e+00,5.000000000000000000e+00,5.000000000000000000e+00,5.000000000000000000e+00,5.000000000000000000e+00,5.000000000000000000e+00,5.000000000000000000e+00,5.000000000000000000e+00,5.000000000000000000e+00,5.000000000000000000e+00,5.000000000000000000e+00,5.000000000000000000e+00,5.000000000000000000e+00,5.000000000000000000e+00,5.000000000000000000e+00,5.000000000000000000e+00,5.000000000000000000e+00,5.000000000000000000e+00,5.000000000000000000e+00,5.000000000000000000e+00,5.000000000000000000e+00,5.000000000000000000e+00,5.000000000000000000e+00,5.000000000000000000e+00,5.000000000000000000e+00,5.000000000000000000e+00,5.000000000000000000e+00,5.000000000000000000e+00,5.000000000000000000e+00,5.000000000000000000e+00,5.000000000000000000e+00,5.000000000000000000e+00,5.000000000000000000e+00,5.000000000000000000e+00,4.875480175018310547e+00,4.682074546813964844e+00,4.503427982330322266e+00,4.337913036346435547e+00,4.184133052825927734e+00,4.040883064270019531e+00,3.907116651535034180e+00,3.781923055648803711e+00,3.664503335952758789e+00,3.554155349731445312e+00,3.450258731842041016e+00,3.352263927459716797e+00,3.259681940078735352e+00,3.172076225280761719e+00,3.089056253433227539e+00,3.010271072387695312e+00,2.935404777526855469e+00,2.864171981811523438e+00,2.796314239501953125e+00,2.731597661972045898e+00,2.669808864593505859e+00,2.610753536224365234e+00,2.554254293441772461e+00,2.500148296356201172e+00,2.448287487030029297e+00,2.398534059524536133e+00,2.350762605667114258e+00,2.304857015609741211e+00,2.260710000991821289e+00,2.218222379684448242e+00,2.177302122116088867e+00,2.137864589691162109e+00,2.099829912185668945e+00,2.063125133514404297e+00,2.027681589126586914e+00,1.993435025215148926e+00,1.960326313972473145e+00,1.928299307823181152e+00,1.897301793098449707e+00,1.867285490036010742e+00
5.000000000000000000e+00,5.000000000000000000e+00,5.000000000000000000e+00,5.000000000000000000e+00,5.000000000000000000e+00,5.000000000000000000e+00,5.000000000000000000e+00,5.000000000000000000e+00,5.000000000000000000e+00,5.000000000000000000e+00,5.000000000000000000e+00,5.000000000000000000e+00,5.000000000000000000e+00,5.000000000000000000e+00,5.000000000000000000e+00,5.000000000000000000e+00,5.000000000000000000e+00,5.000000000000000000e+00,5.000000000000000000e+00,5.000000000000000000e+00,5.000000000000000000e+00,5.000000000000000000e+00,5.000000000000000000e+00,5.000000000000000000e+00,5.000000000000000000e+00,5.000000000000000000e+00,5.000000000000000000e+00,5.000000000000000000e+00,5.000000000000000000e+00,5.000000000000000000e+00,5.000000000000000000e+00,5.000000000000000000e+00,5.000000000000000000e+00,5.000000000000000000e+00,5.000000000000000000e+00,5.000000000000000000e+00,5.000000000000000000e+00,5.000000000000000000e+00,5.000000000000000000e+00,5.000000000000000000e+00,4.875623226165771484e+00,4.682206153869628906e+00,4.503550052642822266e+00,4.338026046752929688e+00,4.184238433837890625e+00,4.040981292724609375e+00,3.907208681106567383e+00,3.782009124755859375e+00,3.664584159851074219e+00,3.554231405258178711e+00,3.450330495834350586e+00,3.352331638336181641e+00,3.259745836257934570e+00,3.172136783599853516e+00,3.089113712310791016e+00,3.010325670242309570e+00,2.935456752777099609e+00,2.864221334457397461e+00,2.796361207962036133e+00,2.731642484664916992e+00,2.669851779937744141e+00,2.610794544219970703e+00,2.554293394088745117e+00,2.500185966491699219e+00,2.448323488235473633e+00,2.398568630218505859e+00,2.350795984268188477e+00,2.304888963699340820e+00,2.260740756988525391e+00,2.218251705169677734e+00,2.177330493927001953e+00,2.137891769409179688e+00,2.099856376647949219e+00,2.063150644302368164e+00,2.027706146240234375e+00,1.993458986282348633e+00,1.960349321365356445e+00,1.928321599960327148e+00,1.897323489189147949e+00,1.867306470870971680e+00
5.000000000000000000e+00,5.000000000000000000e+00,5.000000000000000000e+00,5.000000000000000000e+00,5.000000000000000000e+00,5.000000000000000000e+00,5.000000000000000000e+00,5.000000000000000000e+00,5.000000000000000000e+00,5.000000000000000000e+00,5.000000000000000000e+00,5.000000000000000000e+00,5.000000000000000000e+00,5.000000000000000000e+00,5.000000000000000000e+00,5.000000000000000000e+00,5.000000000000000000e+00,5.000000000000000000e+00,5.000000000000000000e+00,5.000000000000000000e+00,5.000000000000000000e+00,5.000000000000000000e+00,5.000000000000000000e+00,5.000000000000000000e+00,5.000000000000000000e+00,5.000000000000000000e+00,5.000000000000000000e+00,5.000000000000000000e+00,5.000000000000000000e+00,5.000000000000000000e+00,5.000000000000000000e+00,5.000000000000000000e+00,5.000000000000000000e+00,5.000000000000000000e+00,5.000000000000000000e+00,5.000000000000000000e+00,5.000000000000000000e+00,5.000000000000000000e+00,5.000000000000000000e+00,5.000000000000000000e+00,4.875766277313232422e+00,4.682338237762451172e+00,4.503672122955322266e+00,4.338139057159423828e+00,4.184343338012695312e+00,4.041079044342041016e+00,3.907300472259521484e+00,3.782095432281494141e+00,3.664664983749389648e+00,3.554307460784912109e+00,3.450402021408081055e+00,3.352399110794067383e+00,3.259809970855712891e+00,3.172197341918945312e+00,3.089171171188354492e+00,3.010380268096923828e+00,2.935508489608764648e+00,2.864270687103271484e+00,2.796408414840698242e+00,2.731687307357788086e+00,2.669894456863403320e+00,2.610835313796997070e+00,2.554332494735717773e+00,2.500223398208618164e+00,2.448359489440917969e+00,2.398603200912475586e+00,2.350829124450683594e+00,2.304920911788940430e+00,2.260771512985229492e+00,2.218281507492065430e+00,2.177359104156494141e+00,2.137919425964355469e+00,2.099882841110229492e+00,2.063176155090332031e+00,2.027730941772460938e+00,1.993482947349548340e+00,1.960372447967529297e+00,1.928344011306762695e+00,1.897345185279846191e+00,1.867327451705932617e+00
5.000000000000000000e+00,5.000000000000000000e+00,5.000000000000000000e+00,5.000000000000000000e+00,5.000000000000000000e+00,5.000000000000000000e+00,5.000000000000000000e+00,5.000000000000000000e+00,5.000000000000000000e+00,5.000000000000000000e+00,5.000000000000000000e+00,5.000000000000000000e+00,5.000000000000000000e+00,5.000000000000000000e+00,5.000000000000000000e+00,5.000000000000000000e+00,5.000000000000000000e+00,5.000000000000000000e+00,5.000000000000000000e+00,5.000000000000000000e+00,5.000000000000000000e+00,5.000000000000000000e+00,5.000000000000000000e+00,5.000000000000000000e+00,5.000000000000000000e+00,5.000000000000000000e+00,5.000000000000000000e+00,5.000000000000000000e+00,5.000000000000000000e+00,5.000000000000000000e+00,5.000000000000000000e+00,5.000000000000000000e+00,5.000000000000000000e+00,5.000000000000000000e+00,5.000000000000000000e+00,5.000000000000000000e+00,5.000000000000000000e+00,5.000000000000000000e+00,5.000000000000000000e+00,5.000000000000000000e+00,4.875908851623535156e+00,4.682469844818115234e+00,4.503793716430664062e+00,4.338252544403076172e+00,4.184448719024658203e+00,4.041177272796630859e+00,3.907392501831054688e+00,3.782181501388549805e+00,3.664745807647705078e+00,3.554383039474487305e+00,3.450473308563232422e+00,3.352466583251953125e+00,3.259873628616333008e+00,3.172257661819458008e+00,3.089228391647338867e+00,3.010434389114379883e+00,2.935560226440429688e+00,2.864319801330566406e+00,2.796455144882202148e+00,2.731732130050659180e+00,2.669937372207641602e+00,2.610876321792602539e+00,2.554371833801269531e+00,2.500261068344116211e+00,2.448395490646362305e+00,2.398637771606445312e+00,2.350862264633178711e+00,2.304952859878540039e+00,2.260802268981933594e+00,2.218311071395874023e+00,2.177387714385986328e+00,2.137946844100952148e+00,2.099909543991088867e+00,2.063201904296875000e+00,2.027755737304687500e+00,1.993506789207458496e+00,1.960395574569702148e+00,1.928366422653198242e+00,1.897366881370544434e+00,1.867348432540893555e+00
5.000000000000000000e+00,5.000000000000000000e+00,5.000000000000000000e+00,5.000000000000000000e+00,5.000000000000000000e+00,5.000000000000000000e+00,5.000000000000000000e+00,5.000000000000000000e+00,5.000000000000000000e+00,5.000000000000000000e+00,5.000000000000000000e+00,5.000000000000000000e+00,5.000000000000000000e+00,5.000000000000000000e+00,5.000000000000000000e+00,5.000000000000000000e+00,5.000000000000000000e+00,5.000000000000000000e+00,5.000000000000000000e+00,5.000000000000000000e+00,5.000000000000000000e+00,5.000000000000000000e+00,5.000000000000000000e+00,5.000000000000000000e+00,5.000000000000000000e+00,5.000000000000000000e+00,5.000000000000000000e+00,5.000000000000000000e+00,5.000000000000000000e+00,5.000000000000000000e+00,5.000000000000000000e+00,5.000000000000000000e+00,5.000000000000000000e+00,5.000000000000000000e+00,5.000000000000000000e+00,5.000000000000000000e+00,5.000000000000000000e+00,5.000000000000000000e+00,5.000000000000000000e+00,5.000000000000000000e+00,4.876051902770996094e+00,4.682601451873779297e+00,4.503915786743164062e+00,4.338365554809570312e+00,4.184554100036621094e+00,4.041275501251220703e+00,3.907483816146850586e+00,3.782267093658447266e+00,3.664826393127441406e+00,3.554459095001220703e+00,3.450545072555541992e+00,3.352534055709838867e+00,3.259937524795532227e+00,3.172318220138549805e+00,3.089285850524902344e+00,3.010488986968994141e+00,2.935611963272094727e+00,2.864369153976440430e+00,2.796502351760864258e+00,2.731777191162109375e+00,2.669980287551879883e+00,2.610917329788208008e+00,2.554411172866821289e+00,2.500298738479614258e+00,2.448431491851806641e+00,2.398672342300415039e+00,2.350895643234252930e+00,2.304984807968139648e+00,2.260833024978637695e+00,2.218340635299682617e+00,2.177416086196899414e+00,2.137974500656127930e+00,2.099935770034790039e+00,2.063227415084838867e+00,2.027780294418334961e+00,1.993530511856079102e+00,1.960418701171875000e+00,1.928388595581054688e+00,1.897388577461242676e+00,1.867369174957275391e+00
5.000000000000000000e+00,5.000000000000000000e+00,5.000000000000000000e+00,5.000000000000000000e+00,5.000000000000000000e+00,5.000000000000000000e+00,5.000000000000000000e+00,5.000000000000000000e+00,5.000000000000000000e+00,5.000000000000000000e+00,5.000000000000000000e+00,5.000000000000000000e+00,5.000000000000000000e+00,5.000000000000000000e+00,5.000000000000000000e+00,5.000000000000000000e+00,5.000000000000000000e+00,5.000000000000000000e+00,5.000000000000000000e+00,5.000000000000000000e+00,5.000000000000000000e+00,5.000000000000000000e+00,5.000000000000000000e+00,5.000000000000000000e+00,5.000000000000000000e+00,5.000000000000000000e+00,5.000000000000000000e+00,5.000000000000000000e+00,5.000000000000000000e+00,5.000000000000000000e+00,5.000000000000000000e+00,5.000000000000000000e+00,5.000000000000000000e+00,5.000000000000000000e+00,5.000000000000000000e+00,5.000000000000000000e+00,5.000000000000000000e+00,5.000000000000000000e+00,5.000000000000000000e+00,5.000000000000000000e+00,4.876194477081298828e+00,4.682733535766601562e+00,4.504037857055664062e+00,4.338478565216064453e+00,4.184659481048583984e+00,4.041373729705810547e+00,3.907575845718383789e+00,3.782353162765502930e+00,3.664907217025756836e+00,3.554535150527954102e+00,3.450616836547851562e+00,3.352601766586303711e+00,3.260001420974731445e+00,3.172378778457641602e+00,3.089343309402465820e+00,3.010543584823608398e+00,2.935663938522338867e+00,2.864418506622314453e+00,2.796549320220947266e+00,2.731822013854980469e+00,2.670023202896118164e+00,2.610958576202392578e+00,2.554450273513793945e+00,2.500336170196533203e+00,2.448467493057250977e+00,2.398706912994384766e+00,2.350928783416748047e+00,2.305016756057739258e+00,2.260863542556762695e+00,2.218370199203491211e+00,2.177444696426391602e+00,2.138001680374145508e+00,2.099962472915649414e+00,2.063252925872802734e+00,2.027805089950561523e+00,1.993554472923278809e+00,1.960441827774047852e+00,1.928411006927490234e+00,1.897410154342651367e+00,1.867390155792236328e+00
5.000000000000000000e+00,5.000000000000000000e+00,5.000000000000000000e+00,5.000000000000000000e+00,5.000000000000000000e+00,5.000000000000000000e+00,5.000000000000000000e+00,5.000000000000000000e+00,5.000000000000000000e+00,5.000000000000000000e+00,5.000000000000000000e+00,5.000000000000000000e+00,5.000000000000000000e+00,5.000000000000000000e+00,5.000000000000000000e+00,5.000000000000000000e+00,5.000000000000000000e+00,5.000000000000000000e+00,5.000000000000000000e+00,5.000000000000000000e+00,5.000000000000000000e+00,5.000000000000000000e+00,5.000000000000000000e+00,5.000000000000000000e+00,5.000000000000000000e+00,5.000000000000000000e+00,5.000000000000000000e+00,5.000000000000000000e+00,5.000000000000000000e+00,5.000000000000000000e+00,5.000000000000000000e+00,5.000000000000000000e+00,5.000000000000000000e+00,5.000000000000000000e+00,5.000000000000000000e+00,5.000000000000000000e+00,5.000000000000000000e+00,5.000000000000000000e+00,5.000000000000000000e+00,5.000000000000000000e+00,4.876337528228759766e+00,4.682865142822265625e+00,4.504159450531005859e+00,4.338591575622558594e+00,4.184764385223388672e+00,4.041471958160400391e+00,3.907667875289916992e+00,3.782439470291137695e+00,3.664988040924072266e+00,3.554611206054687500e+00,3.450688362121582031e+00,3.352669477462768555e+00,3.260065555572509766e+00,3.172439098358154297e+00,3.089400291442871094e+00,3.010597944259643555e+00,2.935715436935424805e+00,2.864467620849609375e+00,2.796596288681030273e+00,2.731866836547851562e+00,2.670065879821777344e+00,2.610999345779418945e+00,2.554489374160766602e+00,2.500373840332031250e+00,2.448503494262695312e+00,2.398741483688354492e+00,2.350961923599243164e+00,2.305048704147338867e+00,2.260894298553466797e+00,2.218399763107299805e+00,2.177473068237304688e+00,2.138029336929321289e+00,2.099988937377929688e+00,2.063278675079345703e+00,2.027829885482788086e+00,1.993578314781188965e+00,1.960464954376220703e+00,1.928433299064636230e+00,1.897431850433349609e+00,1.867411136627197266e+00
5.000000000000000000e+00,5.000000000000000000e+00,5.000000000000000000e+00,5.000000000000000000e+00,5.000000000000000000e+00,5.000000000000000000e+00,5.000000000000000000e+00,5.000000000000000000e+00,5.000000000000000000e+00,5.000000000000000000e+00,5.000000000000000000e+00,5.000000000000000000e+00,5.000000000000000000e+00,5.000000000000000000e+00,5.000000000000000000e+00,5.000000000000000000e+00,5.000000000000000000e+00,5.000000000000000000e+00,5.000000000000000000e+00,5.000000000000000000e+00,5.000000000000000000e+00,5.000000000000000000e+00,5.000000000000000000e+00,5.000000000000000000e+00,5.000000000000000000e+00,5.000000000000000000e+00,5.000000000000000000e+00,5.000000000000000000e+00,5.000000000000000000e+00,5.000000000000000000e+00,5.000000000000000000e+00,5.000000000000000000e+00,5.000000000000000000e+00,5.000000000000000000e+00,5.000000000000000000e+00,5.000000000000000000e+00,5.000000000000000000e+00,5.000000000000000000e+00,5.000000000000000000e+00,5.000000000000000000e+00,4.876480579376220703e+00,4.682997226715087891e+00,4.504281520843505859e+00,4.338704586029052734e+00,4.184869766235351562e+00,4.041570186614990234e+00,3.907759189605712891e+00,3.782525062561035156e+00,3.665068626403808594e+00,3.554687023162841797e+00,3.450759649276733398e+00,3.352736949920654297e+00,3.260129213333129883e+00,3.172499656677246094e+00,3.089457750320434570e+00,3.010652542114257812e+00,2.935767412185668945e+00,2.864517211914062500e+00,2.796643257141113281e+00,2.731911659240722656e+00,2.670108795166015625e+00,2.611040353775024414e+00,2.554528713226318359e+00,2.500411510467529297e+00,2.448539733886718750e+00,2.398776292800903320e+00,2.350995302200317383e+00,2.305080652236938477e+00,2.260925054550170898e+00,2.218429327011108398e+00,2.177501678466796875e+00,2.138056755065917969e+00,2.100015401840209961e+00,2.063304185867309570e+00,2.027854442596435547e+00,1.993602275848388672e+00,1.960487842559814453e+00,1.928455710411071777e+00,1.897453308105468750e+00,1.867432117462158203e+00
5.000000000000000000e+00,5.000000000000000000e+00,5.000000000000000000e+00,5.000000000000000000e+00,5.000000000000000000e+00,5.000000000000000000e+00,5.000000000000000000e+00,5.000000000000000000e+00,5.000000000000000000e+00,5.000000000000000000e+00,5.000000000000000000e+00,5.000000000000000000e+00,5.000000000000000000e+00,5.000000000000000000e+00,5.000000000000000000e+00,5.000000000000000000e+00,5.000000000000000000e+00,5.000000000000000000e+00,5.000000000000000000e+00,5.000000000000000000e+00,5.000000000000000000e+00,5.000000000000000000e+00,5.000000000000000000e+00,5.000000000000000000e+00,5.000000000000000000e+00,5.000000000000000000e+00,5.000000000000000000e+00,5.000000000000000000e+00,5.000000000000000000e+00,5.000000000000000000e+00,5.000000000000000000e+00,5.000000000000000000e+00,5.000000000000000000e+00,5.000000000000000000e+00,5.000000000000000000e+00,5.000000000000000000e+00,5.000000000000000000e+00,5.000000000000000000e+00,5.000000000000000000e+00,5.000000000000000000e+00,4.876623630523681641e+00,4.683128833770751953e+00,4.504403591156005859e+00,4.338818073272705078e+00,4.184975147247314453e+00,4.041668415069580078e+00,3.907851219177246094e+00,3.782611131668090820e+00,3.665149450302124023e+00,3.554763078689575195e+00,3.450831413269042969e+00,3.352804422378540039e+00,3.260193109512329102e+00,3.172560214996337891e+00,3.089515209197998047e+00,3.010707139968872070e+00,2.935819387435913086e+00,2.864566564559936523e+00,2.796690464019775391e+00,2.731956481933593750e+00,2.670151710510253906e+00,2.611081361770629883e+00,2.554568052291870117e+00,2.500449180603027344e+00,2.448575735092163086e+00,2.398810625076293945e+00,2.351028442382812500e+00,2.305112361907958984e+00,2.260955810546875000e+00,2.218458890914916992e+00,2.177530050277709961e+00,2.138084173202514648e+00,2.100041866302490234e+00,2.063329696655273438e+00,2.027879238128662109e+00,1.993626236915588379e+00,1.960510969161987305e+00,1.928478121757507324e+00,1.897475004196166992e+00,1.867453217506408691e+00
5.000000000000000000e+00,5.000000000000000000e+00,5.000000000000000000e+00,5.000000000000000000e+00,5.000000000000000000e+00,5.000000000000000000e+00,5.000000000000000000e+00,5.000000000000000000e+00,5.000000000000000000e+00,5.000000000000000000e+00,5.000000000000000000e+00,5.000000000000000000e+00,5.000000000000000000e+00,5.000000000000000000e+00,5.000000000000000000e+00,5.000000000000000000e+00,5.000000000000000000e+00,5.000000000000000000e+00,5.000000000000000000e+00,5.000000000000000000e+00,5.000000000000000000e+00,5.000000000000000000e+00,5.000000000000000000e+00,5.000000000000000000e+00,5.000000000000000000e+00,5.000000000000000000e+00,5.000000000000000000e+00,5.000000000000000000e+00,5.000000000000000000e+00,5.000000000000000000e+00,5.000000000000000000e+00,5.000000000000000000e+00,5.000000000000000000e+00,5.000000000000000000e+00,5.000000000000000000e+00,5.000000000000000000e+00,5.000000000000000000e+00,5.000000000000000000e+00,5.000000000000000000e+00,5.000000000000000000e+00,4.876766204833984375e+00,4.683260917663574219e+00,4.504525184631347656e+00,4.338931083679199219e+00,4.185080528259277344e+00,4.041766643524169922e+00,3.907943010330200195e+00,3.782697439193725586e+00,3.665230274200439453e+00,3.554839134216308594e+00,3.450903177261352539e+00,3.352872133255004883e+00,3.260257005691528320e+00,3.172621011734008789e+00,3.089572668075561523e+00,3.010761499404907227e+00,2.935870885848999023e+00,2.864615678787231445e+00,2.796737194061279297e+00,2.732001304626464844e+00,2.670194387435913086e+00,2.611122131347656250e+00,2.554607152938842773e+00,2.500486612319946289e+00,2.448611736297607422e+00,2.398845195770263672e+00,2.351061582565307617e+00,2.305144548416137695e+00,2.260986566543579102e+00,2.218488454818725586e+00,2.177558660507202148e+00,2.138111829757690430e+00,2.100068569183349609e+00,2.063355445861816406e+00,2.027904033660888672e+00,1.993650078773498535e+00,1.960534095764160156e+00,1.928500533103942871e+00,1.897496700286865234e+00,1.867474198341369629e+00
5.000000000000000000e+00,5.000000000000000000e+00,5.000000000000000000e+00,5.000000000000000000e+00,5.000000000000000000e+00,5.000000000000000000e+00,5.000000000000000000e+00,5.000000000000000000e+00,5.000000000000000000e+00,5.000000000000000000e+00,5.000000000000000000e+00,5.000000000000000000e+00,5.000000000000000000e+00,5.000000000000000000e+00,5.000000000000000000e+00,5.000000000000000000e+00,5.000000000000000000e+00,5.000000000000000000e+00,5.000000000000000000e+00,5.000000000000000000e+00,5.000000000000000000e+00,5.000000000000000000e+00,5.000000000000000000e+00,5.000000000000000000e+00,5.000000000000000000e+00,5.000000000000000000e+00,5.000000000000000000e+00,5.000000000000000000e+00,5.000000000000000000e+00,5.000000000000000000e+00,5.000000000000000000e+00,5.000000000000000000e+00,5.000000000000000000e+00,5.000000000000000000e+00,5.000000000000000000e+00,5.000000000000000000e+00,5.000000000000000000e+00,5.000000000000000000e+00,5.000000000000000000e+00,5.000000000000000000e+00,4.876909255981445312e+00,4.683393001556396484e+00,4.504647731781005859e+00,4.339044570922851562e+00,4.185185909271240234e+00,4.041864871978759766e+00,3.908034563064575195e+00,3.782783031463623047e+00,3.665310859680175781e+00,3.554914712905883789e+00,3.450974464416503906e+00,3.352939605712890625e+00,3.260320663452148438e+00,3.172681331634521484e+00,3.089629888534545898e+00,3.010815858840942383e+00,2.935922861099243164e+00,2.864665031433105469e+00,2.796784400939941406e+00,2.732046127319335938e+00,2.670237302780151367e+00,2.611163377761840820e+00,2.554646492004394531e+00,2.500524282455444336e+00,2.448647737503051758e+00,2.398880004882812500e+00,2.351094961166381836e+00,2.305176496505737305e+00,2.261017322540283203e+00,2.218518257141113281e+00,2.177587270736694336e+00,2.138139247894287109e+00,2.100095033645629883e+00,2.063380956649780273e+00,2.027928590774536133e+00,1.993674039840698242e+00,1.960557222366333008e+00,1.928522944450378418e+00,1.897518396377563477e+00,1.867494940757751465e+00
5.000000000000000000e+00,5.000000000000000000e+00,5.000000000000000000e+00,5.000000000000000000e+00,5.000000000000000000e+00,5.000000000000000000e+00,5.000000000000000000e+00,5.000000000000000000e+00,5.000000000000000000e+00,5.000000000000000000e+00,5.000000000000000000e+00,5.000000000000000000e+00,5.000000000000000000e+00,5.000000000000000000e+00,5.000000000000000000e+00,5.000000000000000000e+00,5.000000000000000000e+00,5.000000000000000000e+00,5.000000000000000000e+00,5.000000000000000000e+00,5.000000000000000000e+00,5.000000000000000000e+00,5.000000000000000000e+00,5.000000000000000000e+00,5.000000000000000000e+00,5.000000000000000000e+00,5.000000000000000000e+00,5.000000000000000000e+00,5.000000000000000000e+00,5.000000000000000000e+00,5.000000000000000000e+00,5.000000000000000000e+00,5.000000000000000000e+00,5.000000000000000000e+00,5.000000000000000000e+00,5.000000000000000000e+00,5.000000000000000000e+00,5.000000000000000000e+00,5.000000000000000000e+00,5.000000000000000000e+00,4.877052307128906250e+00,4.683524608612060547e+00,4.504769325256347656e+00,4.339157581329345703e+00,4.185290813446044922e+00,4.041963100433349609e+00,3.908126592636108398e+00,3.782869338989257812e+00,3.665391683578491211e+00,3.554990768432617188e+00,3.451046228408813477e+00,3.353007316589355469e+00,3.260384798049926758e+00,3.172741889953613281e+00,3.089687347412109375e+00,3.010870456695556641e+00,2.935974597930908203e+00,2.864714384078979492e+00,2.796831369400024414e+00,2.732091188430786133e+00,2.670280218124389648e+00,2.611204385757446289e+00,2.554685592651367188e+00,2.500561714172363281e+00,2.448683977127075195e+00,2.398914575576782227e+00,2.351128339767456055e+00,2.305208444595336914e+00,2.261048078536987305e+00,2.218547582626342773e+00,2.177615642547607422e+00,2.138166666030883789e+00,2.100121498107910156e+00,2.063406467437744141e+00,2.027953386306762695e+00,1.993697762489318848e+00,1.960580468177795410e+00,1.928545117378234863e+00,1.897540092468261719e+00,1.867515921592712402e+00
5.000000000000000000e+00,5.000000000000000000e+00,5.000000000000000000e+00,5.000000000000000000e+00,5.000000000000000000e+00,5.000000000000000000e+00,5.000000000000000000e+00,5.000000000000000000e+00,5.000000000000000000e+00,5.000000000000000000e+00,5.000000000000000000e+00,5.000000000000000000e+00,5.000000000000000000e+00,5.000000000000000000e+00,5.000000000000000000e+00,5.000000000000000000e+00,5.000000000000000000e+00,5.000000000000000000e+00,5.000000000000000000e+00,5.000000000000000000e+00,5.000000000000000000e+00,5.000000000000000000e+00,5.000000000000000000e+00,5.000000000000000000e+00,5.000000000000000000e+00,5.000000000000000000e+00,5.000000000000000000e+00,5.000000000000000000e+00,5.000000000000000000e+00,5.000000000000000000e+00,5.000000000000000000e+00,5.000000000000000000e+00,5.000000000000000000e+00,5.000000000000000000e+00,5.000000000000000000e+00,5.000000000000000000e+00,5.000000000000000000e+00,5.000000000000000000e+00,5.000000000000000000e+00,5.000000000000000000e+00,4.877195358276367188e+00,4.683656692504882812e+00,4.504891395568847656e+00,4.339270591735839844e+00,4.185396194458007812e+00,4.042060852050781250e+00,3.908218383789062500e+00,3.782955408096313477e+00,3.665472507476806641e+00,3.555067062377929688e+00,3.451117753982543945e+00,3.353074789047241211e+00,3.260448694229125977e+00,3.172802448272705078e+00,3.089744806289672852e+00,3.010925054550170898e+00,2.936026573181152344e+00,2.864763975143432617e+00,2.796878576278686523e+00,2.732135772705078125e+00,2.670322895050048828e+00,2.611245155334472656e+00,2.554724693298339844e+00,2.500599384307861328e+00,2.448719739913940430e+00,2.398949146270751953e+00,2.351161241531372070e+00,2.305240392684936523e+00,2.261078834533691406e+00,2.218577384948730469e+00,2.177644014358520508e+00,2.138194084167480469e+00,2.100147962570190430e+00,2.063432216644287109e+00,2.027978181838989258e+00,1.993721723556518555e+00,1.960603594779968262e+00,1.928567409515380859e+00,1.897561669349670410e+00,1.867536902427673340e+00
5.000000000000000000e+00,5.000000000000000000e+00,5.000000000000000000e+00,5.000000000000000000e+00,5.000000000000000000e+00,5.000000000000000000e+00,5.000000000000000000e+00,5.000000000000000000e+00,5.000000000000000000e+00,5.000000000000000000e+00,5.000000000000000000e+00,5.000000000000000000e+00,5.000000000000000000e+00,5.000000000000000000e+00,5.000000000000000000e+00,5.000000000000000000e+00,5.000000000000000000e+00,5.000000000000000000e+00,5.000000000000000000e+00,5.000000000000000000e+00,5.000000000000000000e+00,5.000000000000000000e+00,5.000000000000000000e+00,5.000000000000000000e+00,5.000000000000000000e+00,5.000000000000000000e+00,5.000000000000000000e+00,5.000000000000000000e+00,5.000000000000000000e+00,5.000000000000000000e+00,5.000000000000000000e+00,5.000000000000000000e+00,5.000000000000000000e+00,5.000000000000000000e+00,5.000000000000000000e+00,5.000000000000000000e+00,5.000000000000000000e+00,5.000000000000000000e+00,5.000000000000000000e+00,5.000000000000000000e+00,4.877338409423828125e+00,4.683788299560546875e+00,4.505013465881347656e+00,4.339384078979492188e+00,4.185501575469970703e+00,4.042159557342529297e+00,3.908310413360595703e+00,3.783041477203369141e+00,3.665553331375122070e+00,3.555143117904663086e+00,3.451189279556274414e+00,3.353142261505126953e+00,3.260512351989746094e+00,3.172862768173217773e+00,3.089802026748657227e+00,3.010979413986206055e+00,2.936078310012817383e+00,2.864813089370727539e+00,2.796925306320190430e+00,2.732180833816528320e+00,2.670366048812866211e+00,2.611286163330078125e+00,2.554764032363891602e+00,2.500636816024780273e+00,2.448755979537963867e+00,2.398983716964721680e+00,2.351194620132446289e+00,2.305272340774536133e+00,2.261109590530395508e+00,2.218606948852539062e+00,2.177672624588012695e+00,2.138221740722656250e+00,2.100174665451049805e+00,2.063457727432250977e+00,2.028002738952636719e+00,1.993745565414428711e+00,1.960626721382141113e+00,1.928589820861816406e+00,1.897583365440368652e+00,1.867557883262634277e+00
5.000000000000000000e+00,5.000000000000000000e+00,5.000000000000000000e+00,5.000000000000000000e+00,5.000000000000000000e+00,5.000000000000000000e+00,5.000000000000000000e+00,5.000000000000000000e+00,5.000000000000000000e+00,5.000000000000000000e+00,5.000000000000000000e+00,5.000000000000000000e+00,5.000000000000000000e+00,5.000000000000000000e+00,5.000000000000000000e+00,5.000000000000000000e+00,5.000000000000000000e+00,5.000000000000000000e+00,5.000000000000000000e+00,5.000000000000000000e+00,5.000000000000000000e+00,5.000000000000000000e+00,5.000000000000000000e+00,5.000000000000000000e+00,5.000000000000000000e+00,5.000000000000000000e+00,5.000000000000000000e+00,5.000000000000000000e+00,5.000000000000000000e+00,5.000000000000000000e+00,5.000000000000000000e+00,5.000000000000000000e+00,5.000000000000000000e+00,5.000000000000000000e+00,5.000000000000000000e+00,5.000000000000000000e+00,5.000000000000000000e+00,5.000000000000000000e+00,5.000000000000000000e+00,5.000000000000000000e+00,4.877480983734130859e+00,4.683919906616210938e+00,4.505135536193847656e+00,4.339497089385986328e+00,4.185606956481933594e+00,4.042257308959960938e+00,3.908401966094970703e+00,3.783127307891845703e+00,3.665633916854858398e+00,3.555218696594238281e+00,3.451260805130004883e+00,3.353209972381591797e+00,3.260576486587524414e+00,3.172923326492309570e+00,3.089859485626220703e+00,3.011034011840820312e+00,2.936130046844482422e+00,2.864862442016601562e+00,2.796972513198852539e+00,2.732225656509399414e+00,2.670408964157104492e+00,2.611327171325683594e+00,2.554803371429443359e+00,2.500674486160278320e+00,2.448791980743408203e+00,2.399018287658691406e+00,2.351227998733520508e+00,2.305304288864135742e+00,2.261140346527099609e+00,2.218636512756347656e+00,2.177701234817504883e+00,2.138249158859252930e+00,2.100200891494750977e+00,2.063483238220214844e+00,2.028027534484863281e+00,1.993769526481628418e+00,1.960649609565734863e+00,1.928612232208251953e+00,1.897604823112487793e+00,1.867578983306884766e+00
5.000000000000000000e+00,5.000000000000000000e+00,5.000000000000000000e+00,5.000000000000000000e+00,5.000000000000000000e+00,5.000000000000000000e+00,5.000000000000000000e+00,5.000000000000000000e+00,5.000000000000000000e+00,5.000000000000000000e+00,5.000000000000000000e+00,5.000000000000000000e+00,5.000000000000000000e+00,5.000000000000000000e+00,5.000000000000000000e+00,5.000000000000000000e+00,5.000000000000000000e+00,5.000000000000000000e+00,5.000000000000000000e+00,5.000000000000000000e+00,5.000000000000000000e+00,5.000000000000000000e+00,5.000000000000000000e+00,5.000000000000000000e+00,5.000000000000000000e+00,5.000000000000000000e+00,5.000000000000000000e+00,5.000000000000000000e+00,5.000000000000000000e+00,5.000000000000000000e+00,5.000000000000000000e+00,5.000000000000000000e+00,5.000000000000000000e+00,5.000000000000000000e+00,5.000000000000000000e+00,5.000000000000000000e+00,5.000000000000000000e+00,5.000000000000000000e+00,5.000000000000000000e+00,5.000000000000000000e+00,4.877624511718750000e+00,4.684051990509033203e+00,4.505257606506347656e+00,4.339610576629638672e+00,4.185712337493896484e+00,4.042356014251708984e+00,3.908493995666503906e+00,3.783213376998901367e+00,3.665714740753173828e+00,3.555294752120971680e+00,3.451332569122314453e+00,3.353277683258056641e+00,3.260640382766723633e+00,3.172983884811401367e+00,3.089916944503784180e+00,3.011088609695434570e+00,2.936182022094726562e+00,2.864911794662475586e+00,2.797019481658935547e+00,2.732270717620849609e+00,2.670451879501342773e+00,2.611368417739868164e+00,2.554842710494995117e+00,2.500711917877197266e+00,2.448827981948852539e+00,2.399052858352661133e+00,2.351261138916015625e+00,2.305335998535156250e+00,2.261170864105224609e+00,2.218666076660156250e+00,2.177729606628417969e+00,2.138276576995849609e+00,2.100227594375610352e+00,2.063508987426757812e+00,2.028052330017089844e+00,1.993793487548828125e+00,1.960672736167907715e+00,1.928634643554687500e+00,1.897626519203186035e+00,1.867599964141845703e+00
5.000000000000000000e+00,5.000000000000000000e+00,5.000000000000000000e+00,5.000000000000000000e+00,5.000000000000000000e+00,5.000000000000000000e+00,5.000000000000000000e+00,5.000000000000000000e+00,5.000000000000000000e+00,5.000000000000000000e+00,5.000000000000000000e+00,5.000000000000000000e+00,5.000000000000000000e+00,5.000000000000000000e+00,5.000000000000000000e+00,5.000000000000000000e+00,5.000000000000000000e+00,5.000000000000000000e+00,5.000000000000000000e+00,5.000000000000000000e+00,5.000000000000000000e+00,5.000000000000000000e+00,5.000000000000000000e+00,5.000000000000000000e+00,5.000000000000000000e+00,5.000000000000000000e+00,5.000000000000000000e+00,5.000000000000000000e+00,5.000000000000000000e+00,5.000000000000000000e+00,5.000000000000000000e+00,5.000000000000000000e+00,5.000000000000000000e+00,5.000000000000000000e+00,5.000000000000000000e+00,5.000000000000000000e+00,5.000000000000000000e+00,5.000000000000000000e+00,5.000000000000000000e+00,5.000000000000000000e+00,4.877765655517578125e+00,4.684184074401855469e+00,4.505379199981689453e+00,4.339723587036132812e+00,4.185817718505859375e+00,4.042454242706298828e+00,3.908585786819458008e+00,3.783299684524536133e+00,3.665795564651489258e+00,3.555371046066284180e+00,3.451404333114624023e+00,3.353345394134521484e+00,3.260704517364501953e+00,3.173044204711914062e+00,3.089974164962768555e+00,3.011142730712890625e+00,2.936233758926391602e+00,2.864961147308349609e+00,2.797066450119018555e+00,2.732315540313720703e+00,2.670494556427001953e+00,2.611409187316894531e+00,2.554881811141967773e+00,2.500749588012695312e+00,2.448863983154296875e+00,2.399087429046630859e+00,2.351294279098510742e+00,2.305368185043334961e+00,2.261201620101928711e+00,2.218695640563964844e+00,2.177758216857910156e+00,2.138304233551025391e+00,2.100254058837890625e+00,2.063534498214721680e+00,2.028076887130737305e+00,1.993817448616027832e+00,1.960695862770080566e+00,1.928657054901123047e+00,1.897648215293884277e+00,1.867620944976806641e+00
5.000000000000000000e+00,5.000000000000000000e+00,5.000000000000000000e+00,5.000000000000000000e+00,5.000000000000000000e+00,5.000000000000000000e+00,5.000000000000000000e+00,5.000000000000000000e+00,5.000000000000000000e+00,5.000000000000000000e+00,5.000000000000000000e+00,5.000000000000000000e+00,5.000000000000000000e+00,5.000000000000000000e+00,5.000000000000000000e+00,5.000000000000000000e+00,5.000000000000000000e+00,5.000000000000000000e+00,5.000000000000000000e+00,5.000000000000000000e+00,5.000000000000000000e+00,5.000000000000000000e+00,5.000000000000000000e+00,5.000000000000000000e+00,5.000000000000000000e+00,5.000000000000000000e+00,5.000000000000000000e+00,5.000000000000000000e+00,5.000000000000000000e+00,5.000000000000000000e+00,5.000000000000000000e+00,5.000000000000000000e+00,5.000000000000000000e+00,5.000000000000000000e+00,5.000000000000000000e+00,5.000000000000000000e+00,5.000000000000000000e+00,5.000000000000000000e+00,5.000000000000000000e+00,5.000000000000000000e+00,4.877905368804931641e+00,4.684315204620361328e+00,4.505501747131347656e+00,4.339837074279785156e+00,4.185922622680664062e+00,4.042551994323730469e+00,3.908677339553833008e+00,3.783385276794433594e+00,3.665876150131225586e+00,3.555446624755859375e+00,3.451475620269775391e+00,3.353412628173828125e+00,3.260768175125122070e+00,3.173104763031005859e+00,3.090031623840332031e+00,3.011197328567504883e+00,2.936285495758056641e+00,2.865010499954223633e+00,2.797113418579101562e+00,2.732360363006591797e+00,2.670537471771240234e+00,2.611450195312500000e+00,2.554921150207519531e+00,2.500787258148193359e+00,2.448900222778320312e+00,2.399122238159179688e+00,2.351327657699584961e+00,2.305400133132934570e+00,2.261232376098632812e+00,2.218725204467773438e+00,2.177786827087402344e+00,2.138331651687622070e+00,2.100280523300170898e+00,2.063560247421264648e+00,2.028101682662963867e+00,1.993841290473937988e+00,1.960718989372253418e+00,1.928679227828979492e+00,1.897669911384582520e+00,1.867641687393188477e+00
5.000000000000000000e+00,5.000000000000000000e+00,5.000000000000000000e+00,5.000000000000000000e+00,5.000000000000000000e+00,5.000000000000000000e+00,5.000000000000000000e+00,5.000000000000000000e+00,5.000000000000000000e+00,5.000000000000000000e+00,5.000000000000000000e+00,5.000000000000000000e+00,5.000000000000000000e+00,5.000000000000000000e+00,5.000000000000000000e+00,5.000000000000000000e+00,5.000000000000000000e+00,5.000000000000000000e+00,5.000000000000000000e+00,5.000000000000000000e+00,5.000000000000000000e+00,5.000000000000000000e+00,5.000000000000000000e+00,5.000000000000000000e+00,5.000000000000000000e+00,5.000000000000000000e+00,5.000000000000000000e+00,5.000000000000000000e+00,5.000000000000000000e+00,5.000000000000000000e+00,5.000000000000000000e+00,5.000000000000000000e+00,5.000000000000000000e+00,5.000000000000000000e+00,5.000000000000000000e+00,5.000000000000000000e+00,5.000000000000000000e+00,5.000000000000000000e+00,5.000000000000000000e+00,5.000000000000000000e+00,4.878045082092285156e+00,4.684443950653076172e+00,4.505623340606689453e+00,4.339950084686279297e+00,4.186028480529785156e+00,4.042650699615478516e+00,3.908769369125366211e+00,3.783471584320068359e+00,3.665956974029541016e+00,3.555522680282592773e+00,3.451547384262084961e+00,3.353480339050292969e+00,3.260832071304321289e+00,3.173165559768676758e+00,3.090089082717895508e+00,3.011251926422119141e+00,2.936337471008300781e+00,2.865059852600097656e+00,2.797160625457763672e+00,2.732405424118041992e+00,2.670580387115478516e+00,2.611491203308105469e+00,2.554960489273071289e+00,2.500824928283691406e+00,2.448936223983764648e+00,2.399156808853149414e+00,2.351360797882080078e+00,2.305431842803955078e+00,2.261263132095336914e+00,2.218754768371582031e+00,2.177815198898315430e+00,2.138359069824218750e+00,2.100306987762451172e+00,2.063585758209228516e+00,2.028126478195190430e+00,1.993865013122558594e+00,1.960742235183715820e+00,1.928701639175415039e+00,1.897691607475280762e+00,1.867662668228149414e+00
5.000000000000000000e+00,5.000000000000000000e+00,5.000000000000000000e+00,5.000000000000000000e+00,5.000000000000000000e+00,5.000000000000000000e+00,5.000000000000000000e+00,5.000000000000000000e+00,5.000000000000000000e+00,5.000000000000000000e+00,5.000000000000000000e+00,5.000000000000000000e+00,5.000000000000000000e+00,5.000000000000000000e+00,5.000000000000000000e+00,5.000000000000000000e+00,5.000000000000000000e+00,5.000000000000000000e+00,5.000000000000000000e+00,5.000000000000000000e+00,5.000000000000000000e+00,5.000000000000000000e+00,5.000000000000000000e+00,5.000000000000000000e+00,5.000000000000000000e+00,5.000000000000000000e+00,5.000000000000000000e+00,5.000000000000000000e+00,5.000000000000000000e+00,5.000000000000000000e+00,5.000000000000000000e+00,5.000000000000000000e+00,5.000000000000000000e+00,5.000000000000000000e+00,5.000000000000000000e+00,5.000000000000000000e+00,5.000000000000000000e+00,5.000000000000000000e+00,5.000000000000000000e+00,5.000000000000000000e+00,4.878184795379638672e+00,4.684572696685791016e+00,4.505743026733398438e+00,4.340063095092773438e+00,4.186133384704589844e+00,4.042748928070068359e+00,3.908861398696899414e+00,3.783557653427124023e+00,3.666038036346435547e+00,3.555598974227905273e+00,3.451619148254394531e+00,3.353548049926757812e+00,3.260896205902099609e+00,3.173226118087768555e+00,3.090146780014038086e+00,3.011306524276733398e+00,2.936389207839965820e+00,2.865108966827392578e+00,2.797207593917846680e+00,2.732450008392333984e+00,2.670623064041137695e+00,2.611532211303710938e+00,2.554999589920043945e+00,2.500862360000610352e+00,2.448972225189208984e+00,2.399191141128540039e+00,2.351393938064575195e+00,2.305464029312133789e+00,2.261293888092041016e+00,2.218784332275390625e+00,2.177843809127807617e+00,2.138386487960815430e+00,2.100333690643310547e+00,2.063611268997192383e+00,2.028151035308837891e+00,1.993888974189758301e+00,1.960765361785888672e+00,1.928723931312561035e+00,1.897713184356689453e+00,1.867683768272399902e+00
5.000000000000000000e+00,5.000000000000000000e+00,5.000000000000000000e+00,5.000000000000000000e+00,5.000000000000000000e+00,5.000000000000000000e+00,5.000000000000000000e+00,5.000000000000000000e+00,5.000000000000000000e+00,5.000000000000000000e+00,5.000000000000000000e+00,5.000000000000000000e+00,5.000000000000000000e+00,5.000000000000000000e+00,5.000000000000000000e+00,5.000000000000000000e+00,5.000000000000000000e+00,5.000000000000000000e+00,5.000000000000000000e+00,5.000000000000000000e+00,5.000000000000000000e+00,5.000000000000000000e+00,5.000000000000000000e+00,5.000000000000000000e+00,5.000000000000000000e+00,5.000000000000000000e+00,5.000000000000000000e+00,5.000000000000000000e+00,5.000000000000000000e+00,5.000000000000000000e+00,5.000000000000000000e+00,5.000000000000000000e+00,5.000000000000000000e+00,5.000000000000000000e+00,5.000000000000000000e+00,5.000000000000000000e+00,5.000000000000000000e+00,5.000000000000000000e+00,5.000000000000000000e+00,5.000000000000000000e+00,4.878324508666992188e+00,4.684701442718505859e+00,4.505862236022949219e+00,4.340175151824951172e+00,4.186238765716552734e+00,4.042847156524658203e+00,3.908953428268432617e+00,3.783643484115600586e+00,3.666118383407592773e+00,3.555674552917480469e+00,3.451690435409545898e+00,3.353615522384643555e+00,3.260959863662719727e+00,3.173286437988281250e+00,3.090203762054443359e+00,3.011360883712768555e+00,2.936440944671630859e+00,2.865158557891845703e+00,2.797254562377929688e+00,2.732495069503784180e+00,2.670665979385375977e+00,2.611573219299316406e+00,2.555038690567016602e+00,2.500900030136108398e+00,2.449008226394653320e+00,2.399225950241088867e+00,2.351427316665649414e+00,2.305495977401733398e+00,2.261324644088745117e+00,2.218814134597778320e+00,2.177872180938720703e+00,2.138414144515991211e+00,2.100360155105590820e+00,2.063637018203735352e+00,2.028175830841064453e+00,1.993912935256958008e+00,1.960788488388061523e+00,1.928746342658996582e+00,1.897734880447387695e+00,1.867704749107360840e+00
5.000000000000000000e+00,5.000000000000000000e+00,5.000000000000000000e+00,5.000000000000000000e+00,5.000000000000000000e+00,5.000000000000000000e+00,5.000000000000000000e+00,5.000000000000000000e+00,5.000000000000000000e+00,5.000000000000000000e+00,5.000000000000000000e+00,5.000000000000000000e+00,5.000000000000000000e+00,5.000000000000000000e+00,5.000000000000000000e+00,5.000000000000000000e+00,5.000000000000000000e+00,5.000000000000000000e+00,5.000000000000000000e+00,5.000000000000000000e+00,5.000000000000000000e+00,5.000000000000000000e+00,5.000000000000000000e+00,5.000000000000000000e+00,5.000000000000000000e+00,5.000000000000000000e+00,5.000000000000000000e+00,5.000000000000000000e+00,5.000000000000000000e+00,5.000000000000000000e+00,5.000000000000000000e+00,5.000000000000000000e+00,5.000000000000000000e+00,5.000000000000000000e+00,5.000000000000000000e+00,5.000000000000000000e+00,5.000000000000000000e+00,5.000000000000000000e+00,5.000000000000000000e+00,5.000000000000000000e+00,4.878464221954345703e+00,4.684830665588378906e+00,4.505981445312500000e+00,4.340285301208496094e+00,4.186343669891357422e+00,4.042945384979248047e+00,3.909044981002807617e+00,3.783729553222656250e+00,3.666199445724487305e+00,3.555750846862792969e+00,3.451762199401855469e+00,3.353683233261108398e+00,3.261023759841918945e+00,3.173346996307373047e+00,3.090261459350585938e+00,3.011415481567382812e+00,2.936492919921875000e+00,2.865207910537719727e+00,2.797301769256591797e+00,2.732539892196655273e+00,2.670708894729614258e+00,2.611614227294921875e+00,2.555078029632568359e+00,2.500937700271606445e+00,2.449044466018676758e+00,2.399260520935058594e+00,2.351460456848144531e+00,2.305527925491333008e+00,2.261355400085449219e+00,2.218843460083007812e+00,2.177900552749633789e+00,2.138441562652587891e+00,2.100386619567871094e+00,2.063662528991699219e+00,2.028200626373291016e+00,1.993936896324157715e+00,1.960811376571655273e+00,1.928768754005432129e+00,1.897756338119506836e+00,1.867725729942321777e+00
4.872368812561035156e+00,4.871150016784667969e+00,4.869931697845458984e+00,4.868713855743408203e+00,4.867496490478515625e+00,4.866279602050781250e+00,4.865063667297363281e+00,4.863848209381103516e+00,4.862633228302001953e+00,4.861419200897216797e+00,4.860205650329589844e+00,4.858992576599121094e+00,4.857780456542968750e+00,4.856568336486816406e+00,4.855357170104980469e+00,4.854146957397460938e+00,4.852936744689941406e+00,4.851727485656738281e+00,4.850518703460693359e+00,4.849310398101806641e+00,4.848103046417236328e+00,4.846896171569824219e+00,4.845689773559570312e+00,4.844483852386474609e+00,4.843278884887695312e+00,4.842073917388916016e+00,4.840869903564453125e+00,4.839666843414306641e+00,4.838463783264160156e+00,4.837261676788330078e+00,4.836060047149658203e+00,4.834858894348144531e+00,4.833658695220947266e+00,4.832458972930908203e+00,4.831259727478027344e+00,4.830060958862304688e+00,4.828863143920898438e+00,4.827665805816650391e+00,4.826468944549560547e+00,4.825273036956787109e+00,4.824077606201171875e+00,4.684959411621093750e+00,4.506100654602050781e+00,4.340396404266357422e+00,4.186446666717529297e+00,4.043043613433837891e+00,3.909136772155761719e+00,3.783815860748291016e+00,3.666280269622802734e+00,3.555826902389526367e+00,3.451833963394165039e+00,3.353750944137573242e+00,3.261087894439697266e+00,3.173407554626464844e+00,3.090318918228149414e+00,3.011470079421997070e+00,2.936544895172119141e+00,2.865257263183593750e+00,2.797348737716674805e+00,2.732584953308105469e+00,2.670751810073852539e+00,2.611654996871948242e+00,2.555117130279541016e+00,2.500975131988525391e+00,2.449080228805541992e+00,2.399295091629028320e+00,2.351493597030639648e+00,2.305559873580932617e+00,2.261386156082153320e+00,2.218873262405395508e+00,2.177929162979125977e+00,2.138468980789184570e+00,2.100413084030151367e+00,2.063688039779663086e+00,2.028225421905517578e+00,1.993960738182067871e+00,1.960834503173828125e+00,1.928791165351867676e+00,1.897778034210205078e+00,1.867746710777282715e+00
3.776854515075683594e+00,3.776121616363525391e+00,3.775389432907104492e+00,3.774657249450683594e+00,3.773925781250000000e+00,3.773194313049316406e+00,3.772463321685791016e+00,3.771732330322265625e+00,3.771001815795898438e+00,3.770271301269531250e+00,3.769541501998901367e+00,3.768812179565429688e+00,3.768082380294799805e+00,3.767353534698486328e+00,3.766624450683593750e+00,3.765896081924438477e+00,3.765167474746704102e+00,3.764439821243286133e+00,3.763711690902709961e+00,3.762984514236450195e+00,3.762257099151611328e+00,3.761530399322509766e+00,3.760803699493408203e+00,3.760077476501464844e+00,3.759351253509521484e+00,3.758625745773315430e+00,3.757899999618530273e+00,3.757174968719482422e+00,3.756449937820434570e+00,3.755725383758544922e+00,3.755000829696655273e+00,3.754276990890502930e+00,3.753552913665771484e+00,3.752829551696777344e+00,3.752105951309204102e+00,3.751383304595947266e+00,3.750660419464111328e+00,3.749938249588012695e+00,3.749215841293334961e+00,3.748494148254394531e+00,3.747772216796875000e+00,3.747051239013671875e+00,3.746330022811889648e+00,3.745609521865844727e+00,3.744888782501220703e+00,3.744168758392333984e+00,3.743448495864868164e+00,3.742729187011718750e+00,3.666361331939697266e+00,3.555902957916259766e+00,3.451905250549316406e+00,3.353818178176879883e+00,3.261151552200317383e+00,3.173467874526977539e+00,3.090376138687133789e+00,3.011524438858032227e+00,2.936596632003784180e+00,2.865306377410888672e+00,2.797395706176757812e+00,2.732629537582397461e+00,2.670794725418090820e+00,2.611696243286132812e+00,2.555156469345092773e+00,2.501012802124023438e+00,2.449116468429565430e+00,2.399329662322998047e+00,2.351526975631713867e+00,2.305591821670532227e+00,2.261416912078857422e+00,2.218902826309204102e+00,2.177957773208618164e+00,2.138496637344360352e+00,2.100439786911010742e+00,2.063713788986206055e+00,2.028249979019165039e+00,1.993984699249267578e+00,1.960857629776000977e+00,1.928813576698303223e+00,1.897799730300903320e+00,1.867767691612243652e+00
3.083543539047241211e+00,3.083055019378662109e+00,3.082566976547241211e+00,3.082078933715820312e+00,3.081591129302978516e+00,3.081103324890136719e+00,3.080615997314453125e+00,3.080128431320190430e+00,3.079641342163085938e+00,3.079154253005981445e+00,3.078667402267456055e+00,3.078180551528930664e+00,3.077693939208984375e+00,3.077207326889038086e+00,3.076721191406250000e+00,3.076234817504882812e+00,3.075749158859252930e+00,3.075263023376464844e+00,3.074777603149414062e+00,3.074291944503784180e+00,3.073806524276733398e+00,3.073321580886840820e+00,3.072836399078369141e+00,3.072351455688476562e+00,3.071866512298583984e+00,3.071382045745849609e+00,3.070897579193115234e+00,3.070413351058959961e+00,3.069929122924804688e+00,3.069445133209228516e+00,3.068961143493652344e+00,3.068477630615234375e+00,3.067993879318237305e+00,3.067510604858398438e+00,3.067027330398559570e+00,3.066544294357299805e+00,3.066061258316040039e+00,3.065578699111938477e+00,3.065095901489257812e+00,3.064613580703735352e+00,3.064131021499633789e+00,3.063649177551269531e+00,3.063166856765747070e+00,3.062685251235961914e+00,3.062203407287597656e+00,3.061721801757812500e+00,3.061240434646606445e+00,3.060759305953979492e+00,3.060277938842773438e+00,3.059797048568725586e+00,3.059316158294677734e+00,3.058835506439208984e+00,3.058354854583740234e+00,3.057874679565429688e+00,3.057394266128540039e+00,3.011579036712646484e+00,2.936648368835449219e+00,2.865355968475341797e+00,2.797442913055419922e+00,2.732674598693847656e+00,2.670837640762329102e+00,2.611737251281738281e+00,2.555195808410644531e+00,2.501050472259521484e+00,2.449152469635009766e+00,2.399364471435546875e+00,2.351560354232788086e+00,2.305623769760131836e+00,2.261447668075561523e+00,2.218932390213012695e+00,2.177986383438110352e+00,2.138524055480957031e+00,2.100466251373291016e+00,2.063739299774169922e+00,2.028274774551391602e+00,1.994008421897888184e+00,1.960880875587463379e+00,1.928835749626159668e+00,1.897821426391601562e+00,1.867788553237915039e+00
2.605293989181518555e+00,2.604945182800292969e+00,2.604596853256225586e+00,2.604248285293579102e+00,2.603900194168090820e+00,2.603551864624023438e+00,2.603203773498535156e+00,2.602855682373046875e+00,2.602507829666137695e+00,2.602159738540649414e+00,2.601812124252319336e+00,2.601464509963989258e+00,2.601116895675659180e+00,2.600769281387329102e+00,2.600422143936157227e+00,2.600074768066406250e+00,2.599727630615234375e+00,2.599380493164062500e+00,2.599033594131469727e+00,2.598686456680297852e+00,2.598339796066284180e+00,2.597992897033691406e+00,2.597646236419677734e+00,2.597299814224243164e+00,2.596953392028808594e+00,2.596606969833374023e+00,2.596260786056518555e+00,2.595914363861083984e+00,2.595568418502807617e+00,2.595222473144531250e+00,2.594876527786254883e+00,2.594530820846557617e+00,2.594185113906860352e+00,2.593839406967163086e+00,2.593493938446044922e+00,2.593148469924926758e+00,2.592803001403808594e+00,2.592458009719848633e+00,2.592112541198730469e+00,2.591767787933349609e+00,2.591422557830810547e+00,2.591077804565429688e+00,2.590732812881469727e+00,2.590388298034667969e+00,2.590043544769287109e+00,2.589699268341064453e+00,2.589354515075683594e+00,2.589010477066040039e+00,2.588665962219238281e+00,2.588321924209594727e+00,2.587977886199951172e+00,2.587633848190307617e+00,2.587290048599243164e+00,2.586946249008178711e+00,2.586602449417114258e+00,2.586258888244628906e+00,2.585915327072143555e+00,2.585572004318237305e+00,2.585228681564331055e+00,2.584885597229003906e+00,2.584542274475097656e+00,2.584199190139770508e+00,2.555235147476196289e+00,2.501087903976440430e+00,2.449188470840454102e+00,2.399398803710937500e+00,2.351593494415283203e+00,2.305655717849731445e+00,2.261478185653686523e+00,2.218961954116821289e+00,2.178014755249023438e+00,2.138551473617553711e+00,2.100492715835571289e+00,2.063765048980712891e+00,2.028299570083618164e+00,1.994032382965087891e+00,1.960904002189636230e+00,1.928858160972595215e+00,1.897843122482299805e+00,1.867809534072875977e+00
2.255463123321533203e+00,2.255203485488891602e+00,2.254943847656250000e+00,2.254684209823608398e+00,2.254424571990966797e+00,2.254164934158325195e+00,2.253905296325683594e+00,2.253645896911621094e+00,2.253386497497558594e+00,2.253126144409179688e+00,2.252865552902221680e+00,2.252604961395263672e+00,2.252344369888305664e+00,2.252083778381347656e+00,2.251823425292968750e+00,2.251562833786010742e+00,2.251302480697631836e+00,2.251042127609252930e+00,2.250782012939453125e+00,2.250521659851074219e+00,2.250261783599853516e+00,2.250001668930053711e+00,2.249741554260253906e+00,2.249481678009033203e+00,2.249221801757812500e+00,2.248961925506591797e+00,2.248702287673950195e+00,2.248442411422729492e+00,2.248182773590087891e+00,2.247923135757446289e+00,2.247663736343383789e+00,2.247404336929321289e+00,2.247144937515258789e+00,2.246885538101196289e+00,2.246626377105712891e+00,2.246366977691650391e+00,2.246107816696166992e+00,2.245848655700683594e+00,2.245589733123779297e+00,2.245330810546875000e+00,2.245071887969970703e+00,2.244812965393066406e+00,2.244554042816162109e+00,2.244295597076416016e+00,2.244036674499511719e+00,2.243778228759765625e+00,2.243519544601440430e+00,2.243261098861694336e+00,2.243002653121948242e+00,2.242744207382202148e+00,2.242485761642456055e+00,2.242227792739868164e+00,2.241969347000122070e+00,2.241711378097534180e+00,2.241453170776367188e+00,2.241195201873779297e+00,2.240937232971191406e+00,2.240679264068603516e+00,2.240421295166015625e+00,2.240163564682006836e+00,2.239905834197998047e+00,2.239648342132568359e+00,2.239390611648559570e+00,2.239133119583129883e+00,2.238875389099121094e+00,2.238618135452270508e+00,2.238360643386840820e+00,2.238103389739990234e+00,2.237846136093139648e+00,2.218991518020629883e+00,2.178043365478515625e+00,2.138579130172729492e+00,2.100519180297851562e+00,2.063790559768676758e+00,2.028324365615844727e+00,1.994056224822998047e+00,1.960927128791809082e+00,1.928880572319030762e+00,1.897864818572998047e+00,1.867830514907836914e+00
1.988382935523986816e+00,1.988180994987487793e+00,1.987979054450988770e+00,1.987777233123779297e+00,1.987575411796569824e+00,1.987373709678649902e+00,1.987171888351440430e+00,1.986970543861389160e+00,1.986768841743469238e+00,1.986567258834838867e+00,1.986365675926208496e+00,1.986164212226867676e+00,1.985962629318237305e+00,1.985761165618896484e+00,1.985559821128845215e+00,1.985358476638793945e+00,1.985157132148742676e+00,1.984955906867980957e+00,1.984754681587219238e+00,1.984553456306457520e+00,1.984352469444274902e+00,1.984151363372802734e+00,1.983950257301330566e+00,1.983749270439147949e+00,1.983548283576965332e+00,1.983347296714782715e+00,1.983146429061889648e+00,1.982945561408996582e+00,1.982744693756103516e+00,1.982543945312500000e+00,1.982343196868896484e+00,1.982142448425292969e+00,1.981941938400268555e+00,1.981741309165954590e+00,1.981540799140930176e+00,1.981340169906616211e+00,1.981139659881591797e+00,1.980939269065856934e+00,1.980738759040832520e+00,1.980538368225097656e+00,1.980338096618652344e+00,1.980137825012207031e+00,1.979937553405761719e+00,1.979737281799316406e+00,1.979537129402160645e+00,1.979337215423583984e+00,1.979137063026428223e+00,1.978937029838562012e+00,1.978736996650695801e+00,1.978536963462829590e+00,1.978337049484252930e+00,1.978137135505676270e+00,1.977937221527099609e+00,1.977737426757812500e+00,1.977537631988525391e+00,1.977337956428527832e+00,1.977138161659240723e+00,1.976938843727111816e+00,1.976739168167114258e+00,1.976539611816406250e+00,1.976340055465698242e+00,1.976140499114990234e+00,1.975941061973571777e+00,1.975741624832153320e+00,1.975542306900024414e+00,1.975342988967895508e+00,1.975143671035766602e+00,1.974944353103637695e+00,1.974745154380798340e+00,1.974545955657958984e+00,1.974347114562988281e+00,1.974148035049438477e+00,1.973948955535888672e+00,1.973749876022338867e+00,1.973550915718078613e+00,1.973351955413818359e+00,1.960950016975402832e+00,1.928902983665466309e+00,1.897886276245117188e+00,1.867851495742797852e+00
1.777858257293701172e+00,1.777696728706359863e+00,1.777535319328308105e+00,1.777374029159545898e+00,1.777212619781494141e+00,1.777051329612731934e+00,1.776890039443969727e+00,1.776728749275207520e+00,1.776567459106445312e+00,1.776406288146972656e+00,1.776245117187500000e+00,1.776083946228027344e+00,1.775923013687133789e+00,1.775761961936950684e+00,1.775600910186767578e+00,1.775439858436584473e+00,1.775278925895690918e+00,1.775117874145507812e+00,1.774956941604614258e+00,1.774796009063720703e+00,1.774635195732116699e+00,1.774474263191223145e+00,1.774313449859619141e+00,1.774152636528015137e+00,1.773992061614990234e+00,1.773831367492675781e+00,1.773670673370361328e+00,1.773509979248046875e+00,1.773349285125732422e+00,1.773188710212707520e+00,1.773028135299682617e+00,1.772867560386657715e+00,1.772706985473632812e+00,1.772546410560607910e+00,1.772385954856872559e+00,1.772225499153137207e+00,1.772065162658691406e+00,1.771904945373535156e+00,1.771744489669799805e+00,1.771584153175354004e+00,1.771423935890197754e+00,1.771263599395751953e+00,1.771103382110595703e+00,1.770943164825439453e+00,1.770782947540283203e+00,1.770622849464416504e+00,1.770462632179260254e+00,1.770302534103393555e+00,1.770142436027526855e+00,1.769982576370239258e+00,1.769822597503662109e+00,1.769662618637084961e+00,1.769502639770507812e+00,1.769342780113220215e+00,1.769182801246643066e+00,1.769022941589355469e+00,1.768863081932067871e+00,1.768703341484069824e+00,1.768543481826782227e+00,1.768383741378784180e+00,1.768224000930786133e+00,1.768064379692077637e+00,1.767904877662658691e+00,1.767745256423950195e+00,1.767585635185241699e+00,1.767426013946533203e+00,1.767266511917114258e+00,1.767106890678405762e+00,1.766947507858276367e+00,1.766788005828857422e+00,1.766628503799438477e+00,1.766469120979309082e+00,1.766309738159179688e+00,1.766150474548339844e+00,1.765991091728210449e+00,1.765831947326660156e+00,1.765672683715820312e+00,1.765513539314270020e+00,1.765354275703430176e+00,1.765195131301879883e+00
1.607644915580749512e+00,1.607512831687927246e+00,1.607380867004394531e+00,1.607248902320861816e+00,1.607117056846618652e+00,1.606985211372375488e+00,1.606853246688842773e+00,1.606721401214599609e+00,1.606589555740356445e+00,1.606457710266113281e+00,1.606325864791870117e+00,1.606194138526916504e+00,1.606062293052673340e+00,1.605930566787719727e+00,1.605798840522766113e+00,1.605667114257812500e+00,1.605535507202148438e+00,1.605404019355773926e+00,1.605272293090820312e+00,1.605140686035156250e+00,1.605009078979492188e+00,1.604877471923828125e+00,1.604745984077453613e+00,1.604614377021789551e+00,1.604482889175415039e+00,1.604351401329040527e+00,1.604219913482666016e+00,1.604088544845581055e+00,1.603957056999206543e+00,1.603825807571411133e+00,1.603694438934326172e+00,1.603563070297241211e+00,1.603431701660156250e+00,1.603300452232360840e+00,1.603169083595275879e+00,1.603037834167480469e+00,1.602906584739685059e+00,1.602775335311889648e+00,1.602644205093383789e+00,1.602512955665588379e+00,1.602381825447082520e+00,1.602250695228576660e+00,1.602119684219360352e+00,1.601988554000854492e+00,1.601857542991638184e+00,1.601726412773132324e+00,1.601595401763916016e+00,1.601464390754699707e+00,1.601333379745483398e+00,1.601202368736267090e+00,1.601071476936340332e+00,1.600940585136413574e+00,1.600809574127197266e+00,1.600678682327270508e+00,1.600548028945922852e+00,1.600417137145996094e+00,1.600286364555358887e+00,1.600155591964721680e+00,1.600024819374084473e+00,1.599893927574157715e+00,1.599763274192810059e+00,1.599632501602172852e+00,1.599501848220825195e+00,1.599371194839477539e+00,1.599240541458129883e+00,1.599109888076782227e+00,1.598979234695434570e+00,1.598848819732666016e+00,1.598718285560607910e+00,1.598587751388549805e+00,1.598457217216491699e+00,1.598326683044433594e+00,1.598196148872375488e+00,1.598065733909606934e+00,1.597935318946838379e+00,1.597804903984069824e+00,1.597674489021301270e+00,1.597544074058532715e+00,1.597413778305053711e+00,1.597283601760864258e+00
1.467176556587219238e+00,1.467066526412963867e+00,1.466956615447998047e+00,1.466846704483032227e+00,1.466736793518066406e+00,1.466626882553100586e+00,1.466517090797424316e+00,1.466407179832458496e+00,1.466297388076782227e+00,1.466187715530395508e+00,1.466077923774719238e+00,1.465968132019042969e+00,1.465858340263366699e+00,1.465748548507690430e+00,1.465638875961303711e+00,1.465529084205627441e+00,1.465419411659240723e+00,1.465309739112854004e+00,1.465200066566467285e+00,1.465090394020080566e+00,1.464980721473693848e+00,1.464871287345886230e+00,1.464761614799499512e+00,1.464652061462402344e+00,1.464542508125305176e+00,1.464432954788208008e+00,1.464323401451110840e+00,1.464213848114013672e+00,1.464104413986206055e+00,1.463994860649108887e+00,1.463885426521301270e+00,1.463775992393493652e+00,1.463666558265686035e+00,1.463557124137878418e+00,1.463447809219360352e+00,1.463338375091552734e+00,1.463229060173034668e+00,1.463119626045227051e+00,1.463010311126708984e+00,1.462900996208190918e+00,1.462791681289672852e+00,1.462682366371154785e+00,1.462573170661926270e+00,1.462463855743408203e+00,1.462354660034179688e+00,1.462245464324951172e+00,1.462136387825012207e+00,1.462027192115783691e+00,1.461917996406555176e+00,1.461808800697326660e+00,1.461699604988098145e+00,1.461590528488159180e+00,1.461481451988220215e+00,1.461372375488281250e+00,1.461263179779052734e+00,1.461154222488403320e+00,1.461045145988464355e+00,1.460936069488525391e+00,1.460827112197875977e+00,1.460718154907226562e+00,1.460609197616577148e+00,1.460500240325927734e+00,1.460391283035278320e+00,1.460282325744628906e+00,1.460173487663269043e+00,1.460064530372619629e+00,1.459955692291259766e+00,1.459846854209899902e+00,1.459737896919250488e+00,1.459629058837890625e+00,1.459520339965820312e+00,1.459411621093750000e+00,1.459302783012390137e+00,1.459194064140319824e+00,1.459085345268249512e+00,1.458976507186889648e+00,1.458867788314819336e+00,1.458759069442749023e+00,1.458650469779968262e+00,1.458541750907897949e+00
1.349282503128051758e+00,1.349189639091491699e+00,1.349096655845642090e+00,1.349003672599792480e+00,1.348910689353942871e+00,1.348817825317382812e+00,1.348724842071533203e+00,1.348631978034973145e+00,1.348538994789123535e+00,1.348446130752563477e+00,1.348353266716003418e+00,1.348260402679443359e+00,1.348167538642883301e+00,1.348074793815612793e+00,1.347982048988342285e+00,1.347889184951782227e+00,1.347796440124511719e+00,1.347703576087951660e+00,1.347610831260681152e+00,1.347518086433410645e+00,1.347425341606140137e+00,1.347332596778869629e+00,1.347239971160888672e+00,1.347147226333618164e+00,1.347054481506347656e+00,1.346961855888366699e+00,1.346869230270385742e+00,1.346776604652404785e+00,1.346683979034423828e+00,1.346591353416442871e+00,1.346498727798461914e+00,1.346406102180480957e+00,1.346313476562500000e+00,1.346220970153808594e+00,1.346128344535827637e+00,1.346035838127136230e+00,1.345943331718444824e+00,1.345850706100463867e+00,1.345758199691772461e+00,1.345665812492370605e+00,1.345573306083679199e+00,1.345480799674987793e+00,1.345388412475585938e+00,1.345295906066894531e+00,1.345203518867492676e+00,1.345111012458801270e+00,1.345018625259399414e+00,1.344926238059997559e+00,1.344833850860595703e+00,1.344741463661193848e+00,1.344649076461791992e+00,1.344556808471679688e+00,1.344464540481567383e+00,1.344372153282165527e+00,1.344279885292053223e+00,1.344187617301940918e+00,1.344095230102539062e+00,1.344002962112426758e+00,1.343910694122314453e+00,1.343818545341491699e+00,1.343726277351379395e+00,1.343634009361267090e+00,1.343541860580444336e+00,1.343449592590332031e+00,1.343357563018798828e+00,1.343265295028686523e+00,1.343173146247863770e+00,1.343080997467041016e+00,1.342988848686218262e+00,1.342896819114685059e+00,1.342804670333862305e+00,1.342712521553039551e+00,1.342620491981506348e+00,1.342528343200683594e+00,1.342436313629150391e+00,1.342344284057617188e+00,1.342252373695373535e+00,1.342160344123840332e+00,1.342068314552307129e+00,1.341976284980773926e+00
1.248925924301147461e+00,1.248846292495727539e+00,1.248766660690307617e+00,1.248687028884887695e+00,1.248607397079467773e+00,1.248527765274047852e+00,1.248448133468627930e+00,1.248368620872497559e+00,1.248288989067077637e+00,1.248209357261657715e+00,1.248129844665527344e+00,1.248050212860107422e+00,1.247970700263977051e+00,1.247891068458557129e+00,1.247811555862426758e+00,1.247732043266296387e+00,1.247652530670166016e+00,1.247573018074035645e+00,1.247493624687194824e+00,1.247414112091064453e+00,1.247334599494934082e+00,1.247255206108093262e+00,1.247175693511962891e+00,1.247096300125122070e+00,1.247016787528991699e+00,1.246937394142150879e+00,1.246858000755310059e+00,1.246778607368469238e+00,1.246699213981628418e+00,1.246619820594787598e+00,1.246540427207946777e+00,1.246461153030395508e+00,1.246381759643554688e+00,1.246302366256713867e+00,1.246223092079162598e+00,1.246143698692321777e+00,1.246064424514770508e+00,1.245985150337219238e+00,1.245905876159667969e+00,1.245826601982116699e+00,1.245747208595275879e+00,1.245668053627014160e+00,1.245588779449462891e+00,1.245509624481201172e+00,1.245430350303649902e+00,1.245351076126098633e+00,1.245271921157836914e+00,1.245192646980285645e+00,1.245113492012023926e+00,1.245034337043762207e+00,1.244955182075500488e+00,1.244876027107238770e+00,1.244796872138977051e+00,1.244717717170715332e+00,1.244638562202453613e+00,1.244559407234191895e+00,1.244480371475219727e+00,1.244401335716247559e+00,1.244322180747985840e+00,1.244243144989013672e+00,1.244163990020751953e+00,1.244084954261779785e+00,1.244005918502807617e+00,1.243926882743835449e+00,1.243847846984863281e+00,1.243768811225891113e+00,1.243689775466918945e+00,1.243610739707946777e+00,1.243531823158264160e+00,1.243452906608581543e+00,1.243373870849609375e+00,1.243294954299926758e+00,1.243216037750244141e+00,1.243137001991271973e+00,1.243058085441589355e+00,1.242979168891906738e+00,1.242900252342224121e+00,1.242821335792541504e+00,1.242742538452148438e+00,1.242663621902465820e+00
1.162464618682861328e+00,1.162395596504211426e+00,1.162326574325561523e+00,1.162257552146911621e+00,1.162188529968261719e+00,1.162119507789611816e+00,1.162050604820251465e+00,1.161981582641601562e+00,1.161912560462951660e+00,1.161843657493591309e+00,1.161774754524230957e+00,1.161705851554870605e+00,1.161636948585510254e+00,1.161567926406860352e+00,1.161499023437500000e+00,1.161430120468139648e+00,1.161361217498779297e+00,1.161292314529418945e+00,1.161223530769348145e+00,1.161154627799987793e+00,1.161085724830627441e+00,1.161016821861267090e+00,1.160948038101196289e+00,1.160879254341125488e+00,1.160810470581054688e+00,1.160741567611694336e+00,1.160672783851623535e+00,1.160604000091552734e+00,1.160535216331481934e+00,1.160466313362121582e+00,1.160397529602050781e+00,1.160328745841979980e+00,1.160260081291198730e+00,1.160191297531127930e+00,1.160122513771057129e+00,1.160053849220275879e+00,1.159985065460205078e+00,1.159916400909423828e+00,1.159847617149353027e+00,1.159778952598571777e+00,1.159710288047790527e+00,1.159641504287719727e+00,1.159572839736938477e+00,1.159504175186157227e+00,1.159435510635375977e+00,1.159366846084594727e+00,1.159298181533813477e+00,1.159229516983032227e+00,1.159160971641540527e+00,1.159092307090759277e+00,1.159023642539978027e+00,1.158955097198486328e+00,1.158886432647705078e+00,1.158817887306213379e+00,1.158749222755432129e+00,1.158680677413940430e+00,1.158612132072448730e+00,1.158543586730957031e+00,1.158475041389465332e+00,1.158406496047973633e+00,1.158337950706481934e+00,1.158269524574279785e+00,1.158200979232788086e+00,1.158132433891296387e+00,1.158063888549804688e+00,1.157995462417602539e+00,1.157926917076110840e+00,1.157858490943908691e+00,1.157789945602416992e+00,1.157721519470214844e+00,1.157653093338012695e+00,1.157584547996520996e+00,1.157516121864318848e+00,1.157447814941406250e+00,1.157379388809204102e+00,1.157310962677001953e+00,1.157242536544799805e+00,1.157174110412597656e+00,1.157105684280395508e+00,1.157037377357482910e+00
1.087199211120605469e+00,1.087138772010803223e+00,1.087078452110290527e+00,1.087018132209777832e+00,1.086957812309265137e+00,1.086897373199462891e+00,1.086837053298950195e+00,1.086776733398437500e+00,1.086716413497924805e+00,1.086656093597412109e+00,1.086595773696899414e+00,1.086535453796386719e+00,1.086475133895874023e+00,1.086414933204650879e+00,1.086354613304138184e+00,1.086294412612915039e+00,1.086234092712402344e+00,1.086173892021179199e+00,1.086113572120666504e+00,1.086053371429443359e+00,1.085993051528930664e+00,1.085932850837707520e+00,1.085872650146484375e+00,1.085812330245971680e+00,1.085752129554748535e+00,1.085691928863525391e+00,1.085631728172302246e+00,1.085571646690368652e+00,1.085511445999145508e+00,1.085451245307922363e+00,1.085391044616699219e+00,1.085330843925476074e+00,1.085270762443542480e+00,1.085210561752319336e+00,1.085150361061096191e+00,1.085090279579162598e+00,1.085030078887939453e+00,1.084969997406005859e+00,1.084909915924072266e+00,1.084849715232849121e+00,1.084789752960205078e+00,1.084729552268981934e+00,1.084669470787048340e+00,1.084609389305114746e+00,1.084549307823181152e+00,1.084489226341247559e+00,1.084429144859313965e+00,1.084369063377380371e+00,1.084308981895446777e+00,1.084249019622802734e+00,1.084188938140869141e+00,1.084128856658935547e+00,1.084068894386291504e+00,1.084008932113647461e+00,1.083948850631713867e+00,1.083888888359069824e+00,1.083828806877136230e+00,1.083768844604492188e+00,1.083708882331848145e+00,1.083648920059204102e+00,1.083588838577270508e+00,1.083528876304626465e+00,1.083468914031982422e+00,1.083408951759338379e+00,1.083348989486694336e+00,1.083289146423339844e+00,1.083229184150695801e+00,1.083169221878051758e+00,1.083109378814697266e+00,1.083049416542053223e+00,1.082989454269409180e+00,1.082929611206054688e+00,1.082869648933410645e+00,1.082809805870056152e+00,1.082749962806701660e+00,1.082690000534057617e+00,1.082630157470703125e+00,1.082570314407348633e+00,1.082510471343994141e+00,1.082450628280639648e+00
1.021087527275085449e+00,1.021034240722656250e+00,1.020980954170227051e+00,1.020927786827087402e+00,1.020874500274658203e+00,1.020821213722229004e+00,1.020768046379089355e+00,1.020714879035949707e+00,1.020661711692810059e+00,1.020608425140380859e+00,1.020555257797241211e+00,1.020502090454101562e+00,1.020448803901672363e+00,1.020395636558532715e+00,1.020342469215393066e+00,1.020289301872253418e+00,1.020236134529113770e+00,1.020182967185974121e+00,1.020129799842834473e+00,1.020076632499694824e+00,1.020023584365844727e+00,1.019970417022705078e+00,1.019917249679565430e+00,1.019864201545715332e+00,1.019811034202575684e+00,1.019757866859436035e+00,1.019704818725585938e+00,1.019651651382446289e+00,1.019598603248596191e+00,1.019545435905456543e+00,1.019492387771606445e+00,1.019439339637756348e+00,1.019386291503906250e+00,1.019333243370056152e+00,1.019280076026916504e+00,1.019227027893066406e+00,1.019173979759216309e+00,1.019120931625366211e+00,1.019067883491516113e+00,1.019014835357666016e+00,1.018961787223815918e+00,1.018908739089965820e+00,1.018855690956115723e+00,1.018802762031555176e+00,1.018749713897705078e+00,1.018696784973144531e+00,1.018643736839294434e+00,1.018590688705444336e+00,1.018537759780883789e+00,1.018484711647033691e+00,1.018431782722473145e+00,1.018378853797912598e+00,1.018325805664062500e+00,1.018272876739501953e+00,1.018219947814941406e+00,1.018166899681091309e+00,1.018113970756530762e+00,1.018061161041259766e+00,1.018008112907409668e+00,1.017955183982849121e+00,1.017902255058288574e+00,1.017849326133728027e+00,1.017796516418457031e+00,1.017743587493896484e+00,1.017690658569335938e+00,1.017637729644775391e+00,1.017584800720214844e+00,1.017531991004943848e+00,1.017479062080383301e+00,1.017426133155822754e+00,1.017373323440551758e+00,1.017320513725280762e+00,1.017267584800720215e+00,1.017214775085449219e+00,1.017161965370178223e+00,1.017109036445617676e+00,1.017056226730346680e+00,1.017003417015075684e+00,1.016950607299804688e+00,1.016897797584533691e+00
9.625553488731384277e-01,9.625080823898315430e-01,9.624606966972351074e-01,9.624134302139282227e-01,9.623660445213317871e-01,9.623187780380249023e-01,9.622714519500732422e-01,9.622241854667663574e-01,9.621768593788146973e-01,9.621295928955078125e-01,9.620822668075561523e-01,9.620350599288940430e-01,9.619878530502319336e-01,9.619405269622802734e-01,9.618933200836181641e-01,9.618459939956665039e-01,9.617987871170043945e-01,9.617515206336975098e-01,9.617043137550354004e-01,9.616569876670837402e-01,9.616098403930664062e-01,9.615625143051147461e-01,9.615153670310974121e-01,9.614681005477905273e-01,9.614209532737731934e-01,9.613737463951110840e-01,9.613264799118041992e-01,9.612793326377868652e-01,9.612321257591247559e-01,9.611849784851074219e-01,9.611377120018005371e-01,9.610905647277832031e-01,9.610433578491210938e-01,9.609962105751037598e-01,9.609490036964416504e-01,9.609019160270690918e-01,9.608546495437622070e-01,9.608075618743896484e-01,9.607604742050170898e-01,9.607132673263549805e-01,9.606661796569824219e-01,9.606189727783203125e-01,9.605718851089477539e-01,9.605247378349304199e-01,9.604776501655578613e-01,9.604305028915405273e-01,9.603834152221679688e-01,9.603362679481506348e-01,9.602891802787780762e-01,9.602421522140502930e-01,9.601950049400329590e-01,9.601479768753051758e-01,9.601008296012878418e-01,9.600538015365600586e-01,9.600066542625427246e-01,9.599596261978149414e-01,9.599124789237976074e-01,9.598655104637145996e-01,9.598183631896972656e-01,9.597713947296142578e-01,9.597242474555969238e-01,9.596772789955139160e-01,9.596303105354309082e-01,9.595832228660583496e-01,9.595361948013305664e-01,9.594891071319580078e-01,9.594421386718750000e-01,9.593951106071472168e-01,9.593481421470642090e-01,9.593010544776916504e-01,9.592540860176086426e-01,9.592070579528808594e-01,9.591600894927978516e-01,9.591130614280700684e-01,9.590661525726318359e-01,9.590191841125488281e-01,9.589721560478210449e-01,9.589252471923828125e-01,9.588782191276550293e-01,9.588313102722167969e-01
9.103698134422302246e-01,9.103274941444396973e-01,9.102851152420043945e-01,9.102428555488586426e-01,9.102005958557128906e-01,9.101582169532775879e-01,9.101159572601318359e-01,9.100735783576965332e-01,9.100313186645507812e-01,9.099889993667602539e-01,9.099467396736145020e-01,9.099044203758239746e-01,9.098621606826782227e-01,9.098198413848876953e-01,9.097775816917419434e-01,9.097352623939514160e-01,9.096930623054504395e-01,9.096508026123046875e-01,9.096084833145141602e-01,9.095662832260131836e-01,9.095239639282226562e-01,9.094817638397216797e-01,9.094395041465759277e-01,9.093973040580749512e-01,9.093549847602844238e-01,9.093127846717834473e-01,9.092705249786376953e-01,9.092283248901367188e-01,9.091860651969909668e-01,9.091438651084899902e-01,9.091017246246337891e-01,9.090594649314880371e-01,9.090173244476318359e-01,9.089750647544860840e-01,9.089328646659851074e-01,9.088906645774841309e-01,9.088485240936279297e-01,9.088062644004821777e-01,9.087641239166259766e-01,9.087218642234802246e-01,9.086797833442687988e-01,9.086375236511230469e-01,9.085953831672668457e-01,9.085533022880554199e-01,9.085111021995544434e-01,9.084689617156982422e-01,9.084267616271972656e-01,9.083846807479858398e-01,9.083424806594848633e-01,9.083003401756286621e-01,9.082581996917724609e-01,9.082161188125610352e-01,9.081739187240600586e-01,9.081318378448486328e-01,9.080897569656372070e-01,9.080475568771362305e-01,9.080055356025695801e-01,9.079633355140686035e-01,9.079213142395019531e-01,9.078791737556457520e-01,9.078370928764343262e-01,9.077949523925781250e-01,9.077528715133666992e-01,9.077107310295104980e-01,9.076687097549438477e-01,9.076265692710876465e-01,9.075845479965209961e-01,9.075425267219543457e-01,9.075004458427429199e-01,9.074584245681762695e-01,9.074162840843200684e-01,9.073742628097534180e-01,9.073321819305419922e-01,9.072901606559753418e-01,9.072480797767639160e-01,9.072061181068420410e-01,9.071639776229858398e-01,9.071220159530639648e-01,9.070799350738525391e-01,9.070379734039306641e-01
8.635519146919250488e-01,8.635137677192687988e-01,8.634757399559020996e-01,8.634375929832458496e-01,8.633995652198791504e-01,8.633614182472229004e-01,8.633233904838562012e-01,8.632853031158447266e-01,8.632472753524780273e-01,8.632092475891113281e-01,8.631711602210998535e-01,8.631331324577331543e-01,8.630950450897216797e-01,8.630570173263549805e-01,8.630189299583435059e-01,8.629809617996215820e-01,8.629428744316101074e-01,8.629048466682434082e-01,8.628667593002319336e-01,8.628287911415100098e-01,8.627907037734985352e-01,8.627527356147766113e-01,8.627147674560546875e-01,8.626767396926879883e-01,8.626387715339660645e-01,8.626006841659545898e-01,8.625627160072326660e-01,8.625246882438659668e-01,8.624867200851440430e-01,8.624486923217773438e-01,8.624107241630554199e-01,8.623726963996887207e-01,8.623347282409667969e-01,8.622967004776000977e-01,8.622587919235229492e-01,8.622208833694458008e-01,8.621828556060791016e-01,8.621448874473571777e-01,8.621069192886352539e-01,8.620690107345581055e-01,8.620309829711914062e-01,8.619930744171142578e-01,8.619550466537475586e-01,8.619171380996704102e-01,8.618791699409484863e-01,8.618412613868713379e-01,8.618033528327941895e-01,8.617653846740722656e-01,8.617275357246398926e-01,8.616895079612731934e-01,8.616516590118408203e-01,8.616136908531188965e-01,8.615757822990417480e-01,8.615378737449645996e-01,8.614999651908874512e-01,8.614619970321655273e-01,8.614241480827331543e-01,8.613862395286560059e-01,8.613483309745788574e-01,8.613104820251464844e-01,8.612725734710693359e-01,8.612347245216369629e-01,8.611968159675598145e-01,8.611589670181274414e-01,8.611210584640502930e-01,8.610832095146179199e-01,8.610453009605407715e-01,8.610074520111083984e-01,8.609695434570312500e-01,8.609316945075988770e-01,8.608938455581665039e-01,8.608559966087341309e-01,8.608182072639465332e-01,8.607802987098693848e-01,8.607425093650817871e-01,8.607046008110046387e-01,8.606668114662170410e-01,8.606289625167846680e-01,8.605911731719970703e-01,8.605532646179199219e-01
8.213138580322265625e-01,8.212794065475463867e-01,8.212449550628662109e-01,8.212105035781860352e-01,8.211760520935058594e-01,8.211416006088256836e-01,8.211071491241455078e-01,8.210727572441101074e-01,8.210382461547851562e-01,8.210038542747497559e-01,8.209694027900695801e-01,8.209350109100341797e-01,8.209005594253540039e-01,8.208661675453186035e-01,8.208318352699279785e-01,8.207973241806030273e-01,8.207629919052124023e-01,8.207285404205322266e-01,8.206941485404968262e-01,8.206596970558166504e-01,8.206253647804260254e-01,8.205909132957458496e-01,8.205565810203552246e-01,8.205221295356750488e-01,8.204877972602844238e-01,8.204533457756042480e-01,8.204190135002136230e-01,8.203846812248229980e-01,8.203502893447875977e-01,8.203159570693969727e-01,8.202815055847167969e-01,8.202471733093261719e-01,8.202127814292907715e-01,8.201784491539001465e-01,8.201440572738647461e-01,8.201097249984741211e-01,8.200753331184387207e-01,8.200410604476928711e-01,8.200066685676574707e-01,8.199723362922668457e-01,8.199380636215209961e-01,8.199036717414855957e-01,8.198693394660949707e-01,8.198350071907043457e-01,8.198006749153137207e-01,8.197663426399230957e-01,8.197320699691772461e-01,8.196976780891418457e-01,8.196634054183959961e-01,8.196290135383605957e-01,8.195947408676147461e-01,8.195604681968688965e-01,8.195261359214782715e-01,8.194918632507324219e-01,8.194575309753417969e-01,8.194232583045959473e-01,8.193889260292053223e-01,8.193547129631042480e-01,8.193203806877136230e-01,8.192861080169677734e-01,8.192517757415771484e-01,8.192175626754760742e-01,8.191832304000854492e-01,8.191489577293395996e-01,8.191147446632385254e-01,8.190804123878479004e-01,8.190461993217468262e-01,8.190119266510009766e-01,8.189776539802551270e-01,8.189433813095092773e-01,8.189091682434082031e-01,8.188748359680175781e-01,8.188406229019165039e-01,8.188063502311706543e-01,8.187721371650695801e-01,8.187378644943237305e-01,8.187036514282226562e-01,8.186694979667663574e-01,8.186352252960205078e-01,8.186010122299194336e-01
7.830150127410888672e-01,7.829837203025817871e-01,7.829523682594299316e-01,7.829210758209228516e-01,7.828897833824157715e-01,7.828584909439086914e-01,7.828271985054016113e-01,7.827959060668945312e-01,7.827646136283874512e-01,7.827332615852355957e-01,7.827020287513732910e-01,7.826706767082214355e-01,7.826394438743591309e-01,7.826080918312072754e-01,7.825768589973449707e-01,7.825455665588378906e-01,7.825142741203308105e-01,7.824829816818237305e-01,7.824517488479614258e-01,7.824205160140991211e-01,7.823892235755920410e-01,7.823579907417297363e-01,7.823266983032226562e-01,7.822954654693603516e-01,7.822641730308532715e-01,7.822329401969909668e-01,7.822016477584838867e-01,7.821704149246215820e-01,7.821391224861145020e-01,7.821079492568969727e-01,7.820766568183898926e-01,7.820454239845275879e-01,7.820142507553100586e-01,7.819829583168029785e-01,7.819517850875854492e-01,7.819204926490783691e-01,7.818893194198608398e-01,7.818580269813537598e-01,7.818268537521362305e-01,7.817955613136291504e-01,7.817643880844116211e-01,7.817331552505493164e-01,7.817019820213317871e-01,7.816708087921142578e-01,7.816395163536071777e-01,7.816083431243896484e-01,7.815771102905273438e-01,7.815459370613098145e-01,7.815147042274475098e-01,7.814835906028747559e-01,7.814523577690124512e-01,7.814211845397949219e-01,7.813899517059326172e-01,7.813587784767150879e-01,7.813276052474975586e-01,7.812964320182800293e-01,7.812653183937072754e-01,7.812340855598449707e-01,7.812029123306274414e-01,7.811717391014099121e-01,7.811405658721923828e-01,7.811093926429748535e-01,7.810782790184020996e-01,7.810470461845397949e-01,7.810159325599670410e-01,7.809847593307495117e-01,7.809536457061767578e-01,7.809224128723144531e-01,7.808912992477416992e-01,7.808601856231689453e-01,7.808290123939514160e-01,7.807978987693786621e-01,7.807667255401611328e-01,7.807356715202331543e-01,7.807044982910156250e-01,7.806733846664428711e-01,7.806422114372253418e-01,7.806110978126525879e-01,7.805799245834350586e-01,7.805488705635070801e-01
7.481289505958557129e-01,7.481002807617187500e-01,7.480717301368713379e-01,7.480431199073791504e-01,7.480145692825317383e-01,7.479859590530395508e-01,7.479574084281921387e-01,7.479287981986999512e-01,7.479003071784973145e-01,7.478716969490051270e-01,7.478431463241577148e-01,7.478145956993103027e-01,7.477859854698181152e-01,7.477574944496154785e-01,7.477288842201232910e-01,7.477003335952758789e-01,7.476717829704284668e-01,7.476432323455810547e-01,7.476146817207336426e-01,7.475861310958862305e-01,7.475575804710388184e-01,7.475290298461914062e-01,7.475004792213439941e-01,7.474719882011413574e-01,7.474434971809387207e-01,7.474148869514465332e-01,7.473863959312438965e-01,7.473578453063964844e-01,7.473293542861938477e-01,7.473007440567016602e-01,7.472722530364990234e-01,7.472437024116516113e-01,7.472152113914489746e-01,7.471866607666015625e-01,7.471581697463989258e-01,7.471297383308410645e-01,7.471011877059936523e-01,7.470726966857910156e-01,7.470441460609436035e-01,7.470156550407409668e-01,7.469871640205383301e-01,7.469586730003356934e-01,7.469301223754882812e-01,7.469016909599304199e-01,7.468731403350830078e-01,7.468447089195251465e-01,7.468161582946777344e-01,7.467877268791198730e-01,7.467592358589172363e-01,7.467307448387145996e-01,7.467022538185119629e-01,7.466737627983093262e-01,7.466453313827514648e-01,7.466168403625488281e-01,7.465883493423461914e-01,7.465598583221435547e-01,7.465314269065856934e-01,7.465029358863830566e-01,7.464745044708251953e-01,7.464460134506225586e-01,7.464175820350646973e-01,7.463891506195068359e-01,7.463606595993041992e-01,7.463322281837463379e-01,7.463037371635437012e-01,7.462753653526306152e-01,7.462468743324279785e-01,7.462184429168701172e-01,7.461899518966674805e-01,7.461615800857543945e-01,7.461330890655517578e-01,7.461047172546386719e-01,7.460762262344360352e-01,7.460477948188781738e-01,7.460194230079650879e-01,7.459909915924072266e-01,7.459625601768493652e-01,7.459341287612915039e-01,7.459056973457336426e-01,7.458772659301757812e-01
7.162187695503234863e-01,7.161925435066223145e-01,7.161663770675659180e-01,7.161402106285095215e-01,7.161139845848083496e-01,7.160878181457519531e-01,7.160615921020507812e-01,7.160354256629943848e-01,7.160092592239379883e-01,7.159830927848815918e-01,7.159568667411804199e-01,7.159307003021240234e-01,7.159044742584228516e-01,7.158783674240112305e-01,7.158521413803100586e-01,7.158259749412536621e-01,7.157998681068420410e-01,7.157736420631408691e-01,7.157475352287292480e-01,7.157213091850280762e-01,7.156952023506164551e-01,7.156689763069152832e-01,7.156428694725036621e-01,7.156166434288024902e-01,7.155905365943908691e-01,7.155643701553344727e-01,7.155382037162780762e-01,7.155120968818664551e-01,7.154859304428100586e-01,7.154598236083984375e-01,7.154335975646972656e-01,7.154074907302856445e-01,7.153813242912292480e-01,7.153552174568176270e-01,7.153290510177612305e-01,7.153029441833496094e-01,7.152767777442932129e-01,7.152506709098815918e-01,7.152245044708251953e-01,7.151983976364135742e-01,7.151723504066467285e-01,7.151461839675903320e-01,7.151200771331787109e-01,7.150939106941223145e-01,7.150678634643554688e-01,7.150416970252990723e-01,7.150155901908874512e-01,7.149894833564758301e-01,7.149633765220642090e-01,7.149372696876525879e-01,7.149111628532409668e-01,7.148849964141845703e-01,7.148589491844177246e-01,7.148329019546508789e-01,7.148067355155944824e-01,7.147806882858276367e-01,7.147545814514160156e-01,7.147284746170043945e-01,7.147023677825927734e-01,7.146763205528259277e-01,7.146502137184143066e-01,7.146241068840026855e-01,7.145980000495910645e-01,7.145719528198242188e-01,7.145458459854125977e-01,7.145197987556457520e-01,7.144937515258789062e-01,7.144676446914672852e-01,7.144415974617004395e-01,7.144154906272888184e-01,7.143894433975219727e-01,7.143633365631103516e-01,7.143373489379882812e-01,7.143112421035766602e-01,7.142851948738098145e-01,7.142590880393981934e-01,7.142331004142761230e-01,7.142069935798645020e-01,7.141809463500976562e-01,7.141549587249755859e-01
6.869194507598876953e-01,6.868953704833984375e-01,6.868712306022644043e-01,6.868471503257751465e-01,6.868230700492858887e-01,6.867989897727966309e-01,6.867748498916625977e-01,6.867508292198181152e-01,6.867267489433288574e-01,6.867026090621948242e-01,6.866785883903503418e-01,6.866544485092163086e-01,6.866303682327270508e-01,6.866062879562377930e-01,6.865822076797485352e-01,6.865581274032592773e-01,6.865340471267700195e-01,6.865099668502807617e-01,6.864859461784362793e-01,6.864618062973022461e-01,6.864377856254577637e-01,6.864137649536132812e-01,6.863896250724792480e-01,6.863656044006347656e-01,6.863415241241455078e-01,6.863175034523010254e-01,6.862934231758117676e-01,6.862693428993225098e-01,6.862452626228332520e-01,6.862212419509887695e-01,6.861971616744995117e-01,6.861731410026550293e-01,6.861491203308105469e-01,6.861250400543212891e-01,6.861010193824768066e-01,6.860769391059875488e-01,6.860529184341430664e-01,6.860288977622985840e-01,6.860048770904541016e-01,6.859807968139648438e-01,6.859567761421203613e-01,6.859326958656311035e-01,6.859087347984313965e-01,6.858846545219421387e-01,6.858606338500976562e-01,6.858366727828979492e-01,6.858125925064086914e-01,6.857886314392089844e-01,6.857645511627197266e-01,6.857405900955200195e-01,6.857165098190307617e-01,6.856925487518310547e-01,6.856684684753417969e-01,6.856445074081420898e-01,6.856204271316528320e-01,6.855964660644531250e-01,6.855724453926086426e-01,6.855484843254089355e-01,6.855244636535644531e-01,6.855004429817199707e-01,6.854764819145202637e-01,6.854524612426757812e-01,6.854284405708312988e-01,6.854044198989868164e-01,6.853804588317871094e-01,6.853564381599426270e-01,6.853324770927429199e-01,6.853084564208984375e-01,6.852844953536987305e-01,6.852604746818542480e-01,6.852365136146545410e-01,6.852125525474548340e-01,6.851885914802551270e-01,6.851646304130554199e-01,6.851406097412109375e-01,6.851166486740112305e-01,6.850926280021667480e-01,6.850687265396118164e-01,6.850447058677673340e-01,6.850207448005676270e-01
6.599231362342834473e-01,6.599008440971374512e-01,6.598786115646362305e-01,6.598563790321350098e-01,6.598341464996337891e-01,6.598119139671325684e-01,6.597896814346313477e-01,6.597673892974853516e-01,6.597452163696289062e-01,6.597229242324829102e-01,6.597007513046264648e-01,6.596784591674804688e-01,6.596562862396240234e-01,6.596341133117675781e-01,6.596118211746215820e-01,6.595896482467651367e-01,6.595674157142639160e-01,6.595451831817626953e-01,6.595229506492614746e-01,6.595007777214050293e-01,6.594784855842590332e-01,6.594563126564025879e-01,6.594340801239013672e-01,6.594119071960449219e-01,6.593897342681884766e-01,6.593675017356872559e-01,6.593452692031860352e-01,6.593230366706848145e-01,6.593008637428283691e-01,6.592786312103271484e-01,6.592564582824707031e-01,6.592342853546142578e-01,6.592121124267578125e-01,6.591898798942565918e-01,6.591677069664001465e-01,6.591454744338989258e-01,6.591233015060424805e-01,6.591011285781860352e-01,6.590788960456848145e-01,6.590567827224731445e-01,6.590345501899719238e-01,6.590123772621154785e-01,6.589902043342590332e-01,6.589680314064025879e-01,6.589457988739013672e-01,6.589236855506896973e-01,6.589014530181884766e-01,6.588793396949768066e-01,6.588571071624755859e-01,6.588349938392639160e-01,6.588128209114074707e-01,6.587906479835510254e-01,6.587684750556945801e-01,6.587463021278381348e-01,6.587241291999816895e-01,6.587019562721252441e-01,6.586798429489135742e-01,6.586576104164123535e-01,6.586354970932006836e-01,6.586133241653442383e-01,6.585912108421325684e-01,6.585689783096313477e-01,6.585468649864196777e-01,6.585247516632080078e-01,6.585025787353515625e-01,6.584804654121398926e-01,6.584582924842834473e-01,6.584361791610717773e-01,6.584140062332153320e-01,6.583918333053588867e-01,6.583697199821472168e-01,6.583476066589355469e-01,6.583254337310791016e-01,6.583033204078674316e-01,6.582811474800109863e-01,6.582590341567993164e-01,6.582369208335876465e-01,6.582147479057312012e-01,6.581926345825195312e-01,6.581705212593078613e-01
6.349684596061706543e-01,6.349478363990783691e-01,6.349272727966308594e-01,6.349066495895385742e-01,6.348860859870910645e-01,6.348655223846435547e-01,6.348448991775512695e-01,6.348243355751037598e-01,6.348037123680114746e-01,6.347831487655639648e-01,6.347625255584716797e-01,6.347419619560241699e-01,6.347213983535766602e-01,6.347008347511291504e-01,6.346802115440368652e-01,6.346597075462341309e-01,6.346390843391418457e-01,6.346185207366943359e-01,6.345979571342468262e-01,6.345773935317993164e-01,6.345568299293518066e-01,6.345362663269042969e-01,6.345157027244567871e-01,6.344951391220092773e-01,6.344745755195617676e-01,6.344540119171142578e-01,6.344334483146667480e-01,6.344128847122192383e-01,6.343923211097717285e-01,6.343718171119689941e-01,6.343512535095214844e-01,6.343306899070739746e-01,6.343101263046264648e-01,6.342895627021789551e-01,6.342689990997314453e-01,6.342484951019287109e-01,6.342279314994812012e-01,6.342074275016784668e-01,6.341868042945861816e-01,6.341663002967834473e-01,6.341457366943359375e-01,6.341252326965332031e-01,6.341047286987304688e-01,6.340841650962829590e-01,6.340636610984802246e-01,6.340430974960327148e-01,6.340225934982299805e-01,6.340020298957824707e-01,6.339815258979797363e-01,6.339609622955322266e-01,6.339404582977294922e-01,6.339198946952819824e-01,6.338993906974792480e-01,6.338788270950317383e-01,6.338583230972290039e-01,6.338378190994262695e-01,6.338173151016235352e-01,6.337968111038208008e-01,6.337762475013732910e-01,6.337557435035705566e-01,6.337352395057678223e-01,6.337147355079650879e-01,6.336941719055175781e-01,6.336737275123596191e-01,6.336531639099121094e-01,6.336326599121093750e-01,6.336121559143066406e-01,6.335916519165039062e-01,6.335712075233459473e-01,6.335506439208984375e-01,6.335301995277404785e-01,6.335096359252929688e-01,6.334891915321350098e-01,6.334686279296875000e-01,6.334481835365295410e-01,6.334276795387268066e-01,6.334071755409240723e-01,6.333866715431213379e-01,6.333662271499633789e-01,6.333457231521606445e-01
6.118323206901550293e-01,6.118131875991821289e-01,6.117940545082092285e-01,6.117749810218811035e-01,6.117558479309082031e-01,6.117367148399353027e-01,6.117175817489624023e-01,6.116985082626342773e-01,6.116793751716613770e-01,6.116603016853332520e-01,6.116411685943603516e-01,6.116220355033874512e-01,6.116029620170593262e-01,6.115838289260864258e-01,6.115647554397583008e-01,6.115456223487854004e-01,6.115265488624572754e-01,6.115074157714843750e-01,6.114883422851562500e-01,6.114692091941833496e-01,6.114501357078552246e-01,6.114310622215270996e-01,6.114119887351989746e-01,6.113929152488708496e-01,6.113737821578979492e-01,6.113547086715698242e-01,6.113355755805969238e-01,6.113165020942687988e-01,6.112974286079406738e-01,6.112783551216125488e-01,6.112592220306396484e-01,6.112401485443115234e-01,6.112210750579833984e-01,6.112020015716552734e-01,6.111829280853271484e-01,6.111638545989990234e-01,6.111447811126708984e-01,6.111257076263427734e-01,6.111066341400146484e-01,6.110875606536865234e-01,6.110684871673583984e-01,6.110494136810302734e-01,6.110303401947021484e-01,6.110112667083740234e-01,6.109921932220458984e-01,6.109731197357177734e-01,6.109540462493896484e-01,6.109350323677062988e-01,6.109158992767333984e-01,6.108968853950500488e-01,6.108778119087219238e-01,6.108587384223937988e-01,6.108396649360656738e-01,6.108206510543823242e-01,6.108015775680541992e-01,6.107825040817260742e-01,6.107634305953979492e-01,6.107444167137145996e-01,6.107253432273864746e-01,6.107063293457031250e-01,6.106872558593750000e-01,6.106681823730468750e-01,6.106491684913635254e-01,6.106300950050354004e-01,6.106110811233520508e-01,6.105920076370239258e-01,6.105729937553405762e-01,6.105539202690124512e-01,6.105349063873291016e-01,6.105158329010009766e-01,6.104968190193176270e-01,6.104778051376342773e-01,6.104587316513061523e-01,6.104397177696228027e-01,6.104207038879394531e-01,6.104016900062561035e-01,6.103826165199279785e-01,6.103636026382446289e-01,6.103445887565612793e-01,6.103255748748779297e-01
