5.000000000000000000e+00,5.000000000000000000e+00,5.000000000000000000e+00,5.000000000000000000e+00,5.000000000000000000e+00,5.000000000000000000e+00,5.000000000000000000e+00,5.000000000000000000e+00,5.000000000000000000e+00,5.000000000000000000e+00,5.000000000000000000e+00,5.000000000000000000e+00,5.000000000000000000e+00,5.000000000000000000e+00,5.000000000000000000e+00,5.000000000000000000e+00,5.000000000000000000e+00,5.000000000000000000e+00,5.000000000000000000e+00,5.000000000000000000e+00,5.000000000000000000e+00,5.000000000000000000e+00,5.000000000000000000e+00,5.000000000000000000e+00,5.000000000000000000e+00,5.000000000000000000e+00,5.000000000000000000e+00,5.000000000000000000e+00,5.000000000000000000e+00,5.000000000000000000e+00,5.000000000000000000e+00,5.000000000000000000e+00,5.000000000000000000e+00,5.000000000000000000e+00,5.000000000000000000e+00,5.000000000000000000e+00,5.000000000000000000e+00,5.000000000000000000e+00,5.000000000000000000e+00,4.864776611328125000e+00,4.673582077026367188e+00,4.496848106384277344e+00,4.332993507385253906e+00,4.180659770965576172e+00,4.038673877716064453e+00,3.906015157699584961e+00,3.781794786453247070e+00,3.665231466293334961e+00,3.555638790130615234e+00,3.452409744262695312e+00,3.355005264282226562e+00,3.262946605682373047e+00,3.175804853439331055e+00,3.093196392059326172e+00,3.014776706695556641e+00,2.940235137939453125e+00,2.869290351867675781e+00,2.801688909530639648e+00,2.737199306488037109e+00,2.675611972808837891e+00,2.616734981536865234e+00,2.560393333435058594e+00,2.506427049636840820e+00,2.454688549041748047e+00,2.405042886734008789e+00,2.357365608215332031e+00,2.311541795730590820e+00,2.267465353012084961e+00,2.225038528442382812e+00,2.184170246124267578e+00,2.144776344299316406e+00,2.106778144836425781e+00,2.070102691650390625e+00,2.034682512283325195e+00,2.000454187393188477e+00,1.967358231544494629e+00,1.935339450836181641e+00,1.904346466064453125e+00,1.874330401420593262e+00,1.845245718955993652e+00
5.000000000000000000e+00,5.000000000000000000e+00,5.000000000000000000e+00,5.000000000000000000e+00,5.000000000000000000e+00,5.000000000000000000e+00,5.000000000000000000e+00,5.000000000000000000e+00,5.000000000000000000e+00,5.000000000000000000e+00,5.000000000000000000e+00,5.000000000000000000e+00,5.000000000000000000e+00,5.000000000000000000e+00,5.000000000000000000e+00,5.000000000000000000e+00,5.000000000000000000e+00,5.000000000000000000e+00,5.000000000000000000e+00,5.000000000000000000e+00,5.000000000000000000e+00,5.000000000000000000e+00,5.000000000000000000e+00,5.000000000000000000e+00,5.000000000000000000e+00,5.000000000000000000e+00,5.000000000000000000e+00,5.000000000000000000e+00,5.000000000000000000e+00,5.000000000000000000e+00,5.000000000000000000e+00,5.000000000000000000e+00,5.000000000000000000e+00,5.000000000000000000e+00,5.000000000000000000e+00,5.000000000000000000e+00,5.000000000000000000e+00,5.000000000000000000e+00,5.000000000000000000e+00,4.864916801452636719e+00,4.673711776733398438e+00,4.496968269348144531e+00,4.333104610443115234e+00,4.180763721466064453e+00,4.038770198822021484e+00,3.906105756759643555e+00,3.781879186630249023e+00,3.665311098098754883e+00,3.555713891983032227e+00,3.452480316162109375e+00,3.355072021484375000e+00,3.263009548187255859e+00,3.175864696502685547e+00,3.093253135681152344e+00,3.014830589294433594e+00,2.940286397933959961e+00,2.869339227676391602e+00,2.801735401153564453e+00,2.737243652343750000e+00,2.675654411315917969e+00,2.616775751113891602e+00,2.560432195663452148e+00,2.506464242935180664e+00,2.454724311828613281e+00,2.405077219009399414e+00,2.357398509979248047e+00,2.311573505401611328e+00,2.267495870590209961e+00,2.225067853927612305e+00,2.184198617935180664e+00,2.144803524017333984e+00,2.106804370880126953e+00,2.070127964019775391e+00,2.034707069396972656e+00,2.000477790832519531e+00,1.967381119728088379e+00,1.935361862182617188e+00,1.904367923736572266e+00,1.874351143836975098e+00,1.845265984535217285e+00
5.000000000000000000e+00,5.000000000000000000e+00,5.000000000000000000e+00,5.000000000000000000e+00,5.000000000000000000e+00,5.000000000000000000e+00,5.000000000000000000e+00,5.000000000000000000e+00,5.000000000000000000e+00,5.000000000000000000e+00,5.000000000000000000e+00,5.000000000000000000e+00,5.000000000000000000e+00,5.000000000000000000e+00,5.000000000000000000e+00,5.000000000000000000e+00,5.000000000000000000e+00,5.000000000000000000e+00,5.000000000000000000e+00,5.000000000000000000e+00,5.000000000000000000e+00,5.000000000000000000e+00,5.000000000000000000e+00,5.000000000000000000e+00,5.000000000000000000e+00,5.000000000000000000e+00,5.000000000000000000e+00,5.000000000000000000e+00,5.000000000000000000e+00,5.000000000000000000e+00,5.000000000000000000e+00,5.000000000000000000e+00,5.000000000000000000e+00,5.000000000000000000e+00,5.000000000000000000e+00,5.000000000000000000e+00,5.000000000000000000e+00,5.000000000000000000e+00,5.000000000000000000e+00,4.865057468414306641e+00,4.673841476440429688e+00,4.497087955474853516e+00,4.333216190338134766e+00,4.180867195129394531e+00,4.038866996765136719e+00,3.906196117401123047e+00,3.781964063644409180e+00,3.665390729904174805e+00,3.555788755416870117e+00,3.452551126480102539e+00,3.355138778686523438e+00,3.263072729110717773e+00,3.175924539566040039e+00,3.093309879302978516e+00,3.014884471893310547e+00,2.940337657928466797e+00,2.869388103485107422e+00,2.801781892776489258e+00,2.737288236618041992e+00,2.675696849822998047e+00,2.616816282272338867e+00,2.560471296310424805e+00,2.506501436233520508e+00,2.454760074615478516e+00,2.405111551284790039e+00,2.357431411743164062e+00,2.311605215072631836e+00,2.267526388168334961e+00,2.225097417831420898e+00,2.184226989746093750e+00,2.144830703735351562e+00,2.106830835342407227e+00,2.070153474807739258e+00,2.034731626510620117e+00,2.000501632690429688e+00,1.967404246330261230e+00,1.935383915901184082e+00,1.904389500617980957e+00,1.874371886253356934e+00,1.845286130905151367e+00
5.000000000000000000e+00,5.000000000000000000e+00,5.000000000000000000e+00,5.000000000000000000e+00,5.000000000000000000e+00,5.000000000000000000e+00,5.000000000000000000e+00,5.000000000000000000e+00,5.000000000000000000e+00,5.000000000000000000e+00,5.000000000000000000e+00,5.000000000000000000e+00,5.000000000000000000e+00,5.000000000000000000e+00,5.000000000000000000e+00,5.000000000000000000e+00,5.000000000000000000e+00,5.000000000000000000e+00,5.000000000000000000e+00,5.000000000000000000e+00,5.000000000000000000e+00,5.000000000000000000e+00,5.000000000000000000e+00,5.000000000000000000e+00,5.000000000000000000e+00,3.585391998291015625e+00,3.594531059265136719e+00,5.000000000000000000e+00,5.000000000000000000e+00,5.000000000000000000e+00,5.000000000000000000e+00,5.000000000000000000e+00,5.000000000000000000e+00,5.000000000000000000e+00,5.000000000000000000e+00,5.000000000000000000e+00,5.000000000000000000e+00,5.000000000000000000e+00,5.000000000000000000e+00,4.865197181701660156e+00,4.673970699310302734e+00,4.497208118438720703e+00,4.333327770233154297e+00,4.180971145629882812e+00,4.038963794708251953e+00,3.906286716461181641e+00,3.782048940658569336e+00,3.665470123291015625e+00,3.555863857269287109e+00,3.452621698379516602e+00,3.355205535888671875e+00,3.263135910034179688e+00,3.175984144210815430e+00,3.093366622924804688e+00,3.014938354492187500e+00,2.940388917922973633e+00,2.869436979293823242e+00,2.801828622817993164e+00,2.737332582473754883e+00,2.675739288330078125e+00,2.616856813430786133e+00,2.560510158538818359e+00,2.506538629531860352e+00,2.454795598983764648e+00,2.405145883560180664e+00,2.357464551925659180e+00,2.311636686325073242e+00,2.267556905746459961e+00,2.225126743316650391e+00,2.184255123138427734e+00,2.144858121871948242e+00,2.106857061386108398e+00,2.070178985595703125e+00,2.034756183624267578e+00,2.000525236129760742e+00,1.967427015304565430e+00,1.935406208038330078e+00,1.904410839080810547e+00,1.874392747879028320e+00,1.845306158065795898e+00
5.000000000000000000e+00,5.000000000000000000e+00,5.000000000000000000e+00,5.000000000000000000e+00,5.000000000000000000e+00,5.000000000000000000e+00,5.000000000000000000e+00,5.000000000000000000e+00,5.000000000000000000e+00,5.000000000000000000e+00,5.000000000000000000e+00,5.000000000000000000e+00,5.000000000000000000e+00,5.000000000000000000e+00,5.000000000000000000e+00,5.000000000000000000e+00,5.000000000000000000e+00,5.000000000000000000e+00,5.000000000000000000e+00,5.000000000000000000e+00,5.000000000000000000e+00,5.000000000000000000e+00,5.000000000000000000e+00,5.000000000000000000e+00,5.000000000000000000e+00,3.597717523574829102e+00,3.603049993515014648e+00,3.703348636627197266e+00,5.000000000000000000e+00,5.000000000000000000e+00,5.000000000000000000e+00,5.000000000000000000e+00,5.000000000000000000e+00,5.000000000000000000e+00,5.000000000000000000e+00,5.000000000000000000e+00,5.000000000000000000e+00,5.000000000000000000e+00,5.000000000000000000e+00,4.865337848663330078e+00,4.674100399017333984e+00,4.497327804565429688e+00,4.333438873291015625e+00,4.181074619293212891e+00,4.039060592651367188e+00,3.906377077102661133e+00,3.782133817672729492e+00,3.665549755096435547e+00,3.555938720703125000e+00,3.452692508697509766e+00,3.355272293090820312e+00,3.263199090957641602e+00,3.176043987274169922e+00,3.093423366546630859e+00,3.014992237091064453e+00,2.940440177917480469e+00,2.869485855102539062e+00,2.801875114440917969e+00,2.737377166748046875e+00,2.675781726837158203e+00,2.616897583007812500e+00,2.560549020767211914e+00,2.506576061248779297e+00,2.454831361770629883e+00,2.405180215835571289e+00,2.357497453689575195e+00,2.311668395996093750e+00,2.267587423324584961e+00,2.225156068801879883e+00,2.184283494949340820e+00,2.144885301589965820e+00,2.106883287429809570e+00,2.070204257965087891e+00,2.034780740737915039e+00,2.000549077987670898e+00,1.967450141906738281e+00,1.935428380966186523e+00,1.904432535171508789e+00,1.874413490295410156e+00,1.845326423645019531e+00
5.000000000000000000e+00,5.000000000000000000e+00,5.000000000000000000e+00,5.000000000000000000e+00,5.000000000000000000e+00,5.000000000000000000e+00,5.000000000000000000e+00,5.000000000000000000e+00,5.000000000000000000e+00,5.000000000000000000e+00,5.000000000000000000e+00,5.000000000000000000e+00,5.000000000000000000e+00,5.000000000000000000e+00,5.000000000000000000e+00,5.000000000000000000e+00,5.000000000000000000e+00,5.000000000000000000e+00,5.000000000000000000e+00,5.000000000000000000e+00,5.000000000000000000e+00,5.000000000000000000e+00,5.000000000000000000e+00,5.000000000000000000e+00,5.000000000000000000e+00,3.617321968078613281e+00,3.612697601318359375e+00,5.000000000000000000e+00,5.000000000000000000e+00,5.000000000000000000e+00,5.000000000000000000e+00,5.000000000000000000e+00,5.000000000000000000e+00,5.000000000000000000e+00,5.000000000000000000e+00,5.000000000000000000e+00,5.000000000000000000e+00,5.000000000000000000e+00,5.000000000000000000e+00,4.865478038787841797e+00,4.674230098724365234e+00,4.497447967529296875e+00,4.333550453186035156e+00,4.181178092956542969e+00,4.039157390594482422e+00,3.906467676162719727e+00,3.782218456268310547e+00,3.665629386901855469e+00,3.556013822555541992e+00,3.452763080596923828e+00,3.355339050292968750e+00,3.263262271881103516e+00,3.176103830337524414e+00,3.093480110168457031e+00,3.015046358108520508e+00,2.940491437911987305e+00,2.869534492492675781e+00,2.801921606063842773e+00,2.737421512603759766e+00,2.675824403762817383e+00,2.616938114166259766e+00,2.560587882995605469e+00,2.506613254547119141e+00,2.454867124557495117e+00,2.405214309692382812e+00,2.357530355453491211e+00,2.311700105667114258e+00,2.267617940902709961e+00,2.225185394287109375e+00,2.184311866760253906e+00,2.144912719726562500e+00,2.106909751892089844e+00,2.070229768753051758e+00,2.034805297851562500e+00,2.000572681427001953e+00,1.967472910881042480e+00,1.935450673103332520e+00,1.904453873634338379e+00,1.874434471130371094e+00,1.845346570014953613e+00
5.000000000000000000e+00,5.000000000000000000e+00,5.000000000000000000e+00,5.000000000000000000e+00,5.000000000000000000e+00,5.000000000000000000e+00,5.000000000000000000e+00,5.000000000000000000e+00,5.000000000000000000e+00,5.000000000000000000e+00,5.000000000000000000e+00,5.000000000000000000e+00,5.000000000000000000e+00,5.000000000000000000e+00,5.000000000000000000e+00,5.000000000000000000e+00,5.000000000000000000e+00,5.000000000000000000e+00,5.000000000000000000e+00,5.000000000000000000e+00,5.000000000000000000e+00,5.000000000000000000e+00,5.000000000000000000e+00,5.000000000000000000e+00,5.000000000000000000e+00,3.699952125549316406e+00,3.678027391433715820e+00,3.692776203155517578e+00,5.000000000000000000e+00,5.000000000000000000e+00,5.000000000000000000e+00,5.000000000000000000e+00,5.000000000000000000e+00,5.000000000000000000e+00,5.000000000000000000e+00,5.000000000000000000e+00,5.000000000000000000e+00,5.000000000000000000e+00,5.000000000000000000e+00,4.865618705749511719e+00,4.674359321594238281e+00,4.497567653656005859e+00,4.333661556243896484e+00,4.181282043457031250e+00,4.039254188537597656e+00,3.906558036804199219e+00,3.782303333282470703e+00,3.665709257125854492e+00,3.556088447570800781e+00,3.452833890914916992e+00,3.355406045913696289e+00,3.263325452804565430e+00,3.176163673400878906e+00,3.093536853790283203e+00,3.015100240707397461e+00,2.940542697906494141e+00,2.869583368301391602e+00,2.801968097686767578e+00,2.737465858459472656e+00,2.675866842269897461e+00,2.616978645324707031e+00,2.560626745223999023e+00,2.506650447845458984e+00,2.454902887344360352e+00,2.405248641967773438e+00,2.357563257217407227e+00,2.311731815338134766e+00,2.267648458480834961e+00,2.225214719772338867e+00,2.184340238571166992e+00,2.144939899444580078e+00,2.106935977935791016e+00,2.070255279541015625e+00,2.034829854965209961e+00,2.000596523284912109e+00,1.967496037483215332e+00,1.935472726821899414e+00,1.904475569725036621e+00,1.874455213546752930e+00,1.845366835594177246e+00
5.000000000000000000e+00,5.000000000000000000e+00,5.000000000000000000e+00,5.000000000000000000e+00,5.000000000000000000e+00,5.000000000000000000e+00,5.000000000000000000e+00,5.000000000000000000e+00,5.000000000000000000e+00,5.000000000000000000e+00,5.000000000000000000e+00,5.000000000000000000e+00,5.000000000000000000e+00,5.000000000000000000e+00,5.000000000000000000e+00,5.000000000000000000e+00,5.000000000000000000e+00,5.000000000000000000e+00,5.000000000000000000e+00,5.000000000000000000e+00,5.000000000000000000e+00,5.000000000000000000e+00,3.612875223159790039e+00,3.621155738830566406e+00,3.604563951492309570e+00,3.607130527496337891e+00,3.618144273757934570e+00,3.635276317596435547e+00,3.673585176467895508e+00,3.686617612838745117e+00,5.000000000000000000e+00,5.000000000000000000e+00,5.000000000000000000e+00,5.000000000000000000e+00,5.000000000000000000e+00,5.000000000000000000e+00,5.000000000000000000e+00,5.000000000000000000e+00,5.000000000000000000e+00,4.865758895874023438e+00,4.674489021301269531e+00,4.497687816619873047e+00,4.333773136138916016e+00,4.181385517120361328e+00,4.039350986480712891e+00,3.906648635864257812e+00,3.782388210296630859e+00,3.665788888931274414e+00,3.556163311004638672e+00,3.452904462814331055e+00,3.355472803115844727e+00,3.263388633728027344e+00,3.176223516464233398e+00,3.093593597412109375e+00,3.015154123306274414e+00,2.940593957901000977e+00,2.869632244110107422e+00,2.802014827728271484e+00,2.737510442733764648e+00,2.675909280776977539e+00,2.617019414901733398e+00,2.560665607452392578e+00,2.506687879562377930e+00,2.454938650131225586e+00,2.405282974243164062e+00,2.357596397399902344e+00,2.311763525009155273e+00,2.267678976058959961e+00,2.225244045257568359e+00,2.184368371963500977e+00,2.144967317581176758e+00,2.106962442398071289e+00,2.070280551910400391e+00,2.034854412078857422e+00,2.000620126724243164e+00,1.967518806457519531e+00,1.935495138168334961e+00,1.904496908187866211e+00,1.874476194381713867e+00,1.845386981964111328e+00
5.000000000000000000e+00,5.000000000000000000e+00,5.000000000000000000e+00,5.000000000000000000e+00,5.000000000000000000e+00,5.000000000000000000e+00,5.000000000000000000e+00,5.000000000000000000e+00,5.000000000000000000e+00,5.000000000000000000e+00,5.000000000000000000e+00,5.000000000000000000e+00,5.000000000000000000e+00,5.000000000000000000e+00,5.000000000000000000e+00,5.000000000000000000e+00,5.000000000000000000e+00,5.000000000000000000e+00,5.000000000000000000e+00,5.000000000000000000e+00,5.000000000000000000e+00,5.000000000000000000e+00,3.614380598068237305e+00,3.608143568038940430e+00,3.570817708969116211e+00,3.564218759536743164e+00,3.574663400650024414e+00,3.601150274276733398e+00,3.656946659088134766e+00,3.695883512496948242e+00,5.000000000000000000e+00,5.000000000000000000e+00,5.000000000000000000e+00,5.000000000000000000e+00,5.000000000000000000e+00,5.000000000000000000e+00,5.000000000000000000e+00,5.000000000000000000e+00,5.000000000000000000e+00,4.865899562835693359e+00,4.674618244171142578e+00,4.497807979583740234e+00,4.333884239196777344e+00,4.181489467620849609e+00,4.039447784423828125e+00,3.906739234924316406e+00,3.782473087310791016e+00,3.665868520736694336e+00,3.556238412857055664e+00,3.452975273132324219e+00,3.355539560317993164e+00,3.263451814651489258e+00,3.176283359527587891e+00,3.093650579452514648e+00,3.015208005905151367e+00,2.940645217895507812e+00,2.869681119918823242e+00,2.802061319351196289e+00,2.737554788589477539e+00,2.675951719284057617e+00,2.617059946060180664e+00,2.560704469680786133e+00,2.506725072860717773e+00,2.454974412918090820e+00,2.405317068099975586e+00,2.357629299163818359e+00,2.311795234680175781e+00,2.267709493637084961e+00,2.225273609161376953e+00,2.184396743774414062e+00,2.144994497299194336e+00,2.106988668441772461e+00,2.070306062698364258e+00,2.034878969192504883e+00,2.000643968582153320e+00,1.967541933059692383e+00,1.935517191886901855e+00,1.904518604278564453e+00,1.874496936798095703e+00,1.845407247543334961e+00
5.000000000000000000e+00,5.000000000000000000e+00,5.000000000000000000e+00,5.000000000000000000e+00,5.000000000000000000e+00,5.000000000000000000e+00,5.000000000000000000e+00,5.000000000000000000e+00,5.000000000000000000e+00,5.000000000000000000e+00,5.000000000000000000e+00,5.000000000000000000e+00,5.000000000000000000e+00,5.000000000000000000e+00,5.000000000000000000e+00,5.000000000000000000e+00,5.000000000000000000e+00,5.000000000000000000e+00,5.000000000000000000e+00,5.000000000000000000e+00,5.000000000000000000e+00,5.000000000000000000e+00,3.631528139114379883e+00,3.637609720230102539e+00,3.577003479003906250e+00,3.568472146987915039e+00,3.578056573867797852e+00,3.604457616806030273e+00,3.664889097213745117e+00,3.712724685668945312e+00,5.000000000000000000e+00,5.000000000000000000e+00,5.000000000000000000e+00,5.000000000000000000e+00,5.000000000000000000e+00,5.000000000000000000e+00,5.000000000000000000e+00,5.000000000000000000e+00,5.000000000000000000e+00,4.866039752960205078e+00,4.674747943878173828e+00,4.497927665710449219e+00,4.333995819091796875e+00,4.181592941284179688e+00,4.039544582366943359e+00,3.906829595565795898e+00,3.782557964324951172e+00,3.665948152542114258e+00,3.556313276290893555e+00,3.453045606613159180e+00,3.355606317520141602e+00,3.263514995574951172e+00,3.176343202590942383e+00,3.093707323074340820e+00,3.015261888504028320e+00,2.940696477890014648e+00,2.869729995727539062e+00,2.802107810974121094e+00,2.737599372863769531e+00,2.675994157791137695e+00,2.617100477218627930e+00,2.560743331909179688e+00,2.506762266159057617e+00,2.455010175704956055e+00,2.405351400375366211e+00,2.357662200927734375e+00,2.311826944351196289e+00,2.267740011215209961e+00,2.225302934646606445e+00,2.184425115585327148e+00,2.145021677017211914e+00,2.107014894485473633e+00,2.070331335067749023e+00,2.034903526306152344e+00,2.000667810440063477e+00,1.967564821243286133e+00,1.935539484024047852e+00,1.904539942741394043e+00,1.874517798423767090e+00,1.845427393913269043e+00
5.000000000000000000e+00,5.000000000000000000e+00,5.000000000000000000e+00,5.000000000000000000e+00,5.000000000000000000e+00,5.000000000000000000e+00,5.000000000000000000e+00,5.000000000000000000e+00,5.000000000000000000e+00,5.000000000000000000e+00,5.000000000000000000e+00,5.000000000000000000e+00,5.000000000000000000e+00,5.000000000000000000e+00,5.000000000000000000e+00,5.000000000000000000e+00,5.000000000000000000e+00,5.000000000000000000e+00,5.000000000000000000e+00,5.000000000000000000e+00,5.000000000000000000e+00,5.000000000000000000e+00,3.628069877624511719e+00,3.627381563186645508e+00,3.587533235549926758e+00,3.564589023590087891e+00,3.573241949081420898e+00,3.608415126800537109e+00,3.696049213409423828e+00,3.722434520721435547e+00,5.000000000000000000e+00,5.000000000000000000e+00,5.000000000000000000e+00,5.000000000000000000e+00,5.000000000000000000e+00,5.000000000000000000e+00,5.000000000000000000e+00,5.000000000000000000e+00,5.000000000000000000e+00,4.866180419921875000e+00,4.674877643585205078e+00,4.498047351837158203e+00,4.334107398986816406e+00,4.181696891784667969e+00,4.039641380310058594e+00,3.906920194625854492e+00,3.782642841339111328e+00,3.666028022766113281e+00,3.556388378143310547e+00,3.453116416931152344e+00,3.355673074722290039e+00,3.263577938079833984e+00,3.176403045654296875e+00,3.093764066696166992e+00,3.015315771102905273e+00,2.940747737884521484e+00,2.869778871536254883e+00,2.802154541015625000e+00,2.737643718719482422e+00,2.676036596298217773e+00,2.617141246795654297e+00,2.560782194137573242e+00,2.506799697875976562e+00,2.455045938491821289e+00,2.405385732650756836e+00,2.357695102691650391e+00,2.311858654022216797e+00,2.267770290374755859e+00,2.225332260131835938e+00,2.184453248977661133e+00,2.145049095153808594e+00,2.107041358947753906e+00,2.070356845855712891e+00,2.034928083419799805e+00,2.000691413879394531e+00,1.967587828636169434e+00,1.935561656951904297e+00,1.904561519622802734e+00,1.874538540840148926e+00,1.845447659492492676e+00
5.000000000000000000e+00,5.000000000000000000e+00,5.000000000000000000e+00,5.000000000000000000e+00,5.000000000000000000e+00,5.000000000000000000e+00,5.000000000000000000e+00,5.000000000000000000e+00,5.000000000000000000e+00,5.000000000000000000e+00,5.000000000000000000e+00,5.000000000000000000e+00,5.000000000000000000e+00,5.000000000000000000e+00,5.000000000000000000e+00,5.000000000000000000e+00,5.000000000000000000e+00,5.000000000000000000e+00,5.000000000000000000e+00,5.000000000000000000e+00,5.000000000000000000e+00,5.000000000000000000e+00,3.626138687133789062e+00,3.630624294281005859e+00,3.590312480926513672e+00,3.571667194366455078e+00,3.578830242156982422e+00,3.609700918197631836e+00,3.720547914505004883e+00,3.728357791900634766e+00,5.000000000000000000e+00,5.000000000000000000e+00,5.000000000000000000e+00,5.000000000000000000e+00,5.000000000000000000e+00,5.000000000000000000e+00,5.000000000000000000e+00,5.000000000000000000e+00,5.000000000000000000e+00,4.866320610046386719e+00,4.675007343292236328e+00,4.498167514801025391e+00,4.334218502044677734e+00,4.181800365447998047e+00,4.039738178253173828e+00,3.907010793685913086e+00,3.782727718353271484e+00,3.666107654571533203e+00,3.556463479995727539e+00,3.453186988830566406e+00,3.355739593505859375e+00,3.263641119003295898e+00,3.176462888717651367e+00,3.093820810317993164e+00,3.015369653701782227e+00,2.940798997879028320e+00,2.869827747344970703e+00,2.802201032638549805e+00,2.737688064575195312e+00,2.676079034805297852e+00,2.617181777954101562e+00,2.560821056365966797e+00,2.506836891174316406e+00,2.455081462860107422e+00,2.405420064926147461e+00,2.357728004455566406e+00,2.311890125274658203e+00,2.267800807952880859e+00,2.225361585617065430e+00,2.184481620788574219e+00,2.145076274871826172e+00,2.107067584991455078e+00,2.070382356643676758e+00,2.034952640533447266e+00,2.000715255737304688e+00,1.967610716819763184e+00,1.935583949089050293e+00,1.904582977294921875e+00,1.874559521675109863e+00,1.845467805862426758e+00
5.000000000000000000e+00,5.000000000000000000e+00,5.000000000000000000e+00,5.000000000000000000e+00,5.000000000000000000e+00,5.000000000000000000e+00,5.000000000000000000e+00,5.000000000000000000e+00,5.000000000000000000e+00,5.000000000000000000e+00,5.000000000000000000e+00,5.000000000000000000e+00,5.000000000000000000e+00,5.000000000000000000e+00,5.000000000000000000e+00,5.000000000000000000e+00,5.000000000000000000e+00,5.000000000000000000e+00,5.000000000000000000e+00,5.000000000000000000e+00,5.000000000000000000e+00,5.000000000000000000e+00,3.624138355255126953e+00,3.644138813018798828e+00,3.571796894073486328e+00,3.563749551773071289e+00,3.571341514587402344e+00,3.598001003265380859e+00,3.696207761764526367e+00,3.746962547302246094e+00,5.000000000000000000e+00,5.000000000000000000e+00,5.000000000000000000e+00,5.000000000000000000e+00,5.000000000000000000e+00,5.000000000000000000e+00,5.000000000000000000e+00,5.000000000000000000e+00,5.000000000000000000e+00,4.866461277008056641e+00,4.675137042999267578e+00,4.498287200927734375e+00,4.334329605102539062e+00,4.181904315948486328e+00,4.039834976196289062e+00,3.907101154327392578e+00,3.782812595367431641e+00,3.666187286376953125e+00,3.556538343429565430e+00,3.453257799148559570e+00,3.355806350708007812e+00,3.263704299926757812e+00,3.176522731781005859e+00,3.093877553939819336e+00,3.015423774719238281e+00,2.940850496292114258e+00,2.869876384735107422e+00,2.802247524261474609e+00,2.737732648849487305e+00,2.676121473312377930e+00,2.617222547531127930e+00,2.560860157012939453e+00,2.506874084472656250e+00,2.455117225646972656e+00,2.405454397201538086e+00,2.357760906219482422e+00,2.311921834945678711e+00,2.267831325531005859e+00,2.225390911102294922e+00,2.184509992599487305e+00,2.145103693008422852e+00,2.107094049453735352e+00,2.070407629013061523e+00,2.034977197647094727e+00,2.000738859176635742e+00,1.967633724212646484e+00,1.935606122016906738e+00,1.904604554176330566e+00,1.874580264091491699e+00,1.845488071441650391e+00
5.000000000000000000e+00,5.000000000000000000e+00,5.000000000000000000e+00,5.000000000000000000e+00,5.000000000000000000e+00,5.000000000000000000e+00,5.000000000000000000e+00,5.000000000000000000e+00,5.000000000000000000e+00,5.000000000000000000e+00,5.000000000000000000e+00,5.000000000000000000e+00,5.000000000000000000e+00,5.000000000000000000e+00,5.000000000000000000e+00,5.000000000000000000e+00,5.000000000000000000e+00,5.000000000000000000e+00,5.000000000000000000e+00,5.000000000000000000e+00,5.000000000000000000e+00,5.000000000000000000e+00,3.577240467071533203e+00,3.622470855712890625e+00,3.584980249404907227e+00,3.572889089584350586e+00,3.583852052688598633e+00,3.613890409469604492e+00,3.692780494689941406e+00,3.736691951751708984e+00,5.000000000000000000e+00,5.000000000000000000e+00,5.000000000000000000e+00,5.000000000000000000e+00,5.000000000000000000e+00,5.000000000000000000e+00,5.000000000000000000e+00,5.000000000000000000e+00,5.000000000000000000e+00,4.866601467132568359e+00,4.675266742706298828e+00,4.498407363891601562e+00,4.334441184997558594e+00,4.182007789611816406e+00,4.039931774139404297e+00,3.907191753387451172e+00,3.782897472381591797e+00,3.666267156600952148e+00,3.556613445281982422e+00,3.453328371047973633e+00,3.355873107910156250e+00,3.263767480850219727e+00,3.176582574844360352e+00,3.093934297561645508e+00,3.015477657318115234e+00,2.940901756286621094e+00,2.869925260543823242e+00,2.802294254302978516e+00,2.737776994705200195e+00,2.676164150238037109e+00,2.617263078689575195e+00,2.560899019241333008e+00,2.506911516189575195e+00,2.455152988433837891e+00,2.405488729476928711e+00,2.357794046401977539e+00,2.311953544616699219e+00,2.267861843109130859e+00,2.225420236587524414e+00,2.184538125991821289e+00,2.145130872726440430e+00,2.107120275497436523e+00,2.070433139801025391e+00,2.035001754760742188e+00,2.000762701034545898e+00,1.967656612396240234e+00,1.935628414154052734e+00,1.904626011848449707e+00,1.874601125717163086e+00,1.845508098602294922e+00
5.000000000000000000e+00,5.000000000000000000e+00,5.000000000000000000e+00,5.000000000000000000e+00,5.000000000000000000e+00,5.000000000000000000e+00,5.000000000000000000e+00,5.000000000000000000e+00,5.000000000000000000e+00,5.000000000000000000e+00,5.000000000000000000e+00,5.000000000000000000e+00,5.000000000000000000e+00,5.000000000000000000e+00,5.000000000000000000e+00,5.000000000000000000e+00,5.000000000000000000e+00,5.000000000000000000e+00,5.000000000000000000e+00,5.000000000000000000e+00,5.000000000000000000e+00,5.000000000000000000e+00,3.534956693649291992e+00,5.000000000000000000e+00,3.589253187179565430e+00,3.598303556442260742e+00,3.611648082733154297e+00,3.606404304504394531e+00,3.703868389129638672e+00,3.725322961807250977e+00,5.000000000000000000e+00,5.000000000000000000e+00,5.000000000000000000e+00,5.000000000000000000e+00,5.000000000000000000e+00,5.000000000000000000e+00,5.000000000000000000e+00,5.000000000000000000e+00,5.000000000000000000e+00,4.866742134094238281e+00,4.675395965576171875e+00,4.498527526855468750e+00,4.334552764892578125e+00,4.182111263275146484e+00,4.040028572082519531e+00,3.907282352447509766e+00,3.782982349395751953e+00,3.666346788406372070e+00,3.556688547134399414e+00,3.453399181365966797e+00,3.355939865112304688e+00,3.263830423355102539e+00,3.176642417907714844e+00,3.093991041183471680e+00,3.015531539916992188e+00,2.940953016281127930e+00,2.869974136352539062e+00,2.802340745925903320e+00,2.737821578979492188e+00,2.676206588745117188e+00,2.617303609848022461e+00,2.560937881469726562e+00,2.506948709487915039e+00,2.455188751220703125e+00,2.405523061752319336e+00,2.357826948165893555e+00,2.311985254287719727e+00,2.267892360687255859e+00,2.225449800491333008e+00,2.184566497802734375e+00,2.145158290863037109e+00,2.107146501541137695e+00,2.070458650588989258e+00,2.035026311874389648e+00,2.000786304473876953e+00,1.967679738998413086e+00,1.935650467872619629e+00,1.904647588729858398e+00,1.874621868133544922e+00,1.845528483390808105e+00
5.000000000000000000e+00,5.000000000000000000e+00,5.000000000000000000e+00,5.000000000000000000e+00,5.000000000000000000e+00,5.000000000000000000e+00,5.000000000000000000e+00,5.000000000000000000e+00,5.000000000000000000e+00,5.000000000000000000e+00,5.000000000000000000e+00,5.000000000000000000e+00,5.000000000000000000e+00,5.000000000000000000e+00,5.000000000000000000e+00,5.000000000000000000e+00,5.000000000000000000e+00,5.000000000000000000e+00,5.000000000000000000e+00,5.000000000000000000e+00,5.000000000000000000e+00,5.000000000000000000e+00,3.527218341827392578e+00,5.000000000000000000e+00,3.596124410629272461e+00,3.623495578765869141e+00,3.534777641296386719e+00,3.542149782180786133e+00,3.627834796905517578e+00,3.706111669540405273e+00,5.000000000000000000e+00,5.000000000000000000e+00,5.000000000000000000e+00,5.000000000000000000e+00,5.000000000000000000e+00,5.000000000000000000e+00,5.000000000000000000e+00,5.000000000000000000e+00,5.000000000000000000e+00,4.866882324218750000e+00,4.675525665283203125e+00,4.498647212982177734e+00,4.334663867950439453e+00,4.182215213775634766e+00,4.040125370025634766e+00,3.907372951507568359e+00,3.783067226409912109e+00,3.666426658630371094e+00,3.556763410568237305e+00,3.453469991683959961e+00,3.356006622314453125e+00,3.263893604278564453e+00,3.176702260971069336e+00,3.094047784805297852e+00,3.015585422515869141e+00,2.941004276275634766e+00,2.870023012161254883e+00,2.802387237548828125e+00,2.737865924835205078e+00,2.676249027252197266e+00,2.617344379425048828e+00,2.560976743698120117e+00,2.506985902786254883e+00,2.455224514007568359e+00,2.405557394027709961e+00,2.357859849929809570e+00,2.312016963958740234e+00,2.267922878265380859e+00,2.225479125976562500e+00,2.184594869613647461e+00,2.145185470581054688e+00,2.107172966003417969e+00,2.070483922958374023e+00,2.035050868988037109e+00,2.000810146331787109e+00,1.967702507972717285e+00,1.935672879219055176e+00,1.904669046401977539e+00,1.874642848968505859e+00,1.845548510551452637e+00
5.000000000000000000e+00,5.000000000000000000e+00,5.000000000000000000e+00,5.000000000000000000e+00,5.000000000000000000e+00,5.000000000000000000e+00,5.000000000000000000e+00,5.000000000000000000e+00,5.000000000000000000e+00,5.000000000000000000e+00,5.000000000000000000e+00,5.000000000000000000e+00,5.000000000000000000e+00,5.000000000000000000e+00,5.000000000000000000e+00,5.000000000000000000e+00,5.000000000000000000e+00,5.000000000000000000e+00,5.000000000000000000e+00,5.000000000000000000e+00,5.000000000000000000e+00,3.484861373901367188e+00,3.445204496383666992e+00,5.000000000000000000e+00,3.601984262466430664e+00,3.621819496154785156e+00,3.506109237670898438e+00,3.510547161102294922e+00,3.598643541336059570e+00,3.701183795928955078e+00,5.000000000000000000e+00,5.000000000000000000e+00,5.000000000000000000e+00,5.000000000000000000e+00,5.000000000000000000e+00,5.000000000000000000e+00,5.000000000000000000e+00,5.000000000000000000e+00,5.000000000000000000e+00,4.867022991180419922e+00,4.675655364990234375e+00,4.498767375946044922e+00,4.334775447845458984e+00,4.182318687438964844e+00,4.040222167968750000e+00,3.907463550567626953e+00,3.783152103424072266e+00,3.666506290435791016e+00,3.556838512420654297e+00,3.453540563583374023e+00,3.356073379516601562e+00,3.263956785202026367e+00,3.176762104034423828e+00,3.094104528427124023e+00,3.015639305114746094e+00,2.941055536270141602e+00,2.870071887969970703e+00,2.802433967590332031e+00,2.737910509109497070e+00,2.676291465759277344e+00,2.617384910583496094e+00,2.561015605926513672e+00,2.507023334503173828e+00,2.455260276794433594e+00,2.405591726303100586e+00,2.357892990112304688e+00,2.312048673629760742e+00,2.267953157424926758e+00,2.225508451461791992e+00,2.184623241424560547e+00,2.145212888717651367e+00,2.107199192047119141e+00,2.070509433746337891e+00,2.035075426101684570e+00,2.000833988189697266e+00,1.967725634574890137e+00,1.935694932937622070e+00,1.904690623283386230e+00,1.874663591384887695e+00,1.845568895339965820e+00
5.000000000000000000e+00,5.000000000000000000e+00,5.000000000000000000e+00,5.000000000000000000e+00,5.000000000000000000e+00,5.000000000000000000e+00,5.000000000000000000e+00,5.000000000000000000e+00,5.000000000000000000e+00,5.000000000000000000e+00,5.000000000000000000e+00,5.000000000000000000e+00,5.000000000000000000e+00,5.000000000000000000e+00,5.000000000000000000e+00,5.000000000000000000e+00,5.000000000000000000e+00,5.000000000000000000e+00,5.000000000000000000e+00,5.000000000000000000e+00,5.000000000000000000e+00,3.423320770263671875e+00,5.000000000000000000e+00,5.000000000000000000e+00,3.620117425918579102e+00,3.634451389312744141e+00,3.474539756774902344e+00,3.480236530303955078e+00,3.640823841094970703e+00,5.000000000000000000e+00,5.000000000000000000e+00,5.000000000000000000e+00,5.000000000000000000e+00,5.000000000000000000e+00,5.000000000000000000e+00,5.000000000000000000e+00,5.000000000000000000e+00,5.000000000000000000e+00,5.000000000000000000e+00,4.867163658142089844e+00,4.675785064697265625e+00,4.498887538909912109e+00,4.334887027740478516e+00,4.182422637939453125e+00,4.040318489074707031e+00,3.907553911209106445e+00,3.783236980438232422e+00,3.666585922241210938e+00,3.556913614273071289e+00,3.453611373901367188e+00,3.356140375137329102e+00,3.264019966125488281e+00,3.176821708679199219e+00,3.094161510467529297e+00,3.015693426132202148e+00,2.941106796264648438e+00,2.870120763778686523e+00,2.802480459213256836e+00,2.737954854965209961e+00,2.676333904266357422e+00,2.617425680160522461e+00,2.561054468154907227e+00,2.507060527801513672e+00,2.455296039581298828e+00,2.405626058578491211e+00,2.357925891876220703e+00,2.312080383300781250e+00,2.267983675003051758e+00,2.225537776947021484e+00,2.184651374816894531e+00,2.145240068435668945e+00,2.107225656509399414e+00,2.070534706115722656e+00,2.035099983215332031e+00,2.000857591629028320e+00,1.967748522758483887e+00,1.935717344284057617e+00,1.904712080955505371e+00,1.874684572219848633e+00,1.845588922500610352e+00
5.000000000000000000e+00,5.000000000000000000e+00,5.000000000000000000e+00,5.000000000000000000e+00,5.000000000000000000e+00,5.000000000000000000e+00,5.000000000000000000e+00,5.000000000000000000e+00,5.000000000000000000e+00,5.000000000000000000e+00,5.000000000000000000e+00,5.000000000000000000e+00,5.000000000000000000e+00,5.000000000000000000e+00,5.000000000000000000e+00,5.000000000000000000e+00,5.000000000000000000e+00,5.000000000000000000e+00,5.000000000000000000e+00,5.000000000000000000e+00,5.000000000000000000e+00,5.000000000000000000e+00,5.000000000000000000e+00,5.000000000000000000e+00,3.642246484756469727e+00,3.649756431579589844e+00,3.442232131958007812e+00,3.445916175842285156e+00,5.000000000000000000e+00,5.000000000000000000e+00,5.000000000000000000e+00,5.000000000000000000e+00,5.000000000000000000e+00,5.000000000000000000e+00,5.000000000000000000e+00,5.000000000000000000e+00,5.000000000000000000e+00,5.000000000000000000e+00,5.000000000000000000e+00,4.867303848266601562e+00,4.675914764404296875e+00,4.499007701873779297e+00,4.334998607635498047e+00,4.182526111602783203e+00,4.040415287017822266e+00,3.907644510269165039e+00,3.783321857452392578e+00,3.666665792465209961e+00,3.556988477706909180e+00,3.453682184219360352e+00,3.356207132339477539e+00,3.264083147048950195e+00,3.176881551742553711e+00,3.094218254089355469e+00,3.015747308731079102e+00,2.941158056259155273e+00,2.870169639587402344e+00,2.802526950836181641e+00,2.737999439239501953e+00,2.676376342773437500e+00,2.617466211318969727e+00,2.561093330383300781e+00,2.507097721099853516e+00,2.455331802368164062e+00,2.405660390853881836e+00,2.357958793640136719e+00,2.312112092971801758e+00,2.268014192581176758e+00,2.225567102432250977e+00,2.184679746627807617e+00,2.145267486572265625e+00,2.107251882553100586e+00,2.070560216903686523e+00,2.035124540328979492e+00,2.000881433486938477e+00,1.967771530151367188e+00,1.935739398002624512e+00,1.904733657836914062e+00,1.874705314636230469e+00,1.845609307289123535e+00
5.000000000000000000e+00,5.000000000000000000e+00,5.000000000000000000e+00,5.000000000000000000e+00,5.000000000000000000e+00,5.000000000000000000e+00,5.000000000000000000e+00,5.000000000000000000e+00,5.000000000000000000e+00,5.000000000000000000e+00,5.000000000000000000e+00,5.000000000000000000e+00,5.000000000000000000e+00,5.000000000000000000e+00,5.000000000000000000e+00,5.000000000000000000e+00,5.000000000000000000e+00,5.000000000000000000e+00,5.000000000000000000e+00,5.000000000000000000e+00,5.000000000000000000e+00,5.000000000000000000e+00,5.000000000000000000e+00,5.000000000000000000e+00,3.661616563796997070e+00,3.664179563522338867e+00,3.410621643066406250e+00,3.425026178359985352e+00,5.000000000000000000e+00,5.000000000000000000e+00,5.000000000000000000e+00,5.000000000000000000e+00,5.000000000000000000e+00,5.000000000000000000e+00,5.000000000000000000e+00,5.000000000000000000e+00,5.000000000000000000e+00,5.000000000000000000e+00,5.000000000000000000e+00,4.867444515228271484e+00,4.676044464111328125e+00,4.499127388000488281e+00,4.335109710693359375e+00,4.182630062103271484e+00,4.040512084960937500e+00,3.907735109329223633e+00,3.783406734466552734e+00,3.666745424270629883e+00,3.557063579559326172e+00,3.453752994537353516e+00,3.356273889541625977e+00,3.264146327972412109e+00,3.176941394805908203e+00,3.094274759292602539e+00,3.015801191329956055e+00,2.941209554672241211e+00,2.870218515396118164e+00,2.802573680877685547e+00,2.738044023513793945e+00,2.676419019699096680e+00,2.617506742477416992e+00,2.561132431030273438e+00,2.507135152816772461e+00,2.455367565155029297e+00,2.405694723129272461e+00,2.357991695404052734e+00,2.312143802642822266e+00,2.268044710159301758e+00,2.225596427917480469e+00,2.184707880020141602e+00,2.145294666290283203e+00,2.107278347015380859e+00,2.070585727691650391e+00,2.035149097442626953e+00,2.000905036926269531e+00,1.967794418334960938e+00,1.935761690139770508e+00,1.904755115509033203e+00,1.874726295471191406e+00,1.845629334449768066e+00
5.000000000000000000e+00,5.000000000000000000e+00,5.000000000000000000e+00,5.000000000000000000e+00,5.000000000000000000e+00,5.000000000000000000e+00,5.000000000000000000e+00,5.000000000000000000e+00,5.000000000000000000e+00,5.000000000000000000e+00,5.000000000000000000e+00,5.000000000000000000e+00,5.000000000000000000e+00,5.000000000000000000e+00,5.000000000000000000e+00,5.000000000000000000e+00,5.000000000000000000e+00,5.000000000000000000e+00,5.000000000000000000e+00,5.000000000000000000e+00,5.000000000000000000e+00,5.000000000000000000e+00,5.000000000000000000e+00,5.000000000000000000e+00,5.000000000000000000e+00,3.676912784576416016e+00,3.415029287338256836e+00,3.429124593734741211e+00,5.000000000000000000e+00,5.000000000000000000e+00,5.000000000000000000e+00,5.000000000000000000e+00,5.000000000000000000e+00,5.000000000000000000e+00,5.000000000000000000e+00,5.000000000000000000e+00,5.000000000000000000e+00,5.000000000000000000e+00,5.000000000000000000e+00,4.867585182189941406e+00,4.676174163818359375e+00,4.499247550964355469e+00,4.335221290588378906e+00,4.182734012603759766e+00,4.040608882904052734e+00,3.907825708389282227e+00,3.783491611480712891e+00,3.666825294494628906e+00,3.557138681411743164e+00,3.453823566436767578e+00,3.356340646743774414e+00,3.264209508895874023e+00,3.177001237869262695e+00,3.094331502914428711e+00,3.015855073928833008e+00,2.941260814666748047e+00,2.870267391204833984e+00,2.802620172500610352e+00,2.738088369369506836e+00,2.676461458206176758e+00,2.617547512054443359e+00,2.561171293258666992e+00,2.507172346115112305e+00,2.455403327941894531e+00,2.405729055404663086e+00,2.358024835586547852e+00,2.312175512313842773e+00,2.268075227737426758e+00,2.225625753402709961e+00,2.184736251831054688e+00,2.145322084426879883e+00,2.107304573059082031e+00,2.070611000061035156e+00,2.035173654556274414e+00,2.000928878784179688e+00,1.967817425727844238e+00,1.935783863067626953e+00,1.904776692390441895e+00,1.874747037887573242e+00,1.845649719238281250e+00
5.000000000000000000e+00,5.000000000000000000e+00,5.000000000000000000e+00,5.000000000000000000e+00,5.000000000000000000e+00,5.000000000000000000e+00,5.000000000000000000e+00,5.000000000000000000e+00,5.000000000000000000e+00,5.000000000000000000e+00,5.000000000000000000e+00,5.000000000000000000e+00,5.000000000000000000e+00,5.000000000000000000e+00,5.000000000000000000e+00,5.000000000000000000e+00,5.000000000000000000e+00,5.000000000000000000e+00,5.000000000000000000e+00,5.000000000000000000e+00,5.000000000000000000e+00,5.000000000000000000e+00,5.000000000000000000e+00,5.000000000000000000e+00,5.000000000000000000e+00,3.697968721389770508e+00,3.440605163574218750e+00,3.436728000640869141e+00,5.000000000000000000e+00,5.000000000000000000e+00,5.000000000000000000e+00,5.000000000000000000e+00,5.000000000000000000e+00,5.000000000000000000e+00,5.000000000000000000e+00,5.000000000000000000e+00,5.000000000000000000e+00,5.000000000000000000e+00,5.000000000000000000e+00,4.867724418640136719e+00,4.676303863525390625e+00,4.499367713928222656e+00,4.335332870483398438e+00,4.182837486267089844e+00,4.040705680847167969e+00,3.907916307449340820e+00,3.783576488494873047e+00,3.666904926300048828e+00,3.557213783264160156e+00,3.453894376754760742e+00,3.356407403945922852e+00,3.264272689819335938e+00,3.177061080932617188e+00,3.094388246536254883e+00,3.015909194946289062e+00,2.941312074661254883e+00,2.870316267013549805e+00,2.802666902542114258e+00,2.738132953643798828e+00,2.676503896713256836e+00,2.617588043212890625e+00,2.561210155487060547e+00,2.507209539413452148e+00,2.455439090728759766e+00,2.405763387680053711e+00,2.358057737350463867e+00,2.312207221984863281e+00,2.268105745315551758e+00,2.225655078887939453e+00,2.184764623641967773e+00,2.145349264144897461e+00,2.107331037521362305e+00,2.070636510848999023e+00,2.035198211669921875e+00,2.000952482223510742e+00,1.967840313911437988e+00,1.935806155204772949e+00,1.904798150062561035e+00,1.874767899513244629e+00,1.845669746398925781e+00
5.000000000000000000e+00,5.000000000000000000e+00,5.000000000000000000e+00,5.000000000000000000e+00,5.000000000000000000e+00,5.000000000000000000e+00,5.000000000000000000e+00,5.000000000000000000e+00,5.000000000000000000e+00,5.000000000000000000e+00,5.000000000000000000e+00,5.000000000000000000e+00,5.000000000000000000e+00,5.000000000000000000e+00,5.000000000000000000e+00,5.000000000000000000e+00,5.000000000000000000e+00,5.000000000000000000e+00,5.000000000000000000e+00,5.000000000000000000e+00,5.000000000000000000e+00,5.000000000000000000e+00,5.000000000000000000e+00,5.000000000000000000e+00,5.000000000000000000e+00,3.747329950332641602e+00,3.449273824691772461e+00,3.433526754379272461e+00,5.000000000000000000e+00,5.000000000000000000e+00,5.000000000000000000e+00,5.000000000000000000e+00,5.000000000000000000e+00,5.000000000000000000e+00,5.000000000000000000e+00,5.000000000000000000e+00,5.000000000000000000e+00,5.000000000000000000e+00,5.000000000000000000e+00,4.867863178253173828e+00,4.676432609558105469e+00,4.499487876892089844e+00,4.335444450378417969e+00,4.182941436767578125e+00,4.040802955627441406e+00,3.908006906509399414e+00,3.783661365509033203e+00,3.666984796524047852e+00,3.557288646697998047e+00,3.453965187072753906e+00,3.356474399566650391e+00,3.264335870742797852e+00,3.177120923995971680e+00,3.094444990158081055e+00,3.015962839126586914e+00,2.941363334655761719e+00,2.870364904403686523e+00,2.802713394165039062e+00,2.738177299499511719e+00,2.676546335220336914e+00,2.617628812789916992e+00,2.561249017715454102e+00,2.507246971130371094e+00,2.455474853515625000e+00,2.405797719955444336e+00,2.358090639114379883e+00,2.312238931655883789e+00,2.268136262893676758e+00,2.225684642791748047e+00,2.184792757034301758e+00,2.145376443862915039e+00,2.107357263565063477e+00,2.070662021636962891e+00,2.035222768783569336e+00,2.000976324081420898e+00,1.967863440513610840e+00,1.935828328132629395e+00,1.904819726943969727e+00,1.874788641929626465e+00,1.845690011978149414e+00
5.000000000000000000e+00,5.000000000000000000e+00,5.000000000000000000e+00,5.000000000000000000e+00,5.000000000000000000e+00,5.000000000000000000e+00,5.000000000000000000e+00,5.000000000000000000e+00,5.000000000000000000e+00,5.000000000000000000e+00,5.000000000000000000e+00,5.000000000000000000e+00,5.000000000000000000e+00,5.000000000000000000e+00,5.000000000000000000e+00,5.000000000000000000e+00,5.000000000000000000e+00,5.000000000000000000e+00,5.000000000000000000e+00,5.000000000000000000e+00,5.000000000000000000e+00,5.000000000000000000e+00,5.000000000000000000e+00,5.000000000000000000e+00,5.000000000000000000e+00,3.791605472564697266e+00,3.441719055175781250e+00,3.422797441482543945e+00,5.000000000000000000e+00,5.000000000000000000e+00,5.000000000000000000e+00,5.000000000000000000e+00,5.000000000000000000e+00,5.000000000000000000e+00,5.000000000000000000e+00,5.000000000000000000e+00,5.000000000000000000e+00,5.000000000000000000e+00,5.000000000000000000e+00,4.868001937866210938e+00,4.676561355590820312e+00,4.499608039855957031e+00,4.335555553436279297e+00,4.183044910430908203e+00,4.040899753570556641e+00,3.908097505569458008e+00,3.783746242523193359e+00,3.667064428329467773e+00,3.557363748550415039e+00,3.454035758972167969e+00,3.356541156768798828e+00,3.264399051666259766e+00,3.177180767059326172e+00,3.094501733779907227e+00,3.016016721725463867e+00,2.941414594650268555e+00,2.870413780212402344e+00,2.802759885787963867e+00,2.738221883773803711e+00,2.676588773727416992e+00,2.617669343948364258e+00,2.561287879943847656e+00,2.507284164428710938e+00,2.455510616302490234e+00,2.405832052230834961e+00,2.358123779296875000e+00,2.312270641326904297e+00,2.268166780471801758e+00,2.225713968276977539e+00,2.184821128845214844e+00,2.145403861999511719e+00,2.107383728027343750e+00,2.070687294006347656e+00,2.035247564315795898e+00,2.001000165939331055e+00,1.967886209487915039e+00,1.935850620269775391e+00,1.904841184616088867e+00,1.874809622764587402e+00,1.845710158348083496e+00
5.000000000000000000e+00,5.000000000000000000e+00,5.000000000000000000e+00,5.000000000000000000e+00,5.000000000000000000e+00,5.000000000000000000e+00,5.000000000000000000e+00,5.000000000000000000e+00,5.000000000000000000e+00,5.000000000000000000e+00,5.000000000000000000e+00,5.000000000000000000e+00,5.000000000000000000e+00,5.000000000000000000e+00,5.000000000000000000e+00,5.000000000000000000e+00,5.000000000000000000e+00,5.000000000000000000e+00,5.000000000000000000e+00,5.000000000000000000e+00,5.000000000000000000e+00,5.000000000000000000e+00,5.000000000000000000e+00,5.000000000000000000e+00,5.000000000000000000e+00,3.827265739440917969e+00,3.458397150039672852e+00,3.420525789260864258e+00,5.000000000000000000e+00,5.000000000000000000e+00,5.000000000000000000e+00,5.000000000000000000e+00,5.000000000000000000e+00,5.000000000000000000e+00,5.000000000000000000e+00,5.000000000000000000e+00,5.000000000000000000e+00,5.000000000000000000e+00,5.000000000000000000e+00,4.868140697479248047e+00,4.676689147949218750e+00,4.499726295471191406e+00,4.335667133331298828e+00,4.183148860931396484e+00,4.040996551513671875e+00,3.908187866210937500e+00,3.783831119537353516e+00,3.667144298553466797e+00,3.557438850402832031e+00,3.454106569290161133e+00,3.356607913970947266e+00,3.264462232589721680e+00,3.177240610122680664e+00,3.094558715820312500e+00,3.016070604324340820e+00,2.941466093063354492e+00,2.870462656021118164e+00,2.802806615829467773e+00,2.738266229629516602e+00,2.676631450653076172e+00,2.617710113525390625e+00,2.561326742172241211e+00,2.507321357727050781e+00,2.455546379089355469e+00,2.405866384506225586e+00,2.358156681060791016e+00,2.312302350997924805e+00,2.268197298049926758e+00,2.225743293762207031e+00,2.184849500656127930e+00,2.145431041717529297e+00,2.107409954071044922e+00,2.070712804794311523e+00,2.035272121429443359e+00,2.001023769378662109e+00,1.967909336090087891e+00,1.935872793197631836e+00,1.904862761497497559e+00,1.874830365180969238e+00,1.845730423927307129e+00
5.000000000000000000e+00,5.000000000000000000e+00,5.000000000000000000e+00,5.000000000000000000e+00,5.000000000000000000e+00,5.000000000000000000e+00,5.000000000000000000e+00,5.000000000000000000e+00,5.000000000000000000e+00,5.000000000000000000e+00,5.000000000000000000e+00,5.000000000000000000e+00,5.000000000000000000e+00,5.000000000000000000e+00,5.000000000000000000e+00,5.000000000000000000e+00,5.000000000000000000e+00,5.000000000000000000e+00,5.000000000000000000e+00,5.000000000000000000e+00,5.000000000000000000e+00,5.000000000000000000e+00,5.000000000000000000e+00,5.000000000000000000e+00,5.000000000000000000e+00,3.901910543441772461e+00,3.869093179702758789e+00,3.419799327850341797e+00,5.000000000000000000e+00,5.000000000000000000e+00,5.000000000000000000e+00,5.000000000000000000e+00,5.000000000000000000e+00,5.000000000000000000e+00,5.000000000000000000e+00,5.000000000000000000e+00,5.000000000000000000e+00,5.000000000000000000e+00,5.000000000000000000e+00,4.868279933929443359e+00,4.676817417144775391e+00,4.499845504760742188e+00,4.335777759552001953e+00,4.183252811431884766e+00,4.041093349456787109e+00,3.908278465270996094e+00,3.783915996551513672e+00,3.667223930358886719e+00,3.557513952255249023e+00,3.454177379608154297e+00,3.356674671173095703e+00,3.264525413513183594e+00,3.177300453186035156e+00,3.094615459442138672e+00,3.016124725341796875e+00,2.941517114639282227e+00,2.870511531829833984e+00,2.802853107452392578e+00,2.738310813903808594e+00,2.676673889160156250e+00,2.617750644683837891e+00,2.561365842819213867e+00,2.507358789443969727e+00,2.455582141876220703e+00,2.405900716781616211e+00,2.358189582824707031e+00,2.312334060668945312e+00,2.268227815628051758e+00,2.225772619247436523e+00,2.184877872467041016e+00,2.145458459854125977e+00,2.107436180114746094e+00,2.070738315582275391e+00,2.035296678543090820e+00,2.001047611236572266e+00,1.967932224273681641e+00,1.935895085334777832e+00,1.904884219169616699e+00,1.874851346015930176e+00,1.845750570297241211e+00
5.000000000000000000e+00,5.000000000000000000e+00,5.000000000000000000e+00,5.000000000000000000e+00,5.000000000000000000e+00,5.000000000000000000e+00,5.000000000000000000e+00,5.000000000000000000e+00,5.000000000000000000e+00,5.000000000000000000e+00,5.000000000000000000e+00,5.000000000000000000e+00,5.000000000000000000e+00,5.000000000000000000e+00,5.000000000000000000e+00,5.000000000000000000e+00,5.000000000000000000e+00,5.000000000000000000e+00,5.000000000000000000e+00,5.000000000000000000e+00,5.000000000000000000e+00,5.000000000000000000e+00,5.000000000000000000e+00,5.000000000000000000e+00,5.000000000000000000e+00,5.000000000000000000e+00,3.892062187194824219e+00,3.424569845199584961e+00,5.000000000000000000e+00,5.000000000000000000e+00,5.000000000000000000e+00,5.000000000000000000e+00,5.000000000000000000e+00,5.000000000000000000e+00,5.000000000000000000e+00,5.000000000000000000e+00,5.000000000000000000e+00,5.000000000000000000e+00,5.000000000000000000e+00,4.868418693542480469e+00,4.676945209503173828e+00,4.499963760375976562e+00,4.335887908935546875e+00,4.183356285095214844e+00,4.041190147399902344e+00,3.908369064331054688e+00,3.784001111984252930e+00,3.667303800582885742e+00,3.557589054107666016e+00,3.454248189926147461e+00,3.356741666793823242e+00,3.264588594436645508e+00,3.177360534667968750e+00,3.094672203063964844e+00,3.016178607940673828e+00,2.941568374633789062e+00,2.870560407638549805e+00,2.802899837493896484e+00,2.738355159759521484e+00,2.676716327667236328e+00,2.617791414260864258e+00,2.561404705047607422e+00,2.507395982742309570e+00,2.455617904663085938e+00,2.405935049057006836e+00,2.358222723007202148e+00,2.312365770339965820e+00,2.268258333206176758e+00,2.225802183151245117e+00,2.184906005859375000e+00,2.145485639572143555e+00,2.107462406158447266e+00,2.070763587951660156e+00,2.035321235656738281e+00,2.001071214675903320e+00,1.967955231666564941e+00,1.935917258262634277e+00,1.904905796051025391e+00,1.874872088432312012e+00,1.845770835876464844e+00
4.874784946441650391e+00,4.873573780059814453e+00,4.872363090515136719e+00,4.871152877807617188e+00,4.869943141937255859e+00,4.868734359741210938e+00,4.867526054382324219e+00,4.866318702697753906e+00,4.865111351013183594e+00,4.863904476165771484e+00,4.862699031829833984e+00,4.861493587493896484e+00,4.860289096832275391e+00,4.859084606170654297e+00,4.857881546020507812e+00,4.856678485870361328e+00,4.855475902557373047e+00,4.854274749755859375e+00,4.853073120117187500e+00,4.851872920989990234e+00,4.850672721862792969e+00,4.849473953247070312e+00,4.848274707794189453e+00,4.847076416015625000e+00,4.845879077911376953e+00,4.844682216644287109e+00,3.871403455734252930e+00,3.362506151199340820e+00,4.841094970703125000e+00,4.839900016784667969e+00,4.838706016540527344e+00,4.837512969970703125e+00,4.836319923400878906e+00,4.835127830505371094e+00,4.833935737609863281e+00,4.832745075225830078e+00,4.831554412841796875e+00,4.830364227294921875e+00,4.829174995422363281e+00,4.827986240386962891e+00,4.677073955535888672e+00,4.500082492828369141e+00,4.335998058319091797e+00,4.183458805084228516e+00,4.041286945343017578e+00,3.908459663391113281e+00,3.784085988998413086e+00,3.667383432388305664e+00,3.557663917541503906e+00,3.454319000244140625e+00,3.356808423995971680e+00,3.264652013778686523e+00,3.177420377731323242e+00,3.094728946685791016e+00,3.016232490539550781e+00,2.941619634628295898e+00,2.870609045028686523e+00,2.802946329116821289e+00,2.738399744033813477e+00,2.676758766174316406e+00,2.617831945419311523e+00,2.561443567276000977e+00,2.507433414459228516e+00,2.455653667449951172e+00,2.405969381332397461e+00,2.358255624771118164e+00,2.312397480010986328e+00,2.268288850784301758e+00,2.225831508636474609e+00,2.184934377670288086e+00,2.145513057708740234e+00,2.107488870620727539e+00,2.070788860321044922e+00,2.035345792770385742e+00,2.001095056533813477e+00,1.967978119850158691e+00,1.935939550399780273e+00,1.904927253723144531e+00,1.874893069267272949e+00,1.845790982246398926e+00
3.777541399002075195e+00,3.776814460754394531e+00,3.776087284088134766e+00,3.775360345840454102e+00,3.774633646011352539e+00,3.773907661437988281e+00,3.773181438446044922e+00,3.772455692291259766e+00,3.771730184555053711e+00,3.771004915237426758e+00,3.770280361175537109e+00,3.769555568695068359e+00,3.768831253051757812e+00,3.768106937408447266e+00,3.767383098602294922e+00,3.766659975051879883e+00,3.765936613082885742e+00,3.765213727951049805e+00,3.764490842819213867e+00,3.763768434524536133e+00,3.763046503067016602e+00,3.762324571609497070e+00,3.761603116989135742e+00,3.760881662368774414e+00,3.760160923004150391e+00,3.759440183639526367e+00,3.758719682693481445e+00,3.443672418594360352e+00,3.757279396057128906e+00,3.756560087203979492e+00,3.755840539932250977e+00,3.755121469497680664e+00,3.754402399063110352e+00,3.753683805465698242e+00,3.752965927124023438e+00,3.752247810363769531e+00,3.751530170440673828e+00,3.750812530517578125e+00,3.750095844268798828e+00,3.749378681182861328e+00,3.748661994934082031e+00,3.747945547103881836e+00,3.747229576110839844e+00,3.746514081954956055e+00,3.745798349380493164e+00,3.745083093643188477e+00,3.744368076324462891e+00,3.667463302612304688e+00,3.557739019393920898e+00,3.454389572143554688e+00,3.356875181198120117e+00,3.264715194702148438e+00,3.177480220794677734e+00,3.094785928726196289e+00,3.016286373138427734e+00,2.941671133041381836e+00,2.870657920837402344e+00,2.802992820739746094e+00,2.738444089889526367e+00,2.676801204681396484e+00,2.617872476577758789e+00,2.561482429504394531e+00,2.507470607757568359e+00,2.455689430236816406e+00,2.406003713607788086e+00,2.358288526535034180e+00,2.312429189682006836e+00,2.268319368362426758e+00,2.225860834121704102e+00,2.184962749481201172e+00,2.145540237426757812e+00,2.107515096664428711e+00,2.070814371109008789e+00,2.035370349884033203e+00,2.001118898391723633e+00,1.968001246452331543e+00,1.935961604118347168e+00,1.904948830604553223e+00,1.874913811683654785e+00,1.845811247825622559e+00
3.083492517471313477e+00,3.083007812500000000e+00,3.082523107528686523e+00,3.082038640975952148e+00,3.081554651260375977e+00,3.081070423126220703e+00,3.080586433410644531e+00,3.080102682113647461e+00,3.079619407653808594e+00,3.079135656356811523e+00,3.078652381896972656e+00,3.078169107437133789e+00,3.077686071395874023e+00,3.077203512191772461e+00,3.076720714569091797e+00,3.076237916946411133e+00,3.075755596160888672e+00,3.075273275375366211e+00,3.074791431427001953e+00,3.074309349060058594e+00,3.073827505111694336e+00,3.073345661163330078e+00,3.072864055633544922e+00,3.072382926940917969e+00,3.071901798248291016e+00,3.071420669555664062e+00,3.070939779281616211e+00,3.070459127426147461e+00,3.069978475570678711e+00,3.069498062133789062e+00,3.069017648696899414e+00,3.068537473678588867e+00,3.068057537078857422e+00,3.067577600479125977e+00,3.067097902297973633e+00,3.066618442535400391e+00,3.066138982772827148e+00,3.065659999847412109e+00,3.065180778503417969e+00,3.064701795578002930e+00,3.064222812652587891e+00,3.063744544982910156e+00,3.063266038894653320e+00,3.062787532806396484e+00,3.062309265136718750e+00,3.061831235885620117e+00,3.061353445053100586e+00,3.060875654220581055e+00,3.060397863388061523e+00,3.059920549392700195e+00,3.059442996978759766e+00,3.058966159820556641e+00,3.058489084243774414e+00,3.058012008666992188e+00,3.016340494155883789e+00,2.941722393035888672e+00,2.870706796646118164e+00,2.803039550781250000e+00,2.738488674163818359e+00,2.676843881607055664e+00,2.617913246154785156e+00,2.561521291732788086e+00,2.507507801055908203e+00,2.455725193023681641e+00,2.406038045883178711e+00,2.358321666717529297e+00,2.312460899353027344e+00,2.268349885940551758e+00,2.225890159606933594e+00,2.184991121292114258e+00,2.145567655563354492e+00,2.107541561126708984e+00,2.070839881896972656e+00,2.035394906997680664e+00,2.001142501831054688e+00,1.968024015426635742e+00,1.935984015464782715e+00,1.904970288276672363e+00,1.874934673309326172e+00,1.845831394195556641e+00
2.604894161224365234e+00,2.604547977447509766e+00,2.604202508926391602e+00,2.603856563568115234e+00,2.603510856628417969e+00,2.603165388107299805e+00,2.602819919586181641e+00,2.602474689483642578e+00,2.602129459381103516e+00,2.601784229278564453e+00,2.601438999176025391e+00,2.601094245910644531e+00,2.600749254226684570e+00,2.600404262542724609e+00,2.600059509277343750e+00,2.599714994430541992e+00,2.599370479583740234e+00,2.599025964736938477e+00,2.598681688308715820e+00,2.598337411880493164e+00,2.597993135452270508e+00,2.597649097442626953e+00,2.597305059432983398e+00,2.596961259841918945e+00,2.596617221832275391e+00,2.596273660659790039e+00,2.595930099487304688e+00,2.595586538314819336e+00,2.595242977142333984e+00,2.594899654388427734e+00,2.594556570053100586e+00,2.594213247299194336e+00,2.593870162963867188e+00,2.593527078628540039e+00,2.593184232711791992e+00,2.592841625213623047e+00,2.592498779296875000e+00,2.592156171798706055e+00,2.591813564300537109e+00,2.591470956802368164e+00,2.591128826141357422e+00,2.590786457061767578e+00,2.590444326400756836e+00,2.590102195739746094e+00,2.589760303497314453e+00,2.589418411254882812e+00,2.589076519012451172e+00,2.588734626770019531e+00,2.588392972946166992e+00,2.588051795959472656e+00,2.587710142135620117e+00,2.587368726730346680e+00,2.587027549743652344e+00,2.586686134338378906e+00,2.586345195770263672e+00,2.586004257202148438e+00,2.585663318634033203e+00,2.585322380065917969e+00,2.584981918334960938e+00,2.584641218185424805e+00,2.584300518035888672e+00,2.561560392379760742e+00,2.507545232772827148e+00,2.455760955810546875e+00,2.406072378158569336e+00,2.358354568481445312e+00,2.312492609024047852e+00,2.268380403518676758e+00,2.225919723510742188e+00,2.185019254684448242e+00,2.145594835281372070e+00,2.107567787170410156e+00,2.070865154266357422e+00,2.035419225692749023e+00,2.001166343688964844e+00,1.968047142028808594e+00,1.936006069183349609e+00,1.904991984367370605e+00,1.874955415725708008e+00,1.845851659774780273e+00
2.254950284957885742e+00,2.254688739776611328e+00,2.254427671432495117e+00,2.254166364669799805e+00,2.253905296325683594e+00,2.253644227981567383e+00,2.253383398056030273e+00,2.253122329711914062e+00,2.252861499786376953e+00,2.252600669860839844e+00,2.252339839935302734e+00,2.252079248428344727e+00,2.251818418502807617e+00,2.251558065414428711e+00,2.251297473907470703e+00,2.251037120819091797e+00,2.250776529312133789e+00,2.250516414642333984e+00,2.250256061553955078e+00,2.249995708465576172e+00,2.249735593795776367e+00,2.249475479125976562e+00,2.249215364456176758e+00,2.248956680297851562e+00,2.248698949813842773e+00,2.248441219329833984e+00,2.248183488845825195e+00,2.247925758361816406e+00,2.247668266296386719e+00,2.247410774230957031e+00,2.247153282165527344e+00,2.246895790100097656e+00,2.246638298034667969e+00,2.246381044387817383e+00,2.246123790740966797e+00,2.245866537094116211e+00,2.245609521865844727e+00,2.245352268218994141e+00,2.245095491409301758e+00,2.244838476181030273e+00,2.244581460952758789e+00,2.244324684143066406e+00,2.244067907333374023e+00,2.243811130523681641e+00,2.243554592132568359e+00,2.243297815322875977e+00,2.243041276931762695e+00,2.242784976959228516e+00,2.242528438568115234e+00,2.242272138595581055e+00,2.242015600204467773e+00,2.241759300231933594e+00,2.241503238677978516e+00,2.241247177124023438e+00,2.240991115570068359e+00,2.240735054016113281e+00,2.240478992462158203e+00,2.240223169326782227e+00,2.239967346191406250e+00,2.239711523056030273e+00,2.239455699920654297e+00,2.239200115203857422e+00,2.238944530487060547e+00,2.238688945770263672e+00,2.238433361053466797e+00,2.238178014755249023e+00,2.237922668457031250e+00,2.237667322158813477e+00,2.225949048995971680e+00,2.185047626495361328e+00,2.145622253417968750e+00,2.107594251632690430e+00,2.070890665054321289e+00,2.035443782806396484e+00,2.001190185546875000e+00,1.968070030212402344e+00,1.936028480529785156e+00,1.905013322830200195e+00,1.874976396560668945e+00,1.845871806144714355e+00
1.987986445426940918e+00,1.987783432006835938e+00,1.987580418586730957e+00,1.987377166748046875e+00,1.987174272537231445e+00,1.986971378326416016e+00,1.986768603324890137e+00,1.986565589904785156e+00,1.986362814903259277e+00,1.986160159111022949e+00,1.985957503318786621e+00,1.985754609107971191e+00,1.985552072525024414e+00,1.985349535942077637e+00,1.985146999359130859e+00,1.984944343566894531e+00,1.984741926193237305e+00,1.984539628028869629e+00,1.984337210655212402e+00,1.984134674072265625e+00,1.983932495117187500e+00,1.983730316162109375e+00,1.983527898788452148e+00,1.983325719833374023e+00,1.983123660087585449e+00,1.982921600341796875e+00,1.982719421386718750e+00,1.982517480850219727e+00,1.982315540313720703e+00,1.982113599777221680e+00,1.981911540031433105e+00,1.981709718704223633e+00,1.981508016586303711e+00,1.981306314468383789e+00,1.981104373931884766e+00,1.980902791023254395e+00,1.980701208114624023e+00,1.980499625205993652e+00,1.980297923088073730e+00,1.980096459388732910e+00,1.979894995689392090e+00,1.979693651199340820e+00,1.979492068290710449e+00,1.979290723800659180e+00,1.979089498519897461e+00,1.978888273239135742e+00,1.978686809539794922e+00,1.978485703468322754e+00,1.978284597396850586e+00,1.978083491325378418e+00,1.977882266044616699e+00,1.977681279182434082e+00,1.977480292320251465e+00,1.977279424667358398e+00,1.977078318595886230e+00,1.976877570152282715e+00,1.976676702499389648e+00,1.976475834846496582e+00,1.976275086402893066e+00,1.976074457168579102e+00,1.975873827934265137e+00,1.975673079490661621e+00,1.975472450256347656e+00,1.975272059440612793e+00,1.975071549415588379e+00,1.974870920181274414e+00,1.974670529365539551e+00,1.974470257759094238e+00,1.974269986152648926e+00,1.974069476127624512e+00,1.973869204521179199e+00,1.973669052124023438e+00,1.973469018936157227e+00,1.973268628120422363e+00,1.973068594932556152e+00,1.968093156814575195e+00,1.936050534248352051e+00,1.905035018920898438e+00,1.874997138977050781e+00,1.845892071723937988e+00
1.777543067932128906e+00,1.777380585670471191e+00,1.777218222618103027e+00,1.777055978775024414e+00,1.776893734931945801e+00,1.776731371879577637e+00,1.776569247245788574e+00,1.776407122611999512e+00,1.776244997978210449e+00,1.776082634925842285e+00,1.775920629501342773e+00,1.775758624076843262e+00,1.775596618652343750e+00,1.775434494018554688e+00,1.775272488594055176e+00,1.775110602378845215e+00,1.774948716163635254e+00,1.774786710739135742e+00,1.774624824523925781e+00,1.774463057518005371e+00,1.774301290512084961e+00,1.774139404296875000e+00,1.773977637290954590e+00,1.773815989494323730e+00,1.773654341697692871e+00,1.773492574691772461e+00,1.773330926895141602e+00,1.773169398307800293e+00,1.773007869720458984e+00,1.772846102714538574e+00,1.772684693336486816e+00,1.772523283958435059e+00,1.772361636161804199e+00,1.772200226783752441e+00,1.772038936614990234e+00,1.771877527236938477e+00,1.771716117858886719e+00,1.771554827690124512e+00,1.771393656730651855e+00,1.771232366561889648e+00,1.771071076393127441e+00,1.770909905433654785e+00,1.770748734474182129e+00,1.770587682723999023e+00,1.770426392555236816e+00,1.770265340805053711e+00,1.770104408264160156e+00,1.769943475723266602e+00,1.769782304763793945e+00,1.769621372222900391e+00,1.769460439682006836e+00,1.769299626350402832e+00,1.769138574600219727e+00,1.768977880477905273e+00,1.768817067146301270e+00,1.768656373023986816e+00,1.768495440483093262e+00,1.768334746360778809e+00,1.768174052238464355e+00,1.768013477325439453e+00,1.767852663993835449e+00,1.767692089080810547e+00,1.767531633377075195e+00,1.767371058464050293e+00,1.767210483551025391e+00,1.767050027847290039e+00,1.766889572143554688e+00,1.766728997230529785e+00,1.766568660736083984e+00,1.766408324241638184e+00,1.766247987747192383e+00,1.766087532043457031e+00,1.765927314758300781e+00,1.765767097473144531e+00,1.765606999397277832e+00,1.765446662902832031e+00,1.765286564826965332e+00,1.765126466751098633e+00,1.764966368675231934e+00,1.764806151390075684e+00
1.607388734817504883e+00,1.607255935668945312e+00,1.607123255729675293e+00,1.606990575790405273e+00,1.606857776641845703e+00,1.606725096702575684e+00,1.606592416763305664e+00,1.606459736824035645e+00,1.606327176094055176e+00,1.606194615364074707e+00,1.606062054634094238e+00,1.605929374694824219e+00,1.605796813964843750e+00,1.605664372444152832e+00,1.605531930923461914e+00,1.605399370193481445e+00,1.605266928672790527e+00,1.605134606361389160e+00,1.605002164840698242e+00,1.604869723320007324e+00,1.604737401008605957e+00,1.604605078697204590e+00,1.604472756385803223e+00,1.604340434074401855e+00,1.604208111763000488e+00,1.604075908660888672e+00,1.603943705558776855e+00,1.603811383247375488e+00,1.603679299354553223e+00,1.603547096252441406e+00,1.603415012359619141e+00,1.603282809257507324e+00,1.603150725364685059e+00,1.603018760681152344e+00,1.602886676788330078e+00,1.602754592895507812e+00,1.602622509002685547e+00,1.602490663528442383e+00,1.602358579635620117e+00,1.602226614952087402e+00,1.602094769477844238e+00,1.601962924003601074e+00,1.601830840110778809e+00,1.601699113845825195e+00,1.601567268371582031e+00,1.601435542106628418e+00,1.601303577423095703e+00,1.601171851158142090e+00,1.601040124893188477e+00,1.600908398628234863e+00,1.600776672363281250e+00,1.600644946098327637e+00,1.600513339042663574e+00,1.600381731986999512e+00,1.600250005722045898e+00,1.600118517875671387e+00,1.599986910820007324e+00,1.599855303764343262e+00,1.599723696708679199e+00,1.599592208862304688e+00,1.599460840225219727e+00,1.599329352378845215e+00,1.599197864532470703e+00,1.599066376686096191e+00,1.598935008049011230e+00,1.598803758621215820e+00,1.598672270774841309e+00,1.598540902137756348e+00,1.598409652709960938e+00,1.598278403282165527e+00,1.598147034645080566e+00,1.598015785217285156e+00,1.597884654998779297e+00,1.597753286361694336e+00,1.597622156143188477e+00,1.597491025924682617e+00,1.597359895706176758e+00,1.597228646278381348e+00,1.597097635269165039e+00,1.596966505050659180e+00
1.466964483261108398e+00,1.466853857040405273e+00,1.466743230819702148e+00,1.466632723808288574e+00,1.466522216796875000e+00,1.466411709785461426e+00,1.466301083564758301e+00,1.466190576553344727e+00,1.466080188751220703e+00,1.465969800949096680e+00,1.465859174728393555e+00,1.465748786926269531e+00,1.465638399124145508e+00,1.465528011322021484e+00,1.465417623519897461e+00,1.465307235717773438e+00,1.465196967124938965e+00,1.465086579322814941e+00,1.464976310729980469e+00,1.464866042137145996e+00,1.464755773544311523e+00,1.464645385742187500e+00,1.464535236358642578e+00,1.464424967765808105e+00,1.464314818382263184e+00,1.464204549789428711e+00,1.464094400405883789e+00,1.463984251022338867e+00,1.463874220848083496e+00,1.463763952255249023e+00,1.463653922080993652e+00,1.463543772697448730e+00,1.463433742523193359e+00,1.463323593139648438e+00,1.463213562965393066e+00,1.463103652000427246e+00,1.462993621826171875e+00,1.462883591651916504e+00,1.462773561477661133e+00,1.462663650512695312e+00,1.462553739547729492e+00,1.462443709373474121e+00,1.462333917617797852e+00,1.462224006652832031e+00,1.462114214897155762e+00,1.462004184722900391e+00,1.461894392967224121e+00,1.461784601211547852e+00,1.461674690246582031e+00,1.461564898490905762e+00,1.461455225944519043e+00,1.461345434188842773e+00,1.461235642433166504e+00,1.461125969886779785e+00,1.461016297340393066e+00,1.460906624794006348e+00,1.460796833038330078e+00,1.460687160491943359e+00,1.460577607154846191e+00,1.460467934608459473e+00,1.460358262062072754e+00,1.460248708724975586e+00,1.460139155387878418e+00,1.460029602050781250e+00,1.459919929504394531e+00,1.459810495376586914e+00,1.459700942039489746e+00,1.459591507911682129e+00,1.459481954574584961e+00,1.459372520446777344e+00,1.459263086318969727e+00,1.459153652191162109e+00,1.459044218063354492e+00,1.458934783935546875e+00,1.458825469017028809e+00,1.458716154098510742e+00,1.458606719970703125e+00,1.458497405052185059e+00,1.458388090133666992e+00,1.458278775215148926e+00
1.349104166030883789e+00,1.349010705947875977e+00,1.348917245864868164e+00,1.348823785781860352e+00,1.348730206489562988e+00,1.348636746406555176e+00,1.348543286323547363e+00,1.348449826240539551e+00,1.348356246948242188e+00,1.348262906074523926e+00,1.348169565200805664e+00,1.348076105117797852e+00,1.347982645034790039e+00,1.347889304161071777e+00,1.347795963287353516e+00,1.347702622413635254e+00,1.347609162330627441e+00,1.347515940666198730e+00,1.347422599792480469e+00,1.347329378128051758e+00,1.347236037254333496e+00,1.347142815589904785e+00,1.347049593925476074e+00,1.346956253051757812e+00,1.346863031387329102e+00,1.346769809722900391e+00,1.346676588058471680e+00,1.346583366394042969e+00,1.346490144729614258e+00,1.346397042274475098e+00,1.346303939819335938e+00,1.346210718154907227e+00,1.346117615699768066e+00,1.346024513244628906e+00,1.345931410789489746e+00,1.345838189125061035e+00,1.345745205879211426e+00,1.345652103424072266e+00,1.345559120178222656e+00,1.345466017723083496e+00,1.345372915267944336e+00,1.345279932022094727e+00,1.345186948776245117e+00,1.345093965530395508e+00,1.345000982284545898e+00,1.344907999038696289e+00,1.344815135002136230e+00,1.344722032546997070e+00,1.344629168510437012e+00,1.344536304473876953e+00,1.344443440437316895e+00,1.344350457191467285e+00,1.344257593154907227e+00,1.344164729118347168e+00,1.344071865081787109e+00,1.343979001045227051e+00,1.343886256217956543e+00,1.343793392181396484e+00,1.343700528144836426e+00,1.343607783317565918e+00,1.343515038490295410e+00,1.343422293663024902e+00,1.343329429626464844e+00,1.343236684799194336e+00,1.343144059181213379e+00,1.343051314353942871e+00,1.342958569526672363e+00,1.342865943908691406e+00,1.342773318290710449e+00,1.342680692672729492e+00,1.342587947845458984e+00,1.342495322227478027e+00,1.342402696609497070e+00,1.342310070991516113e+00,1.342217445373535156e+00,1.342124938964843750e+00,1.342032313346862793e+00,1.341939806938171387e+00,1.341847181320190430e+00,1.341754674911499023e+00
1.248774170875549316e+00,1.248694062232971191e+00,1.248613834381103516e+00,1.248533725738525391e+00,1.248453617095947266e+00,1.248373627662658691e+00,1.248293399810791016e+00,1.248213410377502441e+00,1.248133301734924316e+00,1.248053312301635742e+00,1.247973203659057617e+00,1.247893214225769043e+00,1.247813105583190918e+00,1.247733116149902344e+00,1.247653126716613770e+00,1.247573137283325195e+00,1.247493147850036621e+00,1.247413158416748047e+00,1.247333168983459473e+00,1.247253179550170898e+00,1.247173309326171875e+00,1.247093439102172852e+00,1.247013449668884277e+00,1.246933460235595703e+00,1.246853590011596680e+00,1.246773719787597656e+00,1.246693849563598633e+00,1.246613979339599609e+00,1.246534109115600586e+00,1.246454238891601562e+00,1.246374368667602539e+00,1.246294498443603516e+00,1.246214747428894043e+00,1.246134877204895020e+00,1.246055126190185547e+00,1.245975375175476074e+00,1.245895504951477051e+00,1.245815753936767578e+00,1.245736002922058105e+00,1.245656251907348633e+00,1.245576500892639160e+00,1.245496749877929688e+00,1.245416998863220215e+00,1.245337367057800293e+00,1.245257616043090820e+00,1.245177865028381348e+00,1.245098233222961426e+00,1.245018601417541504e+00,1.244938969612121582e+00,1.244859218597412109e+00,1.244779586791992188e+00,1.244700074195861816e+00,1.244620442390441895e+00,1.244540810585021973e+00,1.244461178779602051e+00,1.244381666183471680e+00,1.244302034378051758e+00,1.244222402572631836e+00,1.244142889976501465e+00,1.244063377380371094e+00,1.243983864784240723e+00,1.243904232978820801e+00,1.243824720382690430e+00,1.243745326995849609e+00,1.243665695190429688e+00,1.243586301803588867e+00,1.243506789207458496e+00,1.243427395820617676e+00,1.243347883224487305e+00,1.243268370628356934e+00,1.243188977241516113e+00,1.243109583854675293e+00,1.243030071258544922e+00,1.242950797080993652e+00,1.242871403694152832e+00,1.242792010307312012e+00,1.242712616920471191e+00,1.242633223533630371e+00,1.242553949356079102e+00,1.242474555969238281e+00
1.162333846092224121e+00,1.162264347076416016e+00,1.162194967269897461e+00,1.162125587463378906e+00,1.162056088447570801e+00,1.161986708641052246e+00,1.161917328834533691e+00,1.161847949028015137e+00,1.161778569221496582e+00,1.161709189414978027e+00,1.161639928817749023e+00,1.161570549011230469e+00,1.161501169204711914e+00,1.161431789398193359e+00,1.161362528800964355e+00,1.161293268203735352e+00,1.161223888397216797e+00,1.161154627799987793e+00,1.161085367202758789e+00,1.161016106605529785e+00,1.160946726799011230e+00,1.160877466201782227e+00,1.160808205604553223e+00,1.160739064216613770e+00,1.160669684410095215e+00,1.160600543022155762e+00,1.160531282424926758e+00,1.160462141036987305e+00,1.160392880439758301e+00,1.160323619842529297e+00,1.160254478454589844e+00,1.160185337066650391e+00,1.160116076469421387e+00,1.160046935081481934e+00,1.159977793693542480e+00,1.159908652305603027e+00,1.159839510917663574e+00,1.159770369529724121e+00,1.159701228141784668e+00,1.159632086753845215e+00,1.159562945365905762e+00,1.159493923187255859e+00,1.159424781799316406e+00,1.159355640411376953e+00,1.159286618232727051e+00,1.159217596054077148e+00,1.159148573875427246e+00,1.159079432487487793e+00,1.159010410308837891e+00,1.158941388130187988e+00,1.158872365951538086e+00,1.158803343772888184e+00,1.158734321594238281e+00,1.158665299415588379e+00,1.158596396446228027e+00,1.158527255058288574e+00,1.158458352088928223e+00,1.158389449119567871e+00,1.158320546150207520e+00,1.158251523971557617e+00,1.158182621002197266e+00,1.158113598823547363e+00,1.158044695854187012e+00,1.157975792884826660e+00,1.157906889915466309e+00,1.157837986946105957e+00,1.157769083976745605e+00,1.157700181007385254e+00,1.157631278038024902e+00,1.157562494277954102e+00,1.157493591308593750e+00,1.157424688339233398e+00,1.157355904579162598e+00,1.157287120819091797e+00,1.157218217849731445e+00,1.157149434089660645e+00,1.157080531120300293e+00,1.157011747360229492e+00,1.156942963600158691e+00,1.156874179840087891e+00
1.087085485458374023e+00,1.087024807929992676e+00,1.086964130401611328e+00,1.086903333663940430e+00,1.086842656135559082e+00,1.086781978607177734e+00,1.086721301078796387e+00,1.086660504341125488e+00,1.086599826812744141e+00,1.086539268493652344e+00,1.086478590965270996e+00,1.086417794227600098e+00,1.086357235908508301e+00,1.086296558380126953e+00,1.086235880851745605e+00,1.086175203323364258e+00,1.086114645004272461e+00,1.086054086685180664e+00,1.085993409156799316e+00,1.085932731628417969e+00,1.085872173309326172e+00,1.085811614990234375e+00,1.085750937461853027e+00,1.085690379142761230e+00,1.085629820823669434e+00,1.085569262504577637e+00,1.085508704185485840e+00,1.085448145866394043e+00,1.085387587547302246e+00,1.085327148437500000e+00,1.085266470909118652e+00,1.085206031799316406e+00,1.085145473480224609e+00,1.085085034370422363e+00,1.085024476051330566e+00,1.084963917732238770e+00,1.084903478622436523e+00,1.084843039512634277e+00,1.084782481193542480e+00,1.084722042083740234e+00,1.084661602973937988e+00,1.084601163864135742e+00,1.084540605545043945e+00,1.084480166435241699e+00,1.084419727325439453e+00,1.084359288215637207e+00,1.084298849105834961e+00,1.084238409996032715e+00,1.084178090095520020e+00,1.084117650985717773e+00,1.084057211875915527e+00,1.083996891975402832e+00,1.083936452865600586e+00,1.083876013755798340e+00,1.083815693855285645e+00,1.083755373954772949e+00,1.083694934844970703e+00,1.083634614944458008e+00,1.083574295043945312e+00,1.083513975143432617e+00,1.083453655242919922e+00,1.083393216133117676e+00,1.083332896232604980e+00,1.083272695541381836e+00,1.083212375640869141e+00,1.083152055740356445e+00,1.083091735839843750e+00,1.083031415939331055e+00,1.082971215248107910e+00,1.082910895347595215e+00,1.082850575447082520e+00,1.082790374755859375e+00,1.082730174064636230e+00,1.082669854164123535e+00,1.082609653472900391e+00,1.082549452781677246e+00,1.082489132881164551e+00,1.082428932189941406e+00,1.082368731498718262e+00,1.082308530807495117e+00
1.020987868309020996e+00,1.020934224128723145e+00,1.020880699157714844e+00,1.020827174186706543e+00,1.020773649215698242e+00,1.020720005035400391e+00,1.020666480064392090e+00,1.020612955093383789e+00,1.020559430122375488e+00,1.020505905151367188e+00,1.020452380180358887e+00,1.020398855209350586e+00,1.020345449447631836e+00,1.020291805267333984e+00,1.020238399505615234e+00,1.020184874534606934e+00,1.020131468772888184e+00,1.020077943801879883e+00,1.020024418830871582e+00,1.019971013069152832e+00,1.019917488098144531e+00,1.019864082336425781e+00,1.019810557365417480e+00,1.019757151603698730e+00,1.019703626632690430e+00,1.019650220870971680e+00,1.019596815109252930e+00,1.019543409347534180e+00,1.019490003585815430e+00,1.019436597824096680e+00,1.019383192062377930e+00,1.019329786300659180e+00,1.019276380538940430e+00,1.019222974777221680e+00,1.019169569015502930e+00,1.019116282463073730e+00,1.019062757492065430e+00,1.019009470939636230e+00,1.018956065177917480e+00,1.018902778625488281e+00,1.018849372863769531e+00,1.018796086311340332e+00,1.018742680549621582e+00,1.018689393997192383e+00,1.018635988235473633e+00,1.018582701683044434e+00,1.018529415130615234e+00,1.018476128578186035e+00,1.018422722816467285e+00,1.018369436264038086e+00,1.018316149711608887e+00,1.018262863159179688e+00,1.018209576606750488e+00,1.018156290054321289e+00,1.018103003501892090e+00,1.018049836158752441e+00,1.017996430397033691e+00,1.017943263053894043e+00,1.017889976501464844e+00,1.017836689949035645e+00,1.017783522605895996e+00,1.017730236053466797e+00,1.017677068710327148e+00,1.017623782157897949e+00,1.017570614814758301e+00,1.017517328262329102e+00,1.017464160919189453e+00,1.017410993576049805e+00,1.017357707023620605e+00,1.017304539680480957e+00,1.017251372337341309e+00,1.017198204994201660e+00,1.017145037651062012e+00,1.017091870307922363e+00,1.017038702964782715e+00,1.016985535621643066e+00,1.016932368278503418e+00,1.016879320144653320e+00,1.016826152801513672e+00,1.016772985458374023e+00
9.624673128128051758e-01,9.624197483062744141e-01,9.623721241950988770e-01,9.623245596885681152e-01,9.622769355773925781e-01,9.622293710708618164e-01,9.621818065643310547e-01,9.621341228485107422e-01,9.620865583419799805e-01,9.620390534400939941e-01,9.619914889335632324e-01,9.619439244270324707e-01,9.618964195251464844e-01,9.618488550186157227e-01,9.618013501167297363e-01,9.617537260055541992e-01,9.617061614990234375e-01,9.616586565971374512e-01,9.616111516952514648e-01,9.615636467933654785e-01,9.615161418914794922e-01,9.614686369895935059e-01,9.614211320877075195e-01,9.613735675811767578e-01,9.613260626792907715e-01,9.612785577774047852e-01,9.612311124801635742e-01,9.611836671829223633e-01,9.611361622810363770e-01,9.610887169837951660e-01,9.610411524772644043e-01,9.609937071800231934e-01,9.609462618827819824e-01,9.608988165855407715e-01,9.608513712882995605e-01,9.608039259910583496e-01,9.607565402984619141e-01,9.607090950012207031e-01,9.606615900993347168e-01,9.606141448020935059e-01,9.605667591094970703e-01,9.605193138122558594e-01,9.604719281196594238e-01,9.604245424270629883e-01,9.603771567344665527e-01,9.603297710418701172e-01,9.602822661399841309e-01,9.602348804473876953e-01,9.601874947547912598e-01,9.601401686668395996e-01,9.600927829742431641e-01,9.600454568862915039e-01,9.599980711936950684e-01,9.599507451057434082e-01,9.599032998085021973e-01,9.598559141159057617e-01,9.598085880279541016e-01,9.597612619400024414e-01,9.597139358520507812e-01,9.596666097640991211e-01,9.596192836761474609e-01,9.595720171928405762e-01,9.595245718955993652e-01,9.594773054122924805e-01,9.594299793243408203e-01,9.593827128410339355e-01,9.593353867530822754e-01,9.592881202697753906e-01,9.592408537864685059e-01,9.591934680938720703e-01,9.591462016105651855e-01,9.590989351272583008e-01,9.590516686439514160e-01,9.590044021606445312e-01,9.589571356773376465e-01,9.589099287986755371e-01,9.588626623153686523e-01,9.588153362274169922e-01,9.587680697441101074e-01,9.587208628654479980e-01
9.102916717529296875e-01,9.102491140365600586e-01,9.102064371109008789e-01,9.101638793945312500e-01,9.101213216781616211e-01,9.100787639617919922e-01,9.100362062454223633e-01,9.099936485290527344e-01,9.099510908126831055e-01,9.099084734916687012e-01,9.098659157752990723e-01,9.098233580589294434e-01,9.097808599472045898e-01,9.097383022308349609e-01,9.096958041191101074e-01,9.096533060073852539e-01,9.096108078956604004e-01,9.095681905746459961e-01,9.095256924629211426e-01,9.094831943511962891e-01,9.094406962394714355e-01,9.093981981277465820e-01,9.093557000160217285e-01,9.093132019042968750e-01,9.092707037925720215e-01,9.092281460762023926e-01,9.091856479644775391e-01,9.091432094573974609e-01,9.091007113456726074e-01,9.090582728385925293e-01,9.090158343315124512e-01,9.089733958244323730e-01,9.089308977127075195e-01,9.088883996009826660e-01,9.088459610939025879e-01,9.088035225868225098e-01,9.087610840797424316e-01,9.087186455726623535e-01,9.086762070655822754e-01,9.086337685585021973e-01,9.085912704467773438e-01,9.085488915443420410e-01,9.085064530372619629e-01,9.084640741348266602e-01,9.084216356277465820e-01,9.083792567253112793e-01,9.083368778228759766e-01,9.082944989204406738e-01,9.082520008087158203e-01,9.082096219062805176e-01,9.081672430038452148e-01,9.081248641014099121e-01,9.080824851989746094e-01,9.080401062965393066e-01,9.079977869987487793e-01,9.079554080963134766e-01,9.079129695892333984e-01,9.078705906867980957e-01,9.078282713890075684e-01,9.077858924865722656e-01,9.077435731887817383e-01,9.077012538909912109e-01,9.076588749885559082e-01,9.076165556907653809e-01,9.075741767883300781e-01,9.075318574905395508e-01,9.074895381927490234e-01,9.074472188949584961e-01,9.074048995971679688e-01,9.073625802993774414e-01,9.073203206062316895e-01,9.072780013084411621e-01,9.072356224060058594e-01,9.071933627128601074e-01,9.071510434150695801e-01,9.071087837219238281e-01,9.070665240287780762e-01,9.070242047309875488e-01,9.069819450378417969e-01,9.069396257400512695e-01
8.634819388389587402e-01,8.634436130523681641e-01,8.634053468704223633e-01,8.633670210838317871e-01,8.633286356925964355e-01,8.632903695106506348e-01,8.632520437240600586e-01,8.632137775421142578e-01,8.631755113601684570e-01,8.631372451782226562e-01,8.630989193916320801e-01,8.630606532096862793e-01,8.630223274230957031e-01,8.629840612411499023e-01,8.629457950592041016e-01,8.629075288772583008e-01,8.628692626953125000e-01,8.628309965133666992e-01,8.627927899360656738e-01,8.627544641494750977e-01,8.627161979675292969e-01,8.626779317855834961e-01,8.626397252082824707e-01,8.626014590263366699e-01,8.625632524490356445e-01,8.625250458717346191e-01,8.624868392944335938e-01,8.624485135078430176e-01,8.624103069305419922e-01,8.623721003532409668e-01,8.623338937759399414e-01,8.622956871986389160e-01,8.622574806213378906e-01,8.622192740440368652e-01,8.621810674667358398e-01,8.621428012847900391e-01,8.621045947074890137e-01,8.620663881301879883e-01,8.620282411575317383e-01,8.619900345802307129e-01,8.619518876075744629e-01,8.619137406349182129e-01,8.618755340576171875e-01,8.618372678756713867e-01,8.617991209030151367e-01,8.617609739303588867e-01,8.617228269577026367e-01,8.616846799850463867e-01,8.616465330123901367e-01,8.616083860397338867e-01,8.615701198577880859e-01,8.615320324897766113e-01,8.614938855171203613e-01,8.614557385444641113e-01,8.614175915718078613e-01,8.613795042037963867e-01,8.613413572311401367e-01,8.613032698631286621e-01,8.612650632858276367e-01,8.612269163131713867e-01,8.611888289451599121e-01,8.611507415771484375e-01,8.611126542091369629e-01,8.610745072364807129e-01,8.610364198684692383e-01,8.609983325004577637e-01,8.609601855278015137e-01,8.609220981597900391e-01,8.608840107917785645e-01,8.608459234237670898e-01,8.608078956604003906e-01,8.607698082923889160e-01,8.607317209243774414e-01,8.606936931610107422e-01,8.606555461883544922e-01,8.606174588203430176e-01,8.605794310569763184e-01,8.605413436889648438e-01,8.605033159255981445e-01,8.604652881622314453e-01
8.212509751319885254e-01,8.212162852287292480e-01,8.211816549301147461e-01,8.211470246315002441e-01,8.211123943328857422e-01,8.210777044296264648e-01,8.210430145263671875e-01,8.210083842277526855e-01,8.209737539291381836e-01,8.209391236305236816e-01,8.209044933319091797e-01,8.208698630332946777e-01,8.208352327346801758e-01,8.208006620407104492e-01,8.207659721374511719e-01,8.207313418388366699e-01,8.206967115402221680e-01,8.206621408462524414e-01,8.206275105476379395e-01,8.205929398536682129e-01,8.205583095550537109e-01,8.205237388610839844e-01,8.204891085624694824e-01,8.204544782638549805e-01,8.204199075698852539e-01,8.203853368759155273e-01,8.203507661819458008e-01,8.203161954879760742e-01,8.202816247940063477e-01,8.202469348907470703e-01,8.202123641967773438e-01,8.201777935028076172e-01,8.201432824134826660e-01,8.201087117195129395e-01,8.200741410255432129e-01,8.200395703315734863e-01,8.200050592422485352e-01,8.199704289436340332e-01,8.199358582496643066e-01,8.199013471603393555e-01,8.198667764663696289e-01,8.198322653770446777e-01,8.197977542877197266e-01,8.197631835937500000e-01,8.197286725044250488e-01,8.196941018104553223e-01,8.196595311164855957e-01,8.196250200271606445e-01,8.195905089378356934e-01,8.195559978485107422e-01,8.195214867591857910e-01,8.194869756698608398e-01,8.194524645805358887e-01,8.194178938865661621e-01,8.193834424018859863e-01,8.193489313125610352e-01,8.193144202232360840e-01,8.192799687385559082e-01,8.192454576492309570e-01,8.192109465599060059e-01,8.191764354705810547e-01,8.191419243812561035e-01,8.191074728965759277e-01,8.190730214118957520e-01,8.190385103225708008e-01,8.190040588378906250e-01,8.189696073532104492e-01,8.189351558685302734e-01,8.189005851745605469e-01,8.188661336898803711e-01,8.188316822052001953e-01,8.187972307205200195e-01,8.187627792358398438e-01,8.187283873558044434e-01,8.186939358711242676e-01,8.186594843864440918e-01,8.186249732971191406e-01,8.185905218124389648e-01,8.185561299324035645e-01,8.185216784477233887e-01
7.829582095146179199e-01,7.829267382621765137e-01,7.828952074050903320e-01,7.828637361526489258e-01,7.828322649002075195e-01,7.828007936477661133e-01,7.827692627906799316e-01,7.827377915382385254e-01,7.827062606811523438e-01,7.826747894287109375e-01,7.826433181762695312e-01,7.826118469238281250e-01,7.825803756713867188e-01,7.825489044189453125e-01,7.825174331665039062e-01,7.824859619140625000e-01,7.824544310569763184e-01,7.824230194091796875e-01,7.823915481567382812e-01,7.823600769042968750e-01,7.823286652565002441e-01,7.822971940040588379e-01,7.822657823562622070e-01,7.822343111038208008e-01,7.822027802467346191e-01,7.821713685989379883e-01,7.821399569511413574e-01,7.821084856986999512e-01,7.820770740509033203e-01,7.820456624031066895e-01,7.820142507553100586e-01,7.819827198982238770e-01,7.819513082504272461e-01,7.819198966026306152e-01,7.818884849548339844e-01,7.818570733070373535e-01,7.818256616592407227e-01,7.817942500114440918e-01,7.817628979682922363e-01,7.817313671112060547e-01,7.817000150680541992e-01,7.816686034202575684e-01,7.816371917724609375e-01,7.816058397293090820e-01,7.815744280815124512e-01,7.815430760383605957e-01,7.815116643905639648e-01,7.814801931381225586e-01,7.814488410949707031e-01,7.814174890518188477e-01,7.813860774040222168e-01,7.813547253608703613e-01,7.813233733177185059e-01,7.812920212745666504e-01,7.812606096267700195e-01,7.812291979789733887e-01,7.811978459358215332e-01,7.811664938926696777e-01,7.811351418495178223e-01,7.811037898063659668e-01,7.810724377632141113e-01,7.810410857200622559e-01,7.810097336769104004e-01,7.809783220291137695e-01,7.809470295906066895e-01,7.809156775474548340e-01,7.808843255043029785e-01,7.808530330657958984e-01,7.808216810226440430e-01,7.807903885841369629e-01,7.807589769363403320e-01,7.807276248931884766e-01,7.806963324546813965e-01,7.806650400161743164e-01,7.806336879730224609e-01,7.806023955345153809e-01,7.805711030960083008e-01,7.805398106575012207e-01,7.805083990097045898e-01,7.804771065711975098e-01
7.480774521827697754e-01,7.480486631393432617e-01,7.480199337005615234e-01,7.479910850524902344e-01,7.479623556137084961e-01,7.479336261749267578e-01,7.479048967361450195e-01,7.478761672973632812e-01,7.478474378585815430e-01,7.478186488151550293e-01,7.477898597717285156e-01,7.477611303329467773e-01,7.477324008941650391e-01,7.477036714553833008e-01,7.476749420166015625e-01,7.476462721824645996e-01,7.476175427436828613e-01,7.475888133049011230e-01,7.475600242614746094e-01,7.475312948226928711e-01,7.475026249885559082e-01,7.474738955497741699e-01,7.474452257156372070e-01,7.474164962768554688e-01,7.473877668380737305e-01,7.473590970039367676e-01,7.473303079605102539e-01,7.473016381263732910e-01,7.472729682922363281e-01,7.472442388534545898e-01,7.472155690193176270e-01,7.471868991851806641e-01,7.471581697463989258e-01,7.471294999122619629e-01,7.471007704734802246e-01,7.470721006393432617e-01,7.470434308052062988e-01,7.470147609710693359e-01,7.469860911369323730e-01,7.469574213027954102e-01,7.469287514686584473e-01,7.469000220298767090e-01,7.468713521957397461e-01,7.468426823616027832e-01,7.468140125274658203e-01,7.467854022979736328e-01,7.467567324638366699e-01,7.467280626296997070e-01,7.466994524002075195e-01,7.466707229614257812e-01,7.466420531272888184e-01,7.466134428977966309e-01,7.465847730636596680e-01,7.465561628341674805e-01,7.465274930000305176e-01,7.464988827705383301e-01,7.464702725410461426e-01,7.464415431022644043e-01,7.464129328727722168e-01,7.463843226432800293e-01,7.463557124137878418e-01,7.463270425796508789e-01,7.462984323501586914e-01,7.462698221206665039e-01,7.462412118911743164e-01,7.462125420570373535e-01,7.461839318275451660e-01,7.461553215980529785e-01,7.461267113685607910e-01,7.460981011390686035e-01,7.460694909095764160e-01,7.460409402847290039e-01,7.460122704505920410e-01,7.459836602210998535e-01,7.459550499916076660e-01,7.459264993667602539e-01,7.458978891372680664e-01,7.458693385124206543e-01,7.458407282829284668e-01,7.458121180534362793e-01
