5.000000000000000000e+00,5.000000000000000000e+00,5.000000000000000000e+00,5.000000000000000000e+00,5.000000000000000000e+00,5.000000000000000000e+00,5.000000000000000000e+00,5.000000000000000000e+00,5.000000000000000000e+00,5.000000000000000000e+00,5.000000000000000000e+00,5.000000000000000000e+00,5.000000000000000000e+00,5.000000000000000000e+00,5.000000000000000000e+00,5.000000000000000000e+00,5.000000000000000000e+00,5.000000000000000000e+00,5.000000000000000000e+00,5.000000000000000000e+00,5.000000000000000000e+00,5.000000000000000000e+00,5.000000000000000000e+00,5.000000000000000000e+00,5.000000000000000000e+00,5.000000000000000000e+00,5.000000000000000000e+00,5.000000000000000000e+00,5.000000000000000000e+00,5.000000000000000000e+00,5.000000000000000000e+00,5.000000000000000000e+00,5.000000000000000000e+00,5.000000000000000000e+00,5.000000000000000000e+00,5.000000000000000000e+00,5.000000000000000000e+00,5.000000000000000000e+00,5.000000000000000000e+00,5.000000000000000000e+00,5.000000000000000000e+00,5.000000000000000000e+00,4.318435668945312500e+00,4.167204856872558594e+00,4.026207447052001953e+00,3.894439458847045898e+00,3.771022558212280273e+00,3.655188083648681641e+00,3.546257734298706055e+00,3.443631887435913086e+00,3.346778631210327148e+00,3.255224704742431641e+00,3.168546438217163086e+00,3.086364269256591797e+00,3.008337736129760742e+00,2.934158802032470703e+00,2.863549947738647461e+00,2.796259880065917969e+00,2.732059478759765625e+00,2.670741081237792969e+00,2.612114667892456055e+00,2.556006908416748047e+00,2.502258539199829102e+00,2.450724363327026367e+00,2.401269912719726562e+00,2.353771924972534180e+00,2.308116674423217773e+00,2.264198780059814453e+00,2.221920728683471680e+00,2.181192874908447266e+00,2.141931056976318359e+00,2.104058027267456055e+00,2.067500591278076172e+00,2.032192230224609375e+00,1.998069167137145996e+00,1.965073466300964355e+00,1.933149695396423340e+00,1.902246475219726562e+00,1.872316002845764160e+00,1.843312501907348633e+00
5.000000000000000000e+00,5.000000000000000000e+00,5.000000000000000000e+00,5.000000000000000000e+00,5.000000000000000000e+00,5.000000000000000000e+00,5.000000000000000000e+00,5.000000000000000000e+00,5.000000000000000000e+00,5.000000000000000000e+00,5.000000000000000000e+00,5.000000000000000000e+00,5.000000000000000000e+00,5.000000000000000000e+00,5.000000000000000000e+00,5.000000000000000000e+00,5.000000000000000000e+00,5.000000000000000000e+00,5.000000000000000000e+00,5.000000000000000000e+00,5.000000000000000000e+00,5.000000000000000000e+00,5.000000000000000000e+00,5.000000000000000000e+00,5.000000000000000000e+00,5.000000000000000000e+00,5.000000000000000000e+00,5.000000000000000000e+00,5.000000000000000000e+00,5.000000000000000000e+00,5.000000000000000000e+00,5.000000000000000000e+00,5.000000000000000000e+00,5.000000000000000000e+00,5.000000000000000000e+00,5.000000000000000000e+00,5.000000000000000000e+00,5.000000000000000000e+00,5.000000000000000000e+00,5.000000000000000000e+00,5.000000000000000000e+00,4.481174945831298828e+00,4.318545818328857422e+00,4.167306900024414062e+00,4.026303291320800781e+00,3.894528865814208984e+00,3.771106481552124023e+00,3.655266761779785156e+00,3.546331644058227539e+00,3.443701744079589844e+00,3.346844673156738281e+00,3.255287170410156250e+00,3.168605327606201172e+00,3.086420536041259766e+00,3.008391141891479492e+00,2.934209585189819336e+00,2.863598346710205078e+00,2.796305894851684570e+00,2.732103586196899414e+00,2.670783281326293945e+00,2.612154722213745117e+00,2.556045293807983398e+00,2.502295494079589844e+00,2.450759649276733398e+00,2.401303768157958984e+00,2.353804588317871094e+00,2.308147907257080078e+00,2.264229059219360352e+00,2.221950054168701172e+00,2.181221008300781250e+00,2.141958236694335938e+00,2.104084014892578125e+00,2.067525863647460938e+00,2.032216310501098633e+00,1.998092651367187500e+00,1.965096235275268555e+00,1.933171749114990234e+00,1.902267813682556152e+00,1.872336626052856445e+00,1.843332529067993164e+00
5.000000000000000000e+00,5.000000000000000000e+00,5.000000000000000000e+00,5.000000000000000000e+00,5.000000000000000000e+00,5.000000000000000000e+00,5.000000000000000000e+00,5.000000000000000000e+00,5.000000000000000000e+00,5.000000000000000000e+00,5.000000000000000000e+00,5.000000000000000000e+00,5.000000000000000000e+00,5.000000000000000000e+00,5.000000000000000000e+00,5.000000000000000000e+00,5.000000000000000000e+00,5.000000000000000000e+00,5.000000000000000000e+00,5.000000000000000000e+00,5.000000000000000000e+00,5.000000000000000000e+00,5.000000000000000000e+00,5.000000000000000000e+00,5.000000000000000000e+00,5.000000000000000000e+00,5.000000000000000000e+00,5.000000000000000000e+00,5.000000000000000000e+00,5.000000000000000000e+00,5.000000000000000000e+00,5.000000000000000000e+00,5.000000000000000000e+00,5.000000000000000000e+00,5.000000000000000000e+00,5.000000000000000000e+00,5.000000000000000000e+00,5.000000000000000000e+00,5.000000000000000000e+00,5.000000000000000000e+00,4.656660556793212891e+00,4.481293678283691406e+00,4.318655490875244141e+00,4.167409420013427734e+00,4.026398658752441406e+00,3.894618511199951172e+00,3.771190404891967773e+00,3.655345678329467773e+00,3.546405792236328125e+00,3.443771839141845703e+00,3.346910953521728516e+00,3.255349636077880859e+00,3.168664693832397461e+00,3.086476564407348633e+00,3.008444547653198242e+00,2.934260368347167969e+00,2.863646745681762695e+00,2.796351909637451172e+00,2.732147455215454102e+00,2.670825242996215820e+00,2.612195014953613281e+00,2.556083679199218750e+00,2.502332210540771484e+00,2.450795173645019531e+00,2.401337862014770508e+00,2.353837251663208008e+00,2.308179378509521484e+00,2.264259099960327148e+00,2.221979141235351562e+00,2.181249141693115234e+00,2.141985177993774414e+00,2.104110002517700195e+00,2.067551136016845703e+00,2.032240629196166992e+00,1.998116254806518555e+00,1.965119004249572754e+00,1.933193564414978027e+00,1.902289152145385742e+00,1.872357368469238281e+00,1.843352556228637695e+00
5.000000000000000000e+00,5.000000000000000000e+00,5.000000000000000000e+00,5.000000000000000000e+00,5.000000000000000000e+00,5.000000000000000000e+00,5.000000000000000000e+00,5.000000000000000000e+00,5.000000000000000000e+00,5.000000000000000000e+00,5.000000000000000000e+00,5.000000000000000000e+00,5.000000000000000000e+00,5.000000000000000000e+00,5.000000000000000000e+00,5.000000000000000000e+00,5.000000000000000000e+00,5.000000000000000000e+00,5.000000000000000000e+00,5.000000000000000000e+00,5.000000000000000000e+00,5.000000000000000000e+00,5.000000000000000000e+00,5.000000000000000000e+00,5.000000000000000000e+00,5.000000000000000000e+00,5.000000000000000000e+00,5.000000000000000000e+00,5.000000000000000000e+00,5.000000000000000000e+00,5.000000000000000000e+00,5.000000000000000000e+00,5.000000000000000000e+00,5.000000000000000000e+00,5.000000000000000000e+00,5.000000000000000000e+00,5.000000000000000000e+00,5.000000000000000000e+00,5.000000000000000000e+00,4.846450328826904297e+00,4.656788349151611328e+00,4.481412410736083984e+00,4.318765640258789062e+00,4.167511940002441406e+00,4.026494026184082031e+00,3.894707441329956055e+00,3.771274328231811523e+00,3.655424594879150391e+00,3.546479940414428711e+00,3.443841457366943359e+00,3.346976995468139648e+00,3.255412340164184570e+00,3.168723821640014648e+00,3.086532831192016602e+00,3.008497476577758789e+00,2.934311151504516602e+00,2.863695144653320312e+00,2.796398162841796875e+00,2.732191562652587891e+00,2.670867443084716797e+00,2.612235307693481445e+00,2.556122303009033203e+00,2.502369165420532227e+00,2.450830459594726562e+00,2.401371955871582031e+00,2.353869915008544922e+00,2.308210611343383789e+00,2.264289379119873047e+00,2.222007989883422852e+00,2.181277036666870117e+00,2.142012357711791992e+00,2.104136228561401367e+00,2.067575931549072266e+00,2.032264947891235352e+00,1.998139739036560059e+00,1.965141773223876953e+00,1.933215618133544922e+00,1.902310609817504883e+00,1.872377991676330566e+00,1.843372702598571777e+00
5.000000000000000000e+00,5.000000000000000000e+00,5.000000000000000000e+00,5.000000000000000000e+00,5.000000000000000000e+00,5.000000000000000000e+00,5.000000000000000000e+00,5.000000000000000000e+00,5.000000000000000000e+00,5.000000000000000000e+00,5.000000000000000000e+00,5.000000000000000000e+00,5.000000000000000000e+00,5.000000000000000000e+00,5.000000000000000000e+00,5.000000000000000000e+00,5.000000000000000000e+00,5.000000000000000000e+00,5.000000000000000000e+00,5.000000000000000000e+00,5.000000000000000000e+00,5.000000000000000000e+00,5.000000000000000000e+00,5.000000000000000000e+00,5.000000000000000000e+00,5.000000000000000000e+00,5.000000000000000000e+00,5.000000000000000000e+00,5.000000000000000000e+00,5.000000000000000000e+00,5.000000000000000000e+00,5.000000000000000000e+00,5.000000000000000000e+00,5.000000000000000000e+00,5.000000000000000000e+00,5.000000000000000000e+00,5.000000000000000000e+00,5.000000000000000000e+00,5.000000000000000000e+00,4.846588611602783203e+00,4.656916141510009766e+00,4.481530189514160156e+00,4.318875789642333984e+00,4.167614459991455078e+00,4.026589870452880859e+00,3.894797086715698242e+00,3.771358013153076172e+00,3.655503273010253906e+00,3.546554327011108398e+00,3.443911314010620117e+00,3.347042798995971680e+00,3.255474805831909180e+00,3.168783187866210938e+00,3.086588859558105469e+00,3.008550882339477539e+00,2.934361696243286133e+00,2.863743543624877930e+00,2.796444177627563477e+00,2.732235670089721680e+00,2.670909166336059570e+00,2.612275600433349609e+00,2.556160926818847656e+00,2.502406120300292969e+00,2.450865983963012695e+00,2.401405811309814453e+00,2.353902578353881836e+00,2.308242082595825195e+00,2.264319658279418945e+00,2.222037076950073242e+00,2.181304931640625000e+00,2.142039299011230469e+00,2.104161977767944336e+00,2.067601203918457031e+00,2.032289266586303711e+00,1.998163342475891113e+00,1.965164542198181152e+00,1.933237671852111816e+00,1.902331948280334473e+00,1.872398495674133301e+00,1.843392729759216309e+00
5.000000000000000000e+00,5.000000000000000000e+00,5.000000000000000000e+00,5.000000000000000000e+00,5.000000000000000000e+00,5.000000000000000000e+00,5.000000000000000000e+00,5.000000000000000000e+00,5.000000000000000000e+00,5.000000000000000000e+00,5.000000000000000000e+00,5.000000000000000000e+00,5.000000000000000000e+00,5.000000000000000000e+00,5.000000000000000000e+00,5.000000000000000000e+00,5.000000000000000000e+00,5.000000000000000000e+00,5.000000000000000000e+00,5.000000000000000000e+00,5.000000000000000000e+00,5.000000000000000000e+00,5.000000000000000000e+00,5.000000000000000000e+00,5.000000000000000000e+00,5.000000000000000000e+00,5.000000000000000000e+00,5.000000000000000000e+00,5.000000000000000000e+00,5.000000000000000000e+00,5.000000000000000000e+00,5.000000000000000000e+00,5.000000000000000000e+00,5.000000000000000000e+00,5.000000000000000000e+00,5.000000000000000000e+00,5.000000000000000000e+00,5.000000000000000000e+00,5.000000000000000000e+00,4.846727371215820312e+00,4.657043933868408203e+00,4.481648921966552734e+00,4.318985462188720703e+00,4.167716979980468750e+00,4.026685237884521484e+00,3.894886493682861328e+00,3.771441936492919922e+00,3.655581712722778320e+00,3.546628475189208984e+00,3.443981409072875977e+00,3.347108840942382812e+00,3.255537033081054688e+00,3.168842315673828125e+00,3.086645126342773438e+00,3.008604288101196289e+00,2.934412479400634766e+00,2.863791704177856445e+00,2.796490430831909180e+00,2.732279539108276367e+00,2.670951366424560547e+00,2.612315654754638672e+00,2.556199550628662109e+00,2.502443075180053711e+00,2.450901269912719727e+00,2.401439666748046875e+00,2.353935241699218750e+00,2.308273553848266602e+00,2.264349937438964844e+00,2.222066402435302734e+00,2.181333065032958984e+00,2.142066240310668945e+00,2.104188203811645508e+00,2.067626476287841797e+00,2.032313585281372070e+00,1.998186945915222168e+00,1.965187430381774902e+00,1.933259725570678711e+00,1.902353286743164062e+00,1.872419118881225586e+00,1.843412756919860840e+00
5.000000000000000000e+00,5.000000000000000000e+00,5.000000000000000000e+00,5.000000000000000000e+00,5.000000000000000000e+00,5.000000000000000000e+00,5.000000000000000000e+00,5.000000000000000000e+00,5.000000000000000000e+00,5.000000000000000000e+00,5.000000000000000000e+00,5.000000000000000000e+00,5.000000000000000000e+00,5.000000000000000000e+00,5.000000000000000000e+00,5.000000000000000000e+00,5.000000000000000000e+00,5.000000000000000000e+00,5.000000000000000000e+00,5.000000000000000000e+00,5.000000000000000000e+00,5.000000000000000000e+00,5.000000000000000000e+00,5.000000000000000000e+00,5.000000000000000000e+00,5.000000000000000000e+00,5.000000000000000000e+00,5.000000000000000000e+00,5.000000000000000000e+00,5.000000000000000000e+00,5.000000000000000000e+00,5.000000000000000000e+00,5.000000000000000000e+00,5.000000000000000000e+00,5.000000000000000000e+00,5.000000000000000000e+00,5.000000000000000000e+00,5.000000000000000000e+00,5.000000000000000000e+00,4.846865653991699219e+00,4.657171726226806641e+00,4.481767177581787109e+00,4.319095611572265625e+00,4.167819023132324219e+00,4.026781082153320312e+00,3.894976139068603516e+00,3.771525859832763672e+00,3.655660629272460938e+00,3.546702623367309570e+00,3.444051265716552734e+00,3.347174882888793945e+00,3.255599498748779297e+00,3.168901443481445312e+00,3.086701393127441406e+00,3.008657932281494141e+00,2.934463500976562500e+00,2.863840103149414062e+00,2.796536445617675781e+00,2.732323646545410156e+00,2.670993328094482422e+00,2.612355947494506836e+00,2.556237697601318359e+00,2.502480030059814453e+00,2.450936794281005859e+00,2.401473760604858398e+00,2.353967905044555664e+00,2.308304786682128906e+00,2.264379978179931641e+00,2.222095489501953125e+00,2.181360960006713867e+00,2.142093181610107422e+00,2.104214429855346680e+00,2.067651510238647461e+00,2.032337903976440430e+00,1.998210430145263672e+00,1.965209960937500000e+00,1.933281779289245605e+00,1.902374625205993652e+00,1.872439861297607422e+00,1.843432784080505371e+00
5.000000000000000000e+00,5.000000000000000000e+00,5.000000000000000000e+00,5.000000000000000000e+00,5.000000000000000000e+00,5.000000000000000000e+00,5.000000000000000000e+00,5.000000000000000000e+00,5.000000000000000000e+00,5.000000000000000000e+00,5.000000000000000000e+00,5.000000000000000000e+00,5.000000000000000000e+00,5.000000000000000000e+00,5.000000000000000000e+00,5.000000000000000000e+00,5.000000000000000000e+00,5.000000000000000000e+00,5.000000000000000000e+00,5.000000000000000000e+00,5.000000000000000000e+00,5.000000000000000000e+00,5.000000000000000000e+00,5.000000000000000000e+00,5.000000000000000000e+00,5.000000000000000000e+00,5.000000000000000000e+00,5.000000000000000000e+00,5.000000000000000000e+00,5.000000000000000000e+00,5.000000000000000000e+00,5.000000000000000000e+00,5.000000000000000000e+00,5.000000000000000000e+00,5.000000000000000000e+00,5.000000000000000000e+00,5.000000000000000000e+00,5.000000000000000000e+00,5.000000000000000000e+00,4.847003936767578125e+00,4.657299995422363281e+00,4.481885433197021484e+00,4.319205284118652344e+00,4.167921543121337891e+00,4.026876449584960938e+00,3.895065546035766602e+00,3.771609783172607422e+00,3.655739545822143555e+00,3.546776533126831055e+00,3.444121360778808594e+00,3.347241163253784180e+00,3.255662202835083008e+00,3.168960571289062500e+00,3.086757421493530273e+00,3.008711338043212891e+00,2.934514284133911133e+00,2.863888502120971680e+00,2.796582460403442383e+00,2.732367515563964844e+00,2.671035528182983398e+00,2.612396240234375000e+00,2.556276321411132812e+00,2.502516984939575195e+00,2.450972318649291992e+00,2.401507854461669922e+00,2.354000568389892578e+00,2.308336257934570312e+00,2.264410257339477539e+00,2.222124338150024414e+00,2.181389093399047852e+00,2.142120361328125000e+00,2.104240417480468750e+00,2.067676782608032227e+00,2.032362461090087891e+00,1.998234033584594727e+00,1.965232729911804199e+00,1.933303833007812500e+00,1.902395963668823242e+00,1.872460484504699707e+00,1.843452811241149902e+00
5.000000000000000000e+00,5.000000000000000000e+00,5.000000000000000000e+00,5.000000000000000000e+00,5.000000000000000000e+00,5.000000000000000000e+00,5.000000000000000000e+00,5.000000000000000000e+00,5.000000000000000000e+00,5.000000000000000000e+00,5.000000000000000000e+00,5.000000000000000000e+00,5.000000000000000000e+00,5.000000000000000000e+00,5.000000000000000000e+00,5.000000000000000000e+00,5.000000000000000000e+00,5.000000000000000000e+00,5.000000000000000000e+00,5.000000000000000000e+00,5.000000000000000000e+00,5.000000000000000000e+00,5.000000000000000000e+00,5.000000000000000000e+00,5.000000000000000000e+00,5.000000000000000000e+00,5.000000000000000000e+00,5.000000000000000000e+00,5.000000000000000000e+00,5.000000000000000000e+00,5.000000000000000000e+00,5.000000000000000000e+00,5.000000000000000000e+00,5.000000000000000000e+00,5.000000000000000000e+00,5.000000000000000000e+00,5.000000000000000000e+00,5.000000000000000000e+00,5.000000000000000000e+00,4.847142696380615234e+00,4.657427787780761719e+00,4.482004165649414062e+00,4.319315433502197266e+00,4.168024063110351562e+00,4.026972293853759766e+00,3.895154714584350586e+00,3.771693706512451172e+00,3.655818462371826172e+00,3.546850919723510742e+00,3.444190979003906250e+00,3.347307205200195312e+00,3.255724668502807617e+00,3.169019937515258789e+00,3.086813449859619141e+00,3.008764266967773438e+00,2.934565067291259766e+00,2.863936901092529297e+00,2.796628713607788086e+00,2.732411623001098633e+00,2.671077728271484375e+00,2.612436532974243164e+00,2.556314945220947266e+00,2.502553939819335938e+00,2.451007604598999023e+00,2.401541948318481445e+00,2.354033231735229492e+00,2.308367729187011719e+00,2.264440298080444336e+00,2.222153425216674805e+00,2.181417226791381836e+00,2.142147302627563477e+00,2.104266405105590820e+00,2.067702054977416992e+00,2.032386779785156250e+00,1.998257637023925781e+00,1.965255498886108398e+00,1.933325886726379395e+00,1.902417182922363281e+00,1.872481226921081543e+00,1.843472957611083984e+00
5.000000000000000000e+00,5.000000000000000000e+00,5.000000000000000000e+00,5.000000000000000000e+00,5.000000000000000000e+00,5.000000000000000000e+00,5.000000000000000000e+00,5.000000000000000000e+00,5.000000000000000000e+00,5.000000000000000000e+00,5.000000000000000000e+00,5.000000000000000000e+00,5.000000000000000000e+00,5.000000000000000000e+00,5.000000000000000000e+00,5.000000000000000000e+00,5.000000000000000000e+00,5.000000000000000000e+00,5.000000000000000000e+00,5.000000000000000000e+00,5.000000000000000000e+00,5.000000000000000000e+00,5.000000000000000000e+00,5.000000000000000000e+00,5.000000000000000000e+00,5.000000000000000000e+00,5.000000000000000000e+00,5.000000000000000000e+00,5.000000000000000000e+00,5.000000000000000000e+00,5.000000000000000000e+00,5.000000000000000000e+00,5.000000000000000000e+00,5.000000000000000000e+00,5.000000000000000000e+00,5.000000000000000000e+00,5.000000000000000000e+00,5.000000000000000000e+00,5.000000000000000000e+00,4.847280979156494141e+00,4.657555580139160156e+00,4.482122421264648438e+00,4.319425582885742188e+00,4.168126106262207031e+00,4.027067661285400391e+00,3.895244121551513672e+00,3.771777153015136719e+00,3.655897378921508789e+00,3.546925067901611328e+00,3.444261074066162109e+00,3.347373008728027344e+00,3.255787134170532227e+00,3.169079065322875977e+00,3.086869716644287109e+00,3.008817911148071289e+00,2.934615612030029297e+00,2.863985300064086914e+00,2.796674728393554688e+00,2.732455492019653320e+00,2.671119451522827148e+00,2.612476825714111328e+00,2.556353569030761719e+00,2.502590894699096680e+00,2.451042890548706055e+00,2.401575803756713867e+00,2.354065895080566406e+00,2.308398962020874023e+00,2.264470577239990234e+00,2.222182512283325195e+00,2.181445121765136719e+00,2.142174482345581055e+00,2.104292631149291992e+00,2.067727088928222656e+00,2.032411098480224609e+00,1.998281121253967285e+00,1.965278267860412598e+00,1.933348059654235840e+00,1.902438521385192871e+00,1.872501969337463379e+00,1.843492984771728516e+00
5.000000000000000000e+00,5.000000000000000000e+00,5.000000000000000000e+00,5.000000000000000000e+00,5.000000000000000000e+00,5.000000000000000000e+00,5.000000000000000000e+00,5.000000000000000000e+00,5.000000000000000000e+00,5.000000000000000000e+00,5.000000000000000000e+00,5.000000000000000000e+00,5.000000000000000000e+00,5.000000000000000000e+00,5.000000000000000000e+00,5.000000000000000000e+00,5.000000000000000000e+00,5.000000000000000000e+00,5.000000000000000000e+00,5.000000000000000000e+00,5.000000000000000000e+00,5.000000000000000000e+00,5.000000000000000000e+00,5.000000000000000000e+00,5.000000000000000000e+00,5.000000000000000000e+00,5.000000000000000000e+00,5.000000000000000000e+00,5.000000000000000000e+00,5.000000000000000000e+00,5.000000000000000000e+00,5.000000000000000000e+00,5.000000000000000000e+00,5.000000000000000000e+00,5.000000000000000000e+00,5.000000000000000000e+00,5.000000000000000000e+00,5.000000000000000000e+00,5.000000000000000000e+00,4.847419738769531250e+00,4.657683372497558594e+00,4.482241153717041016e+00,4.319535732269287109e+00,4.168228626251220703e+00,4.027163505554199219e+00,3.895333766937255859e+00,3.771861076354980469e+00,3.655975818634033203e+00,3.546999216079711914e+00,3.444330930709838867e+00,3.347439050674438477e+00,3.255849361419677734e+00,3.169138431549072266e+00,3.086925983428955078e+00,3.008871316909790039e+00,2.934666395187377930e+00,2.864033460617065430e+00,2.796720981597900391e+00,2.732499599456787109e+00,2.671161651611328125e+00,2.612516880035400391e+00,2.556391954421997070e+00,2.502627849578857422e+00,2.451078414916992188e+00,2.401609659194946289e+00,2.354098320007324219e+00,2.308430433273315430e+00,2.264500617980957031e+00,2.222211599349975586e+00,2.181473016738891602e+00,2.142201423645019531e+00,2.104318618774414062e+00,2.067752361297607422e+00,2.032435417175292969e+00,1.998304486274719238e+00,1.965301156044006348e+00,1.933370113372802734e+00,1.902459859848022461e+00,1.872522592544555664e+00,1.843512773513793945e+00
5.000000000000000000e+00,5.000000000000000000e+00,5.000000000000000000e+00,5.000000000000000000e+00,5.000000000000000000e+00,5.000000000000000000e+00,5.000000000000000000e+00,5.000000000000000000e+00,5.000000000000000000e+00,5.000000000000000000e+00,5.000000000000000000e+00,5.000000000000000000e+00,5.000000000000000000e+00,5.000000000000000000e+00,5.000000000000000000e+00,5.000000000000000000e+00,5.000000000000000000e+00,5.000000000000000000e+00,5.000000000000000000e+00,5.000000000000000000e+00,5.000000000000000000e+00,5.000000000000000000e+00,5.000000000000000000e+00,5.000000000000000000e+00,5.000000000000000000e+00,5.000000000000000000e+00,5.000000000000000000e+00,5.000000000000000000e+00,5.000000000000000000e+00,5.000000000000000000e+00,5.000000000000000000e+00,5.000000000000000000e+00,5.000000000000000000e+00,5.000000000000000000e+00,5.000000000000000000e+00,5.000000000000000000e+00,5.000000000000000000e+00,5.000000000000000000e+00,5.000000000000000000e+00,4.847558498382568359e+00,4.657811164855957031e+00,4.482359409332275391e+00,4.319645404815673828e+00,4.168331146240234375e+00,4.027258872985839844e+00,3.895423173904418945e+00,3.771944999694824219e+00,3.656054496765136719e+00,3.547073602676391602e+00,3.444401025772094727e+00,3.347505331039428711e+00,3.255912065505981445e+00,3.169197320938110352e+00,3.086982250213623047e+00,3.008924722671508789e+00,2.934717178344726562e+00,2.864081859588623047e+00,2.796766757965087891e+00,2.732543706893920898e+00,2.671203851699829102e+00,2.612557172775268555e+00,2.556430339813232422e+00,2.502664804458618164e+00,2.451113939285278320e+00,2.401643514633178711e+00,2.354130983352661133e+00,2.308461666107177734e+00,2.264530897140502930e+00,2.222240686416625977e+00,2.181501150131225586e+00,2.142228364944458008e+00,2.104344844818115234e+00,2.067777633666992188e+00,2.032459735870361328e+00,1.998328089714050293e+00,1.965323925018310547e+00,1.933392167091369629e+00,1.902481198310852051e+00,1.872543334960937500e+00,1.843532919883728027e+00
5.000000000000000000e+00,5.000000000000000000e+00,5.000000000000000000e+00,5.000000000000000000e+00,5.000000000000000000e+00,5.000000000000000000e+00,5.000000000000000000e+00,5.000000000000000000e+00,5.000000000000000000e+00,5.000000000000000000e+00,5.000000000000000000e+00,5.000000000000000000e+00,5.000000000000000000e+00,5.000000000000000000e+00,5.000000000000000000e+00,5.000000000000000000e+00,5.000000000000000000e+00,5.000000000000000000e+00,5.000000000000000000e+00,5.000000000000000000e+00,5.000000000000000000e+00,5.000000000000000000e+00,5.000000000000000000e+00,5.000000000000000000e+00,5.000000000000000000e+00,5.000000000000000000e+00,5.000000000000000000e+00,5.000000000000000000e+00,5.000000000000000000e+00,5.000000000000000000e+00,5.000000000000000000e+00,5.000000000000000000e+00,5.000000000000000000e+00,5.000000000000000000e+00,5.000000000000000000e+00,5.000000000000000000e+00,5.000000000000000000e+00,5.000000000000000000e+00,5.000000000000000000e+00,4.847696781158447266e+00,4.657939434051513672e+00,4.482477664947509766e+00,4.319755554199218750e+00,4.168433666229248047e+00,4.027354240417480469e+00,3.895512819290161133e+00,3.772029161453247070e+00,3.656133413314819336e+00,3.547147512435913086e+00,3.444471120834350586e+00,3.347571372985839844e+00,3.255974531173706055e+00,3.169256687164306641e+00,3.087038278579711914e+00,3.008978128433227539e+00,2.934767961502075195e+00,2.864130258560180664e+00,2.796813011169433594e+00,2.732587814331054688e+00,2.671245813369750977e+00,2.612597465515136719e+00,2.556468963623046875e+00,2.502701520919799805e+00,2.451148986816406250e+00,2.401677608489990234e+00,2.354163646697998047e+00,2.308493137359619141e+00,2.264561176300048828e+00,2.222270011901855469e+00,2.181529283523559570e+00,2.142255544662475586e+00,2.104370832443237305e+00,2.067802906036376953e+00,2.032484054565429688e+00,1.998351573944091797e+00,1.965346693992614746e+00,1.933413982391357422e+00,1.902502536773681641e+00,1.872563958168029785e+00,1.843552947044372559e+00
5.000000000000000000e+00,5.000000000000000000e+00,5.000000000000000000e+00,5.000000000000000000e+00,5.000000000000000000e+00,5.000000000000000000e+00,5.000000000000000000e+00,5.000000000000000000e+00,5.000000000000000000e+00,5.000000000000000000e+00,5.000000000000000000e+00,5.000000000000000000e+00,5.000000000000000000e+00,5.000000000000000000e+00,5.000000000000000000e+00,5.000000000000000000e+00,5.000000000000000000e+00,5.000000000000000000e+00,5.000000000000000000e+00,5.000000000000000000e+00,5.000000000000000000e+00,5.000000000000000000e+00,5.000000000000000000e+00,5.000000000000000000e+00,5.000000000000000000e+00,5.000000000000000000e+00,5.000000000000000000e+00,5.000000000000000000e+00,5.000000000000000000e+00,5.000000000000000000e+00,5.000000000000000000e+00,5.000000000000000000e+00,5.000000000000000000e+00,5.000000000000000000e+00,5.000000000000000000e+00,5.000000000000000000e+00,5.000000000000000000e+00,5.000000000000000000e+00,5.000000000000000000e+00,4.847835540771484375e+00,4.658067226409912109e+00,4.482596397399902344e+00,4.319865703582763672e+00,4.168536186218261719e+00,4.027450084686279297e+00,3.895601987838745117e+00,3.772113084793090820e+00,3.656212329864501953e+00,3.547221660614013672e+00,3.444540739059448242e+00,3.347637414932250977e+00,3.256036996841430664e+00,3.169315814971923828e+00,3.087094306945800781e+00,3.009031295776367188e+00,2.934818983078002930e+00,2.864178657531738281e+00,2.796859264373779297e+00,2.732631683349609375e+00,2.671288013458251953e+00,2.612637758255004883e+00,2.556507587432861328e+00,2.502738237380981445e+00,2.451184272766113281e+00,2.401711702346801758e+00,2.354196310043334961e+00,2.308524608612060547e+00,2.264591455459594727e+00,2.222299098968505859e+00,2.181557416915893555e+00,2.142282724380493164e+00,2.104397058486938477e+00,2.067827939987182617e+00,2.032508611679077148e+00,1.998375177383422852e+00,1.965369462966918945e+00,1.933436036109924316e+00,1.902523875236511230e+00,1.872584700584411621e+00,1.843572974205017090e+00
5.000000000000000000e+00,5.000000000000000000e+00,5.000000000000000000e+00,5.000000000000000000e+00,5.000000000000000000e+00,5.000000000000000000e+00,5.000000000000000000e+00,5.000000000000000000e+00,5.000000000000000000e+00,5.000000000000000000e+00,5.000000000000000000e+00,5.000000000000000000e+00,5.000000000000000000e+00,5.000000000000000000e+00,5.000000000000000000e+00,5.000000000000000000e+00,5.000000000000000000e+00,5.000000000000000000e+00,5.000000000000000000e+00,5.000000000000000000e+00,5.000000000000000000e+00,5.000000000000000000e+00,5.000000000000000000e+00,5.000000000000000000e+00,5.000000000000000000e+00,4.987967491149902344e+00,5.000000000000000000e+00,5.000000000000000000e+00,5.000000000000000000e+00,5.000000000000000000e+00,5.000000000000000000e+00,5.000000000000000000e+00,5.000000000000000000e+00,5.000000000000000000e+00,5.000000000000000000e+00,5.000000000000000000e+00,5.000000000000000000e+00,5.000000000000000000e+00,5.000000000000000000e+00,4.847973823547363281e+00,4.658195018768310547e+00,4.482714653015136719e+00,4.319975852966308594e+00,4.168638229370117188e+00,4.027545928955078125e+00,3.895691394805908203e+00,3.772196531295776367e+00,3.656291246414184570e+00,3.547295808792114258e+00,3.444610595703125000e+00,3.347703218460083008e+00,3.256099700927734375e+00,3.169375181198120117e+00,3.087150573730468750e+00,3.009084701538085938e+00,2.934869527816772461e+00,2.864227056503295898e+00,2.796905279159545898e+00,2.732675790786743164e+00,2.671329736709594727e+00,2.612678050994873047e+00,2.556546211242675781e+00,2.502775192260742188e+00,2.451219797134399414e+00,2.401745557785034180e+00,2.354229211807250977e+00,2.308556079864501953e+00,2.264621496200561523e+00,2.222327947616577148e+00,2.181585550308227539e+00,2.142309665679931641e+00,2.104423046112060547e+00,2.067853212356567383e+00,2.032532691955566406e+00,1.998398780822753906e+00,1.965392231941223145e+00,1.933458089828491211e+00,1.902545213699340820e+00,1.872605204582214355e+00,1.843593001365661621e+00
5.000000000000000000e+00,5.000000000000000000e+00,5.000000000000000000e+00,5.000000000000000000e+00,5.000000000000000000e+00,5.000000000000000000e+00,5.000000000000000000e+00,5.000000000000000000e+00,5.000000000000000000e+00,5.000000000000000000e+00,5.000000000000000000e+00,5.000000000000000000e+00,5.000000000000000000e+00,5.000000000000000000e+00,5.000000000000000000e+00,5.000000000000000000e+00,5.000000000000000000e+00,5.000000000000000000e+00,5.000000000000000000e+00,5.000000000000000000e+00,5.000000000000000000e+00,5.000000000000000000e+00,5.000000000000000000e+00,5.000000000000000000e+00,5.000000000000000000e+00,5.000000000000000000e+00,5.000000000000000000e+00,5.000000000000000000e+00,5.000000000000000000e+00,5.000000000000000000e+00,5.000000000000000000e+00,5.000000000000000000e+00,5.000000000000000000e+00,5.000000000000000000e+00,5.000000000000000000e+00,5.000000000000000000e+00,5.000000000000000000e+00,5.000000000000000000e+00,5.000000000000000000e+00,4.848112583160400391e+00,4.658322811126708984e+00,4.482833385467529297e+00,4.320085525512695312e+00,4.168741226196289062e+00,4.027641296386718750e+00,3.895781040191650391e+00,3.772280454635620117e+00,3.656370162963867188e+00,3.547370195388793945e+00,3.444680690765380859e+00,3.347769498825073242e+00,3.256161928176879883e+00,3.169434547424316406e+00,3.087206840515136719e+00,3.009138107299804688e+00,2.934920310974121094e+00,2.864275217056274414e+00,2.796951532363891602e+00,2.732719659805297852e+00,2.671371936798095703e+00,2.612717866897583008e+00,2.556584358215332031e+00,2.502812147140502930e+00,2.451255321502685547e+00,2.401779413223266602e+00,2.354261636734008789e+00,2.308587551116943359e+00,2.264651775360107422e+00,2.222357273101806641e+00,2.181613445281982422e+00,2.142336845397949219e+00,2.104449272155761719e+00,2.067878484725952148e+00,2.032557249069213867e+00,1.998422265052795410e+00,1.965415120124816895e+00,1.933480143547058105e+00,1.902566671371459961e+00,1.872625827789306641e+00,1.843613028526306152e+00
5.000000000000000000e+00,5.000000000000000000e+00,5.000000000000000000e+00,5.000000000000000000e+00,5.000000000000000000e+00,5.000000000000000000e+00,5.000000000000000000e+00,5.000000000000000000e+00,5.000000000000000000e+00,5.000000000000000000e+00,5.000000000000000000e+00,5.000000000000000000e+00,5.000000000000000000e+00,5.000000000000000000e+00,5.000000000000000000e+00,5.000000000000000000e+00,5.000000000000000000e+00,5.000000000000000000e+00,5.000000000000000000e+00,5.000000000000000000e+00,5.000000000000000000e+00,5.000000000000000000e+00,5.000000000000000000e+00,4.973299026489257812e+00,4.993460655212402344e+00,4.989614009857177734e+00,5.000000000000000000e+00,5.000000000000000000e+00,5.000000000000000000e+00,5.000000000000000000e+00,5.000000000000000000e+00,5.000000000000000000e+00,5.000000000000000000e+00,5.000000000000000000e+00,5.000000000000000000e+00,5.000000000000000000e+00,5.000000000000000000e+00,5.000000000000000000e+00,5.000000000000000000e+00,4.848250865936279297e+00,4.658450603485107422e+00,4.482951641082763672e+00,4.320195674896240234e+00,4.168843269348144531e+00,4.027737140655517578e+00,3.895870447158813477e+00,3.772364377975463867e+00,3.656448602676391602e+00,3.547444343566894531e+00,3.444750785827636719e+00,3.347835540771484375e+00,3.256224393844604492e+00,3.169493436813354492e+00,3.087263107299804688e+00,3.009191513061523438e+00,2.934971094131469727e+00,2.864323616027832031e+00,2.796997308731079102e+00,2.732763767242431641e+00,2.671414136886596680e+00,2.612758159637451172e+00,2.556622743606567383e+00,2.502849102020263672e+00,2.451290607452392578e+00,2.401813507080078125e+00,2.354294300079345703e+00,2.308618783950805664e+00,2.264682054519653320e+00,2.222386360168457031e+00,2.181641578674316406e+00,2.142363786697387695e+00,2.104475498199462891e+00,2.067903757095336914e+00,2.032581567764282227e+00,1.998445868492126465e+00,1.965437650680541992e+00,1.933502197265625000e+00,1.902588009834289551e+00,1.872646570205688477e+00,1.843633174896240234e+00
5.000000000000000000e+00,5.000000000000000000e+00,5.000000000000000000e+00,5.000000000000000000e+00,5.000000000000000000e+00,5.000000000000000000e+00,5.000000000000000000e+00,5.000000000000000000e+00,5.000000000000000000e+00,5.000000000000000000e+00,5.000000000000000000e+00,5.000000000000000000e+00,5.000000000000000000e+00,5.000000000000000000e+00,5.000000000000000000e+00,5.000000000000000000e+00,5.000000000000000000e+00,5.000000000000000000e+00,5.000000000000000000e+00,5.000000000000000000e+00,5.000000000000000000e+00,5.000000000000000000e+00,5.000000000000000000e+00,4.929565429687500000e+00,4.944815158843994141e+00,4.963633537292480469e+00,5.000000000000000000e+00,5.000000000000000000e+00,5.000000000000000000e+00,5.000000000000000000e+00,5.000000000000000000e+00,5.000000000000000000e+00,5.000000000000000000e+00,5.000000000000000000e+00,5.000000000000000000e+00,5.000000000000000000e+00,5.000000000000000000e+00,5.000000000000000000e+00,5.000000000000000000e+00,4.848389625549316406e+00,4.658578872680664062e+00,4.483069896697998047e+00,4.320305824279785156e+00,4.168945789337158203e+00,4.027832508087158203e+00,3.895960092544555664e+00,3.772448539733886719e+00,3.656527519226074219e+00,3.547518253326416016e+00,3.444820880889892578e+00,3.347901582717895508e+00,3.256287097930908203e+00,3.169552803039550781e+00,3.087319135665893555e+00,3.009244918823242188e+00,2.935021877288818359e+00,2.864372014999389648e+00,2.797043561935424805e+00,2.732807636260986328e+00,2.671455860137939453e+00,2.612798452377319336e+00,2.556661367416381836e+00,2.502885818481445312e+00,2.451326131820678711e+00,2.401847600936889648e+00,2.354326963424682617e+00,2.308650255203247070e+00,2.264712333679199219e+00,2.222415447235107422e+00,2.181669473648071289e+00,2.142390727996826172e+00,2.104501485824584961e+00,2.067928791046142578e+00,2.032605886459350586e+00,1.998469471931457520e+00,1.965460419654846191e+00,1.933524250984191895e+00,1.902609348297119141e+00,1.872667312622070312e+00,1.843653202056884766e+00
5.000000000000000000e+00,5.000000000000000000e+00,5.000000000000000000e+00,5.000000000000000000e+00,5.000000000000000000e+00,5.000000000000000000e+00,5.000000000000000000e+00,5.000000000000000000e+00,5.000000000000000000e+00,5.000000000000000000e+00,5.000000000000000000e+00,5.000000000000000000e+00,5.000000000000000000e+00,5.000000000000000000e+00,5.000000000000000000e+00,5.000000000000000000e+00,5.000000000000000000e+00,5.000000000000000000e+00,5.000000000000000000e+00,5.000000000000000000e+00,5.000000000000000000e+00,5.000000000000000000e+00,5.000000000000000000e+00,4.949150085449218750e+00,4.958436489105224609e+00,4.952974796295166016e+00,4.989824295043945312e+00,5.000000000000000000e+00,5.000000000000000000e+00,5.000000000000000000e+00,5.000000000000000000e+00,5.000000000000000000e+00,5.000000000000000000e+00,5.000000000000000000e+00,5.000000000000000000e+00,5.000000000000000000e+00,5.000000000000000000e+00,5.000000000000000000e+00,5.000000000000000000e+00,4.848528385162353516e+00,4.658706665039062500e+00,4.483188629150390625e+00,4.320415496826171875e+00,4.169048309326171875e+00,4.027928352355957031e+00,3.896049261093139648e+00,3.772532463073730469e+00,3.656606435775756836e+00,3.547592639923095703e+00,3.444890499114990234e+00,3.347967863082885742e+00,3.256349563598632812e+00,3.169611930847167969e+00,3.087375402450561523e+00,3.009298086166381836e+00,2.935072660446166992e+00,2.864420413970947266e+00,2.797089815139770508e+00,2.732851505279541016e+00,2.671498060226440430e+00,2.612838745117187500e+00,2.556699991226196289e+00,2.502922773361206055e+00,2.451361417770385742e+00,2.401881694793701172e+00,2.354359865188598633e+00,2.308681726455688477e+00,2.264742612838745117e+00,2.222444534301757812e+00,2.181697607040405273e+00,2.142417907714843750e+00,2.104527473449707031e+00,2.067954063415527344e+00,2.032630205154418945e+00,1.998492956161499023e+00,1.965483188629150391e+00,1.933546304702758789e+00,1.902630448341369629e+00,1.872687935829162598e+00,1.843673229217529297e+00
5.000000000000000000e+00,5.000000000000000000e+00,5.000000000000000000e+00,5.000000000000000000e+00,5.000000000000000000e+00,5.000000000000000000e+00,5.000000000000000000e+00,5.000000000000000000e+00,5.000000000000000000e+00,5.000000000000000000e+00,5.000000000000000000e+00,5.000000000000000000e+00,5.000000000000000000e+00,5.000000000000000000e+00,5.000000000000000000e+00,5.000000000000000000e+00,5.000000000000000000e+00,5.000000000000000000e+00,5.000000000000000000e+00,5.000000000000000000e+00,5.000000000000000000e+00,5.000000000000000000e+00,5.000000000000000000e+00,4.949250221252441406e+00,4.982235908508300781e+00,4.951149463653564453e+00,4.982068538665771484e+00,5.000000000000000000e+00,5.000000000000000000e+00,5.000000000000000000e+00,5.000000000000000000e+00,5.000000000000000000e+00,5.000000000000000000e+00,5.000000000000000000e+00,5.000000000000000000e+00,5.000000000000000000e+00,5.000000000000000000e+00,5.000000000000000000e+00,5.000000000000000000e+00,4.848666667938232422e+00,4.658834457397460938e+00,4.483306884765625000e+00,4.320525646209716797e+00,4.169150829315185547e+00,4.028024196624755859e+00,3.896138906478881836e+00,3.772616386413574219e+00,3.656685352325439453e+00,3.547666788101196289e+00,3.444960355758666992e+00,3.348033666610717773e+00,3.256412267684936523e+00,3.169671297073364258e+00,3.087431669235229492e+00,3.009351491928100586e+00,2.935123443603515625e+00,2.864469051361083984e+00,2.797135591506958008e+00,2.732895612716674805e+00,2.671540021896362305e+00,2.612879037857055664e+00,2.556738615036010742e+00,2.502959728240966797e+00,2.451396942138671875e+00,2.401915550231933594e+00,2.354392528533935547e+00,2.308713197708129883e+00,2.264772891998291016e+00,2.222473621368408203e+00,2.181725740432739258e+00,2.142445087432861328e+00,2.104553699493408203e+00,2.067979335784912109e+00,2.032654523849487305e+00,1.998516559600830078e+00,1.965506076812744141e+00,1.933568358421325684e+00,1.902651906013488770e+00,1.872708678245544434e+00,1.843693375587463379e+00
5.000000000000000000e+00,5.000000000000000000e+00,5.000000000000000000e+00,5.000000000000000000e+00,5.000000000000000000e+00,5.000000000000000000e+00,5.000000000000000000e+00,5.000000000000000000e+00,5.000000000000000000e+00,5.000000000000000000e+00,5.000000000000000000e+00,5.000000000000000000e+00,5.000000000000000000e+00,5.000000000000000000e+00,5.000000000000000000e+00,5.000000000000000000e+00,5.000000000000000000e+00,5.000000000000000000e+00,5.000000000000000000e+00,5.000000000000000000e+00,5.000000000000000000e+00,5.000000000000000000e+00,5.000000000000000000e+00,4.954282760620117188e+00,4.973842620849609375e+00,4.942155361175537109e+00,4.977200984954833984e+00,5.000000000000000000e+00,5.000000000000000000e+00,5.000000000000000000e+00,5.000000000000000000e+00,5.000000000000000000e+00,5.000000000000000000e+00,5.000000000000000000e+00,5.000000000000000000e+00,5.000000000000000000e+00,5.000000000000000000e+00,5.000000000000000000e+00,5.000000000000000000e+00,4.848805427551269531e+00,4.658962249755859375e+00,4.483425617218017578e+00,4.320635795593261719e+00,4.169253349304199219e+00,4.028119564056396484e+00,3.896228313446044922e+00,3.772700071334838867e+00,3.656764268875122070e+00,3.547741174697875977e+00,3.445030450820922852e+00,3.348099708557128906e+00,3.256474494934082031e+00,3.169730663299560547e+00,3.087487936019897461e+00,3.009404897689819336e+00,2.935174226760864258e+00,2.864516973495483398e+00,2.797181844711303711e+00,2.732939720153808594e+00,2.671581983566284180e+00,2.612919092178344727e+00,2.556777000427246094e+00,2.502996683120727539e+00,2.451432466506958008e+00,2.401949644088745117e+00,2.354424953460693359e+00,2.308744668960571289e+00,2.264802932739257812e+00,2.222502708435058594e+00,2.181753635406494141e+00,2.142472028732299805e+00,2.104579687118530273e+00,2.068004369735717773e+00,2.032678842544555664e+00,1.998539924621582031e+00,1.965528845787048340e+00,1.933590412139892578e+00,1.902673244476318359e+00,1.872729301452636719e+00,1.843713402748107910e+00
5.000000000000000000e+00,5.000000000000000000e+00,5.000000000000000000e+00,5.000000000000000000e+00,5.000000000000000000e+00,5.000000000000000000e+00,5.000000000000000000e+00,5.000000000000000000e+00,5.000000000000000000e+00,5.000000000000000000e+00,5.000000000000000000e+00,5.000000000000000000e+00,5.000000000000000000e+00,5.000000000000000000e+00,5.000000000000000000e+00,5.000000000000000000e+00,5.000000000000000000e+00,5.000000000000000000e+00,5.000000000000000000e+00,5.000000000000000000e+00,5.000000000000000000e+00,5.000000000000000000e+00,5.000000000000000000e+00,4.903022289276123047e+00,4.962740421295166016e+00,4.953451633453369141e+00,4.984649181365966797e+00,5.000000000000000000e+00,5.000000000000000000e+00,5.000000000000000000e+00,5.000000000000000000e+00,5.000000000000000000e+00,5.000000000000000000e+00,5.000000000000000000e+00,5.000000000000000000e+00,5.000000000000000000e+00,5.000000000000000000e+00,5.000000000000000000e+00,5.000000000000000000e+00,4.848944187164306641e+00,4.659090518951416016e+00,4.483544349670410156e+00,4.320745468139648438e+00,4.169355392456054688e+00,4.028215408325195312e+00,3.896317958831787109e+00,3.772783994674682617e+00,3.656842708587646484e+00,3.547815322875976562e+00,3.445100545883178711e+00,3.348165988922119141e+00,3.256536960601806641e+00,3.169789552688598633e+00,3.087543964385986328e+00,3.009458541870117188e+00,2.935224771499633789e+00,2.864565372467041016e+00,2.797228097915649414e+00,2.732983589172363281e+00,2.671624183654785156e+00,2.612959384918212891e+00,2.556815385818481445e+00,2.503033638000488281e+00,2.451467752456665039e+00,2.401983499526977539e+00,2.354457616806030273e+00,2.308775901794433594e+00,2.264833211898803711e+00,2.222531795501708984e+00,2.181781768798828125e+00,2.142498970031738281e+00,2.104605913162231445e+00,2.068029642105102539e+00,2.032703399658203125e+00,1.998563408851623535e+00,1.965551614761352539e+00,1.933612465858459473e+00,1.902694582939147949e+00,1.872750043869018555e+00,1.843733191490173340e+00
5.000000000000000000e+00,5.000000000000000000e+00,5.000000000000000000e+00,5.000000000000000000e+00,5.000000000000000000e+00,5.000000000000000000e+00,5.000000000000000000e+00,5.000000000000000000e+00,5.000000000000000000e+00,5.000000000000000000e+00,5.000000000000000000e+00,5.000000000000000000e+00,5.000000000000000000e+00,5.000000000000000000e+00,5.000000000000000000e+00,5.000000000000000000e+00,5.000000000000000000e+00,5.000000000000000000e+00,5.000000000000000000e+00,5.000000000000000000e+00,5.000000000000000000e+00,5.000000000000000000e+00,5.000000000000000000e+00,4.854710102081298828e+00,4.955996990203857422e+00,4.978702068328857422e+00,4.988998413085937500e+00,4.996670246124267578e+00,5.000000000000000000e+00,5.000000000000000000e+00,5.000000000000000000e+00,5.000000000000000000e+00,5.000000000000000000e+00,5.000000000000000000e+00,5.000000000000000000e+00,5.000000000000000000e+00,5.000000000000000000e+00,5.000000000000000000e+00,5.000000000000000000e+00,4.849082469940185547e+00,4.659218788146972656e+00,4.483662605285644531e+00,4.320855617523193359e+00,4.169458389282226562e+00,4.028310775756835938e+00,3.896407604217529297e+00,3.772867918014526367e+00,3.656921625137329102e+00,3.547889232635498047e+00,3.445170640945434570e+00,3.348232030868530273e+00,3.256599664688110352e+00,3.169848918914794922e+00,3.087599992752075195e+00,3.009511709213256836e+00,2.935275554656982422e+00,2.864613771438598633e+00,2.797273874282836914e+00,2.733027696609497070e+00,2.671666383743286133e+00,2.612999677658081055e+00,2.556854009628295898e+00,2.503070592880249023e+00,2.451503276824951172e+00,2.402017593383789062e+00,2.354490518569946289e+00,2.308807373046875000e+00,2.264863491058349609e+00,2.222561120986938477e+00,2.181809902191162109e+00,2.142526149749755859e+00,2.104631900787353516e+00,2.068054914474487305e+00,2.032727718353271484e+00,1.998587012290954590e+00,1.965574383735656738e+00,1.933634281158447266e+00,1.902715921401977539e+00,1.872770786285400391e+00,1.843753337860107422e+00
5.000000000000000000e+00,5.000000000000000000e+00,5.000000000000000000e+00,5.000000000000000000e+00,5.000000000000000000e+00,5.000000000000000000e+00,5.000000000000000000e+00,5.000000000000000000e+00,5.000000000000000000e+00,5.000000000000000000e+00,5.000000000000000000e+00,5.000000000000000000e+00,5.000000000000000000e+00,5.000000000000000000e+00,5.000000000000000000e+00,5.000000000000000000e+00,5.000000000000000000e+00,5.000000000000000000e+00,5.000000000000000000e+00,5.000000000000000000e+00,5.000000000000000000e+00,5.000000000000000000e+00,5.000000000000000000e+00,4.811443328857421875e+00,4.801570892333984375e+00,4.977988243103027344e+00,4.947234153747558594e+00,4.947957515716552734e+00,5.000000000000000000e+00,5.000000000000000000e+00,5.000000000000000000e+00,5.000000000000000000e+00,5.000000000000000000e+00,5.000000000000000000e+00,5.000000000000000000e+00,5.000000000000000000e+00,5.000000000000000000e+00,5.000000000000000000e+00,5.000000000000000000e+00,4.849221229553222656e+00,4.659346580505371094e+00,4.483781337738037109e+00,4.320965766906738281e+00,4.169560909271240234e+00,4.028406620025634766e+00,3.896496772766113281e+00,3.772952079772949219e+00,3.657000541687011719e+00,3.547963619232177734e+00,3.445240259170532227e+00,3.348298311233520508e+00,3.256662130355834961e+00,3.169908046722412109e+00,3.087656021118164062e+00,3.009564876556396484e+00,2.935326576232910156e+00,2.864662170410156250e+00,2.797320127487182617e+00,2.733071565628051758e+00,2.671708345413208008e+00,2.613039970397949219e+00,2.556892633438110352e+00,2.503107547760009766e+00,2.451538562774658203e+00,2.402051687240600586e+00,2.354523181915283203e+00,2.308838844299316406e+00,2.264893770217895508e+00,2.222590208053588867e+00,2.181838035583496094e+00,2.142553091049194336e+00,2.104658126831054688e+00,2.068079948425292969e+00,2.032752037048339844e+00,1.998610615730285645e+00,1.965597152709960938e+00,1.933656454086303711e+00,1.902737259864807129e+00,1.872791409492492676e+00,1.843773365020751953e+00
5.000000000000000000e+00,5.000000000000000000e+00,5.000000000000000000e+00,5.000000000000000000e+00,5.000000000000000000e+00,5.000000000000000000e+00,5.000000000000000000e+00,5.000000000000000000e+00,5.000000000000000000e+00,5.000000000000000000e+00,5.000000000000000000e+00,5.000000000000000000e+00,5.000000000000000000e+00,5.000000000000000000e+00,5.000000000000000000e+00,5.000000000000000000e+00,5.000000000000000000e+00,5.000000000000000000e+00,5.000000000000000000e+00,5.000000000000000000e+00,5.000000000000000000e+00,5.000000000000000000e+00,5.000000000000000000e+00,4.772450447082519531e+00,4.981688022613525391e+00,5.000000000000000000e+00,4.935319900512695312e+00,4.905896663665771484e+00,5.000000000000000000e+00,5.000000000000000000e+00,5.000000000000000000e+00,5.000000000000000000e+00,5.000000000000000000e+00,5.000000000000000000e+00,5.000000000000000000e+00,5.000000000000000000e+00,5.000000000000000000e+00,5.000000000000000000e+00,5.000000000000000000e+00,4.849359512329101562e+00,4.659474372863769531e+00,4.483899593353271484e+00,4.321075916290283203e+00,4.169662952423095703e+00,4.028502464294433594e+00,3.896586179733276367e+00,3.773036003112792969e+00,3.657079458236694336e+00,3.548037767410278320e+00,3.445310354232788086e+00,3.348364114761352539e+00,3.256724834442138672e+00,3.169967174530029297e+00,3.087712287902832031e+00,3.009618282318115234e+00,2.935377120971679688e+00,2.864710569381713867e+00,2.797366380691528320e+00,2.733115673065185547e+00,2.671750307083129883e+00,2.613080263137817383e+00,2.556931257247924805e+00,2.503144502639770508e+00,2.451574087142944336e+00,2.402085542678833008e+00,2.354555845260620117e+00,2.308870315551757812e+00,2.264924049377441406e+00,2.222619295120239258e+00,2.181866168975830078e+00,2.142580270767211914e+00,2.104684114456176758e+00,2.068105220794677734e+00,2.032776355743408203e+00,1.998634219169616699e+00,1.965620040893554688e+00,1.933678507804870605e+00,1.902758717536926270e+00,1.872812151908874512e+00,1.843793392181396484e+00
5.000000000000000000e+00,5.000000000000000000e+00,5.000000000000000000e+00,5.000000000000000000e+00,5.000000000000000000e+00,5.000000000000000000e+00,5.000000000000000000e+00,5.000000000000000000e+00,5.000000000000000000e+00,5.000000000000000000e+00,5.000000000000000000e+00,5.000000000000000000e+00,5.000000000000000000e+00,5.000000000000000000e+00,5.000000000000000000e+00,5.000000000000000000e+00,5.000000000000000000e+00,5.000000000000000000e+00,5.000000000000000000e+00,5.000000000000000000e+00,5.000000000000000000e+00,5.000000000000000000e+00,5.000000000000000000e+00,5.000000000000000000e+00,5.000000000000000000e+00,5.000000000000000000e+00,4.912919044494628906e+00,4.873178005218505859e+00,5.000000000000000000e+00,5.000000000000000000e+00,5.000000000000000000e+00,5.000000000000000000e+00,5.000000000000000000e+00,5.000000000000000000e+00,5.000000000000000000e+00,5.000000000000000000e+00,5.000000000000000000e+00,5.000000000000000000e+00,5.000000000000000000e+00,4.849498271942138672e+00,4.659602642059326172e+00,4.484018325805664062e+00,4.321185588836669922e+00,4.169765472412109375e+00,4.028597831726074219e+00,3.896675825119018555e+00,3.773119449615478516e+00,3.657158374786376953e+00,3.548112154006958008e+00,3.445380449295043945e+00,3.348430156707763672e+00,3.256786823272705078e+00,3.170026540756225586e+00,3.087768554687500000e+00,3.009671688079833984e+00,2.935427904129028320e+00,2.864758968353271484e+00,2.797412395477294922e+00,2.733159780502319336e+00,2.671792507171630859e+00,2.613120317459106445e+00,2.556969881057739258e+00,2.503181457519531250e+00,2.451609611511230469e+00,2.402119636535644531e+00,2.354588508605957031e+00,2.308901786804199219e+00,2.264954328536987305e+00,2.222648382186889648e+00,2.181894063949584961e+00,2.142607450485229492e+00,2.104710340499877930e+00,2.068130493164062500e+00,2.032800674438476562e+00,1.998657703399658203e+00,1.965642809867858887e+00,1.933700561523437500e+00,1.902780055999755859e+00,1.872832655906677246e+00,1.843813419342041016e+00
5.000000000000000000e+00,5.000000000000000000e+00,5.000000000000000000e+00,5.000000000000000000e+00,5.000000000000000000e+00,5.000000000000000000e+00,5.000000000000000000e+00,5.000000000000000000e+00,5.000000000000000000e+00,5.000000000000000000e+00,5.000000000000000000e+00,5.000000000000000000e+00,5.000000000000000000e+00,5.000000000000000000e+00,5.000000000000000000e+00,5.000000000000000000e+00,5.000000000000000000e+00,5.000000000000000000e+00,5.000000000000000000e+00,5.000000000000000000e+00,5.000000000000000000e+00,5.000000000000000000e+00,5.000000000000000000e+00,5.000000000000000000e+00,5.000000000000000000e+00,5.000000000000000000e+00,5.000000000000000000e+00,4.866698741912841797e+00,5.000000000000000000e+00,5.000000000000000000e+00,5.000000000000000000e+00,5.000000000000000000e+00,5.000000000000000000e+00,5.000000000000000000e+00,5.000000000000000000e+00,5.000000000000000000e+00,5.000000000000000000e+00,5.000000000000000000e+00,5.000000000000000000e+00,4.849635124206542969e+00,4.659730434417724609e+00,4.484137058258056641e+00,4.321295738220214844e+00,4.169867992401123047e+00,4.028693675994873047e+00,3.896765470504760742e+00,3.773203611373901367e+00,3.657237052917480469e+00,3.548186302185058594e+00,3.445450305938720703e+00,3.348496198654174805e+00,3.256849288940429688e+00,3.170085430145263672e+00,3.087824821472167969e+00,3.009725093841552734e+00,2.935478687286376953e+00,2.864807128906250000e+00,2.797458648681640625e+00,2.733203887939453125e+00,2.671834468841552734e+00,2.613160610198974609e+00,2.557008266448974609e+00,2.503218412399291992e+00,2.451644897460937500e+00,2.402153730392456055e+00,2.354621171951293945e+00,2.308933019638061523e+00,2.264984607696533203e+00,2.222677469253540039e+00,2.181922197341918945e+00,2.142634391784667969e+00,2.104736566543579102e+00,2.068155765533447266e+00,2.032824993133544922e+00,1.998681306838989258e+00,1.965665340423583984e+00,1.933722615242004395e+00,1.902801394462585449e+00,1.872853279113769531e+00,1.843833565711975098e+00
5.000000000000000000e+00,5.000000000000000000e+00,5.000000000000000000e+00,5.000000000000000000e+00,5.000000000000000000e+00,5.000000000000000000e+00,5.000000000000000000e+00,5.000000000000000000e+00,5.000000000000000000e+00,5.000000000000000000e+00,5.000000000000000000e+00,5.000000000000000000e+00,5.000000000000000000e+00,5.000000000000000000e+00,5.000000000000000000e+00,5.000000000000000000e+00,5.000000000000000000e+00,5.000000000000000000e+00,5.000000000000000000e+00,5.000000000000000000e+00,5.000000000000000000e+00,5.000000000000000000e+00,5.000000000000000000e+00,5.000000000000000000e+00,5.000000000000000000e+00,5.000000000000000000e+00,5.000000000000000000e+00,4.890160560607910156e+00,5.000000000000000000e+00,5.000000000000000000e+00,5.000000000000000000e+00,5.000000000000000000e+00,5.000000000000000000e+00,5.000000000000000000e+00,5.000000000000000000e+00,5.000000000000000000e+00,5.000000000000000000e+00,5.000000000000000000e+00,5.000000000000000000e+00,4.849772453308105469e+00,4.659858703613281250e+00,4.484255313873291016e+00,4.321405887603759766e+00,4.169970512390136719e+00,4.028789043426513672e+00,3.896855115890502930e+00,3.773287534713745117e+00,3.657315969467163086e+00,3.548260211944580078e+00,3.445520162582397461e+00,3.348562240600585938e+00,3.256911993026733398e+00,3.170144796371459961e+00,3.087880849838256836e+00,3.009778738021850586e+00,2.935529470443725586e+00,2.864855527877807617e+00,2.797504663467407227e+00,2.733247995376586914e+00,2.671876668930053711e+00,2.613200902938842773e+00,2.557046890258789062e+00,2.503255128860473633e+00,2.451680421829223633e+00,2.402187824249267578e+00,2.354653835296630859e+00,2.308964490890502930e+00,2.265014886856079102e+00,2.222706556320190430e+00,2.181950092315673828e+00,2.142661333084106445e+00,2.104762554168701172e+00,2.068181037902832031e+00,2.032849550247192383e+00,1.998704910278320312e+00,1.965688109397888184e+00,1.933744668960571289e+00,1.902822732925415039e+00,1.872874021530151367e+00,1.843853592872619629e+00
5.000000000000000000e+00,5.000000000000000000e+00,5.000000000000000000e+00,5.000000000000000000e+00,5.000000000000000000e+00,5.000000000000000000e+00,5.000000000000000000e+00,5.000000000000000000e+00,5.000000000000000000e+00,5.000000000000000000e+00,5.000000000000000000e+00,5.000000000000000000e+00,5.000000000000000000e+00,5.000000000000000000e+00,5.000000000000000000e+00,5.000000000000000000e+00,5.000000000000000000e+00,5.000000000000000000e+00,5.000000000000000000e+00,5.000000000000000000e+00,5.000000000000000000e+00,5.000000000000000000e+00,5.000000000000000000e+00,5.000000000000000000e+00,5.000000000000000000e+00,5.000000000000000000e+00,5.000000000000000000e+00,4.891986370086669922e+00,5.000000000000000000e+00,5.000000000000000000e+00,5.000000000000000000e+00,5.000000000000000000e+00,5.000000000000000000e+00,5.000000000000000000e+00,5.000000000000000000e+00,5.000000000000000000e+00,5.000000000000000000e+00,5.000000000000000000e+00,5.000000000000000000e+00,4.849909782409667969e+00,4.659984111785888672e+00,4.484374046325683594e+00,4.321516036987304688e+00,4.170073032379150391e+00,4.028884887695312500e+00,3.896944761276245117e+00,3.773371696472167969e+00,3.657394886016845703e+00,3.548334360122680664e+00,3.445590019226074219e+00,3.348628520965576172e+00,3.256974697113037109e+00,3.170204162597656250e+00,3.087937116622924805e+00,3.009831905364990234e+00,2.935580492019653320e+00,2.864903926849365234e+00,2.797550678253173828e+00,2.733291864395141602e+00,2.671918869018554688e+00,2.613241195678710938e+00,2.557085275650024414e+00,2.503292083740234375e+00,2.451715707778930664e+00,2.402221679687500000e+00,2.354686498641967773e+00,2.308995962142944336e+00,2.265044927597045898e+00,2.222735881805419922e+00,2.181978225708007812e+00,2.142688512802124023e+00,2.104788541793823242e+00,2.068206071853637695e+00,2.032873868942260742e+00,1.998728513717651367e+00,1.965710997581481934e+00,1.933766722679138184e+00,1.902844190597534180e+00,1.872894644737243652e+00,1.843873620033264160e+00
5.000000000000000000e+00,5.000000000000000000e+00,5.000000000000000000e+00,5.000000000000000000e+00,5.000000000000000000e+00,5.000000000000000000e+00,5.000000000000000000e+00,5.000000000000000000e+00,5.000000000000000000e+00,5.000000000000000000e+00,5.000000000000000000e+00,5.000000000000000000e+00,5.000000000000000000e+00,5.000000000000000000e+00,5.000000000000000000e+00,5.000000000000000000e+00,5.000000000000000000e+00,5.000000000000000000e+00,5.000000000000000000e+00,5.000000000000000000e+00,5.000000000000000000e+00,5.000000000000000000e+00,5.000000000000000000e+00,5.000000000000000000e+00,5.000000000000000000e+00,5.000000000000000000e+00,5.000000000000000000e+00,4.889187812805175781e+00,5.000000000000000000e+00,5.000000000000000000e+00,5.000000000000000000e+00,5.000000000000000000e+00,5.000000000000000000e+00,5.000000000000000000e+00,5.000000000000000000e+00,5.000000000000000000e+00,5.000000000000000000e+00,5.000000000000000000e+00,5.000000000000000000e+00,4.850047111511230469e+00,4.660110950469970703e+00,4.484490394592285156e+00,4.321626186370849609e+00,4.170175552368164062e+00,4.028980731964111328e+00,3.897033929824829102e+00,3.773455619812011719e+00,3.657473564147949219e+00,3.548408746719360352e+00,3.445659875869750977e+00,3.348694324493408203e+00,3.257037162780761719e+00,3.170263290405273438e+00,3.087993383407592773e+00,3.009885311126708984e+00,2.935631275177001953e+00,2.864952564239501953e+00,2.797596931457519531e+00,2.733335971832275391e+00,2.671960830688476562e+00,2.613281488418579102e+00,2.557123899459838867e+00,2.503329277038574219e+00,2.451751232147216797e+00,2.402255773544311523e+00,2.354719400405883789e+00,2.309027433395385742e+00,2.265075206756591797e+00,2.222764730453491211e+00,2.182006359100341797e+00,2.142715692520141602e+00,2.104814767837524414e+00,2.068231344223022461e+00,2.032898187637329102e+00,1.998751997947692871e+00,1.965733766555786133e+00,1.933788776397705078e+00,1.902865290641784668e+00,1.872915387153625488e+00,1.843893766403198242e+00
5.000000000000000000e+00,5.000000000000000000e+00,5.000000000000000000e+00,5.000000000000000000e+00,5.000000000000000000e+00,5.000000000000000000e+00,5.000000000000000000e+00,5.000000000000000000e+00,5.000000000000000000e+00,5.000000000000000000e+00,5.000000000000000000e+00,5.000000000000000000e+00,5.000000000000000000e+00,5.000000000000000000e+00,5.000000000000000000e+00,5.000000000000000000e+00,5.000000000000000000e+00,5.000000000000000000e+00,5.000000000000000000e+00,5.000000000000000000e+00,5.000000000000000000e+00,5.000000000000000000e+00,5.000000000000000000e+00,5.000000000000000000e+00,5.000000000000000000e+00,5.000000000000000000e+00,5.000000000000000000e+00,4.904178142547607422e+00,5.000000000000000000e+00,5.000000000000000000e+00,5.000000000000000000e+00,5.000000000000000000e+00,5.000000000000000000e+00,5.000000000000000000e+00,5.000000000000000000e+00,5.000000000000000000e+00,5.000000000000000000e+00,5.000000000000000000e+00,5.000000000000000000e+00,4.850184440612792969e+00,4.660237789154052734e+00,4.484607696533203125e+00,4.321734905242919922e+00,4.170278072357177734e+00,4.029076099395751953e+00,3.897123575210571289e+00,3.773539066314697266e+00,3.657552480697631836e+00,3.548482894897460938e+00,3.445729970932006836e+00,3.348760366439819336e+00,3.257099390029907227e+00,3.170322656631469727e+00,3.088049650192260742e+00,3.009938716888427734e+00,2.935681819915771484e+00,2.865000963211059570e+00,2.797643184661865234e+00,2.733380079269409180e+00,2.672002792358398438e+00,2.613321542739868164e+00,2.557162523269653320e+00,2.503366231918334961e+00,2.451786756515502930e+00,2.402289628982543945e+00,2.354751825332641602e+00,2.309058904647827148e+00,2.265105485916137695e+00,2.222794055938720703e+00,2.182034254074096680e+00,2.142742633819580078e+00,2.104840993881225586e+00,2.068256616592407227e+00,2.032922506332397461e+00,1.998775362968444824e+00,1.965756535530090332e+00,1.933810830116271973e+00,1.902886629104614258e+00,1.872936129570007324e+00,1.843913793563842773e+00
5.000000000000000000e+00,5.000000000000000000e+00,5.000000000000000000e+00,5.000000000000000000e+00,5.000000000000000000e+00,5.000000000000000000e+00,5.000000000000000000e+00,5.000000000000000000e+00,5.000000000000000000e+00,5.000000000000000000e+00,5.000000000000000000e+00,5.000000000000000000e+00,5.000000000000000000e+00,5.000000000000000000e+00,5.000000000000000000e+00,5.000000000000000000e+00,5.000000000000000000e+00,5.000000000000000000e+00,5.000000000000000000e+00,5.000000000000000000e+00,5.000000000000000000e+00,5.000000000000000000e+00,5.000000000000000000e+00,5.000000000000000000e+00,5.000000000000000000e+00,5.000000000000000000e+00,5.000000000000000000e+00,4.895743370056152344e+00,5.000000000000000000e+00,5.000000000000000000e+00,5.000000000000000000e+00,5.000000000000000000e+00,5.000000000000000000e+00,5.000000000000000000e+00,5.000000000000000000e+00,5.000000000000000000e+00,5.000000000000000000e+00,5.000000000000000000e+00,5.000000000000000000e+00,4.850321769714355469e+00,4.660364151000976562e+00,4.484724998474121094e+00,4.321844100952148438e+00,4.170380592346191406e+00,4.029171943664550781e+00,3.897212982177734375e+00,3.773622989654541016e+00,3.657630920410156250e+00,3.548557281494140625e+00,3.445800065994262695e+00,3.348826646804809570e+00,3.257162094116210938e+00,3.170381784439086914e+00,3.088105916976928711e+00,3.009992122650146484e+00,2.935732841491699219e+00,2.865049123764038086e+00,2.797689437866210938e+00,2.733424186706542969e+00,2.672044992446899414e+00,2.613361835479736328e+00,2.557200908660888672e+00,2.503403186798095703e+00,2.451822042465209961e+00,2.402323722839355469e+00,2.354784488677978516e+00,2.309090375900268555e+00,2.265135765075683594e+00,2.222823143005371094e+00,2.182062387466430664e+00,2.142769575119018555e+00,2.104866981506347656e+00,2.068281888961791992e+00,2.032946825027465820e+00,1.998798966407775879e+00,1.965779423713684082e+00,1.933832883834838867e+00,1.902907967567443848e+00,1.872956752777099609e+00,1.843933582305908203e+00
4.875404834747314453e+00,4.874194622039794922e+00,4.872984886169433594e+00,4.871775627136230469e+00,4.870566844940185547e+00,4.869359016418457031e+00,4.868151664733886719e+00,4.866944789886474609e+00,4.865738868713378906e+00,4.864533424377441406e+00,4.863328456878662109e+00,4.862123966217041016e+00,4.860920429229736328e+00,4.859716892242431641e+00,4.858514785766601562e+00,4.857312202453613281e+00,4.856111049652099609e+00,4.854910373687744141e+00,4.853710174560546875e+00,4.852510452270507812e+00,4.851311683654785156e+00,4.850112915039062500e+00,4.848915100097656250e+00,4.847718238830566406e+00,4.846521377563476562e+00,4.845325469970703125e+00,4.844130039215087891e+00,4.842935085296630859e+00,4.841740608215332031e+00,4.840547084808349609e+00,4.839353561401367188e+00,4.838160991668701172e+00,4.836969375610351562e+00,4.835777759552001953e+00,4.834587097167968750e+00,4.833396911621093750e+00,4.832207202911376953e+00,4.831018447875976562e+00,4.829829692840576172e+00,4.828641891479492188e+00,4.660490989685058594e+00,4.484842777252197266e+00,4.321952819824218750e+00,4.170481204986572266e+00,4.029267787933349609e+00,3.897302389144897461e+00,3.773707151412963867e+00,3.657710075378417969e+00,3.548631191253662109e+00,3.445870161056518555e+00,3.348892927169799805e+00,3.257224559783935547e+00,3.170441150665283203e+00,3.088161945343017578e+00,3.010045766830444336e+00,2.935783624649047852e+00,2.865097522735595703e+00,2.797735214233398438e+00,2.733468055725097656e+00,2.672087192535400391e+00,2.613402128219604492e+00,2.557239532470703125e+00,2.503439903259277344e+00,2.451857566833496094e+00,2.402357816696166992e+00,2.354817390441894531e+00,2.309121608734130859e+00,2.265166044235229492e+00,2.222852230072021484e+00,2.182090520858764648e+00,2.142796754837036133e+00,2.104892969131469727e+00,2.068307161331176758e+00,2.032971382141113281e+00,1.998822569847106934e+00,1.965802192687988281e+00,1.933854818344116211e+00,1.902929425239562988e+00,1.872977495193481445e+00,1.843953728675842285e+00
3.778247594833374023e+00,3.777520656585693359e+00,3.776793956756591797e+00,3.776067733764648438e+00,3.775341510772705078e+00,3.774615764617919922e+00,3.773890256881713867e+00,3.773164987564086914e+00,3.772439956665039062e+00,3.771715164184570312e+00,3.770990848541259766e+00,3.770266771316528320e+00,3.769542932510375977e+00,3.768819332122802734e+00,3.768095970153808594e+00,3.767373085021972656e+00,3.766650199890136719e+00,3.765927791595458984e+00,3.765205621719360352e+00,3.764483690261840820e+00,3.763761997222900391e+00,3.763040542602539062e+00,3.762319564819335938e+00,3.761598825454711914e+00,3.760878324508666992e+00,3.760158061981201172e+00,3.759438037872314453e+00,3.758718013763427734e+00,3.757998466491699219e+00,3.757279396057128906e+00,3.756560325622558594e+00,3.755841732025146484e+00,3.755123615264892578e+00,3.754405498504638672e+00,3.753687620162963867e+00,3.752970218658447266e+00,3.752252817153930664e+00,3.751535892486572266e+00,3.750819206237792969e+00,3.750102758407592773e+00,3.749386787414550781e+00,3.748670816421508789e+00,3.747955322265625000e+00,3.747239828109741211e+00,3.746524810791015625e+00,3.745810031890869141e+00,3.745095729827880859e+00,3.657788991928100586e+00,3.548705577850341797e+00,3.445939779281616211e+00,3.348958969116210938e+00,3.257287263870239258e+00,3.170500278472900391e+00,3.088218212127685547e+00,3.010098934173583984e+00,2.935834407806396484e+00,2.865145921707153320e+00,2.797781467437744141e+00,2.733511924743652344e+00,2.672129154205322266e+00,2.613442420959472656e+00,2.557278156280517578e+00,2.503476858139038086e+00,2.451892852783203125e+00,2.402391910552978516e+00,2.354850053787231445e+00,2.309153079986572266e+00,2.265196084976196289e+00,2.222881555557250977e+00,2.182118654251098633e+00,2.142823934555053711e+00,2.104919195175170898e+00,2.068332195281982422e+00,2.032995700836181641e+00,1.998846054077148438e+00,1.965824961662292480e+00,1.933876872062683105e+00,1.902950763702392578e+00,1.872998237609863281e+00,1.843973755836486816e+00
3.084185123443603516e+00,3.083700656890869141e+00,3.083216428756713867e+00,3.082732439041137695e+00,3.082248449325561523e+00,3.081764698028564453e+00,3.081280946731567383e+00,3.080797433853149414e+00,3.080314159393310547e+00,3.079831123352050781e+00,3.079348087310791016e+00,3.078865051269531250e+00,3.078382492065429688e+00,3.077899694442749023e+00,3.077417373657226562e+00,3.076935052871704102e+00,3.076452970504760742e+00,3.075970888137817383e+00,3.075489044189453125e+00,3.075007438659667969e+00,3.074525833129882812e+00,3.074044466018676758e+00,3.073563337326049805e+00,3.073081970214843750e+00,3.072601079940795898e+00,3.072120189666748047e+00,3.071639537811279297e+00,3.071159124374389648e+00,3.070678949356079102e+00,3.070198774337768555e+00,3.069718599319458008e+00,3.069238901138305664e+00,3.068759202957153320e+00,3.068279504776000977e+00,3.067800045013427734e+00,3.067320823669433594e+00,3.066841840744018555e+00,3.066362857818603516e+00,3.065883874893188477e+00,3.065405368804931641e+00,3.064926862716674805e+00,3.064448356628417969e+00,3.063970327377319336e+00,3.063492298126220703e+00,3.063014268875122070e+00,3.062536478042602539e+00,3.062058925628662109e+00,3.061581373214721680e+00,3.061104059219360352e+00,3.060626983642578125e+00,3.060149908065795898e+00,3.059673070907592773e+00,3.059196233749389648e+00,3.058719635009765625e+00,3.010152339935302734e+00,2.935885429382324219e+00,2.865194320678710938e+00,2.797827720642089844e+00,2.733556032180786133e+00,2.672171115875244141e+00,2.613482713699340820e+00,2.557316780090332031e+00,2.503513813018798828e+00,2.451928377151489258e+00,2.402425765991210938e+00,2.354882717132568359e+00,2.309184551239013672e+00,2.265226364135742188e+00,2.222910404205322266e+00,2.182146787643432617e+00,2.142850875854492188e+00,2.104945421218872070e+00,2.068357467651367188e+00,2.033020019531250000e+00,1.998869657516479492e+00,1.965847849845886230e+00,1.933898925781250000e+00,1.902972102165222168e+00,1.873018860816955566e+00,1.843993782997131348e+00
2.605547189712524414e+00,2.605201482772827148e+00,2.604855775833129883e+00,2.604510307312011719e+00,2.604164838790893555e+00,2.603819370269775391e+00,2.603474140167236328e+00,2.603128910064697266e+00,2.602783918380737305e+00,2.602438926696777344e+00,2.602093935012817383e+00,2.601749181747436523e+00,2.601404428482055664e+00,2.601059913635253906e+00,2.600715398788452148e+00,2.600370883941650391e+00,2.600026607513427734e+00,2.599682331085205078e+00,2.599338054656982422e+00,2.598993778228759766e+00,2.598649740219116211e+00,2.598305940628051758e+00,2.597962141036987305e+00,2.597618341445922852e+00,2.597274780273437500e+00,2.596931219100952148e+00,2.596587896347045898e+00,2.596244335174560547e+00,2.595901250839233398e+00,2.595557928085327148e+00,2.595214843750000000e+00,2.594871997833251953e+00,2.594529151916503906e+00,2.594186305999755859e+00,2.593843460083007812e+00,2.593500852584838867e+00,2.593158245086669922e+00,2.592815876007080078e+00,2.592473506927490234e+00,2.592131376266479492e+00,2.591789007186889648e+00,2.591447114944458008e+00,2.591104984283447266e+00,2.590763092041015625e+00,2.590421199798583984e+00,2.590079545974731445e+00,2.589737892150878906e+00,2.589396476745605469e+00,2.589054822921752930e+00,2.588713645935058594e+00,2.588371992111206055e+00,2.588030815124511719e+00,2.587689876556396484e+00,2.587348937988281250e+00,2.587007999420166016e+00,2.586667060852050781e+00,2.586326360702514648e+00,2.585985660552978516e+00,2.585645198822021484e+00,2.585304737091064453e+00,2.584964275360107422e+00,2.557355165481567383e+00,2.503550767898559570e+00,2.451963901519775391e+00,2.402459859848022461e+00,2.354915380477905273e+00,2.309216022491455078e+00,2.265256643295288086e+00,2.222939729690551758e+00,2.182174682617187500e+00,2.142878055572509766e+00,2.104971408843994141e+00,2.068382740020751953e+00,2.033044338226318359e+00,1.998893260955810547e+00,1.965870618820190430e+00,1.933920979499816895e+00,1.902993440628051758e+00,1.873039364814758301e+00,1.844013929367065430e+00
2.255524396896362305e+00,2.255264759063720703e+00,2.255005359649658203e+00,2.254745721817016602e+00,2.254486322402954102e+00,2.254226922988891602e+00,2.253967761993408203e+00,2.253708362579345703e+00,2.253449201583862305e+00,2.253190040588378906e+00,2.252930879592895508e+00,2.252671957015991211e+00,2.252413034439086914e+00,2.252154111862182617e+00,2.251895189285278320e+00,2.251636505126953125e+00,2.251377820968627930e+00,2.251119136810302734e+00,2.250860452651977539e+00,2.250601768493652344e+00,2.250343561172485352e+00,2.250084877014160156e+00,2.249826669692993164e+00,2.249568223953247070e+00,2.249310255050659180e+00,2.249052762985229492e+00,2.248795032501220703e+00,2.248537540435791016e+00,2.248280048370361328e+00,2.248022556304931641e+00,2.247765302658081055e+00,2.247508049011230469e+00,2.247250795364379883e+00,2.246993541717529297e+00,2.246736526489257812e+00,2.246479272842407227e+00,2.246222257614135742e+00,2.245965480804443359e+00,2.245708465576171875e+00,2.245451688766479492e+00,2.245194911956787109e+00,2.244938135147094727e+00,2.244681596755981445e+00,2.244424819946289062e+00,2.244168281555175781e+00,2.243911981582641602e+00,2.243655204772949219e+00,2.243398904800415039e+00,2.243142604827880859e+00,2.242886304855346680e+00,2.242630243301391602e+00,2.242374181747436523e+00,2.242117881774902344e+00,2.241862058639526367e+00,2.241605997085571289e+00,2.241350173950195312e+00,2.241094350814819336e+00,2.240838527679443359e+00,2.240582704544067383e+00,2.240327119827270508e+00,2.240071535110473633e+00,2.239815950393676758e+00,2.239560604095458984e+00,2.239305019378662109e+00,2.239049673080444336e+00,2.238794326782226562e+00,2.238539218902587891e+00,2.238283872604370117e+00,2.222968816757202148e+00,2.182202816009521484e+00,2.142904996871948242e+00,2.104997634887695312e+00,2.068408012390136719e+00,2.033068656921386719e+00,1.998916864395141602e+00,1.965893149375915527e+00,1.933943033218383789e+00,1.903014898300170898e+00,1.873060107231140137e+00,1.844033956527709961e+00
1.988430261611938477e+00,1.988228321075439453e+00,1.988026738166809082e+00,1.987825036048889160e+00,1.987623453140258789e+00,1.987421631813049316e+00,1.987220168113708496e+00,1.987018704414367676e+00,1.986817121505737305e+00,1.986615657806396484e+00,1.986414313316345215e+00,1.986213088035583496e+00,1.986011505126953125e+00,1.985810399055480957e+00,1.985609173774719238e+00,1.985407829284667969e+00,1.985206723213195801e+00,1.985005617141723633e+00,1.984804630279541016e+00,1.984603404998779297e+00,1.984402418136596680e+00,1.984201550483703613e+00,1.984000444412231445e+00,1.983799695968627930e+00,1.983598947525024414e+00,1.983398199081420898e+00,1.983197212219238281e+00,1.982996582984924316e+00,1.982795953750610352e+00,1.982595443725585938e+00,1.982394695281982422e+00,1.982194185256958008e+00,1.981993794441223145e+00,1.981793045997619629e+00,1.981592774391174316e+00,1.981392383575439453e+00,1.981192111968994141e+00,1.980991601943969727e+00,1.980791449546813965e+00,1.980591297149658203e+00,1.980390906333923340e+00,1.980190873146057129e+00,1.979990839958190918e+00,1.979790806770324707e+00,1.979590535163879395e+00,1.979390621185302734e+00,1.979190826416015625e+00,1.978990674018859863e+00,1.978790879249572754e+00,1.978591084480285645e+00,1.978391408920288086e+00,1.978191494941711426e+00,1.977991819381713867e+00,1.977792263031005859e+00,1.977592468261718750e+00,1.977392911911010742e+00,1.977193474769592285e+00,1.976994037628173828e+00,1.976794362068176270e+00,1.976595044136047363e+00,1.976395726203918457e+00,1.976196169853210449e+00,1.975996971130371094e+00,1.975797772407531738e+00,1.975598573684692383e+00,1.975399255752563477e+00,1.975200176239013672e+00,1.975001096725463867e+00,1.974801898002624512e+00,1.974602937698364258e+00,1.974403977394104004e+00,1.974205136299133301e+00,1.974006056785583496e+00,1.973807215690612793e+00,1.973608493804931641e+00,1.965915918350219727e+00,1.933965086936950684e+00,1.903036236763000488e+00,1.873080849647521973e+00,1.844053983688354492e+00
1.777895689010620117e+00,1.777734398841857910e+00,1.777573227882385254e+00,1.777411818504333496e+00,1.777250647544860840e+00,1.777089476585388184e+00,1.776928424835205078e+00,1.776767134666442871e+00,1.776606082916259766e+00,1.776445031166076660e+00,1.776283860206604004e+00,1.776122927665710449e+00,1.775961995124816895e+00,1.775801062583923340e+00,1.775640010833740234e+00,1.775479197502136230e+00,1.775318384170532227e+00,1.775157332420349121e+00,1.774996638298034668e+00,1.774835824966430664e+00,1.774675130844116211e+00,1.774514317512512207e+00,1.774353623390197754e+00,1.774193048477172852e+00,1.774032235145568848e+00,1.773871660232543945e+00,1.773711204528808594e+00,1.773550629615783691e+00,1.773389935493469238e+00,1.773229479789733887e+00,1.773069143295288086e+00,1.772908568382263184e+00,1.772748231887817383e+00,1.772587895393371582e+00,1.772427558898925781e+00,1.772267103195190430e+00,1.772106885910034180e+00,1.771946668624877930e+00,1.771786212921142578e+00,1.771626114845275879e+00,1.771466016769409180e+00,1.771305918693542480e+00,1.771145582199096680e+00,1.770985603332519531e+00,1.770825624465942383e+00,1.770665407180786133e+00,1.770505428314208984e+00,1.770345568656921387e+00,1.770185589790344238e+00,1.770025610923767090e+00,1.769865751266479492e+00,1.769705891609191895e+00,1.769545912742614746e+00,1.769386172294616699e+00,1.769226551055908203e+00,1.769066810607910156e+00,1.768906950950622559e+00,1.768747329711914062e+00,1.768587708473205566e+00,1.768427968025207520e+00,1.768268346786499023e+00,1.768108844757080078e+00,1.767949342727661133e+00,1.767789721488952637e+00,1.767630338668823242e+00,1.767470955848693848e+00,1.767311573028564453e+00,1.767151951789855957e+00,1.766992688179016113e+00,1.766833424568176270e+00,1.766673922538757324e+00,1.766514658927917480e+00,1.766355514526367188e+00,1.766196370124816895e+00,1.766036987304687500e+00,1.765877842903137207e+00,1.765718817710876465e+00,1.765559554100036621e+00,1.765400528907775879e+00,1.765241622924804688e+00
1.607675552368164062e+00,1.607543468475341797e+00,1.607411623001098633e+00,1.607279896736145020e+00,1.607148051261901855e+00,1.607016086578369141e+00,1.606884360313415527e+00,1.606752634048461914e+00,1.606620788574218750e+00,1.606489062309265137e+00,1.606357455253601074e+00,1.606225728988647461e+00,1.606094002723693848e+00,1.605962395668029785e+00,1.605830788612365723e+00,1.605699062347412109e+00,1.605567574501037598e+00,1.605436086654663086e+00,1.605304598808288574e+00,1.605172991752624512e+00,1.605041503906250000e+00,1.604910016059875488e+00,1.604778528213500977e+00,1.604647159576416016e+00,1.604515790939331055e+00,1.604384422302246094e+00,1.604252934455871582e+00,1.604121685028076172e+00,1.603990316390991211e+00,1.603859066963195801e+00,1.603727698326110840e+00,1.603596448898315430e+00,1.603465318679809570e+00,1.603333950042724609e+00,1.603202819824218750e+00,1.603071689605712891e+00,1.602940559387207031e+00,1.602809309959411621e+00,1.602678298950195312e+00,1.602547287940979004e+00,1.602416038513183594e+00,1.602285027503967285e+00,1.602154135704040527e+00,1.602023124694824219e+00,1.601892113685607910e+00,1.601761102676391602e+00,1.601630210876464844e+00,1.601499199867248535e+00,1.601368427276611328e+00,1.601237535476684570e+00,1.601106762886047363e+00,1.600975871086120605e+00,1.600845098495483398e+00,1.600714325904846191e+00,1.600583434104919434e+00,1.600452780723571777e+00,1.600322127342224121e+00,1.600191473960876465e+00,1.600060582160949707e+00,1.599929928779602051e+00,1.599799394607543945e+00,1.599668622016906738e+00,1.599538087844848633e+00,1.599407553672790527e+00,1.599277019500732422e+00,1.599146485328674316e+00,1.599015951156616211e+00,1.598885536193847656e+00,1.598755002021789551e+00,1.598624587059020996e+00,1.598494172096252441e+00,1.598363876342773438e+00,1.598233342170715332e+00,1.598103046417236328e+00,1.597972750663757324e+00,1.597842335700988770e+00,1.597712039947509766e+00,1.597581863403320312e+00,1.597451567649841309e+00,1.597321271896362305e+00
1.467201828956604004e+00,1.467091917991638184e+00,1.466982126235961914e+00,1.466872215270996094e+00,1.466762423515319824e+00,1.466652750968933105e+00,1.466542959213256836e+00,1.466433048248291016e+00,1.466323375701904297e+00,1.466213703155517578e+00,1.466103911399841309e+00,1.465994238853454590e+00,1.465884566307067871e+00,1.465775012969970703e+00,1.465665221214294434e+00,1.465555667877197266e+00,1.465445995330810547e+00,1.465336322784423828e+00,1.465226769447326660e+00,1.465117216110229492e+00,1.465007781982421875e+00,1.464898109436035156e+00,1.464788675308227539e+00,1.464679241180419922e+00,1.464569568634033203e+00,1.464460134506225586e+00,1.464350700378417969e+00,1.464241385459899902e+00,1.464131832122802734e+00,1.464022517204284668e+00,1.463913083076477051e+00,1.463803648948669434e+00,1.463694334030151367e+00,1.463585019111633301e+00,1.463475704193115234e+00,1.463366389274597168e+00,1.463257074356079102e+00,1.463147878646850586e+00,1.463038563728332520e+00,1.462929368019104004e+00,1.462820172309875488e+00,1.462710976600646973e+00,1.462601661682128906e+00,1.462492585182189941e+00,1.462383389472961426e+00,1.462274193763732910e+00,1.462165117263793945e+00,1.462056040763854980e+00,1.461946964263916016e+00,1.461837887763977051e+00,1.461728811264038086e+00,1.461619853973388672e+00,1.461510658264160156e+00,1.461401700973510742e+00,1.461292743682861328e+00,1.461183786392211914e+00,1.461074829101562500e+00,1.460965871810913086e+00,1.460856914520263672e+00,1.460747957229614258e+00,1.460639119148254395e+00,1.460530281066894531e+00,1.460421442985534668e+00,1.460312485694885254e+00,1.460203647613525391e+00,1.460094928741455078e+00,1.459986209869384766e+00,1.459877252578735352e+00,1.459768533706665039e+00,1.459659814834594727e+00,1.459550976753234863e+00,1.459442377090454102e+00,1.459333658218383789e+00,1.459225058555603027e+00,1.459116220474243164e+00,1.459007620811462402e+00,1.458899021148681641e+00,1.458790302276611328e+00,1.458681702613830566e+00,1.458573222160339355e+00
1.349303841590881348e+00,1.349210858345031738e+00,1.349117994308471680e+00,1.349025130271911621e+00,1.348932266235351562e+00,1.348839402198791504e+00,1.348746538162231445e+00,1.348653674125671387e+00,1.348560810089111328e+00,1.348468065261840820e+00,1.348375320434570312e+00,1.348282456398010254e+00,1.348189711570739746e+00,1.348096966743469238e+00,1.348004221916198730e+00,1.347911357879638672e+00,1.347818732261657715e+00,1.347725987434387207e+00,1.347633361816406250e+00,1.347540616989135742e+00,1.347447991371154785e+00,1.347355365753173828e+00,1.347262620925903320e+00,1.347169995307922363e+00,1.347077488899230957e+00,1.346984863281250000e+00,1.346892237663269043e+00,1.346799612045288086e+00,1.346707105636596680e+00,1.346614599227905273e+00,1.346521973609924316e+00,1.346429467201232910e+00,1.346336960792541504e+00,1.346244335174560547e+00,1.346151947975158691e+00,1.346059441566467285e+00,1.345967054367065430e+00,1.345874547958374023e+00,1.345782041549682617e+00,1.345689654350280762e+00,1.345597147941589355e+00,1.345504760742187500e+00,1.345412492752075195e+00,1.345320105552673340e+00,1.345227599143981934e+00,1.345135331153869629e+00,1.345043063163757324e+00,1.344950556755065918e+00,1.344858288764953613e+00,1.344766020774841309e+00,1.344673752784729004e+00,1.344581484794616699e+00,1.344489216804504395e+00,1.344396948814392090e+00,1.344304680824279785e+00,1.344212412834167480e+00,1.344120264053344727e+00,1.344028115272521973e+00,1.343935847282409668e+00,1.343843698501586914e+00,1.343751549720764160e+00,1.343659281730651855e+00,1.343567252159118652e+00,1.343475103378295898e+00,1.343383073806762695e+00,1.343290805816650391e+00,1.343198776245117188e+00,1.343106746673583984e+00,1.343014597892761230e+00,1.342922568321228027e+00,1.342830538749694824e+00,1.342738509178161621e+00,1.342646479606628418e+00,1.342554450035095215e+00,1.342462539672851562e+00,1.342370510101318359e+00,1.342278599739074707e+00,1.342186570167541504e+00,1.342094779014587402e+00,1.342002749443054199e+00
1.248944044113159180e+00,1.248864531517028809e+00,1.248784899711608887e+00,1.248705267906188965e+00,1.248625755310058594e+00,1.248546242713928223e+00,1.248466730117797852e+00,1.248387098312377930e+00,1.248307585716247559e+00,1.248228073120117188e+00,1.248148441314697266e+00,1.248069047927856445e+00,1.247989535331726074e+00,1.247910022735595703e+00,1.247830510139465332e+00,1.247751116752624512e+00,1.247671604156494141e+00,1.247592091560363770e+00,1.247512698173522949e+00,1.247433304786682129e+00,1.247353911399841309e+00,1.247274518013000488e+00,1.247195124626159668e+00,1.247115731239318848e+00,1.247036337852478027e+00,1.246956944465637207e+00,1.246877670288085938e+00,1.246798276901245117e+00,1.246718883514404297e+00,1.246639609336853027e+00,1.246560335159301758e+00,1.246480941772460938e+00,1.246401667594909668e+00,1.246322393417358398e+00,1.246243119239807129e+00,1.246163845062255859e+00,1.246084570884704590e+00,1.246005415916442871e+00,1.245926141738891602e+00,1.245846867561340332e+00,1.245767712593078613e+00,1.245688557624816895e+00,1.245609283447265625e+00,1.245530128479003906e+00,1.245450973510742188e+00,1.245371699333190918e+00,1.245292663574218750e+00,1.245213508605957031e+00,1.245134353637695312e+00,1.245055198669433594e+00,1.244976162910461426e+00,1.244897007942199707e+00,1.244817852973937988e+00,1.244738817214965820e+00,1.244659781455993652e+00,1.244580745697021484e+00,1.244501590728759766e+00,1.244422554969787598e+00,1.244343638420104980e+00,1.244264483451843262e+00,1.244185566902160645e+00,1.244106531143188477e+00,1.244027614593505859e+00,1.243948578834533691e+00,1.243869543075561523e+00,1.243790626525878906e+00,1.243711709976196289e+00,1.243632674217224121e+00,1.243553757667541504e+00,1.243474960327148438e+00,1.243395924568176270e+00,1.243317127227783203e+00,1.243238210678100586e+00,1.243159294128417969e+00,1.243080377578735352e+00,1.243001580238342285e+00,1.242922782897949219e+00,1.242843866348266602e+00,1.242765069007873535e+00,1.242686271667480469e+00
1.162480235099792480e+00,1.162411212921142578e+00,1.162342190742492676e+00,1.162273287773132324e+00,1.162204384803771973e+00,1.162135362625122070e+00,1.162066459655761719e+00,1.161997556686401367e+00,1.161928653717041016e+00,1.161859750747680664e+00,1.161790847778320312e+00,1.161722064018249512e+00,1.161653041839599609e+00,1.161584258079528809e+00,1.161515355110168457e+00,1.161446452140808105e+00,1.161377668380737305e+00,1.161308884620666504e+00,1.161239981651306152e+00,1.161171197891235352e+00,1.161102414131164551e+00,1.161033630371093750e+00,1.160964727401733398e+00,1.160895943641662598e+00,1.160827159881591797e+00,1.160758495330810547e+00,1.160689592361450195e+00,1.160620927810668945e+00,1.160552144050598145e+00,1.160483479499816895e+00,1.160414695739746094e+00,1.160346031188964844e+00,1.160277247428894043e+00,1.160208463668823242e+00,1.160139799118041992e+00,1.160071134567260742e+00,1.160002470016479492e+00,1.159933805465698242e+00,1.159865140914916992e+00,1.159796476364135742e+00,1.159727811813354492e+00,1.159659147262573242e+00,1.159590601921081543e+00,1.159521937370300293e+00,1.159453272819519043e+00,1.159384727478027344e+00,1.159316062927246094e+00,1.159247517585754395e+00,1.159178853034973145e+00,1.159110307693481445e+00,1.159041762351989746e+00,1.158973217010498047e+00,1.158904671669006348e+00,1.158836126327514648e+00,1.158767580986022949e+00,1.158699035644531250e+00,1.158630490303039551e+00,1.158562064170837402e+00,1.158493518829345703e+00,1.158424973487854004e+00,1.158356547355651855e+00,1.158288002014160156e+00,1.158219575881958008e+00,1.158151149749755859e+00,1.158082723617553711e+00,1.158014178276062012e+00,1.157945752143859863e+00,1.157877445220947266e+00,1.157808899879455566e+00,1.157740473747253418e+00,1.157672166824340820e+00,1.157603740692138672e+00,1.157535314559936523e+00,1.157467007637023926e+00,1.157398581504821777e+00,1.157330155372619629e+00,1.157261848449707031e+00,1.157193541526794434e+00,1.157125234603881836e+00,1.157056808471679688e+00
1.087212800979614258e+00,1.087152481079101562e+00,1.087092161178588867e+00,1.087031841278076172e+00,1.086971521377563477e+00,1.086911201477050781e+00,1.086851000785827637e+00,1.086790561676025391e+00,1.086730360984802246e+00,1.086670160293579102e+00,1.086609840393066406e+00,1.086549520492553711e+00,1.086489319801330566e+00,1.086429119110107422e+00,1.086368799209594727e+00,1.086308598518371582e+00,1.086248397827148438e+00,1.086188077926635742e+00,1.086127877235412598e+00,1.086067795753479004e+00,1.086007595062255859e+00,1.085947275161743164e+00,1.085887193679809570e+00,1.085826992988586426e+00,1.085766792297363281e+00,1.085706591606140137e+00,1.085646510124206543e+00,1.085586428642272949e+00,1.085526227951049805e+00,1.085466027259826660e+00,1.085405945777893066e+00,1.085345745086669922e+00,1.085285663604736328e+00,1.085225582122802734e+00,1.085165500640869141e+00,1.085105299949645996e+00,1.085045337677001953e+00,1.084985256195068359e+00,1.084925055503845215e+00,1.084865093231201172e+00,1.084805011749267578e+00,1.084744930267333984e+00,1.084684848785400391e+00,1.084624767303466797e+00,1.084564805030822754e+00,1.084504723548889160e+00,1.084444761276245117e+00,1.084384679794311523e+00,1.084324717521667480e+00,1.084264636039733887e+00,1.084204673767089844e+00,1.084144711494445801e+00,1.084084630012512207e+00,1.084024667739868164e+00,1.083964705467224121e+00,1.083904862403869629e+00,1.083844780921936035e+00,1.083784818649291992e+00,1.083724975585937500e+00,1.083665013313293457e+00,1.083605051040649414e+00,1.083545088768005371e+00,1.083485245704650879e+00,1.083425283432006836e+00,1.083365440368652344e+00,1.083305478096008301e+00,1.083245635032653809e+00,1.083185672760009766e+00,1.083125829696655273e+00,1.083065986633300781e+00,1.083006024360656738e+00,1.082946181297302246e+00,1.082886457443237305e+00,1.082826614379882812e+00,1.082766652107238770e+00,1.082706809043884277e+00,1.082647085189819336e+00,1.082587242126464844e+00,1.082527399063110352e+00,1.082467555999755859e+00
1.021099448204040527e+00,1.021046161651611328e+00,1.020992994308471680e+00,1.020939826965332031e+00,1.020886659622192383e+00,1.020833373069763184e+00,1.020780205726623535e+00,1.020727038383483887e+00,1.020673871040344238e+00,1.020620703697204590e+00,1.020567536354064941e+00,1.020514369010925293e+00,1.020461201667785645e+00,1.020408034324645996e+00,1.020354986190795898e+00,1.020301818847656250e+00,1.020248651504516602e+00,1.020195603370666504e+00,1.020142436027526855e+00,1.020089268684387207e+00,1.020036220550537109e+00,1.019983172416687012e+00,1.019930005073547363e+00,1.019876956939697266e+00,1.019823908805847168e+00,1.019770741462707520e+00,1.019717693328857422e+00,1.019664645195007324e+00,1.019611597061157227e+00,1.019558548927307129e+00,1.019505500793457031e+00,1.019452452659606934e+00,1.019399404525756836e+00,1.019346356391906738e+00,1.019293308258056641e+00,1.019240260124206543e+00,1.019187331199645996e+00,1.019134283065795898e+00,1.019081234931945801e+00,1.019028306007385254e+00,1.018975257873535156e+00,1.018922209739685059e+00,1.018869280815124512e+00,1.018816351890563965e+00,1.018763303756713867e+00,1.018710374832153320e+00,1.018657445907592773e+00,1.018604397773742676e+00,1.018551468849182129e+00,1.018498539924621582e+00,1.018445611000061035e+00,1.018392682075500488e+00,1.018339753150939941e+00,1.018286824226379395e+00,1.018233895301818848e+00,1.018180966377258301e+00,1.018128037452697754e+00,1.018075227737426758e+00,1.018022298812866211e+00,1.017969369888305664e+00,1.017916560173034668e+00,1.017863631248474121e+00,1.017810702323913574e+00,1.017757892608642578e+00,1.017704963684082031e+00,1.017652153968811035e+00,1.017599225044250488e+00,1.017546415328979492e+00,1.017493605613708496e+00,1.017440795898437500e+00,1.017387986183166504e+00,1.017335176467895508e+00,1.017282247543334961e+00,1.017229437828063965e+00,1.017176628112792969e+00,1.017123818397521973e+00,1.017071008682250977e+00,1.017018318176269531e+00,1.016965508460998535e+00,1.016912698745727539e+00
9.625658392906188965e-01,9.625185728073120117e-01,9.624713063240051270e-01,9.624240398406982422e-01,9.623767733573913574e-01,9.623295068740844727e-01,9.622822403907775879e-01,9.622349143028259277e-01,9.621876478195190430e-01,9.621404409408569336e-01,9.620932340621948242e-01,9.620459675788879395e-01,9.619987607002258301e-01,9.619515538215637207e-01,9.619042277336120605e-01,9.618570208549499512e-01,9.618098139762878418e-01,9.617626070976257324e-01,9.617154598236083984e-01,9.616682529449462891e-01,9.616210460662841797e-01,9.615737795829772949e-01,9.615266323089599609e-01,9.614794254302978516e-01,9.614322781562805176e-01,9.613851308822631836e-01,9.613379836082458496e-01,9.612908363342285156e-01,9.612435698509216309e-01,9.611964225769042969e-01,9.611492753028869629e-01,9.611021280288696289e-01,9.610550403594970703e-01,9.610078930854797363e-01,9.609608054161071777e-01,9.609135389328002930e-01,9.608664512634277344e-01,9.608193635940551758e-01,9.607722759246826172e-01,9.607251286506652832e-01,9.606780409812927246e-01,9.606309533119201660e-01,9.605838060379028320e-01,9.605367183685302734e-01,9.604896306991577148e-01,9.604426026344299316e-01,9.603955149650573730e-01,9.603484272956848145e-01,9.603013992309570312e-01,9.602542519569396973e-01,9.602071642875671387e-01,9.601601362228393555e-01,9.601131081581115723e-01,9.600660800933837891e-01,9.600190520286560059e-01,9.599720239639282227e-01,9.599249362945556641e-01,9.598779082298278809e-01,9.598308801651000977e-01,9.597839117050170898e-01,9.597368836402893066e-01,9.596899151802062988e-01,9.596428871154785156e-01,9.595957994461059570e-01,9.595488309860229492e-01,9.595018625259399414e-01,9.594548940658569336e-01,9.594079256057739258e-01,9.593609571456909180e-01,9.593139886856079102e-01,9.592669606208801270e-01,9.592199921607971191e-01,9.591730833053588867e-01,9.591261148452758789e-01,9.590792059898376465e-01,9.590322375297546387e-01,9.589853286743164062e-01,9.589383006095886230e-01,9.588913917541503906e-01,9.588444828987121582e-01
