5.000000000000000000e+00,5.000000000000000000e+00,5.000000000000000000e+00,5.000000000000000000e+00,5.000000000000000000e+00,5.000000000000000000e+00,5.000000000000000000e+00,5.000000000000000000e+00,5.000000000000000000e+00,5.000000000000000000e+00,5.000000000000000000e+00,5.000000000000000000e+00,5.000000000000000000e+00,5.000000000000000000e+00,5.000000000000000000e+00,5.000000000000000000e+00,5.000000000000000000e+00,5.000000000000000000e+00,5.000000000000000000e+00,5.000000000000000000e+00,5.000000000000000000e+00,5.000000000000000000e+00,5.000000000000000000e+00,5.000000000000000000e+00,5.000000000000000000e+00,5.000000000000000000e+00,5.000000000000000000e+00,5.000000000000000000e+00,5.000000000000000000e+00,5.000000000000000000e+00,5.000000000000000000e+00,5.000000000000000000e+00,5.000000000000000000e+00,5.000000000000000000e+00,5.000000000000000000e+00,5.000000000000000000e+00,5.000000000000000000e+00,5.000000000000000000e+00,5.000000000000000000e+00,5.000000000000000000e+00,5.000000000000000000e+00,5.000000000000000000e+00,4.316759586334228516e+00,4.165655136108398438e+00,4.024770736694335938e+00,3.893104553222656250e+00,3.769780158996582031e+00,3.654029369354248047e+00,3.545174598693847656e+00,3.442617893218994141e+00,3.345828056335449219e+00,3.254332065582275391e+00,3.167706727981567383e+00,3.085573673248291016e+00,3.007591962814331055e+00,2.933455228805541992e+00,2.862884998321533203e+00,2.795630455017089844e+00,2.731463432312011719e+00,2.670176029205322266e+00,2.611578226089477539e+00,2.555497169494628906e+00,2.501774072647094727e+00,2.450263500213623047e+00,2.400830984115600586e+00,2.353353738784790039e+00,2.307717561721801758e+00,2.263818264007568359e+00,2.221557378768920898e+00,2.180845737457275391e+00,2.141599178314208984e+00,2.103740453720092773e+00,2.067196607589721680e+00,2.031901121139526367e+00,1.997790336608886719e+00,1.964806318283081055e+00,1.932893514633178711e+00,1.902000784873962402e+00,1.872079968452453613e+00,1.843086004257202148e+00
5.000000000000000000e+00,5.000000000000000000e+00,5.000000000000000000e+00,5.000000000000000000e+00,5.000000000000000000e+00,5.000000000000000000e+00,5.000000000000000000e+00,5.000000000000000000e+00,5.000000000000000000e+00,5.000000000000000000e+00,5.000000000000000000e+00,5.000000000000000000e+00,5.000000000000000000e+00,5.000000000000000000e+00,5.000000000000000000e+00,5.000000000000000000e+00,5.000000000000000000e+00,5.000000000000000000e+00,5.000000000000000000e+00,5.000000000000000000e+00,5.000000000000000000e+00,5.000000000000000000e+00,5.000000000000000000e+00,5.000000000000000000e+00,5.000000000000000000e+00,5.000000000000000000e+00,5.000000000000000000e+00,5.000000000000000000e+00,5.000000000000000000e+00,5.000000000000000000e+00,5.000000000000000000e+00,5.000000000000000000e+00,5.000000000000000000e+00,5.000000000000000000e+00,5.000000000000000000e+00,5.000000000000000000e+00,5.000000000000000000e+00,5.000000000000000000e+00,5.000000000000000000e+00,5.000000000000000000e+00,5.000000000000000000e+00,4.479356765747070312e+00,4.316868782043457031e+00,4.165756225585937500e+00,4.024865627288818359e+00,3.893193244934082031e+00,3.769863367080688477e+00,3.654107332229614258e+00,3.545248031616210938e+00,3.442687034606933594e+00,3.345893621444702148e+00,3.254394054412841797e+00,3.167765378952026367e+00,3.085629224777221680e+00,3.007645130157470703e+00,2.933505535125732422e+00,2.862932920455932617e+00,2.795675992965698242e+00,2.731507062911987305e+00,2.670217514038085938e+00,2.611618041992187500e+00,2.555535316467285156e+00,2.501810789108276367e+00,2.450298547744750977e+00,2.400864601135253906e+00,2.353386163711547852e+00,2.307748794555664062e+00,2.263848066329956055e+00,2.221586227416992188e+00,2.180873394012451172e+00,2.141626119613647461e+00,2.103766202926635742e+00,2.067221641540527344e+00,2.031925201416015625e+00,1.997813940048217773e+00,1.964828968048095703e+00,1.932915329933166504e+00,1.902021884918212891e+00,1.872100472450256348e+00,1.843105912208557129e+00
5.000000000000000000e+00,5.000000000000000000e+00,5.000000000000000000e+00,5.000000000000000000e+00,5.000000000000000000e+00,5.000000000000000000e+00,5.000000000000000000e+00,5.000000000000000000e+00,5.000000000000000000e+00,5.000000000000000000e+00,5.000000000000000000e+00,5.000000000000000000e+00,5.000000000000000000e+00,5.000000000000000000e+00,5.000000000000000000e+00,5.000000000000000000e+00,5.000000000000000000e+00,5.000000000000000000e+00,5.000000000000000000e+00,5.000000000000000000e+00,5.000000000000000000e+00,5.000000000000000000e+00,5.000000000000000000e+00,5.000000000000000000e+00,5.000000000000000000e+00,5.000000000000000000e+00,5.000000000000000000e+00,5.000000000000000000e+00,5.000000000000000000e+00,5.000000000000000000e+00,5.000000000000000000e+00,5.000000000000000000e+00,5.000000000000000000e+00,5.000000000000000000e+00,5.000000000000000000e+00,5.000000000000000000e+00,5.000000000000000000e+00,5.000000000000000000e+00,5.000000000000000000e+00,5.000000000000000000e+00,4.654682636260986328e+00,4.479474067687988281e+00,4.316977977752685547e+00,4.165857791900634766e+00,4.024960041046142578e+00,3.893281698226928711e+00,3.769946575164794922e+00,3.654185295104980469e+00,3.545321464538574219e+00,3.442756175994873047e+00,3.345959186553955078e+00,3.254455804824829102e+00,3.167824029922485352e+00,3.085685014724731445e+00,3.007698059082031250e+00,2.933555603027343750e+00,2.862980842590332031e+00,2.795721769332885742e+00,2.731550693511962891e+00,2.670259237289428711e+00,2.611657857894897461e+00,2.555573463439941406e+00,2.501847267150878906e+00,2.450333595275878906e+00,2.400898218154907227e+00,2.353418350219726562e+00,2.307780027389526367e+00,2.263878107070922852e+00,2.221615076065063477e+00,2.180901288986206055e+00,2.141652822494506836e+00,2.103792190551757812e+00,2.067246675491333008e+00,2.031949281692504883e+00,1.997837185859680176e+00,1.964851498603820801e+00,1.932937145233154297e+00,1.902042984962463379e+00,1.872120976448059082e+00,1.843125700950622559e+00
5.000000000000000000e+00,5.000000000000000000e+00,5.000000000000000000e+00,5.000000000000000000e+00,5.000000000000000000e+00,5.000000000000000000e+00,5.000000000000000000e+00,5.000000000000000000e+00,5.000000000000000000e+00,5.000000000000000000e+00,5.000000000000000000e+00,5.000000000000000000e+00,5.000000000000000000e+00,5.000000000000000000e+00,5.000000000000000000e+00,5.000000000000000000e+00,5.000000000000000000e+00,5.000000000000000000e+00,5.000000000000000000e+00,5.000000000000000000e+00,5.000000000000000000e+00,5.000000000000000000e+00,5.000000000000000000e+00,5.000000000000000000e+00,5.000000000000000000e+00,5.000000000000000000e+00,5.000000000000000000e+00,5.000000000000000000e+00,5.000000000000000000e+00,5.000000000000000000e+00,5.000000000000000000e+00,5.000000000000000000e+00,5.000000000000000000e+00,5.000000000000000000e+00,5.000000000000000000e+00,5.000000000000000000e+00,5.000000000000000000e+00,5.000000000000000000e+00,5.000000000000000000e+00,4.844291687011718750e+00,4.654808998107910156e+00,4.479591846466064453e+00,4.317086696624755859e+00,4.165959358215332031e+00,4.025054931640625000e+00,3.893370866775512695e+00,3.770029544830322266e+00,3.654263257980346680e+00,3.545394897460937500e+00,3.442825794219970703e+00,3.346024513244628906e+00,3.254517793655395508e+00,3.167882680892944336e+00,3.085740804672241211e+00,3.007750749588012695e+00,2.933605909347534180e+00,2.863028526306152344e+00,2.795767545700073242e+00,2.731594324111938477e+00,2.670300960540771484e+00,2.611697673797607422e+00,2.555611848831176758e+00,2.501883983612060547e+00,2.450368642807006836e+00,2.400932073593139648e+00,2.353451013565063477e+00,2.307811021804809570e+00,2.263907909393310547e+00,2.221643924713134766e+00,2.180929183959960938e+00,2.141679763793945312e+00,2.103817939758300781e+00,2.067271709442138672e+00,2.031973600387573242e+00,1.997860550880432129e+00,1.964874029159545898e+00,1.932958960533142090e+00,1.902064204216003418e+00,1.872141361236572266e+00,1.843145608901977539e+00
5.000000000000000000e+00,5.000000000000000000e+00,5.000000000000000000e+00,5.000000000000000000e+00,5.000000000000000000e+00,5.000000000000000000e+00,5.000000000000000000e+00,5.000000000000000000e+00,5.000000000000000000e+00,5.000000000000000000e+00,5.000000000000000000e+00,5.000000000000000000e+00,5.000000000000000000e+00,5.000000000000000000e+00,5.000000000000000000e+00,5.000000000000000000e+00,5.000000000000000000e+00,5.000000000000000000e+00,5.000000000000000000e+00,5.000000000000000000e+00,5.000000000000000000e+00,5.000000000000000000e+00,5.000000000000000000e+00,5.000000000000000000e+00,5.000000000000000000e+00,5.000000000000000000e+00,5.000000000000000000e+00,5.000000000000000000e+00,5.000000000000000000e+00,5.000000000000000000e+00,5.000000000000000000e+00,5.000000000000000000e+00,5.000000000000000000e+00,5.000000000000000000e+00,5.000000000000000000e+00,5.000000000000000000e+00,5.000000000000000000e+00,5.000000000000000000e+00,5.000000000000000000e+00,4.844429016113281250e+00,4.654935836791992188e+00,4.479708671569824219e+00,4.317195892333984375e+00,4.166060924530029297e+00,4.025149822235107422e+00,3.893459320068359375e+00,3.770112514495849609e+00,3.654341220855712891e+00,3.545468568801879883e+00,3.442895174026489258e+00,3.346089839935302734e+00,3.254579544067382812e+00,3.167941570281982422e+00,3.085796356201171875e+00,3.007803678512573242e+00,2.933656215667724609e+00,2.863076686859130859e+00,2.795813322067260742e+00,2.731637954711914062e+00,2.670342445373535156e+00,2.611737728118896484e+00,2.555649995803833008e+00,2.501920461654663086e+00,2.450403690338134766e+00,2.400965929031372070e+00,2.353483200073242188e+00,2.307842254638671875e+00,2.263937950134277344e+00,2.221673011779785156e+00,2.180957078933715820e+00,2.141706466674804688e+00,2.103843927383422852e+00,2.067296743392944336e+00,2.031997680664062500e+00,1.997883915901184082e+00,1.964896559715270996e+00,1.932980775833129883e+00,1.902085304260253906e+00,1.872161865234375000e+00,1.843165397644042969e+00
5.000000000000000000e+00,5.000000000000000000e+00,5.000000000000000000e+00,5.000000000000000000e+00,5.000000000000000000e+00,5.000000000000000000e+00,5.000000000000000000e+00,5.000000000000000000e+00,5.000000000000000000e+00,5.000000000000000000e+00,5.000000000000000000e+00,5.000000000000000000e+00,5.000000000000000000e+00,5.000000000000000000e+00,5.000000000000000000e+00,5.000000000000000000e+00,5.000000000000000000e+00,5.000000000000000000e+00,5.000000000000000000e+00,5.000000000000000000e+00,5.000000000000000000e+00,5.000000000000000000e+00,5.000000000000000000e+00,5.000000000000000000e+00,5.000000000000000000e+00,5.000000000000000000e+00,5.000000000000000000e+00,5.000000000000000000e+00,5.000000000000000000e+00,5.000000000000000000e+00,5.000000000000000000e+00,5.000000000000000000e+00,5.000000000000000000e+00,5.000000000000000000e+00,5.000000000000000000e+00,5.000000000000000000e+00,5.000000000000000000e+00,5.000000000000000000e+00,5.000000000000000000e+00,4.844565868377685547e+00,4.655062675476074219e+00,4.479825973510742188e+00,4.317304611206054688e+00,4.166162014007568359e+00,4.025244235992431641e+00,3.893547773361206055e+00,3.770195484161376953e+00,3.654419422149658203e+00,3.545542001724243164e+00,3.442964315414428711e+00,3.346155405044555664e+00,3.254641532897949219e+00,3.168000221252441406e+00,3.085852146148681641e+00,3.007856607437133789e+00,2.933706521987915039e+00,2.863124608993530273e+00,2.795858860015869141e+00,2.731681585311889648e+00,2.670384168624877930e+00,2.611777782440185547e+00,2.555688142776489258e+00,2.501957178115844727e+00,2.450438737869262695e+00,2.400999546051025391e+00,2.353515625000000000e+00,2.307873249053955078e+00,2.263967990875244141e+00,2.221701860427856445e+00,2.180984735488891602e+00,2.141733169555664062e+00,2.103869676589965820e+00,2.067321777343750000e+00,2.032021760940551758e+00,1.997907161712646484e+00,1.964919090270996094e+00,1.933002591133117676e+00,1.902106404304504395e+00,1.872182369232177734e+00,1.843185186386108398e+00
5.000000000000000000e+00,5.000000000000000000e+00,5.000000000000000000e+00,5.000000000000000000e+00,5.000000000000000000e+00,5.000000000000000000e+00,5.000000000000000000e+00,5.000000000000000000e+00,5.000000000000000000e+00,5.000000000000000000e+00,5.000000000000000000e+00,5.000000000000000000e+00,5.000000000000000000e+00,5.000000000000000000e+00,5.000000000000000000e+00,5.000000000000000000e+00,5.000000000000000000e+00,5.000000000000000000e+00,5.000000000000000000e+00,5.000000000000000000e+00,5.000000000000000000e+00,5.000000000000000000e+00,5.000000000000000000e+00,5.000000000000000000e+00,5.000000000000000000e+00,5.000000000000000000e+00,5.000000000000000000e+00,5.000000000000000000e+00,5.000000000000000000e+00,5.000000000000000000e+00,5.000000000000000000e+00,5.000000000000000000e+00,5.000000000000000000e+00,5.000000000000000000e+00,5.000000000000000000e+00,5.000000000000000000e+00,5.000000000000000000e+00,5.000000000000000000e+00,5.000000000000000000e+00,4.844703674316406250e+00,4.655189037322998047e+00,4.479943752288818359e+00,4.317413330078125000e+00,4.166263580322265625e+00,4.025339126586914062e+00,3.893636465072631836e+00,3.770278692245483398e+00,3.654497623443603516e+00,3.545615434646606445e+00,3.443033695220947266e+00,3.346220731735229492e+00,3.254703760147094727e+00,3.168058872222900391e+00,3.085907697677612305e+00,3.007909297943115234e+00,2.933757066726684570e+00,2.863172531127929688e+00,2.795904636383056641e+00,2.731724977493286133e+00,2.670426130294799805e+00,2.611817598342895508e+00,2.555726289749145508e+00,2.501993656158447266e+00,2.450474023818969727e+00,2.401033163070678711e+00,2.353548049926757812e+00,2.307904481887817383e+00,2.263998031616210938e+00,2.221730470657348633e+00,2.181012630462646484e+00,2.141760110855102539e+00,2.103895664215087891e+00,2.067346572875976562e+00,2.032045841217041016e+00,1.997930526733398438e+00,1.964941740036010742e+00,1.933024406433105469e+00,1.902127623558044434e+00,1.872202873229980469e+00,1.843205332756042480e+00
5.000000000000000000e+00,5.000000000000000000e+00,5.000000000000000000e+00,5.000000000000000000e+00,5.000000000000000000e+00,5.000000000000000000e+00,5.000000000000000000e+00,5.000000000000000000e+00,5.000000000000000000e+00,5.000000000000000000e+00,5.000000000000000000e+00,5.000000000000000000e+00,5.000000000000000000e+00,5.000000000000000000e+00,5.000000000000000000e+00,5.000000000000000000e+00,5.000000000000000000e+00,5.000000000000000000e+00,5.000000000000000000e+00,5.000000000000000000e+00,5.000000000000000000e+00,5.000000000000000000e+00,5.000000000000000000e+00,5.000000000000000000e+00,5.000000000000000000e+00,5.000000000000000000e+00,5.000000000000000000e+00,5.000000000000000000e+00,5.000000000000000000e+00,5.000000000000000000e+00,5.000000000000000000e+00,5.000000000000000000e+00,5.000000000000000000e+00,5.000000000000000000e+00,5.000000000000000000e+00,5.000000000000000000e+00,5.000000000000000000e+00,5.000000000000000000e+00,5.000000000000000000e+00,4.844840526580810547e+00,4.655315876007080078e+00,4.480061054229736328e+00,4.317522525787353516e+00,4.166365146636962891e+00,4.025434017181396484e+00,3.893724918365478516e+00,3.770362138748168945e+00,3.654575824737548828e+00,3.545688867568969727e+00,3.443102836608886719e+00,3.346286535263061523e+00,3.254765510559082031e+00,3.168117523193359375e+00,3.085963249206542969e+00,3.007962465286254883e+00,2.933807373046875000e+00,2.863220453262329102e+00,2.795950174331665039e+00,2.731768846511840820e+00,2.670467853546142578e+00,2.611857414245605469e+00,2.555764436721801758e+00,2.502030372619628906e+00,2.450509071350097656e+00,2.401066780090332031e+00,2.353580474853515625e+00,2.307935714721679688e+00,2.264027833938598633e+00,2.221759319305419922e+00,2.181040287017822266e+00,2.141787052154541016e+00,2.103921651840209961e+00,2.067371606826782227e+00,2.032070159912109375e+00,1.997953772544860840e+00,1.964964270591735840e+00,1.933046221733093262e+00,1.902148723602294922e+00,1.872223496437072754e+00,1.843225121498107910e+00
5.000000000000000000e+00,5.000000000000000000e+00,5.000000000000000000e+00,5.000000000000000000e+00,5.000000000000000000e+00,5.000000000000000000e+00,5.000000000000000000e+00,5.000000000000000000e+00,5.000000000000000000e+00,5.000000000000000000e+00,5.000000000000000000e+00,5.000000000000000000e+00,5.000000000000000000e+00,5.000000000000000000e+00,5.000000000000000000e+00,5.000000000000000000e+00,5.000000000000000000e+00,5.000000000000000000e+00,5.000000000000000000e+00,5.000000000000000000e+00,5.000000000000000000e+00,5.000000000000000000e+00,5.000000000000000000e+00,5.000000000000000000e+00,5.000000000000000000e+00,5.000000000000000000e+00,5.000000000000000000e+00,5.000000000000000000e+00,5.000000000000000000e+00,5.000000000000000000e+00,5.000000000000000000e+00,5.000000000000000000e+00,5.000000000000000000e+00,5.000000000000000000e+00,5.000000000000000000e+00,5.000000000000000000e+00,5.000000000000000000e+00,5.000000000000000000e+00,5.000000000000000000e+00,4.844977855682373047e+00,4.655442714691162109e+00,4.480177879333496094e+00,4.317631721496582031e+00,4.166466712951660156e+00,4.025528430938720703e+00,3.893813610076904297e+00,3.770445108413696289e+00,3.654653787612915039e+00,3.545762300491333008e+00,3.443172216415405273e+00,3.346351861953735352e+00,3.254827499389648438e+00,3.168176174163818359e+00,3.086019039154052734e+00,3.008015394210815430e+00,2.933857679367065430e+00,2.863268375396728516e+00,2.795995950698852539e+00,2.731812477111816406e+00,2.670509338378906250e+00,2.611897230148315430e+00,2.555802583694458008e+00,2.502066850662231445e+00,2.450544357299804688e+00,2.401100635528564453e+00,2.353612661361694336e+00,2.307966947555541992e+00,2.264057874679565430e+00,2.221788167953491211e+00,2.181068181991577148e+00,2.141813755035400391e+00,2.103947401046752930e+00,2.067396640777587891e+00,2.032094240188598633e+00,1.997977137565612793e+00,1.964986801147460938e+00,1.933068156242370605e+00,1.902169823646545410e+00,1.872244000434875488e+00,1.843245029449462891e+00
5.000000000000000000e+00,5.000000000000000000e+00,5.000000000000000000e+00,5.000000000000000000e+00,5.000000000000000000e+00,5.000000000000000000e+00,5.000000000000000000e+00,5.000000000000000000e+00,5.000000000000000000e+00,5.000000000000000000e+00,5.000000000000000000e+00,5.000000000000000000e+00,5.000000000000000000e+00,5.000000000000000000e+00,5.000000000000000000e+00,5.000000000000000000e+00,5.000000000000000000e+00,5.000000000000000000e+00,5.000000000000000000e+00,5.000000000000000000e+00,5.000000000000000000e+00,5.000000000000000000e+00,5.000000000000000000e+00,5.000000000000000000e+00,5.000000000000000000e+00,5.000000000000000000e+00,5.000000000000000000e+00,5.000000000000000000e+00,5.000000000000000000e+00,5.000000000000000000e+00,5.000000000000000000e+00,5.000000000000000000e+00,5.000000000000000000e+00,5.000000000000000000e+00,5.000000000000000000e+00,5.000000000000000000e+00,5.000000000000000000e+00,5.000000000000000000e+00,5.000000000000000000e+00,4.845115184783935547e+00,4.655569076538085938e+00,4.480295658111572266e+00,4.317740440368652344e+00,4.166568279266357422e+00,4.025623321533203125e+00,3.893902540206909180e+00,3.770528078079223633e+00,3.654731750488281250e+00,3.545835733413696289e+00,3.443241596221923828e+00,3.346417188644409180e+00,3.254889249801635742e+00,3.168234586715698242e+00,3.086074829101562500e+00,3.008068323135375977e+00,2.933907985687255859e+00,2.863316297531127930e+00,2.796041965484619141e+00,2.731856107711791992e+00,2.670551061630249023e+00,2.611937046051025391e+00,2.555840969085693359e+00,2.502103567123413086e+00,2.450579404830932617e+00,2.401134252548217773e+00,2.353645324707031250e+00,2.307997941970825195e+00,2.264087915420532227e+00,2.221817016601562500e+00,2.181096076965332031e+00,2.141840696334838867e+00,2.103973150253295898e+00,2.067421436309814453e+00,2.032118320465087891e+00,1.998000502586364746e+00,1.965009331703186035e+00,1.933089971542358398e+00,1.902191162109375000e+00,1.872264504432678223e+00,1.843264818191528320e+00
5.000000000000000000e+00,5.000000000000000000e+00,5.000000000000000000e+00,5.000000000000000000e+00,5.000000000000000000e+00,5.000000000000000000e+00,5.000000000000000000e+00,5.000000000000000000e+00,5.000000000000000000e+00,5.000000000000000000e+00,5.000000000000000000e+00,5.000000000000000000e+00,5.000000000000000000e+00,5.000000000000000000e+00,5.000000000000000000e+00,5.000000000000000000e+00,5.000000000000000000e+00,5.000000000000000000e+00,5.000000000000000000e+00,5.000000000000000000e+00,5.000000000000000000e+00,5.000000000000000000e+00,5.000000000000000000e+00,5.000000000000000000e+00,5.000000000000000000e+00,5.000000000000000000e+00,5.000000000000000000e+00,5.000000000000000000e+00,5.000000000000000000e+00,5.000000000000000000e+00,5.000000000000000000e+00,5.000000000000000000e+00,5.000000000000000000e+00,5.000000000000000000e+00,5.000000000000000000e+00,5.000000000000000000e+00,5.000000000000000000e+00,5.000000000000000000e+00,5.000000000000000000e+00,4.845252513885498047e+00,4.655695915222167969e+00,4.480412960052490234e+00,4.317849636077880859e+00,4.166669368743896484e+00,4.025718212127685547e+00,3.893990993499755859e+00,3.770611286163330078e+00,3.654809713363647461e+00,3.545909643173217773e+00,3.443310976028442383e+00,3.346482753753662109e+00,3.254951238632202148e+00,3.168293714523315430e+00,3.086130380630493164e+00,3.008121013641357422e+00,2.933958053588867188e+00,2.863364219665527344e+00,2.796087503433227539e+00,2.731899738311767578e+00,2.670592784881591797e+00,2.611977100372314453e+00,2.555879116058349609e+00,2.502140045166015625e+00,2.450614452362060547e+00,2.401168107986450195e+00,2.353677511215209961e+00,2.308029174804687500e+00,2.264117717742919922e+00,2.221846103668212891e+00,2.181123733520507812e+00,2.141867399215698242e+00,2.103999137878417969e+00,2.067446708679199219e+00,2.032142639160156250e+00,1.998023748397827148e+00,1.965031862258911133e+00,1.933112025260925293e+00,1.902212381362915039e+00,1.872284889221191406e+00,1.843284726142883301e+00
5.000000000000000000e+00,5.000000000000000000e+00,5.000000000000000000e+00,5.000000000000000000e+00,5.000000000000000000e+00,5.000000000000000000e+00,5.000000000000000000e+00,5.000000000000000000e+00,5.000000000000000000e+00,5.000000000000000000e+00,5.000000000000000000e+00,5.000000000000000000e+00,5.000000000000000000e+00,5.000000000000000000e+00,5.000000000000000000e+00,5.000000000000000000e+00,5.000000000000000000e+00,5.000000000000000000e+00,5.000000000000000000e+00,5.000000000000000000e+00,5.000000000000000000e+00,5.000000000000000000e+00,5.000000000000000000e+00,5.000000000000000000e+00,5.000000000000000000e+00,5.000000000000000000e+00,5.000000000000000000e+00,5.000000000000000000e+00,5.000000000000000000e+00,5.000000000000000000e+00,5.000000000000000000e+00,5.000000000000000000e+00,5.000000000000000000e+00,5.000000000000000000e+00,5.000000000000000000e+00,5.000000000000000000e+00,5.000000000000000000e+00,5.000000000000000000e+00,5.000000000000000000e+00,4.845389366149902344e+00,4.655822753906250000e+00,4.480530261993408203e+00,4.317958354949951172e+00,4.166770935058593750e+00,4.025812625885009766e+00,3.894079685211181641e+00,3.770694255828857422e+00,3.654887914657592773e+00,3.545983076095581055e+00,3.443380117416381836e+00,3.346548080444335938e+00,3.255012989044189453e+00,3.168352365493774414e+00,3.086186170578002930e+00,3.008173942565917969e+00,2.934008359909057617e+00,2.863412141799926758e+00,2.796133279800415039e+00,2.731943130493164062e+00,2.670634269714355469e+00,2.612016916275024414e+00,2.555917263031005859e+00,2.502176761627197266e+00,2.450649499893188477e+00,2.401201725006103516e+00,2.353709936141967773e+00,2.308060169219970703e+00,2.264147758483886719e+00,2.221874952316284180e+00,2.181151628494262695e+00,2.141894102096557617e+00,2.104024887084960938e+00,2.067471504211425781e+00,2.032166719436645508e+00,1.998047113418579102e+00,1.965054512023925781e+00,1.933133840560913086e+00,1.902233481407165527e+00,1.872305393218994141e+00,1.843304514884948730e+00
5.000000000000000000e+00,5.000000000000000000e+00,5.000000000000000000e+00,5.000000000000000000e+00,5.000000000000000000e+00,5.000000000000000000e+00,5.000000000000000000e+00,5.000000000000000000e+00,5.000000000000000000e+00,5.000000000000000000e+00,5.000000000000000000e+00,5.000000000000000000e+00,5.000000000000000000e+00,5.000000000000000000e+00,5.000000000000000000e+00,5.000000000000000000e+00,5.000000000000000000e+00,5.000000000000000000e+00,5.000000000000000000e+00,5.000000000000000000e+00,5.000000000000000000e+00,5.000000000000000000e+00,5.000000000000000000e+00,5.000000000000000000e+00,5.000000000000000000e+00,5.000000000000000000e+00,5.000000000000000000e+00,5.000000000000000000e+00,5.000000000000000000e+00,5.000000000000000000e+00,5.000000000000000000e+00,5.000000000000000000e+00,5.000000000000000000e+00,5.000000000000000000e+00,5.000000000000000000e+00,5.000000000000000000e+00,5.000000000000000000e+00,5.000000000000000000e+00,5.000000000000000000e+00,4.845526695251464844e+00,4.655949115753173828e+00,4.480647563934326172e+00,4.318067550659179688e+00,4.166872501373291016e+00,4.025907516479492188e+00,3.894168376922607422e+00,3.770777225494384766e+00,3.654966354370117188e+00,3.546056509017944336e+00,3.443449497222900391e+00,3.346613407135009766e+00,3.255075216293334961e+00,3.168411016464233398e+00,3.086241722106933594e+00,3.008226871490478516e+00,2.934058904647827148e+00,2.863460063934326172e+00,2.796178817749023438e+00,2.731986761093139648e+00,2.670676231384277344e+00,2.612056732177734375e+00,2.555955410003662109e+00,2.502213239669799805e+00,2.450684785842895508e+00,2.401235342025756836e+00,2.353742361068725586e+00,2.308091402053833008e+00,2.264177799224853516e+00,2.221903800964355469e+00,2.181179523468017578e+00,2.141921043395996094e+00,2.104050874710083008e+00,2.067496538162231445e+00,2.032190799713134766e+00,1.998070359230041504e+00,1.965077280998229980e+00,1.933155655860900879e+00,1.902254581451416016e+00,1.872325897216796875e+00,1.843324422836303711e+00
5.000000000000000000e+00,5.000000000000000000e+00,5.000000000000000000e+00,5.000000000000000000e+00,5.000000000000000000e+00,5.000000000000000000e+00,5.000000000000000000e+00,5.000000000000000000e+00,5.000000000000000000e+00,5.000000000000000000e+00,5.000000000000000000e+00,5.000000000000000000e+00,5.000000000000000000e+00,5.000000000000000000e+00,5.000000000000000000e+00,5.000000000000000000e+00,5.000000000000000000e+00,5.000000000000000000e+00,5.000000000000000000e+00,5.000000000000000000e+00,5.000000000000000000e+00,5.000000000000000000e+00,5.000000000000000000e+00,5.000000000000000000e+00,5.000000000000000000e+00,5.000000000000000000e+00,5.000000000000000000e+00,5.000000000000000000e+00,5.000000000000000000e+00,5.000000000000000000e+00,5.000000000000000000e+00,5.000000000000000000e+00,5.000000000000000000e+00,5.000000000000000000e+00,5.000000000000000000e+00,5.000000000000000000e+00,5.000000000000000000e+00,5.000000000000000000e+00,5.000000000000000000e+00,4.845664024353027344e+00,4.656076431274414062e+00,4.480764865875244141e+00,4.318176746368408203e+00,4.166974067687988281e+00,4.026002407073974609e+00,3.894256830215454102e+00,3.770860671997070312e+00,3.655044317245483398e+00,3.546129941940307617e+00,3.443518638610839844e+00,3.346679210662841797e+00,3.255137205123901367e+00,3.168469429016113281e+00,3.086297273635864258e+00,3.008280038833618164e+00,2.934109210968017578e+00,2.863507986068725586e+00,2.796224594116210938e+00,2.732030630111694336e+00,2.670717954635620117e+00,2.612096786499023438e+00,2.555993556976318359e+00,2.502249956130981445e+00,2.450719833374023438e+00,2.401269197463989258e+00,2.353774785995483398e+00,2.308122634887695312e+00,2.264207839965820312e+00,2.221932649612426758e+00,2.181207180023193359e+00,2.141947984695434570e+00,2.104076862335205078e+00,2.067521572113037109e+00,2.032214879989624023e+00,1.998093962669372559e+00,1.965099811553955078e+00,1.933177471160888672e+00,1.902275681495666504e+00,1.872346401214599609e+00,1.843344211578369141e+00
5.000000000000000000e+00,5.000000000000000000e+00,5.000000000000000000e+00,5.000000000000000000e+00,5.000000000000000000e+00,5.000000000000000000e+00,5.000000000000000000e+00,5.000000000000000000e+00,5.000000000000000000e+00,5.000000000000000000e+00,5.000000000000000000e+00,5.000000000000000000e+00,5.000000000000000000e+00,5.000000000000000000e+00,5.000000000000000000e+00,5.000000000000000000e+00,5.000000000000000000e+00,5.000000000000000000e+00,5.000000000000000000e+00,5.000000000000000000e+00,5.000000000000000000e+00,5.000000000000000000e+00,5.000000000000000000e+00,5.000000000000000000e+00,5.000000000000000000e+00,5.000000000000000000e+00,5.000000000000000000e+00,5.000000000000000000e+00,5.000000000000000000e+00,5.000000000000000000e+00,5.000000000000000000e+00,5.000000000000000000e+00,5.000000000000000000e+00,5.000000000000000000e+00,5.000000000000000000e+00,5.000000000000000000e+00,5.000000000000000000e+00,5.000000000000000000e+00,5.000000000000000000e+00,4.845801353454589844e+00,4.656202793121337891e+00,4.480882167816162109e+00,4.318285465240478516e+00,4.167075634002685547e+00,4.026097297668457031e+00,3.894345521926879883e+00,3.770943880081176758e+00,3.655122280120849609e+00,3.546203374862670898e+00,3.443588018417358398e+00,3.346744537353515625e+00,3.255199193954467773e+00,3.168528079986572266e+00,3.086353063583374023e+00,3.008332729339599609e+00,2.934159517288208008e+00,2.863555908203125000e+00,2.796270132064819336e+00,2.732074260711669922e+00,2.670759677886962891e+00,2.612136602401733398e+00,2.556031703948974609e+00,2.502286672592163086e+00,2.450754880905151367e+00,2.401302814483642578e+00,2.353806972503662109e+00,2.308153629302978516e+00,2.264237642288208008e+00,2.221961498260498047e+00,2.181235074996948242e+00,2.141974687576293945e+00,2.104102611541748047e+00,2.067546606063842773e+00,2.032238960266113281e+00,1.998117327690124512e+00,1.965122342109680176e+00,1.933199286460876465e+00,1.902296900749206543e+00,1.872366786003112793e+00,1.843364119529724121e+00
5.000000000000000000e+00,5.000000000000000000e+00,5.000000000000000000e+00,5.000000000000000000e+00,5.000000000000000000e+00,5.000000000000000000e+00,5.000000000000000000e+00,5.000000000000000000e+00,5.000000000000000000e+00,5.000000000000000000e+00,5.000000000000000000e+00,5.000000000000000000e+00,5.000000000000000000e+00,5.000000000000000000e+00,5.000000000000000000e+00,5.000000000000000000e+00,5.000000000000000000e+00,5.000000000000000000e+00,5.000000000000000000e+00,5.000000000000000000e+00,5.000000000000000000e+00,5.000000000000000000e+00,5.000000000000000000e+00,5.000000000000000000e+00,5.000000000000000000e+00,5.000000000000000000e+00,5.000000000000000000e+00,5.000000000000000000e+00,5.000000000000000000e+00,5.000000000000000000e+00,5.000000000000000000e+00,5.000000000000000000e+00,5.000000000000000000e+00,5.000000000000000000e+00,5.000000000000000000e+00,5.000000000000000000e+00,5.000000000000000000e+00,5.000000000000000000e+00,5.000000000000000000e+00,4.845938682556152344e+00,4.656329631805419922e+00,4.480999946594238281e+00,4.318394660949707031e+00,4.167177200317382812e+00,4.026191711425781250e+00,3.894434452056884766e+00,3.771026849746704102e+00,3.655200242996215820e+00,3.546276807785034180e+00,3.443657636642456055e+00,3.346810102462768555e+00,3.255260944366455078e+00,3.168586730957031250e+00,3.086408853530883789e+00,3.008385658264160156e+00,2.934209823608398438e+00,2.863603830337524414e+00,2.796316146850585938e+00,2.732117891311645508e+00,2.670801162719726562e+00,2.612176418304443359e+00,2.556070089340209961e+00,2.502323150634765625e+00,2.450789928436279297e+00,2.401336431503295898e+00,2.353839635848999023e+00,2.308184862136840820e+00,2.264267683029174805e+00,2.221990346908569336e+00,2.181262969970703125e+00,2.142001628875732422e+00,2.104128599166870117e+00,2.067571401596069336e+00,2.032263278961181641e+00,1.998140573501586914e+00,1.965144872665405273e+00,1.933221101760864258e+00,1.902318000793457031e+00,1.872387290000915527e+00,1.843383908271789551e+00
5.000000000000000000e+00,5.000000000000000000e+00,5.000000000000000000e+00,5.000000000000000000e+00,5.000000000000000000e+00,5.000000000000000000e+00,5.000000000000000000e+00,5.000000000000000000e+00,5.000000000000000000e+00,5.000000000000000000e+00,5.000000000000000000e+00,5.000000000000000000e+00,5.000000000000000000e+00,5.000000000000000000e+00,5.000000000000000000e+00,5.000000000000000000e+00,5.000000000000000000e+00,5.000000000000000000e+00,5.000000000000000000e+00,5.000000000000000000e+00,5.000000000000000000e+00,5.000000000000000000e+00,5.000000000000000000e+00,5.000000000000000000e+00,5.000000000000000000e+00,5.000000000000000000e+00,5.000000000000000000e+00,5.000000000000000000e+00,5.000000000000000000e+00,5.000000000000000000e+00,5.000000000000000000e+00,5.000000000000000000e+00,5.000000000000000000e+00,5.000000000000000000e+00,5.000000000000000000e+00,5.000000000000000000e+00,5.000000000000000000e+00,5.000000000000000000e+00,5.000000000000000000e+00,4.846076011657714844e+00,4.656455993652343750e+00,4.481117248535156250e+00,4.318503379821777344e+00,4.167278766632080078e+00,4.026286602020263672e+00,3.894523143768310547e+00,3.771110057830810547e+00,3.655278444290161133e+00,3.546350240707397461e+00,3.443726778030395508e+00,3.346875429153442383e+00,3.255322933197021484e+00,3.168645381927490234e+00,3.086464643478393555e+00,3.008438587188720703e+00,2.934260129928588867e+00,2.863651752471923828e+00,2.796361684799194336e+00,2.732161521911621094e+00,2.670842885971069336e+00,2.612216234207153320e+00,2.556108236312866211e+00,2.502359628677368164e+00,2.450824975967407227e+00,2.401370048522949219e+00,2.353872060775756836e+00,2.308215856552124023e+00,2.264297485351562500e+00,2.222019195556640625e+00,2.181290626525878906e+00,2.142028331756591797e+00,2.104154348373413086e+00,2.067596435546875000e+00,2.032287359237670898e+00,1.998163938522338867e+00,1.965167522430419922e+00,1.933242917060852051e+00,1.902339100837707520e+00,1.872407793998718262e+00,1.843403816223144531e+00
5.000000000000000000e+00,5.000000000000000000e+00,5.000000000000000000e+00,5.000000000000000000e+00,5.000000000000000000e+00,5.000000000000000000e+00,5.000000000000000000e+00,5.000000000000000000e+00,5.000000000000000000e+00,5.000000000000000000e+00,5.000000000000000000e+00,5.000000000000000000e+00,5.000000000000000000e+00,5.000000000000000000e+00,5.000000000000000000e+00,5.000000000000000000e+00,5.000000000000000000e+00,5.000000000000000000e+00,5.000000000000000000e+00,5.000000000000000000e+00,5.000000000000000000e+00,5.000000000000000000e+00,5.000000000000000000e+00,5.000000000000000000e+00,5.000000000000000000e+00,5.000000000000000000e+00,5.000000000000000000e+00,5.000000000000000000e+00,5.000000000000000000e+00,5.000000000000000000e+00,5.000000000000000000e+00,5.000000000000000000e+00,5.000000000000000000e+00,5.000000000000000000e+00,5.000000000000000000e+00,5.000000000000000000e+00,5.000000000000000000e+00,5.000000000000000000e+00,5.000000000000000000e+00,4.846213340759277344e+00,4.656583309173583984e+00,4.481234550476074219e+00,4.318612575531005859e+00,4.167380332946777344e+00,4.026381492614746094e+00,3.894611597061157227e+00,3.771193027496337891e+00,3.655356407165527344e+00,3.546424150466918945e+00,3.443796157836914062e+00,3.346940994262695312e+00,3.255384683609008789e+00,3.168704509735107422e+00,3.086520195007324219e+00,3.008491277694702148e+00,2.934310436248779297e+00,2.863699913024902344e+00,2.796407461166381836e+00,2.732205152511596680e+00,2.670884609222412109e+00,2.612256288528442383e+00,2.556146383285522461e+00,2.502396345138549805e+00,2.450860261917114258e+00,2.401403903961181641e+00,2.353904247283935547e+00,2.308247089385986328e+00,2.264327526092529297e+00,2.222048044204711914e+00,2.181318521499633789e+00,2.142055034637451172e+00,2.104180335998535156e+00,2.067621469497680664e+00,2.032311439514160156e+00,1.998187303543090820e+00,1.965190052986145020e+00,1.933264851570129395e+00,1.902360320091247559e+00,1.872428297996520996e+00,1.843423604965209961e+00
5.000000000000000000e+00,5.000000000000000000e+00,5.000000000000000000e+00,5.000000000000000000e+00,5.000000000000000000e+00,5.000000000000000000e+00,5.000000000000000000e+00,5.000000000000000000e+00,5.000000000000000000e+00,5.000000000000000000e+00,5.000000000000000000e+00,5.000000000000000000e+00,5.000000000000000000e+00,5.000000000000000000e+00,5.000000000000000000e+00,5.000000000000000000e+00,5.000000000000000000e+00,5.000000000000000000e+00,5.000000000000000000e+00,5.000000000000000000e+00,5.000000000000000000e+00,5.000000000000000000e+00,5.000000000000000000e+00,5.000000000000000000e+00,5.000000000000000000e+00,5.000000000000000000e+00,5.000000000000000000e+00,5.000000000000000000e+00,5.000000000000000000e+00,5.000000000000000000e+00,5.000000000000000000e+00,5.000000000000000000e+00,5.000000000000000000e+00,5.000000000000000000e+00,5.000000000000000000e+00,5.000000000000000000e+00,5.000000000000000000e+00,5.000000000000000000e+00,5.000000000000000000e+00,4.846350669860839844e+00,4.656709671020507812e+00,4.481351852416992188e+00,4.318721771240234375e+00,4.167481899261474609e+00,4.026475906372070312e+00,3.894700288772583008e+00,3.771275997161865234e+00,3.655434846878051758e+00,3.546497583389282227e+00,3.443865537643432617e+00,3.347006320953369141e+00,3.255446910858154297e+00,3.168763160705566406e+00,3.086575984954833984e+00,3.008544206619262695e+00,2.934360980987548828e+00,2.863747835159301758e+00,2.796453237533569336e+00,2.732248783111572266e+00,2.670926570892333984e+00,2.612296342849731445e+00,2.556184768676757812e+00,2.502432823181152344e+00,2.450895309448242188e+00,2.401437759399414062e+00,2.353936672210693359e+00,2.308278083801269531e+00,2.264357566833496094e+00,2.222076892852783203e+00,2.181346416473388672e+00,2.142081975936889648e+00,2.104206323623657227e+00,2.067646503448486328e+00,2.032335758209228516e+00,1.998210549354553223e+00,1.965212583541870117e+00,1.933286666870117188e+00,1.902381420135498047e+00,1.872448801994323730e+00,1.843443632125854492e+00
5.000000000000000000e+00,5.000000000000000000e+00,5.000000000000000000e+00,5.000000000000000000e+00,5.000000000000000000e+00,5.000000000000000000e+00,5.000000000000000000e+00,5.000000000000000000e+00,5.000000000000000000e+00,5.000000000000000000e+00,5.000000000000000000e+00,5.000000000000000000e+00,5.000000000000000000e+00,5.000000000000000000e+00,5.000000000000000000e+00,5.000000000000000000e+00,5.000000000000000000e+00,5.000000000000000000e+00,5.000000000000000000e+00,5.000000000000000000e+00,5.000000000000000000e+00,5.000000000000000000e+00,5.000000000000000000e+00,5.000000000000000000e+00,5.000000000000000000e+00,5.000000000000000000e+00,5.000000000000000000e+00,5.000000000000000000e+00,5.000000000000000000e+00,5.000000000000000000e+00,5.000000000000000000e+00,5.000000000000000000e+00,5.000000000000000000e+00,5.000000000000000000e+00,5.000000000000000000e+00,5.000000000000000000e+00,5.000000000000000000e+00,5.000000000000000000e+00,5.000000000000000000e+00,4.846487998962402344e+00,4.656836509704589844e+00,4.481469154357910156e+00,4.318830490112304688e+00,4.167583465576171875e+00,4.026570796966552734e+00,3.894788980484008789e+00,3.771359205245971680e+00,3.655512809753417969e+00,3.546571254730224609e+00,3.443934679031372070e+00,3.347071886062622070e+00,3.255508899688720703e+00,3.168821811676025391e+00,3.086631536483764648e+00,3.008597135543823242e+00,2.934411287307739258e+00,2.863795757293701172e+00,2.796498775482177734e+00,2.732292175292968750e+00,2.670968055725097656e+00,2.612336158752441406e+00,2.556222915649414062e+00,2.502469539642333984e+00,2.450930595397949219e+00,2.401471376419067383e+00,2.353969097137451172e+00,2.308309316635131836e+00,2.264387607574462891e+00,2.222105741500854492e+00,2.181374073028564453e+00,2.142108678817749023e+00,2.104232072830200195e+00,2.067671537399291992e+00,2.032359838485717773e+00,1.998233914375305176e+00,1.965235114097595215e+00,1.933308482170104980e+00,1.902402520179748535e+00,1.872469186782836914e+00,1.843463540077209473e+00
5.000000000000000000e+00,5.000000000000000000e+00,5.000000000000000000e+00,5.000000000000000000e+00,5.000000000000000000e+00,5.000000000000000000e+00,5.000000000000000000e+00,5.000000000000000000e+00,5.000000000000000000e+00,5.000000000000000000e+00,5.000000000000000000e+00,5.000000000000000000e+00,5.000000000000000000e+00,5.000000000000000000e+00,5.000000000000000000e+00,5.000000000000000000e+00,5.000000000000000000e+00,5.000000000000000000e+00,5.000000000000000000e+00,5.000000000000000000e+00,5.000000000000000000e+00,5.000000000000000000e+00,5.000000000000000000e+00,5.000000000000000000e+00,5.000000000000000000e+00,5.000000000000000000e+00,5.000000000000000000e+00,5.000000000000000000e+00,5.000000000000000000e+00,5.000000000000000000e+00,5.000000000000000000e+00,5.000000000000000000e+00,5.000000000000000000e+00,5.000000000000000000e+00,5.000000000000000000e+00,5.000000000000000000e+00,5.000000000000000000e+00,5.000000000000000000e+00,5.000000000000000000e+00,4.846624851226806641e+00,4.656963348388671875e+00,4.481586456298828125e+00,4.318939685821533203e+00,4.167684555053710938e+00,4.026665687561035156e+00,3.894877433776855469e+00,3.771442651748657227e+00,3.655591011047363281e+00,3.546644687652587891e+00,3.444004058837890625e+00,3.347137689590454102e+00,3.255570888519287109e+00,3.168880462646484375e+00,3.086687088012695312e+00,3.008650302886962891e+00,2.934461593627929688e+00,2.863843679428100586e+00,2.796544551849365234e+00,2.732336044311523438e+00,2.671009778976440430e+00,2.612375974655151367e+00,2.556261062622070312e+00,2.502506256103515625e+00,2.450965642929077148e+00,2.401504993438720703e+00,2.354001522064208984e+00,2.308340549468994141e+00,2.264417409896850586e+00,2.222134590148925781e+00,2.181401968002319336e+00,2.142135620117187500e+00,2.104258060455322266e+00,2.067696332931518555e+00,2.032383918762207031e+00,1.998257279396057129e+00,1.965257763862609863e+00,1.933330297470092773e+00,1.902423739433288574e+00,1.872489929199218750e+00,1.843483328819274902e+00
5.000000000000000000e+00,5.000000000000000000e+00,5.000000000000000000e+00,5.000000000000000000e+00,5.000000000000000000e+00,5.000000000000000000e+00,5.000000000000000000e+00,5.000000000000000000e+00,5.000000000000000000e+00,5.000000000000000000e+00,5.000000000000000000e+00,5.000000000000000000e+00,5.000000000000000000e+00,5.000000000000000000e+00,5.000000000000000000e+00,5.000000000000000000e+00,5.000000000000000000e+00,5.000000000000000000e+00,5.000000000000000000e+00,5.000000000000000000e+00,5.000000000000000000e+00,5.000000000000000000e+00,5.000000000000000000e+00,5.000000000000000000e+00,5.000000000000000000e+00,5.000000000000000000e+00,5.000000000000000000e+00,5.000000000000000000e+00,5.000000000000000000e+00,5.000000000000000000e+00,5.000000000000000000e+00,5.000000000000000000e+00,5.000000000000000000e+00,5.000000000000000000e+00,5.000000000000000000e+00,5.000000000000000000e+00,5.000000000000000000e+00,5.000000000000000000e+00,5.000000000000000000e+00,4.846762657165527344e+00,4.657090187072753906e+00,4.481704235076904297e+00,4.319048881530761719e+00,4.167786598205566406e+00,4.026760578155517578e+00,3.894966602325439453e+00,3.771525859832763672e+00,3.655668973922729492e+00,3.546718120574951172e+00,3.444073677062988281e+00,3.347203016281127930e+00,3.255632638931274414e+00,3.168939113616943359e+00,3.086743116378784180e+00,3.008703231811523438e+00,2.934511899948120117e+00,2.863891363143920898e+00,2.796590328216552734e+00,2.732379674911499023e+00,2.671051502227783203e+00,2.612415790557861328e+00,2.556299448013305664e+00,2.502542734146118164e+00,2.451000690460205078e+00,2.401538848876953125e+00,2.354033946990966797e+00,2.308371782302856445e+00,2.264447450637817383e+00,2.222163438796997070e+00,2.181429862976074219e+00,2.142162561416625977e+00,2.104283809661865234e+00,2.067721366882324219e+00,2.032408237457275391e+00,1.998280525207519531e+00,1.965280294418334961e+00,1.933352112770080566e+00,1.902445077896118164e+00,1.872510433197021484e+00,1.843503236770629883e+00
5.000000000000000000e+00,5.000000000000000000e+00,5.000000000000000000e+00,5.000000000000000000e+00,5.000000000000000000e+00,5.000000000000000000e+00,5.000000000000000000e+00,5.000000000000000000e+00,5.000000000000000000e+00,5.000000000000000000e+00,5.000000000000000000e+00,5.000000000000000000e+00,5.000000000000000000e+00,5.000000000000000000e+00,5.000000000000000000e+00,5.000000000000000000e+00,5.000000000000000000e+00,5.000000000000000000e+00,5.000000000000000000e+00,5.000000000000000000e+00,5.000000000000000000e+00,5.000000000000000000e+00,5.000000000000000000e+00,5.000000000000000000e+00,5.000000000000000000e+00,5.000000000000000000e+00,5.000000000000000000e+00,5.000000000000000000e+00,5.000000000000000000e+00,5.000000000000000000e+00,5.000000000000000000e+00,5.000000000000000000e+00,5.000000000000000000e+00,5.000000000000000000e+00,5.000000000000000000e+00,5.000000000000000000e+00,5.000000000000000000e+00,5.000000000000000000e+00,5.000000000000000000e+00,4.846899986267089844e+00,4.657217025756835938e+00,4.481821537017822266e+00,4.319157600402832031e+00,4.167887687683105469e+00,4.026854991912841797e+00,3.895055055618286133e+00,3.771608829498291016e+00,3.655747175216674805e+00,3.546791553497314453e+00,3.444143056869506836e+00,3.347268581390380859e+00,3.255694627761840820e+00,3.168997764587402344e+00,3.086798667907714844e+00,3.008755922317504883e+00,2.934562206268310547e+00,2.863939285278320312e+00,2.796636104583740234e+00,2.732423305511474609e+00,2.671093225479125977e+00,2.612455606460571289e+00,2.556337594985961914e+00,2.502579450607299805e+00,2.451035737991333008e+00,2.401572465896606445e+00,2.354066371917724609e+00,2.308402776718139648e+00,2.264477491378784180e+00,2.222192287445068359e+00,2.181457519531250000e+00,2.142189264297485352e+00,2.104309797286987305e+00,2.067746400833129883e+00,2.032432317733764648e+00,1.998303890228271484e+00,1.965302824974060059e+00,1.933373928070068359e+00,1.902466177940368652e+00,1.872530937194824219e+00,1.843523025512695312e+00
5.000000000000000000e+00,5.000000000000000000e+00,5.000000000000000000e+00,5.000000000000000000e+00,5.000000000000000000e+00,5.000000000000000000e+00,5.000000000000000000e+00,5.000000000000000000e+00,5.000000000000000000e+00,5.000000000000000000e+00,5.000000000000000000e+00,5.000000000000000000e+00,5.000000000000000000e+00,5.000000000000000000e+00,5.000000000000000000e+00,5.000000000000000000e+00,5.000000000000000000e+00,5.000000000000000000e+00,5.000000000000000000e+00,5.000000000000000000e+00,5.000000000000000000e+00,5.000000000000000000e+00,5.000000000000000000e+00,5.000000000000000000e+00,5.000000000000000000e+00,5.000000000000000000e+00,5.000000000000000000e+00,5.000000000000000000e+00,5.000000000000000000e+00,5.000000000000000000e+00,5.000000000000000000e+00,5.000000000000000000e+00,5.000000000000000000e+00,5.000000000000000000e+00,5.000000000000000000e+00,5.000000000000000000e+00,5.000000000000000000e+00,5.000000000000000000e+00,5.000000000000000000e+00,4.847036838531494141e+00,4.657343864440917969e+00,4.481938838958740234e+00,4.319266796112060547e+00,4.167989253997802734e+00,4.026950359344482422e+00,3.895143747329711914e+00,3.771692037582397461e+00,3.655825138092041016e+00,3.546865463256835938e+00,3.444212198257446289e+00,3.347333908081054688e+00,3.255756616592407227e+00,3.169056653976440430e+00,3.086854457855224609e+00,3.008808851242065430e+00,2.934612512588500977e+00,2.863987445831298828e+00,2.796681880950927734e+00,2.732466936111450195e+00,2.671134948730468750e+00,2.612495660781860352e+00,2.556375741958618164e+00,2.502615928649902344e+00,2.451070785522460938e+00,2.401606321334838867e+00,2.354098796844482422e+00,2.308434009552001953e+00,2.264507293701171875e+00,2.222221374511718750e+00,2.181485414505004883e+00,2.142215967178344727e+00,2.104335546493530273e+00,2.067771434783935547e+00,2.032456398010253906e+00,1.998327255249023438e+00,1.965325355529785156e+00,1.933395981788635254e+00,1.902487397193908691e+00,1.872551321983337402e+00,1.843542933464050293e+00
5.000000000000000000e+00,5.000000000000000000e+00,5.000000000000000000e+00,5.000000000000000000e+00,5.000000000000000000e+00,5.000000000000000000e+00,5.000000000000000000e+00,5.000000000000000000e+00,5.000000000000000000e+00,5.000000000000000000e+00,5.000000000000000000e+00,5.000000000000000000e+00,5.000000000000000000e+00,5.000000000000000000e+00,5.000000000000000000e+00,5.000000000000000000e+00,5.000000000000000000e+00,5.000000000000000000e+00,5.000000000000000000e+00,5.000000000000000000e+00,5.000000000000000000e+00,5.000000000000000000e+00,5.000000000000000000e+00,5.000000000000000000e+00,5.000000000000000000e+00,5.000000000000000000e+00,5.000000000000000000e+00,5.000000000000000000e+00,5.000000000000000000e+00,5.000000000000000000e+00,5.000000000000000000e+00,5.000000000000000000e+00,5.000000000000000000e+00,5.000000000000000000e+00,5.000000000000000000e+00,5.000000000000000000e+00,5.000000000000000000e+00,5.000000000000000000e+00,5.000000000000000000e+00,4.847174644470214844e+00,4.657470703125000000e+00,4.482056617736816406e+00,4.319375991821289062e+00,4.168091297149658203e+00,4.027044773101806641e+00,3.895232439041137695e+00,3.771775007247924805e+00,3.655903577804565430e+00,3.546938896179199219e+00,3.444281578063964844e+00,3.347399473190307617e+00,3.255818843841552734e+00,3.169115304946899414e+00,3.086910009384155273e+00,3.008861780166625977e+00,2.934663057327270508e+00,2.864035367965698242e+00,2.796727418899536133e+00,2.732510566711425781e+00,2.671176671981811523e+00,2.612535715103149414e+00,2.556413888931274414e+00,2.502652645111083984e+00,2.451106071472167969e+00,2.401639938354492188e+00,2.354130983352661133e+00,2.308465003967285156e+00,2.264537572860717773e+00,2.222250223159790039e+00,2.181513309478759766e+00,2.142242908477783203e+00,2.104361534118652344e+00,2.067796468734741211e+00,2.032480478286743164e+00,1.998350501060485840e+00,1.965348243713378906e+00,1.933417916297912598e+00,1.902508497238159180e+00,1.872571825981140137e+00,1.843562722206115723e+00
5.000000000000000000e+00,5.000000000000000000e+00,5.000000000000000000e+00,5.000000000000000000e+00,5.000000000000000000e+00,5.000000000000000000e+00,5.000000000000000000e+00,5.000000000000000000e+00,5.000000000000000000e+00,5.000000000000000000e+00,5.000000000000000000e+00,5.000000000000000000e+00,5.000000000000000000e+00,5.000000000000000000e+00,5.000000000000000000e+00,5.000000000000000000e+00,5.000000000000000000e+00,5.000000000000000000e+00,5.000000000000000000e+00,5.000000000000000000e+00,5.000000000000000000e+00,5.000000000000000000e+00,5.000000000000000000e+00,5.000000000000000000e+00,5.000000000000000000e+00,5.000000000000000000e+00,5.000000000000000000e+00,5.000000000000000000e+00,5.000000000000000000e+00,5.000000000000000000e+00,5.000000000000000000e+00,5.000000000000000000e+00,5.000000000000000000e+00,5.000000000000000000e+00,5.000000000000000000e+00,5.000000000000000000e+00,5.000000000000000000e+00,5.000000000000000000e+00,5.000000000000000000e+00,4.847311973571777344e+00,4.657597064971923828e+00,4.482173919677734375e+00,4.319484710693359375e+00,4.168192386627197266e+00,4.027139663696289062e+00,3.895321130752563477e+00,3.771858215332031250e+00,3.655981779098510742e+00,3.547012329101562500e+00,3.444350719451904297e+00,3.347464799880981445e+00,3.255880832672119141e+00,3.169173955917358398e+00,3.086965799331665039e+00,3.008914709091186523e+00,2.934713363647460938e+00,2.864083290100097656e+00,2.796773195266723633e+00,2.732554197311401367e+00,2.671218395233154297e+00,2.612575531005859375e+00,2.556452035903930664e+00,2.502689123153686523e+00,2.451141357421875000e+00,2.401673793792724609e+00,2.354163408279418945e+00,2.308496236801147461e+00,2.264567375183105469e+00,2.222279071807861328e+00,2.181540966033935547e+00,2.142269849777221680e+00,2.104387521743774414e+00,2.067821502685546875e+00,2.032504796981811523e+00,1.998373866081237793e+00,1.965370774269104004e+00,1.933439731597900391e+00,1.902529597282409668e+00,1.872592329978942871e+00,1.843582630157470703e+00
5.000000000000000000e+00,5.000000000000000000e+00,5.000000000000000000e+00,5.000000000000000000e+00,5.000000000000000000e+00,5.000000000000000000e+00,5.000000000000000000e+00,5.000000000000000000e+00,5.000000000000000000e+00,5.000000000000000000e+00,5.000000000000000000e+00,5.000000000000000000e+00,5.000000000000000000e+00,5.000000000000000000e+00,5.000000000000000000e+00,5.000000000000000000e+00,5.000000000000000000e+00,5.000000000000000000e+00,5.000000000000000000e+00,5.000000000000000000e+00,5.000000000000000000e+00,5.000000000000000000e+00,5.000000000000000000e+00,5.000000000000000000e+00,5.000000000000000000e+00,5.000000000000000000e+00,5.000000000000000000e+00,5.000000000000000000e+00,5.000000000000000000e+00,5.000000000000000000e+00,5.000000000000000000e+00,5.000000000000000000e+00,5.000000000000000000e+00,5.000000000000000000e+00,5.000000000000000000e+00,5.000000000000000000e+00,5.000000000000000000e+00,5.000000000000000000e+00,5.000000000000000000e+00,4.847447872161865234e+00,4.657724380493164062e+00,4.482291221618652344e+00,4.319594383239746094e+00,4.168293952941894531e+00,4.027234554290771484e+00,3.895409584045410156e+00,3.771941661834716797e+00,3.656059741973876953e+00,3.547086000442504883e+00,3.444420099258422852e+00,3.347530603408813477e+00,3.255942583084106445e+00,3.169232606887817383e+00,3.087021350860595703e+00,3.008967876434326172e+00,2.934763669967651367e+00,2.864131212234497070e+00,2.796818733215332031e+00,2.732598066329956055e+00,2.671260118484497070e+00,2.612615346908569336e+00,2.556490182876586914e+00,2.502725839614868164e+00,2.451176404953002930e+00,2.401707410812377930e+00,2.354195833206176758e+00,2.308527469635009766e+00,2.264597415924072266e+00,2.222307920455932617e+00,2.181568861007690430e+00,2.142296791076660156e+00,2.104413270950317383e+00,2.067846536636352539e+00,2.032528877258300781e+00,1.998397469520568848e+00,1.965393304824829102e+00,1.933461546897888184e+00,1.902550816535949707e+00,1.872612833976745605e+00,1.843602418899536133e+00
5.000000000000000000e+00,5.000000000000000000e+00,5.000000000000000000e+00,5.000000000000000000e+00,5.000000000000000000e+00,5.000000000000000000e+00,5.000000000000000000e+00,5.000000000000000000e+00,5.000000000000000000e+00,5.000000000000000000e+00,5.000000000000000000e+00,5.000000000000000000e+00,5.000000000000000000e+00,5.000000000000000000e+00,5.000000000000000000e+00,5.000000000000000000e+00,5.000000000000000000e+00,5.000000000000000000e+00,5.000000000000000000e+00,5.000000000000000000e+00,5.000000000000000000e+00,5.000000000000000000e+00,5.000000000000000000e+00,5.000000000000000000e+00,5.000000000000000000e+00,5.000000000000000000e+00,5.000000000000000000e+00,5.000000000000000000e+00,5.000000000000000000e+00,5.000000000000000000e+00,5.000000000000000000e+00,5.000000000000000000e+00,5.000000000000000000e+00,5.000000000000000000e+00,5.000000000000000000e+00,5.000000000000000000e+00,5.000000000000000000e+00,5.000000000000000000e+00,5.000000000000000000e+00,4.847585201263427734e+00,4.657851219177246094e+00,4.482409000396728516e+00,4.319703102111816406e+00,4.168395996093750000e+00,4.027329444885253906e+00,3.895498752593994141e+00,3.772024869918823242e+00,3.656137943267822266e+00,3.547159433364868164e+00,3.444489717483520508e+00,3.347596168518066406e+00,3.256004571914672852e+00,3.169291257858276367e+00,3.087077379226684570e+00,3.009020805358886719e+00,2.934813976287841797e+00,2.864179134368896484e+00,2.796864748001098633e+00,2.732641696929931641e+00,2.671301841735839844e+00,2.612655162811279297e+00,2.556528568267822266e+00,2.502762556076049805e+00,2.451211452484130859e+00,2.401741027832031250e+00,2.354228258132934570e+00,2.308558702468872070e+00,2.264627456665039062e+00,2.222336769104003906e+00,2.181596755981445312e+00,2.142323493957519531e+00,2.104439258575439453e+00,2.067871332168579102e+00,2.032553195953369141e+00,1.998420715332031250e+00,1.965415835380554199e+00,1.933483362197875977e+00,1.902571916580200195e+00,1.872633337974548340e+00,1.843622326850891113e+00
5.000000000000000000e+00,5.000000000000000000e+00,5.000000000000000000e+00,5.000000000000000000e+00,5.000000000000000000e+00,5.000000000000000000e+00,5.000000000000000000e+00,5.000000000000000000e+00,5.000000000000000000e+00,5.000000000000000000e+00,5.000000000000000000e+00,5.000000000000000000e+00,5.000000000000000000e+00,5.000000000000000000e+00,5.000000000000000000e+00,5.000000000000000000e+00,5.000000000000000000e+00,5.000000000000000000e+00,5.000000000000000000e+00,5.000000000000000000e+00,5.000000000000000000e+00,5.000000000000000000e+00,5.000000000000000000e+00,5.000000000000000000e+00,5.000000000000000000e+00,5.000000000000000000e+00,5.000000000000000000e+00,5.000000000000000000e+00,5.000000000000000000e+00,5.000000000000000000e+00,5.000000000000000000e+00,5.000000000000000000e+00,5.000000000000000000e+00,5.000000000000000000e+00,5.000000000000000000e+00,5.000000000000000000e+00,5.000000000000000000e+00,5.000000000000000000e+00,5.000000000000000000e+00,4.847723007202148438e+00,4.657976627349853516e+00,4.482526302337646484e+00,4.319812297821044922e+00,4.168497562408447266e+00,4.027423858642578125e+00,3.895587444305419922e+00,3.772107839584350586e+00,3.656215906143188477e+00,3.547232866287231445e+00,3.444559097290039062e+00,3.347661495208740234e+00,3.256066560745239258e+00,3.169349908828735352e+00,3.087132930755615234e+00,3.009073495864868164e+00,2.934864282608032227e+00,2.864227056503295898e+00,2.796910524368286133e+00,2.732685327529907227e+00,2.671343564987182617e+00,2.612694978713989258e+00,2.556566715240478516e+00,2.502799034118652344e+00,2.451246500015258789e+00,2.401774883270263672e+00,2.354260683059692383e+00,2.308589696884155273e+00,2.264657258987426758e+00,2.222365617752075195e+00,2.181624650955200195e+00,2.142350196838378906e+00,2.104465007781982422e+00,2.067896366119384766e+00,2.032577276229858398e+00,1.998444080352783203e+00,1.965438485145568848e+00,1.933505177497863770e+00,1.902593016624450684e+00,1.872653841972351074e+00,1.843642234802246094e+00
5.000000000000000000e+00,5.000000000000000000e+00,5.000000000000000000e+00,5.000000000000000000e+00,5.000000000000000000e+00,5.000000000000000000e+00,5.000000000000000000e+00,5.000000000000000000e+00,5.000000000000000000e+00,5.000000000000000000e+00,5.000000000000000000e+00,5.000000000000000000e+00,5.000000000000000000e+00,5.000000000000000000e+00,5.000000000000000000e+00,5.000000000000000000e+00,5.000000000000000000e+00,5.000000000000000000e+00,5.000000000000000000e+00,5.000000000000000000e+00,5.000000000000000000e+00,5.000000000000000000e+00,5.000000000000000000e+00,5.000000000000000000e+00,5.000000000000000000e+00,5.000000000000000000e+00,5.000000000000000000e+00,5.000000000000000000e+00,5.000000000000000000e+00,5.000000000000000000e+00,5.000000000000000000e+00,5.000000000000000000e+00,5.000000000000000000e+00,5.000000000000000000e+00,5.000000000000000000e+00,5.000000000000000000e+00,5.000000000000000000e+00,5.000000000000000000e+00,5.000000000000000000e+00,4.847860336303710938e+00,4.658103466033935547e+00,4.482642650604248047e+00,4.319921493530273438e+00,4.168598651885986328e+00,4.027519226074218750e+00,3.895676136016845703e+00,3.772191047668457031e+00,3.656294107437133789e+00,3.547306776046752930e+00,3.444628477096557617e+00,3.347727060317993164e+00,3.256128311157226562e+00,3.169409036636352539e+00,3.087188720703125000e+00,3.009126424789428711e+00,2.934914588928222656e+00,2.864275217056274414e+00,2.796956062316894531e+00,2.732728958129882812e+00,2.671385049819946289e+00,2.612735271453857422e+00,2.556604862213134766e+00,2.502835750579833984e+00,2.451281547546386719e+00,2.401808738708496094e+00,2.354293107986450195e+00,2.308620929718017578e+00,2.264687299728393555e+00,2.222394466400146484e+00,2.181652307510375977e+00,2.142377138137817383e+00,2.104490995407104492e+00,2.067921400070190430e+00,2.032601356506347656e+00,1.998467445373535156e+00,1.965461015701293945e+00,1.933526992797851562e+00,1.902614235877990723e+00,1.872674226760864258e+00,1.843662023544311523e+00
5.000000000000000000e+00,5.000000000000000000e+00,5.000000000000000000e+00,5.000000000000000000e+00,5.000000000000000000e+00,5.000000000000000000e+00,5.000000000000000000e+00,5.000000000000000000e+00,5.000000000000000000e+00,5.000000000000000000e+00,5.000000000000000000e+00,5.000000000000000000e+00,5.000000000000000000e+00,5.000000000000000000e+00,5.000000000000000000e+00,5.000000000000000000e+00,5.000000000000000000e+00,5.000000000000000000e+00,5.000000000000000000e+00,5.000000000000000000e+00,5.000000000000000000e+00,5.000000000000000000e+00,5.000000000000000000e+00,5.000000000000000000e+00,5.000000000000000000e+00,5.000000000000000000e+00,5.000000000000000000e+00,5.000000000000000000e+00,5.000000000000000000e+00,5.000000000000000000e+00,5.000000000000000000e+00,5.000000000000000000e+00,5.000000000000000000e+00,5.000000000000000000e+00,5.000000000000000000e+00,5.000000000000000000e+00,5.000000000000000000e+00,5.000000000000000000e+00,5.000000000000000000e+00,4.847997665405273438e+00,4.658230781555175781e+00,4.482759952545166016e+00,4.320029735565185547e+00,4.168700695037841797e+00,4.027613639831542969e+00,3.895764827728271484e+00,3.772274255752563477e+00,3.656372547149658203e+00,3.547380208969116211e+00,3.444697618484497070e+00,3.347792387008666992e+00,3.256190776824951172e+00,3.169467687606811523e+00,3.087244272232055664e+00,3.009179353713989258e+00,2.934965133666992188e+00,2.864323139190673828e+00,2.797001838684082031e+00,2.732772588729858398e+00,2.671427011489868164e+00,2.612775087356567383e+00,2.556643009185791016e+00,2.502872228622436523e+00,2.451316833496093750e+00,2.401842355728149414e+00,2.354325532913208008e+00,2.308652162551879883e+00,2.264717340469360352e+00,2.222423315048217773e+00,2.181680202484130859e+00,2.142403841018676758e+00,2.104516983032226562e+00,2.067946434020996094e+00,2.032625436782836914e+00,1.998490691184997559e+00,1.965483546257019043e+00,1.933548927307128906e+00,1.902635335922241211e+00,1.872694730758666992e+00,1.843682050704956055e+00
5.000000000000000000e+00,5.000000000000000000e+00,5.000000000000000000e+00,5.000000000000000000e+00,5.000000000000000000e+00,5.000000000000000000e+00,5.000000000000000000e+00,5.000000000000000000e+00,5.000000000000000000e+00,5.000000000000000000e+00,5.000000000000000000e+00,5.000000000000000000e+00,5.000000000000000000e+00,5.000000000000000000e+00,5.000000000000000000e+00,5.000000000000000000e+00,5.000000000000000000e+00,5.000000000000000000e+00,5.000000000000000000e+00,5.000000000000000000e+00,5.000000000000000000e+00,5.000000000000000000e+00,5.000000000000000000e+00,5.000000000000000000e+00,5.000000000000000000e+00,5.000000000000000000e+00,5.000000000000000000e+00,5.000000000000000000e+00,5.000000000000000000e+00,5.000000000000000000e+00,5.000000000000000000e+00,5.000000000000000000e+00,5.000000000000000000e+00,5.000000000000000000e+00,5.000000000000000000e+00,5.000000000000000000e+00,5.000000000000000000e+00,5.000000000000000000e+00,5.000000000000000000e+00,4.848134994506835938e+00,4.658357143402099609e+00,4.482877731323242188e+00,4.320138454437255859e+00,4.168802261352539062e+00,4.027708530426025391e+00,3.895853281021118164e+00,3.772357225418090820e+00,3.656450510025024414e+00,3.547453880310058594e+00,3.444766998291015625e+00,3.347857952117919922e+00,3.256252527236938477e+00,3.169526338577270508e+00,3.087300062179565430e+00,3.009232282638549805e+00,2.935015439987182617e+00,2.864371061325073242e+00,2.797047615051269531e+00,2.732816219329833984e+00,2.671468734741210938e+00,2.612814903259277344e+00,2.556681394577026367e+00,2.502908945083618164e+00,2.451352119445800781e+00,2.401875972747802734e+00,2.354357957839965820e+00,2.308683156967163086e+00,2.264747381210327148e+00,2.222452163696289062e+00,2.181707859039306641e+00,2.142430782318115234e+00,2.104542732238769531e+00,2.067971467971801758e+00,2.032649517059326172e+00,1.998514056205749512e+00,1.965506196022033691e+00,1.933570742607116699e+00,1.902656555175781250e+00,1.872715234756469727e+00,1.843701958656311035e+00
4.875456333160400391e+00,4.874246597290039062e+00,4.873036861419677734e+00,4.871828079223632812e+00,4.870619773864746094e+00,4.869411945343017578e+00,4.868204593658447266e+00,4.866998195648193359e+00,4.865792274475097656e+00,4.864586830139160156e+00,4.863382339477539062e+00,4.862178325653076172e+00,4.860974788665771484e+00,4.859771728515625000e+00,4.858569622039794922e+00,4.857367992401123047e+00,4.856166839599609375e+00,4.854966163635253906e+00,4.853765964508056641e+00,4.852566719055175781e+00,4.851368427276611328e+00,4.850169658660888672e+00,4.848972320556640625e+00,4.847775459289550781e+00,4.846579074859619141e+00,4.845383167266845703e+00,4.844188213348388672e+00,4.842993259429931641e+00,4.841799259185791016e+00,4.840605735778808594e+00,4.839413166046142578e+00,4.838220596313476562e+00,4.837028980255126953e+00,4.835837841033935547e+00,4.834647178649902344e+00,4.833457469940185547e+00,4.832267761230468750e+00,4.831079006195068359e+00,4.829891204833984375e+00,4.828703403472900391e+00,4.658484458923339844e+00,4.482995033264160156e+00,4.320248126983642578e+00,4.168902873992919922e+00,4.027803421020507812e+00,3.895941972732543945e+00,3.772440910339355469e+00,3.656528711318969727e+00,3.547527313232421875e+00,3.444836378097534180e+00,3.347923755645751953e+00,3.256314516067504883e+00,3.169584989547729492e+00,3.087355613708496094e+00,3.009285449981689453e+00,2.935065746307373047e+00,2.864418983459472656e+00,2.797093152999877930e+00,2.732859849929809570e+00,2.671510457992553711e+00,2.612854719161987305e+00,2.556719541549682617e+00,2.502945661544799805e+00,2.451387166976928711e+00,2.401909828186035156e+00,2.354390144348144531e+00,2.308714389801025391e+00,2.264777183532714844e+00,2.222481012344360352e+00,2.181735754013061523e+00,2.142457723617553711e+00,2.104568719863891602e+00,2.067996501922607422e+00,2.032673835754394531e+00,1.998537421226501465e+00,1.965528726577758789e+00,1.933592557907104492e+00,1.902677655220031738e+00,1.872735977172851562e+00,1.843721747398376465e+00
3.778325557708740234e+00,3.777598619461059570e+00,3.776872158050537109e+00,3.776145935058593750e+00,3.775419712066650391e+00,3.774694204330444336e+00,3.773968696594238281e+00,3.773243904113769531e+00,3.772518873214721680e+00,3.771794080734252930e+00,3.771070241928100586e+00,3.770345926284790039e+00,3.769622087478637695e+00,3.768898963928222656e+00,3.768175601959228516e+00,3.767452478408813477e+00,3.766730070114135742e+00,3.766007661819458008e+00,3.765285968780517578e+00,3.764563798904418945e+00,3.763842105865478516e+00,3.763121366500854492e+00,3.762400150299072266e+00,3.761679410934448242e+00,3.760959148406982422e+00,3.760238885879516602e+00,3.759518861770629883e+00,3.758799552917480469e+00,3.758080244064331055e+00,3.757361412048339844e+00,3.756642341613769531e+00,3.755923748016357422e+00,3.755205869674682617e+00,3.754487752914428711e+00,3.753769874572753906e+00,3.753052949905395508e+00,3.752335548400878906e+00,3.751618623733520508e+00,3.750902414321899414e+00,3.750185966491699219e+00,3.749469995498657227e+00,3.748754262924194336e+00,3.748038530349731445e+00,3.747323751449584961e+00,3.746608495712280273e+00,3.745893716812133789e+00,3.745179653167724609e+00,3.656606912612915039e+00,3.547600746154785156e+00,3.444905996322631836e+00,3.347989082336425781e+00,3.256376504898071289e+00,3.169643640518188477e+00,3.087411642074584961e+00,3.009338378906250000e+00,2.935116052627563477e+00,2.864466905593872070e+00,2.797139167785644531e+00,2.732903480529785156e+00,2.671552181243896484e+00,2.612894773483276367e+00,2.556757926940917969e+00,2.502982139587402344e+00,2.451422214508056641e+00,2.401943445205688477e+00,2.354422807693481445e+00,2.308745622634887695e+00,2.264807224273681641e+00,2.222509860992431641e+00,2.181763648986816406e+00,2.142484426498413086e+00,2.104594469070434570e+00,2.068021297454833984e+00,2.032697916030883789e+00,1.998560667037963867e+00,1.965551257133483887e+00,1.933614373207092285e+00,1.902698993682861328e+00,1.872756481170654297e+00,1.843741655349731445e+00
3.084268093109130859e+00,3.083783864974975586e+00,3.083299398422241211e+00,3.082815647125244141e+00,3.082331657409667969e+00,3.081848144531250000e+00,3.081364631652832031e+00,3.080880880355834961e+00,3.080397844314575195e+00,3.079914808273315430e+00,3.079431533813476562e+00,3.078948974609375000e+00,3.078466176986694336e+00,3.077983617782592773e+00,3.077501535415649414e+00,3.077019214630126953e+00,3.076537370681762695e+00,3.076055288314819336e+00,3.075573444366455078e+00,3.075092077255249023e+00,3.074610471725463867e+00,3.074129104614257812e+00,3.073647975921630859e+00,3.073167085647583008e+00,3.072685956954956055e+00,3.072205543518066406e+00,3.071724891662597656e+00,3.071244716644287109e+00,3.070764303207397461e+00,3.070284128189086914e+00,3.069804430007934570e+00,3.069324493408203125e+00,3.068844795227050781e+00,3.068365335464477539e+00,3.067885875701904297e+00,3.067406892776489258e+00,3.066927671432495117e+00,3.066448688507080078e+00,3.065970182418823242e+00,3.065491676330566406e+00,3.065013170242309570e+00,3.064534902572631836e+00,3.064056634902954102e+00,3.063578605651855469e+00,3.063101053237915039e+00,3.062623023986816406e+00,3.062145709991455078e+00,3.061668157577514648e+00,3.061190843582153320e+00,3.060714006423950195e+00,3.060236930847167969e+00,3.059760093688964844e+00,3.059283494949340820e+00,3.058806896209716797e+00,3.009391307830810547e+00,2.935166358947753906e+00,2.864514827728271484e+00,2.797184944152832031e+00,2.732947111129760742e+00,2.671593904495239258e+00,2.612934589385986328e+00,2.556796073913574219e+00,2.503018856048583984e+00,2.451457262039184570e+00,2.401977062225341797e+00,2.354455232620239258e+00,2.308776855468750000e+00,2.264837265014648438e+00,2.222538709640502930e+00,2.181791543960571289e+00,2.142511367797851562e+00,2.104620456695556641e+00,2.068046331405639648e+00,2.032722234725952148e+00,1.998584032058715820e+00,1.965573787689208984e+00,1.933636188507080078e+00,1.902720212936401367e+00,1.872776865959167480e+00,1.843761563301086426e+00
2.605628490447998047e+00,2.605283021926879883e+00,2.604937314987182617e+00,2.604591846466064453e+00,2.604246377944946289e+00,2.603901147842407227e+00,2.603555917739868164e+00,2.603210926055908203e+00,2.602865695953369141e+00,2.602520942687988281e+00,2.602175951004028320e+00,2.601831197738647461e+00,2.601486682891845703e+00,2.601141929626464844e+00,2.600797653198242188e+00,2.600453138351440430e+00,2.600108861923217773e+00,2.599764585494995117e+00,2.599420547485351562e+00,2.599076271057128906e+00,2.598732471466064453e+00,2.598388671875000000e+00,2.598044872283935547e+00,2.597701311111450195e+00,2.597357511520385742e+00,2.597014188766479492e+00,2.596670866012573242e+00,2.596327304840087891e+00,2.595984220504760742e+00,2.595641136169433594e+00,2.595298051834106445e+00,2.594955205917358398e+00,2.594612360000610352e+00,2.594269752502441406e+00,2.593926906585693359e+00,2.593584299087524414e+00,2.593241930007934570e+00,2.592899322509765625e+00,2.592556953430175781e+00,2.592215061187744141e+00,2.591872692108154297e+00,2.591530561447143555e+00,2.591188907623291016e+00,2.590847015380859375e+00,2.590505361557006836e+00,2.590163469314575195e+00,2.589821815490722656e+00,2.589480400085449219e+00,2.589138984680175781e+00,2.588797569274902344e+00,2.588456630706787109e+00,2.588115453720092773e+00,2.587774276733398438e+00,2.587433338165283203e+00,2.587092399597167969e+00,2.586751937866210938e+00,2.586410999298095703e+00,2.586070537567138672e+00,2.585730075836181641e+00,2.585389614105224609e+00,2.585049152374267578e+00,2.556834220886230469e+00,2.503055334091186523e+00,2.451492309570312500e+00,2.402010917663574219e+00,2.354487657546997070e+00,2.308807849884033203e+00,2.264867067337036133e+00,2.222567796707153320e+00,2.181819438934326172e+00,2.142538070678710938e+00,2.104646205902099609e+00,2.068071603775024414e+00,2.032746315002441406e+00,1.998607397079467773e+00,1.965596437454223633e+00,1.933658242225646973e+00,1.902741312980651855e+00,1.872797369956970215e+00,1.843781352043151855e+00
2.255598068237304688e+00,2.255338668823242188e+00,2.255079507827758789e+00,2.254820108413696289e+00,2.254560947418212891e+00,2.254301786422729492e+00,2.254042625427246094e+00,2.253783702850341797e+00,2.253524780273437500e+00,2.253265857696533203e+00,2.253006696701049805e+00,2.252748012542724609e+00,2.252489089965820312e+00,2.252230405807495117e+00,2.251971960067749023e+00,2.251713275909423828e+00,2.251454830169677734e+00,2.251196384429931641e+00,2.250937938690185547e+00,2.250679731369018555e+00,2.250421285629272461e+00,2.250163078308105469e+00,2.249905109405517578e+00,2.249646902084350586e+00,2.249388933181762695e+00,2.249131441116333008e+00,2.248873949050903320e+00,2.248616218566894531e+00,2.248358726501464844e+00,2.248101472854614258e+00,2.247844219207763672e+00,2.247586965560913086e+00,2.247329711914062500e+00,2.247072458267211914e+00,2.246815443038940430e+00,2.246558427810668945e+00,2.246301412582397461e+00,2.246044635772705078e+00,2.245787620544433594e+00,2.245530843734741211e+00,2.245274066925048828e+00,2.245017528533935547e+00,2.244760990142822266e+00,2.244504213333129883e+00,2.244247674942016602e+00,2.243991374969482422e+00,2.243735074996948242e+00,2.243478536605834961e+00,2.243222475051879883e+00,2.242966175079345703e+00,2.242710113525390625e+00,2.242454051971435547e+00,2.242197751998901367e+00,2.241941928863525391e+00,2.241686105728149414e+00,2.241430044174194336e+00,2.241174459457397461e+00,2.240918636322021484e+00,2.240662813186645508e+00,2.240407228469848633e+00,2.240151643753051758e+00,2.239896297454833984e+00,2.239640712738037109e+00,2.239385366439819336e+00,2.239130020141601562e+00,2.238874673843383789e+00,2.238619565963745117e+00,2.238364458084106445e+00,2.222596645355224609e+00,2.181847095489501953e+00,2.142565011978149414e+00,2.104672193527221680e+00,2.068096399307250977e+00,2.032770395278930664e+00,1.998630762100219727e+00,1.965619206428527832e+00,1.933680176734924316e+00,1.902762413024902344e+00,1.872817873954772949e+00,1.843801259994506836e+00
1.988489866256713867e+00,1.988288402557373047e+00,1.988086819648742676e+00,1.987885117530822754e+00,1.987683773040771484e+00,1.987482190132141113e+00,1.987280964851379395e+00,1.987079501152038574e+00,1.986878275871276855e+00,1.986676812171936035e+00,1.986475706100463867e+00,1.986274480819702148e+00,1.986073374748229980e+00,1.985872149467468262e+00,1.985671162605285645e+00,1.985470056533813477e+00,1.985269188880920410e+00,1.985068082809448242e+00,1.984867334365844727e+00,1.984666347503662109e+00,1.984465599060058594e+00,1.984264731407165527e+00,1.984064102172851562e+00,1.983863234519958496e+00,1.983662486076354980e+00,1.983461976051330566e+00,1.983261227607727051e+00,1.983060836791992188e+00,1.982860207557678223e+00,1.982659816741943359e+00,1.982459306716918945e+00,1.982259035110473633e+00,1.982058644294738770e+00,1.981858372688293457e+00,1.981657981872558594e+00,1.981457948684692383e+00,1.981257677078247070e+00,1.981057643890380859e+00,1.980857372283935547e+00,1.980657458305358887e+00,1.980457305908203125e+00,1.980257391929626465e+00,1.980057358741760254e+00,1.979857563972473145e+00,1.979657649993896484e+00,1.979457974433898926e+00,1.979258060455322266e+00,1.979058146476745605e+00,1.978858590126037598e+00,1.978658795356750488e+00,1.978459358215332031e+00,1.978259563446044922e+00,1.978060126304626465e+00,1.977860569953918457e+00,1.977661252021789551e+00,1.977461695671081543e+00,1.977262377738952637e+00,1.977062940597534180e+00,1.976863741874694824e+00,1.976664423942565918e+00,1.976465344429016113e+00,1.976266026496887207e+00,1.976066946983337402e+00,1.975867748260498047e+00,1.975668787956237793e+00,1.975469708442687988e+00,1.975270867347717285e+00,1.975071787834167480e+00,1.974872827529907227e+00,1.974673986434936523e+00,1.974475145339965820e+00,1.974276423454284668e+00,1.974077582359313965e+00,1.973878979682922363e+00,1.973680257797241211e+00,1.965641736984252930e+00,1.933701992034912109e+00,1.902783632278442383e+00,1.872838377952575684e+00,1.843821048736572266e+00
1.777945518493652344e+00,1.777784228324890137e+00,1.777623176574707031e+00,1.777461886405944824e+00,1.777300953865051270e+00,1.777139782905578613e+00,1.776978850364685059e+00,1.776817798614501953e+00,1.776656866073608398e+00,1.776495814323425293e+00,1.776335000991821289e+00,1.776174068450927734e+00,1.776013255119323730e+00,1.775852322578430176e+00,1.775691628456115723e+00,1.775530815124511719e+00,1.775370001792907715e+00,1.775209426879882812e+00,1.775048613548278809e+00,1.774888038635253906e+00,1.774727344512939453e+00,1.774566888809204102e+00,1.774406194686889648e+00,1.774245738983154297e+00,1.774085164070129395e+00,1.773924708366394043e+00,1.773764252662658691e+00,1.773603916168212891e+00,1.773443460464477539e+00,1.773283123970031738e+00,1.773122668266296387e+00,1.772962450981140137e+00,1.772802114486694336e+00,1.772642016410827637e+00,1.772481679916381836e+00,1.772321581840515137e+00,1.772161364555358887e+00,1.772001147270202637e+00,1.771841049194335938e+00,1.771680951118469238e+00,1.771520972251892090e+00,1.771360874176025391e+00,1.771201014518737793e+00,1.771040916442871094e+00,1.770881056785583496e+00,1.770721077919006348e+00,1.770561337471008301e+00,1.770401358604431152e+00,1.770241618156433105e+00,1.770081758499145508e+00,1.769922137260437012e+00,1.769762277603149414e+00,1.769602656364440918e+00,1.769442915916442871e+00,1.769283413887023926e+00,1.769123673439025879e+00,1.768964171409606934e+00,1.768804550170898438e+00,1.768645167350769043e+00,1.768485546112060547e+00,1.768326044082641602e+00,1.768166661262512207e+00,1.768007159233093262e+00,1.767847895622253418e+00,1.767688393592834473e+00,1.767529129981994629e+00,1.767369747161865234e+00,1.767210602760314941e+00,1.767051339149475098e+00,1.766892194747924805e+00,1.766732931137084961e+00,1.766573905944824219e+00,1.766414642333984375e+00,1.766255617141723633e+00,1.766096472740173340e+00,1.765937566757202148e+00,1.765778422355651855e+00,1.765619635581970215e+00,1.765460610389709473e+00,1.765301704406738281e+00
1.607717752456665039e+00,1.607585906982421875e+00,1.607454180717468262e+00,1.607322335243225098e+00,1.607190728187561035e+00,1.607058882713317871e+00,1.606927275657653809e+00,1.606795549392700195e+00,1.606663823127746582e+00,1.606532335281372070e+00,1.606400609016418457e+00,1.606269121170043945e+00,1.606137514114379883e+00,1.606006026268005371e+00,1.605874538421630859e+00,1.605743050575256348e+00,1.605611562728881836e+00,1.605480194091796875e+00,1.605348706245422363e+00,1.605217337608337402e+00,1.605085849761962891e+00,1.604954600334167480e+00,1.604823231697082520e+00,1.604691982269287109e+00,1.604560613632202148e+00,1.604429364204406738e+00,1.604297995567321777e+00,1.604166865348815918e+00,1.604035615921020508e+00,1.603904366493225098e+00,1.603773236274719238e+00,1.603641986846923828e+00,1.603510975837707520e+00,1.603379845619201660e+00,1.603248834609985352e+00,1.603117704391479492e+00,1.602986693382263184e+00,1.602855563163757324e+00,1.602724671363830566e+00,1.602593660354614258e+00,1.602462768554687500e+00,1.602331757545471191e+00,1.602200865745544434e+00,1.602069973945617676e+00,1.601939201354980469e+00,1.601808309555053711e+00,1.601677536964416504e+00,1.601546645164489746e+00,1.601415872573852539e+00,1.601285099983215332e+00,1.601154446601867676e+00,1.601023674011230469e+00,1.600892901420593262e+00,1.600762248039245605e+00,1.600631594657897949e+00,1.600500941276550293e+00,1.600370287895202637e+00,1.600239753723144531e+00,1.600109100341796875e+00,1.599978685379028320e+00,1.599848031997680664e+00,1.599717617034912109e+00,1.599587082862854004e+00,1.599456667900085449e+00,1.599326133728027344e+00,1.599195837974548340e+00,1.599065303802490234e+00,1.598935008049011230e+00,1.598804593086242676e+00,1.598674416542053223e+00,1.598544001579284668e+00,1.598413825035095215e+00,1.598283410072326660e+00,1.598153114318847656e+00,1.598022937774658203e+00,1.597892642021179199e+00,1.597762584686279297e+00,1.597632288932800293e+00,1.597502231597900391e+00,1.597372055053710938e+00
1.467238187789916992e+00,1.467128515243530273e+00,1.467018723487854004e+00,1.466909050941467285e+00,1.466799259185791016e+00,1.466689586639404297e+00,1.466579914093017578e+00,1.466470241546630859e+00,1.466360569000244141e+00,1.466251015663146973e+00,1.466141343116760254e+00,1.466031789779663086e+00,1.465922117233276367e+00,1.465812563896179199e+00,1.465703010559082031e+00,1.465593457221984863e+00,1.465483903884887695e+00,1.465374469757080078e+00,1.465264916419982910e+00,1.465155482292175293e+00,1.465046048164367676e+00,1.464936494827270508e+00,1.464827179908752441e+00,1.464717626571655273e+00,1.464608311653137207e+00,1.464498877525329590e+00,1.464389562606811523e+00,1.464280247688293457e+00,1.464170932769775391e+00,1.464061617851257324e+00,1.463952302932739258e+00,1.463842988014221191e+00,1.463733792304992676e+00,1.463624477386474609e+00,1.463515281677246094e+00,1.463406085968017578e+00,1.463296890258789062e+00,1.463187694549560547e+00,1.463078618049621582e+00,1.462969422340393066e+00,1.462860345840454102e+00,1.462751150131225586e+00,1.462642073631286621e+00,1.462532997131347656e+00,1.462423801422119141e+00,1.462314844131469727e+00,1.462205767631530762e+00,1.462096810340881348e+00,1.461987733840942383e+00,1.461878895759582520e+00,1.461769819259643555e+00,1.461660981178283691e+00,1.461551904678344727e+00,1.461443066596984863e+00,1.461334109306335449e+00,1.461225271224975586e+00,1.461116433143615723e+00,1.461007595062255859e+00,1.460898637771606445e+00,1.460789918899536133e+00,1.460681080818176270e+00,1.460572361946105957e+00,1.460463523864746094e+00,1.460354804992675781e+00,1.460245966911315918e+00,1.460137248039245605e+00,1.460028648376464844e+00,1.459919810295104980e+00,1.459811210632324219e+00,1.459702491760253906e+00,1.459593892097473145e+00,1.459485292434692383e+00,1.459376692771911621e+00,1.459268093109130859e+00,1.459159493446350098e+00,1.459050893783569336e+00,1.458942413330078125e+00,1.458833813667297363e+00,1.458725333213806152e+00,1.458616852760314941e+00
1.349335789680480957e+00,1.349242925643920898e+00,1.349150061607360840e+00,1.349057316780090332e+00,1.348964452743530273e+00,1.348871827125549316e+00,1.348778963088989258e+00,1.348686218261718750e+00,1.348593473434448242e+00,1.348500728607177734e+00,1.348407983779907227e+00,1.348315358161926270e+00,1.348222613334655762e+00,1.348129868507385254e+00,1.348037242889404297e+00,1.347944498062133789e+00,1.347851991653442383e+00,1.347759246826171875e+00,1.347666740417480469e+00,1.347573995590209961e+00,1.347481489181518555e+00,1.347388863563537598e+00,1.347296357154846191e+00,1.347203731536865234e+00,1.347111344337463379e+00,1.347018718719482422e+00,1.346926212310791016e+00,1.346833705902099609e+00,1.346741318702697754e+00,1.346648693084716797e+00,1.346556305885314941e+00,1.346463799476623535e+00,1.346371412277221680e+00,1.346278905868530273e+00,1.346186518669128418e+00,1.346094131469726562e+00,1.346001744270324707e+00,1.345909357070922852e+00,1.345816969871520996e+00,1.345724701881408691e+00,1.345632314682006836e+00,1.345540046691894531e+00,1.345447659492492676e+00,1.345355391502380371e+00,1.345263004302978516e+00,1.345170855522155762e+00,1.345078468322753906e+00,1.344986319541931152e+00,1.344894051551818848e+00,1.344801783561706543e+00,1.344709515571594238e+00,1.344617366790771484e+00,1.344525218009948730e+00,1.344433069229125977e+00,1.344340801239013672e+00,1.344248771667480469e+00,1.344156503677368164e+00,1.344064354896545410e+00,1.343972325325012207e+00,1.343880176544189453e+00,1.343788146972656250e+00,1.343695998191833496e+00,1.343603968620300293e+00,1.343511939048767090e+00,1.343419909477233887e+00,1.343327879905700684e+00,1.343235850334167480e+00,1.343143820762634277e+00,1.343051910400390625e+00,1.342959880828857422e+00,1.342867970466613770e+00,1.342775940895080566e+00,1.342684030532836914e+00,1.342592120170593262e+00,1.342500209808349609e+00,1.342408299446105957e+00,1.342316508293151855e+00,1.342224478721618652e+00,1.342132568359375000e+00,1.342040777206420898e+00
1.248972415924072266e+00,1.248892903327941895e+00,1.248813390731811523e+00,1.248733878135681152e+00,1.248654365539550781e+00,1.248574852943420410e+00,1.248495340347290039e+00,1.248415827751159668e+00,1.248336434364318848e+00,1.248256921768188477e+00,1.248177528381347656e+00,1.248098015785217285e+00,1.248018622398376465e+00,1.247939229011535645e+00,1.247859835624694824e+00,1.247780442237854004e+00,1.247701048851013184e+00,1.247621655464172363e+00,1.247542262077331543e+00,1.247462868690490723e+00,1.247383594512939453e+00,1.247304201126098633e+00,1.247224926948547363e+00,1.247145533561706543e+00,1.247066378593444824e+00,1.246986985206604004e+00,1.246907711029052734e+00,1.246828436851501465e+00,1.246749162673950195e+00,1.246669888496398926e+00,1.246590614318847656e+00,1.246511459350585938e+00,1.246432185173034668e+00,1.246353030204772949e+00,1.246273756027221680e+00,1.246194601058959961e+00,1.246115326881408691e+00,1.246036171913146973e+00,1.245957016944885254e+00,1.245877861976623535e+00,1.245798707008361816e+00,1.245719671249389648e+00,1.245640397071838379e+00,1.245561361312866211e+00,1.245482206344604492e+00,1.245403170585632324e+00,1.245324015617370605e+00,1.245244979858398438e+00,1.245165944099426270e+00,1.245086789131164551e+00,1.245007753372192383e+00,1.244928717613220215e+00,1.244849681854248047e+00,1.244770646095275879e+00,1.244691729545593262e+00,1.244612693786621094e+00,1.244533777236938477e+00,1.244454741477966309e+00,1.244375824928283691e+00,1.244296789169311523e+00,1.244217872619628906e+00,1.244138956069946289e+00,1.244060039520263672e+00,1.243981122970581055e+00,1.243902206420898438e+00,1.243823289871215820e+00,1.243744492530822754e+00,1.243665575981140137e+00,1.243586778640747070e+00,1.243507862091064453e+00,1.243428945541381836e+00,1.243350148200988770e+00,1.243271231651306152e+00,1.243192553520202637e+00,1.243113636970520020e+00,1.243034958839416504e+00,1.242956042289733887e+00,1.242877364158630371e+00,1.242798566818237305e+00,1.242719888687133789e+00
1.162505507469177246e+00,1.162436604499816895e+00,1.162367701530456543e+00,1.162298798561096191e+00,1.162230014801025391e+00,1.162161111831665039e+00,1.162092208862304688e+00,1.162023305892944336e+00,1.161954522132873535e+00,1.161885619163513184e+00,1.161816835403442383e+00,1.161748051643371582e+00,1.161679267883300781e+00,1.161610364913940430e+00,1.161541581153869629e+00,1.161472797393798828e+00,1.161404013633728027e+00,1.161335229873657227e+00,1.161266446113586426e+00,1.161197662353515625e+00,1.161128878593444824e+00,1.161060214042663574e+00,1.160991430282592773e+00,1.160922765731811523e+00,1.160853981971740723e+00,1.160785317420959473e+00,1.160716533660888672e+00,1.160647869110107422e+00,1.160579204559326172e+00,1.160510540008544922e+00,1.160441756248474121e+00,1.160373210906982422e+00,1.160304427146911621e+00,1.160235881805419922e+00,1.160167217254638672e+00,1.160098552703857422e+00,1.160029888153076172e+00,1.159961342811584473e+00,1.159892678260803223e+00,1.159824132919311523e+00,1.159755587577819824e+00,1.159686923027038574e+00,1.159618377685546875e+00,1.159549713134765625e+00,1.159481287002563477e+00,1.159412622451782227e+00,1.159344196319580078e+00,1.159275531768798828e+00,1.159207105636596680e+00,1.159138560295104980e+00,1.159070014953613281e+00,1.159001469612121582e+00,1.158933043479919434e+00,1.158864498138427734e+00,1.158796072006225586e+00,1.158727645874023438e+00,1.158659219741821289e+00,1.158590674400329590e+00,1.158522248268127441e+00,1.158453822135925293e+00,1.158385396003723145e+00,1.158316969871520996e+00,1.158248543739318848e+00,1.158180117607116699e+00,1.158111691474914551e+00,1.158043384552001953e+00,1.157974958419799805e+00,1.157906651496887207e+00,1.157838225364685059e+00,1.157769918441772461e+00,1.157701492309570312e+00,1.157633185386657715e+00,1.157564878463745117e+00,1.157496571540832520e+00,1.157428264617919922e+00,1.157359957695007324e+00,1.157291650772094727e+00,1.157223343849182129e+00,1.157155036926269531e+00,1.157086849212646484e+00
1.087235689163208008e+00,1.087175369262695312e+00,1.087115168571472168e+00,1.087054848670959473e+00,1.086994647979736328e+00,1.086934447288513184e+00,1.086874246597290039e+00,1.086813926696777344e+00,1.086753726005554199e+00,1.086693525314331055e+00,1.086633205413818359e+00,1.086573004722595215e+00,1.086512804031372070e+00,1.086452722549438477e+00,1.086392402648925781e+00,1.086332321166992188e+00,1.086272120475769043e+00,1.086211919784545898e+00,1.086151719093322754e+00,1.086091637611389160e+00,1.086031436920166016e+00,1.085971355438232422e+00,1.085911154747009277e+00,1.085851073265075684e+00,1.085790991783142090e+00,1.085730910301208496e+00,1.085670709609985352e+00,1.085610628128051758e+00,1.085550546646118164e+00,1.085490465164184570e+00,1.085430383682250977e+00,1.085370302200317383e+00,1.085310220718383789e+00,1.085250139236450195e+00,1.085190176963806152e+00,1.085130095481872559e+00,1.085070013999938965e+00,1.085009932518005371e+00,1.084949970245361328e+00,1.084889888763427734e+00,1.084829926490783691e+00,1.084769964218139648e+00,1.084709882736206055e+00,1.084649920463562012e+00,1.084589958190917969e+00,1.084529995918273926e+00,1.084470033645629883e+00,1.084409952163696289e+00,1.084350109100341797e+00,1.084290146827697754e+00,1.084230184555053711e+00,1.084170222282409668e+00,1.084110260009765625e+00,1.084050297737121582e+00,1.083990454673767090e+00,1.083930492401123047e+00,1.083870530128479004e+00,1.083810687065124512e+00,1.083750724792480469e+00,1.083690881729125977e+00,1.083631038665771484e+00,1.083571195602416992e+00,1.083511233329772949e+00,1.083451509475708008e+00,1.083391547203063965e+00,1.083331704139709473e+00,1.083271861076354980e+00,1.083212018013000488e+00,1.083152174949645996e+00,1.083092451095581055e+00,1.083032608032226562e+00,1.082972764968872070e+00,1.082912921905517578e+00,1.082853198051452637e+00,1.082793354988098145e+00,1.082733631134033203e+00,1.082673788070678711e+00,1.082614064216613770e+00,1.082554340362548828e+00,1.082494497299194336e+00
1.021120309829711914e+00,1.021067142486572266e+00,1.021013975143432617e+00,1.020960807800292969e+00,1.020907640457153320e+00,1.020854473114013672e+00,1.020801305770874023e+00,1.020748257637023926e+00,1.020695090293884277e+00,1.020642042160034180e+00,1.020588874816894531e+00,1.020535707473754883e+00,1.020482659339904785e+00,1.020429611206054688e+00,1.020376443862915039e+00,1.020323395729064941e+00,1.020270228385925293e+00,1.020217180252075195e+00,1.020164132118225098e+00,1.020111083984375000e+00,1.020058035850524902e+00,1.020004987716674805e+00,1.019951939582824707e+00,1.019898891448974609e+00,1.019845843315124512e+00,1.019792795181274414e+00,1.019739747047424316e+00,1.019686698913574219e+00,1.019633650779724121e+00,1.019580721855163574e+00,1.019527673721313477e+00,1.019474625587463379e+00,1.019421696662902832e+00,1.019368648529052734e+00,1.019315719604492188e+00,1.019262671470642090e+00,1.019209742546081543e+00,1.019156813621520996e+00,1.019103884696960449e+00,1.019050836563110352e+00,1.018997907638549805e+00,1.018944978713989258e+00,1.018892049789428711e+00,1.018839120864868164e+00,1.018786191940307617e+00,1.018733263015747070e+00,1.018680334091186523e+00,1.018627405166625977e+00,1.018574476242065430e+00,1.018521666526794434e+00,1.018468737602233887e+00,1.018415808677673340e+00,1.018362879753112793e+00,1.018310070037841797e+00,1.018257141113281250e+00,1.018204331398010254e+00,1.018151402473449707e+00,1.018098592758178711e+00,1.018045663833618164e+00,1.017992854118347168e+00,1.017940044403076172e+00,1.017887234687805176e+00,1.017834424972534180e+00,1.017781615257263184e+00,1.017728686332702637e+00,1.017675995826721191e+00,1.017623066902160645e+00,1.017570376396179199e+00,1.017517566680908203e+00,1.017464637756347656e+00,1.017411947250366211e+00,1.017359137535095215e+00,1.017306327819824219e+00,1.017253637313842773e+00,1.017200827598571777e+00,1.017148017883300781e+00,1.017095327377319336e+00,1.017042517662048340e+00,1.016989827156066895e+00,1.016937136650085449e+00
9.625849127769470215e-01,9.625377655029296875e-01,9.624904990196228027e-01,9.624432325363159180e-01,9.623959660530090332e-01,9.623488187789916992e-01,9.623015522956848145e-01,9.622543454170227051e-01,9.622070789337158203e-01,9.621599912643432617e-01,9.621127247810363770e-01,9.620655179023742676e-01,9.620183110237121582e-01,9.619711637496948242e-01,9.619239568710327148e-01,9.618767499923706055e-01,9.618295431137084961e-01,9.617823958396911621e-01,9.617353081703186035e-01,9.616881012916564941e-01,9.616408944129943848e-01,9.615937471389770508e-01,9.615466594696044922e-01,9.614995121955871582e-01,9.614523053169250488e-01,9.614051580429077148e-01,9.613581299781799316e-01,9.613109827041625977e-01,9.612638354301452637e-01,9.612166881561279297e-01,9.611696600914001465e-01,9.611225128173828125e-01,9.610753655433654785e-01,9.610282778739929199e-01,9.609812498092651367e-01,9.609341621398925781e-01,9.608870148658752441e-01,9.608399271965026855e-01,9.607928395271301270e-01,9.607458114624023438e-01,9.606987237930297852e-01,9.606516361236572266e-01,9.606045484542846680e-01,9.605576395988464355e-01,9.605105519294738770e-01,9.604634642601013184e-01,9.604163765907287598e-01,9.603694677352905273e-01,9.603223800659179688e-01,9.602753520011901855e-01,9.602283239364624023e-01,9.601813554763793945e-01,9.601343274116516113e-01,9.600872993469238281e-01,9.600402712821960449e-01,9.599933624267578125e-01,9.599463343620300293e-01,9.598993062973022461e-01,9.598523378372192383e-01,9.598053097724914551e-01,9.597584009170532227e-01,9.597114324569702148e-01,9.596644043922424316e-01,9.596174359321594238e-01,9.595705866813659668e-01,9.595236182212829590e-01,9.594765901565551758e-01,9.594296813011169434e-01,9.593827724456787109e-01,9.593358635902404785e-01,9.592888951301574707e-01,9.592419266700744629e-01,9.591950774192810059e-01,9.591481685638427734e-01,9.591012001037597656e-01,9.590542912483215332e-01,9.590075016021728516e-01,9.589605331420898438e-01,9.589136242866516113e-01,9.588667154312133789e-01
