5.000000000000000000e+00,5.000000000000000000e+00,5.000000000000000000e+00,5.000000000000000000e+00,5.000000000000000000e+00,5.000000000000000000e+00,5.000000000000000000e+00,5.000000000000000000e+00,5.000000000000000000e+00,5.000000000000000000e+00,5.000000000000000000e+00,5.000000000000000000e+00,5.000000000000000000e+00,5.000000000000000000e+00,5.000000000000000000e+00,5.000000000000000000e+00,5.000000000000000000e+00,5.000000000000000000e+00,5.000000000000000000e+00,5.000000000000000000e+00,5.000000000000000000e+00,5.000000000000000000e+00,5.000000000000000000e+00,5.000000000000000000e+00,5.000000000000000000e+00,5.000000000000000000e+00,5.000000000000000000e+00,5.000000000000000000e+00,5.000000000000000000e+00,5.000000000000000000e+00,5.000000000000000000e+00,5.000000000000000000e+00,5.000000000000000000e+00,5.000000000000000000e+00,5.000000000000000000e+00,5.000000000000000000e+00,5.000000000000000000e+00,5.000000000000000000e+00,5.000000000000000000e+00,4.850153923034667969e+00,4.660187721252441406e+00,4.484541416168212891e+00,4.321654796600341797e+00,4.170186042785644531e+00,4.028975009918212891e+00,3.897014856338500977e+00,3.773424148559570312e+00,3.657431840896606445e+00,3.548358201980590820e+00,3.445601463317871094e+00,3.348628759384155273e+00,3.256964921951293945e+00,3.170185804367065430e+00,3.087911128997802734e+00,3.009798765182495117e+00,2.935540914535522461e+00,2.864858865737915039e+00,2.797500371932983398e+00,2.733237028121948242e+00,2.671859741210937500e+00,2.613178253173828125e+00,2.557019233703613281e+00,2.503222942352294922e+00,2.451643705368041992e+00,2.402147293090820312e+00,2.354609966278076172e+00,2.308917284011840820e+00,2.264964580535888672e+00,2.222653865814208984e+00,2.181895017623901367e+00,2.142603874206542969e+00,2.104702949523925781e+00,2.068119525909423828e+00,2.032786130905151367e+00,1.998640060424804688e+00,1.965621948242187500e+00,1.933677077293395996e+00,1.902753829956054688e+00,1.872804045677185059e+00,1.843782544136047363e+00
5.000000000000000000e+00,5.000000000000000000e+00,5.000000000000000000e+00,5.000000000000000000e+00,5.000000000000000000e+00,5.000000000000000000e+00,5.000000000000000000e+00,5.000000000000000000e+00,5.000000000000000000e+00,5.000000000000000000e+00,5.000000000000000000e+00,5.000000000000000000e+00,5.000000000000000000e+00,5.000000000000000000e+00,5.000000000000000000e+00,5.000000000000000000e+00,5.000000000000000000e+00,5.000000000000000000e+00,5.000000000000000000e+00,5.000000000000000000e+00,5.000000000000000000e+00,5.000000000000000000e+00,5.000000000000000000e+00,5.000000000000000000e+00,5.000000000000000000e+00,5.000000000000000000e+00,5.000000000000000000e+00,5.000000000000000000e+00,5.000000000000000000e+00,5.000000000000000000e+00,5.000000000000000000e+00,5.000000000000000000e+00,5.000000000000000000e+00,5.000000000000000000e+00,5.000000000000000000e+00,5.000000000000000000e+00,5.000000000000000000e+00,5.000000000000000000e+00,5.000000000000000000e+00,4.850291728973388672e+00,4.660314559936523438e+00,4.484659194946289062e+00,4.321763992309570312e+00,4.170287609100341797e+00,4.029070377349853516e+00,3.897104024887084961e+00,3.773507833480834961e+00,3.657510519027709961e+00,3.548431873321533203e+00,3.445670843124389648e+00,3.348694562911987305e+00,3.257027387619018555e+00,3.170244693756103516e+00,3.087966918945312500e+00,3.009851694107055664e+00,2.935591459274291992e+00,2.864907026290893555e+00,2.797546386718750000e+00,2.733280658721923828e+00,2.671901464462280273e+00,2.613218307495117188e+00,2.557057619094848633e+00,2.503259658813476562e+00,2.451678991317749023e+00,2.402181148529052734e+00,2.354642391204833984e+00,2.308948755264282227e+00,2.264994621276855469e+00,2.222682714462280273e+00,2.181922674179077148e+00,2.142630815505981445e+00,2.104728937149047852e+00,2.068144559860229492e+00,2.032810449600219727e+00,1.998663306236267090e+00,1.965644478797912598e+00,1.933698892593383789e+00,1.902774930000305176e+00,1.872824549674987793e+00,1.843802452087402344e+00
5.000000000000000000e+00,5.000000000000000000e+00,5.000000000000000000e+00,5.000000000000000000e+00,5.000000000000000000e+00,5.000000000000000000e+00,5.000000000000000000e+00,5.000000000000000000e+00,5.000000000000000000e+00,5.000000000000000000e+00,5.000000000000000000e+00,5.000000000000000000e+00,5.000000000000000000e+00,5.000000000000000000e+00,5.000000000000000000e+00,5.000000000000000000e+00,5.000000000000000000e+00,5.000000000000000000e+00,5.000000000000000000e+00,5.000000000000000000e+00,5.000000000000000000e+00,5.000000000000000000e+00,5.000000000000000000e+00,5.000000000000000000e+00,5.000000000000000000e+00,5.000000000000000000e+00,5.000000000000000000e+00,5.000000000000000000e+00,5.000000000000000000e+00,5.000000000000000000e+00,5.000000000000000000e+00,5.000000000000000000e+00,5.000000000000000000e+00,5.000000000000000000e+00,5.000000000000000000e+00,5.000000000000000000e+00,5.000000000000000000e+00,5.000000000000000000e+00,5.000000000000000000e+00,4.850429534912109375e+00,4.660441875457763672e+00,4.484776973724365234e+00,4.321873188018798828e+00,4.170389652252197266e+00,4.029165744781494141e+00,3.897192716598510742e+00,3.773591041564941406e+00,3.657588958740234375e+00,3.548505783081054688e+00,3.445740461349487305e+00,3.348760128021240234e+00,3.257089376449584961e+00,3.170303821563720703e+00,3.088022947311401367e+00,3.009904861450195312e+00,2.935641765594482422e+00,2.864954948425292969e+00,2.797592401504516602e+00,2.733324527740478516e+00,2.671943426132202148e+00,2.613258361816406250e+00,2.557095766067504883e+00,2.503296375274658203e+00,2.451714277267456055e+00,2.402215003967285156e+00,2.354674816131591797e+00,2.308979749679565430e+00,2.265024662017822266e+00,2.222711801528930664e+00,2.181950807571411133e+00,2.142657756805419922e+00,2.104754924774169922e+00,2.068169593811035156e+00,2.032834768295288086e+00,1.998686671257019043e+00,1.965667128562927246e+00,1.933720707893371582e+00,1.902796149253845215e+00,1.872845053672790527e+00,1.843822479248046875e+00
5.000000000000000000e+00,5.000000000000000000e+00,5.000000000000000000e+00,5.000000000000000000e+00,5.000000000000000000e+00,5.000000000000000000e+00,5.000000000000000000e+00,5.000000000000000000e+00,5.000000000000000000e+00,5.000000000000000000e+00,5.000000000000000000e+00,5.000000000000000000e+00,5.000000000000000000e+00,5.000000000000000000e+00,5.000000000000000000e+00,5.000000000000000000e+00,5.000000000000000000e+00,5.000000000000000000e+00,5.000000000000000000e+00,5.000000000000000000e+00,5.000000000000000000e+00,5.000000000000000000e+00,5.000000000000000000e+00,4.441235542297363281e+00,4.416700839996337891e+00,5.000000000000000000e+00,5.000000000000000000e+00,5.000000000000000000e+00,5.000000000000000000e+00,5.000000000000000000e+00,5.000000000000000000e+00,5.000000000000000000e+00,5.000000000000000000e+00,5.000000000000000000e+00,5.000000000000000000e+00,5.000000000000000000e+00,5.000000000000000000e+00,5.000000000000000000e+00,5.000000000000000000e+00,4.850567340850830078e+00,4.660569190979003906e+00,4.484895229339599609e+00,4.321982860565185547e+00,4.170491695404052734e+00,4.029260635375976562e+00,3.897281885147094727e+00,3.773674488067626953e+00,3.657667160034179688e+00,3.548579216003417969e+00,3.445810317993164062e+00,3.348825931549072266e+00,3.257151603698730469e+00,3.170362472534179688e+00,3.088078498840332031e+00,3.009958028793334961e+00,2.935692310333251953e+00,2.865003108978271484e+00,2.797637939453125000e+00,2.733368158340454102e+00,2.671984910964965820e+00,2.613298416137695312e+00,2.557134151458740234e+00,2.503333091735839844e+00,2.451749563217163086e+00,2.402248620986938477e+00,2.354707479476928711e+00,2.309011220932006836e+00,2.265054702758789062e+00,2.222740650177001953e+00,2.181978464126586914e+00,2.142684698104858398e+00,2.104780912399291992e+00,2.068194627761840820e+00,2.032858848571777344e+00,1.998710036277770996e+00,1.965689659118652344e+00,1.933742761611938477e+00,1.902817487716674805e+00,1.872865796089172363e+00,1.843842387199401855e+00
5.000000000000000000e+00,5.000000000000000000e+00,5.000000000000000000e+00,5.000000000000000000e+00,5.000000000000000000e+00,5.000000000000000000e+00,5.000000000000000000e+00,5.000000000000000000e+00,5.000000000000000000e+00,5.000000000000000000e+00,5.000000000000000000e+00,5.000000000000000000e+00,5.000000000000000000e+00,5.000000000000000000e+00,5.000000000000000000e+00,5.000000000000000000e+00,5.000000000000000000e+00,5.000000000000000000e+00,5.000000000000000000e+00,5.000000000000000000e+00,5.000000000000000000e+00,5.000000000000000000e+00,5.000000000000000000e+00,4.469880580902099609e+00,4.428116321563720703e+00,5.000000000000000000e+00,5.000000000000000000e+00,5.000000000000000000e+00,5.000000000000000000e+00,5.000000000000000000e+00,5.000000000000000000e+00,5.000000000000000000e+00,5.000000000000000000e+00,5.000000000000000000e+00,5.000000000000000000e+00,5.000000000000000000e+00,5.000000000000000000e+00,5.000000000000000000e+00,5.000000000000000000e+00,4.850705146789550781e+00,4.660696506500244141e+00,4.485013008117675781e+00,4.322092056274414062e+00,4.170593738555908203e+00,4.029355525970458984e+00,3.897370576858520508e+00,3.773758172988891602e+00,3.657745599746704102e+00,3.548653125762939453e+00,3.445879697799682617e+00,3.348891496658325195e+00,3.257213830947875977e+00,3.170421600341796875e+00,3.088134527206420898e+00,3.010010957717895508e+00,2.935742855072021484e+00,2.865051269531250000e+00,2.797683954238891602e+00,2.733412027359008789e+00,2.672026872634887695e+00,2.613338232040405273e+00,2.557172298431396484e+00,2.503369808197021484e+00,2.451784849166870117e+00,2.402282476425170898e+00,2.354739904403686523e+00,2.309042215347290039e+00,2.265084981918334961e+00,2.222769737243652344e+00,2.182006359100341797e+00,2.142711400985717773e+00,2.104806661605834961e+00,2.068219661712646484e+00,2.032883167266845703e+00,1.998733639717102051e+00,1.965712428092956543e+00,1.933764576911926270e+00,1.902838587760925293e+00,1.872886180877685547e+00,1.843862175941467285e+00
5.000000000000000000e+00,5.000000000000000000e+00,5.000000000000000000e+00,5.000000000000000000e+00,5.000000000000000000e+00,5.000000000000000000e+00,5.000000000000000000e+00,5.000000000000000000e+00,5.000000000000000000e+00,5.000000000000000000e+00,5.000000000000000000e+00,5.000000000000000000e+00,5.000000000000000000e+00,5.000000000000000000e+00,5.000000000000000000e+00,5.000000000000000000e+00,5.000000000000000000e+00,5.000000000000000000e+00,5.000000000000000000e+00,5.000000000000000000e+00,5.000000000000000000e+00,5.000000000000000000e+00,5.000000000000000000e+00,4.505550384521484375e+00,4.505347251892089844e+00,5.000000000000000000e+00,5.000000000000000000e+00,5.000000000000000000e+00,5.000000000000000000e+00,5.000000000000000000e+00,5.000000000000000000e+00,5.000000000000000000e+00,5.000000000000000000e+00,5.000000000000000000e+00,5.000000000000000000e+00,5.000000000000000000e+00,5.000000000000000000e+00,5.000000000000000000e+00,5.000000000000000000e+00,4.850842952728271484e+00,4.660823822021484375e+00,4.485130786895751953e+00,4.322201728820800781e+00,4.170695304870605469e+00,4.029450893402099609e+00,3.897459745407104492e+00,3.773841381072998047e+00,3.657823801040649414e+00,3.548727035522460938e+00,3.445949316024780273e+00,3.348957300186157227e+00,3.257275819778442383e+00,3.170480251312255859e+00,3.088190555572509766e+00,3.010064363479614258e+00,2.935793399810791016e+00,2.865099191665649414e+00,2.797729730606079102e+00,2.733455896377563477e+00,2.672068834304809570e+00,2.613378286361694336e+00,2.557210683822631836e+00,2.503406524658203125e+00,2.451819896697998047e+00,2.402316331863403320e+00,2.354772329330444336e+00,2.309073448181152344e+00,2.265114784240722656e+00,2.222798585891723633e+00,2.182034492492675781e+00,2.142738342285156250e+00,2.104832649230957031e+00,2.068244695663452148e+00,2.032907247543334961e+00,1.998756885528564453e+00,1.965735077857971191e+00,1.933786511421203613e+00,1.902859807014465332e+00,1.872906684875488281e+00,1.843882083892822266e+00
5.000000000000000000e+00,5.000000000000000000e+00,5.000000000000000000e+00,5.000000000000000000e+00,5.000000000000000000e+00,5.000000000000000000e+00,5.000000000000000000e+00,5.000000000000000000e+00,5.000000000000000000e+00,5.000000000000000000e+00,5.000000000000000000e+00,5.000000000000000000e+00,5.000000000000000000e+00,5.000000000000000000e+00,5.000000000000000000e+00,5.000000000000000000e+00,5.000000000000000000e+00,5.000000000000000000e+00,5.000000000000000000e+00,5.000000000000000000e+00,5.000000000000000000e+00,4.348491668701171875e+00,4.377339363098144531e+00,4.404415607452392578e+00,4.450422763824462891e+00,4.500352382659912109e+00,4.578238964080810547e+00,5.000000000000000000e+00,5.000000000000000000e+00,5.000000000000000000e+00,5.000000000000000000e+00,5.000000000000000000e+00,5.000000000000000000e+00,5.000000000000000000e+00,5.000000000000000000e+00,5.000000000000000000e+00,5.000000000000000000e+00,5.000000000000000000e+00,5.000000000000000000e+00,4.850981235504150391e+00,4.660951137542724609e+00,4.485248565673828125e+00,4.322311401367187500e+00,4.170797348022460938e+00,4.029545783996582031e+00,3.897548913955688477e+00,3.773925065994262695e+00,3.657902479171752930e+00,3.548800706863403320e+00,3.446018695831298828e+00,3.349023103713989258e+00,3.257338047027587891e+00,3.170539140701293945e+00,3.088246345520019531e+00,3.010117053985595703e+00,2.935843944549560547e+00,2.865147352218627930e+00,2.797775745391845703e+00,2.733499526977539062e+00,2.672110557556152344e+00,2.613418340682983398e+00,2.557249069213867188e+00,2.503443241119384766e+00,2.451855182647705078e+00,2.402350187301635742e+00,2.354804754257202148e+00,2.309104919433593750e+00,2.265145063400268555e+00,2.222827434539794922e+00,2.182062149047851562e+00,2.142765283584594727e+00,2.104858636856079102e+00,2.068269729614257812e+00,2.032931566238403320e+00,1.998780250549316406e+00,1.965757608413696289e+00,1.933808326721191406e+00,1.902881145477294922e+00,1.872927427291870117e+00,1.843902111053466797e+00
5.000000000000000000e+00,5.000000000000000000e+00,5.000000000000000000e+00,5.000000000000000000e+00,5.000000000000000000e+00,5.000000000000000000e+00,5.000000000000000000e+00,5.000000000000000000e+00,5.000000000000000000e+00,5.000000000000000000e+00,5.000000000000000000e+00,5.000000000000000000e+00,5.000000000000000000e+00,5.000000000000000000e+00,5.000000000000000000e+00,5.000000000000000000e+00,5.000000000000000000e+00,5.000000000000000000e+00,5.000000000000000000e+00,5.000000000000000000e+00,5.000000000000000000e+00,4.368159770965576172e+00,4.380279064178466797e+00,4.374197959899902344e+00,4.401676177978515625e+00,4.451618194580078125e+00,4.590862751007080078e+00,5.000000000000000000e+00,5.000000000000000000e+00,5.000000000000000000e+00,5.000000000000000000e+00,5.000000000000000000e+00,5.000000000000000000e+00,5.000000000000000000e+00,5.000000000000000000e+00,5.000000000000000000e+00,5.000000000000000000e+00,5.000000000000000000e+00,5.000000000000000000e+00,4.851119041442871094e+00,4.661078453063964844e+00,4.485366344451904297e+00,4.322420597076416016e+00,4.170899391174316406e+00,4.029641151428222656e+00,3.897637844085693359e+00,3.774008274078369141e+00,3.657980918884277344e+00,3.548874616622924805e+00,3.446088314056396484e+00,3.349088668823242188e+00,3.257400035858154297e+00,3.170598268508911133e+00,3.088302135467529297e+00,3.010170459747314453e+00,2.935894250869750977e+00,2.865195274353027344e+00,2.797821760177612305e+00,2.733543395996093750e+00,2.672152519226074219e+00,2.613458395004272461e+00,2.557287216186523438e+00,2.503479957580566406e+00,2.451890468597412109e+00,2.402384042739868164e+00,2.354837417602539062e+00,2.309135913848876953e+00,2.265174865722656250e+00,2.222856521606445312e+00,2.182090282440185547e+00,2.142792224884033203e+00,2.104884624481201172e+00,2.068294763565063477e+00,2.032955646514892578e+00,1.998803853988647461e+00,1.965780377388000488e+00,1.933830380439758301e+00,1.902902364730834961e+00,1.872947931289672852e+00,1.843922019004821777e+00
5.000000000000000000e+00,5.000000000000000000e+00,5.000000000000000000e+00,5.000000000000000000e+00,5.000000000000000000e+00,5.000000000000000000e+00,5.000000000000000000e+00,5.000000000000000000e+00,5.000000000000000000e+00,5.000000000000000000e+00,5.000000000000000000e+00,5.000000000000000000e+00,5.000000000000000000e+00,5.000000000000000000e+00,5.000000000000000000e+00,5.000000000000000000e+00,5.000000000000000000e+00,5.000000000000000000e+00,5.000000000000000000e+00,5.000000000000000000e+00,5.000000000000000000e+00,4.375277042388916016e+00,4.406215667724609375e+00,4.386392593383789062e+00,4.401877880096435547e+00,4.461634635925292969e+00,4.604963779449462891e+00,5.000000000000000000e+00,5.000000000000000000e+00,5.000000000000000000e+00,5.000000000000000000e+00,5.000000000000000000e+00,5.000000000000000000e+00,5.000000000000000000e+00,5.000000000000000000e+00,5.000000000000000000e+00,5.000000000000000000e+00,5.000000000000000000e+00,5.000000000000000000e+00,4.851256847381591797e+00,4.661205768585205078e+00,4.485484123229980469e+00,4.322530269622802734e+00,4.171001434326171875e+00,4.029736042022705078e+00,3.897727012634277344e+00,3.774091720581054688e+00,3.658059120178222656e+00,3.548948287963867188e+00,3.446158170700073242e+00,3.349154472351074219e+00,3.257462263107299805e+00,3.170656919479370117e+00,3.088357925415039062e+00,3.010223627090454102e+00,2.935944795608520508e+00,2.865243673324584961e+00,2.797867536544799805e+00,2.733587026596069336e+00,2.672194480895996094e+00,2.613498449325561523e+00,2.557325601577758789e+00,2.503516674041748047e+00,2.451925516128540039e+00,2.402417659759521484e+00,2.354869842529296875e+00,2.309167385101318359e+00,2.265205144882202148e+00,2.222885370254516602e+00,2.182117938995361328e+00,2.142819166183471680e+00,2.104910612106323242e+00,2.068320035934448242e+00,2.032979965209960938e+00,1.998827219009399414e+00,1.965803027153015137e+00,1.933852195739746094e+00,1.902923464775085449e+00,1.872968435287475586e+00,1.843941926956176758e+00
5.000000000000000000e+00,5.000000000000000000e+00,5.000000000000000000e+00,5.000000000000000000e+00,5.000000000000000000e+00,5.000000000000000000e+00,5.000000000000000000e+00,5.000000000000000000e+00,5.000000000000000000e+00,5.000000000000000000e+00,5.000000000000000000e+00,5.000000000000000000e+00,5.000000000000000000e+00,5.000000000000000000e+00,5.000000000000000000e+00,5.000000000000000000e+00,5.000000000000000000e+00,5.000000000000000000e+00,5.000000000000000000e+00,5.000000000000000000e+00,5.000000000000000000e+00,4.376939773559570312e+00,4.431587219238281250e+00,4.386416912078857422e+00,4.404426574707031250e+00,4.457545757293701172e+00,4.607595443725585938e+00,5.000000000000000000e+00,5.000000000000000000e+00,5.000000000000000000e+00,5.000000000000000000e+00,5.000000000000000000e+00,5.000000000000000000e+00,5.000000000000000000e+00,5.000000000000000000e+00,5.000000000000000000e+00,5.000000000000000000e+00,5.000000000000000000e+00,5.000000000000000000e+00,4.851394653320312500e+00,4.661333084106445312e+00,4.485602378845214844e+00,4.322639465332031250e+00,4.171103477478027344e+00,4.029831409454345703e+00,3.897815704345703125e+00,3.774175405502319336e+00,3.658137798309326172e+00,3.549022197723388672e+00,3.446227550506591797e+00,3.349220037460327148e+00,3.257524728775024414e+00,3.170716047286987305e+00,3.088413953781127930e+00,3.010276556015014648e+00,2.935995340347290039e+00,2.865291833877563477e+00,2.797913312911987305e+00,2.733630895614624023e+00,2.672236204147338867e+00,2.613538503646850586e+00,2.557363986968994141e+00,2.503553628921508789e+00,2.451960802078247070e+00,2.402451515197753906e+00,2.354902267456054688e+00,2.309198379516601562e+00,2.265235185623168945e+00,2.222914457321166992e+00,2.182146072387695312e+00,2.142845869064331055e+00,2.104936599731445312e+00,2.068345069885253906e+00,2.033004283905029297e+00,1.998850464820861816e+00,1.965825557708740234e+00,1.933874011039733887e+00,1.902944564819335938e+00,1.872989058494567871e+00,1.843961954116821289e+00
5.000000000000000000e+00,5.000000000000000000e+00,5.000000000000000000e+00,5.000000000000000000e+00,5.000000000000000000e+00,5.000000000000000000e+00,5.000000000000000000e+00,5.000000000000000000e+00,5.000000000000000000e+00,5.000000000000000000e+00,5.000000000000000000e+00,5.000000000000000000e+00,5.000000000000000000e+00,5.000000000000000000e+00,5.000000000000000000e+00,5.000000000000000000e+00,5.000000000000000000e+00,5.000000000000000000e+00,5.000000000000000000e+00,5.000000000000000000e+00,5.000000000000000000e+00,4.377747535705566406e+00,4.404952049255371094e+00,4.370739459991455078e+00,4.401349544525146484e+00,4.448616504669189453e+00,4.638329982757568359e+00,5.000000000000000000e+00,5.000000000000000000e+00,5.000000000000000000e+00,5.000000000000000000e+00,5.000000000000000000e+00,5.000000000000000000e+00,5.000000000000000000e+00,5.000000000000000000e+00,5.000000000000000000e+00,5.000000000000000000e+00,5.000000000000000000e+00,5.000000000000000000e+00,4.851532459259033203e+00,4.661460399627685547e+00,4.485720157623291016e+00,4.322749137878417969e+00,4.171205043792724609e+00,4.029926300048828125e+00,3.897904872894287109e+00,3.774258613586425781e+00,3.658215761184692383e+00,3.549096107482910156e+00,3.446297168731689453e+00,3.349285840988159180e+00,3.257586717605590820e+00,3.170774698257446289e+00,3.088469982147216797e+00,3.010329723358154297e+00,2.936045885086059570e+00,2.865339756011962891e+00,2.797959089279174805e+00,2.733674764633178711e+00,2.672278165817260742e+00,2.613578557968139648e+00,2.557402372360229492e+00,2.503590106964111328e+00,2.451996088027954102e+00,2.402485609054565430e+00,2.354934930801391602e+00,2.309229850769042969e+00,2.265265226364135742e+00,2.222943305969238281e+00,2.182173967361450195e+00,2.142872810363769531e+00,2.104962587356567383e+00,2.068370103836059570e+00,2.033028364181518555e+00,1.998874068260192871e+00,1.965848326683044434e+00,1.933896183967590332e+00,1.902966022491455078e+00,1.873009562492370605e+00,1.843981742858886719e+00
5.000000000000000000e+00,5.000000000000000000e+00,5.000000000000000000e+00,5.000000000000000000e+00,5.000000000000000000e+00,5.000000000000000000e+00,5.000000000000000000e+00,5.000000000000000000e+00,5.000000000000000000e+00,5.000000000000000000e+00,5.000000000000000000e+00,5.000000000000000000e+00,5.000000000000000000e+00,5.000000000000000000e+00,5.000000000000000000e+00,5.000000000000000000e+00,5.000000000000000000e+00,5.000000000000000000e+00,5.000000000000000000e+00,5.000000000000000000e+00,5.000000000000000000e+00,4.336554050445556641e+00,4.387623310089111328e+00,4.382092475891113281e+00,4.402393817901611328e+00,4.467359542846679688e+00,4.627072334289550781e+00,5.000000000000000000e+00,5.000000000000000000e+00,5.000000000000000000e+00,5.000000000000000000e+00,5.000000000000000000e+00,5.000000000000000000e+00,5.000000000000000000e+00,5.000000000000000000e+00,5.000000000000000000e+00,5.000000000000000000e+00,5.000000000000000000e+00,5.000000000000000000e+00,4.851670742034912109e+00,4.661587715148925781e+00,4.485837936401367188e+00,4.322858810424804688e+00,4.171307086944580078e+00,4.030021667480468750e+00,3.897994041442871094e+00,3.774342298507690430e+00,3.658294439315795898e+00,3.549169778823852539e+00,3.446366548538208008e+00,3.349351644515991211e+00,3.257648944854736328e+00,3.170833826065063477e+00,3.088525772094726562e+00,3.010382652282714844e+00,2.936096429824829102e+00,2.865387916564941406e+00,2.798005104064941406e+00,2.733718395233154297e+00,2.672319650650024414e+00,2.613618373870849609e+00,2.557440757751464844e+00,2.503627061843872070e+00,2.452031373977661133e+00,2.402519226074218750e+00,2.354967355728149414e+00,2.309261083602905273e+00,2.265295267105102539e+00,2.222972154617309570e+00,2.182201623916625977e+00,2.142899751663208008e+00,2.104988574981689453e+00,2.068395137786865234e+00,2.033052682876586914e+00,1.998897433280944824e+00,1.965870976448059082e+00,1.933917999267578125e+00,1.902987122535705566e+00,1.873030066490173340e+00,1.844001650810241699e+00
5.000000000000000000e+00,5.000000000000000000e+00,5.000000000000000000e+00,5.000000000000000000e+00,5.000000000000000000e+00,5.000000000000000000e+00,5.000000000000000000e+00,5.000000000000000000e+00,5.000000000000000000e+00,5.000000000000000000e+00,5.000000000000000000e+00,5.000000000000000000e+00,5.000000000000000000e+00,5.000000000000000000e+00,5.000000000000000000e+00,5.000000000000000000e+00,5.000000000000000000e+00,5.000000000000000000e+00,5.000000000000000000e+00,5.000000000000000000e+00,5.000000000000000000e+00,4.303715705871582031e+00,4.377573490142822266e+00,4.386274814605712891e+00,4.450191497802734375e+00,4.425546169281005859e+00,4.620810985565185547e+00,5.000000000000000000e+00,5.000000000000000000e+00,5.000000000000000000e+00,5.000000000000000000e+00,5.000000000000000000e+00,5.000000000000000000e+00,5.000000000000000000e+00,5.000000000000000000e+00,5.000000000000000000e+00,5.000000000000000000e+00,5.000000000000000000e+00,5.000000000000000000e+00,4.851808547973632812e+00,4.661715030670166016e+00,4.485956192016601562e+00,4.322968006134033203e+00,4.171409130096435547e+00,4.030117034912109375e+00,3.898082971572875977e+00,3.774425506591796875e+00,3.658372879028320312e+00,3.549243688583374023e+00,3.446436405181884766e+00,3.349417209625244141e+00,3.257710933685302734e+00,3.170892715454101562e+00,3.088581800460815430e+00,3.010435819625854492e+00,2.936146736145019531e+00,2.865435838699340820e+00,2.798051118850708008e+00,2.733762264251708984e+00,2.672361612319946289e+00,2.613658428192138672e+00,2.557478904724121094e+00,2.503663539886474609e+00,2.452066659927368164e+00,2.402553081512451172e+00,2.354999780654907227e+00,2.309292316436767578e+00,2.265325307846069336e+00,2.223001241683959961e+00,2.182229757308959961e+00,2.142926692962646484e+00,2.105014324188232422e+00,2.068420171737670898e+00,2.033076763153076172e+00,1.998920798301696777e+00,1.965893507003784180e+00,1.933939814567565918e+00,1.903008341789245605e+00,1.873050570487976074e+00,1.844021677970886230e+00
5.000000000000000000e+00,5.000000000000000000e+00,5.000000000000000000e+00,5.000000000000000000e+00,5.000000000000000000e+00,5.000000000000000000e+00,5.000000000000000000e+00,5.000000000000000000e+00,5.000000000000000000e+00,5.000000000000000000e+00,5.000000000000000000e+00,5.000000000000000000e+00,5.000000000000000000e+00,5.000000000000000000e+00,5.000000000000000000e+00,5.000000000000000000e+00,5.000000000000000000e+00,5.000000000000000000e+00,5.000000000000000000e+00,5.000000000000000000e+00,5.000000000000000000e+00,4.274329662322998047e+00,4.370471954345703125e+00,4.379461765289306641e+00,4.431997299194335938e+00,4.383988380432128906e+00,4.436891555786132812e+00,5.000000000000000000e+00,5.000000000000000000e+00,5.000000000000000000e+00,5.000000000000000000e+00,5.000000000000000000e+00,5.000000000000000000e+00,5.000000000000000000e+00,5.000000000000000000e+00,5.000000000000000000e+00,5.000000000000000000e+00,5.000000000000000000e+00,5.000000000000000000e+00,4.851946353912353516e+00,4.661842346191406250e+00,4.486073970794677734e+00,4.323077678680419922e+00,4.171510696411132812e+00,4.030211925506591797e+00,3.898172140121459961e+00,3.774509191513061523e+00,3.658451080322265625e+00,3.549317359924316406e+00,3.446506023406982422e+00,3.349483013153076172e+00,3.257773160934448242e+00,3.170951604843139648e+00,3.088637351989746094e+00,3.010488986968994141e+00,2.936197519302368164e+00,2.865483999252319336e+00,2.798096895217895508e+00,2.733806133270263672e+00,2.672403335571289062e+00,2.613698720932006836e+00,2.557517290115356445e+00,2.503700256347656250e+00,2.452101707458496094e+00,2.402586936950683594e+00,2.355032444000244141e+00,2.309323549270629883e+00,2.265355348587036133e+00,2.223030090332031250e+00,2.182257413864135742e+00,2.142953634262084961e+00,2.105040311813354492e+00,2.068445205688476562e+00,2.033101081848144531e+00,1.998944044113159180e+00,1.965916037559509277e+00,1.933961868286132812e+00,1.903029680252075195e+00,1.873071312904357910e+00,1.844041585922241211e+00
5.000000000000000000e+00,5.000000000000000000e+00,5.000000000000000000e+00,5.000000000000000000e+00,5.000000000000000000e+00,5.000000000000000000e+00,5.000000000000000000e+00,5.000000000000000000e+00,5.000000000000000000e+00,5.000000000000000000e+00,5.000000000000000000e+00,5.000000000000000000e+00,5.000000000000000000e+00,5.000000000000000000e+00,5.000000000000000000e+00,5.000000000000000000e+00,5.000000000000000000e+00,5.000000000000000000e+00,5.000000000000000000e+00,5.000000000000000000e+00,5.000000000000000000e+00,4.237206935882568359e+00,4.245893478393554688e+00,4.389183044433593750e+00,5.000000000000000000e+00,4.351458549499511719e+00,4.380535602569580078e+00,4.617475509643554688e+00,5.000000000000000000e+00,5.000000000000000000e+00,5.000000000000000000e+00,5.000000000000000000e+00,5.000000000000000000e+00,5.000000000000000000e+00,5.000000000000000000e+00,5.000000000000000000e+00,5.000000000000000000e+00,5.000000000000000000e+00,5.000000000000000000e+00,4.852084159851074219e+00,4.661969661712646484e+00,4.486191749572753906e+00,4.323186874389648438e+00,4.171613216400146484e+00,4.030307292938232422e+00,3.898260831832885742e+00,3.774592876434326172e+00,3.658529758453369141e+00,3.549391269683837891e+00,3.446575403213500977e+00,3.349548578262329102e+00,3.257835626602172852e+00,3.171010494232177734e+00,3.088693380355834961e+00,3.010541915893554688e+00,2.936247825622558594e+00,2.865532398223876953e+00,2.798142671585083008e+00,2.733850002288818359e+00,2.672445297241210938e+00,2.613738536834716797e+00,2.557555437088012695e+00,2.503737211227416992e+00,2.452136993408203125e+00,2.402620792388916016e+00,2.355064868927001953e+00,2.309354782104492188e+00,2.265385627746582031e+00,2.223059177398681641e+00,2.182285547256469727e+00,2.142980575561523438e+00,2.105066299438476562e+00,2.068470478057861328e+00,2.033125162124633789e+00,1.998967647552490234e+00,1.965938925743103027e+00,1.933983683586120605e+00,1.903050780296325684e+00,1.873091816902160645e+00,1.844061493873596191e+00
5.000000000000000000e+00,5.000000000000000000e+00,5.000000000000000000e+00,5.000000000000000000e+00,5.000000000000000000e+00,5.000000000000000000e+00,5.000000000000000000e+00,5.000000000000000000e+00,5.000000000000000000e+00,5.000000000000000000e+00,5.000000000000000000e+00,5.000000000000000000e+00,5.000000000000000000e+00,5.000000000000000000e+00,5.000000000000000000e+00,5.000000000000000000e+00,5.000000000000000000e+00,5.000000000000000000e+00,5.000000000000000000e+00,5.000000000000000000e+00,5.000000000000000000e+00,5.000000000000000000e+00,4.436091899871826172e+00,4.401992321014404297e+00,5.000000000000000000e+00,4.335029602050781250e+00,4.332729339599609375e+00,4.596215724945068359e+00,5.000000000000000000e+00,5.000000000000000000e+00,5.000000000000000000e+00,5.000000000000000000e+00,5.000000000000000000e+00,5.000000000000000000e+00,5.000000000000000000e+00,5.000000000000000000e+00,5.000000000000000000e+00,5.000000000000000000e+00,5.000000000000000000e+00,4.852221965789794922e+00,4.662096977233886719e+00,4.486309528350830078e+00,4.323296546936035156e+00,4.171714782714843750e+00,4.030402183532714844e+00,3.898350000381469727e+00,3.774676084518432617e+00,3.658607959747314453e+00,3.549465179443359375e+00,3.446645259857177734e+00,3.349614381790161133e+00,3.257897615432739258e+00,3.171069383621215820e+00,3.088749408721923828e+00,3.010595321655273438e+00,2.936298370361328125e+00,2.865580320358276367e+00,2.798188447952270508e+00,2.733893871307373047e+00,2.672487258911132812e+00,2.613778591156005859e+00,2.557593822479248047e+00,2.503773689270019531e+00,2.452172040939331055e+00,2.402654647827148438e+00,2.355097293853759766e+00,2.309386014938354492e+00,2.265415430068969727e+00,2.223088026046752930e+00,2.182313442230224609e+00,2.143007516860961914e+00,2.105092287063598633e+00,2.068495273590087891e+00,2.033149480819702148e+00,1.998991012573242188e+00,1.965961456298828125e+00,1.934005618095397949e+00,1.903071999549865723e+00,1.873112320899963379e+00,1.844081282615661621e+00
5.000000000000000000e+00,5.000000000000000000e+00,5.000000000000000000e+00,5.000000000000000000e+00,5.000000000000000000e+00,5.000000000000000000e+00,5.000000000000000000e+00,5.000000000000000000e+00,5.000000000000000000e+00,5.000000000000000000e+00,5.000000000000000000e+00,5.000000000000000000e+00,5.000000000000000000e+00,5.000000000000000000e+00,5.000000000000000000e+00,5.000000000000000000e+00,5.000000000000000000e+00,5.000000000000000000e+00,5.000000000000000000e+00,5.000000000000000000e+00,5.000000000000000000e+00,5.000000000000000000e+00,5.000000000000000000e+00,4.408867835998535156e+00,5.000000000000000000e+00,4.322527885437011719e+00,4.303987979888916016e+00,5.000000000000000000e+00,5.000000000000000000e+00,5.000000000000000000e+00,5.000000000000000000e+00,5.000000000000000000e+00,5.000000000000000000e+00,5.000000000000000000e+00,5.000000000000000000e+00,5.000000000000000000e+00,5.000000000000000000e+00,5.000000000000000000e+00,5.000000000000000000e+00,4.852360248565673828e+00,4.662224292755126953e+00,4.486427307128906250e+00,4.323406219482421875e+00,4.171816825866699219e+00,4.030497550964355469e+00,3.898439168930053711e+00,3.774759769439697266e+00,3.658686637878417969e+00,3.549538850784301758e+00,3.446714639663696289e+00,3.349680423736572266e+00,3.257959842681884766e+00,3.171128273010253906e+00,3.088805198669433594e+00,3.010648250579833984e+00,2.936349153518676758e+00,2.865628480911254883e+00,2.798234462738037109e+00,2.733937501907348633e+00,2.672528982162475586e+00,2.613818645477294922e+00,2.557632207870483398e+00,2.503810644149780273e+00,2.452207326889038086e+00,2.402688264846801758e+00,2.355129718780517578e+00,2.309417247772216797e+00,2.265445709228515625e+00,2.223117113113403320e+00,2.182341337203979492e+00,2.143034219741821289e+00,2.105118274688720703e+00,2.068520545959472656e+00,2.033173561096191406e+00,1.999014377593994141e+00,1.965984106063842773e+00,1.934027433395385742e+00,1.903093338012695312e+00,1.873132944107055664e+00,1.844101428985595703e+00
5.000000000000000000e+00,5.000000000000000000e+00,5.000000000000000000e+00,5.000000000000000000e+00,5.000000000000000000e+00,5.000000000000000000e+00,5.000000000000000000e+00,5.000000000000000000e+00,5.000000000000000000e+00,5.000000000000000000e+00,5.000000000000000000e+00,5.000000000000000000e+00,5.000000000000000000e+00,5.000000000000000000e+00,5.000000000000000000e+00,5.000000000000000000e+00,5.000000000000000000e+00,5.000000000000000000e+00,5.000000000000000000e+00,5.000000000000000000e+00,5.000000000000000000e+00,5.000000000000000000e+00,5.000000000000000000e+00,4.420530319213867188e+00,5.000000000000000000e+00,4.350339889526367188e+00,4.327697753906250000e+00,5.000000000000000000e+00,5.000000000000000000e+00,5.000000000000000000e+00,5.000000000000000000e+00,5.000000000000000000e+00,5.000000000000000000e+00,5.000000000000000000e+00,5.000000000000000000e+00,5.000000000000000000e+00,5.000000000000000000e+00,5.000000000000000000e+00,5.000000000000000000e+00,4.852497577667236328e+00,4.662351608276367188e+00,4.486545562744140625e+00,4.323515892028808594e+00,4.171918869018554688e+00,4.030592918395996094e+00,3.898528099060058594e+00,3.774842977523803711e+00,3.658765077590942383e+00,3.549612760543823242e+00,3.446784257888793945e+00,3.349745988845825195e+00,3.258021831512451172e+00,3.171187400817871094e+00,3.088861227035522461e+00,3.010701417922973633e+00,2.936399459838867188e+00,2.865676403045654297e+00,2.798280477523803711e+00,2.733981370925903320e+00,2.672570943832397461e+00,2.613858699798583984e+00,2.557670593261718750e+00,2.503847122192382812e+00,2.452242851257324219e+00,2.402722120285034180e+00,2.355162382125854492e+00,2.309448480606079102e+00,2.265475511550903320e+00,2.223145961761474609e+00,2.182369232177734375e+00,2.143061161041259766e+00,2.105144262313842773e+00,2.068545579910278320e+00,2.033197879791259766e+00,1.999037981033325195e+00,1.966006875038146973e+00,1.934049487113952637e+00,1.903114557266235352e+00,1.873153448104858398e+00,1.844121217727661133e+00
5.000000000000000000e+00,5.000000000000000000e+00,5.000000000000000000e+00,5.000000000000000000e+00,5.000000000000000000e+00,5.000000000000000000e+00,5.000000000000000000e+00,5.000000000000000000e+00,5.000000000000000000e+00,5.000000000000000000e+00,5.000000000000000000e+00,5.000000000000000000e+00,5.000000000000000000e+00,5.000000000000000000e+00,5.000000000000000000e+00,5.000000000000000000e+00,5.000000000000000000e+00,5.000000000000000000e+00,5.000000000000000000e+00,5.000000000000000000e+00,5.000000000000000000e+00,5.000000000000000000e+00,5.000000000000000000e+00,4.470684051513671875e+00,5.000000000000000000e+00,4.378024101257324219e+00,4.362373352050781250e+00,5.000000000000000000e+00,5.000000000000000000e+00,5.000000000000000000e+00,5.000000000000000000e+00,5.000000000000000000e+00,5.000000000000000000e+00,5.000000000000000000e+00,5.000000000000000000e+00,5.000000000000000000e+00,5.000000000000000000e+00,5.000000000000000000e+00,5.000000000000000000e+00,4.852635383605957031e+00,4.662478923797607422e+00,4.486663341522216797e+00,4.323625087738037109e+00,4.172020912170410156e+00,4.030687808990478516e+00,3.898617267608642578e+00,3.774926662445068359e+00,3.658843278884887695e+00,3.549686431884765625e+00,3.446854114532470703e+00,3.349811792373657227e+00,3.258084297180175781e+00,3.171246051788330078e+00,3.088917016983032227e+00,3.010754585266113281e+00,2.936450004577636719e+00,2.865724802017211914e+00,2.798326253890991211e+00,2.734025001525878906e+00,2.672612667083740234e+00,2.613898754119873047e+00,2.557708978652954102e+00,2.503884077072143555e+00,2.452277898788452148e+00,2.402755975723266602e+00,2.355194807052612305e+00,2.309479713439941406e+00,2.265505552291870117e+00,2.223174810409545898e+00,2.182397127151489258e+00,2.143088102340698242e+00,2.105170249938964844e+00,2.068570613861083984e+00,2.033222198486328125e+00,1.999061226844787598e+00,1.966029405593872070e+00,1.934071302413940430e+00,1.903135657310485840e+00,1.873173952102661133e+00,1.844141125679016113e+00
5.000000000000000000e+00,5.000000000000000000e+00,5.000000000000000000e+00,5.000000000000000000e+00,5.000000000000000000e+00,5.000000000000000000e+00,5.000000000000000000e+00,5.000000000000000000e+00,5.000000000000000000e+00,5.000000000000000000e+00,5.000000000000000000e+00,5.000000000000000000e+00,5.000000000000000000e+00,5.000000000000000000e+00,5.000000000000000000e+00,5.000000000000000000e+00,5.000000000000000000e+00,5.000000000000000000e+00,5.000000000000000000e+00,5.000000000000000000e+00,5.000000000000000000e+00,5.000000000000000000e+00,5.000000000000000000e+00,4.514305114746093750e+00,5.000000000000000000e+00,4.387484073638916016e+00,4.375771999359130859e+00,5.000000000000000000e+00,5.000000000000000000e+00,5.000000000000000000e+00,5.000000000000000000e+00,5.000000000000000000e+00,5.000000000000000000e+00,5.000000000000000000e+00,5.000000000000000000e+00,5.000000000000000000e+00,5.000000000000000000e+00,5.000000000000000000e+00,5.000000000000000000e+00,4.852773189544677734e+00,4.662605762481689453e+00,4.486781597137451172e+00,4.323734760284423828e+00,4.172122955322265625e+00,4.030783176422119141e+00,3.898705959320068359e+00,3.775010347366333008e+00,3.658921957015991211e+00,3.549760341644287109e+00,3.446923494338989258e+00,3.349877357482910156e+00,3.258146524429321289e+00,3.171305179595947266e+00,3.088973045349121094e+00,3.010807514190673828e+00,2.936500310897827148e+00,2.865772962570190430e+00,2.798372030258178711e+00,2.734068870544433594e+00,2.672654628753662109e+00,2.613938570022583008e+00,2.557747125625610352e+00,2.503920793533325195e+00,2.452313184738159180e+00,2.402789831161499023e+00,2.355227231979370117e+00,2.309510946273803711e+00,2.265535831451416016e+00,2.223203897476196289e+00,2.182425022125244141e+00,2.143115043640136719e+00,2.105196237564086914e+00,2.068595647811889648e+00,2.033246278762817383e+00,1.999084591865539551e+00,1.966052055358886719e+00,1.934093236923217773e+00,1.903156757354736328e+00,1.873194694519042969e+00,1.844161152839660645e+00
5.000000000000000000e+00,5.000000000000000000e+00,5.000000000000000000e+00,5.000000000000000000e+00,5.000000000000000000e+00,5.000000000000000000e+00,5.000000000000000000e+00,5.000000000000000000e+00,5.000000000000000000e+00,5.000000000000000000e+00,5.000000000000000000e+00,5.000000000000000000e+00,5.000000000000000000e+00,5.000000000000000000e+00,5.000000000000000000e+00,5.000000000000000000e+00,5.000000000000000000e+00,5.000000000000000000e+00,5.000000000000000000e+00,5.000000000000000000e+00,5.000000000000000000e+00,5.000000000000000000e+00,5.000000000000000000e+00,4.538900375366210938e+00,5.000000000000000000e+00,4.403852462768554688e+00,4.400655269622802734e+00,5.000000000000000000e+00,5.000000000000000000e+00,5.000000000000000000e+00,5.000000000000000000e+00,5.000000000000000000e+00,5.000000000000000000e+00,5.000000000000000000e+00,5.000000000000000000e+00,5.000000000000000000e+00,5.000000000000000000e+00,5.000000000000000000e+00,5.000000000000000000e+00,4.852911472320556641e+00,4.662733078002929688e+00,4.486898899078369141e+00,4.323844432830810547e+00,4.172224998474121094e+00,4.030878067016601562e+00,3.898795366287231445e+00,3.775093555450439453e+00,3.659000158309936523e+00,3.549834251403808594e+00,3.446993350982666016e+00,3.349943161010742188e+00,3.258208513259887695e+00,3.171363830566406250e+00,3.089028835296630859e+00,3.010860681533813477e+00,2.936551094055175781e+00,2.865820884704589844e+00,2.798417806625366211e+00,2.734112739562988281e+00,2.672696590423583984e+00,2.613978862762451172e+00,2.557785511016845703e+00,2.503957509994506836e+00,2.452348232269287109e+00,2.402823686599731445e+00,2.355259895324707031e+00,2.309542179107666016e+00,2.265565633773803711e+00,2.223232746124267578e+00,2.182452917098999023e+00,2.143141984939575195e+00,2.105222225189208984e+00,2.068620681762695312e+00,2.033270597457885742e+00,1.999108195304870605e+00,1.966074824333190918e+00,1.934115290641784668e+00,1.903178215026855469e+00,1.873215198516845703e+00,1.844181060791015625e+00
5.000000000000000000e+00,5.000000000000000000e+00,5.000000000000000000e+00,5.000000000000000000e+00,5.000000000000000000e+00,5.000000000000000000e+00,5.000000000000000000e+00,5.000000000000000000e+00,5.000000000000000000e+00,5.000000000000000000e+00,5.000000000000000000e+00,5.000000000000000000e+00,5.000000000000000000e+00,5.000000000000000000e+00,5.000000000000000000e+00,5.000000000000000000e+00,5.000000000000000000e+00,5.000000000000000000e+00,5.000000000000000000e+00,5.000000000000000000e+00,5.000000000000000000e+00,5.000000000000000000e+00,5.000000000000000000e+00,4.582594394683837891e+00,5.000000000000000000e+00,4.423703670501708984e+00,4.457145690917968750e+00,5.000000000000000000e+00,5.000000000000000000e+00,5.000000000000000000e+00,5.000000000000000000e+00,5.000000000000000000e+00,5.000000000000000000e+00,5.000000000000000000e+00,5.000000000000000000e+00,5.000000000000000000e+00,5.000000000000000000e+00,5.000000000000000000e+00,5.000000000000000000e+00,4.853049278259277344e+00,4.662860393524169922e+00,4.487016677856445312e+00,4.323953151702880859e+00,4.172326564788818359e+00,4.030973434448242188e+00,3.898884534835815430e+00,3.775177240371704102e+00,3.659078598022460938e+00,3.549907922744750977e+00,3.447062730789184570e+00,3.350009202957153320e+00,3.258270978927612305e+00,3.171422958374023438e+00,3.089084625244140625e+00,3.010913610458374023e+00,2.936601638793945312e+00,2.865869045257568359e+00,2.798463821411132812e+00,2.734156370162963867e+00,2.672738313674926758e+00,2.614018678665161133e+00,2.557823896408081055e+00,2.503994226455688477e+00,2.452383518218994141e+00,2.402857542037963867e+00,2.355292320251464844e+00,2.309573650360107422e+00,2.265595912933349609e+00,2.223261833190917969e+00,2.182480812072753906e+00,2.143168926239013672e+00,2.105248212814331055e+00,2.068645954132080078e+00,2.033294677734375000e+00,1.999131560325622559e+00,1.966097354888916016e+00,1.934137105941772461e+00,1.903199315071105957e+00,1.873235702514648438e+00,1.844200968742370605e+00
5.000000000000000000e+00,5.000000000000000000e+00,5.000000000000000000e+00,5.000000000000000000e+00,5.000000000000000000e+00,5.000000000000000000e+00,5.000000000000000000e+00,5.000000000000000000e+00,5.000000000000000000e+00,5.000000000000000000e+00,5.000000000000000000e+00,5.000000000000000000e+00,5.000000000000000000e+00,5.000000000000000000e+00,5.000000000000000000e+00,5.000000000000000000e+00,5.000000000000000000e+00,5.000000000000000000e+00,5.000000000000000000e+00,5.000000000000000000e+00,5.000000000000000000e+00,5.000000000000000000e+00,5.000000000000000000e+00,4.624899864196777344e+00,5.000000000000000000e+00,4.453763008117675781e+00,5.000000000000000000e+00,5.000000000000000000e+00,5.000000000000000000e+00,5.000000000000000000e+00,5.000000000000000000e+00,5.000000000000000000e+00,5.000000000000000000e+00,5.000000000000000000e+00,5.000000000000000000e+00,5.000000000000000000e+00,5.000000000000000000e+00,5.000000000000000000e+00,5.000000000000000000e+00,4.853187561035156250e+00,4.662988185882568359e+00,4.487134933471679688e+00,4.324062824249267578e+00,4.172428607940673828e+00,4.031068801879882812e+00,3.898973464965820312e+00,3.775260448455810547e+00,3.659157276153564453e+00,3.549981832504272461e+00,3.447132349014282227e+00,3.350074768066406250e+00,3.258332967758178711e+00,3.171482086181640625e+00,3.089140653610229492e+00,3.010967016220092773e+00,2.936651945114135742e+00,2.865916967391967773e+00,2.798509836196899414e+00,2.734200239181518555e+00,2.672780275344848633e+00,2.614058732986450195e+00,2.557862281799316406e+00,2.504030942916870117e+00,2.452418804168701172e+00,2.402891397476196289e+00,2.355324745178222656e+00,2.309604644775390625e+00,2.265625953674316406e+00,2.223290920257568359e+00,2.182508707046508789e+00,2.143195867538452148e+00,2.105273962020874023e+00,2.068670749664306641e+00,2.033318996429443359e+00,1.999154925346374512e+00,1.966120004653930664e+00,1.934158921241760254e+00,1.903220534324645996e+00,1.873256206512451172e+00,1.844220995903015137e+00
4.875614166259765625e+00,4.874403953552246094e+00,4.873193740844726562e+00,4.871984958648681641e+00,4.870776176452636719e+00,4.869568347930908203e+00,4.868360996246337891e+00,4.867154121398925781e+00,4.865947723388671875e+00,4.864742279052734375e+00,4.863536834716796875e+00,4.862332820892333984e+00,4.861129283905029297e+00,4.859925746917724609e+00,4.858723163604736328e+00,4.857521057128906250e+00,4.856319427490234375e+00,4.855118751525878906e+00,4.853918552398681641e+00,4.852718830108642578e+00,4.851520061492919922e+00,4.850321769714355469e+00,4.849123954772949219e+00,4.549024581909179688e+00,4.537811756134033203e+00,4.845533370971679688e+00,4.316201686859130859e+00,4.843142986297607422e+00,4.841948986053466797e+00,4.840754985809326172e+00,4.839561939239501953e+00,4.838369369506835938e+00,4.837177276611328125e+00,4.835985660552978516e+00,4.834794998168945312e+00,4.833604812622070312e+00,4.832415103912353516e+00,4.831226348876953125e+00,4.830037593841552734e+00,4.828849792480468750e+00,4.663115501403808594e+00,4.487252712249755859e+00,4.324172496795654297e+00,4.172530651092529297e+00,4.031164169311523438e+00,3.899062633514404297e+00,3.775344133377075195e+00,3.659235477447509766e+00,3.550055503845214844e+00,3.447202205657958984e+00,3.350140571594238281e+00,3.258395195007324219e+00,3.171540737152099609e+00,3.089196443557739258e+00,3.011020183563232422e+00,2.936702728271484375e+00,2.865965366363525391e+00,2.798555612564086914e+00,2.734244108200073242e+00,2.672821998596191406e+00,2.614099025726318359e+00,2.557900667190551758e+00,2.504067659378051758e+00,2.452454090118408203e+00,2.402925014495849609e+00,2.355357408523559570e+00,2.309636116027832031e+00,2.265655994415283203e+00,2.223319768905639648e+00,2.182536602020263672e+00,2.143222808837890625e+00,2.105300188064575195e+00,2.068696022033691406e+00,2.033343315124511719e+00,1.999178171157836914e+00,1.966142535209655762e+00,1.934181094169616699e+00,1.903241872787475586e+00,1.873276829719543457e+00,1.844240784645080566e+00
3.778466224670410156e+00,3.777739286422729492e+00,3.777012586593627930e+00,3.776286125183105469e+00,3.775559902191162109e+00,3.774833917617797852e+00,3.774108409881591797e+00,3.773383140563964844e+00,3.772658109664916992e+00,3.771933555603027344e+00,3.771209239959716797e+00,3.770484924316406250e+00,3.769761085510253906e+00,3.769037246704101562e+00,3.768313884735107422e+00,3.767590761184692383e+00,3.766868114471435547e+00,3.766145467758178711e+00,3.765423297882080078e+00,3.764701128005981445e+00,3.763979434967041016e+00,3.763257980346679688e+00,3.762536764144897461e+00,3.761816024780273438e+00,3.761095285415649414e+00,3.760375022888183594e+00,3.759655475616455078e+00,3.758935689926147461e+00,3.758216142654418945e+00,3.757496833801269531e+00,3.756778001785278320e+00,3.756059169769287109e+00,3.755340814590454102e+00,3.754622697830200195e+00,3.753904819488525391e+00,3.753187179565429688e+00,3.752469778060913086e+00,3.751752853393554688e+00,3.751036167144775391e+00,3.750319480895996094e+00,3.749603271484375000e+00,3.748887300491333008e+00,3.748171806335449219e+00,3.747456789016723633e+00,3.746741533279418945e+00,3.746026754379272461e+00,3.745312213897705078e+00,3.659314155578613281e+00,3.550129413604736328e+00,3.447271585464477539e+00,3.350206136703491211e+00,3.258457660675048828e+00,3.171599864959716797e+00,3.089252471923828125e+00,3.011073112487792969e+00,2.936753034591674805e+00,2.866013526916503906e+00,2.798601627349853516e+00,2.734287977218627930e+00,2.672863960266113281e+00,2.614138841629028320e+00,2.557938814163208008e+00,2.504104614257812500e+00,2.452489376068115234e+00,2.402959108352661133e+00,2.355389833450317383e+00,2.309667110443115234e+00,2.265686035156250000e+00,2.223348855972290039e+00,2.182564496994018555e+00,2.143249511718750000e+00,2.105325937271118164e+00,2.068721055984497070e+00,2.033367395401000977e+00,1.999201774597167969e+00,1.966165423393249512e+00,1.934202909469604492e+00,1.903263092041015625e+00,1.873297333717346191e+00,1.844260692596435547e+00
3.084392547607421875e+00,3.083908081054687500e+00,3.083423852920532227e+00,3.082939624786376953e+00,3.082455635070800781e+00,3.081971883773803711e+00,3.081488132476806641e+00,3.081004858016967773e+00,3.080521583557128906e+00,3.080038309097290039e+00,3.079555034637451172e+00,3.079072237014770508e+00,3.078589439392089844e+00,3.078106641769409180e+00,3.077624320983886719e+00,3.077142000198364258e+00,3.076659679412841797e+00,3.076177597045898438e+00,3.075695753097534180e+00,3.075214147567749023e+00,3.074732542037963867e+00,3.074250936508178711e+00,3.073769807815551758e+00,3.073288679122924805e+00,3.072807788848876953e+00,3.072327136993408203e+00,3.071846246719360352e+00,3.071365833282470703e+00,3.070885419845581055e+00,3.070405244827270508e+00,3.069925069808959961e+00,3.069445133209228516e+00,3.068965435028076172e+00,3.068485736846923828e+00,3.068006277084350586e+00,3.067527055740356445e+00,3.067047834396362305e+00,3.066568851470947266e+00,3.066089868545532227e+00,3.065611124038696289e+00,3.065132617950439453e+00,3.064654350280761719e+00,3.064176082611083984e+00,3.063698053359985352e+00,3.063220024108886719e+00,3.062742233276367188e+00,3.062264442443847656e+00,3.061786890029907227e+00,3.061309576034545898e+00,3.060832262039184570e+00,3.060355186462402344e+00,3.059878349304199219e+00,3.059401512145996094e+00,3.058924913406372070e+00,3.011126279830932617e+00,2.936803579330444336e+00,2.866061449050903320e+00,2.798647403717041016e+00,2.734331846237182617e+00,2.672905921936035156e+00,2.614178895950317383e+00,2.557977199554443359e+00,2.504141092300415039e+00,2.452524423599243164e+00,2.402992963790893555e+00,2.355422258377075195e+00,2.309698581695556641e+00,2.265716075897216797e+00,2.223377704620361328e+00,2.182592391967773438e+00,2.143276453018188477e+00,2.105351924896240234e+00,2.068746089935302734e+00,2.033391714096069336e+00,1.999225139617919922e+00,1.966187953948974609e+00,1.934224724769592285e+00,1.903284192085266113e+00,1.873317837715148926e+00,1.844280600547790527e+00
2.605739355087280273e+00,2.605393648147583008e+00,2.605047941207885742e+00,2.604702472686767578e+00,2.604356765747070312e+00,2.604011535644531250e+00,2.603666305541992188e+00,2.603321075439453125e+00,2.602975845336914062e+00,2.602630853652954102e+00,2.602285861968994141e+00,2.601941108703613281e+00,2.601596355438232422e+00,2.601251602172851562e+00,2.600907087326049805e+00,2.600562572479248047e+00,2.600218057632446289e+00,2.599873781204223633e+00,2.599529743194580078e+00,2.599185466766357422e+00,2.598841428756713867e+00,2.598497390747070312e+00,2.598153829574584961e+00,2.597810029983520508e+00,2.597466468811035156e+00,2.597122907638549805e+00,2.596779346466064453e+00,2.596435785293579102e+00,2.596092462539672852e+00,2.595749378204345703e+00,2.595406293869018555e+00,2.595063209533691406e+00,2.594720125198364258e+00,2.594377279281616211e+00,2.594034671783447266e+00,2.593691825866699219e+00,2.593349218368530273e+00,2.593006849288940430e+00,2.592664480209350586e+00,2.592322349548339844e+00,2.591979980468750000e+00,2.591637849807739258e+00,2.591295957565307617e+00,2.590954065322875977e+00,2.590612173080444336e+00,2.590270280838012695e+00,2.589928627014160156e+00,2.589586973190307617e+00,2.589245557785034180e+00,2.588904142379760742e+00,2.588562726974487305e+00,2.588221549987792969e+00,2.587880373001098633e+00,2.587539434432983398e+00,2.587198495864868164e+00,2.586857557296752930e+00,2.586516857147216797e+00,2.586176156997680664e+00,2.585835695266723633e+00,2.585495233535766602e+00,2.585154771804809570e+00,2.558015584945678711e+00,2.504178047180175781e+00,2.452559709548950195e+00,2.403026580810546875e+00,2.355454683303833008e+00,2.309729814529418945e+00,2.265746355056762695e+00,2.223406553268432617e+00,2.182620286941528320e+00,2.143303394317626953e+00,2.105377912521362305e+00,2.068771123886108398e+00,2.033415794372558594e+00,1.999248504638671875e+00,1.966210484504699707e+00,1.934246659278869629e+00,1.903305530548095703e+00,1.873338580131530762e+00,1.844300627708435059e+00
2.255693197250366211e+00,2.255434036254882812e+00,2.255174875259399414e+00,2.254915714263916016e+00,2.254656553268432617e+00,2.254397392272949219e+00,2.254138469696044922e+00,2.253879547119140625e+00,2.253620624542236328e+00,2.253361940383911133e+00,2.253103017807006836e+00,2.252844333648681641e+00,2.252585887908935547e+00,2.252327203750610352e+00,2.252068758010864258e+00,2.251810312271118164e+00,2.251551866531372070e+00,2.251293659210205078e+00,2.251035451889038086e+00,2.250777244567871094e+00,2.250518798828125000e+00,2.250260829925537109e+00,2.250002861022949219e+00,2.249744892120361328e+00,2.249486923217773438e+00,2.249229192733764648e+00,2.248971462249755859e+00,2.248713970184326172e+00,2.248456478118896484e+00,2.248198986053466797e+00,2.247941493988037109e+00,2.247684240341186523e+00,2.247426986694335938e+00,2.247169733047485352e+00,2.246912479400634766e+00,2.246655464172363281e+00,2.246398448944091797e+00,2.246141672134399414e+00,2.245884656906127930e+00,2.245627880096435547e+00,2.245370864868164062e+00,2.245114088058471680e+00,2.244857549667358398e+00,2.244600772857666016e+00,2.244344234466552734e+00,2.244087696075439453e+00,2.243831396102905273e+00,2.243574857711791992e+00,2.243318557739257812e+00,2.243062257766723633e+00,2.242805957794189453e+00,2.242549896240234375e+00,2.242293834686279297e+00,2.242037773132324219e+00,2.241781949996948242e+00,2.241525888442993164e+00,2.241270065307617188e+00,2.241014242172241211e+00,2.240758419036865234e+00,2.240502834320068359e+00,2.240247011184692383e+00,2.239991426467895508e+00,2.239736080169677734e+00,2.239480495452880859e+00,2.239225149154663086e+00,2.238969802856445312e+00,2.238714456558227539e+00,2.238459348678588867e+00,2.223435640335083008e+00,2.182648420333862305e+00,2.143330335617065430e+00,2.105403900146484375e+00,2.068796157836914062e+00,2.033440113067626953e+00,1.999272108078002930e+00,1.966233372688293457e+00,1.934268712997436523e+00,1.903326749801635742e+00,1.873359084129333496e+00,1.844320535659790039e+00
1.988564610481262207e+00,1.988363146781921387e+00,1.988161683082580566e+00,1.987959980964660645e+00,1.987758636474609375e+00,1.987557291984558105e+00,1.987356066703796387e+00,1.987154722213745117e+00,1.986953496932983398e+00,1.986752390861511230e+00,1.986551284790039062e+00,1.986350178718566895e+00,1.986149072647094727e+00,1.985948085784912109e+00,1.985747098922729492e+00,1.985546231269836426e+00,1.985345363616943359e+00,1.985144495964050293e+00,1.984943628311157227e+00,1.984742879867553711e+00,1.984542131423950195e+00,1.984341502189636230e+00,1.984140753746032715e+00,1.983940243721008301e+00,1.983739614486694336e+00,1.983539104461669922e+00,1.983338594436645508e+00,1.983138203620910645e+00,1.982937812805175781e+00,1.982737421989440918e+00,1.982537150382995605e+00,1.982336759567260742e+00,1.982136607170104980e+00,1.981936097145080566e+00,1.981735944747924805e+00,1.981535911560058594e+00,1.981335759162902832e+00,1.981135725975036621e+00,1.980935692787170410e+00,1.980735778808593750e+00,1.980535864830017090e+00,1.980335950851440430e+00,1.980136156082153320e+00,1.979936361312866211e+00,1.979736566543579102e+00,1.979536890983581543e+00,1.979337215423583984e+00,1.979137539863586426e+00,1.978937983512878418e+00,1.978738427162170410e+00,1.978538870811462402e+00,1.978339433670043945e+00,1.978139996528625488e+00,1.977940559387207031e+00,1.977741241455078125e+00,1.977541923522949219e+00,1.977342605590820312e+00,1.977143406867980957e+00,1.976944088935852051e+00,1.976745009422302246e+00,1.976545929908752441e+00,1.976346850395202637e+00,1.976147532463073730e+00,1.975948572158813477e+00,1.975749611854553223e+00,1.975550651550292969e+00,1.975351810455322266e+00,1.975152969360351562e+00,1.974954128265380859e+00,1.974755406379699707e+00,1.974556684494018555e+00,1.974357962608337402e+00,1.974159359931945801e+00,1.973960757255554199e+00,1.973762154579162598e+00,1.966255903244018555e+00,1.934290528297424316e+00,1.903347849845886230e+00,1.873379588127136230e+00,1.844340443611145020e+00
1.778005719184875488e+00,1.777844429016113281e+00,1.777683377265930176e+00,1.777522325515747070e+00,1.777361392974853516e+00,1.777200341224670410e+00,1.777039408683776855e+00,1.776878595352172852e+00,1.776717662811279297e+00,1.776556849479675293e+00,1.776395916938781738e+00,1.776235222816467285e+00,1.776074409484863281e+00,1.775913715362548828e+00,1.775752902030944824e+00,1.775592327117919922e+00,1.775431632995605469e+00,1.775270938873291016e+00,1.775110363960266113e+00,1.774949789047241211e+00,1.774789333343505859e+00,1.774628758430480957e+00,1.774468302726745605e+00,1.774307847023010254e+00,1.774147391319274902e+00,1.773987054824829102e+00,1.773826718330383301e+00,1.773666381835937500e+00,1.773506045341491699e+00,1.773345708847045898e+00,1.773185491561889648e+00,1.773025035858154297e+00,1.772864937782287598e+00,1.772704720497131348e+00,1.772544622421264648e+00,1.772384524345397949e+00,1.772224426269531250e+00,1.772064328193664551e+00,1.771904349327087402e+00,1.771744370460510254e+00,1.771584391593933105e+00,1.771424412727355957e+00,1.771264553070068359e+00,1.771104693412780762e+00,1.770944833755493164e+00,1.770784974098205566e+00,1.770625233650207520e+00,1.770465493202209473e+00,1.770305752754211426e+00,1.770146012306213379e+00,1.769986391067504883e+00,1.769826769828796387e+00,1.769667148590087891e+00,1.769507527351379395e+00,1.769347906112670898e+00,1.769188404083251953e+00,1.769028902053833008e+00,1.768869400024414062e+00,1.768710017204284668e+00,1.768550634384155273e+00,1.768391251564025879e+00,1.768231630325317383e+00,1.768072366714477539e+00,1.767913103103637695e+00,1.767753839492797852e+00,1.767594575881958008e+00,1.767435312271118164e+00,1.767276167869567871e+00,1.767117023468017578e+00,1.766957879066467285e+00,1.766798734664916992e+00,1.766639709472656250e+00,1.766480684280395508e+00,1.766321659088134766e+00,1.766162633895874023e+00,1.766003727912902832e+00,1.765844821929931641e+00,1.765685915946960449e+00,1.765527009963989258e+00,1.765368223190307617e+00
1.607767343521118164e+00,1.607635617256164551e+00,1.607503890991210938e+00,1.607372283935546875e+00,1.607240557670593262e+00,1.607108950614929199e+00,1.606977343559265137e+00,1.606845736503601074e+00,1.606714129447937012e+00,1.606582641601562500e+00,1.606451153755187988e+00,1.606319546699523926e+00,1.606188058853149414e+00,1.606056690216064453e+00,1.605925202369689941e+00,1.605793833732604980e+00,1.605662345886230469e+00,1.605530977249145508e+00,1.605399608612060547e+00,1.605268359184265137e+00,1.605136990547180176e+00,1.605005741119384766e+00,1.604874491691589355e+00,1.604743242263793945e+00,1.604611992835998535e+00,1.604480743408203125e+00,1.604349613189697266e+00,1.604218363761901855e+00,1.604087233543395996e+00,1.603955984115600586e+00,1.603824853897094727e+00,1.603693842887878418e+00,1.603562831878662109e+00,1.603431701660156250e+00,1.603300690650939941e+00,1.603169798851013184e+00,1.603038787841796875e+00,1.602907776832580566e+00,1.602776885032653809e+00,1.602645993232727051e+00,1.602515101432800293e+00,1.602384209632873535e+00,1.602253437042236328e+00,1.602122545242309570e+00,1.601991772651672363e+00,1.601861000061035156e+00,1.601730227470397949e+00,1.601599574089050293e+00,1.601468801498413086e+00,1.601338148117065430e+00,1.601207494735717773e+00,1.601076841354370117e+00,1.600946187973022461e+00,1.600815534591674805e+00,1.600685000419616699e+00,1.600554466247558594e+00,1.600423932075500488e+00,1.600293397903442383e+00,1.600162863731384277e+00,1.600032210350036621e+00,1.599901795387268066e+00,1.599771261215209961e+00,1.599640846252441406e+00,1.599510550498962402e+00,1.599380135536193848e+00,1.599249839782714844e+00,1.599119424819946289e+00,1.598989129066467285e+00,1.598858833312988281e+00,1.598728656768798828e+00,1.598598361015319824e+00,1.598468184471130371e+00,1.598337888717651367e+00,1.598207712173461914e+00,1.598077535629272461e+00,1.597947478294372559e+00,1.597817301750183105e+00,1.597687244415283203e+00,1.597557187080383301e+00,1.597427129745483398e+00
1.467280030250549316e+00,1.467170357704162598e+00,1.467060685157775879e+00,1.466951012611389160e+00,1.466841340065002441e+00,1.466731667518615723e+00,1.466622114181518555e+00,1.466512441635131836e+00,1.466402888298034668e+00,1.466293334960937500e+00,1.466183662414550781e+00,1.466074109077453613e+00,1.465964674949645996e+00,1.465855121612548828e+00,1.465745568275451660e+00,1.465636134147644043e+00,1.465526700019836426e+00,1.465417265892028809e+00,1.465307831764221191e+00,1.465198397636413574e+00,1.465088963508605957e+00,1.464979648590087891e+00,1.464870214462280273e+00,1.464760899543762207e+00,1.464651584625244141e+00,1.464542269706726074e+00,1.464432954788208008e+00,1.464323520660400391e+00,1.464214205741882324e+00,1.464105010032653809e+00,1.463995814323425293e+00,1.463886618614196777e+00,1.463777303695678711e+00,1.463668227195739746e+00,1.463559031486511230e+00,1.463449835777282715e+00,1.463340759277343750e+00,1.463231563568115234e+00,1.463122487068176270e+00,1.463013410568237305e+00,1.462904334068298340e+00,1.462795257568359375e+00,1.462686181068420410e+00,1.462577223777770996e+00,1.462468266487121582e+00,1.462359189987182617e+00,1.462250232696533203e+00,1.462141275405883789e+00,1.462032318115234375e+00,1.461923480033874512e+00,1.461814522743225098e+00,1.461705684661865234e+00,1.461596727371215820e+00,1.461487889289855957e+00,1.461379051208496094e+00,1.461270213127136230e+00,1.461161375045776367e+00,1.461052536964416504e+00,1.460943698883056641e+00,1.460834980010986328e+00,1.460726261138916016e+00,1.460617542266845703e+00,1.460508823394775391e+00,1.460400104522705078e+00,1.460291385650634766e+00,1.460182785987854004e+00,1.460074067115783691e+00,1.459965467453002930e+00,1.459856867790222168e+00,1.459748268127441406e+00,1.459639668464660645e+00,1.459531068801879883e+00,1.459422469139099121e+00,1.459313988685607910e+00,1.459205508232116699e+00,1.459096908569335938e+00,1.458988428115844727e+00,1.458879947662353516e+00,1.458771586418151855e+00,1.458663105964660645e+00
1.349371433258056641e+00,1.349278688430786133e+00,1.349185943603515625e+00,1.349093198776245117e+00,1.349000453948974609e+00,1.348907709121704102e+00,1.348814964294433594e+00,1.348722219467163086e+00,1.348629593849182129e+00,1.348536849021911621e+00,1.348444223403930664e+00,1.348351478576660156e+00,1.348258852958679199e+00,1.348166227340698242e+00,1.348073601722717285e+00,1.347980976104736328e+00,1.347888469696044922e+00,1.347795844078063965e+00,1.347703337669372559e+00,1.347610712051391602e+00,1.347518205642700195e+00,1.347425699234008789e+00,1.347333192825317383e+00,1.347240686416625977e+00,1.347148180007934570e+00,1.347055554389953613e+00,1.346963167190551758e+00,1.346870660781860352e+00,1.346778273582458496e+00,1.346685767173767090e+00,1.346593379974365234e+00,1.346500992774963379e+00,1.346408605575561523e+00,1.346316218376159668e+00,1.346223831176757812e+00,1.346131563186645508e+00,1.346039175987243652e+00,1.345946788787841797e+00,1.345854520797729492e+00,1.345762252807617188e+00,1.345669984817504883e+00,1.345577597618103027e+00,1.345485448837280273e+00,1.345393180847167969e+00,1.345300912857055664e+00,1.345208644866943359e+00,1.345116496086120605e+00,1.345024228096008301e+00,1.344932079315185547e+00,1.344839930534362793e+00,1.344747781753540039e+00,1.344655632972717285e+00,1.344563484191894531e+00,1.344471335411071777e+00,1.344379186630249023e+00,1.344287037849426270e+00,1.344194889068603516e+00,1.344102859497070312e+00,1.344010710716247559e+00,1.343918681144714355e+00,1.343826651573181152e+00,1.343734622001647949e+00,1.343642592430114746e+00,1.343550682067871094e+00,1.343458652496337891e+00,1.343366622924804688e+00,1.343274712562561035e+00,1.343182802200317383e+00,1.343090772628784180e+00,1.342998862266540527e+00,1.342906951904296875e+00,1.342815041542053223e+00,1.342723250389099121e+00,1.342631340026855469e+00,1.342539429664611816e+00,1.342447638511657715e+00,1.342355728149414062e+00,1.342263936996459961e+00,1.342172145843505859e+00,1.342080354690551758e+00
1.249003291130065918e+00,1.248923778533935547e+00,1.248844265937805176e+00,1.248764872550964355e+00,1.248685359954833984e+00,1.248605966567993164e+00,1.248526453971862793e+00,1.248447060585021973e+00,1.248367667198181152e+00,1.248288273811340332e+00,1.248208880424499512e+00,1.248129487037658691e+00,1.248050093650817871e+00,1.247970700263977051e+00,1.247891306877136230e+00,1.247811913490295410e+00,1.247732639312744141e+00,1.247653245925903320e+00,1.247573971748352051e+00,1.247494697570800781e+00,1.247415304183959961e+00,1.247336030006408691e+00,1.247256755828857422e+00,1.247177362442016602e+00,1.247098088264465332e+00,1.247018814086914062e+00,1.246939659118652344e+00,1.246860384941101074e+00,1.246781110763549805e+00,1.246701955795288086e+00,1.246622800827026367e+00,1.246543526649475098e+00,1.246464371681213379e+00,1.246385216712951660e+00,1.246306061744689941e+00,1.246226906776428223e+00,1.246147751808166504e+00,1.246068596839904785e+00,1.245989441871643066e+00,1.245910406112670898e+00,1.245831251144409180e+00,1.245752215385437012e+00,1.245673060417175293e+00,1.245594024658203125e+00,1.245514988899230957e+00,1.245435953140258789e+00,1.245356798171997070e+00,1.245277881622314453e+00,1.245198845863342285e+00,1.245119810104370117e+00,1.245040774345397949e+00,1.244961738586425781e+00,1.244882822036743164e+00,1.244803786277770996e+00,1.244724750518798828e+00,1.244645833969116211e+00,1.244566917419433594e+00,1.244488000869750977e+00,1.244409084320068359e+00,1.244330167770385742e+00,1.244251251220703125e+00,1.244172334671020508e+00,1.244093418121337891e+00,1.244014620780944824e+00,1.243935704231262207e+00,1.243856906890869141e+00,1.243777990341186523e+00,1.243699193000793457e+00,1.243620395660400391e+00,1.243541598320007324e+00,1.243462800979614258e+00,1.243384003639221191e+00,1.243305206298828125e+00,1.243226408958435059e+00,1.243147611618041992e+00,1.243068933486938477e+00,1.242990136146545410e+00,1.242911458015441895e+00,1.242832660675048828e+00,1.242753982543945312e+00
1.162532567977905273e+00,1.162463665008544922e+00,1.162394762039184570e+00,1.162325978279113770e+00,1.162257075309753418e+00,1.162188291549682617e+00,1.162119507789611816e+00,1.162050604820251465e+00,1.161981821060180664e+00,1.161913037300109863e+00,1.161844253540039062e+00,1.161775469779968262e+00,1.161706686019897461e+00,1.161637902259826660e+00,1.161569118499755859e+00,1.161500334739685059e+00,1.161431550979614258e+00,1.161362886428833008e+00,1.161294102668762207e+00,1.161225438117980957e+00,1.161156654357910156e+00,1.161087870597839355e+00,1.161019206047058105e+00,1.160950541496276855e+00,1.160881876945495605e+00,1.160813212394714355e+00,1.160744547843933105e+00,1.160675883293151855e+00,1.160607218742370605e+00,1.160538554191589355e+00,1.160469889640808105e+00,1.160401225090026855e+00,1.160332679748535156e+00,1.160264015197753906e+00,1.160195469856262207e+00,1.160126805305480957e+00,1.160058259963989258e+00,1.159989714622497559e+00,1.159921050071716309e+00,1.159852504730224609e+00,1.159783959388732910e+00,1.159715414047241211e+00,1.159646868705749512e+00,1.159578323364257812e+00,1.159509897232055664e+00,1.159441351890563965e+00,1.159372806549072266e+00,1.159304380416870117e+00,1.159235835075378418e+00,1.159167408943176270e+00,1.159098863601684570e+00,1.159030318260192871e+00,1.158961892127990723e+00,1.158893465995788574e+00,1.158825039863586426e+00,1.158756613731384277e+00,1.158688187599182129e+00,1.158619761466979980e+00,1.158551335334777832e+00,1.158482909202575684e+00,1.158414483070373535e+00,1.158346176147460938e+00,1.158277750015258789e+00,1.158209443092346191e+00,1.158141016960144043e+00,1.158072710037231445e+00,1.158004403114318848e+00,1.157936096191406250e+00,1.157867670059204102e+00,1.157799363136291504e+00,1.157731056213378906e+00,1.157662749290466309e+00,1.157594442367553711e+00,1.157526254653930664e+00,1.157457947731018066e+00,1.157389640808105469e+00,1.157321453094482422e+00,1.157253146171569824e+00,1.157184839248657227e+00,1.157116651535034180e+00
1.087259531021118164e+00,1.087199330329895020e+00,1.087139010429382324e+00,1.087078809738159180e+00,1.087018609046936035e+00,1.086958408355712891e+00,1.086898207664489746e+00,1.086838006973266602e+00,1.086777806282043457e+00,1.086717605590820312e+00,1.086657404899597168e+00,1.086597323417663574e+00,1.086537122726440430e+00,1.086476922035217285e+00,1.086416840553283691e+00,1.086356639862060547e+00,1.086296439170837402e+00,1.086236357688903809e+00,1.086176276206970215e+00,1.086116075515747070e+00,1.086055994033813477e+00,1.085995793342590332e+00,1.085935711860656738e+00,1.085875630378723145e+00,1.085815548896789551e+00,1.085755467414855957e+00,1.085695385932922363e+00,1.085635304450988770e+00,1.085575222969055176e+00,1.085515260696411133e+00,1.085455179214477539e+00,1.085395097732543945e+00,1.085335135459899902e+00,1.085275053977966309e+00,1.085215091705322266e+00,1.085155010223388672e+00,1.085095047950744629e+00,1.085035085678100586e+00,1.084975004196166992e+00,1.084915041923522949e+00,1.084855079650878906e+00,1.084795117378234863e+00,1.084735155105590820e+00,1.084675192832946777e+00,1.084615230560302734e+00,1.084555268287658691e+00,1.084495306015014648e+00,1.084435343742370605e+00,1.084375500679016113e+00,1.084315419197082520e+00,1.084255576133728027e+00,1.084195613861083984e+00,1.084135770797729492e+00,1.084075808525085449e+00,1.084015965461730957e+00,1.083956122398376465e+00,1.083896160125732422e+00,1.083836317062377930e+00,1.083776473999023438e+00,1.083716630935668945e+00,1.083656787872314453e+00,1.083596944808959961e+00,1.083537101745605469e+00,1.083477258682250977e+00,1.083417415618896484e+00,1.083357572555541992e+00,1.083297848701477051e+00,1.083238005638122559e+00,1.083178281784057617e+00,1.083118438720703125e+00,1.083058595657348633e+00,1.082998871803283691e+00,1.082939147949218750e+00,1.082879304885864258e+00,1.082819581031799316e+00,1.082759857177734375e+00,1.082700133323669434e+00,1.082640409469604492e+00,1.082580566406250000e+00,1.082520842552185059e+00
1.021141529083251953e+00,1.021088361740112305e+00,1.021035194396972656e+00,1.020982146263122559e+00,1.020928978919982910e+00,1.020875930786132812e+00,1.020822763442993164e+00,1.020769715309143066e+00,1.020716547966003418e+00,1.020663499832153320e+00,1.020610332489013672e+00,1.020557284355163574e+00,1.020504236221313477e+00,1.020451188087463379e+00,1.020398139953613281e+00,1.020345091819763184e+00,1.020291924476623535e+00,1.020238876342773438e+00,1.020185828208923340e+00,1.020132780075073242e+00,1.020079731941223145e+00,1.020026683807373047e+00,1.019973754882812500e+00,1.019920706748962402e+00,1.019867658615112305e+00,1.019814729690551758e+00,1.019761681556701660e+00,1.019708752632141113e+00,1.019655704498291016e+00,1.019602775573730469e+00,1.019549727439880371e+00,1.019496798515319824e+00,1.019443869590759277e+00,1.019390821456909180e+00,1.019337892532348633e+00,1.019284963607788086e+00,1.019232034683227539e+00,1.019179105758666992e+00,1.019126176834106445e+00,1.019073247909545898e+00,1.019020318984985352e+00,1.018967390060424805e+00,1.018914461135864258e+00,1.018861532211303711e+00,1.018808603286743164e+00,1.018755793571472168e+00,1.018702864646911621e+00,1.018649935722351074e+00,1.018597006797790527e+00,1.018544197082519531e+00,1.018491268157958984e+00,1.018438458442687988e+00,1.018385648727416992e+00,1.018332719802856445e+00,1.018279910087585449e+00,1.018227100372314453e+00,1.018174171447753906e+00,1.018121361732482910e+00,1.018068552017211914e+00,1.018015742301940918e+00,1.017962932586669922e+00,1.017910122871398926e+00,1.017857313156127930e+00,1.017804503440856934e+00,1.017751812934875488e+00,1.017699003219604492e+00,1.017646193504333496e+00,1.017593383789062500e+00,1.017540693283081055e+00,1.017487883567810059e+00,1.017435073852539062e+00,1.017382383346557617e+00,1.017329692840576172e+00,1.017276883125305176e+00,1.017224192619323730e+00,1.017171382904052734e+00,1.017118692398071289e+00,1.017065882682800293e+00,1.017013192176818848e+00,1.016960501670837402e+00
9.626040458679199219e-01,9.625567793846130371e-01,9.625096321105957031e-01,9.624623656272888184e-01,9.624152183532714844e-01,9.623678922653198242e-01,9.623208045959472656e-01,9.622735381126403809e-01,9.622263908386230469e-01,9.621791839599609375e-01,9.621320366859436035e-01,9.620848298072814941e-01,9.620376825332641602e-01,9.619904756546020508e-01,9.619433879852294922e-01,9.618961811065673828e-01,9.618489742279052734e-01,9.618018865585327148e-01,9.617546796798706055e-01,9.617075920104980469e-01,9.616604447364807129e-01,9.616133570671081543e-01,9.615661501884460449e-01,9.615191221237182617e-01,9.614719748497009277e-01,9.614248871803283691e-01,9.613777399063110352e-01,9.613307118415832520e-01,9.612835645675659180e-01,9.612365365028381348e-01,9.611893892288208008e-01,9.611423611640930176e-01,9.610952138900756836e-01,9.610481858253479004e-01,9.610010981559753418e-01,9.609540700912475586e-01,9.609069824218750000e-01,9.608599543571472168e-01,9.608128666877746582e-01,9.607658982276916504e-01,9.607187509536743164e-01,9.606717824935913086e-01,9.606246948242187500e-01,9.605777263641357422e-01,9.605306386947631836e-01,9.604837298393249512e-01,9.604366421699523926e-01,9.603895545005798340e-01,9.603426456451416016e-01,9.602955579757690430e-01,9.602486491203308105e-01,9.602015614509582520e-01,9.601546525955200195e-01,9.601076245307922363e-01,9.600607156753540039e-01,9.600136876106262207e-01,9.599667787551879883e-01,9.599197506904602051e-01,9.598728418350219727e-01,9.598258733749389648e-01,9.597789645195007324e-01,9.597319364547729492e-01,9.596850872039794922e-01,9.596380591392517090e-01,9.595912098884582520e-01,9.595442414283752441e-01,9.594973325729370117e-01,9.594504237174987793e-01,9.594035148620605469e-01,9.593565464019775391e-01,9.593096971511840820e-01,9.592627882957458496e-01,9.592159390449523926e-01,9.591689705848693848e-01,9.591221809387207031e-01,9.590752124786376953e-01,9.590283036231994629e-01,9.589815139770507812e-01,9.589345455169677734e-01,9.588877558708190918e-01
9.104139804840087891e-01,9.103717803955078125e-01,9.103295207023620605e-01,9.102873206138610840e-01,9.102450609207153320e-01,9.102028608322143555e-01,9.101606011390686035e-01,9.101184606552124023e-01,9.100761413574218750e-01,9.100340008735656738e-01,9.099917411804199219e-01,9.099496006965637207e-01,9.099073410034179688e-01,9.098652005195617676e-01,9.098230004310607910e-01,9.097807407379150391e-01,9.097386002540588379e-01,9.096964001655578613e-01,9.096542596817016602e-01,9.096120595932006836e-01,9.095699191093444824e-01,9.095277190208435059e-01,9.094856381416320801e-01,9.094434380531311035e-01,9.094013571739196777e-01,9.093591570854187012e-01,9.093170166015625000e-01,9.092748761177062988e-01,9.092327952384948730e-01,9.091905951499938965e-01,9.091485142707824707e-01,9.091063737869262695e-01,9.090642929077148438e-01,9.090221524238586426e-01,9.089800715446472168e-01,9.089379310607910156e-01,9.088958501815795898e-01,9.088537096977233887e-01,9.088116884231567383e-01,9.087695479393005371e-01,9.087274670600891113e-01,9.086853861808776855e-01,9.086433649063110352e-01,9.086012244224548340e-01,9.085590839385986328e-01,9.085170626640319824e-01,9.084749817848205566e-01,9.084329605102539062e-01,9.083908796310424805e-01,9.083488583564758301e-01,9.083067774772644043e-01,9.082647562026977539e-01,9.082226753234863281e-01,9.081807136535644531e-01,9.081386327743530273e-01,9.080966114997863770e-01,9.080545902252197266e-01,9.080125689506530762e-01,9.079705476760864258e-01,9.079285860061645508e-01,9.078865051269531250e-01,9.078445434570312500e-01,9.078025221824645996e-01,9.077605605125427246e-01,9.077185392379760742e-01,9.076765775680541992e-01,9.076345562934875488e-01,9.075925946235656738e-01,9.075505733489990234e-01,9.075086712837219238e-01,9.074666500091552734e-01,9.074247479438781738e-01,9.073827266693115234e-01,9.073408246040344238e-01,9.072988033294677734e-01,9.072568416595458984e-01,9.072149395942687988e-01,9.071729183197021484e-01,9.071310162544250488e-01,9.070890545845031738e-01
8.635921478271484375e-01,8.635541200637817383e-01,8.635161519050598145e-01,8.634781241416931152e-01,8.634401559829711914e-01,8.634021282196044922e-01,8.633642196655273438e-01,8.633261919021606445e-01,8.632882237434387207e-01,8.632501959800720215e-01,8.632122874259948730e-01,8.631742596626281738e-01,8.631362318992614746e-01,8.630983233451843262e-01,8.630602955818176270e-01,8.630223870277404785e-01,8.629844188690185547e-01,8.629465103149414062e-01,8.629084825515747070e-01,8.628706336021423340e-01,8.628326058387756348e-01,8.627946972846984863e-01,8.627567291259765625e-01,8.627188801765441895e-01,8.626808524131774902e-01,8.626430034637451172e-01,8.626050353050231934e-01,8.625671863555908203e-01,8.625292181968688965e-01,8.624913096427917480e-01,8.624534010887145996e-01,8.624154925346374512e-01,8.623775839805603027e-01,8.623397350311279297e-01,8.623017668724060059e-01,8.622639179229736328e-01,8.622260093688964844e-01,8.621881604194641113e-01,8.621502518653869629e-01,8.621124029159545898e-01,8.620744943618774414e-01,8.620366454124450684e-01,8.619987368583679199e-01,8.619608283042907715e-01,8.619230389595031738e-01,8.618851304054260254e-01,8.618472814559936523e-01,8.618093729019165039e-01,8.617715835571289062e-01,8.617337346076965332e-01,8.616958856582641602e-01,8.616580367088317871e-01,8.616202473640441895e-01,8.615823388099670410e-01,8.615445494651794434e-01,8.615067005157470703e-01,8.614689111709594727e-01,8.614310622215270996e-01,8.613932728767395020e-01,8.613554239273071289e-01,8.613176941871643066e-01,8.612798452377319336e-01,8.612420558929443359e-01,8.612042069435119629e-01,8.611664772033691406e-01,8.611286282539367676e-01,8.610908985137939453e-01,8.610530495643615723e-01,8.610153198242187500e-01,8.609774708747863770e-01,8.609397411346435547e-01,8.609019517898559570e-01,8.608641624450683594e-01,8.608264327049255371e-01,8.607885837554931641e-01,8.607509136199951172e-01,8.607131242752075195e-01,8.606753945350646973e-01,8.606376051902770996e-01,8.605998754501342773e-01
8.213507533073425293e-01,8.213164210319519043e-01,8.212819695472717285e-01,8.212476372718811035e-01,8.212132453918457031e-01,8.211789131164550781e-01,8.211445212364196777e-01,8.211101889610290527e-01,8.210757970809936523e-01,8.210414648056030273e-01,8.210070729255676270e-01,8.209726810455322266e-01,8.209384083747863770e-01,8.209040164947509766e-01,8.208697438240051270e-01,8.208353519439697266e-01,8.208010196685791016e-01,8.207666873931884766e-01,8.207324147224426270e-01,8.206980228424072266e-01,8.206637501716613770e-01,8.206293582916259766e-01,8.205950856208801270e-01,8.205607533454895020e-01,8.205264806747436523e-01,8.204921483993530273e-01,8.204578757286071777e-01,8.204235434532165527e-01,8.203892707824707031e-01,8.203549385070800781e-01,8.203206658363342285e-01,8.202863335609436035e-01,8.202520608901977539e-01,8.202177286148071289e-01,8.201835155487060547e-01,8.201491832733154297e-01,8.201149702072143555e-01,8.200806379318237305e-01,8.200464248657226562e-01,8.200120925903320312e-01,8.199778199195861816e-01,8.199435472488403320e-01,8.199092745780944824e-01,8.198750615119934082e-01,8.198407292366027832e-01,8.198065757751464844e-01,8.197722434997558594e-01,8.197380304336547852e-01,8.197037577629089355e-01,8.196695446968078613e-01,8.196352720260620117e-01,8.196011185646057129e-01,8.195668458938598633e-01,8.195326328277587891e-01,8.194983601570129395e-01,8.194642066955566406e-01,8.194299340248107910e-01,8.193957209587097168e-01,8.193615078926086426e-01,8.193272948265075684e-01,8.192930817604064941e-01,8.192589282989501953e-01,8.192246556282043457e-01,8.191905021667480469e-01,8.191562294960021973e-01,8.191220760345458984e-01,8.190878629684448242e-01,8.190537095069885254e-01,8.190194964408874512e-01,8.189853429794311523e-01,8.189511299133300781e-01,8.189169168472290039e-01,8.188827633857727051e-01,8.188485503196716309e-01,8.188144564628601074e-01,8.187802433967590332e-01,8.187460899353027344e-01,8.187118768692016602e-01,8.186777830123901367e-01,8.186435699462890625e-01
7.830490469932556152e-01,7.830178141593933105e-01,7.829865813255310059e-01,7.829552888870239258e-01,7.829241156578063965e-01,7.828928232192993164e-01,7.828616499900817871e-01,7.828303575515747070e-01,7.827990651130676270e-01,7.827678918838500977e-01,7.827366590499877930e-01,7.827054262161254883e-01,7.826741933822631836e-01,7.826430201530456543e-01,7.826117873191833496e-01,7.825806140899658203e-01,7.825493216514587402e-01,7.825181484222412109e-01,7.824869155883789062e-01,7.824557423591613770e-01,7.824245095252990723e-01,7.823933362960815430e-01,7.823621034622192383e-01,7.823309898376464844e-01,7.822997570037841797e-01,7.822685837745666504e-01,7.822373509407043457e-01,7.822062373161315918e-01,7.821750044822692871e-01,7.821438908576965332e-01,7.821126580238342285e-01,7.820815443992614746e-01,7.820503115653991699e-01,7.820191979408264160e-01,7.819879651069641113e-01,7.819568514823913574e-01,7.819256782531738281e-01,7.818945646286010742e-01,7.818633317947387695e-01,7.818321585655212402e-01,7.818010449409484863e-01,7.817698717117309570e-01,7.817387580871582031e-01,7.817075848579406738e-01,7.816764712333679199e-01,7.816452980041503906e-01,7.816141843795776367e-01,7.815830111503601074e-01,7.815519571304321289e-01,7.815207839012145996e-01,7.814896702766418457e-01,7.814584970474243164e-01,7.814274430274963379e-01,7.813962697982788086e-01,7.813652157783508301e-01,7.813340425491333008e-01,7.813029885292053223e-01,7.812718152999877930e-01,7.812407612800598145e-01,7.812096476554870605e-01,7.811785936355590820e-01,7.811474204063415527e-01,7.811163663864135742e-01,7.810852527618408203e-01,7.810541987419128418e-01,7.810230851173400879e-01,7.809920310974121094e-01,7.809609174728393555e-01,7.809298038482666016e-01,7.808987498283386230e-01,7.808676362037658691e-01,7.808365821838378906e-01,7.808054685592651367e-01,7.807744741439819336e-01,7.807433605194091797e-01,7.807123064994812012e-01,7.806811928749084473e-01,7.806501984596252441e-01,7.806190848350524902e-01,7.805880904197692871e-01
7.481603622436523438e-01,7.481318712234497070e-01,7.481033205986022949e-01,7.480748295783996582e-01,7.480462789535522461e-01,7.480177879333496094e-01,7.479892373085021973e-01,7.479606866836547852e-01,7.479321956634521484e-01,7.479037046432495117e-01,7.478752136230468750e-01,7.478466629981994629e-01,7.478182315826416016e-01,7.477896809577941895e-01,7.477611899375915527e-01,7.477326989173889160e-01,7.477042078971862793e-01,7.476757168769836426e-01,7.476472258567810059e-01,7.476187348365783691e-01,7.475903034210205078e-01,7.475617527961730957e-01,7.475333213806152344e-01,7.475048303604125977e-01,7.474763393402099609e-01,7.474478483200073242e-01,7.474194169044494629e-01,7.473909258842468262e-01,7.473624944686889648e-01,7.473340034484863281e-01,7.473055720329284668e-01,7.472770810127258301e-01,7.472486495971679688e-01,7.472201585769653320e-01,7.471917271614074707e-01,7.471632361412048340e-01,7.471347451210021973e-01,7.471063733100891113e-01,7.470778822898864746e-01,7.470494508743286133e-01,7.470210194587707520e-01,7.469925880432128906e-01,7.469640970230102539e-01,7.469357252120971680e-01,7.469072341918945312e-01,7.468788623809814453e-01,7.468504309654235840e-01,7.468219995498657227e-01,7.467935681343078613e-01,7.467651963233947754e-01,7.467367053031921387e-01,7.467083334922790527e-01,7.466799020767211914e-01,7.466515302658081055e-01,7.466230392456054688e-01,7.465946674346923828e-01,7.465662360191345215e-01,7.465378642082214355e-01,7.465094327926635742e-01,7.464810609817504883e-01,7.464526295661926270e-01,7.464242577552795410e-01,7.463958859443664551e-01,7.463675141334533691e-01,7.463390827178955078e-01,7.463107109069824219e-01,7.462823390960693359e-01,7.462539076805114746e-01,7.462255358695983887e-01,7.461971640586853027e-01,7.461687922477722168e-01,7.461404204368591309e-01,7.461120486259460449e-01,7.460836768150329590e-01,7.460553050041198730e-01,7.460269331932067871e-01,7.459986209869384766e-01,7.459701895713806152e-01,7.459418773651123047e-01,7.459135055541992188e-01
7.162480354309082031e-01,7.162218689918518066e-01,7.161957621574401855e-01,7.161695957183837891e-01,7.161434888839721680e-01,7.161173224449157715e-01,7.160911560058593750e-01,7.160650491714477539e-01,7.160388827323913574e-01,7.160127758979797363e-01,7.159866094589233398e-01,7.159605026245117188e-01,7.159343957901000977e-01,7.159082889556884766e-01,7.158821225166320801e-01,7.158560752868652344e-01,7.158299088478088379e-01,7.158038020133972168e-01,7.157776951789855957e-01,7.157515883445739746e-01,7.157254815101623535e-01,7.156993746757507324e-01,7.156732678413391113e-01,7.156471610069274902e-01,7.156210541725158691e-01,7.155950069427490234e-01,7.155688405036926270e-01,7.155427932739257812e-01,7.155166864395141602e-01,7.154906392097473145e-01,7.154644727706909180e-01,7.154384255409240723e-01,7.154123187065124512e-01,7.153862714767456055e-01,7.153601646423339844e-01,7.153340578079223633e-01,7.153080105781555176e-01,7.152819037437438965e-01,7.152558565139770508e-01,7.152297496795654297e-01,7.152037024497985840e-01,7.151776552200317383e-01,7.151516079902648926e-01,7.151255011558532715e-01,7.150994539260864258e-01,7.150734066963195801e-01,7.150473594665527344e-01,7.150212526321411133e-01,7.149952650070190430e-01,7.149691581726074219e-01,7.149431705474853516e-01,7.149170637130737305e-01,7.148910760879516602e-01,7.148649692535400391e-01,7.148389816284179688e-01,7.148128747940063477e-01,7.147868871688842773e-01,7.147608399391174316e-01,7.147348523139953613e-01,7.147087454795837402e-01,7.146827578544616699e-01,7.146567106246948242e-01,7.146307229995727539e-01,7.146046757698059082e-01,7.145785689353942871e-01,7.145525813102722168e-01,7.145265340805053711e-01,7.145005464553833008e-01,7.144744992256164551e-01,7.144485116004943848e-01,7.144225239753723145e-01,7.143965363502502441e-01,7.143704891204833984e-01,7.143445014953613281e-01,7.143184542655944824e-01,7.142924666404724121e-01,7.142664790153503418e-01,7.142404913902282715e-01,7.142144441604614258e-01,7.141885161399841309e-01
6.869466900825500488e-01,6.869226694107055664e-01,6.868985891342163086e-01,6.868745088577270508e-01,6.868504881858825684e-01,6.868264079093933105e-01,6.868023872375488281e-01,6.867783665657043457e-01,6.867543458938598633e-01,6.867302656173706055e-01,6.867062449455261230e-01,6.866822242736816406e-01,6.866582036018371582e-01,6.866341829299926758e-01,6.866101622581481934e-01,6.865860819816589355e-01,6.865621209144592285e-01,6.865380406379699707e-01,6.865140795707702637e-01,6.864899992942810059e-01,6.864660382270812988e-01,6.864420175552368164e-01,6.864179968833923340e-01,6.863939762115478516e-01,6.863700151443481445e-01,6.863459348678588867e-01,6.863219738006591797e-01,6.862979531288146973e-01,6.862739920616149902e-01,6.862499713897705078e-01,6.862259507179260254e-01,6.862019300460815430e-01,6.861779689788818359e-01,6.861539483070373535e-01,6.861299276351928711e-01,6.861059665679931641e-01,6.860819458961486816e-01,6.860579848289489746e-01,6.860339641571044922e-01,6.860100030899047852e-01,6.859860420227050781e-01,6.859620809555053711e-01,6.859380602836608887e-01,6.859140992164611816e-01,6.858900785446166992e-01,6.858661770820617676e-01,6.858421564102172852e-01,6.858181953430175781e-01,6.857942342758178711e-01,6.857702732086181641e-01,6.857463121414184570e-01,6.857223510742187500e-01,6.856983304023742676e-01,6.856744289398193359e-01,6.856504082679748535e-01,6.856265068054199219e-01,6.856025457382202148e-01,6.855785846710205078e-01,6.855546236038208008e-01,6.855307221412658691e-01,6.855067014694213867e-01,6.854828000068664551e-01,6.854588389396667480e-01,6.854348778724670410e-01,6.854109168052673340e-01,6.853869557380676270e-01,6.853630542755126953e-01,6.853390932083129883e-01,6.853151917457580566e-01,6.852912306785583496e-01,6.852673292160034180e-01,6.852433681488037109e-01,6.852194666862487793e-01,6.851955056190490723e-01,6.851716041564941406e-01,6.851476430892944336e-01,6.851237416267395020e-01,6.850998401641845703e-01,6.850759387016296387e-01,6.850519776344299316e-01
6.599485874176025391e-01,6.599263548851013184e-01,6.599041223526000977e-01,6.598819494247436523e-01,6.598597168922424316e-01,6.598376035690307617e-01,6.598153710365295410e-01,6.597931981086730957e-01,6.597709655761718750e-01,6.597488522529602051e-01,6.597266197204589844e-01,6.597045063972473145e-01,6.596822738647460938e-01,6.596601009368896484e-01,6.596379280090332031e-01,6.596157550811767578e-01,6.595935821533203125e-01,6.595714092254638672e-01,6.595492362976074219e-01,6.595271229743957520e-01,6.595048904418945312e-01,6.594827771186828613e-01,6.594606041908264160e-01,6.594384312629699707e-01,6.594162583351135254e-01,6.593941450119018555e-01,6.593719124794006348e-01,6.593497991561889648e-01,6.593276262283325195e-01,6.593055129051208496e-01,6.592833399772644043e-01,6.592611670494079590e-01,6.592389941215515137e-01,6.592168211936950684e-01,6.591947078704833984e-01,6.591725349426269531e-01,6.591504216194152832e-01,6.591282486915588379e-01,6.591061353683471680e-01,6.590840220451354980e-01,6.590619087219238281e-01,6.590397357940673828e-01,6.590176224708557129e-01,6.589954495429992676e-01,6.589733362197875977e-01,6.589512228965759277e-01,6.589291095733642578e-01,6.589069366455078125e-01,6.588848233222961426e-01,6.588627099990844727e-01,6.588405966758728027e-01,6.588184833526611328e-01,6.587963700294494629e-01,6.587741971015930176e-01,6.587521433830261230e-01,6.587299704551696777e-01,6.587079167366027832e-01,6.586857438087463379e-01,6.586636900901794434e-01,6.586415767669677734e-01,6.586194634437561035e-01,6.585973501205444336e-01,6.585751771926879883e-01,6.585531234741210938e-01,6.585310101509094238e-01,6.585089564323425293e-01,6.584867835044860840e-01,6.584647297859191895e-01,6.584426164627075195e-01,6.584205627441406250e-01,6.583984494209289551e-01,6.583763360977172852e-01,6.583542227745056152e-01,6.583321690559387207e-01,6.583100557327270508e-01,6.582880020141601562e-01,6.582658886909484863e-01,6.582438349723815918e-01,6.582217216491699219e-01,6.581996679306030273e-01
6.349922418594360352e-01,6.349716782569885254e-01,6.349511742591857910e-01,6.349306106567382812e-01,6.349101066589355469e-01,6.348895430564880371e-01,6.348689794540405273e-01,6.348484158515930176e-01,6.348279118537902832e-01,6.348073482513427734e-01,6.347868442535400391e-01,6.347662806510925293e-01,6.347457766532897949e-01,6.347252130508422852e-01,6.347047090530395508e-01,6.346841454505920410e-01,6.346636414527893066e-01,6.346431374549865723e-01,6.346226334571838379e-01,6.346020698547363281e-01,6.345815658569335938e-01,6.345610022544860840e-01,6.345404982566833496e-01,6.345199942588806152e-01,6.344994902610778809e-01,6.344789266586303711e-01,6.344584822654724121e-01,6.344379186630249023e-01,6.344174146652221680e-01,6.343969106674194336e-01,6.343763470649719238e-01,6.343559026718139648e-01,6.343353390693664551e-01,6.343148946762084961e-01,6.342943310737609863e-01,6.342738866806030273e-01,6.342533230781555176e-01,6.342328786849975586e-01,6.342123150825500488e-01,6.341918706893920898e-01,6.341713666915893555e-01,6.341508626937866211e-01,6.341303586959838867e-01,6.341099143028259277e-01,6.340893507003784180e-01,6.340689063072204590e-01,6.340484023094177246e-01,6.340279579162597656e-01,6.340073943138122559e-01,6.339869499206542969e-01,6.339664459228515625e-01,6.339460015296936035e-01,6.339254975318908691e-01,6.339050531387329102e-01,6.338845491409301758e-01,6.338641047477722168e-01,6.338436007499694824e-01,6.338231563568115234e-01,6.338026523590087891e-01,6.337821483612060547e-01,6.337617039680480957e-01,6.337411999702453613e-01,6.337207555770874023e-01,6.337002515792846680e-01,6.336798667907714844e-01,6.336593627929687500e-01,6.336389183998107910e-01,6.336184144020080566e-01,6.335979700088500977e-01,6.335775256156921387e-01,6.335570812225341797e-01,6.335365772247314453e-01,6.335161328315734863e-01,6.334956884384155273e-01,6.334752440452575684e-01,6.334547996520996094e-01,6.334343552589416504e-01,6.334139108657836914e-01,6.333934664726257324e-01,6.333730220794677734e-01
