5.000000000000000000e+00,5.000000000000000000e+00,5.000000000000000000e+00,5.000000000000000000e+00,5.000000000000000000e+00,5.000000000000000000e+00,5.000000000000000000e+00,5.000000000000000000e+00,5.000000000000000000e+00,5.000000000000000000e+00,5.000000000000000000e+00,5.000000000000000000e+00,5.000000000000000000e+00,5.000000000000000000e+00,5.000000000000000000e+00,5.000000000000000000e+00,5.000000000000000000e+00,5.000000000000000000e+00,5.000000000000000000e+00,5.000000000000000000e+00,5.000000000000000000e+00,5.000000000000000000e+00,5.000000000000000000e+00,5.000000000000000000e+00,5.000000000000000000e+00,5.000000000000000000e+00,5.000000000000000000e+00,5.000000000000000000e+00,5.000000000000000000e+00,5.000000000000000000e+00,5.000000000000000000e+00,5.000000000000000000e+00,5.000000000000000000e+00,5.000000000000000000e+00,5.000000000000000000e+00,5.000000000000000000e+00,5.000000000000000000e+00,1.657919764518737793e+00,1.639668583869934082e+00,1.619596004486083984e+00,1.574167370796203613e+00,1.555826187133789062e+00,1.544244170188903809e+00,1.537451982498168945e+00,1.536262154579162598e+00,1.536233544349670410e+00,1.538816332817077637e+00,1.550394058227539062e+00,1.565707802772521973e+00,1.595795989036560059e+00,3.349003791809082031e+00,1.692108511924743652e+00,1.644363403320312500e+00,1.620393395423889160e+00,1.607182264328002930e+00,1.628003478050231934e+00,2.865113735198974609e+00,2.797740459442138672e+00,2.733462810516357422e+00,2.672072649002075195e+00,2.613379478454589844e+00,2.557209253311157227e+00,2.503402709960937500e+00,2.451813697814941406e+00,2.402307987213134766e+00,2.354762077331542969e+00,2.309061527252197266e+00,2.265101194381713867e+00,2.222783565521240234e+00,2.182018041610717773e+00,2.142720699310302734e+00,2.104814052581787109e+00,2.068224906921386719e+00,2.032886505126953125e+00,1.998735189437866211e+00,1.965712428092956543e+00,1.933763027191162109e+00,1.902835845947265625e+00,1.872882008552551270e+00,1.843856930732727051e+00
5.000000000000000000e+00,5.000000000000000000e+00,5.000000000000000000e+00,5.000000000000000000e+00,5.000000000000000000e+00,5.000000000000000000e+00,5.000000000000000000e+00,5.000000000000000000e+00,5.000000000000000000e+00,5.000000000000000000e+00,5.000000000000000000e+00,5.000000000000000000e+00,5.000000000000000000e+00,5.000000000000000000e+00,5.000000000000000000e+00,5.000000000000000000e+00,5.000000000000000000e+00,5.000000000000000000e+00,5.000000000000000000e+00,5.000000000000000000e+00,5.000000000000000000e+00,5.000000000000000000e+00,5.000000000000000000e+00,5.000000000000000000e+00,5.000000000000000000e+00,5.000000000000000000e+00,5.000000000000000000e+00,5.000000000000000000e+00,5.000000000000000000e+00,5.000000000000000000e+00,5.000000000000000000e+00,5.000000000000000000e+00,5.000000000000000000e+00,5.000000000000000000e+00,5.000000000000000000e+00,5.000000000000000000e+00,5.000000000000000000e+00,1.643860936164855957e+00,1.629396557807922363e+00,1.633609890937805176e+00,1.559915423393249512e+00,1.535413503646850586e+00,1.529630541801452637e+00,1.529305577278137207e+00,1.549782156944274902e+00,1.549753069877624512e+00,1.554788112640380859e+00,1.561631083488464355e+00,1.568534612655639648e+00,1.595224380493164062e+00,3.349069595336914062e+00,3.257377862930297852e+00,1.660134792327880859e+00,1.619504332542419434e+00,1.590938448905944824e+00,1.580177068710327148e+00,2.865161895751953125e+00,2.797786474227905273e+00,2.733506917953491211e+00,2.672114849090576172e+00,2.613419532775878906e+00,2.557247638702392578e+00,2.503439426422119141e+00,2.451848983764648438e+00,2.402341842651367188e+00,2.354794740676879883e+00,2.309092998504638672e+00,2.265131473541259766e+00,2.222812652587890625e+00,2.182045936584472656e+00,2.142747640609741211e+00,2.104840040206909180e+00,2.068250179290771484e+00,2.032910585403442383e+00,1.998758554458618164e+00,1.965735316276550293e+00,1.933785080909729004e+00,1.902857184410095215e+00,1.872902750968933105e+00,1.843876838684082031e+00
5.000000000000000000e+00,5.000000000000000000e+00,5.000000000000000000e+00,5.000000000000000000e+00,5.000000000000000000e+00,5.000000000000000000e+00,5.000000000000000000e+00,5.000000000000000000e+00,5.000000000000000000e+00,5.000000000000000000e+00,5.000000000000000000e+00,5.000000000000000000e+00,5.000000000000000000e+00,5.000000000000000000e+00,5.000000000000000000e+00,5.000000000000000000e+00,5.000000000000000000e+00,5.000000000000000000e+00,5.000000000000000000e+00,5.000000000000000000e+00,5.000000000000000000e+00,5.000000000000000000e+00,5.000000000000000000e+00,5.000000000000000000e+00,5.000000000000000000e+00,5.000000000000000000e+00,5.000000000000000000e+00,5.000000000000000000e+00,5.000000000000000000e+00,5.000000000000000000e+00,5.000000000000000000e+00,5.000000000000000000e+00,5.000000000000000000e+00,5.000000000000000000e+00,5.000000000000000000e+00,5.000000000000000000e+00,5.000000000000000000e+00,1.639455556869506836e+00,1.623191714286804199e+00,1.620636463165283203e+00,1.519766926765441895e+00,1.492487192153930664e+00,1.481603264808654785e+00,1.470889568328857422e+00,1.504466652870178223e+00,1.560014247894287109e+00,1.571094989776611328e+00,1.578082561492919922e+00,1.579444169998168945e+00,1.593917727470397949e+00,3.349135637283325195e+00,3.257440567016601562e+00,3.170632123947143555e+00,1.628816246986389160e+00,1.589976787567138672e+00,1.580427765846252441e+00,2.865210056304931641e+00,2.797832489013671875e+00,2.733550786972045898e+00,2.672156810760498047e+00,2.613459825515747070e+00,2.557286024093627930e+00,2.503476142883300781e+00,2.451884269714355469e+00,2.402375936508178711e+00,2.354827404022216797e+00,2.309124231338500977e+00,2.265161752700805664e+00,2.222841739654541016e+00,2.182074069976806641e+00,2.142774581909179688e+00,2.104866027832031250e+00,2.068275213241577148e+00,2.032935142517089844e+00,1.998782157897949219e+00,1.965757846832275391e+00,1.933807134628295898e+00,1.902878403663635254e+00,1.872923493385314941e+00,1.843896865844726562e+00
5.000000000000000000e+00,5.000000000000000000e+00,5.000000000000000000e+00,5.000000000000000000e+00,5.000000000000000000e+00,5.000000000000000000e+00,5.000000000000000000e+00,5.000000000000000000e+00,5.000000000000000000e+00,5.000000000000000000e+00,5.000000000000000000e+00,5.000000000000000000e+00,5.000000000000000000e+00,5.000000000000000000e+00,5.000000000000000000e+00,5.000000000000000000e+00,5.000000000000000000e+00,5.000000000000000000e+00,5.000000000000000000e+00,5.000000000000000000e+00,5.000000000000000000e+00,5.000000000000000000e+00,5.000000000000000000e+00,5.000000000000000000e+00,5.000000000000000000e+00,5.000000000000000000e+00,5.000000000000000000e+00,5.000000000000000000e+00,5.000000000000000000e+00,5.000000000000000000e+00,5.000000000000000000e+00,5.000000000000000000e+00,5.000000000000000000e+00,5.000000000000000000e+00,5.000000000000000000e+00,5.000000000000000000e+00,5.000000000000000000e+00,1.635635972023010254e+00,1.616484045982360840e+00,1.622377514839172363e+00,1.492638111114501953e+00,1.477620840072631836e+00,1.466717362403869629e+00,1.456247925758361816e+00,1.465413689613342285e+00,1.499291658401489258e+00,1.587747573852539062e+00,1.583314895629882812e+00,1.578975677490234375e+00,1.594251632690429688e+00,3.349201679229736328e+00,3.257502794265747070e+00,3.170691490173339844e+00,3.088386774063110352e+00,1.608801960945129395e+00,1.546725749969482422e+00,1.542168498039245605e+00,2.797878742218017578e+00,2.733594655990600586e+00,2.672198772430419922e+00,2.613499879837036133e+00,2.557324409484863281e+00,2.503513097763061523e+00,2.451919555664062500e+00,2.402409791946411133e+00,2.354860067367553711e+00,2.309155702590942383e+00,2.265191793441772461e+00,2.222870588302612305e+00,2.182101964950561523e+00,2.142801761627197266e+00,2.104892015457153320e+00,2.068300247192382812e+00,2.032959222793579102e+00,1.998805761337280273e+00,1.965780615806579590e+00,1.933829069137573242e+00,1.902899742126464844e+00,1.872943997383117676e+00,1.843916893005371094e+00
5.000000000000000000e+00,5.000000000000000000e+00,5.000000000000000000e+00,5.000000000000000000e+00,5.000000000000000000e+00,5.000000000000000000e+00,5.000000000000000000e+00,5.000000000000000000e+00,5.000000000000000000e+00,5.000000000000000000e+00,5.000000000000000000e+00,5.000000000000000000e+00,5.000000000000000000e+00,5.000000000000000000e+00,5.000000000000000000e+00,5.000000000000000000e+00,5.000000000000000000e+00,5.000000000000000000e+00,5.000000000000000000e+00,5.000000000000000000e+00,5.000000000000000000e+00,5.000000000000000000e+00,5.000000000000000000e+00,5.000000000000000000e+00,5.000000000000000000e+00,5.000000000000000000e+00,5.000000000000000000e+00,5.000000000000000000e+00,5.000000000000000000e+00,5.000000000000000000e+00,5.000000000000000000e+00,5.000000000000000000e+00,5.000000000000000000e+00,5.000000000000000000e+00,5.000000000000000000e+00,5.000000000000000000e+00,5.000000000000000000e+00,1.626421213150024414e+00,1.605288147926330566e+00,1.606537222862243652e+00,1.483625411987304688e+00,1.465380549430847168e+00,1.455171704292297363e+00,1.445104360580444336e+00,1.449543356895446777e+00,1.478523015975952148e+00,1.587204933166503906e+00,1.581968307495117188e+00,1.576742053031921387e+00,1.593006610870361328e+00,1.621454715728759766e+00,3.257565259933471680e+00,3.170750379562377930e+00,3.088443040847778320e+00,3.010300636291503906e+00,1.517440795898437500e+00,1.528162240982055664e+00,1.511742949485778809e+00,2.733638763427734375e+00,2.672240495681762695e+00,2.613539934158325195e+00,2.557363033294677734e+00,2.503550052642822266e+00,2.451955080032348633e+00,2.402443647384643555e+00,2.354892492294311523e+00,2.309186935424804688e+00,2.265222072601318359e+00,2.222899913787841797e+00,2.182129859924316406e+00,2.142828702926635742e+00,2.104918241500854492e+00,2.068325519561767578e+00,2.032983541488647461e+00,1.998829126358032227e+00,1.965803503990173340e+00,1.933851122856140137e+00,1.902921080589294434e+00,1.872964620590209961e+00,1.843936800956726074e+00
5.000000000000000000e+00,5.000000000000000000e+00,5.000000000000000000e+00,5.000000000000000000e+00,5.000000000000000000e+00,5.000000000000000000e+00,5.000000000000000000e+00,5.000000000000000000e+00,5.000000000000000000e+00,5.000000000000000000e+00,5.000000000000000000e+00,5.000000000000000000e+00,5.000000000000000000e+00,5.000000000000000000e+00,5.000000000000000000e+00,5.000000000000000000e+00,5.000000000000000000e+00,5.000000000000000000e+00,5.000000000000000000e+00,5.000000000000000000e+00,5.000000000000000000e+00,5.000000000000000000e+00,5.000000000000000000e+00,5.000000000000000000e+00,5.000000000000000000e+00,5.000000000000000000e+00,5.000000000000000000e+00,5.000000000000000000e+00,5.000000000000000000e+00,5.000000000000000000e+00,5.000000000000000000e+00,5.000000000000000000e+00,5.000000000000000000e+00,5.000000000000000000e+00,5.000000000000000000e+00,5.000000000000000000e+00,5.000000000000000000e+00,1.620297074317932129e+00,1.596873521804809570e+00,1.614610314369201660e+00,1.488424062728881836e+00,1.455165982246398926e+00,1.444044589996337891e+00,1.434129953384399414e+00,1.434955835342407227e+00,1.463289380073547363e+00,1.584883928298950195e+00,1.578734636306762695e+00,1.573077559471130371e+00,1.589588522911071777e+00,1.617332100868225098e+00,3.257627725601196289e+00,3.170809507369995117e+00,3.088499069213867188e+00,3.010353803634643555e+00,2.936065435409545898e+00,1.490390658378601074e+00,1.499659061431884766e+00,2.733682632446289062e+00,2.672282695770263672e+00,2.613580226898193359e+00,2.557401418685913086e+00,2.503586769104003906e+00,2.451990365982055664e+00,2.402477741241455078e+00,2.354925155639648438e+00,2.309218406677246094e+00,2.265252113342285156e+00,2.222928762435913086e+00,2.182157993316650391e+00,2.142855644226074219e+00,2.104944229125976562e+00,2.068350553512573242e+00,2.033008098602294922e+00,1.998852610588073730e+00,1.965826034545898438e+00,1.933873176574707031e+00,1.902942180633544922e+00,1.872985363006591797e+00,1.843956828117370605e+00
5.000000000000000000e+00,4.319342613220214844e+00,4.321155071258544922e+00,5.000000000000000000e+00,5.000000000000000000e+00,5.000000000000000000e+00,5.000000000000000000e+00,5.000000000000000000e+00,5.000000000000000000e+00,5.000000000000000000e+00,5.000000000000000000e+00,5.000000000000000000e+00,5.000000000000000000e+00,5.000000000000000000e+00,5.000000000000000000e+00,5.000000000000000000e+00,5.000000000000000000e+00,5.000000000000000000e+00,5.000000000000000000e+00,5.000000000000000000e+00,5.000000000000000000e+00,5.000000000000000000e+00,5.000000000000000000e+00,5.000000000000000000e+00,5.000000000000000000e+00,5.000000000000000000e+00,5.000000000000000000e+00,5.000000000000000000e+00,5.000000000000000000e+00,5.000000000000000000e+00,5.000000000000000000e+00,5.000000000000000000e+00,5.000000000000000000e+00,5.000000000000000000e+00,5.000000000000000000e+00,5.000000000000000000e+00,5.000000000000000000e+00,1.615775108337402344e+00,1.606338381767272949e+00,1.630722880363464355e+00,1.493253827095031738e+00,1.445561051368713379e+00,1.434341192245483398e+00,1.423321008682250977e+00,1.420658946037292480e+00,1.446517705917358398e+00,1.583193421363830566e+00,1.577885150909423828e+00,1.572612404823303223e+00,1.592116713523864746e+00,1.622949123382568359e+00,3.257690191268920898e+00,3.170868873596191406e+00,3.088554859161376953e+00,3.010406970977783203e+00,2.936115980148315430e+00,2.865403413772583008e+00,1.562371730804443359e+00,1.464284658432006836e+00,2.672324657440185547e+00,2.613620519638061523e+00,2.557439804077148438e+00,2.503623485565185547e+00,2.452025651931762695e+00,2.402511596679687500e+00,2.354957818984985352e+00,2.309249877929687500e+00,2.265282392501831055e+00,2.222957849502563477e+00,2.182185888290405273e+00,2.142882823944091797e+00,2.104970216751098633e+00,2.068375825881958008e+00,2.033032178878784180e+00,1.998876214027404785e+00,1.965848803520202637e+00,1.933894991874694824e+00,1.902963638305664062e+00,1.873005867004394531e+00,1.843976974487304688e+00
5.000000000000000000e+00,4.317256450653076172e+00,4.320054054260253906e+00,4.411659717559814453e+00,5.000000000000000000e+00,5.000000000000000000e+00,5.000000000000000000e+00,5.000000000000000000e+00,5.000000000000000000e+00,5.000000000000000000e+00,5.000000000000000000e+00,5.000000000000000000e+00,5.000000000000000000e+00,5.000000000000000000e+00,5.000000000000000000e+00,5.000000000000000000e+00,5.000000000000000000e+00,5.000000000000000000e+00,5.000000000000000000e+00,5.000000000000000000e+00,5.000000000000000000e+00,5.000000000000000000e+00,5.000000000000000000e+00,5.000000000000000000e+00,5.000000000000000000e+00,5.000000000000000000e+00,5.000000000000000000e+00,5.000000000000000000e+00,5.000000000000000000e+00,5.000000000000000000e+00,5.000000000000000000e+00,5.000000000000000000e+00,5.000000000000000000e+00,5.000000000000000000e+00,5.000000000000000000e+00,5.000000000000000000e+00,5.000000000000000000e+00,1.619120836257934570e+00,1.596718430519104004e+00,4.852013111114501953e+00,1.498114943504333496e+00,1.438582420349121094e+00,1.425008296966552734e+00,1.413984298706054688e+00,1.405870318412780762e+00,1.429769873619079590e+00,1.586526989936828613e+00,1.580318212509155273e+00,1.574434757232666016e+00,1.597822070121765137e+00,1.629226565361022949e+00,3.257752418518066406e+00,3.170927762985229492e+00,3.088611364364624023e+00,3.010460376739501953e+00,2.936166524887084961e+00,2.865451574325561523e+00,2.798062801361083984e+00,1.529326558113098145e+00,1.484764456748962402e+00,2.613660573959350586e+00,2.557478427886962891e+00,2.503660678863525391e+00,2.452061176300048828e+00,2.402545452117919922e+00,2.354990482330322266e+00,2.309281110763549805e+00,2.265312671661376953e+00,2.222986936569213867e+00,2.182214021682739258e+00,2.142909765243530273e+00,2.104996204376220703e+00,2.068401098251342773e+00,2.033056497573852539e+00,1.998899579048156738e+00,1.965871691703796387e+00,1.933917045593261719e+00,1.902984738349914551e+00,1.873026490211486816e+00,1.843996763229370117e+00
5.000000000000000000e+00,5.000000000000000000e+00,4.328372955322265625e+00,4.421752929687500000e+00,5.000000000000000000e+00,5.000000000000000000e+00,5.000000000000000000e+00,5.000000000000000000e+00,5.000000000000000000e+00,5.000000000000000000e+00,5.000000000000000000e+00,5.000000000000000000e+00,5.000000000000000000e+00,5.000000000000000000e+00,5.000000000000000000e+00,5.000000000000000000e+00,5.000000000000000000e+00,5.000000000000000000e+00,5.000000000000000000e+00,5.000000000000000000e+00,5.000000000000000000e+00,5.000000000000000000e+00,5.000000000000000000e+00,5.000000000000000000e+00,5.000000000000000000e+00,5.000000000000000000e+00,5.000000000000000000e+00,5.000000000000000000e+00,5.000000000000000000e+00,5.000000000000000000e+00,5.000000000000000000e+00,5.000000000000000000e+00,5.000000000000000000e+00,5.000000000000000000e+00,5.000000000000000000e+00,5.000000000000000000e+00,5.000000000000000000e+00,1.606902003288269043e+00,1.577183723449707031e+00,1.574332833290100098e+00,1.516671180725097656e+00,1.444142103195190430e+00,1.412410616874694824e+00,1.400769114494323730e+00,1.390483736991882324e+00,1.413704991340637207e+00,1.590852618217468262e+00,1.584954500198364258e+00,1.579099893569946289e+00,1.606228709220886230e+00,1.639317512512207031e+00,3.257815122604370117e+00,3.170986890792846680e+00,3.088667154312133789e+00,3.010513544082641602e+00,2.936217546463012695e+00,2.865499734878540039e+00,2.798108577728271484e+00,2.733814477920532227e+00,2.672408819198608398e+00,2.613700866699218750e+00,2.557516813278198242e+00,2.503697395324707031e+00,2.452096462249755859e+00,2.402579545974731445e+00,2.355022907257080078e+00,2.309312343597412109e+00,2.265342712402343750e+00,2.223016023635864258e+00,2.182242155075073242e+00,2.142936706542968750e+00,2.105022430419921875e+00,2.068426132202148438e+00,2.033080816268920898e+00,1.998923182487487793e+00,1.965894222259521484e+00,1.933939099311828613e+00,1.903006076812744141e+00,1.873047232627868652e+00,1.844016909599304199e+00
5.000000000000000000e+00,4.407044410705566406e+00,4.396761894226074219e+00,4.396603107452392578e+00,5.000000000000000000e+00,5.000000000000000000e+00,5.000000000000000000e+00,5.000000000000000000e+00,5.000000000000000000e+00,5.000000000000000000e+00,5.000000000000000000e+00,5.000000000000000000e+00,5.000000000000000000e+00,5.000000000000000000e+00,5.000000000000000000e+00,5.000000000000000000e+00,5.000000000000000000e+00,5.000000000000000000e+00,5.000000000000000000e+00,5.000000000000000000e+00,5.000000000000000000e+00,5.000000000000000000e+00,5.000000000000000000e+00,5.000000000000000000e+00,5.000000000000000000e+00,5.000000000000000000e+00,5.000000000000000000e+00,5.000000000000000000e+00,5.000000000000000000e+00,5.000000000000000000e+00,5.000000000000000000e+00,5.000000000000000000e+00,5.000000000000000000e+00,5.000000000000000000e+00,5.000000000000000000e+00,5.000000000000000000e+00,5.000000000000000000e+00,1.592688441276550293e+00,1.566944718360900879e+00,1.565889596939086914e+00,1.537713885307312012e+00,1.450666666030883789e+00,1.403456211090087891e+00,1.387798547744750977e+00,1.376557707786560059e+00,1.398147225379943848e+00,1.417840957641601562e+00,1.590446114540100098e+00,1.584550976753234863e+00,1.615271687507629395e+00,3.349597454071044922e+00,3.257877349853515625e+00,3.171046257019042969e+00,3.088723182678222656e+00,3.010566949844360352e+00,2.936268091201782227e+00,2.865548133850097656e+00,2.798154830932617188e+00,2.733858346939086914e+00,2.672450542449951172e+00,2.613740921020507812e+00,2.557555198669433594e+00,2.503734111785888672e+00,2.452131748199462891e+00,2.402613401412963867e+00,2.355055570602416992e+00,2.309343814849853516e+00,2.265372753143310547e+00,2.223045110702514648e+00,2.182270050048828125e+00,2.142963886260986328e+00,2.105048418045043945e+00,2.068451166152954102e+00,2.033105134963989258e+00,1.998946666717529297e+00,1.965916991233825684e+00,1.933961033821105957e+00,1.903027534484863281e+00,1.873067736625671387e+00,1.844036936759948730e+00
4.282241344451904297e+00,4.302986621856689453e+00,4.329604625701904297e+00,4.365195274353027344e+00,4.407748699188232422e+00,4.470850467681884766e+00,4.558974742889404297e+00,5.000000000000000000e+00,5.000000000000000000e+00,5.000000000000000000e+00,5.000000000000000000e+00,5.000000000000000000e+00,5.000000000000000000e+00,5.000000000000000000e+00,5.000000000000000000e+00,5.000000000000000000e+00,5.000000000000000000e+00,5.000000000000000000e+00,5.000000000000000000e+00,5.000000000000000000e+00,5.000000000000000000e+00,5.000000000000000000e+00,5.000000000000000000e+00,5.000000000000000000e+00,5.000000000000000000e+00,5.000000000000000000e+00,5.000000000000000000e+00,5.000000000000000000e+00,5.000000000000000000e+00,5.000000000000000000e+00,5.000000000000000000e+00,5.000000000000000000e+00,5.000000000000000000e+00,5.000000000000000000e+00,5.000000000000000000e+00,5.000000000000000000e+00,5.000000000000000000e+00,1.585613012313842773e+00,1.556514263153076172e+00,1.559336423873901367e+00,4.662278652191162109e+00,1.457250595092773438e+00,1.397155642509460449e+00,1.378113627433776855e+00,1.364029765129089355e+00,1.381333589553833008e+00,1.399198889732360840e+00,1.595975756645202637e+00,1.593041419982910156e+00,1.625920057296752930e+00,3.349663257598876953e+00,3.257939577102661133e+00,3.171105146408081055e+00,3.088779449462890625e+00,3.010620117187500000e+00,2.936318635940551758e+00,2.865596532821655273e+00,2.798200845718383789e+00,2.733902454376220703e+00,2.672492504119873047e+00,2.613780975341796875e+00,2.557593822479248047e+00,2.503771066665649414e+00,2.452167272567749023e+00,2.402647495269775391e+00,2.355088233947753906e+00,2.309375286102294922e+00,2.265403032302856445e+00,2.223073959350585938e+00,2.182297945022583008e+00,2.142990827560424805e+00,2.105074405670166016e+00,2.068476438522338867e+00,2.033129453659057617e+00,1.998970031738281250e+00,1.965939760208129883e+00,1.933983087539672852e+00,1.903048634529113770e+00,1.873088479042053223e+00,1.844056725502014160e+00
4.274391174316406250e+00,4.275873661041259766e+00,4.303750514984130859e+00,4.338191032409667969e+00,4.396802425384521484e+00,4.480280399322509766e+00,4.528941631317138672e+00,5.000000000000000000e+00,5.000000000000000000e+00,5.000000000000000000e+00,5.000000000000000000e+00,5.000000000000000000e+00,5.000000000000000000e+00,5.000000000000000000e+00,5.000000000000000000e+00,5.000000000000000000e+00,5.000000000000000000e+00,5.000000000000000000e+00,5.000000000000000000e+00,5.000000000000000000e+00,5.000000000000000000e+00,5.000000000000000000e+00,5.000000000000000000e+00,5.000000000000000000e+00,5.000000000000000000e+00,5.000000000000000000e+00,5.000000000000000000e+00,5.000000000000000000e+00,5.000000000000000000e+00,5.000000000000000000e+00,5.000000000000000000e+00,5.000000000000000000e+00,5.000000000000000000e+00,5.000000000000000000e+00,5.000000000000000000e+00,5.000000000000000000e+00,5.000000000000000000e+00,1.578017950057983398e+00,1.544523954391479492e+00,4.852566719055175781e+00,4.662406444549560547e+00,1.475461721420288086e+00,1.405077576637268066e+00,1.371783852577209473e+00,1.353525996208190918e+00,1.363633155822753906e+00,1.381040692329406738e+00,1.600672364234924316e+00,1.601936340332031250e+00,1.637926340103149414e+00,3.349729537963867188e+00,3.258002042770385742e+00,3.171164274215698242e+00,3.088835477828979492e+00,3.010673522949218750e+00,2.936369657516479492e+00,2.865644693374633789e+00,2.798246860504150391e+00,2.733946323394775391e+00,2.672534704208374023e+00,2.613821268081665039e+00,2.557632207870483398e+00,2.503808021545410156e+00,2.452202558517456055e+00,2.402681350708007812e+00,2.355120897293090820e+00,2.309406518936157227e+00,2.265433311462402344e+00,2.223103284835815430e+00,2.182326078414916992e+00,2.143017768859863281e+00,2.105100631713867188e+00,2.068501710891723633e+00,2.033153772354125977e+00,1.998993635177612305e+00,1.965962409973144531e+00,1.934005141258239746e+00,1.903069972991943359e+00,1.873109102249145508e+00,1.844076871871948242e+00
4.284806728363037109e+00,4.276726722717285156e+00,4.298867225646972656e+00,4.342375278472900391e+00,4.409780979156494141e+00,4.473419189453125000e+00,4.523329734802246094e+00,5.000000000000000000e+00,5.000000000000000000e+00,5.000000000000000000e+00,5.000000000000000000e+00,5.000000000000000000e+00,5.000000000000000000e+00,5.000000000000000000e+00,5.000000000000000000e+00,5.000000000000000000e+00,5.000000000000000000e+00,5.000000000000000000e+00,5.000000000000000000e+00,5.000000000000000000e+00,5.000000000000000000e+00,5.000000000000000000e+00,5.000000000000000000e+00,5.000000000000000000e+00,5.000000000000000000e+00,5.000000000000000000e+00,5.000000000000000000e+00,5.000000000000000000e+00,5.000000000000000000e+00,5.000000000000000000e+00,5.000000000000000000e+00,5.000000000000000000e+00,5.000000000000000000e+00,5.000000000000000000e+00,5.000000000000000000e+00,5.000000000000000000e+00,5.000000000000000000e+00,1.570413947105407715e+00,1.541833400726318359e+00,4.852705001831054688e+00,4.662534236907958984e+00,1.488198757171630859e+00,1.413089632987976074e+00,1.365811109542846680e+00,1.344970464706420898e+00,1.352162480354309082e+00,1.366299390792846680e+00,1.605163216590881348e+00,1.611419558525085449e+00,1.648455619812011719e+00,3.349795341491699219e+00,3.258064508438110352e+00,3.171223640441894531e+00,3.088891506195068359e+00,3.010726690292358398e+00,2.936420202255249023e+00,2.865693092346191406e+00,2.798292875289916992e+00,2.733990192413330078e+00,2.672576665878295898e+00,2.613861560821533203e+00,2.557670831680297852e+00,2.503844738006591797e+00,2.452237844467163086e+00,2.402715444564819336e+00,2.355153560638427734e+00,2.309437990188598633e+00,2.265463352203369141e+00,2.223132133483886719e+00,2.182353973388671875e+00,2.143044710159301758e+00,2.105126619338989258e+00,2.068526744842529297e+00,2.033178091049194336e+00,1.999017238616943359e+00,1.965985178947448730e+00,1.934026956558227539e+00,1.903091430664062500e+00,1.873129606246948242e+00,1.844096899032592773e+00
4.298470497131347656e+00,4.273404121398925781e+00,4.300446510314941406e+00,4.342424869537353516e+00,4.421885013580322266e+00,4.491984367370605469e+00,4.521372795104980469e+00,5.000000000000000000e+00,5.000000000000000000e+00,5.000000000000000000e+00,5.000000000000000000e+00,5.000000000000000000e+00,5.000000000000000000e+00,5.000000000000000000e+00,5.000000000000000000e+00,5.000000000000000000e+00,5.000000000000000000e+00,5.000000000000000000e+00,5.000000000000000000e+00,5.000000000000000000e+00,5.000000000000000000e+00,5.000000000000000000e+00,5.000000000000000000e+00,5.000000000000000000e+00,5.000000000000000000e+00,5.000000000000000000e+00,5.000000000000000000e+00,5.000000000000000000e+00,5.000000000000000000e+00,5.000000000000000000e+00,5.000000000000000000e+00,5.000000000000000000e+00,5.000000000000000000e+00,5.000000000000000000e+00,5.000000000000000000e+00,5.000000000000000000e+00,5.000000000000000000e+00,5.000000000000000000e+00,5.000000000000000000e+00,4.852843761444091797e+00,4.662662506103515625e+00,4.486824989318847656e+00,1.421901941299438477e+00,1.364744901657104492e+00,1.343939065933227539e+00,1.349011778831481934e+00,1.361487627029418945e+00,1.610433340072631836e+00,1.617604851722717285e+00,3.446911334991455078e+00,3.349861383438110352e+00,3.258126974105834961e+00,3.171282768249511719e+00,3.088948011398315430e+00,3.010779857635498047e+00,2.936470746994018555e+00,2.865741252899169922e+00,2.798338890075683594e+00,2.734034299850463867e+00,2.672618627548217773e+00,2.613901615142822266e+00,2.557709217071533203e+00,2.503881692886352539e+00,2.452273130416870117e+00,2.402749300003051758e+00,2.355186223983764648e+00,2.309469223022460938e+00,2.265493631362915039e+00,2.223161220550537109e+00,2.182382106781005859e+00,2.143071889877319336e+00,2.105152606964111328e+00,2.068552017211914062e+00,2.033202409744262695e+00,1.999040603637695312e+00,1.966008067131042480e+00,1.934049010276794434e+00,1.903112530708312988e+00,1.873150348663330078e+00,1.844116806983947754e+00
4.278552055358886719e+00,4.261210441589355469e+00,4.292924880981445312e+00,4.332896232604980469e+00,4.410721302032470703e+00,4.510974884033203125e+00,4.503768920898437500e+00,5.000000000000000000e+00,5.000000000000000000e+00,5.000000000000000000e+00,5.000000000000000000e+00,5.000000000000000000e+00,5.000000000000000000e+00,5.000000000000000000e+00,5.000000000000000000e+00,5.000000000000000000e+00,5.000000000000000000e+00,5.000000000000000000e+00,5.000000000000000000e+00,5.000000000000000000e+00,5.000000000000000000e+00,5.000000000000000000e+00,5.000000000000000000e+00,5.000000000000000000e+00,5.000000000000000000e+00,5.000000000000000000e+00,5.000000000000000000e+00,5.000000000000000000e+00,5.000000000000000000e+00,5.000000000000000000e+00,5.000000000000000000e+00,5.000000000000000000e+00,5.000000000000000000e+00,5.000000000000000000e+00,5.000000000000000000e+00,5.000000000000000000e+00,5.000000000000000000e+00,5.000000000000000000e+00,5.000000000000000000e+00,4.852982521057128906e+00,4.662789821624755859e+00,4.486943244934082031e+00,1.431827664375305176e+00,1.367499589920043945e+00,1.347052693367004395e+00,1.351098775863647461e+00,1.363588690757751465e+00,1.615738034248352051e+00,1.623837828636169434e+00,3.446981191635131836e+00,3.349927425384521484e+00,3.258189201354980469e+00,3.171341657638549805e+00,3.089003801345825195e+00,3.010833501815795898e+00,2.936521768569946289e+00,2.865789651870727539e+00,2.798384904861450195e+00,2.734078168869018555e+00,2.672660827636718750e+00,2.613941669464111328e+00,2.557747602462768555e+00,2.503918647766113281e+00,2.452308654785156250e+00,2.402783393859863281e+00,2.355218648910522461e+00,2.309500694274902344e+00,2.265523672103881836e+00,2.223190307617187500e+00,2.182410001754760742e+00,2.143098831176757812e+00,2.105178594589233398e+00,2.068577051162719727e+00,2.033226728439331055e+00,1.999064087867736816e+00,1.966030597686767578e+00,1.934071183204650879e+00,1.903133869171142578e+00,1.873171091079711914e+00,1.844136834144592285e+00
4.272293567657470703e+00,4.279268264770507812e+00,4.300464153289794922e+00,4.344565868377685547e+00,4.408953666687011719e+00,5.000000000000000000e+00,4.466425418853759766e+00,5.000000000000000000e+00,5.000000000000000000e+00,5.000000000000000000e+00,5.000000000000000000e+00,5.000000000000000000e+00,5.000000000000000000e+00,5.000000000000000000e+00,5.000000000000000000e+00,5.000000000000000000e+00,5.000000000000000000e+00,5.000000000000000000e+00,5.000000000000000000e+00,5.000000000000000000e+00,5.000000000000000000e+00,5.000000000000000000e+00,5.000000000000000000e+00,5.000000000000000000e+00,5.000000000000000000e+00,5.000000000000000000e+00,5.000000000000000000e+00,5.000000000000000000e+00,5.000000000000000000e+00,5.000000000000000000e+00,5.000000000000000000e+00,5.000000000000000000e+00,5.000000000000000000e+00,5.000000000000000000e+00,5.000000000000000000e+00,5.000000000000000000e+00,5.000000000000000000e+00,5.000000000000000000e+00,5.000000000000000000e+00,4.853120803833007812e+00,4.662918090820312500e+00,4.487061500549316406e+00,1.430778861045837402e+00,1.369462370872497559e+00,1.352858901023864746e+00,1.353830695152282715e+00,1.367826342582702637e+00,1.620998144149780273e+00,1.630118966102600098e+00,3.447051048278808594e+00,3.349993467330932617e+00,3.258251905441284180e+00,3.171401023864746094e+00,3.089059829711914062e+00,3.010886669158935547e+00,2.936572313308715820e+00,2.865838050842285156e+00,2.798430919647216797e+00,2.734122037887573242e+00,2.672702789306640625e+00,2.613981962203979492e+00,2.557786226272583008e+00,2.503955364227294922e+00,2.452343940734863281e+00,2.402817249298095703e+00,2.355251312255859375e+00,2.309531927108764648e+00,2.265553712844848633e+00,2.223219394683837891e+00,2.182438135147094727e+00,2.143125772476196289e+00,2.105204820632934570e+00,2.068602323532104492e+00,2.033251047134399414e+00,1.999087691307067871e+00,1.966053366661071777e+00,1.934092998504638672e+00,1.903155326843261719e+00,1.873191595077514648e+00,1.844156861305236816e+00
4.225294113159179688e+00,4.237458705902099609e+00,4.346909046173095703e+00,4.365979194641113281e+00,4.409057140350341797e+00,5.000000000000000000e+00,4.441746711730957031e+00,5.000000000000000000e+00,5.000000000000000000e+00,5.000000000000000000e+00,5.000000000000000000e+00,5.000000000000000000e+00,5.000000000000000000e+00,5.000000000000000000e+00,5.000000000000000000e+00,5.000000000000000000e+00,5.000000000000000000e+00,5.000000000000000000e+00,5.000000000000000000e+00,5.000000000000000000e+00,5.000000000000000000e+00,5.000000000000000000e+00,5.000000000000000000e+00,5.000000000000000000e+00,5.000000000000000000e+00,5.000000000000000000e+00,5.000000000000000000e+00,5.000000000000000000e+00,5.000000000000000000e+00,5.000000000000000000e+00,5.000000000000000000e+00,5.000000000000000000e+00,5.000000000000000000e+00,5.000000000000000000e+00,5.000000000000000000e+00,5.000000000000000000e+00,5.000000000000000000e+00,5.000000000000000000e+00,5.000000000000000000e+00,4.853259086608886719e+00,4.663045406341552734e+00,4.487180233001708984e+00,1.416405677795410156e+00,1.370766282081604004e+00,1.358715415000915527e+00,1.356573700904846191e+00,1.375568270683288574e+00,1.624319672584533691e+00,1.650361299514770508e+00,3.447121143341064453e+00,3.350059270858764648e+00,3.258314132690429688e+00,3.171460151672363281e+00,3.089116334915161133e+00,3.010939836502075195e+00,2.936623096466064453e+00,2.865886211395263672e+00,2.798477172851562500e+00,2.734166145324707031e+00,2.672744750976562500e+00,2.614022254943847656e+00,2.557824611663818359e+00,2.503992319107055664e+00,2.452379226684570312e+00,2.402851104736328125e+00,2.355283975601196289e+00,2.309563398361206055e+00,2.265583992004394531e+00,2.223248481750488281e+00,2.182466030120849609e+00,2.143152713775634766e+00,2.105230808258056641e+00,2.068627357482910156e+00,2.033275365829467773e+00,1.999111056327819824e+00,1.966076254844665527e+00,1.934115052223205566e+00,1.903176426887512207e+00,1.873212218284606934e+00,1.844176769256591797e+00
4.203691959381103516e+00,4.212359428405761719e+00,4.290745735168457031e+00,4.361979484558105469e+00,4.406256198883056641e+00,5.000000000000000000e+00,4.407047748565673828e+00,5.000000000000000000e+00,5.000000000000000000e+00,5.000000000000000000e+00,5.000000000000000000e+00,5.000000000000000000e+00,5.000000000000000000e+00,5.000000000000000000e+00,5.000000000000000000e+00,5.000000000000000000e+00,5.000000000000000000e+00,5.000000000000000000e+00,5.000000000000000000e+00,5.000000000000000000e+00,5.000000000000000000e+00,5.000000000000000000e+00,5.000000000000000000e+00,5.000000000000000000e+00,5.000000000000000000e+00,5.000000000000000000e+00,5.000000000000000000e+00,5.000000000000000000e+00,5.000000000000000000e+00,5.000000000000000000e+00,5.000000000000000000e+00,5.000000000000000000e+00,5.000000000000000000e+00,5.000000000000000000e+00,5.000000000000000000e+00,5.000000000000000000e+00,5.000000000000000000e+00,5.000000000000000000e+00,5.000000000000000000e+00,4.853397846221923828e+00,4.663173675537109375e+00,4.487298488616943359e+00,1.404434561729431152e+00,1.372072815895080566e+00,1.362750172615051270e+00,1.359327912330627441e+00,1.383398532867431641e+00,1.630907773971557617e+00,3.550048828125000000e+00,3.447190761566162109e+00,3.350125551223754883e+00,3.258376598358154297e+00,3.171519279479980469e+00,3.089172363281250000e+00,3.010993480682373047e+00,2.936673879623413086e+00,2.865934371948242188e+00,2.798523187637329102e+00,2.734210014343261719e+00,2.672786712646484375e+00,2.614062309265136719e+00,2.557862997055053711e+00,2.504029273986816406e+00,2.452414751052856445e+00,2.402885198593139648e+00,2.355316638946533203e+00,2.309594631195068359e+00,2.265614271163940430e+00,2.223277568817138672e+00,2.182493925094604492e+00,2.143179893493652344e+00,2.105256795883178711e+00,2.068652629852294922e+00,2.033299684524536133e+00,1.999134659767150879e+00,1.966098785400390625e+00,1.934137105941772461e+00,1.903197884559631348e+00,1.873232722282409668e+00,1.844196796417236328e+00
4.188311100006103516e+00,4.193809509277343750e+00,4.267863273620605469e+00,4.371539592742919922e+00,4.418917179107666016e+00,5.000000000000000000e+00,5.000000000000000000e+00,4.418266296386718750e+00,5.000000000000000000e+00,5.000000000000000000e+00,5.000000000000000000e+00,5.000000000000000000e+00,5.000000000000000000e+00,5.000000000000000000e+00,5.000000000000000000e+00,5.000000000000000000e+00,5.000000000000000000e+00,5.000000000000000000e+00,5.000000000000000000e+00,5.000000000000000000e+00,5.000000000000000000e+00,5.000000000000000000e+00,5.000000000000000000e+00,5.000000000000000000e+00,5.000000000000000000e+00,5.000000000000000000e+00,5.000000000000000000e+00,5.000000000000000000e+00,5.000000000000000000e+00,5.000000000000000000e+00,5.000000000000000000e+00,5.000000000000000000e+00,5.000000000000000000e+00,5.000000000000000000e+00,5.000000000000000000e+00,5.000000000000000000e+00,5.000000000000000000e+00,5.000000000000000000e+00,5.000000000000000000e+00,4.853536128997802734e+00,4.663301467895507812e+00,4.487416744232177734e+00,1.400839447975158691e+00,1.373381733894348145e+00,1.364041328430175781e+00,1.365547299385070801e+00,1.391318202018737793e+00,1.643593668937683105e+00,3.550122737884521484e+00,3.447260618209838867e+00,3.350191354751586914e+00,3.258439302444458008e+00,3.171578168869018555e+00,3.089228391647338867e+00,3.011046648025512695e+00,2.936724424362182617e+00,2.865983009338378906e+00,2.798569202423095703e+00,2.734254121780395508e+00,2.672828674316406250e+00,2.614102602005004883e+00,2.557901620864868164e+00,2.504065990447998047e+00,2.452450037002563477e+00,2.402919054031372070e+00,2.355349302291870117e+00,2.309626102447509766e+00,2.265644311904907227e+00,2.223306655883789062e+00,2.182522058486938477e+00,2.143206834793090820e+00,2.105283021926879883e+00,2.068677663803100586e+00,2.033324003219604492e+00,1.999158263206481934e+00,1.966121554374694824e+00,1.934158921241760254e+00,1.903219223022460938e+00,1.873253464698791504e+00,1.844216942787170410e+00
5.000000000000000000e+00,4.172264575958251953e+00,4.240040302276611328e+00,4.388060092926025391e+00,4.437288761138916016e+00,5.000000000000000000e+00,5.000000000000000000e+00,5.000000000000000000e+00,5.000000000000000000e+00,5.000000000000000000e+00,5.000000000000000000e+00,5.000000000000000000e+00,5.000000000000000000e+00,5.000000000000000000e+00,5.000000000000000000e+00,5.000000000000000000e+00,5.000000000000000000e+00,5.000000000000000000e+00,5.000000000000000000e+00,5.000000000000000000e+00,5.000000000000000000e+00,5.000000000000000000e+00,5.000000000000000000e+00,5.000000000000000000e+00,5.000000000000000000e+00,5.000000000000000000e+00,5.000000000000000000e+00,5.000000000000000000e+00,5.000000000000000000e+00,5.000000000000000000e+00,5.000000000000000000e+00,5.000000000000000000e+00,5.000000000000000000e+00,5.000000000000000000e+00,5.000000000000000000e+00,5.000000000000000000e+00,5.000000000000000000e+00,5.000000000000000000e+00,5.000000000000000000e+00,4.853674888610839844e+00,4.663429260253906250e+00,4.487535476684570312e+00,1.401831030845642090e+00,1.372284173965454102e+00,1.361375570297241211e+00,1.360933661460876465e+00,1.387116789817810059e+00,1.703296422958374023e+00,3.550197124481201172e+00,3.447330474853515625e+00,3.350257396697998047e+00,3.258501529693603516e+00,3.171637535095214844e+00,3.089284658432006836e+00,3.011099815368652344e+00,2.936775207519531250e+00,2.866031169891357422e+00,2.798615455627441406e+00,2.734297990798950195e+00,2.672870635986328125e+00,2.614142656326293945e+00,2.557940006256103516e+00,2.504102945327758789e+00,2.452485322952270508e+00,2.402952909469604492e+00,2.355381965637207031e+00,2.309657573699951172e+00,2.265674591064453125e+00,2.223335742950439453e+00,2.182549953460693359e+00,2.143233776092529297e+00,2.105309009552001953e+00,2.068702936172485352e+00,2.033348321914672852e+00,1.999181509017944336e+00,1.966144442558288574e+00,1.934181094169616699e+00,1.903240323066711426e+00,1.873274207115173340e+00,1.844236731529235840e+00
5.000000000000000000e+00,4.151950359344482422e+00,4.219680786132812500e+00,4.403031826019287109e+00,4.453421592712402344e+00,5.000000000000000000e+00,5.000000000000000000e+00,5.000000000000000000e+00,5.000000000000000000e+00,5.000000000000000000e+00,5.000000000000000000e+00,5.000000000000000000e+00,5.000000000000000000e+00,5.000000000000000000e+00,5.000000000000000000e+00,5.000000000000000000e+00,5.000000000000000000e+00,5.000000000000000000e+00,5.000000000000000000e+00,5.000000000000000000e+00,5.000000000000000000e+00,5.000000000000000000e+00,5.000000000000000000e+00,5.000000000000000000e+00,5.000000000000000000e+00,5.000000000000000000e+00,5.000000000000000000e+00,5.000000000000000000e+00,5.000000000000000000e+00,5.000000000000000000e+00,5.000000000000000000e+00,5.000000000000000000e+00,5.000000000000000000e+00,5.000000000000000000e+00,5.000000000000000000e+00,5.000000000000000000e+00,5.000000000000000000e+00,5.000000000000000000e+00,5.000000000000000000e+00,4.853813171386718750e+00,4.663557052612304688e+00,4.487653732299804688e+00,1.402035713195800781e+00,1.371896624565124512e+00,1.356721282005310059e+00,1.353243350982666016e+00,1.378791093826293945e+00,3.659469842910766602e+00,3.550271034240722656e+00,3.447400569915771484e+00,3.350323438644409180e+00,3.258563756942749023e+00,3.171696662902832031e+00,3.089340686798095703e+00,3.011153459548950195e+00,2.936825752258300781e+00,2.866079330444335938e+00,2.798661231994628906e+00,2.734342098236083984e+00,2.672912836074829102e+00,2.614182949066162109e+00,2.557978391647338867e+00,2.504139900207519531e+00,2.452520847320556641e+00,2.402987003326416016e+00,2.355414390563964844e+00,2.309688806533813477e+00,2.265704870223999023e+00,2.223364830017089844e+00,2.182578086853027344e+00,2.143260717391967773e+00,2.105334997177124023e+00,2.068728208541870117e+00,2.033372640609741211e+00,1.999205112457275391e+00,1.966166973114013672e+00,1.934203147888183594e+00,1.903261780738830566e+00,1.873294711112976074e+00,1.844256877899169922e+00
5.000000000000000000e+00,4.159722805023193359e+00,4.228859424591064453e+00,4.415036201477050781e+00,5.000000000000000000e+00,5.000000000000000000e+00,5.000000000000000000e+00,5.000000000000000000e+00,5.000000000000000000e+00,5.000000000000000000e+00,5.000000000000000000e+00,5.000000000000000000e+00,5.000000000000000000e+00,5.000000000000000000e+00,5.000000000000000000e+00,5.000000000000000000e+00,5.000000000000000000e+00,5.000000000000000000e+00,5.000000000000000000e+00,5.000000000000000000e+00,5.000000000000000000e+00,5.000000000000000000e+00,5.000000000000000000e+00,5.000000000000000000e+00,5.000000000000000000e+00,5.000000000000000000e+00,5.000000000000000000e+00,5.000000000000000000e+00,5.000000000000000000e+00,5.000000000000000000e+00,5.000000000000000000e+00,5.000000000000000000e+00,5.000000000000000000e+00,5.000000000000000000e+00,5.000000000000000000e+00,5.000000000000000000e+00,5.000000000000000000e+00,5.000000000000000000e+00,5.000000000000000000e+00,4.853950977325439453e+00,4.663685321807861328e+00,4.487771987915039062e+00,1.402121901512145996e+00,1.372052192687988281e+00,1.352098822593688965e+00,1.345639586448669434e+00,1.370336771011352539e+00,3.659548759460449219e+00,3.550345182418823242e+00,3.447470188140869141e+00,3.350389480590820312e+00,3.258626461029052734e+00,3.171755790710449219e+00,3.089396715164184570e+00,3.011206626892089844e+00,2.936876773834228516e+00,2.866127729415893555e+00,2.798707246780395508e+00,2.734385967254638672e+00,2.672954797744750977e+00,2.614223241806030273e+00,2.558016777038574219e+00,2.504176616668701172e+00,2.452556133270263672e+00,2.403020858764648438e+00,2.355447053909301758e+00,2.309720039367675781e+00,2.265734910964965820e+00,2.223393917083740234e+00,2.182606220245361328e+00,2.143287897109985352e+00,2.105361223220825195e+00,2.068753242492675781e+00,2.033396959304809570e+00,1.999228715896606445e+00,1.966189861297607422e+00,1.934224963188171387e+00,1.903283119201660156e+00,1.873315334320068359e+00,1.844276905059814453e+00
5.000000000000000000e+00,4.186565876007080078e+00,4.247127532958984375e+00,4.470322132110595703e+00,4.591974735260009766e+00,5.000000000000000000e+00,5.000000000000000000e+00,5.000000000000000000e+00,5.000000000000000000e+00,5.000000000000000000e+00,5.000000000000000000e+00,5.000000000000000000e+00,5.000000000000000000e+00,5.000000000000000000e+00,5.000000000000000000e+00,5.000000000000000000e+00,5.000000000000000000e+00,5.000000000000000000e+00,5.000000000000000000e+00,5.000000000000000000e+00,5.000000000000000000e+00,5.000000000000000000e+00,5.000000000000000000e+00,5.000000000000000000e+00,5.000000000000000000e+00,5.000000000000000000e+00,5.000000000000000000e+00,5.000000000000000000e+00,5.000000000000000000e+00,5.000000000000000000e+00,5.000000000000000000e+00,5.000000000000000000e+00,5.000000000000000000e+00,5.000000000000000000e+00,5.000000000000000000e+00,5.000000000000000000e+00,5.000000000000000000e+00,5.000000000000000000e+00,5.000000000000000000e+00,4.854088783264160156e+00,4.663813114166259766e+00,4.487890720367431641e+00,1.402208328247070312e+00,1.372207760810852051e+00,1.349274158477783203e+00,1.338120818138122559e+00,1.361985325813293457e+00,3.659627437591552734e+00,3.550419569015502930e+00,3.447540044784545898e+00,3.350455284118652344e+00,3.258688926696777344e+00,3.171815156936645508e+00,3.089452981948852539e+00,3.011259794235229492e+00,2.936927318572998047e+00,2.866176128387451172e+00,2.798753499984741211e+00,2.734429836273193359e+00,2.672996759414672852e+00,2.614263296127319336e+00,2.558055400848388672e+00,2.504213571548461914e+00,2.452591657638549805e+00,2.403054952621459961e+00,2.355479717254638672e+00,2.309751749038696289e+00,2.265765190124511719e+00,2.223422765731811523e+00,2.182634115219116211e+00,2.143314838409423828e+00,2.105387210845947266e+00,2.068778276443481445e+00,2.033421277999877930e+00,1.999252080917358398e+00,1.966212630271911621e+00,1.934247016906738281e+00,1.903304338455200195e+00,1.873336076736450195e+00,1.844296813011169434e+00
5.000000000000000000e+00,4.190445423126220703e+00,4.239734649658203125e+00,4.567325592041015625e+00,5.000000000000000000e+00,5.000000000000000000e+00,5.000000000000000000e+00,5.000000000000000000e+00,5.000000000000000000e+00,5.000000000000000000e+00,5.000000000000000000e+00,5.000000000000000000e+00,5.000000000000000000e+00,5.000000000000000000e+00,5.000000000000000000e+00,5.000000000000000000e+00,5.000000000000000000e+00,5.000000000000000000e+00,5.000000000000000000e+00,5.000000000000000000e+00,5.000000000000000000e+00,5.000000000000000000e+00,5.000000000000000000e+00,5.000000000000000000e+00,5.000000000000000000e+00,5.000000000000000000e+00,5.000000000000000000e+00,5.000000000000000000e+00,5.000000000000000000e+00,5.000000000000000000e+00,5.000000000000000000e+00,5.000000000000000000e+00,5.000000000000000000e+00,5.000000000000000000e+00,5.000000000000000000e+00,5.000000000000000000e+00,5.000000000000000000e+00,5.000000000000000000e+00,5.000000000000000000e+00,4.854226589202880859e+00,4.663939476013183594e+00,4.488008975982666016e+00,4.324867248535156250e+00,1.372363328933715820e+00,1.346731185913085938e+00,1.332736849784851074e+00,1.353735208511352539e+00,3.659706115722656250e+00,3.550493478775024414e+00,3.447610139846801758e+00,3.350521564483642578e+00,3.258751153945922852e+00,3.171874046325683594e+00,3.089509010314941406e+00,3.011313438415527344e+00,2.936977863311767578e+00,2.866224288940429688e+00,2.798799514770507812e+00,2.734473943710327148e+00,2.673038959503173828e+00,2.614303350448608398e+00,2.558093786239624023e+00,2.504250526428222656e+00,2.452626943588256836e+00,2.403088808059692383e+00,2.355512380599975586e+00,2.309782981872558594e+00,2.265795469284057617e+00,2.223452091217041016e+00,2.182662010192871094e+00,2.143341779708862305e+00,2.105413198471069336e+00,2.068803548812866211e+00,2.033445596694946289e+00,1.999275684356689453e+00,1.966235160827636719e+00,1.934269189834594727e+00,1.903325676918029785e+00,1.873356580734252930e+00,1.844316840171813965e+00
5.000000000000000000e+00,4.197268486022949219e+00,4.236948490142822266e+00,4.630173206329345703e+00,5.000000000000000000e+00,5.000000000000000000e+00,5.000000000000000000e+00,5.000000000000000000e+00,5.000000000000000000e+00,5.000000000000000000e+00,5.000000000000000000e+00,5.000000000000000000e+00,5.000000000000000000e+00,5.000000000000000000e+00,5.000000000000000000e+00,5.000000000000000000e+00,5.000000000000000000e+00,5.000000000000000000e+00,5.000000000000000000e+00,5.000000000000000000e+00,5.000000000000000000e+00,5.000000000000000000e+00,5.000000000000000000e+00,5.000000000000000000e+00,5.000000000000000000e+00,5.000000000000000000e+00,5.000000000000000000e+00,5.000000000000000000e+00,5.000000000000000000e+00,5.000000000000000000e+00,5.000000000000000000e+00,5.000000000000000000e+00,5.000000000000000000e+00,5.000000000000000000e+00,5.000000000000000000e+00,5.000000000000000000e+00,5.000000000000000000e+00,5.000000000000000000e+00,5.000000000000000000e+00,4.854364871978759766e+00,4.664067268371582031e+00,4.488126277923583984e+00,4.324977397918701172e+00,1.372519135475158691e+00,1.344613790512084961e+00,1.330781936645507812e+00,1.346159458160400391e+00,3.659785032272338867e+00,3.550567626953125000e+00,3.447679996490478516e+00,3.350587368011474609e+00,3.258813858032226562e+00,3.171933174133300781e+00,3.089565038681030273e+00,3.011366605758666992e+00,2.937028884887695312e+00,2.866272687911987305e+00,2.798845529556274414e+00,2.734517812728881836e+00,2.673080921173095703e+00,2.614343643188476562e+00,2.558132171630859375e+00,2.504287242889404297e+00,2.452662467956542969e+00,2.403122901916503906e+00,2.355545043945312500e+00,2.309814214706420898e+00,2.265825510025024414e+00,2.223480939865112305e+00,2.182690143585205078e+00,2.143368721008300781e+00,2.105439424514770508e+00,2.068828821182250977e+00,2.033469915390014648e+00,1.999299287796020508e+00,1.966258049011230469e+00,1.934291005134582520e+00,1.903347015380859375e+00,1.873377323150634766e+00,1.844336986541748047e+00
5.000000000000000000e+00,4.216611862182617188e+00,4.237664699554443359e+00,4.722485065460205078e+00,5.000000000000000000e+00,5.000000000000000000e+00,5.000000000000000000e+00,5.000000000000000000e+00,5.000000000000000000e+00,5.000000000000000000e+00,5.000000000000000000e+00,5.000000000000000000e+00,5.000000000000000000e+00,5.000000000000000000e+00,5.000000000000000000e+00,5.000000000000000000e+00,5.000000000000000000e+00,5.000000000000000000e+00,5.000000000000000000e+00,5.000000000000000000e+00,5.000000000000000000e+00,5.000000000000000000e+00,5.000000000000000000e+00,5.000000000000000000e+00,5.000000000000000000e+00,5.000000000000000000e+00,5.000000000000000000e+00,5.000000000000000000e+00,5.000000000000000000e+00,5.000000000000000000e+00,5.000000000000000000e+00,5.000000000000000000e+00,5.000000000000000000e+00,5.000000000000000000e+00,5.000000000000000000e+00,5.000000000000000000e+00,5.000000000000000000e+00,5.000000000000000000e+00,5.000000000000000000e+00,4.854502677917480469e+00,4.664194583892822266e+00,4.488244056701660156e+00,1.823175430297851562e+00,1.373098254203796387e+00,1.345757961273193359e+00,1.332167148590087891e+00,1.339356780052185059e+00,3.659863710403442383e+00,3.550642013549804688e+00,3.447749853134155273e+00,3.350653409957885742e+00,3.258876323699951172e+00,3.171992540359497070e+00,3.089621305465698242e+00,3.011419773101806641e+00,2.937079429626464844e+00,2.866321086883544922e+00,2.798891782760620117e+00,2.734561681747436523e+00,2.673122882843017578e+00,2.614383935928344727e+00,2.558170795440673828e+00,2.504324197769165039e+00,2.452697753906250000e+00,2.403156757354736328e+00,2.355577707290649414e+00,2.309845685958862305e+00,2.265855789184570312e+00,2.223510026931762695e+00,2.182718276977539062e+00,2.143395900726318359e+00,2.105465412139892578e+00,2.068853855133056641e+00,2.033494234085083008e+00,1.999322652816772461e+00,1.966280817985534668e+00,1.934313058853149414e+00,1.903368234634399414e+00,1.873397946357727051e+00,1.844356775283813477e+00
5.000000000000000000e+00,5.000000000000000000e+00,4.254478454589843750e+00,4.728072643280029297e+00,5.000000000000000000e+00,5.000000000000000000e+00,5.000000000000000000e+00,5.000000000000000000e+00,5.000000000000000000e+00,5.000000000000000000e+00,5.000000000000000000e+00,5.000000000000000000e+00,5.000000000000000000e+00,5.000000000000000000e+00,5.000000000000000000e+00,5.000000000000000000e+00,5.000000000000000000e+00,5.000000000000000000e+00,5.000000000000000000e+00,5.000000000000000000e+00,5.000000000000000000e+00,5.000000000000000000e+00,5.000000000000000000e+00,5.000000000000000000e+00,5.000000000000000000e+00,5.000000000000000000e+00,5.000000000000000000e+00,5.000000000000000000e+00,5.000000000000000000e+00,5.000000000000000000e+00,5.000000000000000000e+00,5.000000000000000000e+00,5.000000000000000000e+00,5.000000000000000000e+00,5.000000000000000000e+00,5.000000000000000000e+00,5.000000000000000000e+00,5.000000000000000000e+00,5.000000000000000000e+00,4.854640960693359375e+00,4.664321899414062500e+00,4.488362312316894531e+00,1.830749988555908203e+00,1.374225974082946777e+00,1.346904039382934570e+00,1.333555221557617188e+00,1.332622647285461426e+00,3.659942388534545898e+00,3.550715923309326172e+00,3.447819948196411133e+00,3.350719213485717773e+00,3.258938550949096680e+00,3.172051668167114258e+00,3.089677572250366211e+00,3.011473417282104492e+00,2.937130212783813477e+00,2.866369247436523438e+00,2.798937797546386719e+00,2.734605789184570312e+00,2.673164844512939453e+00,2.614423990249633789e+00,2.558209180831909180e+00,2.504361152648925781e+00,2.452733278274536133e+00,2.403190612792968750e+00,2.355610132217407227e+00,2.309877157211303711e+00,2.265886068344116211e+00,2.223539352416992188e+00,2.182746171951293945e+00,2.143422842025756836e+00,2.105491399765014648e+00,2.068879127502441406e+00,2.033518314361572266e+00,1.999346137046813965e+00,1.966303467750549316e+00,1.934335112571716309e+00,1.903389573097229004e+00,1.873418450355529785e+00,1.844376921653747559e+00
4.875369071960449219e+00,4.874158859252929688e+00,4.175106525421142578e+00,4.871739387512207031e+00,4.870530605316162109e+00,4.869322776794433594e+00,4.868114948272705078e+00,4.866908073425292969e+00,4.865702152252197266e+00,4.864496231079101562e+00,4.863291263580322266e+00,4.862086772918701172e+00,4.860882759094238281e+00,4.859679222106933594e+00,4.858477115631103516e+00,4.857275009155273438e+00,4.856073379516601562e+00,4.854872703552246094e+00,4.853672027587890625e+00,4.852472305297851562e+00,4.851273059844970703e+00,4.850074768066406250e+00,4.848876953125000000e+00,4.847679615020751953e+00,4.846482753753662109e+00,4.845286369323730469e+00,4.844090938568115234e+00,4.842895984649658203e+00,4.841701507568359375e+00,4.840507984161376953e+00,4.839314460754394531e+00,4.838121891021728516e+00,4.836929798126220703e+00,4.835738658905029297e+00,4.834547519683837891e+00,4.833357334136962891e+00,4.832167148590087891e+00,4.830978393554687500e+00,4.829790115356445312e+00,4.828601837158203125e+00,4.664449214935302734e+00,4.488480567932128906e+00,1.838381886482238770e+00,1.375355601310729980e+00,1.348052024841308594e+00,1.330960512161254883e+00,1.325955986976623535e+00,3.660021066665649414e+00,3.550790071487426758e+00,3.447889804840087891e+00,3.350785493850708008e+00,3.259001255035400391e+00,3.172110795974731445e+00,3.089733600616455078e+00,3.011526584625244141e+00,2.937180995941162109e+00,2.866417407989501953e+00,2.798983812332153320e+00,2.734649896621704102e+00,2.673206806182861328e+00,2.614464282989501953e+00,2.558247804641723633e+00,2.504397869110107422e+00,2.452768564224243164e+00,2.403224706649780273e+00,2.355643033981323242e+00,2.309908390045166016e+00,2.265916109085083008e+00,2.223568201065063477e+00,2.182774305343627930e+00,2.143449783325195312e+00,2.105517625808715820e+00,2.068904161453247070e+00,2.033542871475219727e+00,1.999369740486145020e+00,1.966326236724853516e+00,1.934357047080993652e+00,1.903410911560058594e+00,1.873439192771911621e+00,1.844396710395812988e+00
3.778205394744873047e+00,3.777478694915771484e+00,3.776751995086669922e+00,3.776025056838989258e+00,3.775299072265625000e+00,3.774573326110839844e+00,3.773847818374633789e+00,3.773122549057006836e+00,3.772397041320800781e+00,3.771672487258911133e+00,3.770948171615600586e+00,3.770223855972290039e+00,3.769499778747558594e+00,3.768776178359985352e+00,3.768052816390991211e+00,3.767329931259155273e+00,3.766607046127319336e+00,3.765884160995483398e+00,3.765162229537963867e+00,3.764440059661865234e+00,3.763718605041503906e+00,3.762997150421142578e+00,3.762275695800781250e+00,3.761554956436157227e+00,3.760834455490112305e+00,3.760114192962646484e+00,3.759393930435180664e+00,3.758674144744873047e+00,3.757954597473144531e+00,3.757235527038574219e+00,3.756516695022583008e+00,3.755797624588012695e+00,3.755079507827758789e+00,3.754361391067504883e+00,3.753643512725830078e+00,3.752925634384155273e+00,3.752208471298217773e+00,3.751491546630859375e+00,3.750774860382080078e+00,3.750058412551879883e+00,3.749341964721679688e+00,3.748625993728637695e+00,1.845585703849792480e+00,1.815750002861022949e+00,1.349202036857604980e+00,1.327037215232849121e+00,1.322647452354431152e+00,3.660099983215332031e+00,3.550864458084106445e+00,3.447959423065185547e+00,3.350851535797119141e+00,3.259063720703125000e+00,3.172170162200927734e+00,3.089789628982543945e+00,3.011579751968383789e+00,2.937231779098510742e+00,2.866466045379638672e+00,2.799030065536499023e+00,2.734693765640258789e+00,2.673248767852783203e+00,2.614504575729370117e+00,2.558286428451538086e+00,2.504435062408447266e+00,2.452803850173950195e+00,2.403258562088012695e+00,2.355675458908081055e+00,2.309939861297607422e+00,2.265946149826049805e+00,2.223597288131713867e+00,2.182802200317382812e+00,2.143476963043212891e+00,2.105543613433837891e+00,2.068929433822631836e+00,2.033567190170288086e+00,1.999393105506896973e+00,1.966349005699157715e+00,1.934379100799560547e+00,1.903432130813598633e+00,1.873459935188293457e+00,1.844416856765747070e+00
3.084143161773681641e+00,3.083658695220947266e+00,3.083174467086791992e+00,3.082690477371215820e+00,3.082206249237060547e+00,3.081722497940063477e+00,3.081238985061645508e+00,3.080755472183227539e+00,3.080272197723388672e+00,3.079788684844970703e+00,3.079305648803710938e+00,3.078822851181030273e+00,3.078340053558349609e+00,3.077857255935668945e+00,3.077374696731567383e+00,3.076892375946044922e+00,3.076410293579101562e+00,3.075928449630737305e+00,3.075446367263793945e+00,3.074964523315429688e+00,3.074483156204223633e+00,3.074001789093017578e+00,3.073520421981811523e+00,3.073039293289184570e+00,3.072558403015136719e+00,3.072077512741088867e+00,3.071596860885620117e+00,3.071116209030151367e+00,3.070635795593261719e+00,3.070155620574951172e+00,3.069675683975219727e+00,3.069195747375488281e+00,3.068715810775756836e+00,3.068236351013183594e+00,3.067756891250610352e+00,3.067277669906616211e+00,3.066798210144042969e+00,3.066319227218627930e+00,3.065840482711791992e+00,3.065361976623535156e+00,3.064883470535278320e+00,3.064404726028442383e+00,1.863870859146118164e+00,1.828247785568237305e+00,1.350354194641113281e+00,1.324658274650573730e+00,1.322013974189758301e+00,3.061537504196166992e+00,3.061060190200805664e+00,3.060583114624023438e+00,3.060105800628662109e+00,3.059628963470458984e+00,3.059152126312255859e+00,3.058675527572631836e+00,3.011633396148681641e+00,2.937282323837280273e+00,2.866514205932617188e+00,2.799075841903686523e+00,2.734737873077392578e+00,2.673290729522705078e+00,2.614544630050659180e+00,2.558324813842773438e+00,2.504471778869628906e+00,2.452839374542236328e+00,2.403292655944824219e+00,2.355708122253417969e+00,2.309971332550048828e+00,2.265976667404174805e+00,2.223626375198364258e+00,2.182830095291137695e+00,2.143503904342651367e+00,2.105569839477539062e+00,2.068954706192016602e+00,2.033591508865356445e+00,1.999416708946228027e+00,1.966371655464172363e+00,1.934401154518127441e+00,1.903453469276428223e+00,1.873480439186096191e+00,1.844436883926391602e+00
2.605507612228393555e+00,2.605161666870117188e+00,2.604815959930419922e+00,2.604470491409301758e+00,2.604125022888183594e+00,2.603779554367065430e+00,2.603434085845947266e+00,2.603089094161987305e+00,2.602743864059448242e+00,2.602398872375488281e+00,2.602053880691528320e+00,2.601709127426147461e+00,2.601364374160766602e+00,2.601019859313964844e+00,2.600675106048583984e+00,2.600330591201782227e+00,2.599986314773559570e+00,2.599642038345336914e+00,2.599297761917114258e+00,2.598953485488891602e+00,2.598609447479248047e+00,2.598265647888183594e+00,2.597921848297119141e+00,2.597578287124633789e+00,2.597234249114990234e+00,2.596890926361083984e+00,2.596547365188598633e+00,2.596204042434692383e+00,2.595860719680786133e+00,2.595517396926879883e+00,2.595174312591552734e+00,2.594831466674804688e+00,2.594488620758056641e+00,2.594145536422729492e+00,2.593802690505981445e+00,2.593460083007812500e+00,2.593117713928222656e+00,2.592775106430053711e+00,2.592432737350463867e+00,2.592090368270874023e+00,2.591748237609863281e+00,2.591406106948852539e+00,1.842454910278320312e+00,1.839395403861999512e+00,1.351508140563964844e+00,1.341377139091491699e+00,1.331279993057250977e+00,2.589355230331420898e+00,2.589013814926147461e+00,2.588672399520874023e+00,2.588331222534179688e+00,2.587990045547485352e+00,2.587648630142211914e+00,2.587307691574096680e+00,2.586966753005981445e+00,2.586626052856445312e+00,2.586285114288330078e+00,2.585944414138793945e+00,2.585603952407836914e+00,2.585263490676879883e+00,2.584923028945922852e+00,2.558363199234008789e+00,2.504508495330810547e+00,2.452874660491943359e+00,2.403326749801635742e+00,2.355740785598754883e+00,2.310002565383911133e+00,2.266006708145141602e+00,2.223655462265014648e+00,2.182858228683471680e+00,2.143530845642089844e+00,2.105595827102661133e+00,2.068979740142822266e+00,2.033615827560424805e+00,1.999440312385559082e+00,1.966394424438476562e+00,1.934422969818115234e+00,1.903474807739257812e+00,1.873501181602478027e+00,1.844456791877746582e+00
2.255489826202392578e+00,2.255229949951171875e+00,2.254970312118530273e+00,2.254710674285888672e+00,2.254451036453247070e+00,2.254191637039184570e+00,2.253931999206542969e+00,2.253672599792480469e+00,2.253413200378417969e+00,2.253154039382934570e+00,2.252894878387451172e+00,2.252635717391967773e+00,2.252376556396484375e+00,2.252117633819580078e+00,2.251858472824096680e+00,2.251599788665771484e+00,2.251340866088867188e+00,2.251081943511962891e+00,2.250823259353637695e+00,2.250564575195312500e+00,2.250305891036987305e+00,2.250047445297241211e+00,2.249788761138916016e+00,2.249530553817749023e+00,2.249272823333740234e+00,2.249014854431152344e+00,2.248757362365722656e+00,2.248499870300292969e+00,2.248242378234863281e+00,2.247984886169433594e+00,2.247727394104003906e+00,2.247470140457153320e+00,2.247212886810302734e+00,2.246955871582031250e+00,2.246698617935180664e+00,2.246441364288330078e+00,2.246184349060058594e+00,2.245927572250366211e+00,2.245670557022094727e+00,2.245413541793823242e+00,2.245156764984130859e+00,2.244900226593017578e+00,1.806137561798095703e+00,1.802225589752197266e+00,2.244130134582519531e+00,1.337204933166503906e+00,1.322269916534423828e+00,2.243360996246337891e+00,2.243104457855224609e+00,2.242848396301269531e+00,2.242592096328735352e+00,2.242336034774780273e+00,2.242079973220825195e+00,2.241823911666870117e+00,2.241567850112915039e+00,2.241312026977539062e+00,2.241056203842163086e+00,2.240800142288208008e+00,2.240544557571411133e+00,2.240288734436035156e+00,2.240033149719238281e+00,2.239777803421020508e+00,2.239521980285644531e+00,2.239266633987426758e+00,2.239011287689208984e+00,2.238755941390991211e+00,2.238500595092773438e+00,2.238245487213134766e+00,2.223684549331665039e+00,2.182886362075805664e+00,2.143558025360107422e+00,2.105621814727783203e+00,2.069005012512207031e+00,2.033640146255493164e+00,1.999463677406311035e+00,1.966417312622070312e+00,1.934445142745971680e+00,1.903496026992797852e+00,1.873521804809570312e+00,1.844476819038391113e+00
1.988404631614685059e+00,1.988202929496765137e+00,1.988000988960266113e+00,1.987799167633056641e+00,1.987597346305847168e+00,1.987395763397216797e+00,1.987194061279296875e+00,1.986992359161376953e+00,1.986790776252746582e+00,1.986589312553405762e+00,1.986387729644775391e+00,1.986186265945434570e+00,1.985984802246093750e+00,1.985783338546752930e+00,1.985582113265991211e+00,1.985380768775939941e+00,1.985179424285888672e+00,1.984978199005126953e+00,1.984777212142944336e+00,1.984575986862182617e+00,1.984374761581420898e+00,1.984173655509948730e+00,1.983972787857055664e+00,1.983771800994873047e+00,1.983570814132690430e+00,1.983369827270507812e+00,1.983169078826904297e+00,1.982968211174011230e+00,1.982767462730407715e+00,1.982566595077514648e+00,1.982365846633911133e+00,1.982165336608886719e+00,1.981964707374572754e+00,1.981764078140258789e+00,1.981563448905944824e+00,1.981363177299499512e+00,1.981162667274475098e+00,1.980962157249450684e+00,1.980761766433715820e+00,1.980561614036560059e+00,1.980361223220825195e+00,1.980160951614379883e+00,1.765151739120483398e+00,1.762899279594421387e+00,1.779664516448974609e+00,1.325082659721374512e+00,1.289046525955200195e+00,1.280844926834106445e+00,1.978760361671447754e+00,1.978560328483581543e+00,1.978360414505004883e+00,1.978160500526428223e+00,1.977960824966430664e+00,1.977761030197143555e+00,1.977561235427856445e+00,1.977361440658569336e+00,1.977162003517150879e+00,1.976962327957153320e+00,1.976762652397155762e+00,1.976563096046447754e+00,1.976363778114318848e+00,1.976164340972900391e+00,1.975964784622192383e+00,1.975765347480773926e+00,1.975566029548645020e+00,1.975366950035095215e+00,1.975167632102966309e+00,1.974968314170837402e+00,1.974769115447998047e+00,1.974570155143737793e+00,1.974370956420898438e+00,1.974171876907348633e+00,1.973972797393798828e+00,1.973774075508117676e+00,1.973575115203857422e+00,1.966439843177795410e+00,1.934467196464538574e+00,1.903517365455627441e+00,1.873542308807373047e+00,1.844496965408325195e+00
1.777876496315002441e+00,1.777715086936950684e+00,1.777553796768188477e+00,1.777392387390136719e+00,1.777231097221374512e+00,1.777069807052612305e+00,1.776908636093139648e+00,1.776747345924377441e+00,1.776586174964904785e+00,1.776424884796142578e+00,1.776263952255249023e+00,1.776102781295776367e+00,1.775941729545593262e+00,1.775780558586120605e+00,1.775619745254516602e+00,1.775458693504333496e+00,1.775297641754150391e+00,1.775136709213256836e+00,1.774975776672363281e+00,1.774814963340759277e+00,1.774654150009155273e+00,1.774493217468261719e+00,1.774332404136657715e+00,1.774171829223632812e+00,1.774011015892028809e+00,1.773850321769714355e+00,1.773689627647399902e+00,1.773529052734375000e+00,1.773368477821350098e+00,1.773207783699035645e+00,1.773047208786010742e+00,1.772886753082275391e+00,1.772726297378540039e+00,1.772565722465515137e+00,1.772405266761779785e+00,1.772244811058044434e+00,1.772084593772888184e+00,1.771924138069152832e+00,1.771763801574707031e+00,1.771603465080261230e+00,1.771443367004394531e+00,1.771283030509948730e+00,1.771122813224792480e+00,1.720010638236999512e+00,1.745682597160339355e+00,1.294852852821350098e+00,1.256561040878295898e+00,1.237168073654174805e+00,1.230232715606689453e+00,1.770002245903015137e+00,1.769842267036437988e+00,1.769682168960571289e+00,1.769522309303283691e+00,1.769362568855285645e+00,1.769202589988708496e+00,1.769042730331420898e+00,1.768882870674133301e+00,1.768723249435424805e+00,1.768563508987426758e+00,1.768403768539428711e+00,1.768244028091430664e+00,1.768084526062011719e+00,1.767924785614013672e+00,1.767765164375305176e+00,1.767605543136596680e+00,1.767446160316467285e+00,1.767286539077758789e+00,1.767127037048339844e+00,1.766967535018920898e+00,1.766808271408081055e+00,1.766648888587951660e+00,1.766489386558532715e+00,1.766330003738403320e+00,1.766170740127563477e+00,1.766011595726013184e+00,1.765852212905883789e+00,1.765692949295043945e+00,1.765533685684204102e+00,1.765374779701232910e+00,1.765215635299682617e+00
1.607660770416259766e+00,1.607528686523437500e+00,1.607396721839904785e+00,1.607264876365661621e+00,1.607132911682128906e+00,1.607001066207885742e+00,1.606869101524353027e+00,1.606737375259399414e+00,1.606605529785156250e+00,1.606473684310913086e+00,1.606341838836669922e+00,1.606210231781005859e+00,1.606078505516052246e+00,1.605946779251098633e+00,1.605815052986145020e+00,1.605683445930480957e+00,1.605551719665527344e+00,1.605420112609863281e+00,1.605288386344909668e+00,1.605157017707824707e+00,1.605025410652160645e+00,1.604893803596496582e+00,1.604762196540832520e+00,1.604630708694458008e+00,1.604499340057373047e+00,1.604367852210998535e+00,1.604236364364624023e+00,1.604104876518249512e+00,1.603973627090454102e+00,1.603842258453369141e+00,1.603710889816284180e+00,1.603579521179199219e+00,1.603448271751403809e+00,1.603317022323608398e+00,1.603185653686523438e+00,1.603054404258728027e+00,1.602923274040222168e+00,1.602792024612426758e+00,1.602660894393920898e+00,1.602529644966125488e+00,1.602398514747619629e+00,1.602267503738403320e+00,1.602136373519897461e+00,1.602005243301391602e+00,1.601874113082885742e+00,1.233843803405761719e+00,1.198321461677551270e+00,1.175905942916870117e+00,1.167723178863525391e+00,1.167099833488464355e+00,1.601088404655456543e+00,1.600957512855529785e+00,1.600826621055603027e+00,1.600695848464965820e+00,1.600564956665039062e+00,1.600434184074401855e+00,1.600303292274475098e+00,1.600172519683837891e+00,1.600041866302490234e+00,1.599911093711853027e+00,1.599780321121215820e+00,1.599649548530578613e+00,1.599519014358520508e+00,1.599388360977172852e+00,1.599257707595825195e+00,1.599127054214477539e+00,1.598996639251708984e+00,1.598865985870361328e+00,1.598735451698303223e+00,1.598604917526245117e+00,1.598474502563476562e+00,1.598343968391418457e+00,1.598213553428649902e+00,1.598083019256591797e+00,1.597952604293823242e+00,1.597822308540344238e+00,1.597692012786865234e+00,1.597561597824096680e+00,1.597431182861328125e+00,1.597301006317138672e+00
1.467190384864807129e+00,1.467080473899841309e+00,1.466970443725585938e+00,1.466860651969909668e+00,1.466750741004943848e+00,1.466640949249267578e+00,1.466531038284301758e+00,1.466421127319335938e+00,1.466311454772949219e+00,1.466201663017272949e+00,1.466091871261596680e+00,1.465982079505920410e+00,1.465872406959533691e+00,1.465762615203857422e+00,1.465652942657470703e+00,1.465543150901794434e+00,1.465433597564697266e+00,1.465323925018310547e+00,1.465214252471923828e+00,1.465104579925537109e+00,1.464995026588439941e+00,1.464885473251342773e+00,1.464775800704956055e+00,1.464666247367858887e+00,1.464556694030761719e+00,1.464447259902954102e+00,1.464337706565856934e+00,1.464228153228759766e+00,1.464118719100952148e+00,1.464009284973144531e+00,1.463899850845336914e+00,1.463790416717529297e+00,1.463680982589721680e+00,1.463571667671203613e+00,1.463462233543395996e+00,1.463352799415588379e+00,1.463243484497070312e+00,1.463134169578552246e+00,1.463024854660034180e+00,1.462915539741516113e+00,1.462806224822998047e+00,1.462697029113769531e+00,1.462587833404541016e+00,1.462478518486022949e+00,1.462369322776794434e+00,1.241207003593444824e+00,1.195040702819824219e+00,1.462041735649108887e+00,1.461932659149169922e+00,1.461823463439941406e+00,1.461714386940002441e+00,1.461605310440063477e+00,1.461496233940124512e+00,1.461387038230895996e+00,1.461278080940246582e+00,1.461169004440307617e+00,1.461060047149658203e+00,1.460950970649719238e+00,1.460842132568359375e+00,1.460733056068420410e+00,1.460624098777770996e+00,1.460515141487121582e+00,1.460406184196472168e+00,1.460297346115112305e+00,1.460188508033752441e+00,1.460079550743103027e+00,1.459970712661743164e+00,1.459861874580383301e+00,1.459753036499023438e+00,1.459644198417663574e+00,1.459535360336303711e+00,1.459426760673522949e+00,1.459317922592163086e+00,1.459209203720092773e+00,1.459100365638732910e+00,1.458991765975952148e+00,1.458883047103881836e+00,1.458774328231811523e+00,1.458665609359741211e+00,1.458557009696960449e+00
1.349294900894165039e+00,1.349201917648315430e+00,1.349108934402465820e+00,1.349015951156616211e+00,1.348923087120056152e+00,1.348830103874206543e+00,1.348737239837646484e+00,1.348644256591796875e+00,1.348551511764526367e+00,1.348458647727966309e+00,1.348365783691406250e+00,1.348272919654846191e+00,1.348180055618286133e+00,1.348087310791015625e+00,1.347994446754455566e+00,1.347901701927185059e+00,1.347808837890625000e+00,1.347716212272644043e+00,1.347623348236083984e+00,1.347530603408813477e+00,1.347437858581542969e+00,1.347345352172851562e+00,1.347252607345581055e+00,1.347159862518310547e+00,1.347067117691040039e+00,1.346974611282348633e+00,1.346881866455078125e+00,1.346789240837097168e+00,1.346696615219116211e+00,1.346604108810424805e+00,1.346511483192443848e+00,1.346418857574462891e+00,1.346326231956481934e+00,1.346233725547790527e+00,1.346141219139099121e+00,1.346048712730407715e+00,1.345956087112426758e+00,1.345863580703735352e+00,1.345771193504333496e+00,1.345678687095642090e+00,1.345586180686950684e+00,1.345493674278259277e+00,1.345401287078857422e+00,1.345308899879455566e+00,1.345216393470764160e+00,1.345124006271362305e+00,1.345031619071960449e+00,1.344939231872558594e+00,1.344846844673156738e+00,1.344754457473754883e+00,1.344662189483642578e+00,1.344569921493530273e+00,1.344477534294128418e+00,1.344385266304016113e+00,1.344292879104614258e+00,1.344200730323791504e+00,1.344108462333679199e+00,1.344016194343566895e+00,1.343923926353454590e+00,1.343831777572631836e+00,1.343739509582519531e+00,1.343647241592407227e+00,1.343555092811584473e+00,1.343462944030761719e+00,1.343370795249938965e+00,1.343278527259826660e+00,1.343186378479003906e+00,1.343094229698181152e+00,1.343002200126647949e+00,1.342910051345825195e+00,1.342818021774291992e+00,1.342725872993469238e+00,1.342633843421936035e+00,1.342541813850402832e+00,1.342449784278869629e+00,1.342357754707336426e+00,1.342265725135803223e+00,1.342173695564270020e+00,1.342081785202026367e+00,1.341989755630493164e+00
1.248936891555786133e+00,1.248857378959655762e+00,1.248777747154235840e+00,1.248697996139526367e+00,1.248618364334106445e+00,1.248538851737976074e+00,1.248459219932556152e+00,1.248379588127136230e+00,1.248300075531005859e+00,1.248220562934875488e+00,1.248140931129455566e+00,1.248061418533325195e+00,1.247981786727905273e+00,1.247902393341064453e+00,1.247822761535644531e+00,1.247743248939514160e+00,1.247663736343383789e+00,1.247584223747253418e+00,1.247504830360412598e+00,1.247425317764282227e+00,1.247345924377441406e+00,1.247266411781311035e+00,1.247187018394470215e+00,1.247107625007629395e+00,1.247028112411499023e+00,1.246948719024658203e+00,1.246869325637817383e+00,1.246789932250976562e+00,1.246710538864135742e+00,1.246631145477294922e+00,1.246551871299743652e+00,1.246472477912902832e+00,1.246393203735351562e+00,1.246313810348510742e+00,1.246234416961669922e+00,1.246155261993408203e+00,1.246075868606567383e+00,1.245996594429016113e+00,1.245917320251464844e+00,1.245838165283203125e+00,1.245758771896362305e+00,1.245679616928100586e+00,1.245600342750549316e+00,1.245521187782287598e+00,1.245441913604736328e+00,1.245362639427185059e+00,1.245283484458923340e+00,1.245204329490661621e+00,1.245125174522399902e+00,1.245045900344848633e+00,1.244966745376586914e+00,1.244887709617614746e+00,1.244808554649353027e+00,1.244729399681091309e+00,1.244650244712829590e+00,1.244571089744567871e+00,1.244492053985595703e+00,1.244413018226623535e+00,1.244333863258361816e+00,1.244254827499389648e+00,1.244175791740417480e+00,1.244096755981445312e+00,1.244017720222473145e+00,1.243938684463500977e+00,1.243859767913818359e+00,1.243780732154846191e+00,1.243701696395874023e+00,1.243622660636901855e+00,1.243543744087219238e+00,1.243464827537536621e+00,1.243385791778564453e+00,1.243306875228881836e+00,1.243227839469909668e+00,1.243149042129516602e+00,1.243070125579833984e+00,1.242991209030151367e+00,1.242912292480468750e+00,1.242833495140075684e+00,1.242754578590393066e+00,1.242675662040710449e+00
1.162474513053894043e+00,1.162405490875244141e+00,1.162336468696594238e+00,1.162267446517944336e+00,1.162198543548583984e+00,1.162129521369934082e+00,1.162060618400573730e+00,1.161991596221923828e+00,1.161922693252563477e+00,1.161853671073913574e+00,1.161784887313842773e+00,1.161715865135192871e+00,1.161646962165832520e+00,1.161578059196472168e+00,1.161509156227111816e+00,1.161440253257751465e+00,1.161371350288391113e+00,1.161302447319030762e+00,1.161233663558959961e+00,1.161164760589599609e+00,1.161095976829528809e+00,1.161027073860168457e+00,1.160958170890808105e+00,1.160889506340026855e+00,1.160820603370666504e+00,1.160751819610595703e+00,1.160682916641235352e+00,1.160614252090454102e+00,1.160545468330383301e+00,1.160476684570312500e+00,1.160407900810241699e+00,1.160339117050170898e+00,1.160270333290100098e+00,1.160201668739318848e+00,1.160132884979248047e+00,1.160064220428466797e+00,1.159995436668395996e+00,1.159926772117614746e+00,1.159857988357543945e+00,1.159789323806762695e+00,1.159720659255981445e+00,1.159651994705200195e+00,1.159583210945129395e+00,1.159514546394348145e+00,1.159446001052856445e+00,1.159377336502075195e+00,1.159308671951293945e+00,1.159240007400512695e+00,1.159171462059020996e+00,1.159102797508239746e+00,1.159034132957458496e+00,1.158965587615966797e+00,1.158897042274475098e+00,1.158828496932983398e+00,1.158759832382202148e+00,1.158691287040710449e+00,1.158622622489929199e+00,1.158554196357727051e+00,1.158485651016235352e+00,1.158417105674743652e+00,1.158348560333251953e+00,1.158280134201049805e+00,1.158211588859558105e+00,1.158143043518066406e+00,1.158074498176574707e+00,1.158006191253662109e+00,1.157937645912170410e+00,1.157869100570678711e+00,1.157800674438476562e+00,1.157732248306274414e+00,1.157663822174072266e+00,1.157595396041870117e+00,1.157526969909667969e+00,1.157458543777465820e+00,1.157390117645263672e+00,1.157321691513061523e+00,1.157253265380859375e+00,1.157184839248657227e+00,1.157116532325744629e+00,1.157048225402832031e+00
1.087208271026611328e+00,1.087147831916809082e+00,1.087087631225585938e+00,1.087027192115783691e+00,1.086966872215270996e+00,1.086906552314758301e+00,1.086846113204956055e+00,1.086785912513732910e+00,1.086725592613220215e+00,1.086665272712707520e+00,1.086604952812194824e+00,1.086544752120971680e+00,1.086484432220458984e+00,1.086424112319946289e+00,1.086363792419433594e+00,1.086303591728210449e+00,1.086243271827697754e+00,1.086183071136474609e+00,1.086122751235961914e+00,1.086062669754028320e+00,1.086002349853515625e+00,1.085942149162292480e+00,1.085881948471069336e+00,1.085821747779846191e+00,1.085761547088623047e+00,1.085701346397399902e+00,1.085641145706176758e+00,1.085580945014953613e+00,1.085520744323730469e+00,1.085460543632507324e+00,1.085400342941284180e+00,1.085340261459350586e+00,1.085280179977416992e+00,1.085219979286193848e+00,1.085159778594970703e+00,1.085099697113037109e+00,1.085039615631103516e+00,1.084979414939880371e+00,1.084919333457946777e+00,1.084859251976013184e+00,1.084799170494079590e+00,1.084739089012145996e+00,1.084678888320922852e+00,1.084618806838989258e+00,1.084558725357055664e+00,1.084498763084411621e+00,1.084438681602478027e+00,1.084378600120544434e+00,1.084318518638610840e+00,1.084258556365966797e+00,1.084198474884033203e+00,1.084138512611389160e+00,1.084078431129455566e+00,1.084018468856811523e+00,1.083958506584167480e+00,1.083898425102233887e+00,1.083838462829589844e+00,1.083778500556945801e+00,1.083718538284301758e+00,1.083658576011657715e+00,1.083598494529724121e+00,1.083538532257080078e+00,1.083478689193725586e+00,1.083418726921081543e+00,1.083358764648437500e+00,1.083298802375793457e+00,1.083238959312438965e+00,1.083178997039794922e+00,1.083119034767150879e+00,1.083059191703796387e+00,1.082999348640441895e+00,1.082939386367797852e+00,1.082879424095153809e+00,1.082819581031799316e+00,1.082759737968444824e+00,1.082699894905090332e+00,1.082640051841735840e+00,1.082580089569091797e+00,1.082520246505737305e+00,1.082460522651672363e+00
1.021095871925354004e+00,1.021042585372924805e+00,1.020989298820495605e+00,1.020936131477355957e+00,1.020882844924926758e+00,1.020829677581787109e+00,1.020776391029357910e+00,1.020723223686218262e+00,1.020670056343078613e+00,1.020616888999938965e+00,1.020563602447509766e+00,1.020510554313659668e+00,1.020457267761230469e+00,1.020404100418090820e+00,1.020350933074951172e+00,1.020297765731811523e+00,1.020244598388671875e+00,1.020191431045532227e+00,1.020138263702392578e+00,1.020085096359252930e+00,1.020032048225402832e+00,1.019978880882263184e+00,1.019925832748413086e+00,1.019872665405273438e+00,1.019819617271423340e+00,1.019766449928283691e+00,1.019713401794433594e+00,1.019660234451293945e+00,1.019607186317443848e+00,1.019554138183593750e+00,1.019500970840454102e+00,1.019447922706604004e+00,1.019394874572753906e+00,1.019341826438903809e+00,1.019288778305053711e+00,1.019235610961914062e+00,1.019182562828063965e+00,1.019129633903503418e+00,1.019076585769653320e+00,1.019023537635803223e+00,1.018970489501953125e+00,1.018917441368103027e+00,1.018864512443542480e+00,1.018811464309692383e+00,1.018758416175842285e+00,1.018705487251281738e+00,1.018652439117431641e+00,1.018599510192871094e+00,1.018546462059020996e+00,1.018493533134460449e+00,1.018440604209899902e+00,1.018387556076049805e+00,1.018334627151489258e+00,1.018281579017639160e+00,1.018228769302368164e+00,1.018175721168518066e+00,1.018122792243957520e+00,1.018069863319396973e+00,1.018017053604125977e+00,1.017964005470275879e+00,1.017911076545715332e+00,1.017858147621154785e+00,1.017805337905883789e+00,1.017752408981323242e+00,1.017699480056762695e+00,1.017646670341491699e+00,1.017593741416931152e+00,1.017540931701660156e+00,1.017488002777099609e+00,1.017435073852539062e+00,1.017382264137268066e+00,1.017329454421997070e+00,1.017276525497436523e+00,1.017223715782165527e+00,1.017170906066894531e+00,1.017118096351623535e+00,1.017065286636352539e+00,1.017012357711791992e+00,1.016959547996520996e+00,1.016906857490539551e+00
9.625630974769592285e-01,9.625157117843627930e-01,9.624684453010559082e-01,9.624210596084594727e-01,9.623737931251525879e-01,9.623265266418457031e-01,9.622791409492492676e-01,9.622319340705871582e-01,9.621846675872802734e-01,9.621373414993286133e-01,9.620901346206665039e-01,9.620428085327148438e-01,9.619955420494079590e-01,9.619483351707458496e-01,9.619010090827941895e-01,9.618538022041320801e-01,9.618065357208251953e-01,9.617593288421630859e-01,9.617121219635009766e-01,9.616648554801940918e-01,9.616176486015319824e-01,9.615705013275146484e-01,9.615231752395629883e-01,9.614760279655456543e-01,9.614287614822387695e-01,9.613816142082214355e-01,9.613344669342041016e-01,9.612872004508972168e-01,9.612400531768798828e-01,9.611929059028625488e-01,9.611456394195556641e-01,9.610984921455383301e-01,9.610512852668762207e-01,9.610041379928588867e-01,9.609570503234863281e-01,9.609098434448242188e-01,9.608626961708068848e-01,9.608154892921447754e-01,9.607684016227722168e-01,9.607213139533996582e-01,9.606741070747375488e-01,9.606270194053649902e-01,9.605799317359924316e-01,9.605327248573303223e-01,9.604856967926025391e-01,9.604384899139404297e-01,9.603914618492126465e-01,9.603443741798400879e-01,9.602972269058227539e-01,9.602501988410949707e-01,9.602031111717224121e-01,9.601559638977050781e-01,9.601089358329772949e-01,9.600617885589599609e-01,9.600147604942321777e-01,9.599677324295043945e-01,9.599206447601318359e-01,9.598736166954040527e-01,9.598265290260314941e-01,9.597795009613037109e-01,9.597324728965759277e-01,9.596853852272033691e-01,9.596384167671203613e-01,9.595914483070373535e-01,9.595443606376647949e-01,9.594973325729370117e-01,9.594503045082092285e-01,9.594033360481262207e-01,9.593563675880432129e-01,9.593092799186706543e-01,9.592623114585876465e-01,9.592152833938598633e-01,9.591683149337768555e-01,9.591214060783386230e-01,9.590743780136108398e-01,9.590274095535278320e-01,9.589805006980895996e-01,9.589334726333618164e-01,9.588865637779235840e-01,9.588395357131958008e-01
9.103770256042480469e-01,9.103346467018127441e-01,9.102923274040222168e-01,9.102499485015869141e-01,9.102076888084411621e-01,9.101654291152954102e-01,9.101230502128601074e-01,9.100807905197143555e-01,9.100384712219238281e-01,9.099962115287780762e-01,9.099539518356323242e-01,9.099116325378417969e-01,9.098693728446960449e-01,9.098271131515502930e-01,9.097847938537597656e-01,9.097425937652587891e-01,9.097002744674682617e-01,9.096580147743225098e-01,9.096158146858215332e-01,9.095734953880310059e-01,9.095312952995300293e-01,9.094889760017395020e-01,9.094467759132385254e-01,9.094045758247375488e-01,9.093623161315917969e-01,9.093201160430908203e-01,9.092779159545898438e-01,9.092356562614440918e-01,9.091934561729431152e-01,9.091511964797973633e-01,9.091089963912963867e-01,9.090668559074401855e-01,9.090245962142944336e-01,9.089824557304382324e-01,9.089402556419372559e-01,9.088980555534362793e-01,9.088558554649353027e-01,9.088136553764343262e-01,9.087715148925781250e-01,9.087293744087219238e-01,9.086871147155761719e-01,9.086450338363647461e-01,9.086027741432189941e-01,9.085606932640075684e-01,9.085185527801513672e-01,9.084763526916503906e-01,9.084342122077941895e-01,9.083921313285827637e-01,9.083499312400817871e-01,9.083078503608703613e-01,9.082656502723693848e-01,9.082235693931579590e-01,9.081814885139465332e-01,9.081392884254455566e-01,9.080972075462341309e-01,9.080551266670227051e-01,9.080129861831665039e-01,9.079709053039550781e-01,9.079287648200988770e-01,9.078866839408874512e-01,9.078446626663208008e-01,9.078025221824645996e-01,9.077604413032531738e-01,9.077183008193969727e-01,9.076762795448303223e-01,9.076342582702636719e-01,9.075921177864074707e-01,9.075500965118408203e-01,9.075080752372741699e-01,9.074659347534179688e-01,9.074239730834960938e-01,9.073818325996398926e-01,9.073398113250732422e-01,9.072978496551513672e-01,9.072557091712951660e-01,9.072137475013732910e-01,9.071716666221618652e-01,9.071296453475952148e-01,9.070876836776733398e-01,9.070456027984619141e-01
8.635584712028503418e-01,8.635204434394836426e-01,8.634824156761169434e-01,8.634442687034606934e-01,8.634062409400939941e-01,8.633682131767272949e-01,8.633300662040710449e-01,8.632920384407043457e-01,8.632539510726928711e-01,8.632159233093261719e-01,8.631778955459594727e-01,8.631398081779479980e-01,8.631017804145812988e-01,8.630636930465698242e-01,8.630256652832031250e-01,8.629876971244812012e-01,8.629496097564697266e-01,8.629115819931030273e-01,8.628736138343811035e-01,8.628355264663696289e-01,8.627975583076477051e-01,8.627594709396362305e-01,8.627215027809143066e-01,8.626835346221923828e-01,8.626455068588256836e-01,8.626075387001037598e-01,8.625694513320922852e-01,8.625314831733703613e-01,8.624935746192932129e-01,8.624554872512817383e-01,8.624175786972045898e-01,8.623796105384826660e-01,8.623415827751159668e-01,8.623036146163940430e-01,8.622656464576721191e-01,8.622276782989501953e-01,8.621897697448730469e-01,8.621517419815063477e-01,8.621138334274291992e-01,8.620759248733520508e-01,8.620378971099853516e-01,8.619999885559082031e-01,8.619619607925415039e-01,8.619240522384643555e-01,8.618861436843872070e-01,8.618481755256652832e-01,8.618102669715881348e-01,8.617722988128662109e-01,8.617343902587890625e-01,8.616965413093566895e-01,8.616585731506347656e-01,8.616206645965576172e-01,8.615828156471252441e-01,8.615448474884033203e-01,8.615069389343261719e-01,8.614690303802490234e-01,8.614311814308166504e-01,8.613932728767395020e-01,8.613553643226623535e-01,8.613175153732299805e-01,8.612795472145080566e-01,8.612416982650756836e-01,8.612038493156433105e-01,8.611659407615661621e-01,8.611280918121337891e-01,8.610902428627014160e-01,8.610523343086242676e-01,8.610145449638366699e-01,8.609766364097595215e-01,8.609387874603271484e-01,8.609009981155395508e-01,8.608630895614624023e-01,8.608252406120300293e-01,8.607874512672424316e-01,8.607495427131652832e-01,8.607117533683776855e-01,8.606739044189453125e-01,8.606361150741577148e-01,8.605983257293701172e-01,8.605604171752929688e-01
8.213199973106384277e-01,8.212856054306030273e-01,8.212512135505676270e-01,8.212167024612426758e-01,8.211823105812072754e-01,8.211477994918823242e-01,8.211134076118469238e-01,8.210790157318115234e-01,8.210445642471313477e-01,8.210101723670959473e-01,8.209757804870605469e-01,8.209412693977355957e-01,8.209069371223449707e-01,8.208724260330200195e-01,8.208380937576293945e-01,8.208037018775939941e-01,8.207692503929138184e-01,8.207348585128784180e-01,8.207004070281982422e-01,8.206660747528076172e-01,8.206316828727722168e-01,8.205972909927368164e-01,8.205628991127014160e-01,8.205285668373107910e-01,8.204941153526306152e-01,8.204597830772399902e-01,8.204253911972045898e-01,8.203909993171691895e-01,8.203566670417785645e-01,8.203222751617431641e-01,8.202879428863525391e-01,8.202535510063171387e-01,8.202192187309265137e-01,8.201848864555358887e-01,8.201504945755004883e-01,8.201161623001098633e-01,8.200818300247192383e-01,8.200474381446838379e-01,8.200131654739379883e-01,8.199787735939025879e-01,8.199444413185119629e-01,8.199101686477661133e-01,8.198757767677307129e-01,8.198415040969848633e-01,8.198071718215942383e-01,8.197728395462036133e-01,8.197385072708129883e-01,8.197041749954223633e-01,8.196699023246765137e-01,8.196356296539306641e-01,8.196012377738952637e-01,8.195669651031494141e-01,8.195326328277587891e-01,8.194983601570129395e-01,8.194640874862670898e-01,8.194297552108764648e-01,8.193954825401306152e-01,8.193612694740295410e-01,8.193269371986389160e-01,8.192926645278930664e-01,8.192583322525024414e-01,8.192241191864013672e-01,8.191898465156555176e-01,8.191555142402648926e-01,8.191213011741638184e-01,8.190869688987731934e-01,8.190527558326721191e-01,8.190185427665710449e-01,8.189842104911804199e-01,8.189499974250793457e-01,8.189157843589782715e-01,8.188815116882324219e-01,8.188472986221313477e-01,8.188129663467407227e-01,8.187788128852844238e-01,8.187445998191833496e-01,8.187103271484375000e-01,8.186761140823364258e-01,8.186419010162353516e-01,8.186076283454895020e-01
7.830208539962768555e-01,7.829895615577697754e-01,7.829582095146179199e-01,7.829269170761108398e-01,7.828956842422485352e-01,7.828643321990966797e-01,7.828330397605895996e-01,7.828018069267272949e-01,7.827704548835754395e-01,7.827392220497131348e-01,7.827078700065612793e-01,7.826765775680541992e-01,7.826453447341918945e-01,7.826140522956848145e-01,7.825827598571777344e-01,7.825515270233154297e-01,7.825202345848083496e-01,7.824890017509460449e-01,7.824576497077941895e-01,7.824264168739318848e-01,7.823951840400695801e-01,7.823638916015625000e-01,7.823326587677001953e-01,7.823013663291931152e-01,7.822701334953308105e-01,7.822389006614685059e-01,7.822076082229614258e-01,7.821763753890991211e-01,7.821452021598815918e-01,7.821139097213745117e-01,7.820826768875122070e-01,7.820514440536499023e-01,7.820202112197875977e-01,7.819889783859252930e-01,7.819577455520629883e-01,7.819265127182006836e-01,7.818952798843383789e-01,7.818641066551208496e-01,7.818328738212585449e-01,7.818016409873962402e-01,7.817704677581787109e-01,7.817392945289611816e-01,7.817080020904541016e-01,7.816768288612365723e-01,7.816455960273742676e-01,7.816144227981567383e-01,7.815832495689392090e-01,7.815520167350769043e-01,7.815208435058593750e-01,7.814896702766418457e-01,7.814584374427795410e-01,7.814272642135620117e-01,7.813960909843444824e-01,7.813649177551269531e-01,7.813337445259094238e-01,7.813025712966918945e-01,7.812713980674743652e-01,7.812401652336120605e-01,7.812090516090393066e-01,7.811779379844665527e-01,7.811467051506042480e-01,7.811155915260314941e-01,7.810844182968139648e-01,7.810532450675964355e-01,7.810221314430236816e-01,7.809908986091613770e-01,7.809597849845886230e-01,7.809286713600158691e-01,7.808974981307983398e-01,7.808663845062255859e-01,7.808352112770080566e-01,7.808040976524353027e-01,7.807729840278625488e-01,7.807418107986450195e-01,7.807106971740722656e-01,7.806796431541442871e-01,7.806484699249267578e-01,7.806173563003540039e-01,7.805861830711364746e-01,7.805551290512084961e-01
7.481343746185302734e-01,7.481058239936828613e-01,7.480772137641906738e-01,7.480486631393432617e-01,7.480201125144958496e-01,7.479915022850036621e-01,7.479629516601562500e-01,7.479343414306640625e-01,7.479057908058166504e-01,7.478772997856140137e-01,7.478486895561218262e-01,7.478201389312744141e-01,7.477915883064270020e-01,7.477630376815795898e-01,7.477344870567321777e-01,7.477058768272399902e-01,7.476773858070373535e-01,7.476488351821899414e-01,7.476202845573425293e-01,7.475917339324951172e-01,7.475631833076477051e-01,7.475346326828002930e-01,7.475061416625976562e-01,7.474775910377502441e-01,7.474490404129028320e-01,7.474205493927001953e-01,7.473919987678527832e-01,7.473635077476501465e-01,7.473348975181579590e-01,7.473064064979553223e-01,7.472779154777526855e-01,7.472493648529052734e-01,7.472208738327026367e-01,7.471923828125000000e-01,7.471638321876525879e-01,7.471354007720947266e-01,7.471068501472473145e-01,7.470783591270446777e-01,7.470498681068420410e-01,7.470213174819946289e-01,7.469928860664367676e-01,7.469643354415893555e-01,7.469358444213867188e-01,7.469074130058288574e-01,7.468788623809814453e-01,7.468504309654235840e-01,7.468219399452209473e-01,7.467934489250183105e-01,7.467649579048156738e-01,7.467364668846130371e-01,7.467079758644104004e-01,7.466795444488525391e-01,7.466510534286499023e-01,7.466226220130920410e-01,7.465941309928894043e-01,7.465656399726867676e-01,7.465372085571289062e-01,7.465087175369262695e-01,7.464802861213684082e-01,7.464518547058105469e-01,7.464233636856079102e-01,7.463949322700500488e-01,7.463664412498474121e-01,7.463380098342895508e-01,7.463095784187316895e-01,7.462811470031738281e-01,7.462527155876159668e-01,7.462242841720581055e-01,7.461957931518554688e-01,7.461674213409423828e-01,7.461389303207397461e-01,7.461104989051818848e-01,7.460821270942687988e-01,7.460536360740661621e-01,7.460252642631530762e-01,7.459967732429504395e-01,7.459684014320373535e-01,7.459400296211242676e-01,7.459115386009216309e-01,7.458831667900085449e-01
