5.000000000000000000e+00,5.000000000000000000e+00,5.000000000000000000e+00,5.000000000000000000e+00,5.000000000000000000e+00,5.000000000000000000e+00,5.000000000000000000e+00,5.000000000000000000e+00,5.000000000000000000e+00,5.000000000000000000e+00,5.000000000000000000e+00,5.000000000000000000e+00,5.000000000000000000e+00,5.000000000000000000e+00,5.000000000000000000e+00,5.000000000000000000e+00,5.000000000000000000e+00,5.000000000000000000e+00,5.000000000000000000e+00,5.000000000000000000e+00,5.000000000000000000e+00,5.000000000000000000e+00,5.000000000000000000e+00,5.000000000000000000e+00,5.000000000000000000e+00,5.000000000000000000e+00,5.000000000000000000e+00,5.000000000000000000e+00,5.000000000000000000e+00,5.000000000000000000e+00,5.000000000000000000e+00,5.000000000000000000e+00,5.000000000000000000e+00,5.000000000000000000e+00,5.000000000000000000e+00,5.000000000000000000e+00,5.000000000000000000e+00,5.000000000000000000e+00,5.000000000000000000e+00,5.000000000000000000e+00,4.872945308685302734e+00,4.679749488830566406e+00,4.501288414001464844e+00,4.335938453674316406e+00,4.182306289672851562e+00,4.039187908172607422e+00,3.905540943145751953e+00,3.780454874038696289e+00,3.663132429122924805e+00,3.552872896194458008e+00,3.449056863784790039e+00,3.351135492324829102e+00,3.258621215820312500e+00,3.171077489852905273e+00,3.088114261627197266e+00,3.009381771087646484e+00,2.934563875198364258e+00,2.863376140594482422e+00,2.795560359954833984e+00,2.730882406234741211e+00,2.669129610061645508e+00,2.610107898712158203e+00,2.553639888763427734e+00,2.499563455581665039e+00,2.447729825973510742e+00,2.398002147674560547e+00,2.350255012512207031e+00,2.304371833801269531e+00,2.260246276855468750e+00,2.217778444290161133e+00,2.176877260208129883e+00,2.137457370758056641e+00,2.099439620971679688e+00,2.062750816345214844e+00,2.027322292327880859e+00,1.993090271949768066e+00,1.959995031356811523e+00,1.927980780601501465e+00,1.896995663642883301e+00,1.866990804672241211e+00
5.000000000000000000e+00,5.000000000000000000e+00,5.000000000000000000e+00,5.000000000000000000e+00,5.000000000000000000e+00,5.000000000000000000e+00,5.000000000000000000e+00,5.000000000000000000e+00,5.000000000000000000e+00,5.000000000000000000e+00,5.000000000000000000e+00,5.000000000000000000e+00,5.000000000000000000e+00,5.000000000000000000e+00,5.000000000000000000e+00,5.000000000000000000e+00,5.000000000000000000e+00,5.000000000000000000e+00,5.000000000000000000e+00,5.000000000000000000e+00,5.000000000000000000e+00,5.000000000000000000e+00,5.000000000000000000e+00,5.000000000000000000e+00,3.775123357772827148e+00,3.807992219924926758e+00,5.000000000000000000e+00,5.000000000000000000e+00,5.000000000000000000e+00,5.000000000000000000e+00,5.000000000000000000e+00,5.000000000000000000e+00,5.000000000000000000e+00,5.000000000000000000e+00,5.000000000000000000e+00,5.000000000000000000e+00,5.000000000000000000e+00,5.000000000000000000e+00,5.000000000000000000e+00,5.000000000000000000e+00,4.873087406158447266e+00,4.679880142211914062e+00,4.501409530639648438e+00,4.336050510406494141e+00,4.182410240173339844e+00,4.039285182952880859e+00,3.905632019042968750e+00,3.780539989471435547e+00,3.663212299346923828e+00,3.552948474884033203e+00,3.449128150939941406e+00,3.351202964782714844e+00,3.258684635162353516e+00,3.171137571334838867e+00,3.088171482086181641e+00,3.009436130523681641e+00,2.934615612030029297e+00,2.863425254821777344e+00,2.795606851577758789e+00,2.730926990509033203e+00,2.669172048568725586e+00,2.610148429870605469e+00,2.553678750991821289e+00,2.499600648880004883e+00,2.447765588760375977e+00,2.398036479949951172e+00,2.350287914276123047e+00,2.304403543472290039e+00,2.260276556015014648e+00,2.217807769775390625e+00,2.176905632019042969e+00,2.137484550476074219e+00,2.099466085433959961e+00,2.062776327133178711e+00,2.027346849441528320e+00,1.993113875389099121e+00,1.960017919540405273e+00,1.928002953529357910e+00,1.897017121315002441e+00,1.867011547088623047e+00
5.000000000000000000e+00,5.000000000000000000e+00,5.000000000000000000e+00,5.000000000000000000e+00,5.000000000000000000e+00,5.000000000000000000e+00,5.000000000000000000e+00,5.000000000000000000e+00,5.000000000000000000e+00,5.000000000000000000e+00,5.000000000000000000e+00,5.000000000000000000e+00,5.000000000000000000e+00,5.000000000000000000e+00,5.000000000000000000e+00,5.000000000000000000e+00,5.000000000000000000e+00,5.000000000000000000e+00,5.000000000000000000e+00,5.000000000000000000e+00,5.000000000000000000e+00,5.000000000000000000e+00,5.000000000000000000e+00,5.000000000000000000e+00,3.769009351730346680e+00,3.805967569351196289e+00,5.000000000000000000e+00,5.000000000000000000e+00,5.000000000000000000e+00,5.000000000000000000e+00,5.000000000000000000e+00,5.000000000000000000e+00,5.000000000000000000e+00,5.000000000000000000e+00,5.000000000000000000e+00,5.000000000000000000e+00,5.000000000000000000e+00,5.000000000000000000e+00,5.000000000000000000e+00,5.000000000000000000e+00,4.873229503631591797e+00,4.680011272430419922e+00,4.501530647277832031e+00,4.336163043975830078e+00,4.182514667510986328e+00,4.039382934570312500e+00,3.905723333358764648e+00,3.780625581741333008e+00,3.663292646408081055e+00,3.553023576736450195e+00,3.449198961257934570e+00,3.351269721984863281e+00,3.258748054504394531e+00,3.171197652816772461e+00,3.088228225708007812e+00,3.009490013122558594e+00,2.934666872024536133e+00,2.863474130630493164e+00,2.795653581619262695e+00,2.730971336364746094e+00,2.669214487075805664e+00,2.610189199447631836e+00,2.553717613220214844e+00,2.499637842178344727e+00,2.447801351547241211e+00,2.398070812225341797e+00,2.350320816040039062e+00,2.304435253143310547e+00,2.260307073593139648e+00,2.217837095260620117e+00,2.176933765411376953e+00,2.137511968612670898e+00,2.099492311477661133e+00,2.062801837921142578e+00,2.027371406555175781e+00,1.993137598037719727e+00,1.960040807723999023e+00,1.928025126457214355e+00,1.897038578987121582e+00,1.867032289505004883e+00
5.000000000000000000e+00,5.000000000000000000e+00,5.000000000000000000e+00,5.000000000000000000e+00,5.000000000000000000e+00,5.000000000000000000e+00,5.000000000000000000e+00,5.000000000000000000e+00,5.000000000000000000e+00,5.000000000000000000e+00,5.000000000000000000e+00,5.000000000000000000e+00,5.000000000000000000e+00,5.000000000000000000e+00,5.000000000000000000e+00,5.000000000000000000e+00,5.000000000000000000e+00,5.000000000000000000e+00,5.000000000000000000e+00,5.000000000000000000e+00,5.000000000000000000e+00,5.000000000000000000e+00,5.000000000000000000e+00,5.000000000000000000e+00,3.801804304122924805e+00,3.839117050170898438e+00,5.000000000000000000e+00,5.000000000000000000e+00,5.000000000000000000e+00,5.000000000000000000e+00,5.000000000000000000e+00,5.000000000000000000e+00,5.000000000000000000e+00,5.000000000000000000e+00,5.000000000000000000e+00,5.000000000000000000e+00,5.000000000000000000e+00,5.000000000000000000e+00,5.000000000000000000e+00,5.000000000000000000e+00,4.873370647430419922e+00,4.680141448974609375e+00,4.501651287078857422e+00,4.336275100708007812e+00,4.182619094848632812e+00,4.039480209350585938e+00,3.905814170837402344e+00,3.780710697174072266e+00,3.663372755050659180e+00,3.553098917007446289e+00,3.449269771575927734e+00,3.351336717605590820e+00,3.258811235427856445e+00,3.171257495880126953e+00,3.088285207748413086e+00,3.009543895721435547e+00,2.934718132019042969e+00,2.863523006439208984e+00,2.795700073242187500e+00,2.731015682220458984e+00,2.669257164001464844e+00,2.610229730606079102e+00,2.553756475448608398e+00,2.499675273895263672e+00,2.447837114334106445e+00,2.398105144500732422e+00,2.350353956222534180e+00,2.304466962814331055e+00,2.260337591171264648e+00,2.217866659164428711e+00,2.176962137222290039e+00,2.137539148330688477e+00,2.099518775939941406e+00,2.062827110290527344e+00,2.027395963668823242e+00,1.993161320686340332e+00,1.960063695907592773e+00,1.928047299385070801e+00,1.897060036659240723e+00,1.867053151130676270e+00
5.000000000000000000e+00,5.000000000000000000e+00,5.000000000000000000e+00,5.000000000000000000e+00,5.000000000000000000e+00,5.000000000000000000e+00,5.000000000000000000e+00,5.000000000000000000e+00,5.000000000000000000e+00,5.000000000000000000e+00,5.000000000000000000e+00,5.000000000000000000e+00,5.000000000000000000e+00,5.000000000000000000e+00,5.000000000000000000e+00,5.000000000000000000e+00,5.000000000000000000e+00,5.000000000000000000e+00,5.000000000000000000e+00,5.000000000000000000e+00,5.000000000000000000e+00,5.000000000000000000e+00,5.000000000000000000e+00,3.834361314773559570e+00,3.895835876464843750e+00,3.804589986801147461e+00,3.853650093078613281e+00,3.844280719757080078e+00,5.000000000000000000e+00,5.000000000000000000e+00,5.000000000000000000e+00,5.000000000000000000e+00,5.000000000000000000e+00,5.000000000000000000e+00,5.000000000000000000e+00,5.000000000000000000e+00,5.000000000000000000e+00,5.000000000000000000e+00,5.000000000000000000e+00,5.000000000000000000e+00,4.873512744903564453e+00,4.680272579193115234e+00,4.501772403717041016e+00,4.336387634277343750e+00,4.182723522186279297e+00,4.039577484130859375e+00,3.905905246734619141e+00,3.780796051025390625e+00,3.663452625274658203e+00,3.553174257278442383e+00,3.449340820312500000e+00,3.351403713226318359e+00,3.258874654769897461e+00,3.171317338943481445e+00,3.088341951370239258e+00,3.009598255157470703e+00,2.934769868850708008e+00,2.863572120666503906e+00,2.795746803283691406e+00,2.731060504913330078e+00,2.669299840927124023e+00,2.610270500183105469e+00,2.553795576095581055e+00,2.499712467193603516e+00,2.447872877120971680e+00,2.398139476776123047e+00,2.350386857986450195e+00,2.304498672485351562e+00,2.260368108749389648e+00,2.217895984649658203e+00,2.176990509033203125e+00,2.137566566467285156e+00,2.099545001983642578e+00,2.062852382659912109e+00,2.027420520782470703e+00,1.993184924125671387e+00,1.960086584091186523e+00,1.928069472312927246e+00,1.897081494331359863e+00,1.867073893547058105e+00
5.000000000000000000e+00,5.000000000000000000e+00,5.000000000000000000e+00,5.000000000000000000e+00,5.000000000000000000e+00,5.000000000000000000e+00,5.000000000000000000e+00,5.000000000000000000e+00,5.000000000000000000e+00,5.000000000000000000e+00,5.000000000000000000e+00,5.000000000000000000e+00,5.000000000000000000e+00,5.000000000000000000e+00,5.000000000000000000e+00,5.000000000000000000e+00,5.000000000000000000e+00,5.000000000000000000e+00,5.000000000000000000e+00,5.000000000000000000e+00,5.000000000000000000e+00,3.838411569595336914e+00,3.820789337158203125e+00,3.793359994888305664e+00,3.781020879745483398e+00,3.781347274780273438e+00,3.789917469024658203e+00,3.832939863204956055e+00,3.844026803970336914e+00,5.000000000000000000e+00,5.000000000000000000e+00,5.000000000000000000e+00,5.000000000000000000e+00,5.000000000000000000e+00,5.000000000000000000e+00,5.000000000000000000e+00,5.000000000000000000e+00,5.000000000000000000e+00,5.000000000000000000e+00,5.000000000000000000e+00,4.873654365539550781e+00,4.680403232574462891e+00,4.501893043518066406e+00,4.336499691009521484e+00,4.182827949523925781e+00,4.039674758911132812e+00,3.905996561050415039e+00,3.780881643295288086e+00,3.663533210754394531e+00,3.553249835968017578e+00,3.449412107467651367e+00,3.351470947265625000e+00,3.258938312530517578e+00,3.171377658843994141e+00,3.088399171829223633e+00,3.009652137756347656e+00,2.934821128845214844e+00,2.863620996475219727e+00,2.795793533325195312e+00,2.731104850769042969e+00,2.669342279434204102e+00,2.610311031341552734e+00,2.553834438323974609e+00,2.499749898910522461e+00,2.447908639907836914e+00,2.398173809051513672e+00,2.350419759750366211e+00,2.304530382156372070e+00,2.260398626327514648e+00,2.217925310134887695e+00,2.177018642425537109e+00,2.137593746185302734e+00,2.099571228027343750e+00,2.062877893447875977e+00,2.027444839477539062e+00,1.993208646774291992e+00,1.960109472274780273e+00,1.928091645240783691e+00,1.897103190422058105e+00,1.867094874382019043e+00
5.000000000000000000e+00,5.000000000000000000e+00,5.000000000000000000e+00,5.000000000000000000e+00,5.000000000000000000e+00,5.000000000000000000e+00,5.000000000000000000e+00,5.000000000000000000e+00,5.000000000000000000e+00,5.000000000000000000e+00,5.000000000000000000e+00,5.000000000000000000e+00,5.000000000000000000e+00,5.000000000000000000e+00,5.000000000000000000e+00,5.000000000000000000e+00,5.000000000000000000e+00,5.000000000000000000e+00,5.000000000000000000e+00,5.000000000000000000e+00,5.000000000000000000e+00,3.857273578643798828e+00,3.823767185211181641e+00,3.759940147399902344e+00,3.753551483154296875e+00,3.755239009857177734e+00,3.782303810119628906e+00,3.852385044097900391e+00,3.861780405044555664e+00,5.000000000000000000e+00,5.000000000000000000e+00,5.000000000000000000e+00,5.000000000000000000e+00,5.000000000000000000e+00,5.000000000000000000e+00,5.000000000000000000e+00,5.000000000000000000e+00,5.000000000000000000e+00,5.000000000000000000e+00,5.000000000000000000e+00,4.873796463012695312e+00,4.680533885955810547e+00,4.502014160156250000e+00,4.336611747741699219e+00,4.182932376861572266e+00,4.039772510528564453e+00,3.906087398529052734e+00,3.780966758728027344e+00,3.663613080978393555e+00,3.553324937820434570e+00,3.449482917785644531e+00,3.351537942886352539e+00,3.259001493453979492e+00,3.171437740325927734e+00,3.088455915451049805e+00,3.009706258773803711e+00,2.934872627258300781e+00,2.863669872283935547e+00,2.795840024948120117e+00,2.731149435043334961e+00,2.669384717941284180e+00,2.610351800918579102e+00,2.553873300552368164e+00,2.499787092208862305e+00,2.447944402694702148e+00,2.398207902908325195e+00,2.350452661514282227e+00,2.304562091827392578e+00,2.260429143905639648e+00,2.217954874038696289e+00,2.177047014236450195e+00,2.137621164321899414e+00,2.099597692489624023e+00,2.062903404235839844e+00,2.027469635009765625e+00,1.993232607841491699e+00,1.960132598876953125e+00,1.928113937377929688e+00,1.897124648094177246e+00,1.867115616798400879e+00
5.000000000000000000e+00,5.000000000000000000e+00,5.000000000000000000e+00,5.000000000000000000e+00,5.000000000000000000e+00,5.000000000000000000e+00,5.000000000000000000e+00,5.000000000000000000e+00,5.000000000000000000e+00,5.000000000000000000e+00,5.000000000000000000e+00,5.000000000000000000e+00,5.000000000000000000e+00,5.000000000000000000e+00,5.000000000000000000e+00,5.000000000000000000e+00,5.000000000000000000e+00,5.000000000000000000e+00,5.000000000000000000e+00,5.000000000000000000e+00,5.000000000000000000e+00,5.000000000000000000e+00,3.849428892135620117e+00,3.768238306045532227e+00,3.747763872146606445e+00,3.757538557052612305e+00,3.793511867523193359e+00,3.876752853393554688e+00,3.875547170639038086e+00,5.000000000000000000e+00,5.000000000000000000e+00,5.000000000000000000e+00,5.000000000000000000e+00,5.000000000000000000e+00,5.000000000000000000e+00,5.000000000000000000e+00,5.000000000000000000e+00,5.000000000000000000e+00,5.000000000000000000e+00,5.000000000000000000e+00,4.873937606811523438e+00,4.680664539337158203e+00,4.502135276794433594e+00,4.336723804473876953e+00,4.183036804199218750e+00,4.039869785308837891e+00,3.906178474426269531e+00,3.781052112579345703e+00,3.663693189620971680e+00,3.553400278091430664e+00,3.449553966522216797e+00,3.351604938507080078e+00,3.259064912796020508e+00,3.171497583389282227e+00,3.088512897491455078e+00,3.009760141372680664e+00,2.934923887252807617e+00,2.863718748092651367e+00,2.795886754989624023e+00,2.731193780899047852e+00,2.669427156448364258e+00,2.610392570495605469e+00,2.553912401199340820e+00,2.499824523925781250e+00,2.447980165481567383e+00,2.398242473602294922e+00,2.350485801696777344e+00,2.304593801498413086e+00,2.260459661483764648e+00,2.217984199523925781e+00,2.177075386047363281e+00,2.137648344039916992e+00,2.099623918533325195e+00,2.062928676605224609e+00,2.027493953704833984e+00,1.993256211280822754e+00,1.960155487060546875e+00,1.928136110305786133e+00,1.897146105766296387e+00,1.867136478424072266e+00
5.000000000000000000e+00,5.000000000000000000e+00,5.000000000000000000e+00,5.000000000000000000e+00,5.000000000000000000e+00,5.000000000000000000e+00,5.000000000000000000e+00,5.000000000000000000e+00,5.000000000000000000e+00,5.000000000000000000e+00,5.000000000000000000e+00,5.000000000000000000e+00,5.000000000000000000e+00,5.000000000000000000e+00,5.000000000000000000e+00,5.000000000000000000e+00,5.000000000000000000e+00,5.000000000000000000e+00,5.000000000000000000e+00,5.000000000000000000e+00,5.000000000000000000e+00,5.000000000000000000e+00,3.838631391525268555e+00,3.766486644744873047e+00,3.747407674789428711e+00,3.753673315048217773e+00,3.795239210128784180e+00,3.888311624526977539e+00,3.887960672378540039e+00,5.000000000000000000e+00,5.000000000000000000e+00,5.000000000000000000e+00,5.000000000000000000e+00,5.000000000000000000e+00,5.000000000000000000e+00,5.000000000000000000e+00,5.000000000000000000e+00,5.000000000000000000e+00,5.000000000000000000e+00,5.000000000000000000e+00,4.874079704284667969e+00,4.680795669555664062e+00,4.502256393432617188e+00,4.336836338043212891e+00,4.183141231536865234e+00,4.039967060089111328e+00,3.906269311904907227e+00,3.781137228012084961e+00,3.663773059844970703e+00,3.553475618362426758e+00,3.449624776840209961e+00,3.351671934127807617e+00,3.259128570556640625e+00,3.171557903289794922e+00,3.088570117950439453e+00,3.009814500808715820e+00,2.934975385665893555e+00,2.863767862319946289e+00,2.795933485031127930e+00,2.731238603591918945e+00,2.669469833374023438e+00,2.610433101654052734e+00,2.553951263427734375e+00,2.499861717224121094e+00,2.448015928268432617e+00,2.398276805877685547e+00,2.350518703460693359e+00,2.304625511169433594e+00,2.260490179061889648e+00,2.218013286590576172e+00,2.177103519439697266e+00,2.137675523757934570e+00,2.099650144577026367e+00,2.062953948974609375e+00,2.027518510818481445e+00,1.993279933929443359e+00,1.960178375244140625e+00,1.928158283233642578e+00,1.897167563438415527e+00,1.867157220840454102e+00
5.000000000000000000e+00,5.000000000000000000e+00,5.000000000000000000e+00,5.000000000000000000e+00,5.000000000000000000e+00,5.000000000000000000e+00,5.000000000000000000e+00,5.000000000000000000e+00,5.000000000000000000e+00,5.000000000000000000e+00,5.000000000000000000e+00,5.000000000000000000e+00,5.000000000000000000e+00,5.000000000000000000e+00,5.000000000000000000e+00,5.000000000000000000e+00,5.000000000000000000e+00,5.000000000000000000e+00,5.000000000000000000e+00,5.000000000000000000e+00,5.000000000000000000e+00,5.000000000000000000e+00,3.849977016448974609e+00,3.756979703903198242e+00,3.746288537979125977e+00,3.740727186203002930e+00,3.783248424530029297e+00,5.000000000000000000e+00,3.903265476226806641e+00,5.000000000000000000e+00,5.000000000000000000e+00,5.000000000000000000e+00,5.000000000000000000e+00,5.000000000000000000e+00,5.000000000000000000e+00,5.000000000000000000e+00,5.000000000000000000e+00,5.000000000000000000e+00,5.000000000000000000e+00,5.000000000000000000e+00,4.874221324920654297e+00,4.680925846099853516e+00,4.502377033233642578e+00,4.336948871612548828e+00,4.183246135711669922e+00,4.040064811706542969e+00,3.906360864639282227e+00,3.781222820281982422e+00,3.663853645324707031e+00,3.553551197052001953e+00,3.449696063995361328e+00,3.351739168167114258e+00,3.259191751480102539e+00,3.171617746353149414e+00,3.088626861572265625e+00,3.009868383407592773e+00,2.935026884078979492e+00,2.863816738128662109e+00,2.795980215072631836e+00,2.731282949447631836e+00,2.669512271881103516e+00,2.610473871231079102e+00,2.553990125656127930e+00,2.499898910522460938e+00,2.448051691055297852e+00,2.398311138153076172e+00,2.350551605224609375e+00,2.304657220840454102e+00,2.260520696640014648e+00,2.218042612075805664e+00,2.177131891250610352e+00,2.137702703475952148e+00,2.099676370620727539e+00,2.062979459762573242e+00,2.027543067932128906e+00,1.993303656578063965e+00,1.960201263427734375e+00,1.928180456161499023e+00,1.897189021110534668e+00,1.867177963256835938e+00
5.000000000000000000e+00,5.000000000000000000e+00,5.000000000000000000e+00,5.000000000000000000e+00,5.000000000000000000e+00,5.000000000000000000e+00,5.000000000000000000e+00,5.000000000000000000e+00,5.000000000000000000e+00,5.000000000000000000e+00,5.000000000000000000e+00,5.000000000000000000e+00,5.000000000000000000e+00,5.000000000000000000e+00,5.000000000000000000e+00,5.000000000000000000e+00,5.000000000000000000e+00,5.000000000000000000e+00,5.000000000000000000e+00,5.000000000000000000e+00,5.000000000000000000e+00,5.000000000000000000e+00,3.844718217849731445e+00,3.765554666519165039e+00,3.743309020996093750e+00,3.748781681060791016e+00,3.779655456542968750e+00,5.000000000000000000e+00,3.905802965164184570e+00,5.000000000000000000e+00,5.000000000000000000e+00,5.000000000000000000e+00,5.000000000000000000e+00,5.000000000000000000e+00,5.000000000000000000e+00,5.000000000000000000e+00,5.000000000000000000e+00,5.000000000000000000e+00,5.000000000000000000e+00,5.000000000000000000e+00,4.874363422393798828e+00,4.681056976318359375e+00,4.502498149871826172e+00,4.337060928344726562e+00,4.183350086212158203e+00,4.040162086486816406e+00,3.906451702117919922e+00,3.781308174133300781e+00,3.663933515548706055e+00,3.553626537322998047e+00,3.449767112731933594e+00,3.351806163787841797e+00,3.259255170822143555e+00,3.171677827835083008e+00,3.088683843612670898e+00,3.009922504425048828e+00,2.935078144073486328e+00,2.863865613937377930e+00,2.796026706695556641e+00,2.731327533721923828e+00,2.669554710388183594e+00,2.610514402389526367e+00,2.554028987884521484e+00,2.499936103820800781e+00,2.448087453842163086e+00,2.398345232009887695e+00,2.350584506988525391e+00,2.304688930511474609e+00,2.260551214218139648e+00,2.218072175979614258e+00,2.177160263061523438e+00,2.137730121612548828e+00,2.099702835083007812e+00,2.063004970550537109e+00,2.027567625045776367e+00,1.993327260017395020e+00,1.960224151611328125e+00,1.928202629089355469e+00,1.897210478782653809e+00,1.867198824882507324e+00
5.000000000000000000e+00,5.000000000000000000e+00,5.000000000000000000e+00,5.000000000000000000e+00,5.000000000000000000e+00,5.000000000000000000e+00,5.000000000000000000e+00,5.000000000000000000e+00,5.000000000000000000e+00,5.000000000000000000e+00,5.000000000000000000e+00,5.000000000000000000e+00,5.000000000000000000e+00,5.000000000000000000e+00,5.000000000000000000e+00,5.000000000000000000e+00,5.000000000000000000e+00,5.000000000000000000e+00,5.000000000000000000e+00,5.000000000000000000e+00,5.000000000000000000e+00,3.809559345245361328e+00,3.814742326736450195e+00,3.771794557571411133e+00,3.757447004318237305e+00,3.756820678710937500e+00,3.767868041992187500e+00,5.000000000000000000e+00,3.897361278533935547e+00,5.000000000000000000e+00,5.000000000000000000e+00,5.000000000000000000e+00,5.000000000000000000e+00,5.000000000000000000e+00,5.000000000000000000e+00,5.000000000000000000e+00,5.000000000000000000e+00,5.000000000000000000e+00,5.000000000000000000e+00,5.000000000000000000e+00,4.874505043029785156e+00,4.681187629699707031e+00,4.502619266510009766e+00,4.337173461914062500e+00,4.183454990386962891e+00,4.040259361267089844e+00,3.906542778015136719e+00,3.781393289566040039e+00,3.664013624191284180e+00,3.553701639175415039e+00,3.449837923049926758e+00,3.351873159408569336e+00,3.259318351745605469e+00,3.171737670898437500e+00,3.088740587234497070e+00,3.009976387023925781e+00,2.935129404067993164e+00,2.863914489746093750e+00,2.796073436737060547e+00,2.731372117996215820e+00,2.669597387313842773e+00,2.610555171966552734e+00,2.554068088531494141e+00,2.499973773956298828e+00,2.448123216629028320e+00,2.398379802703857422e+00,2.350617647171020508e+00,2.304720640182495117e+00,2.260581731796264648e+00,2.218101501464843750e+00,2.177188396453857422e+00,2.137757539749145508e+00,2.099729061126708984e+00,2.063030242919921875e+00,2.027592182159423828e+00,1.993350982666015625e+00,1.960247159004211426e+00,1.928224802017211914e+00,1.897231936454772949e+00,1.867219567298889160e+00
5.000000000000000000e+00,5.000000000000000000e+00,5.000000000000000000e+00,5.000000000000000000e+00,5.000000000000000000e+00,5.000000000000000000e+00,5.000000000000000000e+00,5.000000000000000000e+00,5.000000000000000000e+00,5.000000000000000000e+00,5.000000000000000000e+00,5.000000000000000000e+00,5.000000000000000000e+00,5.000000000000000000e+00,5.000000000000000000e+00,5.000000000000000000e+00,5.000000000000000000e+00,5.000000000000000000e+00,5.000000000000000000e+00,5.000000000000000000e+00,5.000000000000000000e+00,3.750901460647583008e+00,3.822324991226196289e+00,3.778633832931518555e+00,3.808092117309570312e+00,3.695026874542236328e+00,3.722386837005615234e+00,3.880412578582763672e+00,3.884448289871215820e+00,5.000000000000000000e+00,5.000000000000000000e+00,5.000000000000000000e+00,5.000000000000000000e+00,5.000000000000000000e+00,5.000000000000000000e+00,5.000000000000000000e+00,5.000000000000000000e+00,5.000000000000000000e+00,5.000000000000000000e+00,5.000000000000000000e+00,4.874647140502929688e+00,4.681318759918212891e+00,4.502739906311035156e+00,4.337285518646240234e+00,4.183558940887451172e+00,4.040356636047363281e+00,3.906633615493774414e+00,3.781478643417358398e+00,3.664093494415283203e+00,3.553777456283569336e+00,3.449909210205078125e+00,3.351940393447875977e+00,3.259382009506225586e+00,3.171797990798950195e+00,3.088797807693481445e+00,3.010030746459960938e+00,2.935181140899658203e+00,2.863963603973388672e+00,2.796120166778564453e+00,2.731416702270507812e+00,2.669640064239501953e+00,2.610595941543579102e+00,2.554106950759887695e+00,2.500010967254638672e+00,2.448158979415893555e+00,2.398414134979248047e+00,2.350650548934936523e+00,2.304752349853515625e+00,2.260612010955810547e+00,2.218130826950073242e+00,2.177216768264770508e+00,2.137784719467163086e+00,2.099755525588989258e+00,2.063055515289306641e+00,2.027616739273071289e+00,1.993374705314636230e+00,1.960270047187805176e+00,1.928246974945068359e+00,1.897253394126892090e+00,1.867240309715270996e+00
5.000000000000000000e+00,5.000000000000000000e+00,5.000000000000000000e+00,5.000000000000000000e+00,5.000000000000000000e+00,5.000000000000000000e+00,5.000000000000000000e+00,5.000000000000000000e+00,5.000000000000000000e+00,5.000000000000000000e+00,5.000000000000000000e+00,5.000000000000000000e+00,5.000000000000000000e+00,5.000000000000000000e+00,5.000000000000000000e+00,5.000000000000000000e+00,5.000000000000000000e+00,5.000000000000000000e+00,5.000000000000000000e+00,5.000000000000000000e+00,5.000000000000000000e+00,3.701205492019653320e+00,3.807771682739257812e+00,3.768385887145996094e+00,3.706109046936035156e+00,3.675005912780761719e+00,3.703359127044677734e+00,5.000000000000000000e+00,3.886229276657104492e+00,5.000000000000000000e+00,5.000000000000000000e+00,5.000000000000000000e+00,5.000000000000000000e+00,5.000000000000000000e+00,5.000000000000000000e+00,5.000000000000000000e+00,5.000000000000000000e+00,5.000000000000000000e+00,5.000000000000000000e+00,5.000000000000000000e+00,4.874788761138916016e+00,4.681449413299560547e+00,4.502861022949218750e+00,4.337397575378417969e+00,4.183663845062255859e+00,4.040454387664794922e+00,3.906725168228149414e+00,3.781564235687255859e+00,3.664174079895019531e+00,3.553852558135986328e+00,3.449980258941650391e+00,3.352007389068603516e+00,3.259445428848266602e+00,3.171858072280883789e+00,3.088854551315307617e+00,3.010084867477416992e+00,2.935232400894165039e+00,2.864012479782104492e+00,2.796166658401489258e+00,2.731461048126220703e+00,2.669682502746582031e+00,2.610636472702026367e+00,2.554145812988281250e+00,2.500048160552978516e+00,2.448194742202758789e+00,2.398448467254638672e+00,2.350683450698852539e+00,2.304783821105957031e+00,2.260642528533935547e+00,2.218160152435302734e+00,2.177244901657104492e+00,2.137811899185180664e+00,2.099781751632690430e+00,2.063081026077270508e+00,2.027641296386718750e+00,1.993398547172546387e+00,1.960293173789978027e+00,1.928269386291503906e+00,1.897274971008300781e+00,1.867261290550231934e+00
5.000000000000000000e+00,5.000000000000000000e+00,5.000000000000000000e+00,5.000000000000000000e+00,5.000000000000000000e+00,5.000000000000000000e+00,5.000000000000000000e+00,5.000000000000000000e+00,5.000000000000000000e+00,5.000000000000000000e+00,5.000000000000000000e+00,5.000000000000000000e+00,5.000000000000000000e+00,5.000000000000000000e+00,5.000000000000000000e+00,5.000000000000000000e+00,5.000000000000000000e+00,5.000000000000000000e+00,5.000000000000000000e+00,5.000000000000000000e+00,3.656259298324584961e+00,5.000000000000000000e+00,3.818373203277587891e+00,3.772987127304077148e+00,3.675966262817382812e+00,3.658401727676391602e+00,3.709434986114501953e+00,5.000000000000000000e+00,3.862396240234375000e+00,5.000000000000000000e+00,5.000000000000000000e+00,5.000000000000000000e+00,5.000000000000000000e+00,5.000000000000000000e+00,5.000000000000000000e+00,5.000000000000000000e+00,5.000000000000000000e+00,5.000000000000000000e+00,5.000000000000000000e+00,5.000000000000000000e+00,4.874930381774902344e+00,4.681580066680908203e+00,4.502982139587402344e+00,4.337510108947753906e+00,4.183767795562744141e+00,4.040551662445068359e+00,3.906816005706787109e+00,3.781649589538574219e+00,3.664253950119018555e+00,3.553927898406982422e+00,3.450051069259643555e+00,3.352074384689331055e+00,3.259508609771728516e+00,3.171917915344238281e+00,3.088911533355712891e+00,3.010138750076293945e+00,2.935283899307250977e+00,2.864061355590820312e+00,2.796213388442993164e+00,2.731505632400512695e+00,2.669724941253662109e+00,2.610677003860473633e+00,2.554184675216674805e+00,2.500085353851318359e+00,2.448230504989624023e+00,2.398482799530029297e+00,2.350716590881347656e+00,2.304815769195556641e+00,2.260673284530639648e+00,2.218189716339111328e+00,2.177273273468017578e+00,2.137839317321777344e+00,2.099808216094970703e+00,2.063106536865234375e+00,2.027665853500366211e+00,1.993422269821166992e+00,1.960316061973571777e+00,1.928291559219360352e+00,1.897296428680419922e+00,1.867282152175903320e+00
5.000000000000000000e+00,5.000000000000000000e+00,5.000000000000000000e+00,5.000000000000000000e+00,5.000000000000000000e+00,5.000000000000000000e+00,5.000000000000000000e+00,5.000000000000000000e+00,5.000000000000000000e+00,5.000000000000000000e+00,5.000000000000000000e+00,5.000000000000000000e+00,5.000000000000000000e+00,5.000000000000000000e+00,5.000000000000000000e+00,5.000000000000000000e+00,5.000000000000000000e+00,5.000000000000000000e+00,5.000000000000000000e+00,5.000000000000000000e+00,5.000000000000000000e+00,5.000000000000000000e+00,5.000000000000000000e+00,3.782159805297851562e+00,3.647289514541625977e+00,3.637256860733032227e+00,3.730694293975830078e+00,5.000000000000000000e+00,3.845716953277587891e+00,5.000000000000000000e+00,5.000000000000000000e+00,5.000000000000000000e+00,5.000000000000000000e+00,5.000000000000000000e+00,5.000000000000000000e+00,5.000000000000000000e+00,5.000000000000000000e+00,5.000000000000000000e+00,5.000000000000000000e+00,5.000000000000000000e+00,4.875072479248046875e+00,4.681711196899414062e+00,4.503103256225585938e+00,4.337622165679931641e+00,4.183872699737548828e+00,4.040649414062500000e+00,3.906907081604003906e+00,3.781734704971313477e+00,3.664334058761596680e+00,3.554003238677978516e+00,3.450122117996215820e+00,3.352141380310058594e+00,3.259572029113769531e+00,3.171977996826171875e+00,3.088968276977539062e+00,3.010193109512329102e+00,2.935335397720336914e+00,2.864110469818115234e+00,2.796260118484497070e+00,2.731550216674804688e+00,2.669767618179321289e+00,2.610718011856079102e+00,2.554223775863647461e+00,2.500122785568237305e+00,2.448266267776489258e+00,2.398517131805419922e+00,2.350749492645263672e+00,2.304847478866577148e+00,2.260703563690185547e+00,2.218219041824340820e+00,2.177301645278930664e+00,2.137866497039794922e+00,2.099834442138671875e+00,2.063131809234619141e+00,2.027690410614013672e+00,1.993445992469787598e+00,1.960338950157165527e+00,1.928313612937927246e+00,1.897317886352539062e+00,1.867302894592285156e+00
5.000000000000000000e+00,5.000000000000000000e+00,5.000000000000000000e+00,5.000000000000000000e+00,5.000000000000000000e+00,5.000000000000000000e+00,5.000000000000000000e+00,5.000000000000000000e+00,5.000000000000000000e+00,5.000000000000000000e+00,5.000000000000000000e+00,5.000000000000000000e+00,5.000000000000000000e+00,5.000000000000000000e+00,5.000000000000000000e+00,5.000000000000000000e+00,5.000000000000000000e+00,5.000000000000000000e+00,5.000000000000000000e+00,5.000000000000000000e+00,5.000000000000000000e+00,5.000000000000000000e+00,5.000000000000000000e+00,3.789492368698120117e+00,3.615278720855712891e+00,3.624938726425170898e+00,5.000000000000000000e+00,5.000000000000000000e+00,5.000000000000000000e+00,5.000000000000000000e+00,5.000000000000000000e+00,5.000000000000000000e+00,5.000000000000000000e+00,5.000000000000000000e+00,5.000000000000000000e+00,5.000000000000000000e+00,5.000000000000000000e+00,5.000000000000000000e+00,5.000000000000000000e+00,5.000000000000000000e+00,4.875214099884033203e+00,4.681841850280761719e+00,4.503224372863769531e+00,4.337734699249267578e+00,4.183977127075195312e+00,4.040746688842773438e+00,3.906997919082641602e+00,3.781820297241210938e+00,3.664414405822753906e+00,3.554078817367553711e+00,3.450193405151367188e+00,3.352208614349365234e+00,3.259635686874389648e+00,3.172038078308105469e+00,3.089025497436523438e+00,3.010246992111206055e+00,2.935386896133422852e+00,2.864159345626831055e+00,2.796306848526000977e+00,2.731594800949096680e+00,2.669810056686401367e+00,2.610758543014526367e+00,2.554262638092041016e+00,2.500160217285156250e+00,2.448302030563354492e+00,2.398551464080810547e+00,2.350782394409179688e+00,2.304879188537597656e+00,2.260734081268310547e+00,2.218248367309570312e+00,2.177329778671264648e+00,2.137893676757812500e+00,2.099860668182373047e+00,2.063157320022583008e+00,2.027714729309082031e+00,1.993469595909118652e+00,1.960361838340759277e+00,1.928335785865783691e+00,1.897339344024658203e+00,1.867323637008666992e+00
5.000000000000000000e+00,5.000000000000000000e+00,5.000000000000000000e+00,5.000000000000000000e+00,5.000000000000000000e+00,5.000000000000000000e+00,5.000000000000000000e+00,5.000000000000000000e+00,5.000000000000000000e+00,5.000000000000000000e+00,5.000000000000000000e+00,5.000000000000000000e+00,5.000000000000000000e+00,5.000000000000000000e+00,5.000000000000000000e+00,5.000000000000000000e+00,5.000000000000000000e+00,5.000000000000000000e+00,5.000000000000000000e+00,5.000000000000000000e+00,5.000000000000000000e+00,5.000000000000000000e+00,5.000000000000000000e+00,3.797083139419555664e+00,3.610971212387084961e+00,3.629357814788818359e+00,5.000000000000000000e+00,5.000000000000000000e+00,5.000000000000000000e+00,5.000000000000000000e+00,5.000000000000000000e+00,5.000000000000000000e+00,5.000000000000000000e+00,5.000000000000000000e+00,5.000000000000000000e+00,5.000000000000000000e+00,5.000000000000000000e+00,5.000000000000000000e+00,5.000000000000000000e+00,5.000000000000000000e+00,4.875356197357177734e+00,4.681972503662109375e+00,4.503345489501953125e+00,4.337846755981445312e+00,4.184081554412841797e+00,4.040843963623046875e+00,3.907089471817016602e+00,3.781905651092529297e+00,3.664494514465332031e+00,3.554154157638549805e+00,3.450264453887939453e+00,3.352275609970092773e+00,3.259699106216430664e+00,3.172098159790039062e+00,3.089082479476928711e+00,3.010301113128662109e+00,2.935438156127929688e+00,2.864208221435546875e+00,2.796353340148925781e+00,2.731639146804809570e+00,2.669852495193481445e+00,2.610799074172973633e+00,2.554301738739013672e+00,2.500197410583496094e+00,2.448337793350219727e+00,2.398585796356201172e+00,2.350815534591674805e+00,2.304910659790039062e+00,2.260764598846435547e+00,2.218277692794799805e+00,2.177358150482177734e+00,2.137921094894409180e+00,2.099887132644653320e+00,2.063182830810546875e+00,2.027739524841308594e+00,1.993493318557739258e+00,1.960384726524353027e+00,1.928357958793640137e+00,1.897360801696777344e+00,1.867344498634338379e+00
5.000000000000000000e+00,5.000000000000000000e+00,5.000000000000000000e+00,5.000000000000000000e+00,5.000000000000000000e+00,5.000000000000000000e+00,5.000000000000000000e+00,5.000000000000000000e+00,5.000000000000000000e+00,5.000000000000000000e+00,5.000000000000000000e+00,5.000000000000000000e+00,5.000000000000000000e+00,5.000000000000000000e+00,5.000000000000000000e+00,5.000000000000000000e+00,5.000000000000000000e+00,5.000000000000000000e+00,5.000000000000000000e+00,5.000000000000000000e+00,5.000000000000000000e+00,5.000000000000000000e+00,5.000000000000000000e+00,3.809803247451782227e+00,3.643615484237670898e+00,3.646653413772583008e+00,5.000000000000000000e+00,5.000000000000000000e+00,5.000000000000000000e+00,5.000000000000000000e+00,5.000000000000000000e+00,5.000000000000000000e+00,5.000000000000000000e+00,5.000000000000000000e+00,5.000000000000000000e+00,5.000000000000000000e+00,5.000000000000000000e+00,5.000000000000000000e+00,5.000000000000000000e+00,5.000000000000000000e+00,4.875496864318847656e+00,4.682103633880615234e+00,4.503466129302978516e+00,4.337959289550781250e+00,4.184185981750488281e+00,4.040941715240478516e+00,3.907180547714233398e+00,3.781991004943847656e+00,3.664574623107910156e+00,3.554229497909545898e+00,3.450335264205932617e+00,3.352342605590820312e+00,3.259762287139892578e+00,3.172158241271972656e+00,3.089139223098754883e+00,3.010354995727539062e+00,2.935489416122436523e+00,2.864257097244262695e+00,2.796400070190429688e+00,2.731683731079101562e+00,2.669895172119140625e+00,2.610840082168579102e+00,2.554340600967407227e+00,2.500234842300415039e+00,2.448373794555664062e+00,2.398620128631591797e+00,2.350848436355590820e+00,2.304942607879638672e+00,2.260795116424560547e+00,2.218307018280029297e+00,2.177386522293090820e+00,2.137948274612426758e+00,2.099913358688354492e+00,2.063208103179931641e+00,2.027763843536376953e+00,1.993517041206359863e+00,1.960407733917236328e+00,1.928380131721496582e+00,1.897382259368896484e+00,1.867365241050720215e+00
5.000000000000000000e+00,5.000000000000000000e+00,5.000000000000000000e+00,5.000000000000000000e+00,5.000000000000000000e+00,5.000000000000000000e+00,5.000000000000000000e+00,5.000000000000000000e+00,5.000000000000000000e+00,5.000000000000000000e+00,5.000000000000000000e+00,5.000000000000000000e+00,5.000000000000000000e+00,5.000000000000000000e+00,5.000000000000000000e+00,5.000000000000000000e+00,5.000000000000000000e+00,5.000000000000000000e+00,5.000000000000000000e+00,5.000000000000000000e+00,5.000000000000000000e+00,5.000000000000000000e+00,5.000000000000000000e+00,5.000000000000000000e+00,3.675768852233886719e+00,3.660969495773315430e+00,5.000000000000000000e+00,5.000000000000000000e+00,5.000000000000000000e+00,5.000000000000000000e+00,5.000000000000000000e+00,5.000000000000000000e+00,5.000000000000000000e+00,5.000000000000000000e+00,5.000000000000000000e+00,5.000000000000000000e+00,5.000000000000000000e+00,5.000000000000000000e+00,5.000000000000000000e+00,5.000000000000000000e+00,4.875637054443359375e+00,4.682233810424804688e+00,4.503587245941162109e+00,4.338071346282958984e+00,4.184290409088134766e+00,4.041038990020751953e+00,3.907271385192871094e+00,3.782076120376586914e+00,3.664654731750488281e+00,3.554304838180541992e+00,3.450406312942504883e+00,3.352409601211547852e+00,3.259825944900512695e+00,3.172218322753906250e+00,3.089196443557739258e+00,3.010409355163574219e+00,2.935541152954101562e+00,2.864306449890136719e+00,2.796446800231933594e+00,2.731728315353393555e+00,2.669937849044799805e+00,2.610880613327026367e+00,2.554379701614379883e+00,2.500272035598754883e+00,2.448409318923950195e+00,2.398654460906982422e+00,2.350881576538085938e+00,2.304974317550659180e+00,2.260825634002685547e+00,2.218336343765258789e+00,2.177414894104003906e+00,2.137975692749023438e+00,2.099939584732055664e+00,2.063233375549316406e+00,2.027788400650024414e+00,1.993540644645690918e+00,1.960430622100830078e+00,1.928402304649353027e+00,1.897403717041015625e+00,1.867385983467102051e+00
5.000000000000000000e+00,5.000000000000000000e+00,5.000000000000000000e+00,5.000000000000000000e+00,5.000000000000000000e+00,5.000000000000000000e+00,5.000000000000000000e+00,5.000000000000000000e+00,5.000000000000000000e+00,5.000000000000000000e+00,5.000000000000000000e+00,5.000000000000000000e+00,5.000000000000000000e+00,5.000000000000000000e+00,5.000000000000000000e+00,5.000000000000000000e+00,5.000000000000000000e+00,5.000000000000000000e+00,5.000000000000000000e+00,5.000000000000000000e+00,5.000000000000000000e+00,5.000000000000000000e+00,5.000000000000000000e+00,5.000000000000000000e+00,3.675945281982421875e+00,3.665970802307128906e+00,5.000000000000000000e+00,5.000000000000000000e+00,5.000000000000000000e+00,5.000000000000000000e+00,5.000000000000000000e+00,5.000000000000000000e+00,5.000000000000000000e+00,5.000000000000000000e+00,5.000000000000000000e+00,5.000000000000000000e+00,5.000000000000000000e+00,5.000000000000000000e+00,5.000000000000000000e+00,5.000000000000000000e+00,4.875776767730712891e+00,4.682362556457519531e+00,4.503708362579345703e+00,4.338183879852294922e+00,4.184395313262939453e+00,4.041136741638183594e+00,3.907362937927246094e+00,3.782161951065063477e+00,3.664735078811645508e+00,3.554380416870117188e+00,3.450477600097656250e+00,3.352476835250854492e+00,3.259889364242553711e+00,3.172278404235839844e+00,3.089253425598144531e+00,3.010463476181030273e+00,2.935592412948608398e+00,2.864355325698852539e+00,2.796493530273437500e+00,2.731772899627685547e+00,2.669980287551879883e+00,2.610921382904052734e+00,2.554418563842773438e+00,2.500309467315673828e+00,2.448445081710815430e+00,2.398688793182373047e+00,2.350914478302001953e+00,2.305005788803100586e+00,2.260856151580810547e+00,2.218365669250488281e+00,2.177443027496337891e+00,2.138002872467041016e+00,2.099966049194335938e+00,2.063258886337280273e+00,2.027812957763671875e+00,1.993564367294311523e+00,1.960453748703002930e+00,1.928424715995788574e+00,1.897425413131713867e+00,1.867406964302062988e+00
5.000000000000000000e+00,5.000000000000000000e+00,5.000000000000000000e+00,5.000000000000000000e+00,5.000000000000000000e+00,5.000000000000000000e+00,5.000000000000000000e+00,5.000000000000000000e+00,5.000000000000000000e+00,5.000000000000000000e+00,5.000000000000000000e+00,5.000000000000000000e+00,5.000000000000000000e+00,5.000000000000000000e+00,5.000000000000000000e+00,5.000000000000000000e+00,5.000000000000000000e+00,5.000000000000000000e+00,5.000000000000000000e+00,5.000000000000000000e+00,5.000000000000000000e+00,5.000000000000000000e+00,5.000000000000000000e+00,5.000000000000000000e+00,3.676985263824462891e+00,3.676243543624877930e+00,4.269591331481933594e+00,5.000000000000000000e+00,5.000000000000000000e+00,5.000000000000000000e+00,5.000000000000000000e+00,5.000000000000000000e+00,5.000000000000000000e+00,5.000000000000000000e+00,5.000000000000000000e+00,5.000000000000000000e+00,5.000000000000000000e+00,5.000000000000000000e+00,5.000000000000000000e+00,5.000000000000000000e+00,4.875916481018066406e+00,4.682492256164550781e+00,4.503828048706054688e+00,4.338295936584472656e+00,4.184499740600585938e+00,4.041234016418457031e+00,3.907453775405883789e+00,3.782247066497802734e+00,3.664815187454223633e+00,3.554455757141113281e+00,3.450548648834228516e+00,3.352543830871582031e+00,3.259952783584594727e+00,3.172338485717773438e+00,3.089310169219970703e+00,3.010517358779907227e+00,2.935643911361694336e+00,2.864404201507568359e+00,2.796540021896362305e+00,2.731817245483398438e+00,2.670022726058959961e+00,2.610961914062500000e+00,2.554457426071166992e+00,2.500346660614013672e+00,2.448480844497680664e+00,2.398723125457763672e+00,2.350947380065917969e+00,2.305037736892700195e+00,2.260886669158935547e+00,2.218395233154296875e+00,2.177471399307250977e+00,2.138030290603637695e+00,2.099992275238037109e+00,2.063284397125244141e+00,2.027837514877319336e+00,1.993588328361511230e+00,1.960476636886596680e+00,1.928446888923645020e+00,1.897446870803833008e+00,1.867427825927734375e+00
5.000000000000000000e+00,5.000000000000000000e+00,5.000000000000000000e+00,5.000000000000000000e+00,5.000000000000000000e+00,5.000000000000000000e+00,5.000000000000000000e+00,5.000000000000000000e+00,5.000000000000000000e+00,5.000000000000000000e+00,5.000000000000000000e+00,5.000000000000000000e+00,5.000000000000000000e+00,5.000000000000000000e+00,5.000000000000000000e+00,5.000000000000000000e+00,5.000000000000000000e+00,5.000000000000000000e+00,5.000000000000000000e+00,5.000000000000000000e+00,5.000000000000000000e+00,5.000000000000000000e+00,5.000000000000000000e+00,5.000000000000000000e+00,3.681826829910278320e+00,3.689517498016357422e+00,4.229865074157714844e+00,5.000000000000000000e+00,5.000000000000000000e+00,5.000000000000000000e+00,5.000000000000000000e+00,5.000000000000000000e+00,5.000000000000000000e+00,5.000000000000000000e+00,5.000000000000000000e+00,5.000000000000000000e+00,5.000000000000000000e+00,5.000000000000000000e+00,5.000000000000000000e+00,5.000000000000000000e+00,4.876057147979736328e+00,4.682621002197265625e+00,4.503947257995605469e+00,4.338407516479492188e+00,4.184604167938232422e+00,4.041331291198730469e+00,3.907544851303100586e+00,3.782332420349121094e+00,3.664895296096801758e+00,3.554531097412109375e+00,3.450619459152221680e+00,3.352610826492309570e+00,3.260015964508056641e+00,3.172398328781127930e+00,3.089367151260375977e+00,3.010571479797363281e+00,2.935695171356201172e+00,2.864453077316284180e+00,2.796586990356445312e+00,2.731862068176269531e+00,2.670065402984619141e+00,2.611002683639526367e+00,2.554496526718139648e+00,2.500384092330932617e+00,2.448516845703125000e+00,2.398757457733154297e+00,2.350980520248413086e+00,2.305069446563720703e+00,2.260917186737060547e+00,2.218424558639526367e+00,2.177499771118164062e+00,2.138057470321655273e+00,2.100018739700317383e+00,2.063309669494628906e+00,2.027862071990966797e+00,1.993612051010131836e+00,1.960499525070190430e+00,1.928469061851501465e+00,1.897468328475952148e+00,1.867448568344116211e+00
5.000000000000000000e+00,5.000000000000000000e+00,5.000000000000000000e+00,5.000000000000000000e+00,5.000000000000000000e+00,5.000000000000000000e+00,5.000000000000000000e+00,5.000000000000000000e+00,5.000000000000000000e+00,5.000000000000000000e+00,5.000000000000000000e+00,5.000000000000000000e+00,5.000000000000000000e+00,5.000000000000000000e+00,5.000000000000000000e+00,5.000000000000000000e+00,5.000000000000000000e+00,5.000000000000000000e+00,5.000000000000000000e+00,5.000000000000000000e+00,5.000000000000000000e+00,5.000000000000000000e+00,5.000000000000000000e+00,5.000000000000000000e+00,5.000000000000000000e+00,3.714279413223266602e+00,4.217830181121826172e+00,5.000000000000000000e+00,5.000000000000000000e+00,5.000000000000000000e+00,5.000000000000000000e+00,5.000000000000000000e+00,5.000000000000000000e+00,5.000000000000000000e+00,5.000000000000000000e+00,5.000000000000000000e+00,5.000000000000000000e+00,5.000000000000000000e+00,5.000000000000000000e+00,5.000000000000000000e+00,4.876196861267089844e+00,4.682750225067138672e+00,4.504066944122314453e+00,4.338518142700195312e+00,4.184708118438720703e+00,4.041429042816162109e+00,3.907635927200317383e+00,3.782417535781860352e+00,3.664975166320800781e+00,3.554606437683105469e+00,3.450690984725952148e+00,3.352678298950195312e+00,3.260079622268676758e+00,3.172458648681640625e+00,3.089424371719360352e+00,3.010625839233398438e+00,2.935746908187866211e+00,2.864502191543579102e+00,2.796633481979370117e+00,2.731906652450561523e+00,2.670108079910278320e+00,2.611043453216552734e+00,2.554535388946533203e+00,2.500421285629272461e+00,2.448552608489990234e+00,2.398791790008544922e+00,2.351013422012329102e+00,2.305101156234741211e+00,2.260947704315185547e+00,2.218453884124755859e+00,2.177527904510498047e+00,2.138084650039672852e+00,2.100044965744018555e+00,2.063335180282592773e+00,2.027886629104614258e+00,1.993635654449462891e+00,1.960522413253784180e+00,1.928491234779357910e+00,1.897489786148071289e+00,1.867469429969787598e+00
4.872686862945556641e+00,4.871468067169189453e+00,4.870249271392822266e+00,4.869031429290771484e+00,4.867814064025878906e+00,4.866597175598144531e+00,4.865381717681884766e+00,4.864165782928466797e+00,4.862950801849365234e+00,4.861736774444580078e+00,4.860523223876953125e+00,4.859310150146484375e+00,4.858097553253173828e+00,4.856885910034179688e+00,4.855674743652343750e+00,4.854464054107666016e+00,4.853254318237304688e+00,4.852045059204101562e+00,4.850835800170898438e+00,4.849627971649169922e+00,4.848420143127441406e+00,4.847213745117187500e+00,4.846006870269775391e+00,4.844800949096679688e+00,3.648017168045043945e+00,3.714483976364135742e+00,4.214155197143554688e+00,4.839983940124511719e+00,4.838780879974365234e+00,4.837579250335693359e+00,4.836377143859863281e+00,4.835175991058349609e+00,4.833975791931152344e+00,4.832776069641113281e+00,4.831576824188232422e+00,4.830378055572509766e+00,4.829179763793945312e+00,4.827982902526855469e+00,4.826786041259765625e+00,4.825589656829833984e+00,4.824394226074218750e+00,4.682879447937011719e+00,4.504186153411865234e+00,4.338629245758056641e+00,4.184811115264892578e+00,4.041526317596435547e+00,3.907727241516113281e+00,3.782503366470336914e+00,3.665055751800537109e+00,3.554682016372680664e+00,3.450761795043945312e+00,3.352745294570922852e+00,3.260143041610717773e+00,3.172518730163574219e+00,3.089481115341186523e+00,3.010679721832275391e+00,2.935798168182373047e+00,2.864551067352294922e+00,2.796680212020874023e+00,2.731950998306274414e+00,2.670150518417358398e+00,2.611083984375000000e+00,2.554574251174926758e+00,2.500458478927612305e+00,2.448588371276855469e+00,2.398826122283935547e+00,2.351046323776245117e+00,2.305132627487182617e+00,2.260978221893310547e+00,2.218483209609985352e+00,2.177556276321411133e+00,2.138112068176269531e+00,2.100071191787719727e+00,2.063360691070556641e+00,2.027911186218261719e+00,1.993659377098083496e+00,1.960545301437377930e+00,1.928513407707214355e+00,1.897511243820190430e+00,1.867490172386169434e+00
3.777202129364013672e+00,3.776469707489013672e+00,3.775737524032592773e+00,3.775005578994750977e+00,3.774273633956909180e+00,3.773542165756225586e+00,3.772811174392700195e+00,3.772079944610595703e+00,3.771349430084228516e+00,3.770619153976440430e+00,3.769888877868652344e+00,3.769159317016601562e+00,3.768429994583129883e+00,3.767700910568237305e+00,3.766971588134765625e+00,3.766243219375610352e+00,3.765514850616455078e+00,3.764786481857299805e+00,3.764058828353881836e+00,3.763331413269042969e+00,3.762603998184204102e+00,3.761877059936523438e+00,3.761150598526000977e+00,3.563567876815795898e+00,3.578297138214111328e+00,3.758972167968750000e+00,3.758246898651123047e+00,3.757521152496337891e+00,3.756796360015869141e+00,3.756071805953979492e+00,3.755347013473510742e+00,3.754622936248779297e+00,3.753899335861206055e+00,3.753175735473632812e+00,3.752452135086059570e+00,3.751729249954223633e+00,3.751006603240966797e+00,3.750283956527709961e+00,3.749561786651611328e+00,3.748840093612670898e+00,3.748118162155151367e+00,3.747396945953369141e+00,3.746675968170166016e+00,3.745954751968383789e+00,3.745234489440917969e+00,3.744514226913452148e+00,3.743794441223144531e+00,3.743074417114257812e+00,3.665135860443115234e+00,3.554757356643676758e+00,3.450832843780517578e+00,3.352812290191650391e+00,3.260206460952758789e+00,3.172578573226928711e+00,3.089538097381591797e+00,3.010733842849731445e+00,2.935849666595458984e+00,2.864599943161010742e+00,2.796726703643798828e+00,2.731995582580566406e+00,2.670192956924438477e+00,2.611124753952026367e+00,2.554613113403320312e+00,2.500495910644531250e+00,2.448624134063720703e+00,2.398860454559326172e+00,2.351079463958740234e+00,2.305164575576782227e+00,2.261008739471435547e+00,2.218512773513793945e+00,2.177584648132324219e+00,2.138139486312866211e+00,2.100097656250000000e+00,2.063385963439941406e+00,2.027935743331909180e+00,1.993683099746704102e+00,1.960568308830261230e+00,1.928535580635070801e+00,1.897532701492309570e+00,1.867510914802551270e+00
3.083880186080932617e+00,3.083391666412353516e+00,3.082903385162353516e+00,3.082415580749511719e+00,3.081927537918090820e+00,3.081439733505249023e+00,3.080952167510986328e+00,3.080464839935302734e+00,3.079977512359619141e+00,3.079490423202514648e+00,3.079003572463989258e+00,3.078516483306884766e+00,3.078029870986938477e+00,3.077543497085571289e+00,3.077056884765625000e+00,3.076570749282836914e+00,3.076084852218627930e+00,3.075598716735839844e+00,3.075113058090209961e+00,3.074627637863159180e+00,3.074142217636108398e+00,3.073656797409057617e+00,3.073171854019165039e+00,3.072686910629272461e+00,3.072201728820800781e+00,3.071717262268066406e+00,3.071232795715332031e+00,3.070748329162597656e+00,3.070264101028442383e+00,3.069780111312866211e+00,3.069296360015869141e+00,3.068812370300292969e+00,3.068328857421875000e+00,3.067845582962036133e+00,3.067362070083618164e+00,3.066879034042358398e+00,3.066395998001098633e+00,3.065913200378417969e+00,3.065430641174316406e+00,3.064948081970214844e+00,3.064465522766113281e+00,3.063983440399169922e+00,3.063501358032226562e+00,3.063019514083862305e+00,3.062537670135498047e+00,3.062056064605712891e+00,3.061574697494506836e+00,3.061093091964721680e+00,3.060611963272094727e+00,3.060131072998046875e+00,3.059650182723999023e+00,3.059169530868530273e+00,3.058688879013061523e+00,3.058208703994750977e+00,3.057728052139282227e+00,3.010787725448608398e+00,2.935901165008544922e+00,2.864649057388305664e+00,2.796773672103881836e+00,2.732040166854858398e+00,2.670235633850097656e+00,2.611165523529052734e+00,2.554652214050292969e+00,2.500533342361450195e+00,2.448659896850585938e+00,2.398894786834716797e+00,2.351112365722656250e+00,2.305196285247802734e+00,2.261039257049560547e+00,2.218542098999023438e+00,2.177612781524658203e+00,2.138166666030883789e+00,2.100123882293701172e+00,2.063411474227905273e+00,2.027960300445556641e+00,1.993706703186035156e+00,1.960591197013854980e+00,1.928557753562927246e+00,1.897554159164428711e+00,1.867531776428222656e+00
2.605608940124511719e+00,2.605260133743286133e+00,2.604911565780639648e+00,2.604563236236572266e+00,2.604214906692504883e+00,2.603866577148437500e+00,2.603518486022949219e+00,2.603170394897460938e+00,2.602822303771972656e+00,2.602474451065063477e+00,2.602126836776733398e+00,2.601778984069824219e+00,2.601431369781494141e+00,2.601083993911743164e+00,2.600736618041992188e+00,2.600389003753662109e+00,2.600041866302490234e+00,2.599694728851318359e+00,2.599347591400146484e+00,2.599000692367553711e+00,2.598653793334960938e+00,2.598306894302368164e+00,2.597960233688354492e+00,2.597613811492919922e+00,2.597267150878906250e+00,2.596920728683471680e+00,2.596574544906616211e+00,2.596228361129760742e+00,2.595882177352905273e+00,2.595536231994628906e+00,2.595190286636352539e+00,2.594844341278076172e+00,2.594498634338378906e+00,2.594152927398681641e+00,2.593807220458984375e+00,2.593461751937866211e+00,2.593116521835327148e+00,2.592771291732788086e+00,2.592425823211669922e+00,2.592080831527709961e+00,2.591735839843750000e+00,2.591390848159790039e+00,2.591046094894409180e+00,2.590701341629028320e+00,2.590356588363647461e+00,2.590012073516845703e+00,2.589667558670043945e+00,2.589323282241821289e+00,2.588978767395019531e+00,2.588634729385375977e+00,2.588290691375732422e+00,2.587946414947509766e+00,2.587602615356445312e+00,2.587258815765380859e+00,2.586915016174316406e+00,2.586571455001831055e+00,2.586227893829345703e+00,2.585884332656860352e+00,2.585541009902954102e+00,2.585197687149047852e+00,2.584854602813720703e+00,2.584511518478393555e+00,2.554691076278686523e+00,2.500570535659790039e+00,2.448695659637451172e+00,2.398929119110107422e+00,2.351145267486572266e+00,2.305227994918823242e+00,2.261069774627685547e+00,2.218571424484252930e+00,2.177641153335571289e+00,2.138193845748901367e+00,2.100150346755981445e+00,2.063436746597290039e+00,2.027984857559204102e+00,1.993730425834655762e+00,1.960614085197448730e+00,1.928579926490783691e+00,1.897575616836547852e+00,1.867552757263183594e+00
2.255749464035034180e+00,2.255490303039550781e+00,2.255231142044067383e+00,2.254972219467163086e+00,2.254713296890258789e+00,2.254454374313354492e+00,2.254195451736450195e+00,2.253936767578125000e+00,2.253678083419799805e+00,2.253417968750000000e+00,2.253157138824462891e+00,2.252896547317504883e+00,2.252635955810546875e+00,2.252375364303588867e+00,2.252114772796630859e+00,2.251854181289672852e+00,2.251593828201293945e+00,2.251333713531494141e+00,2.251073360443115234e+00,2.250813007354736328e+00,2.250552892684936523e+00,2.250293016433715820e+00,2.250032901763916016e+00,2.249772787094116211e+00,2.249512910842895508e+00,2.249253034591674805e+00,2.248993158340454102e+00,2.248733520507812500e+00,2.248473882675170898e+00,2.248214244842529297e+00,2.247954607009887695e+00,2.247695207595825195e+00,2.247435808181762695e+00,2.247176408767700195e+00,2.246917009353637695e+00,2.246657848358154297e+00,2.246398687362670898e+00,2.246139526367187500e+00,2.245880365371704102e+00,2.245621442794799805e+00,2.245362281799316406e+00,2.245103359222412109e+00,2.244844675064086914e+00,2.244585752487182617e+00,2.244327068328857422e+00,2.244068384170532227e+00,2.243809938430786133e+00,2.243551254272460938e+00,2.243292808532714844e+00,2.243034362792968750e+00,2.242776155471801758e+00,2.242517709732055664e+00,2.242259502410888672e+00,2.242001295089721680e+00,2.241743087768554688e+00,2.241485118865966797e+00,2.241227149963378906e+00,2.240969181060791016e+00,2.240711212158203125e+00,2.240453481674194336e+00,2.240195751190185547e+00,2.239937782287597656e+00,2.239680290222167969e+00,2.239422798156738281e+00,2.239165067672729492e+00,2.238907575607299805e+00,2.238650321960449219e+00,2.238392829895019531e+00,2.238135576248168945e+00,2.218600749969482422e+00,2.177669525146484375e+00,2.138221263885498047e+00,2.100176572799682617e+00,2.063462257385253906e+00,2.028009414672851562e+00,1.993754386901855469e+00,1.960637211799621582e+00,1.928602218627929688e+00,1.897597312927246094e+00,1.867573499679565430e+00
1.988607287406921387e+00,1.988406062126159668e+00,1.988204598426818848e+00,1.988003373146057129e+00,1.987802028656005859e+00,1.987600922584533691e+00,1.987399578094482422e+00,1.987198591232299805e+00,1.986997365951538086e+00,1.986796379089355469e+00,1.986595273017883301e+00,1.986394405364990234e+00,1.986193299293518066e+00,1.985992550849914551e+00,1.985791563987731934e+00,1.985590815544128418e+00,1.985389947891235352e+00,1.985189318656921387e+00,1.984988451004028320e+00,1.984787940979003906e+00,1.984587192535400391e+00,1.984386682510375977e+00,1.984186053276062012e+00,1.983985662460327148e+00,1.983785152435302734e+00,1.983584880828857422e+00,1.983384370803833008e+00,1.983184099197387695e+00,1.982983708381652832e+00,1.982783555984497070e+00,1.982583284378051758e+00,1.982383251190185547e+00,1.982182979583740234e+00,1.981982946395874023e+00,1.981782793998718262e+00,1.981582880020141602e+00,1.981382846832275391e+00,1.981182932853698730e+00,1.980983018875122070e+00,1.980783224105834961e+00,1.980583310127258301e+00,1.980383634567260742e+00,1.980183839797973633e+00,1.979984283447265625e+00,1.979784488677978516e+00,1.979584932327270508e+00,1.979385256767272949e+00,1.979185819625854492e+00,1.978986263275146484e+00,1.978786945343017578e+00,1.978587388992309570e+00,1.978387951850891113e+00,1.978188633918762207e+00,1.977989315986633301e+00,1.977790117263793945e+00,1.977590799331665039e+00,1.977391719818115234e+00,1.977192521095275879e+00,1.976993560791015625e+00,1.976794362068176270e+00,1.976595520973205566e+00,1.976396441459655762e+00,1.976197600364685059e+00,1.975998520851135254e+00,1.975799798965454102e+00,1.975600957870483398e+00,1.975402235984802246e+00,1.975203394889831543e+00,1.975004792213439941e+00,1.974806070327758789e+00,1.974607586860656738e+00,1.974408864974975586e+00,1.974210500717163086e+00,1.974011898040771484e+00,1.973813533782958984e+00,1.973615050315856934e+00,1.960660099983215332e+00,1.928624391555786133e+00,1.897618770599365234e+00,1.867594361305236816e+00
1.778039336204528809e+00,1.777878165245056152e+00,1.777717351913452148e+00,1.777556300163269043e+00,1.777395486831665039e+00,1.777234435081481934e+00,1.777073740959167480e+00,1.776912808418273926e+00,1.776752114295959473e+00,1.776591181755065918e+00,1.776430606842041016e+00,1.776269793510437012e+00,1.776109218597412109e+00,1.775948405265808105e+00,1.775787949562072754e+00,1.775627255439758301e+00,1.775466680526733398e+00,1.775306105613708496e+00,1.775145649909973145e+00,1.774985074996948242e+00,1.774824738502502441e+00,1.774664282798767090e+00,1.774503946304321289e+00,1.774343490600585938e+00,1.774183273315429688e+00,1.774022817611694336e+00,1.773862719535827637e+00,1.773702383041381836e+00,1.773542165756225586e+00,1.773381948471069336e+00,1.773221850395202637e+00,1.773061633110046387e+00,1.772901654243469238e+00,1.772741436958312988e+00,1.772581458091735840e+00,1.772421360015869141e+00,1.772261500358581543e+00,1.772101402282714844e+00,1.771941542625427246e+00,1.771781563758850098e+00,1.771621823310852051e+00,1.771461844444274902e+00,1.771302103996276855e+00,1.771142244338989258e+00,1.770982623100280762e+00,1.770822763442993164e+00,1.770663142204284668e+00,1.770503401756286621e+00,1.770343899726867676e+00,1.770184159278869629e+00,1.770024657249450684e+00,1.769865036010742188e+00,1.769705533981323242e+00,1.769545912742614746e+00,1.769386529922485352e+00,1.769227027893066406e+00,1.769067764282226562e+00,1.768908262252807617e+00,1.768748998641967773e+00,1.768589615821838379e+00,1.768430352210998535e+00,1.768270969390869141e+00,1.768111824989318848e+00,1.767952561378479004e+00,1.767793416976928711e+00,1.767634153366088867e+00,1.767475128173828125e+00,1.767315983772277832e+00,1.767156958580017090e+00,1.766997933387756348e+00,1.766838788986206055e+00,1.766679883003234863e+00,1.766520857810974121e+00,1.766362071037292480e+00,1.766203045845031738e+00,1.766044259071350098e+00,1.765885353088378906e+00,1.765726566314697266e+00,1.765567779541015625e+00,1.765409111976623535e+00
1.607794404029846191e+00,1.607662677764892578e+00,1.607531189918518066e+00,1.607399463653564453e+00,1.607267975807189941e+00,1.607136368751525879e+00,1.607004880905151367e+00,1.606873273849487305e+00,1.606741905212402344e+00,1.606610298156738281e+00,1.606478810310363770e+00,1.606347441673278809e+00,1.606215953826904297e+00,1.606084585189819336e+00,1.605953216552734375e+00,1.605821967124938965e+00,1.605690479278564453e+00,1.605559229850769043e+00,1.605427980422973633e+00,1.605296730995178223e+00,1.605165362358093262e+00,1.605034232139587402e+00,1.604902982711791992e+00,1.604771852493286133e+00,1.604640722274780273e+00,1.604509592056274414e+00,1.604378461837768555e+00,1.604247450828552246e+00,1.604116320610046387e+00,1.603985309600830078e+00,1.603854179382324219e+00,1.603723287582397461e+00,1.603592157363891602e+00,1.603461265563964844e+00,1.603330254554748535e+00,1.603199481964111328e+00,1.603068470954895020e+00,1.602937698364257812e+00,1.602806806564331055e+00,1.602676033973693848e+00,1.602545142173767090e+00,1.602414369583129883e+00,1.602283596992492676e+00,1.602152824401855469e+00,1.602022051811218262e+00,1.601891398429870605e+00,1.601760745048522949e+00,1.601630091667175293e+00,1.601499438285827637e+00,1.601368784904479980e+00,1.601238131523132324e+00,1.601107716560363770e+00,1.600977063179016113e+00,1.600846529006958008e+00,1.600715994834899902e+00,1.600585579872131348e+00,1.600455045700073242e+00,1.600324630737304688e+00,1.600194215774536133e+00,1.600063800811767578e+00,1.599933266639709473e+00,1.599803090095520020e+00,1.599672675132751465e+00,1.599542379379272461e+00,1.599411964416503906e+00,1.599281787872314453e+00,1.599151492118835449e+00,1.599021315574645996e+00,1.598891019821166992e+00,1.598760843276977539e+00,1.598630666732788086e+00,1.598500609397888184e+00,1.598370313644409180e+00,1.598240375518798828e+00,1.598110198974609375e+00,1.597980141639709473e+00,1.597850084304809570e+00,1.597720146179199219e+00,1.597589969635009766e+00,1.597460150718688965e+00
1.467302203178405762e+00,1.467192530632019043e+00,1.467082858085632324e+00,1.466973304748535156e+00,1.466863632202148438e+00,1.466754078865051270e+00,1.466644525527954102e+00,1.466534972190856934e+00,1.466425418853759766e+00,1.466315984725952148e+00,1.466206431388854980e+00,1.466096997261047363e+00,1.465987443923950195e+00,1.465878009796142578e+00,1.465768575668334961e+00,1.465659141540527344e+00,1.465549707412719727e+00,1.465440392494201660e+00,1.465330958366394043e+00,1.465221643447875977e+00,1.465112328529357910e+00,1.465003013610839844e+00,1.464893698692321777e+00,1.464784383773803711e+00,1.464675068855285645e+00,1.464565873146057129e+00,1.464456558227539062e+00,1.464347481727600098e+00,1.464238166809082031e+00,1.464129090309143066e+00,1.464019775390625000e+00,1.463910579681396484e+00,1.463801503181457520e+00,1.463692307472229004e+00,1.463583230972290039e+00,1.463474154472351074e+00,1.463365077972412109e+00,1.463256001472473145e+00,1.463147044181823730e+00,1.463037848472595215e+00,1.462928891181945801e+00,1.462819933891296387e+00,1.462710976600646973e+00,1.462601900100708008e+00,1.462493062019348145e+00,1.462384104728698730e+00,1.462275266647338867e+00,1.462166309356689453e+00,1.462057471275329590e+00,1.461948513984680176e+00,1.461839795112609863e+00,1.461730837821960449e+00,1.461622118949890137e+00,1.461513280868530273e+00,1.461404561996459961e+00,1.461295723915100098e+00,1.461187005043029785e+00,1.461078166961669922e+00,1.460969567298889160e+00,1.460860729217529297e+00,1.460752129554748535e+00,1.460643410682678223e+00,1.460534811019897461e+00,1.460426092147827148e+00,1.460317611694335938e+00,1.460208892822265625e+00,1.460100412368774414e+00,1.459991693496704102e+00,1.459883213043212891e+00,1.459774613380432129e+00,1.459666132926940918e+00,1.459557652473449707e+00,1.459449172019958496e+00,1.459340691566467285e+00,1.459232211112976074e+00,1.459123730659484863e+00,1.459015369415283203e+00,1.458906888961791992e+00,1.458798527717590332e+00,1.458690166473388672e+00
1.349389791488647461e+00,1.349297046661376953e+00,1.349204301834106445e+00,1.349111557006835938e+00,1.349018931388854980e+00,1.348926186561584473e+00,1.348833560943603516e+00,1.348740935325622559e+00,1.348648309707641602e+00,1.348555564880371094e+00,1.348463058471679688e+00,1.348370432853698730e+00,1.348277807235717773e+00,1.348185181617736816e+00,1.348092675209045410e+00,1.348000049591064453e+00,1.347907662391662598e+00,1.347815036773681641e+00,1.347722530364990234e+00,1.347630023956298828e+00,1.347537517547607422e+00,1.347445011138916016e+00,1.347352623939514160e+00,1.347260117530822754e+00,1.347167730331420898e+00,1.347075343132019043e+00,1.346982955932617188e+00,1.346890449523925781e+00,1.346798181533813477e+00,1.346705675125122070e+00,1.346613407135009766e+00,1.346521019935607910e+00,1.346428751945495605e+00,1.346336364746093750e+00,1.346244096755981445e+00,1.346151709556579590e+00,1.346059441566467285e+00,1.345967173576354980e+00,1.345874905586242676e+00,1.345782637596130371e+00,1.345690488815307617e+00,1.345598101615905762e+00,1.345505952835083008e+00,1.345413684844970703e+00,1.345321655273437500e+00,1.345229387283325195e+00,1.345137238502502441e+00,1.345045089721679688e+00,1.344952940940856934e+00,1.344860792160034180e+00,1.344768643379211426e+00,1.344676613807678223e+00,1.344584465026855469e+00,1.344492435455322266e+00,1.344400286674499512e+00,1.344308257102966309e+00,1.344216227531433105e+00,1.344124197959899902e+00,1.344032168388366699e+00,1.343940258026123047e+00,1.343848228454589844e+00,1.343756318092346191e+00,1.343664288520812988e+00,1.343572378158569336e+00,1.343480348587036133e+00,1.343388557434082031e+00,1.343296527862548828e+00,1.343204736709594727e+00,1.343112707138061523e+00,1.343020915985107422e+00,1.342929005622863770e+00,1.342837214469909668e+00,1.342745304107666016e+00,1.342653512954711914e+00,1.342561721801757812e+00,1.342469930648803711e+00,1.342378139495849609e+00,1.342286348342895508e+00,1.342194557189941406e+00,1.342102885246276855e+00
1.249018669128417969e+00,1.248939275741577148e+00,1.248859763145446777e+00,1.248780369758605957e+00,1.248700976371765137e+00,1.248621582984924316e+00,1.248542070388793945e+00,1.248462796211242676e+00,1.248383402824401855e+00,1.248304009437561035e+00,1.248224616050720215e+00,1.248145341873168945e+00,1.248065948486328125e+00,1.247986674308776855e+00,1.247907280921936035e+00,1.247828006744384766e+00,1.247748613357543945e+00,1.247669458389282227e+00,1.247590065002441406e+00,1.247510910034179688e+00,1.247431516647338867e+00,1.247352361679077148e+00,1.247273087501525879e+00,1.247193932533264160e+00,1.247114658355712891e+00,1.247035503387451172e+00,1.246956229209899902e+00,1.246877074241638184e+00,1.246797800064086914e+00,1.246718764305114746e+00,1.246639490127563477e+00,1.246560454368591309e+00,1.246481180191040039e+00,1.246402144432067871e+00,1.246322989463806152e+00,1.246243953704833984e+00,1.246164798736572266e+00,1.246085762977600098e+00,1.246006608009338379e+00,1.245927572250366211e+00,1.245848417282104492e+00,1.245769500732421875e+00,1.245690345764160156e+00,1.245611429214477539e+00,1.245532393455505371e+00,1.245453357696533203e+00,1.245374321937561035e+00,1.245295405387878418e+00,1.245216369628906250e+00,1.245137453079223633e+00,1.245058417320251465e+00,1.244979500770568848e+00,1.244900584220886230e+00,1.244821667671203613e+00,1.244742751121520996e+00,1.244663834571838379e+00,1.244584918022155762e+00,1.244506001472473145e+00,1.244427084922790527e+00,1.244348287582397461e+00,1.244269371032714844e+00,1.244190573692321777e+00,1.244111657142639160e+00,1.244032979011535645e+00,1.243954062461853027e+00,1.243875265121459961e+00,1.243796467781066895e+00,1.243717670440673828e+00,1.243638873100280762e+00,1.243560194969177246e+00,1.243481397628784180e+00,1.243402600288391113e+00,1.243323922157287598e+00,1.243245124816894531e+00,1.243166446685791016e+00,1.243087649345397949e+00,1.243009090423583984e+00,1.242930293083190918e+00,1.242851614952087402e+00,1.242772936820983887e+00
1.162545561790466309e+00,1.162476778030395508e+00,1.162407994270324707e+00,1.162339210510253906e+00,1.162270307540893555e+00,1.162201523780822754e+00,1.162132740020751953e+00,1.162063956260681152e+00,1.161995172500610352e+00,1.161926507949829102e+00,1.161857604980468750e+00,1.161788821220397949e+00,1.161720156669616699e+00,1.161651372909545898e+00,1.161582708358764648e+00,1.161513924598693848e+00,1.161445260047912598e+00,1.161376476287841797e+00,1.161307930946350098e+00,1.161239147186279297e+00,1.161170482635498047e+00,1.161101818084716797e+00,1.161033153533935547e+00,1.160964488983154297e+00,1.160895943641662598e+00,1.160827159881591797e+00,1.160758614540100098e+00,1.160689949989318848e+00,1.160621404647827148e+00,1.160552740097045898e+00,1.160484194755554199e+00,1.160415530204772949e+00,1.160346984863281250e+00,1.160278439521789551e+00,1.160209894180297852e+00,1.160141229629516602e+00,1.160072803497314453e+00,1.160004138946533203e+00,1.159935712814331055e+00,1.159867167472839355e+00,1.159798622131347656e+00,1.159730076789855957e+00,1.159661650657653809e+00,1.159593105316162109e+00,1.159524679183959961e+00,1.159456133842468262e+00,1.159387707710266113e+00,1.159319281578063965e+00,1.159250855445861816e+00,1.159182310104370117e+00,1.159114003181457520e+00,1.159045457839965820e+00,1.158977150917053223e+00,1.158908605575561523e+00,1.158840298652648926e+00,1.158771872520446777e+00,1.158703446388244629e+00,1.158635139465332031e+00,1.158566713333129883e+00,1.158498406410217285e+00,1.158429980278015137e+00,1.158361673355102539e+00,1.158293366432189941e+00,1.158225059509277344e+00,1.158156752586364746e+00,1.158088326454162598e+00,1.158020138740539551e+00,1.157951831817626953e+00,1.157883524894714355e+00,1.157815217971801758e+00,1.157747030258178711e+00,1.157678723335266113e+00,1.157610416412353516e+00,1.157542228698730469e+00,1.157473921775817871e+00,1.157405734062194824e+00,1.157337546348571777e+00,1.157269239425659180e+00,1.157201051712036133e+00,1.157132863998413086e+00
1.087270736694335938e+00,1.087210536003112793e+00,1.087150335311889648e+00,1.087090134620666504e+00,1.087029933929443359e+00,1.086969733238220215e+00,1.086909651756286621e+00,1.086849451065063477e+00,1.086789250373840332e+00,1.086729049682617188e+00,1.086668968200683594e+00,1.086608767509460449e+00,1.086548686027526855e+00,1.086488604545593262e+00,1.086428523063659668e+00,1.086368322372436523e+00,1.086308240890502930e+00,1.086248159408569336e+00,1.086188077926635742e+00,1.086127877235412598e+00,1.086067914962768555e+00,1.086007833480834961e+00,1.085947751998901367e+00,1.085887670516967773e+00,1.085827589035034180e+00,1.085767507553100586e+00,1.085707545280456543e+00,1.085647463798522949e+00,1.085587501525878906e+00,1.085527420043945312e+00,1.085467338562011719e+00,1.085407376289367676e+00,1.085347414016723633e+00,1.085287451744079590e+00,1.085227370262145996e+00,1.085167407989501953e+00,1.085107445716857910e+00,1.085047483444213867e+00,1.084987521171569824e+00,1.084927558898925781e+00,1.084867596626281738e+00,1.084807753562927246e+00,1.084747791290283203e+00,1.084687829017639160e+00,1.084627866744995117e+00,1.084568023681640625e+00,1.084508061408996582e+00,1.084448218345642090e+00,1.084388256072998047e+00,1.084328413009643555e+00,1.084268569946289062e+00,1.084208726882934570e+00,1.084148764610290527e+00,1.084088921546936035e+00,1.084029078483581543e+00,1.083969235420227051e+00,1.083909392356872559e+00,1.083849549293518066e+00,1.083789706230163574e+00,1.083729982376098633e+00,1.083670020103454590e+00,1.083610296249389648e+00,1.083550453186035156e+00,1.083490729331970215e+00,1.083430886268615723e+00,1.083371162414550781e+00,1.083311319351196289e+00,1.083251595497131348e+00,1.083191752433776855e+00,1.083132028579711914e+00,1.083072304725646973e+00,1.083012580871582031e+00,1.082952857017517090e+00,1.082893133163452148e+00,1.082833409309387207e+00,1.082773685455322266e+00,1.082713961601257324e+00,1.082654237747192383e+00,1.082594513893127441e+00,1.082534909248352051e+00
1.021151185035705566e+00,1.021098017692565918e+00,1.021044969558715820e+00,1.020991921424865723e+00,1.020938754081726074e+00,1.020885705947875977e+00,1.020832538604736328e+00,1.020779490470886230e+00,1.020726442337036133e+00,1.020673394203186035e+00,1.020620346069335938e+00,1.020567297935485840e+00,1.020514249801635742e+00,1.020461201667785645e+00,1.020408153533935547e+00,1.020355105400085449e+00,1.020302057266235352e+00,1.020249128341674805e+00,1.020196080207824707e+00,1.020143032073974609e+00,1.020090103149414062e+00,1.020037055015563965e+00,1.019984006881713867e+00,1.019931077957153320e+00,1.019878149032592773e+00,1.019825220108032227e+00,1.019772171974182129e+00,1.019719243049621582e+00,1.019666194915771484e+00,1.019613265991210938e+00,1.019560337066650391e+00,1.019507408142089844e+00,1.019454479217529297e+00,1.019401550292968750e+00,1.019348621368408203e+00,1.019295692443847656e+00,1.019242763519287109e+00,1.019189953804016113e+00,1.019137024879455566e+00,1.019084095954895020e+00,1.019031167030334473e+00,1.018978357315063477e+00,1.018925428390502930e+00,1.018872618675231934e+00,1.018819689750671387e+00,1.018766880035400391e+00,1.018713951110839844e+00,1.018661141395568848e+00,1.018608212471008301e+00,1.018555402755737305e+00,1.018502593040466309e+00,1.018449664115905762e+00,1.018396854400634766e+00,1.018344044685363770e+00,1.018291234970092773e+00,1.018238425254821777e+00,1.018185615539550781e+00,1.018132805824279785e+00,1.018080115318298340e+00,1.018027305603027344e+00,1.017974495887756348e+00,1.017921686172485352e+00,1.017868995666503906e+00,1.017816185951232910e+00,1.017763376235961914e+00,1.017710685729980469e+00,1.017657876014709473e+00,1.017605185508728027e+00,1.017552495002746582e+00,1.017499685287475586e+00,1.017446994781494141e+00,1.017394185066223145e+00,1.017341494560241699e+00,1.017288804054260254e+00,1.017236113548278809e+00,1.017183423042297363e+00,1.017130732536315918e+00,1.017078042030334473e+00,1.017025351524353027e+00,1.016972661018371582e+00
9.626124501228332520e-01,9.625651836395263672e-01,9.625180363655090332e-01,9.624708294868469238e-01,9.624236822128295898e-01,9.623764157295227051e-01,9.623292684555053711e-01,9.622821211814880371e-01,9.622350335121154785e-01,9.621877670288085938e-01,9.621406793594360352e-01,9.620935320854187012e-01,9.620464444160461426e-01,9.619991779327392578e-01,9.619520902633666992e-01,9.619050025939941406e-01,9.618579149246215820e-01,9.618107080459594727e-01,9.617636203765869141e-01,9.617165327072143555e-01,9.616694450378417969e-01,9.616222977638244629e-01,9.615752100944519043e-01,9.615281820297241211e-01,9.614810943603515625e-01,9.614339470863342285e-01,9.613868594169616699e-01,9.613398313522338867e-01,9.612928032875061035e-01,9.612456560134887695e-01,9.611986279487609863e-01,9.611515998840332031e-01,9.611045718193054199e-01,9.610574245452880859e-01,9.610104560852050781e-01,9.609634280204772949e-01,9.609163999557495117e-01,9.608693122863769531e-01,9.608223438262939453e-01,9.607753157615661621e-01,9.607283473014831543e-01,9.606812596321105957e-01,9.606342911720275879e-01,9.605873227119445801e-01,9.605403542518615723e-01,9.604932665824890137e-01,9.604462981224060059e-01,9.603993892669677734e-01,9.603524208068847656e-01,9.603053331375122070e-01,9.602584242820739746e-01,9.602114558219909668e-01,9.601645469665527344e-01,9.601175189018249512e-01,9.600706100463867188e-01,9.600237011909484863e-01,9.599767923355102539e-01,9.599297642707824707e-01,9.598828554153442383e-01,9.598359465599060059e-01,9.597890377044677734e-01,9.597420692443847656e-01,9.596951603889465332e-01,9.596483111381530762e-01,9.596014022827148438e-01,9.595544338226318359e-01,9.595075845718383789e-01,9.594607353210449219e-01,9.594138264656066895e-01,9.593668580055236816e-01,9.593200683593750000e-01,9.592732191085815430e-01,9.592262506484985352e-01,9.591794013977050781e-01,9.591326117515563965e-01,9.590857625007629395e-01,9.590388536453247070e-01,9.589920043945312500e-01,9.589452147483825684e-01,9.588984251022338867e-01
9.104213714599609375e-01,9.103791117668151855e-01,9.103369116783142090e-01,9.102947115898132324e-01,9.102525711059570312e-01,9.102102518081665039e-01,9.101681113243103027e-01,9.101259112358093262e-01,9.100837707519531250e-01,9.100415110588073730e-01,9.099993705749511719e-01,9.099572300910949707e-01,9.099149703979492188e-01,9.098728299140930176e-01,9.098306894302368164e-01,9.097885489463806152e-01,9.097463488578796387e-01,9.097042083740234375e-01,9.096620678901672363e-01,9.096199274063110352e-01,9.095777273178100586e-01,9.095356464385986328e-01,9.094935059547424316e-01,9.094514250755310059e-01,9.094092249870300293e-01,9.093671441078186035e-01,9.093250036239624023e-01,9.092829227447509766e-01,9.092407822608947754e-01,9.091987013816833496e-01,9.091566205024719238e-01,9.091145396232604980e-01,9.090723395347595215e-01,9.090303182601928711e-01,9.089882373809814453e-01,9.089462161064147949e-01,9.089040160179138184e-01,9.088619947433471680e-01,9.088199138641357422e-01,9.087778925895690918e-01,9.087357521057128906e-01,9.086937308311462402e-01,9.086517095565795898e-01,9.086096882820129395e-01,9.085675477981567383e-01,9.085255265235900879e-01,9.084835052490234375e-01,9.084415435791015625e-01,9.083994030952453613e-01,9.083574414253234863e-01,9.083154201507568359e-01,9.082733988761901855e-01,9.082313179969787598e-01,9.081893563270568848e-01,9.081473946571350098e-01,9.081053733825683594e-01,9.080632925033569336e-01,9.080213308334350586e-01,9.079793691635131836e-01,9.079374074935913086e-01,9.078953862190246582e-01,9.078534245491027832e-01,9.078114628791809082e-01,9.077695012092590332e-01,9.077274799346923828e-01,9.076855182647705078e-01,9.076435565948486328e-01,9.076016545295715332e-01,9.075596332550048828e-01,9.075176715850830078e-01,9.074757695198059082e-01,9.074338674545288086e-01,9.073918461799621582e-01,9.073499441146850586e-01,9.073080420494079590e-01,9.072661399841308594e-01,9.072241187095642090e-01,9.071822762489318848e-01,9.071403741836547852e-01,9.070984721183776855e-01
8.635985851287841797e-01,8.635606169700622559e-01,8.635226488113403320e-01,8.634846806526184082e-01,8.634466528892517090e-01,8.634086847305297852e-01,8.633707761764526367e-01,8.633328080177307129e-01,8.632947802543640137e-01,8.632568717002868652e-01,8.632189631462097168e-01,8.631809949874877930e-01,8.631429672241210938e-01,8.631050586700439453e-01,8.630671501159667969e-01,8.630292415618896484e-01,8.629912137985229492e-01,8.629533052444458008e-01,8.629154562950134277e-01,8.628775477409362793e-01,8.628395199775695801e-01,8.628016710281372070e-01,8.627637624740600586e-01,8.627258539199829102e-01,8.626878857612609863e-01,8.626500368118286133e-01,8.626121282577514648e-01,8.625742793083190918e-01,8.625363111495971680e-01,8.624984025955200195e-01,8.624605536460876465e-01,8.624225854873657227e-01,8.623847365379333496e-01,8.623468875885009766e-01,8.623090386390686035e-01,8.622711300849914551e-01,8.622332811355590820e-01,8.621954321861267090e-01,8.621575832366943359e-01,8.621196746826171875e-01,8.620818257331848145e-01,8.620439767837524414e-01,8.620061874389648438e-01,8.619682788848876953e-01,8.619304299354553223e-01,8.618926405906677246e-01,8.618548512458801270e-01,8.618169426918029785e-01,8.617790937423706055e-01,8.617413043975830078e-01,8.617035150527954102e-01,8.616656661033630371e-01,8.616278171539306641e-01,8.615900874137878418e-01,8.615522980690002441e-01,8.615143895149230957e-01,8.614766001701354980e-01,8.614388704299926758e-01,8.614010810852050781e-01,8.613632321357727051e-01,8.613254427909851074e-01,8.612877130508422852e-01,8.612499237060546875e-01,8.612120747566223145e-01,8.611743450164794922e-01,8.611366152763366699e-01,8.610988259315490723e-01,8.610610365867614746e-01,8.610232472419738770e-01,8.609855175018310547e-01,8.609477877616882324e-01,8.609099984169006348e-01,8.608722686767578125e-01,8.608345389366149902e-01,8.607968091964721680e-01,8.607590198516845703e-01,8.607212901115417480e-01,8.606836199760437012e-01,8.606458902359008789e-01,8.606081008911132812e-01
8.213564753532409668e-01,8.213221430778503418e-01,8.212877511978149414e-01,8.212533593177795410e-01,8.212190270423889160e-01,8.211846947669982910e-01,8.211503624916076660e-01,8.211159706115722656e-01,8.210816979408264160e-01,8.210473656654357910e-01,8.210130333900451660e-01,8.209786415100097656e-01,8.209443688392639160e-01,8.209100365638732910e-01,8.208757638931274414e-01,8.208413720130920410e-01,8.208070397377014160e-01,8.207727670669555664e-01,8.207384943962097168e-01,8.207041025161743164e-01,8.206698298454284668e-01,8.206355571746826172e-01,8.206012845039367676e-01,8.205669522285461426e-01,8.205326795578002930e-01,8.204984068870544434e-01,8.204641342163085938e-01,8.204298019409179688e-01,8.203955292701721191e-01,8.203612565994262695e-01,8.203269839286804199e-01,8.202926516532897949e-01,8.202584385871887207e-01,8.202241659164428711e-01,8.201899528503417969e-01,8.201556205749511719e-01,8.201213479042053223e-01,8.200871348381042480e-01,8.200529217720031738e-01,8.200185894966125488e-01,8.199843764305114746e-01,8.199501633644104004e-01,8.199159502983093262e-01,8.198816180229187012e-01,8.198474049568176270e-01,8.198131918907165527e-01,8.197789788246154785e-01,8.197447061538696289e-01,8.197104930877685547e-01,8.196762800216674805e-01,8.196420073509216309e-01,8.196077942848205566e-01,8.195736408233642578e-01,8.195394277572631836e-01,8.195051550865173340e-01,8.194710016250610352e-01,8.194367885589599609e-01,8.194026350975036621e-01,8.193683624267578125e-01,8.193342089653015137e-01,8.193000555038452148e-01,8.192658424377441406e-01,8.192316293716430664e-01,8.191974759101867676e-01,8.191633224487304688e-01,8.191291689872741699e-01,8.190948963165283203e-01,8.190607428550720215e-01,8.190265893936157227e-01,8.189924955368041992e-01,8.189582228660583496e-01,8.189241290092468262e-01,8.188899755477905273e-01,8.188558220863342285e-01,8.188216090202331543e-01,8.187875151634216309e-01,8.187533617019653320e-01,8.187192678451538086e-01,8.186850547790527344e-01,8.186509609222412109e-01
7.830541133880615234e-01,7.830228805541992188e-01,7.829916477203369141e-01,7.829604148864746094e-01,7.829292416572570801e-01,7.828980088233947754e-01,7.828667163848876953e-01,7.828355431556701660e-01,7.828043699264526367e-01,7.827731370925903320e-01,7.827419042587280273e-01,7.827107310295104980e-01,7.826794981956481934e-01,7.826483249664306641e-01,7.826170921325683594e-01,7.825859189033508301e-01,7.825547456741333008e-01,7.825235724449157715e-01,7.824923396110534668e-01,7.824611663818359375e-01,7.824299931526184082e-01,7.823988199234008789e-01,7.823675870895385742e-01,7.823364734649658203e-01,7.823053002357482910e-01,7.822741270065307617e-01,7.822428941726684570e-01,7.822117805480957031e-01,7.821806073188781738e-01,7.821494936943054199e-01,7.821182608604431152e-01,7.820871472358703613e-01,7.820560336112976074e-01,7.820248603820800781e-01,7.819936871528625488e-01,7.819625735282897949e-01,7.819314002990722656e-01,7.819002866744995117e-01,7.818691134452819824e-01,7.818379998207092285e-01,7.818068861961364746e-01,7.817757725715637207e-01,7.817445993423461914e-01,7.817134857177734375e-01,7.816823720932006836e-01,7.816512584686279297e-01,7.816200852394104004e-01,7.815890312194824219e-01,7.815579175949096680e-01,7.815268039703369141e-01,7.814956307411193848e-01,7.814645767211914062e-01,7.814334630966186523e-01,7.814024090766906738e-01,7.813712358474731445e-01,7.813401818275451660e-01,7.813090682029724121e-01,7.812780141830444336e-01,7.812469005584716797e-01,7.812157869338989258e-01,7.811847329139709473e-01,7.811536788940429688e-01,7.811225652694702148e-01,7.810915112495422363e-01,7.810604572296142578e-01,7.810294032096862793e-01,7.809982895851135254e-01,7.809672355651855469e-01,7.809361815452575684e-01,7.809051275253295898e-01,7.808740139007568359e-01,7.808429598808288574e-01,7.808119654655456543e-01,7.807808518409729004e-01,7.807497978210449219e-01,7.807188034057617188e-01,7.806877493858337402e-01,7.806566357612609863e-01,7.806256413459777832e-01,7.805946469306945801e-01
7.481648921966552734e-01,7.481364011764526367e-01,7.481078505516052246e-01,7.480793595314025879e-01,7.480508685111999512e-01,7.480223774909973145e-01,7.479938268661499023e-01,7.479653954505920410e-01,7.479369044303894043e-01,7.479084134101867676e-01,7.478798627853393555e-01,7.478514313697814941e-01,7.478229403495788574e-01,7.477943897247314453e-01,7.477659583091735840e-01,7.477374672889709473e-01,7.477090358734130859e-01,7.476804852485656738e-01,7.476520538330078125e-01,7.476236224174499512e-01,7.475951313972473145e-01,7.475666403770446777e-01,7.475382089614868164e-01,7.475097179412841797e-01,7.474812865257263184e-01,7.474527955055236816e-01,7.474243640899658203e-01,7.473959326744079590e-01,7.473675012588500977e-01,7.473390102386474609e-01,7.473105788230895996e-01,7.472821474075317383e-01,7.472537159919738770e-01,7.472252249717712402e-01,7.471967935562133789e-01,7.471683621406555176e-01,7.471399903297424316e-01,7.471114993095397949e-01,7.470830678939819336e-01,7.470546364784240723e-01,7.470262646675109863e-01,7.469977736473083496e-01,7.469694018363952637e-01,7.469409704208374023e-01,7.469125986099243164e-01,7.468841075897216797e-01,7.468557357788085938e-01,7.468273043632507324e-01,7.467989325523376465e-01,7.467705011367797852e-01,7.467421293258666992e-01,7.467136979103088379e-01,7.466853260993957520e-01,7.466568946838378906e-01,7.466285228729248047e-01,7.466001510620117188e-01,7.465717792510986328e-01,7.465433478355407715e-01,7.465149760246276855e-01,7.464866042137145996e-01,7.464582324028015137e-01,7.464298009872436523e-01,7.464014291763305664e-01,7.463730573654174805e-01,7.463447451591491699e-01,7.463163137435913086e-01,7.462879419326782227e-01,7.462596297264099121e-01,7.462312579154968262e-01,7.462028264999389648e-01,7.461745142936706543e-01,7.461461424827575684e-01,7.461178302764892578e-01,7.460893988609313965e-01,7.460610866546630859e-01,7.460327744483947754e-01,7.460044026374816895e-01,7.459760308265686035e-01,7.459477186203002930e-01,7.459194064140319824e-01
7.162520885467529297e-01,7.162258625030517578e-01,7.161997556686401367e-01,7.161736488342285156e-01,7.161475419998168945e-01,7.161213755607604980e-01,7.160952687263488770e-01,7.160691618919372559e-01,7.160431146621704102e-01,7.160169482231140137e-01,7.159908413887023926e-01,7.159647345542907715e-01,7.159386277198791504e-01,7.159125208854675293e-01,7.158864140510559082e-01,7.158603072166442871e-01,7.158342599868774414e-01,7.158080935478210449e-01,7.157819867134094238e-01,7.157559394836425781e-01,7.157298326492309570e-01,7.157037258148193359e-01,7.156776785850524902e-01,7.156515717506408691e-01,7.156255245208740234e-01,7.155993580818176270e-01,7.155733108520507812e-01,7.155472636222839355e-01,7.155212163925170898e-01,7.154950499534606934e-01,7.154690027236938477e-01,7.154429554939270020e-01,7.154168486595153809e-01,7.153908014297485352e-01,7.153647541999816895e-01,7.153387069702148438e-01,7.153126001358032227e-01,7.152865529060363770e-01,7.152605056762695312e-01,7.152344584465026855e-01,7.152083516120910645e-01,7.151823043823242188e-01,7.151563167572021484e-01,7.151302695274353027e-01,7.151041626930236816e-01,7.150781154632568359e-01,7.150521278381347656e-01,7.150260806083679199e-01,7.150000333786010742e-01,7.149739861488342285e-01,7.149479389190673828e-01,7.149219512939453125e-01,7.148958444595336914e-01,7.148698568344116211e-01,7.148438692092895508e-01,7.148178219795227051e-01,7.147917747497558594e-01,7.147657871246337891e-01,7.147397398948669434e-01,7.147137522697448730e-01,7.146877050399780273e-01,7.146617174148559570e-01,7.146356701850891113e-01,7.146096825599670410e-01,7.145836353302001953e-01,7.145576477050781250e-01,7.145316600799560547e-01,7.145056724548339844e-01,7.144796252250671387e-01,7.144536375999450684e-01,7.144276499748229980e-01,7.144016623497009277e-01,7.143756747245788574e-01,7.143496870994567871e-01,7.143236994743347168e-01,7.142977118492126465e-01,7.142716646194458008e-01,7.142457365989685059e-01,7.142197489738464355e-01,7.141938209533691406e-01
6.869502663612365723e-01,6.869262456893920898e-01,6.869022250175476074e-01,6.868782043457031250e-01,6.868541240692138672e-01,6.868301630020141602e-01,6.868061423301696777e-01,6.867821216583251953e-01,6.867580413818359375e-01,6.867340207099914551e-01,6.867100596427917480e-01,6.866860389709472656e-01,6.866619586944580078e-01,6.866379976272583008e-01,6.866139769554138184e-01,6.865899562835693359e-01,6.865659356117248535e-01,6.865419149398803711e-01,6.865179538726806641e-01,6.864939332008361816e-01,6.864699125289916992e-01,6.864459514617919922e-01,6.864219307899475098e-01,6.863979697227478027e-01,6.863739490509033203e-01,6.863499283790588379e-01,6.863259673118591309e-01,6.863020062446594238e-01,6.862779855728149414e-01,6.862539649009704590e-01,6.862300038337707520e-01,6.862060427665710449e-01,6.861820220947265625e-01,6.861580610275268555e-01,6.861340999603271484e-01,6.861101388931274414e-01,6.860861182212829590e-01,6.860621571540832520e-01,6.860381960868835449e-01,6.860142350196838379e-01,6.859902143478393555e-01,6.859662532806396484e-01,6.859422922134399414e-01,6.859183907508850098e-01,6.858943700790405273e-01,6.858704090118408203e-01,6.858464479446411133e-01,6.858225464820861816e-01,6.857985258102416992e-01,6.857745647430419922e-01,6.857506632804870605e-01,6.857266426086425781e-01,6.857027411460876465e-01,6.856787800788879395e-01,6.856548786163330078e-01,6.856308579444885254e-01,6.856069564819335938e-01,6.855829954147338867e-01,6.855590939521789551e-01,6.855351328849792480e-01,6.855111718177795410e-01,6.854872703552246094e-01,6.854633688926696777e-01,6.854394078254699707e-01,6.854155063629150391e-01,6.853915452957153320e-01,6.853676438331604004e-01,6.853436827659606934e-01,6.853197813034057617e-01,6.852958798408508301e-01,6.852719783782958984e-01,6.852480173110961914e-01,6.852241158485412598e-01,6.852002143859863281e-01,6.851763129234313965e-01,6.851523518562316895e-01,6.851284503936767578e-01,6.851045489311218262e-01,6.850807070732116699e-01,6.850567460060119629e-01
6.599518060684204102e-01,6.599296331405639648e-01,6.599074602127075195e-01,6.598852276802062988e-01,6.598630547523498535e-01,6.598408818244934082e-01,6.598187088966369629e-01,6.597965359687805176e-01,6.597743630409240723e-01,6.597521901130676270e-01,6.597300767898559570e-01,6.597078442573547363e-01,6.596856713294982910e-01,6.596635580062866211e-01,6.596413850784301758e-01,6.596192121505737305e-01,6.595970392227172852e-01,6.595749258995056152e-01,6.595527529716491699e-01,6.595305800437927246e-01,6.595084071159362793e-01,6.594862937927246094e-01,6.594641804695129395e-01,6.594419479370117188e-01,6.594198346138000488e-01,6.593977212905883789e-01,6.593755483627319336e-01,6.593533754348754883e-01,6.593312621116638184e-01,6.593091487884521484e-01,6.592869758605957031e-01,6.592648029327392578e-01,6.592426896095275879e-01,6.592205762863159180e-01,6.591984629631042480e-01,6.591762900352478027e-01,6.591541767120361328e-01,6.591320633888244629e-01,6.591099500656127930e-01,6.590877771377563477e-01,6.590656638145446777e-01,6.590435504913330078e-01,6.590214371681213379e-01,6.589992642402648926e-01,6.589772105216979980e-01,6.589550971984863281e-01,6.589329838752746582e-01,6.589108109474182129e-01,6.588887572288513184e-01,6.588666439056396484e-01,6.588445305824279785e-01,6.588224172592163086e-01,6.588003039360046387e-01,6.587781906127929688e-01,6.587561368942260742e-01,6.587339639663696289e-01,6.587119102478027344e-01,6.586897969245910645e-01,6.586677432060241699e-01,6.586455702781677246e-01,6.586235165596008301e-01,6.586014032363891602e-01,6.585793495178222656e-01,6.585572361946105957e-01,6.585351228713989258e-01,6.585130691528320312e-01,6.584910154342651367e-01,6.584688425064086914e-01,6.584467887878417969e-01,6.584247350692749023e-01,6.584026217460632324e-01,6.583805680274963379e-01,6.583584547042846680e-01,6.583364009857177734e-01,6.583142876625061035e-01,6.582922339439392090e-01,6.582701802253723145e-01,6.582481265068054199e-01,6.582260131835937500e-01,6.582039594650268555e-01
