1.000000000000000000e+00,1.000000000000000000e+00,1.000000000000000000e+00,1.000000000000000000e+00,1.000000000000000000e+00,1.000000000000000000e+00,1.000000000000000000e+00,1.000000000000000000e+00,1.000000000000000000e+00,1.000000000000000000e+00,1.000000000000000000e+00,1.000000000000000000e+00,8.038203120231628140e-02,8.099057078361511508e-02,8.160839676856994351e-02,8.223572373390197754e-02,8.287277221679686945e-02,8.351977467536926547e-02,8.417694568634033481e-02,8.484454751014709750e-02,8.552281856536865512e-02,8.621202111244201383e-02,8.691242933273315985e-02,8.762430548667907160e-02,8.834793567657470148e-02,8.908362388610839566e-02,8.983166217803954801e-02,9.059237837791442316e-02,9.136607646942138117e-02,9.215312004089355746e-02,9.295383095741271973e-02,9.376857876777648648e-02,9.459773898124694547e-02,9.544168710708618442e-02,9.630083441734313410e-02,9.717558026313781461e-02,9.806637763977051059e-02,9.897364974021911899e-02,9.989786148071289062e-02,1.008394956588745117e-01,1.017990589141845731e-01,1.027770638465881348e-01,1.037740349769592230e-01,1.047905445098877009e-01,1.058271527290344238e-01,1.068844914436340304e-01,1.079631567001342746e-01,5.701189041137695312e-01,5.700984954833984153e-01,5.700779914855956809e-01,5.700575828552245650e-01,5.700371265411376953e-01,5.700167179107665794e-01,5.699962139129638450e-01,5.699758052825927290e-01,5.699553489685058594e-01,5.699349403381347434e-01,5.699144363403320090e-01,5.698940277099608931e-01,5.698736190795898882e-01,5.698532104492187722e-01,5.698327064514160378e-01,5.698122978210449219e-01,5.697918891906738059e-01,5.697714805603026900e-01,5.697510242462158203e-01,5.697306156158447044e-01,5.697102069854735884e-01,5.696897983551025835e-01,5.696693420410156028e-01,5.696489334106444868e-01,5.696285247802734819e-01,5.696081161499023660e-01,5.695876598358153853e-01,5.695672512054443803e-01,5.695468425750732644e-01,5.695264816284180132e-01,5.695060253143310325e-01,5.694856166839599165e-01,5.694652080535889116e-01,5.694448471069335493e-01,5.694243907928466797e-01,5.694040298461914285e-01,5.693836212158203125e-01,5.693632125854491965e-01,5.693428039550780806e-01,5.693223953247070757e-01,5.693020343780517134e-01,5.692816734313964622e-01,5.692612171173095925e-01,5.692408561706543413e-01,5.692204952239989790e-01,5.692000865936279741e-01,5.691796779632568581e-01,5.691593170166016069e-01,5.691389560699462447e-01,5.691185951232909934e-01,5.690981388092041238e-01,5.690777778625488725e-01,5.690574169158935103e-01,5.690370559692382590e-01,5.690166473388671431e-01,5.689962863922118919e-01,5.689759254455566406e-01,5.689555644989013894e-01,5.689352035522461382e-01,5.689148426055907759e-01,5.688944816589355247e-01,5.688740730285644087e-01,5.688537597656250222e-01,5.688333988189697710e-01,5.688130378723144087e-01,5.687926292419434038e-01,5.687723159790039062e-01,5.687519550323486550e-01,5.687316417694091575e-01,5.687112331390380415e-01,5.686909198760986550e-01,5.686705589294434038e-01
1.000000000000000000e+00,1.000000000000000000e+00,1.000000000000000000e+00,1.000000000000000000e+00,1.000000000000000000e+00,1.000000000000000000e+00,1.000000000000000000e+00,1.000000000000000000e+00,1.000000000000000000e+00,1.000000000000000000e+00,1.000000000000000000e+00,1.000000000000000000e+00,8.037418127059936523e-02,8.098260760307311734e-02,8.160030841827392578e-02,8.222751021385192594e-02,8.286442756652831476e-02,8.351129293441772461e-02,8.416833281517029086e-02,8.483579158782958429e-02,8.551392555236816961e-02,8.620298504829407293e-02,8.690324425697326660e-02,8.761496543884277066e-02,8.833844661712646207e-02,8.907397985458373468e-02,8.982186317443847934e-02,9.058240652084351141e-02,9.135593771934509555e-02,9.214279651641846258e-02,9.294332861900329867e-02,9.375788569450378696e-02,9.458685517311096747e-02,9.543061256408691406e-02,9.628955721855163297e-02,9.716410040855408270e-02,9.805468320846558172e-02,9.896175265312194547e-02,9.988574385643005094e-02,1.008271336555481013e-01,1.017864704132080134e-01,1.027642250061035212e-01,1.037609457969665555e-01,1.047771930694580134e-01,1.058135509490966825e-01,1.068706035614013644e-01,1.079489946365356501e-01,5.472677707672118919e-01,5.472488880157471147e-01,5.472300529479980913e-01,5.472112178802490678e-01,5.471923828125000444e-01,5.471735477447510210e-01,5.471547126770019975e-01,5.471358776092529741e-01,5.471170425415039507e-01,5.470982074737549272e-01,5.470793724060059038e-01,5.470605373382568803e-01,5.470417022705078569e-01,5.470228672027588335e-01,5.470040321350098100e-01,5.469852447509765403e-01,5.469664096832275169e-01,5.469475746154784934e-01,5.469287395477294700e-01,5.469099521636963113e-01,5.468911170959472878e-01,5.468722820281982644e-01,5.468534946441649947e-01,5.468346595764159712e-01,5.468158721923828125e-01,5.467970371246337891e-01,5.467782020568847656e-01,5.467594146728516069e-01,5.467406272888183372e-01,5.467217922210693137e-01,5.467030048370361550e-01,5.466842174530028853e-01,5.466653823852538618e-01,5.466465473175048384e-01,5.466277599334716797e-01,5.466089725494385210e-01,5.465901851654052512e-01,5.465713500976562278e-01,5.465525627136230691e-01,5.465338230133056641e-01,5.465150356292725053e-01,5.464962005615234819e-01,5.464774131774902122e-01,5.464586257934570535e-01,5.464398384094237837e-01,5.464210510253906250e-01,5.464022636413574663e-01,5.463834762573241965e-01,5.463647365570067915e-01,5.463459014892577681e-01,5.463271141052246094e-01,5.463083744049072044e-01,5.462895870208740456e-01,5.462707996368407759e-01,5.462520122528076172e-01,5.462332725524902122e-01,5.462144851684570535e-01,5.461956977844237837e-01,5.461769104003906250e-01,5.461581707000732200e-01,5.461394309997558150e-01,5.461205959320067915e-01,5.461018562316894975e-01,5.460831165313720925e-01,5.460643768310546875e-01,5.460455417633056641e-01,5.460268020629882590e-01,5.460080623626708540e-01,5.459893226623535600e-01,5.459705352783202903e-01,5.459517955780028853e-01,5.459330558776855913e-01
1.000000000000000000e+00,1.000000000000000000e+00,1.000000000000000000e+00,1.000000000000000000e+00,1.000000000000000000e+00,1.000000000000000000e+00,1.000000000000000000e+00,1.000000000000000000e+00,1.000000000000000000e+00,1.000000000000000000e+00,1.000000000000000000e+00,1.000000000000000000e+00,8.036632537841796597e-02,8.097463250160216730e-02,8.159221410751342496e-02,8.221929073333740512e-02,8.285608291625976007e-02,8.350281715393066684e-02,8.415971994400024692e-02,8.482704162597656805e-02,8.550504446029663641e-02,8.619396090507507047e-02,8.689407110214233954e-02,8.760564327239990512e-02,8.832896351814270575e-02,8.906433582305908758e-02,8.981205224990844449e-02,9.057243466377258578e-02,9.134579300880432684e-02,9.213247299194335382e-02,9.293282032012939453e-02,9.374719858169555664e-02,9.457598924636841098e-02,9.541954994201659601e-02,9.627829790115356723e-02,9.715263247489928922e-02,9.804300665855407437e-02,9.894984364509581964e-02,9.987361431121825894e-02,1.008147835731506292e-01,1.017738819122314398e-01,1.027513980865478460e-01,1.037478566169738742e-01,1.047638535499572782e-01,1.057999372482299749e-01,1.068567276000976507e-01,1.079348325729370117e-01,5.261778354644774947e-01,5.261603832244873269e-01,5.261429786682129128e-01,5.261255741119384988e-01,5.261081695556640847e-01,5.260907173156738059e-01,5.260733127593993919e-01,5.260559082031249778e-01,5.260385036468505637e-01,5.260210990905761497e-01,5.260036945343017356e-01,5.259862899780273215e-01,5.259688854217529075e-01,5.259514331817627397e-01,5.259340763092040794e-01,5.259166717529296653e-01,5.258992671966552512e-01,5.258818149566650835e-01,5.258644580841064231e-01,5.258470535278320090e-01,5.258296489715575950e-01,5.258122444152831809e-01,5.257948398590087669e-01,5.257774829864502175e-01,5.257600307464599387e-01,5.257426738739013894e-01,5.257252693176269753e-01,5.257079124450683150e-01,5.256905078887939009e-01,5.256731033325194868e-01,5.256557464599609375e-01,5.256383419036865234e-01,5.256209373474121094e-01,5.256035804748535600e-01,5.255861759185791460e-01,5.255688190460204856e-01,5.255514144897460715e-01,5.255340576171875222e-01,5.255167007446288618e-01,5.254992961883544478e-01,5.254818916320800337e-01,5.254645347595214844e-01,5.254471778869629350e-01,5.254298210144042747e-01,5.254124164581298606e-01,5.253950595855713113e-01,5.253777027130126509e-01,5.253603458404541016e-01,5.253429412841796875e-01,5.253255844116211382e-01,5.253082275390624778e-01,5.252908706665039285e-01,5.252735137939452681e-01,5.252561569213867188e-01,5.252388000488281694e-01,5.252214431762695090e-01,5.252040863037109597e-01,5.251867294311522993e-01,5.251693725585937500e-01,5.251520156860352007e-01,5.251346588134765403e-01,5.251173019409179910e-01,5.250999927520751953e-01,5.250826358795166460e-01,5.250652790069579856e-01,5.250479221343994363e-01,5.250305652618407759e-01,5.250132560729980913e-01,5.249958992004394309e-01,5.249785423278808816e-01,5.249612331390380859e-01,5.249438762664795366e-01
1.000000000000000000e+00,1.000000000000000000e+00,1.000000000000000000e+00,1.000000000000000000e+00,1.000000000000000000e+00,1.000000000000000000e+00,1.000000000000000000e+00,1.000000000000000000e+00,1.000000000000000000e+00,1.000000000000000000e+00,1.000000000000000000e+00,1.000000000000000000e+00,8.035847544670104980e-02,8.096665740013123114e-02,8.158411979675292414e-02,8.221107721328735352e-02,8.284774422645568848e-02,8.349434733390807828e-02,8.415111899375915527e-02,8.481830358505249023e-02,8.549615740776062012e-02,8.618492484092712957e-02,8.688489198684692938e-02,8.759631514549255649e-02,8.831948041915893555e-02,8.905469179153442660e-02,8.980224728584289273e-02,9.056245684623717707e-02,9.133566021919251043e-02,9.212216734886169434e-02,9.292233586311340887e-02,9.373652935028076172e-02,9.456511735916137140e-02,9.540848135948180875e-02,9.626702666282653531e-02,9.714115858078002652e-02,9.803131818771362860e-02,9.893794059753417691e-02,9.986148476600646695e-02,1.008024334907531711e-01,1.017612934112548800e-01,1.027385592460632324e-01,1.037347793579101590e-01,1.047505140304565430e-01,1.057863354682922336e-01,1.068428397178649847e-01,1.079206705093383734e-01,5.066530227661132368e-01,5.066369056701660600e-01,5.066207408905029075e-01,5.066046237945556197e-01,5.065884113311767134e-01,5.065722942352295366e-01,5.065561771392822488e-01,5.065400123596190962e-01,5.065238475799560547e-01,5.065077304840087669e-01,5.064915657043457253e-01,5.064754486083984375e-01,5.064592838287353960e-01,5.064431667327881081e-01,5.064270496368408203e-01,5.064108848571777788e-01,5.063947200775146262e-01,5.063786029815673384e-01,5.063624858856201616e-01,5.063463687896728738e-01,5.063302040100097212e-01,5.063140869140625444e-01,5.062979698181152566e-01,5.062818527221679688e-01,5.062656879425049272e-01,5.062495708465576394e-01,5.062334537506103516e-01,5.062173366546630637e-01,5.062012195587157759e-01,5.061851024627685991e-01,5.061689853668213113e-01,5.061528682708740234e-01,5.061367034912109819e-01,5.061205863952636941e-01,5.061045169830322710e-01,5.060883998870849831e-01,5.060722351074218306e-01,5.060561656951904075e-01,5.060400485992431197e-01,5.060238838195800781e-01,5.060078144073486550e-01,5.059916973114013672e-01,5.059755802154540794e-01,5.059594631195067915e-01,5.059433460235596147e-01,5.059272766113280806e-01,5.059111595153809038e-01,5.058950424194336160e-01,5.058789253234863281e-01,5.058628559112549050e-01,5.058467864990234819e-01,5.058306217193603294e-01,5.058145523071289062e-01,5.057984828948974831e-01,5.057823657989501953e-01,5.057662487030029075e-01,5.057501792907714844e-01,5.057340621948241965e-01,5.057179927825927734e-01,5.057018756866454856e-01,5.056858062744140625e-01,5.056697368621826394e-01,5.056536197662353516e-01,5.056375026702880637e-01,5.056214332580566406e-01,5.056053638458252175e-01,5.055892944335937944e-01,5.055731773376465066e-01,5.055571079254150835e-01,5.055410385131835493e-01,5.055249691009521262e-01,5.055088520050048384e-01
1.000000000000000000e+00,1.000000000000000000e+00,1.000000000000000000e+00,1.000000000000000000e+00,1.000000000000000000e+00,1.000000000000000000e+00,1.000000000000000000e+00,1.000000000000000000e+00,1.000000000000000000e+00,1.000000000000000000e+00,1.000000000000000000e+00,1.000000000000000000e+00,8.035063147544860285e-02,8.095870018005371649e-02,8.157603740692138949e-02,8.220286369323730191e-02,8.283939957618713379e-02,8.348587155342102051e-02,8.414250612258911133e-02,8.480955958366394321e-02,8.548727035522460382e-02,8.617589473724365789e-02,8.687571287155151922e-02,8.758699297904967707e-02,8.831000328063964844e-02,8.904505968093871793e-02,8.979245424270629328e-02,9.055249691009521762e-02,9.132551550865172785e-02,9.211184382438659946e-02,9.291183352470397394e-02,9.372584223747253140e-02,9.455423951148986261e-02,9.539741873741150457e-02,9.625576138496398648e-02,9.712968468666076383e-02,9.801964759826660434e-02,9.892604947090148648e-02,9.984937310218811035e-02,1.007900834083557129e-01,1.017487049102783203e-01,1.027257323265075711e-01,1.037217020988464300e-01,1.047371864318847601e-01,1.057727336883544922e-01,1.068289756774902372e-01,1.079065203666687012e-01,4.885254383087158092e-01,4.885104179382324108e-01,4.884953975677490123e-01,4.884803771972656139e-01,4.884653568267822155e-01,4.884503841400146262e-01,4.884353637695312278e-01,4.884203433990478294e-01,4.884053230285644309e-01,4.883903026580810325e-01,4.883753299713134988e-01,4.883603096008301003e-01,4.883452892303467019e-01,4.883303165435791127e-01,4.883152961730957142e-01,4.883002758026123158e-01,4.882853031158447266e-01,4.882702827453613281e-01,4.882553100585937389e-01,4.882402896881103405e-01,4.882252693176269420e-01,4.882102966308593528e-01,4.881953239440918191e-01,4.881803035736084206e-01,4.881652832031250222e-01,4.881503105163574330e-01,4.881353378295898438e-01,4.881203174591064453e-01,4.881053447723388561e-01,4.880903244018554576e-01,4.880753517150878684e-01,4.880603313446044700e-01,4.880453586578369363e-01,4.880303859710693470e-01,4.880154132843017578e-01,4.880003929138183594e-01,4.879854202270507701e-01,4.879704475402831809e-01,4.879554748535156472e-01,4.879404544830322488e-01,4.879254817962646595e-01,4.879105091094970703e-01,4.878955841064452903e-01,4.878805637359618919e-01,4.878655910491943581e-01,4.878506183624267689e-01,4.878356456756591797e-01,4.878206729888915905e-01,4.878057003021240012e-01,4.877907276153564675e-01,4.877757549285888783e-01,4.877607822418212891e-01,4.877458095550536998e-01,4.877308368682861106e-01,4.877159118652343861e-01,4.877008914947509877e-01,4.876859664916992076e-01,4.876709938049316184e-01,4.876560211181640847e-01,4.876410484313964955e-01,4.876260757446289062e-01,4.876111507415771262e-01,4.875961780548095925e-01,4.875812053680420033e-01,4.875662803649902233e-01,4.875513076782226340e-01,4.875363349914551003e-01,4.875214099884033203e-01,4.875064373016357311e-01,4.874915122985840066e-01,4.874765396118164174e-01,4.874615669250488281e-01
1.000000000000000000e+00,1.000000000000000000e+00,1.000000000000000000e+00,1.000000000000000000e+00,1.000000000000000000e+00,1.000000000000000000e+00,1.000000000000000000e+00,1.000000000000000000e+00,1.000000000000000000e+00,1.000000000000000000e+00,1.000000000000000000e+00,1.000000000000000000e+00,8.034278154373168668e-02,8.095073103904723566e-02,8.156794309616088867e-02,8.219464421272278110e-02,8.283105492591857910e-02,8.347739577293396274e-02,8.413390517234801969e-02,8.480082154273986539e-02,8.547838926315307062e-02,8.616687655448913852e-02,8.686654567718506137e-02,8.757766485214232843e-02,8.830052614212036133e-02,8.903542160987854004e-02,8.978264927864074152e-02,9.054252505302429199e-02,9.131537675857544223e-02,9.210153222084045688e-02,9.290133714675903598e-02,9.371517300605773648e-02,9.454338550567627231e-02,9.538636207580566961e-02,9.624450802803038996e-02,9.711822867393493652e-02,9.800796508789062778e-02,9.891415238380432684e-02,9.983724951744080145e-02,1.007777333259582547e-01,1.017361283302307129e-01,1.027129054069519098e-01,1.037086248397827148e-01,1.047238469123840388e-01,1.057591438293457031e-01,1.068150997161865234e-01,1.078923702239990290e-01,4.716502189636230247e-01,4.716361999511718972e-01,4.716221809387207142e-01,4.716082096099853405e-01,4.715942382812500222e-01,4.715802192687988392e-01,4.715662002563476562e-01,4.715522289276122825e-01,4.715382575988769642e-01,4.715242862701415905e-01,4.715102672576904075e-01,4.714962959289550892e-01,4.714822769165039062e-01,4.714683055877685325e-01,4.714542865753174050e-01,4.714403152465820312e-01,4.714263439178466575e-01,4.714123725891113392e-01,4.713983535766601562e-01,4.713843822479247825e-01,4.713704109191894642e-01,4.713564395904540905e-01,4.713424682617187722e-01,4.713284969329833984e-01,4.713145256042480247e-01,4.713005542755127064e-01,4.712865352630615234e-01,4.712725639343261497e-01,4.712585926055908314e-01,4.712446689605712669e-01,4.712306499481201394e-01,4.712166786193847656e-01,4.712027072906493919e-01,4.711887836456298828e-01,4.711747646331786998e-01,4.711607933044433816e-01,4.711468696594238170e-01,4.711328983306884988e-01,4.711188793182373158e-01,4.711049556732177512e-01,4.710909843444824330e-01,4.710770130157470592e-01,4.710630416870117410e-01,4.710490703582763672e-01,4.710351467132568581e-01,4.710211753845214844e-01,4.710072040557861106e-01,4.709932327270507924e-01,4.709793090820312278e-01,4.709653377532959095e-01,4.709513664245605358e-01,4.709374427795410267e-01,4.709234714508056530e-01,4.709095478057861439e-01,4.708955764770507701e-01,4.708816051483154519e-01,4.708676815032958873e-01,4.708537101745605691e-01,4.708397388458251953e-01,4.708258152008056863e-01,4.708118915557861217e-01,4.707979202270508035e-01,4.707839488983154297e-01,4.707700252532959206e-01,4.707561016082763561e-01,4.707421779632568470e-01,4.707282066345214733e-01,4.707142353057861550e-01,4.707003116607665905e-01,4.706863880157470814e-01,4.706724166870117076e-01,4.706584930419921986e-01
1.000000000000000000e+00,1.000000000000000000e+00,1.000000000000000000e+00,1.000000000000000000e+00,1.000000000000000000e+00,1.000000000000000000e+00,1.000000000000000000e+00,1.000000000000000000e+00,1.000000000000000000e+00,1.000000000000000000e+00,1.000000000000000000e+00,1.000000000000000000e+00,8.033493161201477051e-02,8.094276785850525180e-02,8.155986666679382324e-02,8.218644261360168179e-02,8.282272219657897672e-02,8.346893191337585727e-02,8.412530422210692804e-02,8.479207754135131836e-02,8.546950817108153742e-02,8.615785241127013605e-02,8.685737252235412043e-02,8.756834268569946289e-02,8.829104304313659113e-02,8.902578353881836215e-02,8.977285623550415594e-02,9.053257107734680176e-02,9.130524992942809503e-02,9.209122657775878351e-02,9.289085865020751953e-02,9.370449781417847235e-02,9.453251361846923273e-02,9.537529945373535156e-02,9.623324275016784113e-02,9.710676074028015692e-02,9.799628257751465121e-02,9.890225529670715332e-02,9.982513189315796176e-02,1.007653951644897489e-01,1.017235398292541532e-01,1.027000904083252009e-01,1.036955595016479520e-01,1.047105193138122559e-01,1.057455420494079618e-01,1.068012356758117620e-01,1.078782200813293429e-01,4.559018611907958984e-01,4.558887958526611217e-01,4.558756828308105358e-01,4.558626174926757590e-01,4.558495521545410378e-01,4.558364868164062611e-01,4.558233737945556752e-01,4.558103084564208984e-01,4.557972908020019309e-01,4.557842254638672097e-01,4.557711124420166238e-01,4.557580471038818470e-01,4.557449817657470703e-01,4.557319164276122936e-01,4.557188510894775169e-01,4.557057857513427956e-01,4.556927204132080189e-01,4.556796550750732422e-01,4.556665897369384655e-01,4.556535243988036887e-01,4.556404590606689675e-01,4.556273937225341908e-01,4.556143283843994141e-01,4.556012630462646373e-01,4.555881977081298606e-01,4.555751323699951394e-01,4.555620670318603627e-01,4.555490493774413951e-01,4.555359840393066184e-01,4.555229187011718972e-01,4.555098533630371205e-01,4.554967880249023438e-01,4.554837703704833762e-01,4.554706573486327903e-01,4.554576396942138783e-01,4.554445743560791016e-01,4.554315567016601340e-01,4.554184913635254128e-01,4.554054260253906361e-01,4.553924083709716686e-01,4.553793430328368919e-01,4.553662776947021706e-01,4.553532600402832031e-01,4.553401947021484264e-01,4.553271770477295144e-01,4.553141117095947377e-01,4.553010463714599609e-01,4.552880287170409934e-01,4.552750110626220814e-01,4.552619457244873047e-01,4.552488803863525280e-01,4.552358627319336160e-01,4.552228450775146484e-01,4.552097797393798717e-01,4.551967144012450950e-01,4.551836967468261830e-01,4.551706790924072155e-01,4.551576137542724387e-01,4.551445960998535267e-01,4.551315784454345592e-01,4.551185607910156472e-01,4.551054954528808705e-01,4.550924777984619030e-01,4.550794601440429910e-01,4.550664424896240234e-01,4.550533771514892467e-01,4.550403594970703347e-01,4.550273418426513672e-01,4.550143241882323997e-01,4.550012588500976785e-01,4.549882411956787109e-01,4.549752235412597434e-01
1.000000000000000000e+00,1.000000000000000000e+00,1.000000000000000000e+00,1.000000000000000000e+00,1.000000000000000000e+00,1.000000000000000000e+00,1.000000000000000000e+00,1.000000000000000000e+00,1.000000000000000000e+00,1.000000000000000000e+00,1.000000000000000000e+00,1.000000000000000000e+00,8.032709360122680664e-02,8.093480467796325406e-02,8.155177831649780551e-02,8.217822909355163019e-02,8.281438350677490512e-02,8.346046209335326871e-02,8.411669731140136719e-02,8.478333950042724054e-02,8.546062707901000421e-02,8.614883422851563055e-02,8.684820532798767645e-02,8.755902647972106656e-02,8.828157782554627020e-02,8.901615142822265347e-02,8.976305723190307340e-02,9.052260518074035922e-02,9.129511117935180942e-02,9.208091497421264093e-02,9.288036823272705078e-02,9.369382262229919434e-02,9.452165365219115933e-02,9.536424279212951660e-02,9.622199535369872769e-02,9.709531068801879883e-02,9.798461794853211004e-02,9.889037609100341519e-02,9.981303215026855746e-02,1.007530450820922907e-01,1.017109751701354980e-01,1.026872754096984919e-01,1.036824822425842230e-01,1.046971917152404730e-01,1.057319521903991727e-01,1.067873716354370145e-01,1.078640818595886230e-01,4.411712169647216686e-01,4.411589622497558705e-01,4.411467552185058816e-01,4.411345005035400280e-01,4.411222457885742299e-01,4.411099910736083762e-01,4.410977363586425781e-01,4.410855293273925892e-01,4.410732746124267356e-01,4.410610198974609375e-01,4.410488128662109486e-01,4.410365581512450950e-01,4.410243511199951061e-01,4.410120487213134988e-01,4.409998416900634544e-01,4.409876346588134655e-01,4.409753799438476674e-01,4.409631252288818137e-01,4.409509181976318248e-01,4.409386634826660267e-01,4.409264564514160378e-01,4.409142017364501842e-01,4.409019470214843861e-01,4.408897399902343972e-01,4.408775329589843528e-01,4.408652782440185547e-01,4.408530712127685658e-01,4.408408164978027122e-01,4.408286094665527233e-01,4.408163547515869252e-01,4.408041477203369363e-01,4.407919406890868919e-01,4.407796859741210938e-01,4.407674789428711049e-01,4.407552242279052512e-01,4.407430171966552623e-01,4.407308101654052734e-01,4.407185554504394753e-01,4.407063484191894309e-01,4.406941413879394420e-01,4.406818866729736439e-01,4.406696796417236550e-01,4.406574726104736106e-01,4.406452655792236217e-01,4.406330108642578236e-01,4.406208038330078347e-01,4.406085968017577903e-01,4.405963897705078014e-01,4.405841827392578125e-01,4.405719757080078236e-01,4.405597686767578347e-01,4.405475616455077903e-01,4.405353069305419922e-01,4.405230998992920033e-01,4.405108928680420144e-01,4.404986858367919700e-01,4.404864788055419811e-01,4.404742717742919922e-01,4.404620647430420033e-01,4.404498577117920144e-01,4.404376506805419700e-01,4.404254436492919811e-01,4.404132366180419922e-01,4.404010772705078125e-01,4.403888225555420144e-01,4.403766155242919700e-01,4.403644561767577903e-01,4.403522491455078014e-01,4.403400421142578125e-01,4.403278350830078236e-01,4.403156280517578347e-01,4.403034687042236550e-01
1.000000000000000000e+00,1.000000000000000000e+00,1.000000000000000000e+00,1.000000000000000000e+00,1.000000000000000000e+00,1.000000000000000000e+00,1.000000000000000000e+00,1.000000000000000000e+00,1.000000000000000000e+00,1.000000000000000000e+00,1.000000000000000000e+00,1.000000000000000000e+00,8.031924962997435968e-02,8.092684149742127020e-02,8.154368996620178778e-02,8.217001557350159247e-02,8.280605077743530273e-02,8.345199823379516324e-02,8.410810232162475863e-02,8.477460741996764582e-02,8.545175790786743719e-02,8.613981008529662808e-02,8.683903813362121860e-02,8.754970431327820102e-02,8.827210068702698309e-02,8.900651931762695868e-02,8.975326418876647394e-02,9.051263928413391668e-02,9.128497838973999301e-02,9.207061529159546454e-02,9.286988973617553433e-02,9.368315935134888250e-02,9.451079964637756903e-02,9.535319209098816473e-02,9.621073603630066196e-02,9.708384871482848844e-02,9.797294735908508578e-02,9.887848496437072476e-02,9.980092048645020086e-02,1.007407188415527372e-01,1.016983985900878906e-01,1.026744484901428167e-01,1.036694288253784124e-01,1.046838760375976562e-01,1.057183623313903836e-01,1.067735075950622531e-01,1.078499317169189509e-01,4.273627281188964733e-01,4.273512363433837891e-01,4.273397445678711049e-01,4.273282527923584206e-01,4.273167610168456809e-01,4.273052692413329967e-01,4.272937774658203125e-01,4.272822856903076283e-01,4.272707939147949441e-01,4.272593021392822044e-01,4.272478580474853294e-01,4.272363662719726451e-01,4.272248744964599609e-01,4.272133827209472767e-01,4.272018909454345925e-01,4.271904468536377175e-01,4.271789073944091686e-01,4.271674633026122936e-01,4.271559715270996094e-01,4.271444797515869252e-01,4.271329879760742410e-01,4.271215438842773660e-01,4.271100521087646262e-01,4.270985603332519420e-01,4.270870685577392578e-01,4.270756244659423828e-01,4.270641326904296986e-01,4.270526885986328236e-01,4.270411968231201394e-01,4.270297050476073997e-01,4.270182609558105247e-01,4.270067691802978405e-01,4.269952774047851562e-01,4.269838333129882812e-01,4.269723415374755970e-01,4.269608974456787220e-01,4.269494056701660378e-01,4.269379615783691628e-01,4.269264698028564231e-01,4.269150257110595481e-01,4.269035339355468639e-01,4.268920898437499889e-01,4.268805980682373047e-01,4.268691539764404297e-01,4.268576622009277455e-01,4.268462181091308705e-01,4.268347263336181863e-01,4.268232822418213113e-01,4.268117904663085715e-01,4.268003463745116965e-01,4.267889022827148215e-01,4.267774581909179465e-01,4.267659664154052623e-01,4.267545223236083873e-01,4.267430782318115123e-01,4.267315864562988281e-01,4.267201423645019531e-01,4.267086982727050781e-01,4.266972541809082031e-01,4.266857624053955189e-01,4.266743183135986439e-01,4.266628742218017689e-01,4.266514301300048939e-01,4.266399383544922097e-01,4.266284942626953347e-01,4.266170501708984597e-01,4.266056060791015847e-01,4.265941619873047097e-01,4.265827178955078347e-01,4.265712738037109597e-01,4.265598297119140847e-01,4.265483379364013450e-01
1.000000000000000000e+00,1.000000000000000000e+00,1.000000000000000000e+00,1.000000000000000000e+00,1.000000000000000000e+00,1.000000000000000000e+00,1.000000000000000000e+00,1.000000000000000000e+00,1.000000000000000000e+00,1.000000000000000000e+00,1.000000000000000000e+00,1.000000000000000000e+00,8.031141161918639582e-02,8.091888427734375555e-02,8.153561353683472235e-02,8.216181397438049316e-02,8.279771208763123114e-02,8.344353437423705777e-02,8.409950137138366699e-02,8.476586937904358188e-02,8.544287681579590399e-02,8.613078594207763949e-02,8.682987093925476074e-02,8.754038810729980469e-02,8.826264142990111750e-02,8.899689912796020230e-02,8.974347710609435758e-02,9.050269126892089566e-02,9.127485752105712891e-02,9.206030964851379117e-02,9.285940527915954867e-02,9.367249011993408758e-02,9.449993968009948175e-02,9.534214138984679898e-02,9.619948267936706543e-02,9.707238674163817804e-02,9.796127676963806152e-02,9.886661171913146973e-02,9.978882074356079657e-02,1.007283806800842313e-01,1.016858220100402832e-01,1.026616334915161077e-01,1.036563515663146973e-01,1.046705603599548395e-01,1.057047843933105469e-01,1.067596554756164579e-01,1.078357934951782171e-01,4.143923759460449441e-01,4.143815517425536998e-01,4.143707752227783203e-01,4.143599510192871316e-01,4.143491268157958873e-01,4.143383502960205078e-01,4.143275737762451283e-01,4.143167495727538840e-01,4.143059253692626953e-01,4.142951488494873158e-01,4.142843723297119363e-01,4.142735481262206920e-01,4.142627239227295033e-01,4.142519474029541238e-01,4.142411708831786887e-01,4.142303466796875000e-01,4.142195701599121205e-01,4.142087459564208762e-01,4.141979694366454967e-01,4.141871452331543080e-01,4.141763687133789285e-01,4.141655921936034934e-01,4.141548156738281139e-01,4.141439914703369252e-01,4.141332149505615456e-01,4.141224384307861106e-01,4.141116142272949219e-01,4.141008377075195424e-01,4.140900611877441628e-01,4.140792846679687278e-01,4.140684604644775391e-01,4.140576839447021595e-01,4.140469074249267800e-01,4.140361309051513450e-01,4.140253543853759655e-01,4.140145301818847767e-01,4.140037536621093972e-01,4.139929771423339622e-01,4.139822006225585826e-01,4.139713764190673939e-01,4.139605998992920144e-01,4.139498233795165794e-01,4.139390468597411998e-01,4.139282703399658203e-01,4.139174938201904408e-01,4.139067173004150613e-01,4.138959407806396262e-01,4.138851642608642467e-01,4.138743877410888672e-01,4.138636112213134877e-01,4.138528347015381081e-01,4.138420581817626731e-01,4.138312816619872936e-01,4.138205051422119141e-01,4.138097286224365345e-01,4.137989521026611550e-01,4.137881755828857200e-01,4.137773990631103405e-01,4.137666225433349609e-01,4.137558460235595814e-01,4.137450695037842019e-01,4.137343406677246316e-01,4.137235641479491965e-01,4.137127876281738170e-01,4.137020111083984375e-01,4.136912345886230580e-01,4.136805057525634877e-01,4.136696815490722434e-01,4.136589527130126731e-01,4.136481761932372936e-01,4.136373996734619141e-01,4.136266231536865345e-01
1.000000000000000000e+00,1.000000000000000000e+00,1.000000000000000000e+00,1.000000000000000000e+00,1.000000000000000000e+00,1.000000000000000000e+00,1.000000000000000000e+00,1.000000000000000000e+00,1.000000000000000000e+00,1.000000000000000000e+00,1.000000000000000000e+00,1.000000000000000000e+00,8.030357360839843195e-02,8.091092109680175781e-02,8.152753114700317383e-02,8.215360641479492465e-02,8.278937935829162875e-02,8.343506455421448309e-02,8.409090638160705844e-02,8.475714325904845636e-02,8.543400764465332309e-02,8.612177968025207242e-02,8.682070970535278598e-02,8.753107786178589145e-02,8.825317025184631348e-02,8.898726701736450750e-02,8.973368406295775812e-02,9.049273133277893622e-02,9.126473069190979559e-02,9.205000996589660089e-02,9.284892082214354914e-02,9.366182088851929266e-02,9.448909163475036066e-02,9.533110260963439941e-02,9.618824720382690430e-02,9.706094264984130304e-02,9.794962406158447266e-02,9.885472655296326239e-02,9.977671504020690918e-02,1.007160544395446777e-01,1.016732573509216281e-01,1.026488304138183649e-01,1.036432981491088867e-01,1.046572327613830566e-01,1.056912064552307101e-01,1.067458033561706487e-01,1.078216671943664495e-01,4.021861553192138672e-01,4.021759510040283092e-01,4.021657943725586160e-01,4.021555900573730580e-01,4.021454334259033092e-01,4.021352767944336160e-01,4.021250724792480580e-01,4.021149158477783092e-01,4.021047115325927512e-01,4.020945549011230580e-01,4.020843982696533092e-01,4.020741939544677512e-01,4.020640373229980580e-01,4.020538806915283092e-01,4.020437240600586160e-01,4.020335197448730580e-01,4.020233631134033092e-01,4.020132064819336160e-01,4.020030498504638672e-01,4.019928455352783092e-01,4.019826889038086160e-01,4.019725322723388672e-01,4.019623279571533092e-01,4.019521713256836160e-01,4.019420146942138672e-01,4.019318580627441184e-01,4.019217014312744252e-01,4.019115447998046764e-01,4.019013881683349831e-01,4.018912315368652344e-01,4.018810272216796764e-01,4.018708705902099831e-01,4.018607139587402344e-01,4.018505573272704856e-01,4.018404006958007924e-01,4.018302440643310436e-01,4.018200874328613503e-01,4.018099308013916016e-01,4.017997741699218528e-01,4.017896175384521595e-01,4.017794609069824108e-01,4.017693042755127175e-01,4.017591476440429688e-01,4.017489910125732200e-01,4.017388343811035267e-01,4.017286777496337780e-01,4.017185211181640847e-01,4.017083644866943359e-01,4.016982078552245872e-01,4.016880512237548939e-01,4.016778945922851451e-01,4.016677379608154519e-01,4.016576290130615123e-01,4.016474723815918191e-01,4.016373157501220703e-01,4.016271591186523215e-01,4.016170024871826283e-01,4.016068935394286887e-01,4.015966892242431863e-01,4.015865802764892467e-01,4.015764236450195535e-01,4.015662670135498047e-01,4.015561103820800559e-01,4.015459537506103627e-01,4.015357971191406139e-01,4.015256881713867299e-01,4.015155315399169811e-01,4.015053749084472878e-01,4.014952659606933483e-01,4.014851093292236550e-01,4.014749526977539062e-01,4.014647960662841575e-01
1.000000000000000000e+00,1.000000000000000000e+00,1.000000000000000000e+00,1.000000000000000000e+00,1.000000000000000000e+00,1.000000000000000000e+00,1.000000000000000000e+00,1.000000000000000000e+00,1.000000000000000000e+00,1.000000000000000000e+00,1.000000000000000000e+00,1.000000000000000000e+00,8.029572963714599887e-02,8.090296387672424316e-02,8.151946067810059149e-02,8.214541077613830844e-02,8.278105258941650946e-02,8.342661261558532992e-02,8.408231735229491910e-02,8.474840521812439242e-02,8.542513847351074219e-02,8.611276149749755304e-02,8.681154847145081122e-02,8.752176761627197821e-02,8.824369907379150946e-02,8.897764086723328192e-02,8.972389698028564176e-02,9.048278331756591519e-02,9.125460982322693149e-02,9.203971624374389371e-02,9.283844828605651578e-02,9.365116357803345004e-02,9.447823762893677035e-02,9.532005190849304754e-02,9.617699384689330777e-02,9.704948663711547574e-02,9.793795943260193149e-02,9.884284734725952426e-02,9.976460933685302179e-02,1.007037162780761719e-01,1.016606926918029730e-01,1.026360273361206082e-01,1.036302447319030762e-01,1.046439290046691922e-01,1.056776285171508734e-01,1.067319512367248535e-01,1.078075408935546819e-01,3.906784296035766824e-01,3.906688213348388783e-01,3.906592369079590066e-01,3.906496286392212025e-01,3.906400442123413308e-01,3.906304359436035267e-01,3.906208038330077903e-01,3.906111955642700417e-01,3.906016111373901145e-01,3.905920267105102428e-01,3.905824184417724387e-01,3.905728340148925670e-01,3.905632257461547630e-01,3.905536413192748912e-01,3.905440092086792103e-01,3.905344247817993386e-01,3.905248165130615345e-01,3.905152320861816628e-01,3.905056476593017356e-01,3.904960632324218639e-01,3.904864788055419922e-01,3.904768943786621205e-01,3.904672384262085072e-01,3.904576539993286355e-01,3.904480695724487083e-01,3.904384851455688366e-01,3.904289007186889648e-01,3.904193162918090931e-01,3.904097318649292214e-01,3.904001474380492942e-01,3.903905153274536133e-01,3.903809309005737416e-01,3.903713464736938699e-01,3.903617620468139426e-01,3.903522014617920033e-01,3.903426170349121316e-01,3.903330326080322044e-01,3.903234481811523326e-01,3.903138160705566517e-01,3.903042316436767800e-01,3.902946710586547852e-01,3.902850866317749134e-01,3.902755022048950417e-01,3.902659177780151145e-01,3.902563571929931752e-01,3.902467250823974387e-01,3.902371406555175670e-01,3.902275800704956277e-01,3.902179956436157005e-01,3.902084350585937611e-01,3.901988506317138894e-01,3.901892662048339622e-01,3.901797056198120228e-01,3.901700735092162864e-01,3.901605129241943470e-01,3.901509523391723522e-01,3.901413679122924805e-01,3.901318073272704856e-01,3.901222229003906139e-01,3.901126623153686745e-01,3.901030778884887473e-01,3.900934696197509988e-01,3.900839090347290039e-01,3.900743246078491322e-01,3.900647640228271373e-01,3.900552034378051980e-01,3.900456428527832031e-01,3.900360584259033314e-01,3.900264978408813366e-01,3.900168895721435325e-01,3.900073289871215931e-01,3.899977684020995983e-01
1.000000000000000000e+00,1.000000000000000000e+00,1.000000000000000000e+00,1.000000000000000000e+00,1.000000000000000000e+00,1.000000000000000000e+00,1.000000000000000000e+00,1.000000000000000000e+00,1.000000000000000000e+00,1.000000000000000000e+00,1.000000000000000000e+00,1.000000000000000000e+00,8.028789758682250421e-02,8.089501261711121161e-02,8.151137828826904297e-02,8.213720917701720914e-02,8.277271986007690707e-02,8.341814875602722446e-02,8.407371640205382746e-02,8.473967313766479770e-02,8.541626334190369207e-02,8.610374331474304754e-02,8.680239319801330566e-02,8.751246333122253418e-02,8.823423981666564386e-02,8.896802663803100863e-02,8.971411585807800848e-02,9.047282934188842496e-02,9.124448895454406738e-02,9.202941656112670343e-02,9.282796978950499933e-02,9.364050030708312433e-02,9.446738362312316617e-02,9.530900120735168179e-02,9.616575241088867743e-02,9.703804850578308383e-02,9.792630672454834262e-02,9.883098006248473844e-02,9.975252151489258368e-02,1.006914019584655706e-01,1.016481280326843317e-01,1.026232242584228516e-01,1.036171913146972656e-01,1.046306133270263616e-01,1.056640625000000028e-01,1.067181110382080106e-01,1.077934145927429144e-01,3.798109292984008789e-01,3.798018217086792103e-01,3.797927618026733509e-01,3.797836780548095592e-01,3.797746181488036998e-01,3.797655344009399636e-01,3.797564744949341042e-01,3.797474145889282449e-01,3.797383308410644531e-01,3.797292232513427845e-01,3.797201633453369252e-01,3.797111034393310658e-01,3.797020196914672741e-01,3.796929597854614147e-01,3.796838998794555553e-01,3.796748399734496959e-01,3.796657800674438366e-01,3.796566724777221680e-01,3.796475887298583762e-01,3.796385288238525169e-01,3.796294689178466575e-01,3.796204090118407981e-01,3.796113491058349387e-01,3.796022891998290794e-01,3.795932292938232200e-01,3.795841217041015514e-01,3.795750617980956920e-01,3.795660018920898326e-01,3.795569419860839733e-01,3.795478820800781139e-01,3.795388221740722545e-01,3.795297622680663951e-01,3.795207023620605358e-01,3.795116186141967995e-01,3.795025587081909402e-01,3.794934988021850808e-01,3.794844388961792214e-01,3.794753789901733620e-01,3.794663429260253795e-01,3.794572830200195201e-01,3.794482231140136608e-01,3.794391393661499245e-01,3.794300794601440652e-01,3.794210195541382058e-01,3.794119596481323464e-01,3.794029235839843639e-01,3.793938636779785045e-01,3.793848276138305775e-01,3.793757677078247181e-01,3.793666839599609264e-01,3.793576240539550670e-01,3.793485641479492076e-01,3.793395280838012806e-01,3.793304681777954213e-01,3.793214321136474387e-01,3.793123722076415794e-01,3.793033361434936523e-01,3.792942523956298606e-01,3.792851924896240012e-01,3.792761564254760742e-01,3.792670965194702148e-01,3.792580604553222878e-01,3.792490005493164285e-01,3.792399644851684459e-01,3.792308807373047097e-01,3.792218446731567272e-01,3.792127847671508678e-01,3.792037487030029408e-01,3.791947126388549583e-01,3.791856765747070312e-01,3.791766166687011719e-01,3.791675806045532449e-01
1.000000000000000000e+00,1.000000000000000000e+00,1.000000000000000000e+00,1.000000000000000000e+00,1.000000000000000000e+00,1.000000000000000000e+00,1.000000000000000000e+00,1.000000000000000000e+00,1.000000000000000000e+00,1.000000000000000000e+00,1.000000000000000000e+00,1.000000000000000000e+00,8.028006553649902344e-02,8.088705539703369696e-02,8.150330185890197754e-02,8.212900757789612372e-02,8.276439309120178778e-02,8.340969681739807129e-02,8.406513333320617121e-02,8.473095297813415527e-02,8.540740013122558039e-02,8.609473705291748047e-02,8.679323196411133090e-02,8.750314712524413785e-02,8.822477459907532293e-02,8.895840048789978305e-02,8.970433473587036133e-02,9.046288132667541781e-02,9.123436808586120328e-02,9.201911687850952704e-02,9.281750321388244906e-02,9.362984895706176480e-02,9.445654749870299738e-02,9.529796838760376532e-02,9.615451693534851629e-02,9.702659845352172574e-02,9.791464805603027066e-02,9.881910085678100031e-02,9.974042177200317938e-02,1.006790757179260309e-01,1.016355752944946289e-01,1.026104211807250949e-01,1.036041378974914551e-01,1.046173214912414495e-01,1.056504845619201660e-01,1.067042708396911677e-01,1.077792882919311468e-01,3.695316553115844949e-01,3.695230722427368386e-01,3.695144891738891824e-01,3.695059061050415261e-01,3.694972753524780051e-01,3.694886922836303489e-01,3.694801092147826926e-01,3.694715261459350364e-01,3.694629430770873801e-01,3.694543600082397239e-01,3.694457769393920676e-01,3.694371938705444114e-01,3.694285631179809459e-01,3.694199800491332897e-01,3.694113969802856334e-01,3.694028139114379772e-01,3.693942308425903209e-01,3.693856477737426647e-01,3.693770647048950084e-01,3.693685054779052845e-01,3.693598747253418191e-01,3.693512916564941628e-01,3.693427085876465066e-01,3.693341493606567272e-01,3.693255662918090709e-01,3.693169832229614147e-01,3.693084001541137584e-01,3.692998409271240345e-01,3.692912101745605691e-01,3.692826509475707897e-01,3.692740678787231334e-01,3.692654848098754772e-01,3.692569255828857533e-01,3.692483425140380970e-01,3.692397594451904408e-01,3.692312002182006614e-01,3.692225933074951283e-01,3.692140102386474720e-01,3.692054271697998158e-01,3.691968679428100364e-01,3.691882848739623801e-01,3.691797256469726562e-01,3.691711664199829324e-01,3.691625833511352761e-01,3.691539764404296875e-01,3.691454172134399636e-01,3.691368341445923074e-01,3.691282749176025280e-01,3.691196918487548717e-01,3.691111326217651478e-01,3.691025733947753684e-01,3.690939903259277122e-01,3.690853834152221791e-01,3.690768241882323997e-01,3.690682649612426758e-01,3.690596818923950195e-01,3.690511226654052956e-01,3.690425634384155162e-01,3.690340042114257924e-01,3.690254449844360130e-01,3.690168380737304799e-01,3.690082788467407005e-01,3.689997196197509766e-01,3.689911365509033203e-01,3.689825773239135964e-01,3.689740180969238170e-01,3.689654588699340931e-01,3.689568996429443137e-01,3.689482927322387806e-01,3.689397335052490012e-01,3.689311742782592773e-01,3.689226150512695535e-01
1.000000000000000000e+00,1.000000000000000000e+00,1.000000000000000000e+00,1.000000000000000000e+00,1.000000000000000000e+00,1.000000000000000000e+00,1.000000000000000000e+00,1.000000000000000000e+00,1.000000000000000000e+00,1.000000000000000000e+00,1.000000000000000000e+00,1.000000000000000000e+00,8.027223348617554266e-02,8.087911009788513461e-02,8.149523138999939520e-02,8.212081193923950750e-02,8.275607228279113770e-02,8.340123891830444891e-02,8.405654430389404574e-02,8.472222089767456055e-02,8.539853096008301336e-02,8.608572483062744418e-02,8.678407073020935614e-02,8.749384284019470770e-02,8.821531534194945734e-02,8.894879221916199286e-02,8.969455957412719727e-02,9.045293927192687988e-02,9.122425317764282227e-02,9.200883507728577215e-02,9.280703067779541571e-02,9.361919164657592218e-02,9.444569945335387628e-02,9.528692960739135187e-02,9.614327549934387207e-02,9.701515436172485074e-02,9.790298938751221258e-02,9.880723357200622836e-02,9.972833991050719660e-02,1.006667613983154297e-01,1.016230225563049261e-01,1.025976300239563044e-01,1.035910964012145968e-01,1.046040058135986328e-01,1.056369304656982477e-01,1.066904306411743109e-01,1.077651739120483454e-01,3.597941160202026145e-01,3.597859859466552845e-01,3.597778558731078991e-01,3.597697019577026367e-01,3.597615718841552512e-01,3.597534179687499889e-01,3.597452878952026589e-01,3.597371578216552734e-01,3.597289800643920787e-01,3.597208499908447488e-01,3.597126960754394309e-01,3.597045660018921009e-01,3.596964359283447155e-01,3.596883058547973855e-01,3.596801519393920676e-01,3.596720218658447377e-01,3.596638441085815430e-01,3.596557140350341575e-01,3.596475839614868275e-01,3.596394538879394420e-01,3.596313238143921120e-01,3.596231937408447266e-01,3.596150398254394642e-01,3.596068859100342019e-01,3.595987558364868164e-01,3.595906257629394309e-01,3.595824956893921009e-01,3.595743656158447155e-01,3.595662355422973855e-01,3.595581054687500000e-01,3.595499753952026145e-01,3.595417976379394753e-01,3.595336675643920898e-01,3.595255374908447044e-01,3.595174074172973744e-01,3.595092773437499889e-01,3.595011472702026589e-01,3.594930410385132058e-01,3.594849109649658203e-01,3.594767332077026256e-01,3.594686031341552956e-01,3.594604969024658425e-01,3.594523668289184570e-01,3.594442367553710715e-01,3.594361066818237416e-01,3.594280004501342884e-01,3.594198703765869030e-01,3.594116926193237083e-01,3.594035863876342551e-01,3.593954563140869252e-01,3.593873262405395397e-01,3.593792200088500866e-01,3.593710899353027566e-01,3.593629598617553711e-01,3.593548536300659180e-01,3.593466997146606556e-01,3.593385696411132701e-01,3.593304634094238170e-01,3.593223333358764870e-01,3.593142032623291016e-01,3.593060970306396484e-01,3.592979907989501953e-01,3.592898607254028098e-01,3.592817068099975475e-01,3.592735767364502175e-01,3.592654705047607644e-01,3.592573642730713113e-01,3.592492341995239258e-01,3.592411279678344727e-01,3.592329978942870872e-01,3.592248916625976340e-01,3.592167377471923717e-01
1.000000000000000000e+00,1.000000000000000000e+00,1.000000000000000000e+00,1.000000000000000000e+00,1.000000000000000000e+00,1.000000000000000000e+00,1.000000000000000000e+00,1.000000000000000000e+00,1.000000000000000000e+00,1.000000000000000000e+00,1.000000000000000000e+00,1.000000000000000000e+00,8.026440143585204801e-02,8.087115883827208918e-02,8.148716092109679898e-02,8.211261630058289129e-02,8.274774551391601840e-02,8.339278101921081265e-02,8.404794931411743719e-02,8.471349477767944891e-02,8.538967370986938477e-02,8.607672452926636020e-02,8.677492737770080289e-02,8.748454451560974676e-02,8.820586204528808871e-02,8.893917202949523648e-02,8.968477845191955011e-02,9.044299125671387274e-02,9.121413826942444125e-02,9.199854135513305109e-02,9.279655814170836847e-02,9.360853433609009344e-02,9.443485140800475519e-02,9.527590274810790461e-02,9.613205194473266324e-02,9.700372219085692804e-02,9.789134860038757602e-02,9.879537224769592563e-02,9.971624612808227539e-02,1.006544470787048284e-01,1.016104817390441895e-01,1.025848388671875000e-01,1.035780549049377386e-01,1.045907139778137207e-01,1.056233644485473633e-01,1.066765904426574679e-01,1.077510595321655301e-01,3.505566358566284402e-01,3.505489110946655162e-01,3.505411624908447155e-01,3.505334138870239147e-01,3.505256891250610463e-01,3.505179643630981223e-01,3.505102396011352539e-01,3.505025148391723855e-01,3.504947900772094616e-01,3.504870653152465931e-01,3.504793405532836692e-01,3.504715681076049916e-01,3.504638433456420676e-01,3.504561185836791992e-01,3.504483938217163308e-01,3.504406929016113392e-01,3.504329681396484153e-01,3.504252433776855469e-01,3.504175186157226785e-01,3.504097461700439453e-01,3.504020452499389537e-01,3.503943204879760853e-01,3.503865957260131614e-01,3.503788709640502930e-01,3.503711462020874245e-01,3.503634452819824330e-01,3.503557205200195090e-01,3.503479719161987083e-01,3.503402471542358398e-01,3.503325223922729714e-01,3.503247976303100475e-01,3.503170967102050559e-01,3.503093719482421875e-01,3.503016471862793191e-01,3.502939462661743275e-01,3.502861976623535267e-01,3.502784729003906028e-01,3.502707481384277344e-01,3.502630472183227428e-01,3.502553224563598744e-01,3.502476215362548828e-01,3.502398967742920144e-01,3.502321481704712136e-01,3.502244472503662220e-01,3.502167224884032981e-01,3.502090215682983620e-01,3.502012968063354381e-01,3.501935958862304465e-01,3.501858711242675781e-01,3.501781702041625866e-01,3.501704216003417858e-01,3.501626968383789174e-01,3.501549959182739258e-01,3.501472949981689342e-01,3.501395702362060658e-01,3.501318693161010742e-01,3.501241683959960826e-01,3.501164436340332142e-01,3.501087188720702903e-01,3.501009941101074219e-01,3.500932931900024303e-01,3.500855922698974387e-01,3.500778913497925027e-01,3.500701665878295787e-01,3.500624656677245872e-01,3.500547647476196511e-01,3.500470161437988503e-01,3.500393152236938588e-01,3.500316143035888672e-01,3.500239133834838756e-01,3.500162124633788840e-01,3.500084877014160156e-01
1.000000000000000000e+00,1.000000000000000000e+00,1.000000000000000000e+00,1.000000000000000000e+00,1.000000000000000000e+00,1.000000000000000000e+00,1.000000000000000000e+00,1.000000000000000000e+00,1.000000000000000000e+00,1.000000000000000000e+00,1.000000000000000000e+00,1.000000000000000000e+00,8.025656938552856723e-02,8.086320757865905762e-02,8.147908449172973355e-02,8.210442662239074429e-02,8.273943066596985141e-02,8.338433504104614258e-02,8.403937220573425015e-02,8.470478057861327570e-02,8.538081049919128696e-02,8.606771826744079312e-02,8.676577210426331122e-02,8.747523427009581964e-02,8.819640278816223700e-02,8.892955183982849399e-02,8.967499732971191684e-02,9.043304920196533481e-02,9.120402932167052945e-02,9.198825955390929621e-02,9.278609752655028742e-02,9.359789490699768622e-02,9.442402124404906949e-02,9.526486396789550504e-02,9.612081646919250211e-02,9.699228405952453613e-02,9.787970185279845636e-02,9.878350496292113980e-02,9.970415830612182340e-02,1.006421208381652888e-01,1.015979290008544866e-01,1.025720477104186956e-01,1.035650253295898465e-01,1.045774221420288086e-01,1.056097984313964788e-01,1.066627740859985296e-01,1.077369451522827148e-01,3.417815685272216908e-01,3.417742013931274192e-01,3.417668581008911355e-01,3.417595148086547963e-01,3.417521715164184570e-01,3.417448282241821178e-01,3.417374610900879017e-01,3.417301177978515625e-01,3.417227745056152233e-01,3.417154312133788840e-01,3.417080879211426003e-01,3.417007446289062611e-01,3.416934013366699219e-01,3.416860580444335826e-01,3.416786909103393666e-01,3.416713476181030273e-01,3.416640043258666881e-01,3.416566610336303489e-01,3.416493177413940652e-01,3.416419744491577259e-01,3.416346311569213867e-01,3.416273117065429799e-01,3.416199207305908314e-01,3.416126012802124245e-01,3.416052579879760853e-01,3.415979146957397461e-01,3.415905714035034069e-01,3.415832281112670676e-01,3.415759086608886608e-01,3.415685653686523215e-01,3.415611982345581055e-01,3.415538549423217662e-01,3.415465116500854270e-01,3.415391921997070201e-01,3.415318489074706809e-01,3.415245056152343972e-01,3.415171861648559348e-01,3.415098428726196511e-01,3.415024757385253795e-01,3.414951562881469727e-01,3.414878129959106334e-01,3.414804697036742942e-01,3.414731502532958873e-01,3.414658069610595481e-01,3.414584875106811412e-01,3.414511442184448020e-01,3.414437770843505859e-01,3.414364576339721791e-01,3.414291143417358398e-01,3.414217948913574330e-01,3.414144754409790261e-01,3.414071321487426869e-01,3.413998126983642800e-01,3.413924694061279408e-01,3.413851022720336692e-01,3.413777828216552623e-01,3.413704633712768555e-01,3.413631200790405162e-01,3.413558006286621094e-01,3.413484811782837025e-01,3.413411378860473633e-01,3.413337945938110241e-01,3.413264513015746848e-01,3.413191318511962780e-01,3.413117885589599387e-01,3.413044691085815319e-01,3.412971496582031250e-01,3.412898302078247181e-01,3.412825107574463113e-01,3.412751436233520397e-01,3.412678241729736328e-01,3.412605047225952259e-01
1.000000000000000000e+00,1.000000000000000000e+00,1.000000000000000000e+00,1.000000000000000000e+00,1.000000000000000000e+00,1.000000000000000000e+00,1.000000000000000000e+00,1.000000000000000000e+00,1.000000000000000000e+00,1.000000000000000000e+00,1.000000000000000000e+00,1.000000000000000000e+00,8.024874329566955566e-02,8.085526227951049527e-02,8.147101998329162043e-02,8.209623098373412808e-02,8.273110389709473211e-02,8.337588310241698941e-02,8.403078317642212469e-02,8.469605445861816406e-02,8.537194728851318914e-02,8.605871200561523993e-02,8.675661683082580566e-02,8.746594190597534180e-02,8.818695545196533758e-02,8.891994953155517301e-02,8.966522812843322199e-02,9.042311310768127997e-02,9.119392037391663153e-02,9.197797775268554132e-02,9.277563095092773715e-02,9.358724355697631281e-02,9.441317915916443149e-02,9.525383114814758856e-02,9.610958099365234097e-02,9.698084592819214422e-02,9.786806106567383368e-02,9.877165555953978937e-02,9.969208240509033758e-02,1.006298184394836398e-01,1.015853762626647977e-01,1.025592565536499051e-01,1.035519838333129883e-01,1.045641303062438965e-01,1.055962443351745605e-01,1.066489458084106390e-01,1.077228426933288519e-01,3.334351062774658092e-01,3.334280729293823131e-01,3.334210872650146262e-01,3.334141016006469949e-01,3.334071159362793080e-01,3.334001302719116211e-01,3.333931446075439342e-01,3.333861351013183705e-01,3.333791494369506836e-01,3.333721399307251199e-01,3.333651542663574330e-01,3.333581447601318137e-01,3.333511590957641824e-01,3.333441734313964955e-01,3.333371877670288086e-01,3.333302021026611217e-01,3.333232164382934348e-01,3.333162069320678711e-01,3.333092212677001842e-01,3.333022356033324973e-01,3.332952499389648660e-01,3.332882642745971791e-01,3.332812786102294922e-01,3.332742929458618053e-01,3.332673072814941184e-01,3.332602739334106223e-01,3.332533121109008678e-01,3.332463264465331809e-01,3.332393407821655495e-01,3.332323551177978627e-01,3.332253694534301758e-01,3.332183837890624889e-01,3.332113981246948020e-01,3.332043886184692383e-01,3.331974029541015514e-01,3.331904172897338645e-01,3.331834554672241100e-01,3.331764698028564231e-01,3.331694841384887917e-01,3.331624984741211049e-01,3.331555366516113503e-01,3.331485033035278542e-01,3.331415414810180442e-01,3.331345558166504128e-01,3.331275701522827259e-01,3.331206083297729714e-01,3.331136226654052845e-01,3.331066370010375977e-01,3.330996751785278431e-01,3.330926656723022239e-01,3.330856800079345925e-01,3.330786943435669056e-01,3.330717325210571511e-01,3.330647468566894642e-01,3.330577850341797097e-01,3.330507993698120228e-01,3.330438137054443359e-01,3.330368041992187722e-01,3.330298423767089622e-01,3.330228567123413308e-01,3.330158948898315208e-01,3.330089092254638894e-01,3.330019474029540794e-01,3.329949617385864480e-01,3.329879999160766380e-01,3.329809904098510742e-01,3.329740285873413197e-01,3.329670429229736328e-01,3.329600811004638783e-01,3.329531192779541238e-01,3.329461336135864369e-01,3.329391717910766824e-01
1.000000000000000000e+00,1.000000000000000000e+00,1.000000000000000000e+00,1.000000000000000000e+00,1.000000000000000000e+00,1.000000000000000000e+00,1.000000000000000000e+00,1.000000000000000000e+00,1.000000000000000000e+00,1.000000000000000000e+00,1.000000000000000000e+00,1.000000000000000000e+00,8.024091720581054410e-02,8.084731698036193293e-02,8.146294951438903809e-02,8.208803534507751187e-02,8.272278308868408203e-02,8.336743116378783625e-02,8.402220606803893765e-02,8.468734622001647394e-02,8.536309599876404364e-02,8.604971766471862515e-02,8.674747347831726629e-02,8.745664358139038086e-02,8.817749619483947199e-02,8.891033530235289972e-02,8.965545892715454102e-02,9.041317105293274203e-02,9.118380546569823664e-02,9.196768999099731723e-02,9.276517033576965610e-02,9.357660412788390558e-02,9.440235495567321500e-02,9.524281024932861051e-02,9.609836339950561523e-02,9.696941971778869074e-02,9.785642027854919711e-02,9.875979423522948664e-02,9.968000054359435480e-02,1.006175160408020047e-01,1.015728354454040472e-01,1.025464773178100530e-01,1.035389542579650823e-01,1.045508384704589844e-01,1.055827021598815946e-01,1.066351175308227484e-01,1.077087402343750028e-01,3.254865646362304910e-01,3.254799127578735241e-01,3.254732370376586803e-01,3.254665851593017689e-01,3.254599094390869252e-01,3.254532337188720814e-01,3.254465579986572377e-01,3.254399061203002708e-01,3.254332542419433594e-01,3.254265785217285156e-01,3.254199266433716042e-01,3.254132747650146373e-01,3.254065990447997936e-01,3.253999233245849498e-01,3.253932714462280384e-01,3.253865957260131947e-01,3.253799438476562278e-01,3.253732919692993164e-01,3.253666400909424050e-01,3.253599643707275613e-01,3.253532886505127175e-01,3.253466367721557506e-01,3.253399848937988392e-01,3.253333091735839955e-01,3.253266572952270286e-01,3.253200054168701172e-01,3.253133535385132058e-01,3.253067016601562389e-01,3.253000020980835183e-01,3.252933502197265514e-01,3.252866983413696400e-01,3.252800464630126731e-01,3.252733945846557617e-01,3.252667427062988503e-01,3.252600908279418834e-01,3.252534389495849720e-01,3.252467632293701283e-01,3.252401113510131614e-01,3.252334594726562500e-01,3.252268075942993386e-01,3.252201557159423717e-01,3.252135038375854603e-01,3.252068519592284934e-01,3.252002000808715820e-01,3.251935243606567383e-01,3.251868724822998269e-01,3.251802206039428600e-01,3.251735687255859486e-01,3.251669168472289817e-01,3.251602649688720703e-01,3.251536130905151589e-01,3.251469612121581920e-01,3.251402854919433483e-01,3.251336336135864369e-01,3.251270055770874023e-01,3.251203536987304910e-01,3.251137018203735241e-01,3.251070499420166127e-01,3.251003980636596458e-01,3.250937700271606667e-01,3.250870943069458230e-01,3.250804424285888561e-01,3.250737905502319447e-01,3.250671625137329102e-01,3.250605106353759988e-01,3.250538587570190319e-01,3.250472068786621205e-01,3.250405788421630859e-01,3.250339031219482422e-01,3.250272512435913308e-01,3.250206232070922963e-01,3.250139713287353294e-01
1.000000000000000000e+00,1.000000000000000000e+00,1.000000000000000000e+00,1.000000000000000000e+00,1.000000000000000000e+00,1.000000000000000000e+00,1.000000000000000000e+00,1.000000000000000000e+00,1.000000000000000000e+00,1.000000000000000000e+00,1.000000000000000000e+00,1.000000000000000000e+00,8.023308515548706332e-02,8.083937764167785367e-02,8.145489096641540805e-02,8.207985162734984796e-02,8.271447420120239813e-02,8.335898518562316617e-02,8.401362299919128140e-02,8.467862606048584539e-02,8.535423278808593195e-02,8.604071140289307196e-02,8.673832416534424383e-02,8.744733929634093683e-02,8.816804289817810336e-02,8.890072703361510953e-02,8.964569568634032926e-02,9.040324687957763949e-02,9.117370843887329102e-02,9.195741415023803156e-02,9.275471568107604425e-02,9.356595873832702914e-02,9.439151883125304621e-02,9.523178339004516324e-02,9.608713388442993719e-02,9.695798754692078192e-02,9.784477353096007746e-02,9.874793291091918390e-02,9.966791868209838590e-02,1.006052136421203558e-01,1.015602946281433105e-01,1.025336980819702148e-01,1.035259246826171903e-01,1.045375585556030246e-01,1.055691480636596624e-01,1.066213011741638239e-01,1.076946377754211398e-01,3.179081439971923606e-01,3.179017782211303600e-01,3.178954362869262917e-01,3.178890705108642356e-01,3.178827285766601674e-01,3.178763628005981667e-01,3.178700208663940430e-01,3.178636550903320424e-01,3.178572893142700417e-01,3.178509235382079856e-01,3.178445816040039174e-01,3.178382158279419167e-01,3.178318738937377930e-01,3.178255081176757924e-01,3.178191661834716686e-01,3.178128242492676003e-01,3.178064346313476674e-01,3.178000926971435436e-01,3.177937269210815430e-01,3.177873849868774192e-01,3.177810430526733509e-01,3.177746772766113503e-01,3.177683353424072266e-01,3.177619934082031028e-01,3.177556037902832253e-01,3.177492618560791016e-01,3.177428960800171009e-01,3.177365541458129772e-01,3.177302122116089089e-01,3.177238702774047852e-01,3.177175045013427845e-01,3.177111625671386608e-01,3.177047967910766602e-01,3.176984310150146595e-01,3.176920890808105358e-01,3.176857471466064675e-01,3.176794052124023438e-01,3.176730632781982200e-01,3.176666975021362194e-01,3.176603317260742188e-01,3.176539897918700950e-01,3.176476478576660267e-01,3.176413059234619030e-01,3.176349639892578347e-01,3.176285982131957786e-01,3.176222562789917103e-01,3.176159143447875866e-01,3.176095485687255859e-01,3.176032066345214622e-01,3.175968647003173939e-01,3.175905227661132701e-01,3.175841808319092019e-01,3.175778388977050781e-01,3.175714969635009544e-01,3.175651550292968861e-01,3.175587892532348855e-01,3.175524473190307617e-01,3.175461053848266380e-01,3.175397634506225697e-01,3.175334215164184459e-01,3.175270795822143777e-01,3.175207376480102539e-01,3.175143957138061301e-01,3.175080299377441295e-01,3.175016880035400613e-01,3.174953460693359375e-01,3.174890041351318137e-01,3.174826622009277455e-01,3.174763202667236217e-01,3.174700021743774303e-01,3.174636602401733620e-01,3.174572944641113059e-01
1.000000000000000000e+00,1.000000000000000000e+00,1.000000000000000000e+00,1.000000000000000000e+00,1.000000000000000000e+00,1.000000000000000000e+00,1.000000000000000000e+00,1.000000000000000000e+00,1.000000000000000000e+00,1.000000000000000000e+00,1.000000000000000000e+00,1.000000000000000000e+00,8.022526502609253485e-02,8.083143234252929132e-02,8.144682645797729492e-02,8.207165598869323175e-02,8.270615339279174805e-02,8.335053920745849609e-02,8.400503993034362515e-02,8.466990590095520297e-02,8.534537553787231723e-02,8.603172302246094028e-02,8.672918677330017367e-02,8.743805289268494207e-02,8.815860152244567316e-02,8.889112472534180243e-02,8.963592052459716519e-02,9.039331078529358465e-02,9.116359949111937921e-02,9.194713234901427668e-02,9.274425506591796320e-02,9.355531334877013883e-02,9.438068866729736051e-02,9.522075653076171597e-02,9.607592225074768066e-02,9.694656729698181152e-02,9.783314466476440707e-02,9.873608946800231656e-02,9.965585470199585238e-02,1.005929112434387207e-01,1.015477657318115262e-01,1.025209188461303766e-01,1.035128951072692843e-01,1.045242786407470648e-01,1.055556058883666964e-01,1.066074848175048856e-01,1.076805472373962430e-01,3.106746196746826283e-01,3.106685638427734153e-01,3.106624841690063255e-01,3.106563806533813588e-01,3.106503248214721458e-01,3.106442451477050559e-01,3.106381893157958984e-01,3.106321096420288086e-01,3.106260538101196511e-01,3.106199741363525613e-01,3.106139183044433483e-01,3.106078147888183816e-01,3.106017589569091686e-01,3.105956792831420787e-01,3.105896234512329213e-01,3.105835437774658314e-01,3.105774879455566184e-01,3.105714321136474609e-01,3.105653524398803711e-01,3.105592727661132812e-01,3.105531930923461914e-01,3.105471372604370339e-01,3.105410575866699441e-01,3.105350017547607311e-01,3.105289459228515736e-01,3.105228900909423606e-01,3.105168104171752708e-01,3.105107307434081809e-01,3.105046510696410911e-01,3.104985952377319336e-01,3.104925394058227761e-01,3.104864835739135631e-01,3.104804039001464733e-01,3.104743480682373158e-01,3.104682922363281028e-01,3.104621887207031361e-01,3.104561328887939231e-01,3.104500770568847656e-01,3.104440212249756081e-01,3.104379653930663951e-01,3.104318857192993053e-01,3.104258298873901478e-01,3.104197740554809348e-01,3.104136943817138450e-01,3.104076385498046875e-01,3.104015588760375977e-01,3.103955030441284402e-01,3.103894472122192272e-01,3.103833913803100697e-01,3.103773355484008567e-01,3.103712797164916992e-01,3.103652000427246094e-01,3.103591442108154519e-01,3.103530883789062389e-01,3.103470325469970814e-01,3.103409767150878684e-01,3.103349208831787109e-01,3.103288650512695535e-01,3.103228092193603405e-01,3.103167057037353738e-01,3.103106498718261608e-01,3.103045940399170033e-01,3.102985620498657227e-01,3.102925062179565652e-01,3.102864503860473522e-01,3.102803945541381947e-01,3.102743148803711049e-01,3.102682590484618919e-01,3.102622032165527344e-01,3.102561473846435769e-01,3.102500915527343639e-01,3.102440357208252064e-01
1.000000000000000000e+00,1.000000000000000000e+00,1.000000000000000000e+00,1.000000000000000000e+00,1.000000000000000000e+00,1.000000000000000000e+00,1.000000000000000000e+00,1.000000000000000000e+00,1.000000000000000000e+00,1.000000000000000000e+00,1.000000000000000000e+00,1.000000000000000000e+00,8.021744489669799250e-02,8.082348704338074286e-02,8.143876194953918179e-02,8.206347227096558172e-02,8.269784450531006414e-02,8.334209918975829523e-02,8.399646878242492121e-02,8.466119766235351285e-02,8.533653020858764093e-02,8.602272272109985629e-02,8.672004342079162043e-02,8.742876052856445035e-02,8.814915418624877375e-02,8.888151645660399836e-02,8.962615132331848422e-02,9.038337469100951593e-02,9.115349650382995050e-02,9.193686842918395719e-02,9.273380637168884832e-02,9.354468584060668390e-02,9.436987042427062711e-02,9.520974159240722101e-02,9.606469869613647183e-02,9.693514108657837192e-02,9.782150983810425360e-02,9.872424006462096613e-02,9.964377880096435269e-02,1.005806088447570856e-01,1.015352249145507757e-01,1.025081396102905246e-01,1.034998774528503446e-01,1.045109987258911188e-01,1.055420637130737305e-01,1.065936684608459473e-01,1.076664566993713323e-01,3.037629365921020730e-01,3.037571430206298939e-01,3.037513256072997825e-01,3.037455320358276589e-01,3.037397384643554799e-01,3.037339210510253684e-01,3.037281036376953125e-01,3.037223100662231334e-01,3.037164926528930775e-01,3.037106990814208984e-01,3.037049055099487194e-01,3.036990880966186634e-01,3.036932945251464844e-01,3.036875009536743053e-01,3.036816835403442494e-01,3.036758661270141380e-01,3.036700725555420144e-01,3.036642789840698353e-01,3.036584854125976562e-01,3.036526679992676003e-01,3.036468744277954213e-01,3.036410808563232422e-01,3.036352634429931863e-01,3.036294698715210072e-01,3.036236524581908958e-01,3.036178588867187722e-01,3.036120653152465931e-01,3.036062717437744141e-01,3.036004781723022350e-01,3.035946846008300559e-01,3.035888671875000000e-01,3.035830497741699441e-01,3.035772562026977650e-01,3.035714626312255859e-01,3.035656690597534069e-01,3.035598754882812278e-01,3.035540819168091042e-01,3.035482883453369252e-01,3.035424709320068137e-01,3.035366773605346902e-01,3.035308837890625111e-01,3.035250902175903320e-01,3.035192966461181530e-01,3.035135030746459739e-01,3.035077095031738503e-01,3.035019159317016713e-01,3.034960985183715598e-01,3.034903049468994363e-01,3.034845113754272572e-01,3.034787178039550781e-01,3.034729242324828991e-01,3.034671306610107200e-01,3.034613609313964733e-01,3.034555673599242942e-01,3.034497499465942383e-01,3.034439563751220592e-01,3.034381628036498801e-01,3.034323692321777566e-01,3.034265756607055775e-01,3.034207820892333984e-01,3.034150123596191517e-01,3.034092187881469727e-01,3.034034013748169167e-01,3.033976078033447377e-01,3.033918142318725586e-01,3.033860445022583119e-01,3.033802509307861328e-01,3.033744573593139537e-01,3.033686637878417747e-01,3.033628940582275280e-01,3.033570766448974720e-01,3.033512830734252930e-01
1.000000000000000000e+00,1.000000000000000000e+00,1.000000000000000000e+00,1.000000000000000000e+00,1.000000000000000000e+00,1.000000000000000000e+00,1.000000000000000000e+00,1.000000000000000000e+00,1.000000000000000000e+00,1.000000000000000000e+00,1.000000000000000000e+00,1.000000000000000000e+00,8.020962476730346402e-02,8.081555366516113281e-02,8.143070340156555176e-02,8.205528855323791781e-02,8.268952965736389715e-02,8.333365321159362515e-02,8.398789167404174805e-02,8.465248346328735352e-02,8.532767295837402621e-02,8.601372838020324152e-02,8.671090006828308105e-02,8.741946220397948941e-02,8.813971877098084051e-02,8.887192010879516046e-02,8.961639404296875555e-02,9.037345051765441339e-02,9.114340543746948797e-02,9.192659258842468539e-02,9.272335171699523648e-02,9.353404641151427668e-02,9.435904026031494141e-02,9.519872069358825684e-02,9.605348110198974609e-02,9.692372083663940152e-02,9.780987501144408625e-02,9.871239662170409879e-02,9.963172078132628839e-02,1.005683183670043890e-01,1.015226960182189914e-01,1.024953722953796387e-01,1.034868597984313909e-01,1.044977188110351590e-01,1.055285215377807645e-01,1.065798640251159612e-01,1.076523661613464355e-01,2.971521139144897572e-01,2.971465587615966797e-01,2.971409797668457253e-01,2.971354246139526478e-01,2.971298933029175027e-01,2.971243381500244252e-01,2.971187829971313477e-01,2.971132278442382701e-01,2.971076726913451926e-01,2.971021413803100475e-01,2.970965623855590931e-01,2.970910072326660156e-01,2.970854520797729381e-01,2.970798969268798606e-01,2.970743417739868386e-01,2.970688104629516380e-01,2.970632553100586160e-01,2.970577001571655384e-01,2.970521211624145286e-01,2.970465898513793834e-01,2.970410346984863059e-01,2.970354795455932839e-01,2.970299243927002064e-01,2.970243930816650613e-01,2.970188379287719838e-01,2.970132589340209739e-01,2.970077276229858287e-01,2.970021724700927512e-01,2.969966173171997292e-01,2.969910860061645286e-01,2.969855308532715066e-01,2.969799757003784291e-01,2.969744443893432839e-01,2.969688653945922741e-01,2.969633102416991965e-01,2.969577789306640514e-01,2.969522237777709739e-01,2.969466924667358287e-01,2.969411373138427512e-01,2.969356060028076061e-01,2.969300508499145286e-01,2.969244718551635742e-01,2.969189405441284291e-01,2.969133853912353516e-01,2.969078540802002064e-01,2.969022989273071289e-01,2.968967676162719838e-01,2.968912124633789062e-01,2.968856811523437611e-01,2.968801021575927512e-01,2.968745708465576061e-01,2.968690156936645286e-01,2.968634843826293834e-01,2.968579292297363059e-01,2.968523979187011608e-01,2.968468666076660156e-01,2.968413114547729381e-01,2.968357563018798606e-01,2.968302011489868386e-01,2.968246698379516380e-01,2.968191385269164928e-01,2.968135833740234153e-01,2.968080520629882701e-01,2.968025207519531250e-01,2.967969655990600475e-01,2.967914104461669700e-01,2.967858552932739480e-01,2.967803239822387473e-01,2.967747926712036022e-01,2.967692613601684570e-01,2.967637062072753795e-01,2.967581748962402344e-01
1.000000000000000000e+00,1.000000000000000000e+00,1.000000000000000000e+00,1.000000000000000000e+00,1.000000000000000000e+00,1.000000000000000000e+00,1.000000000000000000e+00,1.000000000000000000e+00,1.000000000000000000e+00,1.000000000000000000e+00,1.000000000000000000e+00,1.000000000000000000e+00,8.020180463790893555e-02,8.080761432647705356e-02,8.142263889312743863e-02,8.204710483551025391e-02,8.268121480941773016e-02,8.332521319389343817e-02,8.397931456565857489e-02,8.464378118515014648e-02,8.531883358955383301e-02,8.600473999977112372e-02,8.670176863670349399e-02,8.741018176078796387e-02,8.813027143478394110e-02,8.886231780052185336e-02,8.960663080215454379e-02,9.036352038383484164e-02,9.113330841064452847e-02,9.191631674766539972e-02,9.271289706230163852e-02,9.352340698242186945e-02,9.434822797775269110e-02,9.518771171569824496e-02,9.604226946830748957e-02,9.691230654716491422e-02,9.779825806617736816e-02,9.870055317878723145e-02,9.961965084075927179e-02,1.005560278892517062e-01,1.015101790428161593e-01,1.024826049804687528e-01,1.034738421440124512e-01,1.044844508171081515e-01,1.055149912834167508e-01,1.065660595893859891e-01,1.076382875442504911e-01,2.908228874206543191e-01,2.908175706863403431e-01,2.908122539520263672e-01,2.908069372177123912e-01,2.908016204833984153e-01,2.907962799072265625e-01,2.907909631729125866e-01,2.907856464385986106e-01,2.907803297042846902e-01,2.907750129699707142e-01,2.907696962356567383e-01,2.907643795013427623e-01,2.907590627670287864e-01,2.907537221908569336e-01,2.907484054565429576e-01,2.907430887222289817e-01,2.907377719879150613e-01,2.907324552536010853e-01,2.907271385192871094e-01,2.907218217849731334e-01,2.907165050506591575e-01,2.907111644744873047e-01,2.907058477401733287e-01,2.907005310058593528e-01,2.906952381134033092e-01,2.906899213790893333e-01,2.906846046447754128e-01,2.906792879104614369e-01,2.906739711761474609e-01,2.906686305999756081e-01,2.906633138656616322e-01,2.906580209732055886e-01,2.906527042388916127e-01,2.906473875045776367e-01,2.906420707702636608e-01,2.906367540359496848e-01,2.906314611434936412e-01,2.906261205673217884e-01,2.906208038330078125e-01,2.906154870986938366e-01,2.906101703643798606e-01,2.906048774719238170e-01,2.905995607376098411e-01,2.905942440032959206e-01,2.905889034271240123e-01,2.905836105346679688e-01,2.905782938003539928e-01,2.905729770660400169e-01,2.905676841735839733e-01,2.905623674392699973e-01,2.905570507049560769e-01,2.905517578124999778e-01,2.905464172363281250e-01,2.905411005020141491e-01,2.905358076095581055e-01,2.905304908752441295e-01,2.905251741409301536e-01,2.905198812484741100e-01,2.905145645141601340e-01,2.905092716217040905e-01,2.905039310455322377e-01,2.904986143112182617e-01,2.904933214187622181e-01,2.904880046844482422e-01,2.904827117919921986e-01,2.904773950576782227e-01,2.904721021652221791e-01,2.904667854309082031e-01,2.904614448547363503e-01,2.904561519622802512e-01,2.904508352279663308e-01,2.904455423355102317e-01
1.000000000000000000e+00,1.000000000000000000e+00,1.000000000000000000e+00,1.000000000000000000e+00,1.000000000000000000e+00,1.000000000000000000e+00,1.000000000000000000e+00,1.000000000000000000e+00,1.000000000000000000e+00,1.000000000000000000e+00,1.000000000000000000e+00,1.000000000000000000e+00,8.019398450851440707e-02,8.079967498779297430e-02,8.141458034515380859e-02,8.203892707824707309e-02,8.267291188240051547e-02,8.331677913665772039e-02,8.397074937820434015e-02,8.463506698608398715e-02,8.530998229980468750e-02,8.599574565887450894e-02,8.669262528419494074e-02,8.740089535713195523e-02,8.812083005905151090e-02,8.885272145271301547e-02,8.959687352180481512e-02,9.035360217094420832e-02,9.112321734428405207e-02,9.190605282783508023e-02,9.270246028900146207e-02,9.351278543472289762e-02,9.433740377426147461e-02,9.517669677734375000e-02,9.603105783462524692e-02,9.690089225769042691e-02,9.778662919998168390e-02,9.868870973587036410e-02,9.960758686065673828e-02,1.005437374114990234e-01,1.014976501464843750e-01,1.024698376655578669e-01,1.034608244895935114e-01,1.044711828231811579e-01,1.055014610290527372e-01,1.065522551536560031e-01,1.076241970062255804e-01,2.847576379776001199e-01,2.847525596618652455e-01,2.847474575042724387e-01,2.847423553466796875e-01,2.847372531890869363e-01,2.847321510314941295e-01,2.847270488739013783e-01,2.847219467163085715e-01,2.847168445587158203e-01,2.847117424011230691e-01,2.847066402435302623e-01,2.847015380859375111e-01,2.846964359283447044e-01,2.846913576126098855e-01,2.846862554550170787e-01,2.846811532974243275e-01,2.846760272979736439e-01,2.846709489822387695e-01,2.846658468246460183e-01,2.846607446670532116e-01,2.846556425094604603e-01,2.846505641937255859e-01,2.846454620361328347e-01,2.846403598785400280e-01,2.846352577209472767e-01,2.846301555633544700e-01,2.846250534057617188e-01,2.846199750900268444e-01,2.846148729324340931e-01,2.846097707748412864e-01,2.846046924591064675e-01,2.845995903015136608e-01,2.845944643020629772e-01,2.845893859863281028e-01,2.845842838287353516e-01,2.845792055130004772e-01,2.845741033554077259e-01,2.845690011978149192e-01,2.845639228820801003e-01,2.845588207244872936e-01,2.845537185668945424e-01,2.845486164093017356e-01,2.845435380935669167e-01,2.845384359359741100e-01,2.845333576202392356e-01,2.845282554626464844e-01,2.845231771469116100e-01,2.845180749893188588e-01,2.845129489898681752e-01,2.845078706741333008e-01,2.845027685165405495e-01,2.844976902008056752e-01,2.844926118850708008e-01,2.844875097274780495e-01,2.844824314117431752e-01,2.844773292541503684e-01,2.844722270965576172e-01,2.844671249389648660e-01,2.844620466232299916e-01,2.844569444656371848e-01,2.844518661499023660e-01,2.844467878341674916e-01,2.844417095184326172e-01,2.844365835189819336e-01,2.844315052032470592e-01,2.844264030456543080e-01,2.844213247299194336e-01,2.844162464141845592e-01,2.844111442565918080e-01,2.844060659408569336e-01,2.844009876251220592e-01,2.843958616256713756e-01
1.000000000000000000e+00,1.000000000000000000e+00,1.000000000000000000e+00,1.000000000000000000e+00,1.000000000000000000e+00,1.000000000000000000e+00,1.000000000000000000e+00,1.000000000000000000e+00,1.000000000000000000e+00,1.000000000000000000e+00,1.000000000000000000e+00,1.000000000000000000e+00,8.018617033958434781e-02,8.079174160957336426e-02,8.140652775764464777e-02,8.203074336051940918e-02,8.266460299491881769e-02,8.330833911895751953e-02,8.396217823028565008e-02,8.462635874748229703e-02,8.530113101005554199e-02,8.598675727844237726e-02,8.668348789215088446e-02,8.739161491394042969e-02,8.811139464378356378e-02,8.884313106536864679e-02,8.958712220191955566e-02,9.034367799758910578e-02,9.111312031745910645e-02,9.189578294754027765e-02,9.269201159477233332e-02,9.350215196609497348e-02,9.432658553123474121e-02,9.516568183898925504e-02,9.601984620094299039e-02,9.688948392868042270e-02,9.777501225471496582e-02,9.867687821388244906e-02,9.959553480148315707e-02,1.005314469337463407e-01,1.014851331710815430e-01,1.024570703506469671e-01,1.034478187561035101e-01,1.044579148292541504e-01,1.054879307746887235e-01,1.065384626388549832e-01,1.076101183891296359e-01,2.789402484893798717e-01,2.789353609085082897e-01,2.789304733276367076e-01,2.789255619049072488e-01,2.789206504821777344e-01,2.789157629013061523e-01,2.789108753204345703e-01,2.789059877395629883e-01,2.789011001586914062e-01,2.788962125778198242e-01,2.788913011550903098e-01,2.788863897323608509e-01,2.788815021514892689e-01,2.788766145706176869e-01,2.788717269897461049e-01,2.788668394088745228e-01,2.788619518280029408e-01,2.788570642471313588e-01,2.788521766662597767e-01,2.788472414016723855e-01,2.788423538208008035e-01,2.788374662399292214e-01,2.788325786590576394e-01,2.788276910781860574e-01,2.788228034973144753e-01,2.788179159164428933e-01,2.788130283355713113e-01,2.788081169128417969e-01,2.788032293319702148e-01,2.787983417510986328e-01,2.787934541702270508e-01,2.787885665893554688e-01,2.787836790084838867e-01,2.787787914276123047e-01,2.787739038467407227e-01,2.787689924240112083e-01,2.787641048431396262e-01,2.787592172622680442e-01,2.787543296813964622e-01,2.787494421005248801e-01,2.787445545196532981e-01,2.787396907806396484e-01,2.787348031997680664e-01,2.787298917770385520e-01,2.787250041961669700e-01,2.787201166152953880e-01,2.787152290344238059e-01,2.787103414535522239e-01,2.787054538726806419e-01,2.787005662918090598e-01,2.786957025527954102e-01,2.786907911300658958e-01,2.786859035491943137e-01,2.786810159683227317e-01,2.786761283874511497e-01,2.786712408065795676e-01,2.786663770675659180e-01,2.786614894866943359e-01,2.786566019058227539e-01,2.786516904830932395e-01,2.786468029022216575e-01,2.786419391632080078e-01,2.786370515823364258e-01,2.786321640014648438e-01,2.786272764205932617e-01,2.786224126815796120e-01,2.786175251007080300e-01,2.786126136779785156e-01,2.786077260971069336e-01,2.786028623580932839e-01,2.785979747772217019e-01,2.785930871963501199e-01
1.000000000000000000e+00,1.000000000000000000e+00,1.000000000000000000e+00,1.000000000000000000e+00,1.000000000000000000e+00,1.000000000000000000e+00,1.000000000000000000e+00,1.000000000000000000e+00,1.000000000000000000e+00,1.000000000000000000e+00,1.000000000000000000e+00,1.000000000000000000e+00,8.017835617065430243e-02,8.078380823135375421e-02,8.139847517013550082e-02,8.202256560325622836e-02,8.265629410743713379e-02,8.329989910125731867e-02,8.395361304283141535e-02,8.461766242980957309e-02,8.529229760169983188e-02,8.597777485847472867e-02,8.667436242103576660e-02,8.738232851028442105e-02,8.810195922851563055e-02,8.883353471755980890e-02,8.957736492156982699e-02,9.033375382423400324e-02,9.110302925109863004e-02,9.188551902770995816e-02,9.268157482147217074e-02,9.349153637886047086e-02,9.431577324867249090e-02,9.515468478202819547e-02,9.600864648818970004e-02,9.687807559967040461e-02,9.776338934898376465e-02,9.866504073143005094e-02,9.958347678184509277e-02,1.005191683769226102e-01,1.014726161956787109e-01,1.024443149566650335e-01,1.034348130226135226e-01,1.044446587562561091e-01,1.054744124412536621e-01,1.065246701240539495e-01,1.075960516929626437e-01,2.733557701110839733e-01,2.733510732650756836e-01,2.733463764190673939e-01,2.733416795730591042e-01,2.733369827270507590e-01,2.733322858810424694e-01,2.733275890350341797e-01,2.733228683471679576e-01,2.733181715011596680e-01,2.733134746551513783e-01,2.733087778091430886e-01,2.733040809631347434e-01,2.732993841171264537e-01,2.732946872711181641e-01,2.732899904251098744e-01,2.732852697372436523e-01,2.732805728912353627e-01,2.732758760452270730e-01,2.732711791992187278e-01,2.732664823532104381e-01,2.732617855072021484e-01,2.732570886611938588e-01,2.732523679733276367e-01,2.732476711273193470e-01,2.732429742813110574e-01,2.732382774353027122e-01,2.732335805892944225e-01,2.732288837432861328e-01,2.732242107391357200e-01,2.732195138931274303e-01,2.732147932052612083e-01,2.732100963592529186e-01,2.732053995132446289e-01,2.732007026672363392e-01,2.731960058212280495e-01,2.731913328170776367e-01,2.731866359710693470e-01,2.731819391250610574e-01,2.731772184371948353e-01,2.731725215911865456e-01,2.731678247451782005e-01,2.731631517410278431e-01,2.731584548950195535e-01,2.731537580490112083e-01,2.731490612030029186e-01,2.731443643569946289e-01,2.731396675109863392e-01,2.731349706649780495e-01,2.731302738189697044e-01,2.731255769729614147e-01,2.731209039688110574e-01,2.731162071228027122e-01,2.731115102767944225e-01,2.731068372726440652e-01,2.731021165847778431e-01,2.730974197387695535e-01,2.730927228927612083e-01,2.730880498886108509e-01,2.730833530426025613e-01,2.730786561965942161e-01,2.730739831924438588e-01,2.730692863464355691e-01,2.730645656585693470e-01,2.730598926544189342e-01,2.730551958084106445e-01,2.730504989624023549e-01,2.730458259582519420e-01,2.730411291122436523e-01,2.730364561080932395e-01,2.730317592620849498e-01,2.730270385742187278e-01,2.730223655700683705e-01
1.000000000000000000e+00,1.000000000000000000e+00,1.000000000000000000e+00,1.000000000000000000e+00,1.000000000000000000e+00,1.000000000000000000e+00,1.000000000000000000e+00,1.000000000000000000e+00,1.000000000000000000e+00,1.000000000000000000e+00,1.000000000000000000e+00,1.000000000000000000e+00,8.017054200172424316e-02,8.077588081359862726e-02,8.139042854309082309e-02,8.201439380645751676e-02,8.264799714088440219e-02,8.329147100448608398e-02,8.394504785537719449e-02,8.460895419120788297e-02,8.528345227241515558e-02,8.596878647804259699e-02,8.666523098945617953e-02,8.737304806709289551e-02,8.809252381324768344e-02,8.882393836975097101e-02,8.956761956214905063e-02,9.032384157180786688e-02,9.109295010566711981e-02,9.187526106834412176e-02,9.267113208770752508e-02,9.348090887069701593e-02,9.430496096611022672e-02,9.514367580413818359e-02,9.599744081497192660e-02,9.686666131019591730e-02,9.775177240371704657e-02,9.865320324897766668e-02,9.957143068313598078e-02,1.005068898200988797e-01,1.014600992202758789e-01,1.024315714836120661e-01,1.034218072891235352e-01,1.044313907623291016e-01,1.054608821868896484e-01,1.065108776092529297e-01,1.075819849967956515e-01,2.679905176162719616e-01,2.679860115051269642e-01,2.679814815521240345e-01,2.679769515991211049e-01,2.679724454879760520e-01,2.679679393768310547e-01,2.679634094238281250e-01,2.679589033126831277e-01,2.679543733596801980e-01,2.679498672485351451e-01,2.679453372955322155e-01,2.679408073425292858e-01,2.679363012313842884e-01,2.679317951202392356e-01,2.679272651672363059e-01,2.679227590560913086e-01,2.679182529449463113e-01,2.679137229919433816e-01,2.679091930389404519e-01,2.679046869277953991e-01,2.679001808166504017e-01,2.678956508636474720e-01,2.678911447525024192e-01,2.678866386413574219e-01,2.678821325302124245e-01,2.678776025772094949e-01,2.678730726242065652e-01,2.678685665130615123e-01,2.678640604019165150e-01,2.678595304489135853e-01,2.678550243377685325e-01,2.678505182266235352e-01,2.678460121154785378e-01,2.678414821624756081e-01,2.678369522094726785e-01,2.678324460983276256e-01,2.678279399871826283e-01,2.678234338760375755e-01,2.678189277648925781e-01,2.678143978118896484e-01,2.678098917007446511e-01,2.678053617477417214e-01,2.678008556365966686e-01,2.677963495254516713e-01,2.677918434143066184e-01,2.677873373031616211e-01,2.677828311920166238e-01,2.677783012390136941e-01,2.677737951278686412e-01,2.677692651748657116e-01,2.677647590637207142e-01,2.677602529525756614e-01,2.677557468414306641e-01,2.677512407302856667e-01,2.677467346191406139e-01,2.677422285079956166e-01,2.677377223968505637e-01,2.677331924438476340e-01,2.677286863327026367e-01,2.677241802215576394e-01,2.677196741104125866e-01,2.677151679992675892e-01,2.677106618881225364e-01,2.677061319351196067e-01,2.677016258239746094e-01,2.676971197128296120e-01,2.676926136016845592e-01,2.676881074905395619e-01,2.676836013793945090e-01,2.676790952682495117e-01,2.676745891571045144e-01,2.676700830459594616e-01
1.000000000000000000e+00,1.000000000000000000e+00,1.000000000000000000e+00,1.000000000000000000e+00,1.000000000000000000e+00,1.000000000000000000e+00,1.000000000000000000e+00,1.000000000000000000e+00,1.000000000000000000e+00,1.000000000000000000e+00,1.000000000000000000e+00,1.000000000000000000e+00,8.016273379325866699e-02,8.076794743537903110e-02,8.138236999511719305e-02,8.200621604919433594e-02,8.263969421386718750e-02,8.328303694725036621e-02,8.393647670745849054e-02,8.460025191307067594e-02,8.527460694313049316e-02,8.595981001853943149e-02,8.665610551834106168e-02,8.736377358436583918e-02,8.808309435844421942e-02,8.881435990333556851e-02,8.955786228179932196e-02,9.031392335891723355e-02,9.108285903930664340e-02,9.186500310897827148e-02,9.266068935394286554e-02,9.347028732299804410e-02,9.429414868354797641e-02,9.513267874717712402e-02,9.598624706268310547e-02,9.685526490211486539e-02,9.774016737937926691e-02,9.864138364791870395e-02,9.955937862396239957e-02,1.004946112632751493e-01,1.014475941658019992e-01,1.024188160896301325e-01,1.034088134765625000e-01,1.044181466102600125e-01,1.054473638534545871e-01,1.064970850944519098e-01,1.075679183006286593e-01,2.628318071365356445e-01,2.628274679183960072e-01,2.628231287002563699e-01,2.628187894821166770e-01,2.628144502639770397e-01,2.628100872039794700e-01,2.628057479858398326e-01,2.628013849258422630e-01,2.627970457077026256e-01,2.627927064895629883e-01,2.627883672714233509e-01,2.627840280532837136e-01,2.627796888351440208e-01,2.627753257751465066e-01,2.627709865570068137e-01,2.627666234970092995e-01,2.627622842788696067e-01,2.627579450607299694e-01,2.627536058425903320e-01,2.627492666244506947e-01,2.627449274063110574e-01,2.627405643463134877e-01,2.627362251281738503e-01,2.627318859100341575e-01,2.627275466918945201e-01,2.627232074737548828e-01,2.627188682556152455e-01,2.627145290374756081e-01,2.627101898193359153e-01,2.627058267593384011e-01,2.627014875411987083e-01,2.626971483230590709e-01,2.626928091049194336e-01,2.626884698867797963e-01,2.626841306686401589e-01,2.626797914505004661e-01,2.626754522323608287e-01,2.626710891723632590e-01,2.626667499542236217e-01,2.626624107360839844e-01,2.626580715179443470e-01,2.626537322998047097e-01,2.626493930816650169e-01,2.626450538635253795e-01,2.626407146453857422e-01,2.626363515853881725e-01,2.626320123672485352e-01,2.626276731491088978e-01,2.626233577728271373e-01,2.626190185546875000e-01,2.626146793365478627e-01,2.626103401184082253e-01,2.626060009002685325e-01,2.626016378402710183e-01,2.625972986221313255e-01,2.625929594039916881e-01,2.625886440277099831e-01,2.625843048095702903e-01,2.625799655914306530e-01,2.625756263732910156e-01,2.625712871551513783e-01,2.625669240951538086e-01,2.625626087188720481e-01,2.625582695007324108e-01,2.625539302825927734e-01,2.625495910644531361e-01,2.625452518463134988e-01,2.625409364700317383e-01,2.625365734100341686e-01,2.625322341918945312e-01,2.625278949737548939e-01,2.625235795974731334e-01
1.000000000000000000e+00,1.000000000000000000e+00,1.000000000000000000e+00,1.000000000000000000e+00,1.000000000000000000e+00,1.000000000000000000e+00,1.000000000000000000e+00,1.000000000000000000e+00,1.000000000000000000e+00,1.000000000000000000e+00,1.000000000000000000e+00,1.000000000000000000e+00,8.015491962432860773e-02,8.076001405715942105e-02,8.137431740760803223e-02,8.199803829193115512e-02,8.263139724731445590e-02,8.327461481094360074e-02,8.392792344093322199e-02,8.459156155586242121e-02,8.526577353477478305e-02,8.595082759857178289e-02,8.664697408676147461e-02,8.735449314117431363e-02,8.807366490364074152e-02,8.880476951599121371e-02,8.954811096191406250e-02,9.030400514602661410e-02,9.107277393341065008e-02,9.185475111007690430e-02,9.265026450157165527e-02,9.345967173576355536e-02,9.428334832191467840e-02,9.512167572975158136e-02,9.597504734992981512e-02,9.684386253356933039e-02,9.772855043411254883e-02,9.862955212593078891e-02,9.954732656478881836e-02,1.004823327064514188e-01,1.014350771903991671e-01,1.024060726165771512e-01,1.033958196640014648e-01,1.044048905372619573e-01,1.054338574409484919e-01,1.064833045005798284e-01,1.075538516044616671e-01,2.578679561614990456e-01,2.578637838363647683e-01,2.578596115112304910e-01,2.578554153442382812e-01,2.578512430191040039e-01,2.578470706939697266e-01,2.578428745269775169e-01,2.578387022018432395e-01,2.578345060348510853e-01,2.578303098678588756e-01,2.578261375427245983e-01,2.578219652175903209e-01,2.578177690505981667e-01,2.578135967254638894e-01,2.578094244003296120e-01,2.578052282333374023e-01,2.578010320663451926e-01,2.577968597412109153e-01,2.577926874160766380e-01,2.577885150909423606e-01,2.577843189239502064e-01,2.577801465988159291e-01,2.577759742736816517e-01,2.577717781066894420e-01,2.577675819396972878e-01,2.577634096145630105e-01,2.577592372894287331e-01,2.577550649642944558e-01,2.577508687973022461e-01,2.577466964721679688e-01,2.577425241470336914e-01,2.577383518218994141e-01,2.577341556549072044e-01,2.577299833297729270e-01,2.577257871627807728e-01,2.577216148376464955e-01,2.577174425125122181e-01,2.577132701873779408e-01,2.577090978622436634e-01,2.577049016952514537e-01,2.577007055282592995e-01,2.576965332031250222e-01,2.576923608779907449e-01,2.576881885528564675e-01,2.576840162277221902e-01,2.576798439025879128e-01,2.576756715774536355e-01,2.576714754104614258e-01,2.576673030853271484e-01,2.576631069183349387e-01,2.576589345932006614e-01,2.576547622680663840e-01,2.576505899429321067e-01,2.576464176177978294e-01,2.576422452926635520e-01,2.576380729675292747e-01,2.576338768005371205e-01,2.576297044754028431e-01,2.576255321502685658e-01,2.576213598251342884e-01,2.576171875000000111e-01,2.576130151748657338e-01,2.576088428497314564e-01,2.576046705245971791e-01,2.576004743576049694e-01,2.575963020324706920e-01,2.575921297073364147e-01,2.575879573822021373e-01,2.575837850570678600e-01,2.575796127319335826e-01,2.575754404067993053e-01,2.575712680816650280e-01
1.000000000000000000e+00,1.000000000000000000e+00,1.000000000000000000e+00,1.000000000000000000e+00,1.000000000000000000e+00,1.000000000000000000e+00,1.000000000000000000e+00,1.000000000000000000e+00,1.000000000000000000e+00,1.000000000000000000e+00,1.000000000000000000e+00,1.000000000000000000e+00,8.014711737632751465e-02,8.075209259986877719e-02,8.136627674102783758e-02,8.198987245559692660e-02,8.262309432029724121e-02,8.326618075370788297e-02,8.391935825347900113e-02,8.458285927772521418e-02,8.525693416595458984e-02,8.594184517860412043e-02,8.663784861564635675e-02,8.734521269798278809e-02,8.806424140930176059e-02,8.879519104957581122e-02,8.953837156295776922e-02,9.029410481452941617e-02,9.106270074844360907e-02,9.184449315071105402e-02,9.263982772827147882e-02,9.344905614852905273e-02,9.427254199981689731e-02,9.511067271232605258e-02,9.596384763717651090e-02,9.683246016502380926e-02,9.771695137023925226e-02,9.861773848533630926e-02,9.953529238700867254e-02,1.004700660705566406e-01,1.014225721359252874e-01,1.023933172225952176e-01,1.033828258514404297e-01,1.043916463851928683e-01,1.054203510284423828e-01,1.064695239067077609e-01,1.075397968292236273e-01,2.530881404876709206e-01,2.530841350555420033e-01,2.530801057815551536e-01,2.530760765075683594e-01,2.530720233917236328e-01,2.530679941177368386e-01,2.530639648437499889e-01,2.530599355697631947e-01,2.530559062957763450e-01,2.530518770217895508e-01,2.530478715896606334e-01,2.530438423156738392e-01,2.530397891998291127e-01,2.530357599258422630e-01,2.530317306518554688e-01,2.530277013778686745e-01,2.530236721038818248e-01,2.530196666717529075e-01,2.530156373977661133e-01,2.530115842819213867e-01,2.530075550079345925e-01,2.530035257339477428e-01,2.529995203018188255e-01,2.529954910278320312e-01,2.529914617538452370e-01,2.529874324798583873e-01,2.529834032058715931e-01,2.529793739318847434e-01,2.529753446578979492e-01,2.529713153839111550e-01,2.529672861099243053e-01,2.529632806777953880e-01,2.529592514038085938e-01,2.529552221298217995e-01,2.529511928558349498e-01,2.529471635818481556e-01,2.529431343078613059e-01,2.529391050338745117e-01,2.529350996017455944e-01,2.529310703277588002e-01,2.529270410537719505e-01,2.529230117797851562e-01,2.529190063476562389e-01,2.529149532318115123e-01,2.529109239578247181e-01,2.529069185256958008e-01,2.529028892517090066e-01,2.528988599777221569e-01,2.528948545455932395e-01,2.528908252716064453e-01,2.528867959976196511e-01,2.528827667236328014e-01,2.528787374496460072e-01,2.528747320175170898e-01,2.528707027435302956e-01,2.528666734695434459e-01,2.528626680374145286e-01,2.528586387634277344e-01,2.528546094894409402e-01,2.528505802154540905e-01,2.528465509414672963e-01,2.528425455093383789e-01,2.528385162353515847e-01,2.528344869613647350e-01,2.528304815292358176e-01,2.528264522552490234e-01,2.528224468231201061e-01,2.528183937072753795e-01,2.528143882751464622e-01,2.528103590011596680e-01,2.528063297271728738e-01,2.528023242950439564e-01
1.000000000000000000e+00,1.000000000000000000e+00,1.000000000000000000e+00,1.000000000000000000e+00,1.000000000000000000e+00,1.000000000000000000e+00,1.000000000000000000e+00,1.000000000000000000e+00,1.000000000000000000e+00,1.000000000000000000e+00,1.000000000000000000e+00,1.000000000000000000e+00,8.013930320739745539e-02,8.074416518211365024e-02,8.135822415351867676e-02,8.198170065879821500e-02,8.261479735374450961e-02,8.325775265693664828e-02,8.391079306602478027e-02,8.457416892051697332e-02,8.524810671806334894e-02,8.593287467956542414e-02,8.662872910499572199e-02,8.733595013618469793e-02,8.805481195449829657e-02,8.878560066223144254e-02,8.952862620353699286e-02,9.028419256210326593e-02,9.105261564254760187e-02,9.183423519134521762e-02,9.262939095497131625e-02,9.343843460083008090e-02,9.426174759864806851e-02,9.509968757629394531e-02,9.595265984535217285e-02,9.682106971740722656e-02,9.770534038543701727e-02,9.860591292381286344e-02,9.952324628829956055e-02,1.004577994346618625e-01,1.014100790023803739e-01,1.023805856704711886e-01,1.033698320388793945e-01,1.043784022331237793e-01,1.054068446159362737e-01,1.064557552337646457e-01,1.075257420539856013e-01,2.484822988510131947e-01,2.484784126281738281e-01,2.484745264053344616e-01,2.484706401824951227e-01,2.484667539596557562e-01,2.484628915786743220e-01,2.484590053558349554e-01,2.484550952911376842e-01,2.484512090682983454e-01,2.484473466873168834e-01,2.484434604644775446e-01,2.484395742416381780e-01,2.484356880187988392e-01,2.484318017959594727e-01,2.484279394149780384e-01,2.484240293502807673e-01,2.484201431274414007e-01,2.484162807464599665e-01,2.484123945236205999e-01,2.484085083007812611e-01,2.484046220779418945e-01,2.484007596969604603e-01,2.483968734741210938e-01,2.483929634094238226e-01,2.483891010284423884e-01,2.483852148056030218e-01,2.483813285827636830e-01,2.483774423599243164e-01,2.483735799789428822e-01,2.483696937561035156e-01,2.483658075332641491e-01,2.483619213104248102e-01,2.483580350875854437e-01,2.483541727066040095e-01,2.483502864837646429e-01,2.483464002609253041e-01,2.483425378799438421e-01,2.483386516571045033e-01,2.483347654342651367e-01,2.483308792114257701e-01,2.483269929885864313e-01,2.483231067657470648e-01,2.483192443847656306e-01,2.483153581619262640e-01,2.483114957809448298e-01,2.483076095581054632e-01,2.483037233352661244e-01,2.482998371124267578e-01,2.482959508895873912e-01,2.482920885086059570e-01,2.482882022857665905e-01,2.482843399047851562e-01,2.482804536819457897e-01,2.482765674591064509e-01,2.482726812362670843e-01,2.482688188552856501e-01,2.482649326324462835e-01,2.482610464096069447e-01,2.482571840286254827e-01,2.482532978057861439e-01,2.482494354248046819e-01,2.482455492019653431e-01,2.482416629791259766e-01,2.482377767562866100e-01,2.482339143753051758e-01,2.482300281524658092e-01,2.482261657714843750e-01,2.482222795486450084e-01,2.482184171676635742e-01,2.482145309448242076e-01,2.482106447219848688e-01,2.482067823410034069e-01
