5.000000000000000000e+00,5.000000000000000000e+00,5.000000000000000000e+00,5.000000000000000000e+00,5.000000000000000000e+00,5.000000000000000000e+00,5.000000000000000000e+00,5.000000000000000000e+00,5.000000000000000000e+00,5.000000000000000000e+00,5.000000000000000000e+00,5.000000000000000000e+00,5.000000000000000000e+00,5.000000000000000000e+00,5.000000000000000000e+00,1.832907915115356445e+00,1.833636403083801270e+00,1.845387339591979980e+00,1.887892842292785645e+00,1.881396055221557617e+00,1.874511361122131348e+00,1.881259799003601074e+00,1.894288420677185059e+00,1.914648652076721191e+00,1.943044662475585938e+00,1.985687375068664551e+00,2.159891366958618164e+00,5.000000000000000000e+00,5.000000000000000000e+00,5.000000000000000000e+00,5.000000000000000000e+00,5.000000000000000000e+00,5.000000000000000000e+00,5.000000000000000000e+00,5.000000000000000000e+00,5.000000000000000000e+00,5.000000000000000000e+00,5.000000000000000000e+00,5.000000000000000000e+00,4.855974197387695312e+00,4.665517330169677734e+00,4.489436149597167969e+00,4.326162338256835938e+00,4.174347877502441406e+00,4.032827377319335938e+00,3.900587797164916992e+00,3.776745557785034180e+00,3.660525321960449219e+00,3.551244258880615234e+00,3.448298692703247070e+00,3.351153612136840820e+00,3.259332418441772461e+00,3.172408342361450195e+00,3.090000391006469727e+00,3.011765480041503906e+00,2.937394142150878906e+00,2.866607427597045898e+00,2.799152374267578125e+00,2.734798431396484375e+00,2.673337459564208984e+00,2.614578247070312500e+00,2.558346271514892578e+00,2.504482269287109375e+00,2.452839612960815430e+00,2.403283834457397461e+00,2.355690479278564453e+00,2.309945821762084961e+00,2.265943765640258789e+00,2.223586797714233398e+00,2.182784557342529297e+00,2.143452405929565430e+00,2.105512857437133789e+00,2.068892717361450195e+00,2.033524990081787109e+00,1.999345898628234863e+00,1.966297149658203125e+00,1.934322834014892578e+00,1.903371810913085938e+00,1.873395919799804688e+00,1.844349265098571777e+00
5.000000000000000000e+00,5.000000000000000000e+00,5.000000000000000000e+00,5.000000000000000000e+00,5.000000000000000000e+00,5.000000000000000000e+00,5.000000000000000000e+00,5.000000000000000000e+00,5.000000000000000000e+00,5.000000000000000000e+00,5.000000000000000000e+00,5.000000000000000000e+00,5.000000000000000000e+00,5.000000000000000000e+00,5.000000000000000000e+00,1.835852026939392090e+00,1.835616588592529297e+00,1.852115750312805176e+00,1.893024682998657227e+00,1.875423669815063477e+00,1.867489933967590332e+00,1.874851703643798828e+00,1.892806529998779297e+00,1.917341589927673340e+00,1.945468187332153320e+00,1.988517165184020996e+00,2.163275480270385742e+00,5.000000000000000000e+00,5.000000000000000000e+00,5.000000000000000000e+00,5.000000000000000000e+00,5.000000000000000000e+00,5.000000000000000000e+00,5.000000000000000000e+00,5.000000000000000000e+00,5.000000000000000000e+00,5.000000000000000000e+00,5.000000000000000000e+00,5.000000000000000000e+00,4.856112480163574219e+00,4.665644645690917969e+00,4.489553928375244141e+00,4.326272010803222656e+00,4.174449920654296875e+00,4.032922267913818359e+00,3.900677204132080078e+00,3.776829242706298828e+00,3.660603523254394531e+00,3.551317930221557617e+00,3.448368310928344727e+00,3.351219177246093750e+00,3.259394407272338867e+00,3.172467231750488281e+00,3.090056180953979492e+00,3.011818408966064453e+00,2.937444925308227539e+00,2.866655826568603516e+00,2.799198150634765625e+00,2.734842300415039062e+00,2.673379421234130859e+00,2.614618062973022461e+00,2.558384656906127930e+00,2.504518985748291016e+00,2.452874898910522461e+00,2.403317451477050781e+00,2.355723142623901367e+00,2.309977054595947266e+00,2.265973806381225586e+00,2.223615884780883789e+00,2.182812213897705078e+00,2.143479347229003906e+00,2.105538845062255859e+00,2.068917989730834961e+00,2.033549308776855469e+00,1.999369502067565918e+00,1.966319799423217773e+00,1.934344768524169922e+00,1.903393268585205078e+00,1.873416423797607422e+00,1.844369173049926758e+00
5.000000000000000000e+00,5.000000000000000000e+00,5.000000000000000000e+00,5.000000000000000000e+00,5.000000000000000000e+00,5.000000000000000000e+00,5.000000000000000000e+00,5.000000000000000000e+00,5.000000000000000000e+00,5.000000000000000000e+00,5.000000000000000000e+00,5.000000000000000000e+00,5.000000000000000000e+00,5.000000000000000000e+00,5.000000000000000000e+00,1.836945176124572754e+00,1.831479072570800781e+00,1.857851743698120117e+00,1.880795359611511230e+00,1.869582056999206543e+00,1.863088011741638184e+00,1.868226289749145508e+00,1.885703802108764648e+00,1.914983630180358887e+00,1.941315650939941406e+00,1.977990984916687012e+00,2.167276144027709961e+00,5.000000000000000000e+00,5.000000000000000000e+00,5.000000000000000000e+00,5.000000000000000000e+00,5.000000000000000000e+00,5.000000000000000000e+00,5.000000000000000000e+00,5.000000000000000000e+00,5.000000000000000000e+00,5.000000000000000000e+00,5.000000000000000000e+00,5.000000000000000000e+00,4.856250286102294922e+00,4.665771961212158203e+00,4.489672183990478516e+00,4.326381206512451172e+00,4.174551963806152344e+00,4.033017635345458984e+00,3.900766372680664062e+00,3.776912689208984375e+00,3.660682201385498047e+00,3.551392078399658203e+00,3.448437929153442383e+00,3.351285219192504883e+00,3.259456872940063477e+00,3.172526121139526367e+00,3.090112209320068359e+00,3.011871814727783203e+00,2.937495231628417969e+00,2.866703748703002930e+00,2.799244165420532227e+00,2.734885931015014648e+00,2.673421144485473633e+00,2.614658355712890625e+00,2.558423042297363281e+00,2.504555702209472656e+00,2.452910184860229492e+00,2.403351545333862305e+00,2.355755567550659180e+00,2.310008287429809570e+00,2.266003847122192383e+00,2.223644733428955078e+00,2.182840347290039062e+00,2.143506288528442383e+00,2.105564594268798828e+00,2.068943023681640625e+00,2.033573627471923828e+00,1.999392867088317871e+00,1.966342329978942871e+00,1.934366822242736816e+00,1.903414368629455566e+00,1.873436927795410156e+00,1.844389200210571289e+00
5.000000000000000000e+00,5.000000000000000000e+00,5.000000000000000000e+00,5.000000000000000000e+00,5.000000000000000000e+00,5.000000000000000000e+00,5.000000000000000000e+00,5.000000000000000000e+00,5.000000000000000000e+00,5.000000000000000000e+00,5.000000000000000000e+00,5.000000000000000000e+00,5.000000000000000000e+00,5.000000000000000000e+00,5.000000000000000000e+00,1.823791980743408203e+00,1.806443691253662109e+00,1.825782656669616699e+00,1.879315018653869629e+00,1.871215581893920898e+00,1.876269221305847168e+00,1.885026454925537109e+00,1.882086634635925293e+00,1.904885530471801758e+00,1.932825326919555664e+00,1.968191504478454590e+00,2.186606407165527344e+00,5.000000000000000000e+00,5.000000000000000000e+00,5.000000000000000000e+00,5.000000000000000000e+00,5.000000000000000000e+00,5.000000000000000000e+00,5.000000000000000000e+00,5.000000000000000000e+00,5.000000000000000000e+00,5.000000000000000000e+00,5.000000000000000000e+00,5.000000000000000000e+00,4.856388568878173828e+00,4.665899753570556641e+00,4.489789962768554688e+00,4.326490879058837891e+00,4.174654006958007812e+00,4.033113002777099609e+00,3.900855302810668945e+00,3.776996374130249023e+00,3.660760402679443359e+00,3.551465749740600586e+00,3.448507785797119141e+00,3.351350784301757812e+00,3.259518861770629883e+00,3.172585248947143555e+00,3.090168237686157227e+00,3.011924743652343750e+00,2.937546014785766602e+00,2.866751909255981445e+00,2.799289941787719727e+00,2.734930038452148438e+00,2.673463106155395508e+00,2.614698171615600586e+00,2.558461427688598633e+00,2.504592657089233398e+00,2.452945232391357422e+00,2.403385162353515625e+00,2.355788230895996094e+00,2.310039520263671875e+00,2.266033887863159180e+00,2.223673820495605469e+00,2.182868242263793945e+00,2.143533229827880859e+00,2.105590820312500000e+00,2.068968057632446289e+00,2.033597707748413086e+00,1.999416232109069824e+00,1.966365218162536621e+00,1.934388637542724609e+00,1.903435587882995605e+00,1.873457670211791992e+00,1.844409108161926270e+00
5.000000000000000000e+00,5.000000000000000000e+00,5.000000000000000000e+00,5.000000000000000000e+00,5.000000000000000000e+00,5.000000000000000000e+00,5.000000000000000000e+00,5.000000000000000000e+00,5.000000000000000000e+00,5.000000000000000000e+00,5.000000000000000000e+00,5.000000000000000000e+00,5.000000000000000000e+00,5.000000000000000000e+00,5.000000000000000000e+00,1.838125824928283691e+00,1.793313741683959961e+00,1.801113963127136230e+00,1.847749829292297363e+00,1.866744518280029297e+00,1.871481418609619141e+00,1.877377033233642578e+00,1.893390774726867676e+00,1.911152362823486328e+00,1.941967844963073730e+00,1.967870593070983887e+00,2.206284523010253906e+00,5.000000000000000000e+00,5.000000000000000000e+00,5.000000000000000000e+00,5.000000000000000000e+00,5.000000000000000000e+00,5.000000000000000000e+00,5.000000000000000000e+00,5.000000000000000000e+00,5.000000000000000000e+00,5.000000000000000000e+00,5.000000000000000000e+00,5.000000000000000000e+00,4.856526851654052734e+00,4.666027069091796875e+00,4.489908218383789062e+00,4.326601028442382812e+00,4.174756050109863281e+00,4.033208370208740234e+00,3.900944709777832031e+00,3.777079820632934570e+00,3.660839080810546875e+00,3.551539659500122070e+00,3.448577165603637695e+00,3.351416826248168945e+00,3.259581327438354492e+00,3.172644138336181641e+00,3.090224027633666992e+00,3.011977910995483398e+00,2.937596321105957031e+00,2.866800069808959961e+00,2.799335956573486328e+00,2.734973907470703125e+00,2.673504829406738281e+00,2.614738464355468750e+00,2.558499813079833984e+00,2.504629135131835938e+00,2.452980518341064453e+00,2.403419017791748047e+00,2.355820655822753906e+00,2.310070753097534180e+00,2.266064167022705078e+00,2.223702669143676758e+00,2.182896137237548828e+00,2.143560171127319336e+00,2.105616569519042969e+00,2.068993091583251953e+00,2.033622026443481445e+00,1.999439835548400879e+00,1.966387748718261719e+00,1.934410572052001953e+00,1.903456926345825195e+00,1.873478174209594727e+00,1.844429016113281250e+00
5.000000000000000000e+00,5.000000000000000000e+00,5.000000000000000000e+00,5.000000000000000000e+00,5.000000000000000000e+00,5.000000000000000000e+00,5.000000000000000000e+00,5.000000000000000000e+00,5.000000000000000000e+00,5.000000000000000000e+00,5.000000000000000000e+00,5.000000000000000000e+00,5.000000000000000000e+00,5.000000000000000000e+00,5.000000000000000000e+00,5.000000000000000000e+00,1.780766844749450684e+00,1.778272271156311035e+00,1.813894391059875488e+00,1.864719033241271973e+00,1.871547818183898926e+00,1.880129098892211914e+00,1.896826028823852539e+00,1.911042451858520508e+00,1.947120547294616699e+00,1.980742335319519043e+00,5.000000000000000000e+00,5.000000000000000000e+00,5.000000000000000000e+00,5.000000000000000000e+00,5.000000000000000000e+00,5.000000000000000000e+00,5.000000000000000000e+00,5.000000000000000000e+00,5.000000000000000000e+00,5.000000000000000000e+00,5.000000000000000000e+00,5.000000000000000000e+00,5.000000000000000000e+00,4.856664657592773438e+00,4.666154384613037109e+00,4.490025997161865234e+00,4.326710700988769531e+00,4.174858093261718750e+00,4.033303260803222656e+00,3.901033639907836914e+00,3.777163505554199219e+00,3.660917520523071289e+00,3.551613330841064453e+00,3.448647022247314453e+00,3.351482629776000977e+00,3.259643316268920898e+00,3.172703027725219727e+00,3.090280055999755859e+00,3.012031078338623047e+00,2.937647104263305664e+00,2.866848230361938477e+00,2.799381732940673828e+00,2.735017538070678711e+00,2.673546791076660156e+00,2.614778280258178711e+00,2.558537960052490234e+00,2.504666090011596680e+00,2.453015804290771484e+00,2.403452873229980469e+00,2.355853080749511719e+00,2.310102224349975586e+00,2.266094207763671875e+00,2.223731756210327148e+00,2.182924032211303711e+00,2.143586874008178711e+00,2.105642557144165039e+00,2.069018125534057617e+00,2.033646106719970703e+00,1.999463200569152832e+00,1.966410279273986816e+00,1.934432387351989746e+00,1.903478145599365234e+00,1.873498678207397461e+00,1.844448804855346680e+00
5.000000000000000000e+00,5.000000000000000000e+00,5.000000000000000000e+00,5.000000000000000000e+00,5.000000000000000000e+00,5.000000000000000000e+00,5.000000000000000000e+00,5.000000000000000000e+00,5.000000000000000000e+00,5.000000000000000000e+00,5.000000000000000000e+00,5.000000000000000000e+00,5.000000000000000000e+00,5.000000000000000000e+00,5.000000000000000000e+00,5.000000000000000000e+00,1.762627720832824707e+00,1.756148099899291992e+00,1.771581292152404785e+00,1.862844347953796387e+00,1.871209979057312012e+00,1.887625932693481445e+00,1.907955408096313477e+00,1.919882535934448242e+00,1.957636833190917969e+00,1.990829467773437500e+00,2.214596748352050781e+00,5.000000000000000000e+00,5.000000000000000000e+00,5.000000000000000000e+00,5.000000000000000000e+00,5.000000000000000000e+00,5.000000000000000000e+00,5.000000000000000000e+00,5.000000000000000000e+00,5.000000000000000000e+00,5.000000000000000000e+00,5.000000000000000000e+00,5.000000000000000000e+00,4.856803417205810547e+00,4.666282176971435547e+00,4.490144252777099609e+00,4.326820373535156250e+00,4.174960136413574219e+00,4.033398628234863281e+00,3.901123046875000000e+00,3.777246713638305664e+00,3.660996198654174805e+00,3.551687479019165039e+00,3.448716402053833008e+00,3.351548433303833008e+00,3.259705781936645508e+00,3.172761917114257812e+00,3.090335845947265625e+00,3.012084245681762695e+00,2.937697649002075195e+00,2.866896390914916992e+00,2.799427747726440430e+00,2.735061407089233398e+00,2.673588514328002930e+00,2.614818334579467773e+00,2.558576345443725586e+00,2.504702568054199219e+00,2.453051090240478516e+00,2.403486728668212891e+00,2.355885505676269531e+00,2.310133218765258789e+00,2.266124248504638672e+00,2.223760604858398438e+00,2.182951927185058594e+00,2.143613815307617188e+00,2.105668783187866211e+00,2.069043159484863281e+00,2.033670425415039062e+00,1.999486565589904785e+00,1.966432929039001465e+00,1.934454441070556641e+00,1.903499245643615723e+00,1.873519182205200195e+00,1.844468951225280762e+00
5.000000000000000000e+00,5.000000000000000000e+00,5.000000000000000000e+00,5.000000000000000000e+00,5.000000000000000000e+00,5.000000000000000000e+00,5.000000000000000000e+00,5.000000000000000000e+00,5.000000000000000000e+00,5.000000000000000000e+00,5.000000000000000000e+00,5.000000000000000000e+00,5.000000000000000000e+00,5.000000000000000000e+00,5.000000000000000000e+00,5.000000000000000000e+00,1.761579394340515137e+00,1.750482320785522461e+00,1.863903164863586426e+00,1.861706852912902832e+00,1.871970534324645996e+00,1.894613981246948242e+00,1.927854299545288086e+00,1.940385580062866211e+00,1.971067190170288086e+00,1.979896664619445801e+00,2.047596931457519531e+00,5.000000000000000000e+00,5.000000000000000000e+00,5.000000000000000000e+00,5.000000000000000000e+00,5.000000000000000000e+00,5.000000000000000000e+00,5.000000000000000000e+00,5.000000000000000000e+00,5.000000000000000000e+00,5.000000000000000000e+00,5.000000000000000000e+00,5.000000000000000000e+00,4.856941223144531250e+00,4.666409492492675781e+00,4.490262508392333984e+00,4.326930046081542969e+00,4.175062656402587891e+00,4.033493995666503906e+00,3.901211738586425781e+00,3.777330636978149414e+00,3.661074876785278320e+00,3.551761150360107422e+00,3.448786258697509766e+00,3.351614236831665039e+00,3.259767770767211914e+00,3.172821044921875000e+00,3.090392112731933594e+00,3.012137174606323242e+00,2.937748193740844727e+00,2.866944551467895508e+00,2.799473524093627930e+00,2.735105276107788086e+00,2.673630475997924805e+00,2.614858388900756836e+00,2.558614730834960938e+00,2.504739522933959961e+00,2.453086376190185547e+00,2.403520584106445312e+00,2.355918169021606445e+00,2.310164690017700195e+00,2.266154289245605469e+00,2.223789691925048828e+00,2.182979822158813477e+00,2.143640756607055664e+00,2.105694532394409180e+00,2.069068431854248047e+00,2.033694505691528320e+00,1.999509930610656738e+00,1.966455698013305664e+00,1.934476375579833984e+00,1.903520464897155762e+00,1.873539805412292480e+00,1.844488859176635742e+00
5.000000000000000000e+00,5.000000000000000000e+00,5.000000000000000000e+00,5.000000000000000000e+00,5.000000000000000000e+00,5.000000000000000000e+00,5.000000000000000000e+00,5.000000000000000000e+00,5.000000000000000000e+00,5.000000000000000000e+00,5.000000000000000000e+00,5.000000000000000000e+00,5.000000000000000000e+00,5.000000000000000000e+00,5.000000000000000000e+00,5.000000000000000000e+00,5.000000000000000000e+00,1.730013847351074219e+00,1.728627324104309082e+00,1.857852816581726074e+00,1.869970679283142090e+00,1.892050623893737793e+00,1.955270409584045410e+00,1.950804948806762695e+00,1.936604619026184082e+00,1.940304994583129883e+00,1.949224352836608887e+00,5.000000000000000000e+00,5.000000000000000000e+00,5.000000000000000000e+00,5.000000000000000000e+00,5.000000000000000000e+00,5.000000000000000000e+00,5.000000000000000000e+00,5.000000000000000000e+00,5.000000000000000000e+00,5.000000000000000000e+00,5.000000000000000000e+00,5.000000000000000000e+00,4.857079505920410156e+00,4.666537284851074219e+00,4.490380287170410156e+00,4.327039241790771484e+00,4.175164699554443359e+00,4.033589363098144531e+00,3.901301145553588867e+00,3.777413845062255859e+00,3.661153078079223633e+00,3.551835298538208008e+00,3.448855876922607422e+00,3.351679801940917969e+00,3.259830236434936523e+00,3.172880172729492188e+00,3.090447664260864258e+00,3.012190580368041992e+00,2.937798738479614258e+00,2.866992473602294922e+00,2.799519538879394531e+00,2.735149145126342773e+00,2.673672437667846680e+00,2.614898443222045898e+00,2.558653116226196289e+00,2.504776239395141602e+00,2.453121662139892578e+00,2.403554439544677734e+00,2.355950593948364258e+00,2.310195684432983398e+00,2.266184329986572266e+00,2.223818540573120117e+00,2.183007717132568359e+00,2.143667697906494141e+00,2.105720520019531250e+00,2.069093227386474609e+00,2.033718824386596680e+00,1.999533534049987793e+00,1.966478347778320312e+00,1.934498190879821777e+00,1.903541803359985352e+00,1.873560309410095215e+00,1.844508647918701172e+00
5.000000000000000000e+00,5.000000000000000000e+00,5.000000000000000000e+00,5.000000000000000000e+00,5.000000000000000000e+00,5.000000000000000000e+00,5.000000000000000000e+00,5.000000000000000000e+00,5.000000000000000000e+00,5.000000000000000000e+00,5.000000000000000000e+00,5.000000000000000000e+00,5.000000000000000000e+00,5.000000000000000000e+00,5.000000000000000000e+00,5.000000000000000000e+00,5.000000000000000000e+00,1.711109042167663574e+00,1.699232339859008789e+00,1.727758407592773438e+00,1.866524219512939453e+00,1.886060118675231934e+00,1.941595911979675293e+00,1.941434383392333984e+00,1.918894290924072266e+00,1.923885464668273926e+00,1.933262348175048828e+00,2.002840042114257812e+00,5.000000000000000000e+00,5.000000000000000000e+00,5.000000000000000000e+00,5.000000000000000000e+00,5.000000000000000000e+00,5.000000000000000000e+00,5.000000000000000000e+00,5.000000000000000000e+00,5.000000000000000000e+00,5.000000000000000000e+00,5.000000000000000000e+00,4.857217788696289062e+00,4.666664600372314453e+00,4.490498542785644531e+00,4.327148914337158203e+00,4.175266742706298828e+00,4.033684730529785156e+00,3.901390075683593750e+00,3.777497768402099609e+00,3.661231756210327148e+00,3.551908969879150391e+00,3.448925733566284180e+00,3.351745843887329102e+00,3.259892225265502930e+00,3.172938823699951172e+00,3.090503931045532227e+00,3.012243509292602539e+00,2.937849283218383789e+00,2.867040872573852539e+00,2.799565315246582031e+00,2.735192775726318359e+00,2.673714399337768555e+00,2.614938735961914062e+00,2.558691263198852539e+00,2.504812955856323242e+00,2.453156948089599609e+00,2.403588056564331055e+00,2.355983257293701172e+00,2.310227155685424805e+00,2.266214370727539062e+00,2.223847627639770508e+00,2.183035612106323242e+00,2.143694639205932617e+00,2.105746507644653320e+00,2.069118499755859375e+00,2.033742904663085938e+00,1.999556779861450195e+00,1.966500878334045410e+00,1.934520244598388672e+00,1.903563022613525391e+00,1.873580813407897949e+00,1.844528794288635254e+00
5.000000000000000000e+00,5.000000000000000000e+00,5.000000000000000000e+00,5.000000000000000000e+00,5.000000000000000000e+00,5.000000000000000000e+00,5.000000000000000000e+00,5.000000000000000000e+00,5.000000000000000000e+00,5.000000000000000000e+00,5.000000000000000000e+00,5.000000000000000000e+00,5.000000000000000000e+00,5.000000000000000000e+00,5.000000000000000000e+00,5.000000000000000000e+00,5.000000000000000000e+00,1.709137320518493652e+00,1.712347745895385742e+00,1.860762000083923340e+00,1.869680166244506836e+00,1.885877728462219238e+00,1.939013719558715820e+00,1.937579035758972168e+00,1.916676878929138184e+00,1.913162231445312500e+00,1.923291802406311035e+00,1.969202637672424316e+00,5.000000000000000000e+00,5.000000000000000000e+00,5.000000000000000000e+00,5.000000000000000000e+00,5.000000000000000000e+00,5.000000000000000000e+00,5.000000000000000000e+00,5.000000000000000000e+00,5.000000000000000000e+00,5.000000000000000000e+00,5.000000000000000000e+00,4.857356071472167969e+00,4.666792392730712891e+00,4.490616798400878906e+00,4.327258586883544922e+00,4.175368785858154297e+00,4.033780097961425781e+00,3.901479482650756836e+00,3.777580976486206055e+00,3.661310195922851562e+00,3.551982879638671875e+00,3.448995351791381836e+00,3.351811408996582031e+00,3.259954690933227539e+00,3.172997951507568359e+00,3.090559720993041992e+00,3.012296915054321289e+00,2.937899827957153320e+00,2.867088794708251953e+00,2.799611330032348633e+00,2.735236644744873047e+00,2.673756122589111328e+00,2.614978551864624023e+00,2.558729648590087891e+00,2.504849672317504883e+00,2.453191995620727539e+00,2.403622150421142578e+00,2.356015682220458984e+00,2.310258388519287109e+00,2.266244649887084961e+00,2.223876476287841797e+00,2.183063507080078125e+00,2.143721580505371094e+00,2.105772495269775391e+00,2.069143533706665039e+00,2.033767223358154297e+00,1.999580144882202148e+00,1.966523528099060059e+00,1.934542179107666016e+00,1.903584122657775879e+00,1.873601317405700684e+00,1.844548583030700684e+00
5.000000000000000000e+00,5.000000000000000000e+00,5.000000000000000000e+00,5.000000000000000000e+00,5.000000000000000000e+00,5.000000000000000000e+00,5.000000000000000000e+00,5.000000000000000000e+00,5.000000000000000000e+00,5.000000000000000000e+00,5.000000000000000000e+00,5.000000000000000000e+00,5.000000000000000000e+00,5.000000000000000000e+00,5.000000000000000000e+00,5.000000000000000000e+00,5.000000000000000000e+00,1.696972727775573730e+00,1.681531310081481934e+00,1.664091110229492188e+00,1.873941421508789062e+00,1.890516400337219238e+00,1.944194436073303223e+00,1.938096523284912109e+00,1.913562297821044922e+00,1.900943517684936523e+00,1.913475990295410156e+00,1.939874529838562012e+00,5.000000000000000000e+00,5.000000000000000000e+00,5.000000000000000000e+00,5.000000000000000000e+00,5.000000000000000000e+00,5.000000000000000000e+00,5.000000000000000000e+00,5.000000000000000000e+00,5.000000000000000000e+00,5.000000000000000000e+00,5.000000000000000000e+00,4.857493877410888672e+00,4.666919708251953125e+00,4.490735054016113281e+00,4.327368259429931641e+00,4.175470829010009766e+00,4.033875465393066406e+00,3.901568412780761719e+00,3.777664899826049805e+00,3.661388874053955078e+00,3.552056789398193359e+00,3.449064970016479492e+00,3.351877450942993164e+00,3.260016679763793945e+00,3.173056840896606445e+00,3.090615749359130859e+00,3.012349843978881836e+00,2.937950372695922852e+00,2.867137193679809570e+00,2.799657344818115234e+00,2.735280513763427734e+00,2.673798084259033203e+00,2.615018844604492188e+00,2.558768033981323242e+00,2.504886388778686523e+00,2.453227281570434570e+00,2.403655767440795898e+00,2.356048107147216797e+00,2.310289621353149414e+00,2.266274452209472656e+00,2.223905563354492188e+00,2.183091402053833008e+00,2.143748521804809570e+00,2.105798482894897461e+00,2.069168567657470703e+00,2.033791542053222656e+00,1.999603509902954102e+00,1.966546297073364258e+00,1.934563994407653809e+00,1.903605341911315918e+00,1.873622059822082520e+00,1.844568490982055664e+00
5.000000000000000000e+00,5.000000000000000000e+00,5.000000000000000000e+00,5.000000000000000000e+00,5.000000000000000000e+00,5.000000000000000000e+00,5.000000000000000000e+00,5.000000000000000000e+00,5.000000000000000000e+00,5.000000000000000000e+00,5.000000000000000000e+00,5.000000000000000000e+00,5.000000000000000000e+00,5.000000000000000000e+00,5.000000000000000000e+00,5.000000000000000000e+00,5.000000000000000000e+00,1.685618758201599121e+00,1.662408828735351562e+00,1.871225118637084961e+00,1.879579424858093262e+00,1.901814222335815430e+00,5.000000000000000000e+00,1.942659258842468262e+00,1.910395622253417969e+00,1.888686299324035645e+00,1.901138186454772949e+00,1.913790106773376465e+00,5.000000000000000000e+00,5.000000000000000000e+00,5.000000000000000000e+00,5.000000000000000000e+00,5.000000000000000000e+00,5.000000000000000000e+00,5.000000000000000000e+00,5.000000000000000000e+00,5.000000000000000000e+00,5.000000000000000000e+00,5.000000000000000000e+00,4.857632160186767578e+00,4.667047500610351562e+00,4.490852832794189453e+00,4.327477931976318359e+00,4.175572872161865234e+00,4.033970832824707031e+00,3.901657819747924805e+00,3.777748584747314453e+00,3.661467075347900391e+00,3.552130699157714844e+00,3.449134826660156250e+00,3.351943016052246094e+00,3.260079145431518555e+00,3.173115968704223633e+00,3.090671539306640625e+00,3.012403011322021484e+00,2.938000917434692383e+00,2.867185115814208984e+00,2.799703121185302734e+00,2.735324382781982422e+00,2.673839807510375977e+00,2.615058660507202148e+00,2.558806419372558594e+00,2.504923343658447266e+00,2.453262567520141602e+00,2.403689622879028320e+00,2.356080770492553711e+00,2.310320854187011719e+00,2.266304731369018555e+00,2.223934412002563477e+00,2.183119297027587891e+00,2.143775463104248047e+00,2.105824470520019531e+00,2.069193601608276367e+00,2.033815622329711914e+00,1.999627113342285156e+00,1.966568946838378906e+00,1.934585809707641602e+00,1.903626680374145508e+00,1.873642563819885254e+00,1.844588398933410645e+00
5.000000000000000000e+00,5.000000000000000000e+00,5.000000000000000000e+00,5.000000000000000000e+00,5.000000000000000000e+00,5.000000000000000000e+00,5.000000000000000000e+00,5.000000000000000000e+00,5.000000000000000000e+00,5.000000000000000000e+00,5.000000000000000000e+00,5.000000000000000000e+00,5.000000000000000000e+00,5.000000000000000000e+00,5.000000000000000000e+00,5.000000000000000000e+00,5.000000000000000000e+00,1.912392497062683105e+00,1.871625185012817383e+00,1.877566337585449219e+00,1.885251283645629883e+00,1.913373231887817383e+00,5.000000000000000000e+00,1.949561834335327148e+00,1.907210111618041992e+00,1.884375333786010742e+00,1.889322757720947266e+00,1.902386665344238281e+00,5.000000000000000000e+00,5.000000000000000000e+00,5.000000000000000000e+00,5.000000000000000000e+00,5.000000000000000000e+00,5.000000000000000000e+00,5.000000000000000000e+00,5.000000000000000000e+00,5.000000000000000000e+00,5.000000000000000000e+00,5.000000000000000000e+00,4.857770442962646484e+00,4.667174816131591797e+00,4.490971088409423828e+00,4.327587604522705078e+00,4.175674915313720703e+00,4.034066200256347656e+00,3.901746749877929688e+00,3.777832031250000000e+00,3.661545753479003906e+00,3.552204370498657227e+00,3.449204206466674805e+00,3.352009057998657227e+00,3.260141134262084961e+00,3.173174858093261719e+00,3.090727567672729492e+00,3.012456417083740234e+00,2.938051462173461914e+00,2.867233276367187500e+00,2.799749135971069336e+00,2.735368013381958008e+00,2.673881769180297852e+00,2.615098953247070312e+00,2.558844804763793945e+00,2.504960060119628906e+00,2.453297853469848633e+00,2.403723478317260742e+00,2.356113195419311523e+00,2.310352087020874023e+00,2.266334772109985352e+00,2.223963499069213867e+00,2.183147430419921875e+00,2.143802404403686523e+00,2.105850458145141602e+00,2.069218873977661133e+00,2.033839941024780273e+00,1.999650478363037109e+00,1.966591477394104004e+00,1.934607982635498047e+00,1.903647899627685547e+00,1.873663067817687988e+00,1.844608426094055176e+00
5.000000000000000000e+00,5.000000000000000000e+00,5.000000000000000000e+00,5.000000000000000000e+00,5.000000000000000000e+00,5.000000000000000000e+00,5.000000000000000000e+00,5.000000000000000000e+00,5.000000000000000000e+00,5.000000000000000000e+00,5.000000000000000000e+00,5.000000000000000000e+00,5.000000000000000000e+00,5.000000000000000000e+00,5.000000000000000000e+00,5.000000000000000000e+00,5.000000000000000000e+00,1.925848603248596191e+00,1.880915045738220215e+00,1.884105205535888672e+00,1.890957713127136230e+00,1.923231840133666992e+00,5.000000000000000000e+00,5.000000000000000000e+00,1.901720285415649414e+00,1.879500627517700195e+00,1.875002503395080566e+00,1.891021013259887695e+00,1.938074111938476562e+00,5.000000000000000000e+00,5.000000000000000000e+00,5.000000000000000000e+00,5.000000000000000000e+00,5.000000000000000000e+00,5.000000000000000000e+00,5.000000000000000000e+00,5.000000000000000000e+00,5.000000000000000000e+00,5.000000000000000000e+00,4.857908725738525391e+00,4.667302608489990234e+00,4.491089344024658203e+00,4.327697277069091797e+00,4.175777435302734375e+00,4.034161090850830078e+00,3.901836156845092773e+00,3.777915716171264648e+00,3.661624193191528320e+00,3.552278518676757812e+00,3.449274063110351562e+00,3.352074623107910156e+00,3.260203599929809570e+00,3.173233985900878906e+00,3.090783357620239258e+00,3.012509346008300781e+00,2.938102006912231445e+00,2.867281436920166016e+00,2.799794912338256836e+00,2.735411882400512695e+00,2.673923730850219727e+00,2.615138769149780273e+00,2.558883190155029297e+00,2.504996776580810547e+00,2.453333139419555664e+00,2.403757333755493164e+00,2.356145858764648438e+00,2.310383319854736328e+00,2.266364812850952148e+00,2.223992347717285156e+00,2.183175086975097656e+00,2.143829107284545898e+00,2.105876445770263672e+00,2.069243669509887695e+00,2.033864259719848633e+00,1.999673843383789062e+00,1.966614365577697754e+00,1.934629797935485840e+00,1.903668999671936035e+00,1.873683810234069824e+00,1.844628334045410156e+00
5.000000000000000000e+00,5.000000000000000000e+00,5.000000000000000000e+00,5.000000000000000000e+00,5.000000000000000000e+00,5.000000000000000000e+00,5.000000000000000000e+00,5.000000000000000000e+00,5.000000000000000000e+00,5.000000000000000000e+00,5.000000000000000000e+00,5.000000000000000000e+00,5.000000000000000000e+00,5.000000000000000000e+00,5.000000000000000000e+00,5.000000000000000000e+00,5.000000000000000000e+00,1.942222356796264648e+00,1.891464233398437500e+00,1.888708114624023438e+00,1.896257400512695312e+00,1.931978106498718262e+00,5.000000000000000000e+00,5.000000000000000000e+00,1.902361631393432617e+00,1.875242114067077637e+00,1.862245082855224609e+00,1.876878738403320312e+00,1.894930839538574219e+00,5.000000000000000000e+00,5.000000000000000000e+00,5.000000000000000000e+00,5.000000000000000000e+00,5.000000000000000000e+00,5.000000000000000000e+00,5.000000000000000000e+00,5.000000000000000000e+00,5.000000000000000000e+00,5.000000000000000000e+00,4.858047008514404297e+00,4.667429924011230469e+00,4.491207599639892578e+00,4.327806949615478516e+00,4.175879478454589844e+00,4.034256458282470703e+00,3.901925086975097656e+00,3.777999162673950195e+00,3.661702871322631836e+00,3.552352190017700195e+00,3.449343681335449219e+00,3.352140665054321289e+00,3.260266065597534180e+00,3.173292636871337891e+00,3.090839385986328125e+00,3.012562751770019531e+00,2.938152551651000977e+00,2.867329597473144531e+00,2.799840927124023438e+00,2.735455751419067383e+00,2.673965454101562500e+00,2.615179061889648438e+00,2.558921337127685547e+00,2.505033493041992188e+00,2.453368425369262695e+00,2.403791189193725586e+00,2.356178283691406250e+00,2.310414791107177734e+00,2.266395092010498047e+00,2.224021196365356445e+00,2.183203220367431641e+00,2.143856287002563477e+00,2.105902433395385742e+00,2.069268941879272461e+00,2.033888339996337891e+00,1.999697208404541016e+00,1.966636896133422852e+00,1.934651613235473633e+00,1.903690218925476074e+00,1.873704314231872559e+00,1.844648241996765137e+00
5.000000000000000000e+00,5.000000000000000000e+00,5.000000000000000000e+00,5.000000000000000000e+00,5.000000000000000000e+00,5.000000000000000000e+00,5.000000000000000000e+00,5.000000000000000000e+00,5.000000000000000000e+00,5.000000000000000000e+00,5.000000000000000000e+00,5.000000000000000000e+00,5.000000000000000000e+00,5.000000000000000000e+00,5.000000000000000000e+00,5.000000000000000000e+00,5.000000000000000000e+00,1.955539345741271973e+00,1.901896595954895020e+00,1.892366766929626465e+00,1.899945497512817383e+00,1.941261053085327148e+00,5.000000000000000000e+00,5.000000000000000000e+00,1.925261259078979492e+00,1.871002674102783203e+00,1.857777953147888184e+00,1.863403677940368652e+00,1.881433963775634766e+00,5.000000000000000000e+00,5.000000000000000000e+00,5.000000000000000000e+00,5.000000000000000000e+00,5.000000000000000000e+00,5.000000000000000000e+00,5.000000000000000000e+00,5.000000000000000000e+00,5.000000000000000000e+00,5.000000000000000000e+00,4.858184814453125000e+00,4.667557716369628906e+00,4.491325855255126953e+00,4.327916622161865234e+00,4.175981521606445312e+00,4.034351825714111328e+00,3.902014493942260742e+00,3.778083086013793945e+00,3.661781311035156250e+00,3.552426338195800781e+00,3.449413537979125977e+00,3.352206230163574219e+00,3.260328054428100586e+00,3.173351764678955078e+00,3.090895414352416992e+00,3.012615680694580078e+00,2.938203096389770508e+00,2.867377996444702148e+00,2.799886703491210938e+00,2.735499620437622070e+00,2.674007415771484375e+00,2.615218877792358398e+00,2.558959722518920898e+00,2.505070209503173828e+00,2.453403472900390625e+00,2.403825044631958008e+00,2.356210947036743164e+00,2.310445785522460938e+00,2.266425132751464844e+00,2.224050283432006836e+00,2.183230876922607422e+00,2.143882989883422852e+00,2.105928421020507812e+00,2.069293975830078125e+00,2.033912658691406250e+00,1.999720811843872070e+00,1.966659545898437500e+00,1.934673547744750977e+00,1.903711557388305664e+00,1.873724818229675293e+00,1.844668030738830566e+00
5.000000000000000000e+00,5.000000000000000000e+00,5.000000000000000000e+00,5.000000000000000000e+00,5.000000000000000000e+00,5.000000000000000000e+00,5.000000000000000000e+00,5.000000000000000000e+00,5.000000000000000000e+00,5.000000000000000000e+00,5.000000000000000000e+00,5.000000000000000000e+00,5.000000000000000000e+00,5.000000000000000000e+00,5.000000000000000000e+00,5.000000000000000000e+00,5.000000000000000000e+00,1.965901136398315430e+00,1.912160038948059082e+00,1.896975994110107422e+00,1.904511332511901855e+00,1.947314858436584473e+00,5.000000000000000000e+00,5.000000000000000000e+00,5.000000000000000000e+00,1.866917252540588379e+00,1.856449365615844727e+00,1.856759309768676758e+00,1.875429272651672363e+00,5.000000000000000000e+00,5.000000000000000000e+00,5.000000000000000000e+00,5.000000000000000000e+00,5.000000000000000000e+00,5.000000000000000000e+00,5.000000000000000000e+00,5.000000000000000000e+00,5.000000000000000000e+00,5.000000000000000000e+00,4.858323097229003906e+00,4.667685508728027344e+00,4.491443634033203125e+00,4.328026771545410156e+00,4.176083564758300781e+00,4.034447193145751953e+00,3.902103424072265625e+00,3.778166294097900391e+00,3.661859989166259766e+00,3.552500486373901367e+00,3.449482917785644531e+00,3.352272272109985352e+00,3.260390520095825195e+00,3.173410654067993164e+00,3.090951442718505859e+00,3.012668848037719727e+00,2.938253641128540039e+00,2.867425918579101562e+00,2.799932718276977539e+00,2.735543251037597656e+00,2.674049139022827148e+00,2.615259170532226562e+00,2.558998107910156250e+00,2.505106925964355469e+00,2.453438758850097656e+00,2.403858900070190430e+00,2.356243371963500977e+00,2.310477256774902344e+00,2.266455173492431641e+00,2.224079132080078125e+00,2.183259010314941406e+00,2.143909931182861328e+00,2.105954408645629883e+00,2.069319009780883789e+00,2.033936977386474609e+00,1.999744176864624023e+00,1.966682076454162598e+00,1.934695601463317871e+00,1.903732776641845703e+00,1.873745322227478027e+00,1.844688177108764648e+00
5.000000000000000000e+00,5.000000000000000000e+00,5.000000000000000000e+00,5.000000000000000000e+00,5.000000000000000000e+00,5.000000000000000000e+00,5.000000000000000000e+00,5.000000000000000000e+00,5.000000000000000000e+00,5.000000000000000000e+00,5.000000000000000000e+00,5.000000000000000000e+00,5.000000000000000000e+00,5.000000000000000000e+00,5.000000000000000000e+00,5.000000000000000000e+00,5.000000000000000000e+00,5.000000000000000000e+00,1.922534942626953125e+00,1.903675794601440430e+00,1.913531303405761719e+00,1.952654123306274414e+00,5.000000000000000000e+00,5.000000000000000000e+00,5.000000000000000000e+00,1.872363924980163574e+00,1.860713481903076172e+00,1.863999247550964355e+00,1.880739808082580566e+00,5.000000000000000000e+00,5.000000000000000000e+00,5.000000000000000000e+00,5.000000000000000000e+00,5.000000000000000000e+00,5.000000000000000000e+00,5.000000000000000000e+00,5.000000000000000000e+00,5.000000000000000000e+00,5.000000000000000000e+00,4.858461380004882812e+00,4.667813301086425781e+00,4.491561889648437500e+00,4.328136444091796875e+00,4.176186084747314453e+00,4.034542560577392578e+00,3.902192831039428711e+00,3.778250217437744141e+00,3.661938190460205078e+00,3.552574157714843750e+00,3.449552774429321289e+00,3.352337837219238281e+00,3.260452508926391602e+00,3.173469781875610352e+00,3.091007471084594727e+00,3.012722015380859375e+00,2.938304185867309570e+00,2.867474317550659180e+00,2.799978494644165039e+00,2.735587358474731445e+00,2.674091339111328125e+00,2.615298986434936523e+00,2.559036493301391602e+00,2.505143880844116211e+00,2.453474044799804688e+00,2.403892755508422852e+00,2.356275796890258789e+00,2.310508489608764648e+00,2.266485214233398438e+00,2.224108219146728516e+00,2.183286905288696289e+00,2.143936872482299805e+00,2.105980396270751953e+00,2.069344282150268555e+00,2.033961057662963867e+00,1.999767541885375977e+00,1.966704964637756348e+00,1.934717535972595215e+00,1.903753876686096191e+00,1.873766064643859863e+00,1.844708085060119629e+00
5.000000000000000000e+00,5.000000000000000000e+00,5.000000000000000000e+00,5.000000000000000000e+00,5.000000000000000000e+00,5.000000000000000000e+00,5.000000000000000000e+00,5.000000000000000000e+00,5.000000000000000000e+00,5.000000000000000000e+00,5.000000000000000000e+00,5.000000000000000000e+00,5.000000000000000000e+00,5.000000000000000000e+00,5.000000000000000000e+00,5.000000000000000000e+00,5.000000000000000000e+00,1.979643940925598145e+00,1.934151887893676758e+00,1.910901665687561035e+00,1.922309398651123047e+00,1.960180282592773438e+00,5.000000000000000000e+00,5.000000000000000000e+00,5.000000000000000000e+00,1.881443142890930176e+00,1.866436839103698730e+00,1.874526023864746094e+00,1.925753235816955566e+00,5.000000000000000000e+00,5.000000000000000000e+00,5.000000000000000000e+00,5.000000000000000000e+00,5.000000000000000000e+00,5.000000000000000000e+00,5.000000000000000000e+00,5.000000000000000000e+00,5.000000000000000000e+00,5.000000000000000000e+00,4.858599662780761719e+00,4.667940616607666016e+00,4.491680145263671875e+00,4.328246116638183594e+00,4.176288127899169922e+00,4.034637928009033203e+00,3.902282238006591797e+00,3.778333663940429688e+00,3.662017107009887695e+00,3.552648305892944336e+00,3.449622392654418945e+00,3.352403879165649414e+00,3.260514974594116211e+00,3.173528671264648438e+00,3.091063261032104492e+00,3.012775182723999023e+00,2.938354730606079102e+00,2.867522239685058594e+00,2.800024509429931641e+00,2.735630989074707031e+00,2.674133062362670898e+00,2.615339279174804688e+00,2.559074878692626953e+00,2.505180358886718750e+00,2.453509330749511719e+00,2.403926610946655273e+00,2.356308221817016602e+00,2.310539722442626953e+00,2.266515254974365234e+00,2.224137067794799805e+00,2.183314800262451172e+00,2.143963813781738281e+00,2.106006145477294922e+00,2.069369316101074219e+00,2.033985376358032227e+00,1.999790906906127930e+00,1.966727495193481445e+00,1.934739351272583008e+00,1.903775334358215332e+00,1.873786568641662598e+00,1.844727873802185059e+00
5.000000000000000000e+00,5.000000000000000000e+00,5.000000000000000000e+00,5.000000000000000000e+00,5.000000000000000000e+00,5.000000000000000000e+00,5.000000000000000000e+00,5.000000000000000000e+00,5.000000000000000000e+00,5.000000000000000000e+00,5.000000000000000000e+00,5.000000000000000000e+00,5.000000000000000000e+00,5.000000000000000000e+00,5.000000000000000000e+00,5.000000000000000000e+00,2.025404930114746094e+00,1.970348000526428223e+00,1.940040469169616699e+00,1.922965764999389648e+00,1.939052104949951172e+00,5.000000000000000000e+00,5.000000000000000000e+00,5.000000000000000000e+00,5.000000000000000000e+00,1.889436125755310059e+00,1.879263758659362793e+00,1.885172367095947266e+00,5.000000000000000000e+00,5.000000000000000000e+00,5.000000000000000000e+00,5.000000000000000000e+00,5.000000000000000000e+00,5.000000000000000000e+00,5.000000000000000000e+00,5.000000000000000000e+00,5.000000000000000000e+00,5.000000000000000000e+00,5.000000000000000000e+00,4.858737945556640625e+00,4.668068408966064453e+00,4.491798400878906250e+00,4.328355789184570312e+00,4.176390171051025391e+00,4.034733295440673828e+00,3.902371168136596680e+00,3.778417348861694336e+00,3.662095308303833008e+00,3.552721977233886719e+00,3.449692249298095703e+00,3.352469921112060547e+00,3.260576963424682617e+00,3.173587799072265625e+00,3.091119289398193359e+00,3.012828350067138672e+00,2.938405513763427734e+00,2.867570638656616211e+00,2.800070285797119141e+00,2.735674858093261719e+00,2.674175024032592773e+00,2.615379095077514648e+00,2.559113264083862305e+00,2.505217313766479492e+00,2.453544616699218750e+00,2.403960466384887695e+00,2.356340885162353516e+00,2.310570955276489258e+00,2.266545295715332031e+00,2.224166154861450195e+00,2.183342695236206055e+00,2.143990755081176758e+00,2.106032371520996094e+00,2.069394350051879883e+00,2.034009456634521484e+00,1.999814510345458984e+00,1.966750144958496094e+00,1.934761166572570801e+00,1.903796434402465820e+00,1.873807072639465332e+00,1.844747781753540039e+00
5.000000000000000000e+00,5.000000000000000000e+00,5.000000000000000000e+00,5.000000000000000000e+00,5.000000000000000000e+00,5.000000000000000000e+00,5.000000000000000000e+00,5.000000000000000000e+00,5.000000000000000000e+00,5.000000000000000000e+00,5.000000000000000000e+00,5.000000000000000000e+00,5.000000000000000000e+00,5.000000000000000000e+00,5.000000000000000000e+00,5.000000000000000000e+00,2.008881330490112305e+00,1.982652425765991211e+00,1.968194961547851562e+00,1.947094917297363281e+00,2.013619422912597656e+00,5.000000000000000000e+00,5.000000000000000000e+00,5.000000000000000000e+00,1.941234588623046875e+00,1.892322063446044922e+00,1.890801906585693359e+00,1.897964596748352051e+00,5.000000000000000000e+00,5.000000000000000000e+00,5.000000000000000000e+00,5.000000000000000000e+00,5.000000000000000000e+00,5.000000000000000000e+00,5.000000000000000000e+00,5.000000000000000000e+00,5.000000000000000000e+00,5.000000000000000000e+00,5.000000000000000000e+00,4.858876228332519531e+00,4.668195724487304688e+00,4.491916179656982422e+00,4.328465461730957031e+00,4.176492214202880859e+00,4.034828662872314453e+00,3.902460575103759766e+00,3.778500795364379883e+00,3.662173986434936523e+00,3.552796125411987305e+00,3.449761867523193359e+00,3.352535486221313477e+00,3.260639429092407227e+00,3.173646688461303711e+00,3.091175317764282227e+00,3.012881517410278320e+00,2.938455820083618164e+00,2.867618560791015625e+00,2.800116300582885742e+00,2.735718965530395508e+00,2.674216747283935547e+00,2.615419387817382812e+00,2.559151649475097656e+00,2.505254030227661133e+00,2.453579902648925781e+00,2.403994321823120117e+00,2.356373310089111328e+00,2.310602188110351562e+00,2.266575574874877930e+00,2.224195003509521484e+00,2.183370590209960938e+00,2.144017696380615234e+00,2.106058120727539062e+00,2.069419384002685547e+00,2.034033775329589844e+00,1.999837875366210938e+00,1.966772675514221191e+00,1.934783339500427246e+00,1.903817653656005859e+00,1.873827576637268066e+00,1.844767928123474121e+00
5.000000000000000000e+00,5.000000000000000000e+00,5.000000000000000000e+00,5.000000000000000000e+00,5.000000000000000000e+00,5.000000000000000000e+00,5.000000000000000000e+00,5.000000000000000000e+00,5.000000000000000000e+00,5.000000000000000000e+00,5.000000000000000000e+00,5.000000000000000000e+00,5.000000000000000000e+00,5.000000000000000000e+00,5.000000000000000000e+00,5.000000000000000000e+00,2.029360771179199219e+00,2.011023998260498047e+00,2.006109476089477539e+00,5.000000000000000000e+00,5.000000000000000000e+00,5.000000000000000000e+00,5.000000000000000000e+00,5.000000000000000000e+00,1.943314194679260254e+00,1.890766620635986328e+00,1.890862226486206055e+00,1.898812890052795410e+00,5.000000000000000000e+00,5.000000000000000000e+00,5.000000000000000000e+00,5.000000000000000000e+00,5.000000000000000000e+00,5.000000000000000000e+00,5.000000000000000000e+00,5.000000000000000000e+00,5.000000000000000000e+00,5.000000000000000000e+00,5.000000000000000000e+00,4.859014511108398438e+00,4.668323516845703125e+00,4.492034435272216797e+00,4.328575611114501953e+00,4.176594257354736328e+00,4.034924030303955078e+00,3.902549505233764648e+00,3.778584480285644531e+00,3.662252902984619141e+00,3.552869796752929688e+00,3.449831724166870117e+00,3.352601528167724609e+00,3.260701656341552734e+00,3.173705816268920898e+00,3.091231346130371094e+00,3.012934684753417969e+00,2.938506603240966797e+00,2.867666959762573242e+00,2.800162076950073242e+00,2.735762596130371094e+00,2.674258708953857422e+00,2.615459203720092773e+00,2.559190034866333008e+00,2.505290746688842773e+00,2.453615188598632812e+00,2.404028177261352539e+00,2.356405973434448242e+00,2.310633659362792969e+00,2.266605615615844727e+00,2.224224090576171875e+00,2.183398723602294922e+00,2.144044637680053711e+00,2.106084108352661133e+00,2.069444417953491211e+00,2.034058094024658203e+00,1.999861240386962891e+00,1.966795563697814941e+00,1.934805154800415039e+00,1.903838872909545898e+00,1.873848319053649902e+00,1.844787716865539551e+00
5.000000000000000000e+00,5.000000000000000000e+00,5.000000000000000000e+00,5.000000000000000000e+00,5.000000000000000000e+00,5.000000000000000000e+00,5.000000000000000000e+00,5.000000000000000000e+00,5.000000000000000000e+00,5.000000000000000000e+00,5.000000000000000000e+00,5.000000000000000000e+00,5.000000000000000000e+00,5.000000000000000000e+00,5.000000000000000000e+00,2.081416845321655273e+00,2.050429105758666992e+00,2.036968469619750977e+00,2.062493085861206055e+00,5.000000000000000000e+00,5.000000000000000000e+00,5.000000000000000000e+00,5.000000000000000000e+00,5.000000000000000000e+00,1.947183609008789062e+00,1.890007019042968750e+00,1.890328764915466309e+00,1.898873686790466309e+00,5.000000000000000000e+00,5.000000000000000000e+00,5.000000000000000000e+00,5.000000000000000000e+00,5.000000000000000000e+00,5.000000000000000000e+00,5.000000000000000000e+00,5.000000000000000000e+00,5.000000000000000000e+00,5.000000000000000000e+00,5.000000000000000000e+00,4.859152793884277344e+00,4.668451309204101562e+00,4.492152690887451172e+00,4.328685283660888672e+00,4.176696777343750000e+00,4.035019397735595703e+00,3.902638912200927734e+00,3.778667926788330078e+00,3.662331104278564453e+00,3.552943944931030273e+00,3.449901103973388672e+00,3.352667093276977539e+00,3.260763883590698242e+00,3.173764467239379883e+00,3.091287136077880859e+00,3.012987852096557617e+00,2.938557147979736328e+00,2.867714881896972656e+00,2.800208091735839844e+00,2.735806465148925781e+00,2.674300432205200195e+00,2.615499496459960938e+00,2.559228420257568359e+00,2.505327463150024414e+00,2.453650474548339844e+00,2.404062032699584961e+00,2.356438398361206055e+00,2.310664892196655273e+00,2.266635656356811523e+00,2.224253177642822266e+00,2.183426380157470703e+00,2.144071578979492188e+00,2.106110334396362305e+00,2.069469451904296875e+00,2.034082174301147461e+00,1.999884843826293945e+00,1.966818094253540039e+00,1.934827089309692383e+00,1.903860211372375488e+00,1.873868823051452637e+00,1.844807624816894531e+00
5.000000000000000000e+00,5.000000000000000000e+00,5.000000000000000000e+00,5.000000000000000000e+00,5.000000000000000000e+00,5.000000000000000000e+00,5.000000000000000000e+00,5.000000000000000000e+00,5.000000000000000000e+00,5.000000000000000000e+00,5.000000000000000000e+00,5.000000000000000000e+00,5.000000000000000000e+00,5.000000000000000000e+00,5.000000000000000000e+00,2.099935531616210938e+00,2.072378635406494141e+00,2.063590764999389648e+00,2.126278877258300781e+00,5.000000000000000000e+00,5.000000000000000000e+00,5.000000000000000000e+00,5.000000000000000000e+00,5.000000000000000000e+00,5.000000000000000000e+00,1.889295458793640137e+00,1.889536619186401367e+00,1.898934483528137207e+00,5.000000000000000000e+00,5.000000000000000000e+00,5.000000000000000000e+00,5.000000000000000000e+00,5.000000000000000000e+00,5.000000000000000000e+00,5.000000000000000000e+00,5.000000000000000000e+00,5.000000000000000000e+00,5.000000000000000000e+00,5.000000000000000000e+00,4.859291076660156250e+00,4.668578624725341797e+00,4.492270946502685547e+00,4.328794956207275391e+00,4.176798820495605469e+00,4.035114765167236328e+00,3.902727842330932617e+00,3.778751850128173828e+00,3.662410020828247070e+00,3.553017616271972656e+00,3.449970960617065430e+00,3.352733135223388672e+00,3.260826110839843750e+00,3.173823595046997070e+00,3.091343164443969727e+00,3.013041019439697266e+00,2.938607692718505859e+00,2.867763280868530273e+00,2.800253868103027344e+00,2.735850334167480469e+00,2.674342632293701172e+00,2.615539550781250000e+00,2.559266567230224609e+00,2.505364418029785156e+00,2.453685760498046875e+00,2.404095888137817383e+00,2.356471061706542969e+00,2.310696125030517578e+00,2.266665697097778320e+00,2.224282026290893555e+00,2.183454513549804688e+00,2.144098281860351562e+00,2.106136083602905273e+00,2.069494724273681641e+00,2.034106492996215820e+00,1.999908208847045898e+00,1.966840744018554688e+00,1.934849143028259277e+00,1.903881430625915527e+00,1.873889327049255371e+00,1.844827771186828613e+00
5.000000000000000000e+00,5.000000000000000000e+00,5.000000000000000000e+00,5.000000000000000000e+00,5.000000000000000000e+00,5.000000000000000000e+00,5.000000000000000000e+00,5.000000000000000000e+00,5.000000000000000000e+00,5.000000000000000000e+00,5.000000000000000000e+00,5.000000000000000000e+00,5.000000000000000000e+00,5.000000000000000000e+00,5.000000000000000000e+00,2.125259637832641602e+00,2.102477550506591797e+00,2.114312648773193359e+00,5.000000000000000000e+00,5.000000000000000000e+00,5.000000000000000000e+00,5.000000000000000000e+00,5.000000000000000000e+00,5.000000000000000000e+00,5.000000000000000000e+00,1.889236450195312500e+00,1.888829708099365234e+00,1.898670196533203125e+00,5.000000000000000000e+00,5.000000000000000000e+00,5.000000000000000000e+00,5.000000000000000000e+00,5.000000000000000000e+00,5.000000000000000000e+00,5.000000000000000000e+00,5.000000000000000000e+00,5.000000000000000000e+00,5.000000000000000000e+00,5.000000000000000000e+00,4.859429836273193359e+00,4.668706417083740234e+00,4.492389202117919922e+00,4.328904628753662109e+00,4.176900863647460938e+00,4.035210132598876953e+00,3.902817249298095703e+00,3.778835296630859375e+00,3.662488222122192383e+00,3.553091764450073242e+00,3.450040578842163086e+00,3.352798700332641602e+00,3.260888576507568359e+00,3.173882722854614258e+00,3.091398954391479492e+00,3.013094186782836914e+00,2.938658475875854492e+00,2.867811203002929688e+00,2.800299882888793945e+00,2.735894203186035156e+00,2.674384355545043945e+00,2.615579605102539062e+00,2.559305191040039062e+00,2.505400896072387695e+00,2.453720808029174805e+00,2.404129743576049805e+00,2.356503486633300781e+00,2.310727357864379883e+00,2.266695976257324219e+00,2.224311113357543945e+00,2.183482408523559570e+00,2.144125461578369141e+00,2.106162309646606445e+00,2.069519758224487305e+00,2.034130811691284180e+00,1.999931573867797852e+00,1.966863393783569336e+00,1.934870958328247070e+00,1.903902530670166016e+00,1.873909831047058105e+00,1.844847559928894043e+00
5.000000000000000000e+00,5.000000000000000000e+00,5.000000000000000000e+00,5.000000000000000000e+00,5.000000000000000000e+00,5.000000000000000000e+00,5.000000000000000000e+00,5.000000000000000000e+00,5.000000000000000000e+00,5.000000000000000000e+00,5.000000000000000000e+00,5.000000000000000000e+00,5.000000000000000000e+00,5.000000000000000000e+00,5.000000000000000000e+00,2.151871204376220703e+00,2.141893148422241211e+00,5.000000000000000000e+00,5.000000000000000000e+00,5.000000000000000000e+00,5.000000000000000000e+00,5.000000000000000000e+00,5.000000000000000000e+00,5.000000000000000000e+00,5.000000000000000000e+00,1.891341924667358398e+00,1.889000654220581055e+00,1.898755550384521484e+00,5.000000000000000000e+00,5.000000000000000000e+00,5.000000000000000000e+00,5.000000000000000000e+00,5.000000000000000000e+00,5.000000000000000000e+00,5.000000000000000000e+00,5.000000000000000000e+00,5.000000000000000000e+00,5.000000000000000000e+00,5.000000000000000000e+00,4.859568119049072266e+00,4.668834209442138672e+00,4.492507457733154297e+00,4.329014301300048828e+00,4.177002906799316406e+00,4.035305500030517578e+00,3.902906179428100586e+00,3.778918981552124023e+00,3.662566900253295898e+00,3.553165435791015625e+00,3.450110435485839844e+00,3.352864742279052734e+00,3.260950565338134766e+00,3.173941612243652344e+00,3.091455221176147461e+00,3.013147354125976562e+00,2.938708782196044922e+00,2.867859601974487305e+00,2.800346136093139648e+00,2.735937833786010742e+00,2.674426317214965820e+00,2.615619659423828125e+00,2.559343338012695312e+00,2.505437850952148438e+00,2.453756332397460938e+00,2.404163599014282227e+00,2.356535911560058594e+00,2.310758590698242188e+00,2.266725778579711914e+00,2.224339962005615234e+00,2.183510303497314453e+00,2.144152164459228516e+00,2.106188058853149414e+00,2.069544792175292969e+00,2.034155130386352539e+00,1.999954938888549805e+00,1.966886162757873535e+00,1.934892892837524414e+00,1.903923749923706055e+00,1.873930573463439941e+00,1.844867467880249023e+00
5.000000000000000000e+00,5.000000000000000000e+00,5.000000000000000000e+00,5.000000000000000000e+00,5.000000000000000000e+00,5.000000000000000000e+00,5.000000000000000000e+00,5.000000000000000000e+00,5.000000000000000000e+00,5.000000000000000000e+00,5.000000000000000000e+00,5.000000000000000000e+00,5.000000000000000000e+00,5.000000000000000000e+00,2.228156805038452148e+00,2.193400144577026367e+00,2.182815074920654297e+00,5.000000000000000000e+00,5.000000000000000000e+00,5.000000000000000000e+00,5.000000000000000000e+00,5.000000000000000000e+00,5.000000000000000000e+00,5.000000000000000000e+00,5.000000000000000000e+00,1.893357038497924805e+00,1.889171838760375977e+00,1.919417619705200195e+00,5.000000000000000000e+00,5.000000000000000000e+00,5.000000000000000000e+00,5.000000000000000000e+00,5.000000000000000000e+00,5.000000000000000000e+00,5.000000000000000000e+00,5.000000000000000000e+00,5.000000000000000000e+00,5.000000000000000000e+00,5.000000000000000000e+00,4.859706401824951172e+00,4.668961524963378906e+00,4.492625236511230469e+00,4.329123973846435547e+00,4.177105426788330078e+00,4.035400867462158203e+00,3.902995586395263672e+00,3.779002428054809570e+00,3.662645339965820312e+00,3.553239583969116211e+00,3.450180292129516602e+00,3.352930545806884766e+00,3.261013031005859375e+00,3.174000740051269531e+00,3.091511011123657227e+00,3.013200521469116211e+00,2.938759565353393555e+00,2.867907524108886719e+00,2.800391912460327148e+00,2.735981941223144531e+00,2.674468040466308594e+00,2.615659713745117188e+00,2.559381723403930664e+00,2.505474567413330078e+00,2.453791379928588867e+00,2.404197454452514648e+00,2.356568574905395508e+00,2.310789823532104492e+00,2.266756057739257812e+00,2.224369049072265625e+00,2.183538198471069336e+00,2.144179344177246094e+00,2.106214284896850586e+00,2.069569826126098633e+00,2.034179210662841797e+00,1.999978542327880859e+00,1.966908812522888184e+00,1.934914708137512207e+00,1.903945088386535645e+00,1.873951077461242676e+00,1.844887375831604004e+00
4.874016284942626953e+00,4.872818946838378906e+00,4.871621608734130859e+00,4.870425701141357422e+00,4.869229793548583984e+00,4.868034839630126953e+00,4.866840362548828125e+00,4.865645885467529297e+00,4.864452838897705078e+00,4.863259792327880859e+00,4.862068176269531250e+00,4.860876083374023438e+00,4.859685420989990234e+00,4.858494758605957031e+00,2.214215755462646484e+00,2.201291561126708984e+00,2.224890947341918945e+00,4.853739261627197266e+00,4.852551937103271484e+00,4.851364612579345703e+00,4.850178241729736328e+00,4.848992824554443359e+00,4.847807407379150391e+00,4.846622943878173828e+00,4.845438957214355469e+00,1.895269393920898438e+00,1.889342904090881348e+00,4.841890335083007812e+00,4.840708255767822266e+00,4.839527606964111328e+00,4.838346481323242188e+00,4.837166786193847656e+00,4.835987091064453125e+00,4.834808349609375000e+00,4.833630084991455078e+00,4.832452297210693359e+00,4.831275463104248047e+00,4.830098628997802734e+00,4.828922748565673828e+00,4.827747344970703125e+00,4.669089317321777344e+00,4.492743968963623047e+00,4.329233646392822266e+00,4.177207469940185547e+00,4.035496234893798828e+00,3.903084754943847656e+00,3.779086351394653320e+00,3.662724018096923828e+00,3.553313493728637695e+00,3.450249910354614258e+00,3.352996587753295898e+00,3.261075258255004883e+00,3.174059629440307617e+00,3.091567039489746094e+00,3.013253927230834961e+00,2.938809871673583984e+00,2.867955923080444336e+00,2.800437927246093750e+00,2.736025571823120117e+00,2.674510002136230469e+00,2.615699768066406250e+00,2.559420108795166016e+00,2.505511283874511719e+00,2.453826665878295898e+00,2.404231309890747070e+00,2.356600999832153320e+00,2.310821294784545898e+00,2.266786098480224609e+00,2.224397897720336914e+00,2.183566093444824219e+00,2.144206285476684570e+00,2.106240034103393555e+00,2.069595098495483398e+00,2.034203529357910156e+00,2.000001907348632812e+00,1.966931343078613281e+00,1.934936761856079102e+00,1.903966307640075684e+00,1.873971581459045410e+00,1.844907402992248535e+00
3.777029991149902344e+00,3.776310682296752930e+00,3.775592088699340820e+00,3.774873495101928711e+00,3.774155139923095703e+00,3.773437023162841797e+00,3.772719144821166992e+00,3.772001981735229492e+00,3.771284580230712891e+00,3.770567655563354492e+00,3.769850730895996094e+00,3.769134759902954102e+00,3.768418550491333008e+00,3.767702579498291016e+00,2.202169656753540039e+00,2.202144622802734375e+00,2.218386411666870117e+00,3.764841794967651367e+00,3.764127254486083984e+00,3.763413429260253906e+00,3.762699365615844727e+00,3.761985540390014648e+00,3.761271953582763672e+00,3.760558843612670898e+00,3.759846210479736328e+00,1.897185444831848145e+00,1.890300631523132324e+00,3.757709026336669922e+00,3.756997346878051758e+00,3.756285905838012695e+00,3.755574464797973633e+00,3.754863500595092773e+00,3.754152536392211914e+00,3.753442525863647461e+00,3.752732276916503906e+00,3.752022266387939453e+00,3.751312494277954102e+00,3.750603437423706055e+00,3.749894142150878906e+00,3.749185323715209961e+00,3.748476505279541016e+00,3.747768640518188477e+00,3.747060298919677734e+00,3.746352672576904297e+00,3.745645046234130859e+00,3.744937658309936523e+00,3.744230985641479492e+00,3.662802457809448242e+00,3.553387403488159180e+00,3.450319766998291016e+00,3.353062152862548828e+00,3.261137723922729492e+00,3.174118757247924805e+00,3.091622829437255859e+00,3.013306856155395508e+00,2.938860654830932617e+00,2.868003845214843750e+00,2.800483703613281250e+00,2.736069440841674805e+00,2.674551725387573242e+00,2.615739822387695312e+00,2.559458494186401367e+00,2.505548238754272461e+00,2.453861951828002930e+00,2.404265165328979492e+00,2.356633663177490234e+00,2.310852527618408203e+00,2.266816139221191406e+00,2.224426984786987305e+00,2.183593988418579102e+00,2.144232988357543945e+00,2.106266021728515625e+00,2.069620132446289062e+00,2.034227609634399414e+00,2.000025272369384766e+00,1.966953992843627930e+00,1.934958696365356445e+00,1.903987526893615723e+00,1.873992323875427246e+00,1.844927310943603516e+00
3.083118200302124023e+00,3.082638978958129883e+00,3.082159757614135742e+00,3.081681251525878906e+00,3.081202268600463867e+00,3.080723762512207031e+00,3.080245256423950195e+00,3.079766750335693359e+00,3.079288959503173828e+00,3.078810930252075195e+00,3.078332901000976562e+00,3.077855110168457031e+00,3.077377796173095703e+00,3.076900482177734375e+00,2.202486038208007812e+00,2.197798728942871094e+00,2.216267585754394531e+00,3.074992179870605469e+00,3.074515581130981445e+00,3.074038982391357422e+00,3.073562383651733398e+00,3.073086500167846680e+00,3.072610378265380859e+00,3.072134256362915039e+00,3.071658611297607422e+00,1.905155420303344727e+00,1.896895527839660645e+00,3.070232152938842773e+00,3.069756984710693359e+00,3.069282054901123047e+00,3.068807125091552734e+00,3.068332195281982422e+00,3.067857503890991211e+00,3.067383050918579102e+00,3.066909074783325195e+00,3.066434860229492188e+00,3.065960645675659180e+00,3.065486907958984375e+00,3.065013408660888672e+00,3.064539670944213867e+00,3.064066171646118164e+00,3.063592910766601562e+00,3.063119888305664062e+00,3.062646865844726562e+00,3.062174081802368164e+00,3.061701297760009766e+00,3.061228513717651367e+00,3.060756444931030273e+00,3.060284137725830078e+00,3.059811830520629883e+00,3.059339761734008789e+00,3.058868169784545898e+00,3.058396577835083008e+00,3.057924985885620117e+00,3.013360261917114258e+00,2.938911199569702148e+00,2.868052244186401367e+00,2.800529718399047852e+00,2.736113309860229492e+00,2.674593925476074219e+00,2.615779876708984375e+00,2.559496879577636719e+00,2.505584955215454102e+00,2.453897237777709961e+00,2.404299020767211914e+00,2.356666088104248047e+00,2.310883760452270508e+00,2.266846418380737305e+00,2.224456071853637695e+00,2.183621883392333984e+00,2.144260168075561523e+00,2.106292009353637695e+00,2.069645166397094727e+00,2.034251928329467773e+00,2.000048637390136719e+00,1.966976761817932129e+00,1.934980511665344238e+00,1.904008626937866211e+00,1.874012827873229980e+00,1.844947218894958496e+00
2.604603290557861328e+00,2.604261159896850586e+00,2.603919267654418945e+00,2.603577375411987305e+00,2.603235960006713867e+00,2.602894067764282227e+00,2.602552652359008789e+00,2.602210998535156250e+00,2.601869583129882812e+00,2.601528644561767578e+00,2.601187229156494141e+00,2.600846290588378906e+00,2.600505113601684570e+00,2.600164413452148438e+00,2.599823474884033203e+00,2.189730644226074219e+00,2.202476978302001953e+00,2.598801612854003906e+00,2.598461151123046875e+00,2.598120689392089844e+00,2.597780227661132812e+00,2.597440004348754883e+00,2.597100019454956055e+00,2.596760034561157227e+00,2.596420049667358398e+00,1.892312526702880859e+00,1.870872735977172852e+00,2.595400810241699219e+00,2.595061063766479492e+00,2.594721555709838867e+00,2.594382286071777344e+00,2.594043016433715820e+00,2.593703746795654297e+00,2.593364477157592773e+00,2.593025445938110352e+00,2.592686653137207031e+00,2.592347860336303711e+00,2.592008829116821289e+00,2.591670274734497070e+00,2.591331720352172852e+00,2.590993165969848633e+00,2.590654611587524414e+00,2.590316295623779297e+00,2.589978218078613281e+00,2.589639902114868164e+00,2.589301824569702148e+00,2.588963747024536133e+00,2.588625907897949219e+00,2.588288307189941406e+00,2.587950468063354492e+00,2.587612867355346680e+00,2.587275266647338867e+00,2.586937904357910156e+00,2.586600542068481445e+00,2.586263179779052734e+00,2.585926055908203125e+00,2.585588693618774414e+00,2.585252046585083008e+00,2.584914922714233398e+00,2.584578037261962891e+00,2.584241390228271484e+00,2.559535264968872070e+00,2.505621671676635742e+00,2.453932523727416992e+00,2.404332876205444336e+00,2.356698751449584961e+00,2.310914993286132812e+00,2.266876459121704102e+00,2.224484920501708984e+00,2.183649778366088867e+00,2.144286870956420898e+00,2.106317996978759766e+00,2.069670200347900391e+00,2.034276247024536133e+00,2.000072240829467773e+00,1.966999411582946777e+00,1.935002446174621582e+00,1.904030084609985352e+00,1.874033331871032715e+00,1.844967126846313477e+00
2.254722356796264648e+00,2.254463672637939453e+00,2.254204988479614258e+00,2.253946542739868164e+00,2.253687858581542969e+00,2.253429651260375977e+00,2.253171205520629883e+00,2.252912998199462891e+00,2.252654552459716797e+00,2.252396583557128906e+00,2.252138376235961914e+00,2.251880168914794922e+00,2.251622200012207031e+00,2.251364231109619141e+00,2.251106262207031250e+00,2.250848531723022461e+00,2.250590801239013672e+00,2.250333070755004883e+00,2.250075340270996094e+00,2.249817848205566406e+00,2.249560356140136719e+00,2.249302864074707031e+00,2.249045372009277344e+00,2.248788356781005859e+00,2.248533248901367188e+00,1.896851062774658203e+00,1.829992294311523438e+00,1.841092348098754883e+00,2.247514247894287109e+00,2.247259378433227539e+00,2.247004747390747070e+00,2.246750354766845703e+00,2.246495962142944336e+00,2.246241331100463867e+00,2.245986938476562500e+00,2.245732784271240234e+00,2.245478630065917969e+00,2.245224237442016602e+00,2.244970083236694336e+00,2.244715929031372070e+00,2.244462013244628906e+00,2.244208097457885742e+00,2.243954181671142578e+00,2.243700265884399414e+00,2.243446588516235352e+00,2.243192911148071289e+00,2.242939233779907227e+00,2.242685556411743164e+00,2.242431879043579102e+00,2.242178440093994141e+00,2.241925001144409180e+00,2.241671562194824219e+00,2.241418361663818359e+00,2.241165161132812500e+00,2.240911960601806641e+00,2.240658760070800781e+00,2.240405559539794922e+00,2.240152359008789062e+00,2.239899635314941406e+00,2.239646673202514648e+00,2.239393711090087891e+00,2.239140748977661133e+00,2.238888263702392578e+00,2.238635540008544922e+00,2.238382816314697266e+00,2.238130092620849609e+00,2.237877845764160156e+00,2.237625360488891602e+00,2.224514007568359375e+00,2.183677911758422852e+00,2.144313812255859375e+00,2.106343984603881836e+00,2.069695234298706055e+00,2.034300327301025391e+00,2.000095605850219727e+00,1.967021942138671875e+00,1.935024499893188477e+00,1.904051184654235840e+00,1.874053835868835449e+00,1.844987154006958008e+00
1.987814426422119141e+00,1.987613320350646973e+00,1.987412333488464355e+00,1.987211227416992188e+00,1.987010478973388672e+00,1.986809492111206055e+00,1.986608624458312988e+00,1.986407756805419922e+00,1.986207127571105957e+00,1.986006379127502441e+00,1.985805630683898926e+00,1.985604882240295410e+00,1.985404491424560547e+00,1.985203862190246582e+00,1.985003352165222168e+00,1.984802722930908203e+00,1.984602451324462891e+00,1.984401941299438477e+00,1.984201550483703613e+00,1.984001159667968750e+00,1.983801126480102539e+00,1.983600735664367676e+00,1.983400583267211914e+00,1.983200311660766602e+00,1.983000397682189941e+00,1.982800245285034180e+00,1.809515476226806641e+00,1.769962787628173828e+00,1.793727397918701172e+00,1.982000350952148438e+00,1.981800317764282227e+00,1.981600403785705566e+00,1.981400847434997559e+00,1.981201052665710449e+00,1.981001257896423340e+00,1.980801463127136230e+00,1.980602025985717773e+00,1.980402350425720215e+00,1.980202794075012207e+00,1.980003118515014648e+00,1.979803919792175293e+00,1.979604363441467285e+00,1.979404926300048828e+00,1.979205489158630371e+00,1.979006290435791016e+00,1.978806972503662109e+00,1.978607654571533203e+00,1.978408455848693848e+00,1.978209495544433594e+00,1.978010296821594238e+00,1.977811098098754883e+00,1.977612018585205078e+00,1.977413177490234375e+00,1.977214217185974121e+00,1.977015256881713867e+00,1.976816296577453613e+00,1.976617574691772461e+00,1.976418733596801758e+00,1.976219892501831055e+00,1.976021170616149902e+00,1.975822687149047852e+00,1.975623965263366699e+00,1.975425243377685547e+00,1.975226640701293945e+00,1.975028276443481445e+00,1.974829792976379395e+00,1.974631309509277344e+00,1.974432826042175293e+00,1.974234580993652344e+00,1.974036216735839844e+00,1.973837971687316895e+00,1.973639607429504395e+00,1.973441600799560547e+00,1.973243355751037598e+00,1.973045229911804199e+00,1.967044830322265625e+00,1.935046434402465820e+00,1.904072403907775879e+00,1.874074578285217285e+00,1.845007061958312988e+00
1.777409434318542480e+00,1.777248620986938477e+00,1.777088046073913574e+00,1.776927232742309570e+00,1.776766538619995117e+00,1.776605844497680664e+00,1.776445388793945312e+00,1.776284813880920410e+00,1.776124238967895508e+00,1.775963664054870605e+00,1.775803327560424805e+00,1.775642871856689453e+00,1.775482296943664551e+00,1.775321841239929199e+00,1.775161623954772949e+00,1.775001287460327148e+00,1.774840950965881348e+00,1.774680614471435547e+00,1.774520516395568848e+00,1.774360179901123047e+00,1.774199962615966797e+00,1.774039745330810547e+00,1.773879766464233398e+00,1.773719549179077148e+00,1.773559451103210449e+00,1.773399353027343750e+00,1.773239493370056152e+00,1.773079395294189453e+00,1.772919416427612305e+00,1.772759437561035156e+00,1.772599697113037109e+00,1.772439718246459961e+00,1.772279858589172363e+00,1.772119998931884766e+00,1.771960258483886719e+00,1.771800518035888672e+00,1.771640658378601074e+00,1.771480917930603027e+00,1.771321415901184082e+00,1.771161675453186035e+00,1.771002054214477539e+00,1.770842432975769043e+00,1.770682930946350098e+00,1.770523428916931152e+00,1.770363807678222656e+00,1.770204305648803711e+00,1.770045042037963867e+00,1.769885540008544922e+00,1.769726037979125977e+00,1.769566655158996582e+00,1.769407510757446289e+00,1.769248127937316895e+00,1.769088864326477051e+00,1.768929481506347656e+00,1.768770456314086914e+00,1.768611192703247070e+00,1.768452048301696777e+00,1.768292784690856934e+00,1.768133878707885742e+00,1.767974734306335449e+00,1.767815589904785156e+00,1.767656564712524414e+00,1.767497658729553223e+00,1.767338752746582031e+00,1.767179727554321289e+00,1.767020821571350098e+00,1.766862034797668457e+00,1.766703128814697266e+00,1.766544342041015625e+00,1.766385436058044434e+00,1.766226887702941895e+00,1.766068100929260254e+00,1.765909314155578613e+00,1.765750646591186523e+00,1.765592098236083984e+00,1.765433430671691895e+00,1.765274882316589355e+00,1.765116453170776367e+00,1.764957785606384277e+00,1.764799237251281738e+00
1.607282757759094238e+00,1.607151269912719727e+00,1.607019782066345215e+00,1.606888413429260254e+00,1.606757164001464844e+00,1.606625676155090332e+00,1.606494307518005371e+00,1.606362938880920410e+00,1.606231808662414551e+00,1.606100440025329590e+00,1.605969190597534180e+00,1.605837941169738770e+00,1.605706810951232910e+00,1.605575561523437500e+00,1.605444312095642090e+00,1.605313181877136230e+00,1.605182170867919922e+00,1.605051040649414062e+00,1.604919910430908203e+00,1.604788780212402344e+00,1.604657888412475586e+00,1.604526758193969727e+00,1.604395747184753418e+00,1.604264736175537109e+00,1.604133963584899902e+00,1.604002952575683594e+00,1.603871941566467285e+00,1.603741049766540527e+00,1.603610277175903320e+00,1.603479385375976562e+00,1.603348493576049805e+00,1.603217720985412598e+00,1.603087067604064941e+00,1.602956175804138184e+00,1.602825403213500977e+00,1.602694630622863770e+00,1.602564096450805664e+00,1.602433323860168457e+00,1.602302670478820801e+00,1.602172017097473145e+00,1.602041482925415039e+00,1.601910829544067383e+00,1.601780295372009277e+00,1.601649880409240723e+00,1.601519227027893066e+00,1.601388692855834961e+00,1.601258158683776855e+00,1.601127862930297852e+00,1.600997328758239746e+00,1.600866913795471191e+00,1.600736498832702637e+00,1.600606203079223633e+00,1.600475788116455078e+00,1.600345373153686523e+00,1.600215077400207520e+00,1.600084900856018066e+00,1.599954485893249512e+00,1.599824190139770508e+00,1.599694013595581055e+00,1.599563837051391602e+00,1.599433660507202148e+00,1.599303483963012695e+00,1.599173307418823242e+00,1.599043250083923340e+00,1.598913073539733887e+00,1.598783016204833984e+00,1.598652839660644531e+00,1.598523020744323730e+00,1.598392963409423828e+00,1.598262906074523926e+00,1.598132848739624023e+00,1.598003029823303223e+00,1.597873091697692871e+00,1.597743034362792969e+00,1.597613096237182617e+00,1.597483396530151367e+00,1.597353458404541016e+00,1.597223639488220215e+00,1.597093820571899414e+00,1.596964120864868164e+00
1.466878771781921387e+00,1.466769218444824219e+00,1.466659903526306152e+00,1.466550350189208984e+00,1.466440916061401367e+00,1.466331481933593750e+00,1.466222167015075684e+00,1.466112732887268066e+00,1.466003298759460449e+00,1.465893983840942383e+00,1.465784668922424316e+00,1.465675354003906250e+00,1.465566039085388184e+00,1.465456843376159668e+00,1.465347528457641602e+00,1.465238213539123535e+00,1.465128898620605469e+00,1.465019822120666504e+00,1.464910507202148438e+00,1.464801311492919922e+00,1.464692115783691406e+00,1.464583039283752441e+00,1.464473843574523926e+00,1.464364647865295410e+00,1.464255571365356445e+00,1.464146494865417480e+00,1.464037418365478516e+00,1.463928341865539551e+00,1.463819265365600586e+00,1.463710308074951172e+00,1.463601231575012207e+00,1.463492274284362793e+00,1.463383197784423828e+00,1.463274359703063965e+00,1.463165402412414551e+00,1.463056445121765137e+00,1.462947487831115723e+00,1.462838649749755859e+00,1.462729692459106445e+00,1.462620854377746582e+00,1.462511897087097168e+00,1.462403178215026855e+00,1.462294340133666992e+00,1.462185502052307129e+00,1.462076663970947266e+00,1.461968064308166504e+00,1.461859226226806641e+00,1.461750507354736328e+00,1.461641669273376465e+00,1.461533069610595703e+00,1.461424350738525391e+00,1.461315631866455078e+00,1.461207032203674316e+00,1.461098432540893555e+00,1.460989832878112793e+00,1.460881114006042480e+00,1.460772514343261719e+00,1.460664033889770508e+00,1.460555434226989746e+00,1.460446834564208984e+00,1.460338354110717773e+00,1.460229873657226562e+00,1.460121393203735352e+00,1.460012793540954590e+00,1.459904313087463379e+00,1.459795951843261719e+00,1.459687471389770508e+00,1.459579110145568848e+00,1.459470629692077637e+00,1.459362387657165527e+00,1.459253907203674316e+00,1.459145545959472656e+00,1.459037184715270996e+00,1.458928942680358887e+00,1.458820581436157227e+00,1.458712339401245117e+00,1.458603978157043457e+00,1.458495855331420898e+00,1.458387613296508789e+00,1.458279371261596680e+00
1.349034190177917480e+00,1.348941564559936523e+00,1.348848938941955566e+00,1.348756432533264160e+00,1.348663806915283203e+00,1.348571181297302246e+00,1.348478674888610840e+00,1.348386168479919434e+00,1.348293662071228027e+00,1.348201155662536621e+00,1.348108649253845215e+00,1.348016262054443359e+00,1.347923755645751953e+00,1.347831249237060547e+00,1.347738862037658691e+00,1.347646474838256836e+00,1.347553968429565430e+00,1.347461581230163574e+00,1.347369194030761719e+00,1.347276926040649414e+00,1.347184538841247559e+00,1.347092151641845703e+00,1.346999764442443848e+00,1.346907496452331543e+00,1.346815228462219238e+00,1.346722841262817383e+00,1.346630573272705078e+00,1.346538424491882324e+00,1.346446156501770020e+00,1.346353769302368164e+00,1.346261501312255859e+00,1.346169471740722656e+00,1.346077203750610352e+00,1.345984935760498047e+00,1.345892786979675293e+00,1.345800638198852539e+00,1.345708489418029785e+00,1.345616340637207031e+00,1.345524072647094727e+00,1.345432043075561523e+00,1.345339894294738770e+00,1.345247864723205566e+00,1.345155715942382812e+00,1.345063686370849609e+00,1.344971656799316406e+00,1.344879508018493652e+00,1.344787478446960449e+00,1.344695568084716797e+00,1.344603538513183594e+00,1.344511508941650391e+00,1.344419479370117188e+00,1.344327569007873535e+00,1.344235658645629883e+00,1.344143629074096680e+00,1.344051718711853027e+00,1.343959808349609375e+00,1.343867897987365723e+00,1.343775987625122070e+00,1.343684077262878418e+00,1.343592286109924316e+00,1.343500375747680664e+00,1.343408465385437012e+00,1.343316674232482910e+00,1.343224883079528809e+00,1.343133091926574707e+00,1.343041300773620605e+00,1.342949390411376953e+00,1.342857718467712402e+00,1.342765927314758301e+00,1.342674136161804199e+00,1.342582464218139648e+00,1.342490792274475098e+00,1.342399001121520996e+00,1.342307329177856445e+00,1.342215657234191895e+00,1.342123985290527344e+00,1.342032313346862793e+00,1.341940641403198242e+00,1.341848969459533691e+00,1.341757416725158691e+00
1.248715996742248535e+00,1.248636722564697266e+00,1.248557329177856445e+00,1.248478055000305176e+00,1.248398661613464355e+00,1.248319387435913086e+00,1.248240113258361816e+00,1.248160839080810547e+00,1.248081564903259277e+00,1.248002290725708008e+00,1.247923016548156738e+00,1.247843742370605469e+00,1.247764587402343750e+00,1.247685432434082031e+00,1.247606158256530762e+00,1.247526884078979492e+00,1.247447729110717773e+00,1.247368574142456055e+00,1.247289419174194336e+00,1.247210264205932617e+00,1.247130990028381348e+00,1.247051954269409180e+00,1.246972799301147461e+00,1.246893644332885742e+00,1.246814489364624023e+00,1.246735453605651855e+00,1.246656417846679688e+00,1.246577262878417969e+00,1.246498227119445801e+00,1.246419191360473633e+00,1.246340155601501465e+00,1.246261000633239746e+00,1.246181964874267578e+00,1.246103048324584961e+00,1.246024012565612793e+00,1.245944976806640625e+00,1.245865941047668457e+00,1.245787024497985840e+00,1.245708107948303223e+00,1.245629072189331055e+00,1.245550036430358887e+00,1.245471239089965820e+00,1.245392203330993652e+00,1.245313286781311035e+00,1.245234370231628418e+00,1.245155572891235352e+00,1.245076656341552734e+00,1.244997739791870117e+00,1.244918823242187500e+00,1.244840025901794434e+00,1.244761109352111816e+00,1.244682312011718750e+00,1.244603395462036133e+00,1.244524717330932617e+00,1.244445919990539551e+00,1.244367003440856934e+00,1.244288206100463867e+00,1.244209527969360352e+00,1.244130730628967285e+00,1.244051933288574219e+00,1.243973135948181152e+00,1.243894457817077637e+00,1.243815779685974121e+00,1.243736982345581055e+00,1.243658304214477539e+00,1.243579626083374023e+00,1.243500947952270508e+00,1.243422150611877441e+00,1.243343472480773926e+00,1.243264913558959961e+00,1.243186235427856445e+00,1.243107557296752930e+00,1.243028879165649414e+00,1.242950320243835449e+00,1.242871761322021484e+00,1.242793083190917969e+00,1.242714524269104004e+00,1.242635965347290039e+00,1.242557406425476074e+00,1.242478847503662109e+00
1.162285089492797852e+00,1.162216424942016602e+00,1.162147641181945801e+00,1.162078976631164551e+00,1.162010192871093750e+00,1.161941528320312500e+00,1.161872744560241699e+00,1.161804199218750000e+00,1.161735415458679199e+00,1.161666750907897949e+00,1.161598086357116699e+00,1.161529421806335449e+00,1.161460757255554199e+00,1.161392092704772949e+00,1.161323428153991699e+00,1.161254882812500000e+00,1.161186218261718750e+00,1.161117672920227051e+00,1.161049008369445801e+00,1.160980463027954102e+00,1.160911917686462402e+00,1.160843253135681152e+00,1.160774707794189453e+00,1.160706162452697754e+00,1.160637617111206055e+00,1.160569071769714355e+00,1.160500526428222656e+00,1.160431981086730957e+00,1.160363435745239258e+00,1.160294890403747559e+00,1.160226464271545410e+00,1.160157918930053711e+00,1.160089492797851562e+00,1.160020947456359863e+00,1.159952521324157715e+00,1.159884095191955566e+00,1.159815549850463867e+00,1.159747123718261719e+00,1.159678697586059570e+00,1.159610271453857422e+00,1.159541845321655273e+00,1.159473419189453125e+00,1.159404993057250977e+00,1.159336566925048828e+00,1.159268260002136230e+00,1.159199833869934082e+00,1.159131407737731934e+00,1.159063100814819336e+00,1.158994674682617188e+00,1.158926367759704590e+00,1.158858060836791992e+00,1.158789753913879395e+00,1.158721327781677246e+00,1.158653020858764648e+00,1.158584713935852051e+00,1.158516407012939453e+00,1.158448100090026855e+00,1.158379793167114258e+00,1.158311605453491211e+00,1.158243298530578613e+00,1.158174991607666016e+00,1.158106803894042969e+00,1.158038616180419922e+00,1.157970309257507324e+00,1.157902121543884277e+00,1.157833814620971680e+00,1.157765626907348633e+00,1.157697439193725586e+00,1.157629251480102539e+00,1.157561063766479492e+00,1.157492876052856445e+00,1.157424688339233398e+00,1.157356500625610352e+00,1.157288312911987305e+00,1.157220244407653809e+00,1.157152056694030762e+00,1.157083988189697266e+00,1.157015800476074219e+00,1.156947731971740723e+00,1.156879663467407227e+00
1.087044358253479004e+00,1.086984276771545410e+00,1.086924195289611816e+00,1.086863994598388672e+00,1.086803913116455078e+00,1.086743831634521484e+00,1.086683750152587891e+00,1.086623668670654297e+00,1.086563587188720703e+00,1.086503505706787109e+00,1.086443424224853516e+00,1.086383342742919922e+00,1.086323261260986328e+00,1.086263298988342285e+00,1.086203217506408691e+00,1.086143136024475098e+00,1.086083173751831055e+00,1.086023211479187012e+00,1.085963129997253418e+00,1.085903167724609375e+00,1.085843205451965332e+00,1.085783123970031738e+00,1.085723161697387695e+00,1.085663199424743652e+00,1.085603237152099609e+00,1.085543274879455566e+00,1.085483312606811523e+00,1.085423350334167480e+00,1.085363388061523438e+00,1.085303425788879395e+00,1.085243463516235352e+00,1.085183501243591309e+00,1.085123658180236816e+00,1.085063695907592773e+00,1.085003852844238281e+00,1.084943890571594238e+00,1.084884047508239746e+00,1.084824085235595703e+00,1.084764242172241211e+00,1.084704279899597168e+00,1.084644556045532227e+00,1.084584593772888184e+00,1.084524750709533691e+00,1.084464907646179199e+00,1.084405064582824707e+00,1.084345221519470215e+00,1.084285378456115723e+00,1.084225535392761230e+00,1.084165811538696289e+00,1.084105968475341797e+00,1.084046125411987305e+00,1.083986282348632812e+00,1.083926558494567871e+00,1.083866834640502930e+00,1.083806991577148438e+00,1.083747267723083496e+00,1.083687543869018555e+00,1.083627700805664062e+00,1.083567976951599121e+00,1.083508253097534180e+00,1.083448529243469238e+00,1.083388805389404297e+00,1.083328962326049805e+00,1.083269238471984863e+00,1.083209633827209473e+00,1.083149909973144531e+00,1.083090186119079590e+00,1.083030462265014648e+00,1.082970857620239258e+00,1.082911133766174316e+00,1.082851409912109375e+00,1.082791805267333984e+00,1.082732200622558594e+00,1.082672476768493652e+00,1.082612872123718262e+00,1.082553148269653320e+00,1.082493543624877930e+00,1.082433938980102539e+00,1.082374334335327148e+00,1.082314729690551758e+00
1.020952939987182617e+00,1.020899891853332520e+00,1.020846843719482422e+00,1.020793795585632324e+00,1.020740747451782227e+00,1.020687699317932129e+00,1.020634770393371582e+00,1.020581722259521484e+00,1.020528793334960938e+00,1.020475745201110840e+00,1.020422816276550293e+00,1.020369768142700195e+00,1.020316839218139648e+00,1.020263791084289551e+00,1.020210862159729004e+00,1.020157933235168457e+00,1.020104885101318359e+00,1.020051956176757812e+00,1.019999027252197266e+00,1.019946098327636719e+00,1.019893169403076172e+00,1.019840240478515625e+00,1.019787311553955078e+00,1.019734382629394531e+00,1.019681453704833984e+00,1.019628524780273438e+00,1.019575715065002441e+00,1.019522786140441895e+00,1.019469857215881348e+00,1.019417047500610352e+00,1.019364118576049805e+00,1.019311308860778809e+00,1.019258379936218262e+00,1.019205451011657715e+00,1.019152641296386719e+00,1.019099831581115723e+00,1.019047021865844727e+00,1.018994092941284180e+00,1.018941283226013184e+00,1.018888473510742188e+00,1.018835663795471191e+00,1.018782854080200195e+00,1.018730044364929199e+00,1.018677234649658203e+00,1.018624424934387207e+00,1.018571615219116211e+00,1.018518805503845215e+00,1.018465995788574219e+00,1.018413186073303223e+00,1.018360495567321777e+00,1.018307685852050781e+00,1.018254876136779785e+00,1.018202185630798340e+00,1.018149375915527344e+00,1.018096685409545898e+00,1.018043875694274902e+00,1.017991185188293457e+00,1.017938375473022461e+00,1.017885804176330566e+00,1.017832994461059570e+00,1.017780303955078125e+00,1.017727613449096680e+00,1.017674922943115234e+00,1.017622232437133789e+00,1.017569422721862793e+00,1.017516732215881348e+00,1.017464160919189453e+00,1.017411470413208008e+00,1.017358779907226562e+00,1.017306089401245117e+00,1.017253398895263672e+00,1.017200827598571777e+00,1.017148137092590332e+00,1.017095446586608887e+00,1.017042875289916992e+00,1.016990184783935547e+00,1.016937613487243652e+00,1.016884922981262207e+00,1.016832351684570312e+00,1.016779780387878418e+00
9.624375104904174805e-01,9.623903632164001465e-01,9.623432159423828125e-01,9.622960686683654785e-01,9.622489213943481445e-01,9.622017741203308105e-01,9.621546864509582520e-01,9.621075391769409180e-01,9.620605707168579102e-01,9.620134234428405762e-01,9.619663357734680176e-01,9.619192481040954590e-01,9.618721604347229004e-01,9.618250727653503418e-01,9.617779850959777832e-01,9.617308974266052246e-01,9.616839289665222168e-01,9.616368412971496582e-01,9.615897536277770996e-01,9.615427255630493164e-01,9.614956378936767578e-01,9.614486098289489746e-01,9.614015221595764160e-01,9.613544940948486328e-01,9.613075852394104004e-01,9.612604975700378418e-01,9.612134695053100586e-01,9.611664414405822754e-01,9.611194133758544922e-01,9.610724449157714844e-01,9.610254168510437012e-01,9.609783887863159180e-01,9.609314799308776855e-01,9.608845114707946777e-01,9.608374834060668945e-01,9.607905149459838867e-01,9.607435464859008789e-01,9.606965780258178711e-01,9.606495499610900879e-01,9.606025815010070801e-01,9.605557322502136230e-01,9.605087637901306152e-01,9.604617953300476074e-01,9.604148864746093750e-01,9.603679180145263672e-01,9.603209495544433594e-01,9.602740406990051270e-01,9.602270722389221191e-01,9.601802825927734375e-01,9.601333737373352051e-01,9.600864052772521973e-01,9.600394964218139648e-01,9.599925875663757324e-01,9.599456787109375000e-01,9.598987698554992676e-01,9.598518610000610352e-01,9.598050713539123535e-01,9.597582221031188965e-01,9.597113132476806641e-01,9.596644043922424316e-01,9.596175551414489746e-01,9.595707058906555176e-01,9.595237970352172852e-01,9.594769477844238281e-01,9.594302177429199219e-01,9.593833684921264648e-01,9.593365192413330078e-01,9.592896699905395508e-01,9.592428207397460938e-01,9.591959714889526367e-01,9.591491222381591797e-01,9.591023325920104980e-01,9.590556025505065918e-01,9.590088129043579102e-01,9.589619636535644531e-01,9.589151740074157715e-01,9.588683843612670898e-01,9.588215351104736328e-01,9.587747454643249512e-01,9.587280750274658203e-01
9.102658629417419434e-01,9.102237224578857422e-01,9.101816415786743164e-01,9.101394414901733398e-01,9.100973010063171387e-01,9.100551605224609375e-01,9.100129604339599609e-01,9.099708199501037598e-01,9.099286794662475586e-01,9.098865389823913574e-01,9.098445177078247070e-01,9.098023772239685059e-01,9.097602367401123047e-01,9.097180962562561035e-01,9.096759557723999023e-01,9.096338748931884766e-01,9.095917344093322754e-01,9.095496535301208496e-01,9.095076322555541992e-01,9.094654917716979980e-01,9.094234108924865723e-01,9.093813300132751465e-01,9.093392491340637207e-01,9.092971682548522949e-01,9.092550277709960938e-01,9.092129468917846680e-01,9.091709852218627930e-01,9.091289043426513672e-01,9.090868234634399414e-01,9.090448021888732910e-01,9.090027213096618652e-01,9.089606404304504395e-01,9.089186191558837891e-01,9.088765382766723633e-01,9.088346362113952637e-01,9.087925553321838379e-01,9.087505340576171875e-01,9.087085127830505371e-01,9.086664915084838867e-01,9.086244106292724609e-01,9.085824489593505859e-01,9.085404276847839355e-01,9.084984660148620605e-01,9.084564447402954102e-01,9.084144830703735352e-01,9.083724617958068848e-01,9.083304405212402344e-01,9.082884788513183594e-01,9.082464575767517090e-01,9.082045555114746094e-01,9.081625938415527344e-01,9.081206321716308594e-01,9.080786705017089844e-01,9.080366492271423340e-01,9.079946875572204590e-01,9.079527258872985840e-01,9.079107642173767090e-01,9.078689217567443848e-01,9.078269600868225098e-01,9.077849984169006348e-01,9.077430963516235352e-01,9.077011346817016602e-01,9.076591730117797852e-01,9.076172709465026855e-01,9.075753092765808105e-01,9.075335264205932617e-01,9.074915647506713867e-01,9.074496626853942871e-01,9.074077606201171875e-01,9.073658585548400879e-01,9.073239564895629883e-01,9.072820544242858887e-01,9.072401523590087891e-01,9.071983098983764648e-01,9.071564674377441406e-01,9.071145653724670410e-01,9.070726633071899414e-01,9.070308208465576172e-01,9.069889187812805176e-01,9.069470763206481934e-01
8.634597063064575195e-01,8.634217977523803711e-01,8.633838295936584473e-01,8.633459210395812988e-01,8.633080720901489258e-01,8.632701039314270020e-01,8.632321953773498535e-01,8.631942272186279297e-01,8.631563186645507812e-01,8.631184101104736328e-01,8.630805015563964844e-01,8.630425333976745605e-01,8.630047440528869629e-01,8.629668354988098145e-01,8.629289269447326660e-01,8.628910183906555176e-01,8.628531098365783691e-01,8.628152012825012207e-01,8.627773523330688477e-01,8.627395033836364746e-01,8.627016544342041016e-01,8.626637458801269531e-01,8.626258969306945801e-01,8.625879883766174316e-01,8.625501394271850586e-01,8.625122904777526855e-01,8.624743819236755371e-01,8.624366521835327148e-01,8.623987436294555664e-01,8.623608946800231934e-01,8.623230457305908203e-01,8.622851967811584473e-01,8.622473478317260742e-01,8.622094988822937012e-01,8.621716499328613281e-01,8.621339201927185059e-01,8.620960712432861328e-01,8.620582818984985352e-01,8.620204329490661621e-01,8.619826436042785645e-01,8.619447946548461914e-01,8.619070053100585938e-01,8.618691563606262207e-01,8.618314266204833984e-01,8.617936372756958008e-01,8.617558479309082031e-01,8.617180585861206055e-01,8.616802692413330078e-01,8.616424202919006348e-01,8.616046309471130371e-01,8.615669012069702148e-01,8.615291714668273926e-01,8.614913821220397949e-01,8.614536523818969727e-01,8.614158630371093750e-01,8.613780736923217773e-01,8.613402843475341797e-01,8.613025546073913574e-01,8.612647652626037598e-01,8.612270951271057129e-01,8.611893653869628906e-01,8.611516356468200684e-01,8.611138463020324707e-01,8.610761165618896484e-01,8.610383868217468262e-01,8.610006570816040039e-01,8.609629273414611816e-01,8.609252572059631348e-01,8.608875274658203125e-01,8.608497977256774902e-01,8.608121275901794434e-01,8.607743978500366211e-01,8.607366681098937988e-01,8.606989383697509766e-01,8.606612682342529297e-01,8.606236577033996582e-01,8.605859279632568359e-01,8.605482578277587891e-01,8.605105280876159668e-01,8.604728579521179199e-01
8.212317228317260742e-01,8.211973905563354492e-01,8.211631178855895996e-01,8.211287856101989746e-01,8.210944533348083496e-01,8.210602402687072754e-01,8.210259079933166504e-01,8.209915757179260254e-01,8.209573030471801758e-01,8.209229707717895508e-01,8.208886981010437012e-01,8.208543658256530762e-01,8.208200931549072266e-01,8.207858800888061523e-01,8.207516074180603027e-01,8.207172751426696777e-01,8.206830024719238281e-01,8.206487298011779785e-01,8.206144571304321289e-01,8.205801844596862793e-01,8.205459117889404297e-01,8.205116987228393555e-01,8.204774260520935059e-01,8.204431533813476562e-01,8.204089403152465820e-01,8.203746676445007324e-01,8.203403949737548828e-01,8.203061223030090332e-01,8.202719092369079590e-01,8.202377557754516602e-01,8.202034831047058105e-01,8.201692700386047363e-01,8.201349973678588867e-01,8.201007843017578125e-01,8.200665116310119629e-01,8.200322985649108887e-01,8.199980854988098145e-01,8.199639320373535156e-01,8.199297189712524414e-01,8.198955059051513672e-01,8.198612928390502930e-01,8.198270797729492188e-01,8.197928667068481445e-01,8.197586536407470703e-01,8.197244405746459961e-01,8.196902871131896973e-01,8.196561336517333984e-01,8.196219205856323242e-01,8.195877075195312500e-01,8.195535540580749512e-01,8.195193409919738770e-01,8.194851279258728027e-01,8.194509744644165039e-01,8.194168806076049805e-01,8.193826675415039062e-01,8.193485140800476074e-01,8.193143606185913086e-01,8.192802071571350098e-01,8.192459940910339355e-01,8.192118406295776367e-01,8.191776871681213379e-01,8.191435933113098145e-01,8.191094398498535156e-01,8.190752863883972168e-01,8.190411925315856934e-01,8.190070390701293945e-01,8.189728856086730957e-01,8.189387321472167969e-01,8.189045786857604980e-01,8.188705444335937500e-01,8.188363909721374512e-01,8.188022971153259277e-01,8.187681436538696289e-01,8.187340497970581055e-01,8.186998963356018066e-01,8.186658024787902832e-01,8.186317086219787598e-01,8.185976743698120117e-01,8.185635209083557129e-01,8.185294270515441895e-01
7.829415798187255859e-01,7.829103469848632812e-01,7.828791737556457520e-01,7.828479409217834473e-01,7.828167676925659180e-01,7.827855944633483887e-01,7.827543616294860840e-01,7.827232480049133301e-01,7.826920747756958008e-01,7.826609015464782715e-01,7.826297283172607422e-01,7.825985550880432129e-01,7.825673818588256836e-01,7.825362086296081543e-01,7.825050354003906250e-01,7.824739217758178711e-01,7.824427485466003418e-01,7.824116349220275879e-01,7.823804616928100586e-01,7.823492884635925293e-01,7.823181152343750000e-01,7.822870016098022461e-01,7.822558283805847168e-01,7.822247743606567383e-01,7.821936011314392090e-01,7.821624875068664551e-01,7.821313142776489258e-01,7.821002006530761719e-01,7.820690870285034180e-01,7.820379137992858887e-01,7.820068001747131348e-01,7.819757461547851562e-01,7.819446325302124023e-01,7.819135189056396484e-01,7.818823456764221191e-01,7.818512320518493652e-01,7.818201184272766113e-01,7.817890048027038574e-01,7.817578911781311035e-01,7.817268967628479004e-01,7.816957831382751465e-01,7.816646695137023926e-01,7.816335558891296387e-01,7.816025018692016602e-01,7.815713882446289062e-01,7.815402746200561523e-01,7.815092206001281738e-01,7.814781665802001953e-01,7.814471125602722168e-01,7.814159989356994629e-01,7.813849449157714844e-01,7.813538312911987305e-01,7.813227772712707520e-01,7.812917232513427734e-01,7.812606096267700195e-01,7.812296152114868164e-01,7.811985611915588379e-01,7.811675071716308594e-01,7.811364531517028809e-01,7.811053991317749023e-01,7.810743451118469238e-01,7.810432910919189453e-01,7.810122370719909668e-01,7.809812426567077637e-01,7.809501886367797852e-01,7.809191346168518066e-01,7.808881402015686035e-01,7.808570861816406250e-01,7.808260321617126465e-01,7.807950377464294434e-01,7.807639837265014648e-01,7.807330489158630371e-01,7.807019948959350586e-01,7.806710004806518555e-01,7.806399464607238770e-01,7.806089520454406738e-01,7.805778980255126953e-01,7.805469036102294922e-01,7.805159091949462891e-01,7.804849743843078613e-01
