5.000000000000000000e+00,5.000000000000000000e+00,5.000000000000000000e+00,5.000000000000000000e+00,5.000000000000000000e+00,5.000000000000000000e+00,5.000000000000000000e+00,5.000000000000000000e+00,5.000000000000000000e+00,5.000000000000000000e+00,5.000000000000000000e+00,5.000000000000000000e+00,5.000000000000000000e+00,5.000000000000000000e+00,5.000000000000000000e+00,5.000000000000000000e+00,5.000000000000000000e+00,5.000000000000000000e+00,5.000000000000000000e+00,5.000000000000000000e+00,5.000000000000000000e+00,5.000000000000000000e+00,5.000000000000000000e+00,5.000000000000000000e+00,5.000000000000000000e+00,5.000000000000000000e+00,5.000000000000000000e+00,5.000000000000000000e+00,5.000000000000000000e+00,5.000000000000000000e+00,5.000000000000000000e+00,5.000000000000000000e+00,5.000000000000000000e+00,1.896134138107299805e+00,1.879490613937377930e+00,1.823831915855407715e+00,1.789006948471069336e+00,1.768031358718872070e+00,1.761919140815734863e+00,1.763910531997680664e+00,1.775597810745239258e+00,1.779280185699462891e+00,1.793213248252868652e+00,1.827252864837646484e+00,4.038189411163330078e+00,1.923442959785461426e+00,1.910395741462707520e+00,1.916367173194885254e+00,3.555273294448852539e+00,3.452067136764526367e+00,3.354684352874755859e+00,3.262644767761230469e+00,3.175521135330200195e+00,3.092928886413574219e+00,3.014524459838867188e+00,2.939996957778930664e+00,2.869065284729003906e+00,2.801475763320922852e+00,2.736997365951538086e+00,2.675420522689819336e+00,2.616553068161010742e+00,2.560220479965209961e+00,2.506262540817260742e+00,2.454531908035278320e+00,2.404893636703491211e+00,2.357223272323608398e+00,2.311405897140502930e+00,2.267335653305053711e+00,2.224914550781250000e+00,2.184051752090454102e+00,2.144662857055664062e+00,2.106669664382934570e+00,2.069998741149902344e+00,2.034583091735839844e+00,2.000358581542968750e+00,1.967266678810119629e+00,1.935251474380493164e+00,1.904261946678161621e+00,1.874249100685119629e+00,1.845167756080627441e+00
5.000000000000000000e+00,5.000000000000000000e+00,5.000000000000000000e+00,5.000000000000000000e+00,5.000000000000000000e+00,5.000000000000000000e+00,5.000000000000000000e+00,5.000000000000000000e+00,5.000000000000000000e+00,5.000000000000000000e+00,5.000000000000000000e+00,5.000000000000000000e+00,5.000000000000000000e+00,5.000000000000000000e+00,5.000000000000000000e+00,5.000000000000000000e+00,5.000000000000000000e+00,5.000000000000000000e+00,5.000000000000000000e+00,5.000000000000000000e+00,5.000000000000000000e+00,5.000000000000000000e+00,5.000000000000000000e+00,5.000000000000000000e+00,5.000000000000000000e+00,5.000000000000000000e+00,5.000000000000000000e+00,5.000000000000000000e+00,5.000000000000000000e+00,5.000000000000000000e+00,5.000000000000000000e+00,5.000000000000000000e+00,5.000000000000000000e+00,1.905906081199645996e+00,1.891397356986999512e+00,1.825661420822143555e+00,1.788111925125122070e+00,1.768888354301452637e+00,1.774276375770568848e+00,1.761484622955322266e+00,1.767083644866943359e+00,1.775966644287109375e+00,1.813467741012573242e+00,1.817053198814392090e+00,4.038286209106445312e+00,1.931081056594848633e+00,1.904681921005249023e+00,1.899273753166198730e+00,3.555347919464111328e+00,3.452137947082519531e+00,3.354750871658325195e+00,3.262707948684692383e+00,3.175580501556396484e+00,3.092985630035400391e+00,3.014578342437744141e+00,2.940047979354858398e+00,2.869113922119140625e+00,2.801522016525268555e+00,2.737041711807250977e+00,2.675462722778320312e+00,2.616593599319458008e+00,2.560259103775024414e+00,2.506299734115600586e+00,2.454567670822143555e+00,2.404927730560302734e+00,2.357256174087524414e+00,2.311437368392944336e+00,2.267366170883178711e+00,2.224943876266479492e+00,2.184080123901367188e+00,2.144690036773681641e+00,2.106695890426635742e+00,2.070024013519287109e+00,2.034607410430908203e+00,2.000382423400878906e+00,1.967289566993713379e+00,1.935273885726928711e+00,1.904283404350280762e+00,1.874269843101501465e+00,1.845187902450561523e+00
5.000000000000000000e+00,5.000000000000000000e+00,5.000000000000000000e+00,5.000000000000000000e+00,5.000000000000000000e+00,5.000000000000000000e+00,5.000000000000000000e+00,5.000000000000000000e+00,5.000000000000000000e+00,5.000000000000000000e+00,5.000000000000000000e+00,5.000000000000000000e+00,5.000000000000000000e+00,5.000000000000000000e+00,5.000000000000000000e+00,5.000000000000000000e+00,5.000000000000000000e+00,5.000000000000000000e+00,5.000000000000000000e+00,5.000000000000000000e+00,5.000000000000000000e+00,5.000000000000000000e+00,5.000000000000000000e+00,5.000000000000000000e+00,5.000000000000000000e+00,5.000000000000000000e+00,5.000000000000000000e+00,5.000000000000000000e+00,5.000000000000000000e+00,5.000000000000000000e+00,5.000000000000000000e+00,5.000000000000000000e+00,5.000000000000000000e+00,1.915127038955688477e+00,1.901731491088867188e+00,1.827750086784362793e+00,1.796922206878662109e+00,1.783957242965698242e+00,1.773841142654418945e+00,1.775385022163391113e+00,1.774096369743347168e+00,1.787456274032592773e+00,1.802125811576843262e+00,1.837386727333068848e+00,4.038382530212402344e+00,1.920906186103820801e+00,1.890959024429321289e+00,1.878320574760437012e+00,1.897408485412597656e+00,3.452208280563354492e+00,3.354817390441894531e+00,3.262770652770996094e+00,3.175640344619750977e+00,3.093042135238647461e+00,3.014631986618041992e+00,2.940099239349365234e+00,2.869162559509277344e+00,2.801568746566772461e+00,2.737085819244384766e+00,2.675505161285400391e+00,2.616634130477905273e+00,2.560298204421997070e+00,2.506336688995361328e+00,2.454603195190429688e+00,2.404962062835693359e+00,2.357288837432861328e+00,2.311469078063964844e+00,2.267396450042724609e+00,2.224973201751708984e+00,2.184108257293701172e+00,2.144717216491699219e+00,2.106722116470336914e+00,2.070049524307250977e+00,2.034631967544555664e+00,2.000406026840209961e+00,1.967312335968017578e+00,1.935295939445495605e+00,1.904304981231689453e+00,1.874290585517883301e+00,1.845207929611206055e+00
5.000000000000000000e+00,5.000000000000000000e+00,5.000000000000000000e+00,5.000000000000000000e+00,5.000000000000000000e+00,5.000000000000000000e+00,5.000000000000000000e+00,5.000000000000000000e+00,5.000000000000000000e+00,5.000000000000000000e+00,5.000000000000000000e+00,5.000000000000000000e+00,5.000000000000000000e+00,5.000000000000000000e+00,5.000000000000000000e+00,5.000000000000000000e+00,5.000000000000000000e+00,5.000000000000000000e+00,5.000000000000000000e+00,5.000000000000000000e+00,5.000000000000000000e+00,5.000000000000000000e+00,5.000000000000000000e+00,5.000000000000000000e+00,5.000000000000000000e+00,5.000000000000000000e+00,5.000000000000000000e+00,5.000000000000000000e+00,5.000000000000000000e+00,5.000000000000000000e+00,5.000000000000000000e+00,5.000000000000000000e+00,5.000000000000000000e+00,1.904555559158325195e+00,1.888849854469299316e+00,1.842343688011169434e+00,1.805666208267211914e+00,1.789576053619384766e+00,1.782613992691040039e+00,1.780900239944458008e+00,1.779917001724243164e+00,1.788334012031555176e+00,1.805308103561401367e+00,1.830729603767395020e+00,4.038478851318359375e+00,3.905836105346679688e+00,1.884724617004394531e+00,1.859470605850219727e+00,1.859847426414489746e+00,3.452278852462768555e+00,3.354883909225463867e+00,3.262833833694458008e+00,3.175699949264526367e+00,3.093098878860473633e+00,3.014685630798339844e+00,2.940150260925292969e+00,2.869211435317993164e+00,2.801614999771118164e+00,2.737130403518676758e+00,2.675547361373901367e+00,2.616674661636352539e+00,2.560336828231811523e+00,2.506373882293701172e+00,2.454638957977294922e+00,2.404996156692504883e+00,2.357321977615356445e+00,2.311500549316406250e+00,2.267426967620849609e+00,2.225002527236938477e+00,2.184136629104614258e+00,2.144744396209716797e+00,2.106748342514038086e+00,2.070074796676635742e+00,2.034656524658203125e+00,2.000429630279541016e+00,1.967335224151611328e+00,1.935318112373352051e+00,1.904326319694519043e+00,1.874311566352844238e+00,1.845228195190429688e+00
5.000000000000000000e+00,5.000000000000000000e+00,5.000000000000000000e+00,5.000000000000000000e+00,5.000000000000000000e+00,5.000000000000000000e+00,5.000000000000000000e+00,5.000000000000000000e+00,5.000000000000000000e+00,5.000000000000000000e+00,5.000000000000000000e+00,5.000000000000000000e+00,5.000000000000000000e+00,5.000000000000000000e+00,5.000000000000000000e+00,5.000000000000000000e+00,5.000000000000000000e+00,5.000000000000000000e+00,5.000000000000000000e+00,5.000000000000000000e+00,5.000000000000000000e+00,5.000000000000000000e+00,5.000000000000000000e+00,5.000000000000000000e+00,5.000000000000000000e+00,5.000000000000000000e+00,5.000000000000000000e+00,5.000000000000000000e+00,5.000000000000000000e+00,5.000000000000000000e+00,5.000000000000000000e+00,5.000000000000000000e+00,5.000000000000000000e+00,1.887375831604003906e+00,1.876603364944458008e+00,1.828979253768920898e+00,1.771285295486450195e+00,1.760146498680114746e+00,1.781844973564147949e+00,1.796043038368225098e+00,1.786061286926269531e+00,1.805737018585205078e+00,1.813853263854980469e+00,1.828686714172363281e+00,4.038575649261474609e+00,3.905926465988159180e+00,1.896244883537292480e+00,1.850370049476623535e+00,1.835863232612609863e+00,3.452349185943603516e+00,3.354950666427612305e+00,3.262896776199340820e+00,3.175759792327880859e+00,3.093155384063720703e+00,3.014739513397216797e+00,2.940201520919799805e+00,2.869260072708129883e+00,2.801661491394042969e+00,2.737174510955810547e+00,2.675589799880981445e+00,2.616714954376220703e+00,2.560375690460205078e+00,2.506411075592041016e+00,2.454674482345581055e+00,2.405030488967895508e+00,2.357354640960693359e+00,2.311532258987426758e+00,2.267457246780395508e+00,2.225031852722167969e+00,2.184164762496948242e+00,2.144771814346313477e+00,2.106774568557739258e+00,2.070100069046020508e+00,2.034681081771850586e+00,2.000453233718872070e+00,1.967358231544494629e+00,1.935340166091918945e+00,1.904347777366638184e+00,1.874332308769226074e+00,1.845248341560363770e+00
5.000000000000000000e+00,5.000000000000000000e+00,5.000000000000000000e+00,5.000000000000000000e+00,5.000000000000000000e+00,5.000000000000000000e+00,5.000000000000000000e+00,5.000000000000000000e+00,5.000000000000000000e+00,5.000000000000000000e+00,5.000000000000000000e+00,5.000000000000000000e+00,5.000000000000000000e+00,5.000000000000000000e+00,5.000000000000000000e+00,5.000000000000000000e+00,5.000000000000000000e+00,5.000000000000000000e+00,5.000000000000000000e+00,5.000000000000000000e+00,5.000000000000000000e+00,5.000000000000000000e+00,5.000000000000000000e+00,5.000000000000000000e+00,5.000000000000000000e+00,5.000000000000000000e+00,5.000000000000000000e+00,5.000000000000000000e+00,5.000000000000000000e+00,5.000000000000000000e+00,5.000000000000000000e+00,5.000000000000000000e+00,5.000000000000000000e+00,1.880803108215332031e+00,1.867526054382324219e+00,1.747112512588500977e+00,1.729025602340698242e+00,1.711469411849975586e+00,1.715378165245056152e+00,1.764039278030395508e+00,1.810386180877685547e+00,1.824285864830017090e+00,1.820727348327636719e+00,1.825968384742736816e+00,1.858917474746704102e+00,3.906016588211059570e+00,3.781798601150512695e+00,1.849258422851562500e+00,1.819758296012878418e+00,1.835717797279357910e+00,3.355017185211181641e+00,3.262959718704223633e+00,3.175819158554077148e+00,3.093212127685546875e+00,3.014793157577514648e+00,2.940252542495727539e+00,2.869308948516845703e+00,2.801707744598388672e+00,2.737218856811523438e+00,2.675631999969482422e+00,2.616755723953247070e+00,2.560414314270019531e+00,2.506448268890380859e+00,2.454710006713867188e+00,2.405064582824707031e+00,2.357387542724609375e+00,2.311563968658447266e+00,2.267487764358520508e+00,2.225060939788818359e+00,2.184192895889282227e+00,2.144798755645751953e+00,2.106800794601440430e+00,2.070125579833984375e+00,2.034705400466918945e+00,2.000477075576782227e+00,1.967381119728088379e+00,1.935362458229064941e+00,1.904369115829467773e+00,1.874353051185607910e+00,1.845268487930297852e+00
5.000000000000000000e+00,5.000000000000000000e+00,5.000000000000000000e+00,5.000000000000000000e+00,5.000000000000000000e+00,5.000000000000000000e+00,5.000000000000000000e+00,5.000000000000000000e+00,5.000000000000000000e+00,5.000000000000000000e+00,5.000000000000000000e+00,5.000000000000000000e+00,5.000000000000000000e+00,5.000000000000000000e+00,5.000000000000000000e+00,5.000000000000000000e+00,5.000000000000000000e+00,5.000000000000000000e+00,5.000000000000000000e+00,5.000000000000000000e+00,5.000000000000000000e+00,5.000000000000000000e+00,5.000000000000000000e+00,5.000000000000000000e+00,5.000000000000000000e+00,5.000000000000000000e+00,5.000000000000000000e+00,5.000000000000000000e+00,5.000000000000000000e+00,5.000000000000000000e+00,5.000000000000000000e+00,5.000000000000000000e+00,5.000000000000000000e+00,1.875003457069396973e+00,1.853864550590515137e+00,1.727069973945617676e+00,1.710317134857177734e+00,1.693886041641235352e+00,1.693797826766967773e+00,1.720348954200744629e+00,1.845324873924255371e+00,1.824436187744140625e+00,1.817081570625305176e+00,1.821862101554870605e+00,1.851280927658081055e+00,3.906106948852539062e+00,3.781883001327514648e+00,3.665317058563232422e+00,1.814354896545410156e+00,1.812262773513793945e+00,3.355083942413330078e+00,3.263022661209106445e+00,3.175879001617431641e+00,3.093268632888793945e+00,3.014847040176391602e+00,2.940303564071655273e+00,2.869357347488403320e+00,2.801754474639892578e+00,2.737263202667236328e+00,2.675674438476562500e+00,2.616796016693115234e+00,2.560453176498413086e+00,2.506485462188720703e+00,2.454745769500732422e+00,2.405098915100097656e+00,2.357420444488525391e+00,2.311595439910888672e+00,2.267518043518066406e+00,2.225090265274047852e+00,2.184221029281616211e+00,2.144826173782348633e+00,2.106827020645141602e+00,2.070150852203369141e+00,2.034729957580566406e+00,2.000500679016113281e+00,1.967404007911682129e+00,1.935384631156921387e+00,1.904390811920166016e+00,1.874373793601989746e+00,1.845288515090942383e+00
5.000000000000000000e+00,5.000000000000000000e+00,5.000000000000000000e+00,5.000000000000000000e+00,5.000000000000000000e+00,5.000000000000000000e+00,5.000000000000000000e+00,5.000000000000000000e+00,5.000000000000000000e+00,5.000000000000000000e+00,5.000000000000000000e+00,5.000000000000000000e+00,5.000000000000000000e+00,5.000000000000000000e+00,5.000000000000000000e+00,5.000000000000000000e+00,5.000000000000000000e+00,5.000000000000000000e+00,5.000000000000000000e+00,5.000000000000000000e+00,5.000000000000000000e+00,5.000000000000000000e+00,5.000000000000000000e+00,5.000000000000000000e+00,5.000000000000000000e+00,5.000000000000000000e+00,5.000000000000000000e+00,5.000000000000000000e+00,5.000000000000000000e+00,5.000000000000000000e+00,5.000000000000000000e+00,5.000000000000000000e+00,5.000000000000000000e+00,1.860634446144104004e+00,1.842098474502563477e+00,1.712827563285827637e+00,1.694917678833007812e+00,1.678779721260070801e+00,1.677557110786437988e+00,1.702403306961059570e+00,1.843519449234008789e+00,1.817944645881652832e+00,1.809206247329711914e+00,1.815622448921203613e+00,1.843323707580566406e+00,3.906197071075439453e+00,3.781967878341674805e+00,3.665396451950073242e+00,1.771586656570434570e+00,1.776957750320434570e+00,3.355150222778320312e+00,3.263085842132568359e+00,3.175938606262207031e+00,3.093325376510620117e+00,3.014900684356689453e+00,2.940354824066162109e+00,2.869406223297119141e+00,2.801800727844238281e+00,2.737307548522949219e+00,2.675716638565063477e+00,2.616836547851562500e+00,2.560491800308227539e+00,2.506522655487060547e+00,2.454781293869018555e+00,2.405133008956909180e+00,2.357453346252441406e+00,2.311627149581909180e+00,2.267548561096191406e+00,2.225119590759277344e+00,2.184249401092529297e+00,2.144853353500366211e+00,2.106853246688842773e+00,2.070176124572753906e+00,2.034754514694213867e+00,2.000524282455444336e+00,1.967426776885986328e+00,1.935406684875488281e+00,1.904412150382995605e+00,1.874394655227661133e+00,1.845308661460876465e+00
5.000000000000000000e+00,5.000000000000000000e+00,5.000000000000000000e+00,4.736517906188964844e+00,4.781931400299072266e+00,5.000000000000000000e+00,5.000000000000000000e+00,5.000000000000000000e+00,5.000000000000000000e+00,5.000000000000000000e+00,5.000000000000000000e+00,5.000000000000000000e+00,5.000000000000000000e+00,5.000000000000000000e+00,5.000000000000000000e+00,5.000000000000000000e+00,5.000000000000000000e+00,5.000000000000000000e+00,5.000000000000000000e+00,5.000000000000000000e+00,5.000000000000000000e+00,5.000000000000000000e+00,5.000000000000000000e+00,5.000000000000000000e+00,5.000000000000000000e+00,5.000000000000000000e+00,5.000000000000000000e+00,5.000000000000000000e+00,5.000000000000000000e+00,5.000000000000000000e+00,5.000000000000000000e+00,5.000000000000000000e+00,5.000000000000000000e+00,1.853852033615112305e+00,1.854354023933410645e+00,1.724289417266845703e+00,1.681347131729125977e+00,1.663940668106079102e+00,1.661624789237976074e+00,1.684021830558776855e+00,1.836162328720092773e+00,1.813723325729370117e+00,1.806401371955871582e+00,1.815449237823486328e+00,1.845582723617553711e+00,3.906287670135498047e+00,3.782052278518676758e+00,3.665476083755493164e+00,1.758251428604125977e+00,1.783868312835693359e+00,1.781830668449401855e+00,3.263148546218872070e+00,3.175998449325561523e+00,3.093381881713867188e+00,3.014954805374145508e+00,2.940405845642089844e+00,2.869454860687255859e+00,2.801847219467163086e+00,2.737351894378662109e+00,2.675759315490722656e+00,2.616877079010009766e+00,2.560530662536621094e+00,2.506559610366821289e+00,2.454817056655883789e+00,2.405167102813720703e+00,2.357486248016357422e+00,2.311658859252929688e+00,2.267579078674316406e+00,2.225148916244506836e+00,2.184277534484863281e+00,2.144880533218383789e+00,2.106879472732543945e+00,2.070201635360717773e+00,2.034778833389282227e+00,2.000547885894775391e+00,1.967449903488159180e+00,1.935428738594055176e+00,1.904433608055114746e+00,1.874415397644042969e+00,1.845328927040100098e+00
5.000000000000000000e+00,5.000000000000000000e+00,5.000000000000000000e+00,4.748701095581054688e+00,4.784622669219970703e+00,5.000000000000000000e+00,5.000000000000000000e+00,5.000000000000000000e+00,5.000000000000000000e+00,5.000000000000000000e+00,5.000000000000000000e+00,5.000000000000000000e+00,5.000000000000000000e+00,5.000000000000000000e+00,5.000000000000000000e+00,5.000000000000000000e+00,5.000000000000000000e+00,5.000000000000000000e+00,5.000000000000000000e+00,5.000000000000000000e+00,5.000000000000000000e+00,5.000000000000000000e+00,5.000000000000000000e+00,5.000000000000000000e+00,5.000000000000000000e+00,5.000000000000000000e+00,5.000000000000000000e+00,5.000000000000000000e+00,5.000000000000000000e+00,5.000000000000000000e+00,5.000000000000000000e+00,5.000000000000000000e+00,5.000000000000000000e+00,1.850831151008605957e+00,1.834651827812194824e+00,1.734601497650146484e+00,1.668288588523864746e+00,1.650497674942016602e+00,1.644458174705505371e+00,1.665444612503051758e+00,1.839142203330993652e+00,1.815378665924072266e+00,1.807119369506835938e+00,1.818580269813537598e+00,1.849254012107849121e+00,3.906377553939819336e+00,3.782137155532836914e+00,3.665555477142333984e+00,3.555946350097656250e+00,3.452702045440673828e+00,1.726668357849121094e+00,3.263211727142333984e+00,3.176057815551757812e+00,3.093438625335693359e+00,3.015008211135864258e+00,2.940457105636596680e+00,2.869503498077392578e+00,2.801893472671508789e+00,2.737396240234375000e+00,2.675801515579223633e+00,2.616917610168457031e+00,2.560569524765014648e+00,2.506597042083740234e+00,2.454852581024169922e+00,2.405201435089111328e+00,2.357519149780273438e+00,2.311690330505371094e+00,2.267609357833862305e+00,2.225178241729736328e+00,2.184305906295776367e+00,2.144907712936401367e+00,2.106905937194824219e+00,2.070226907730102539e+00,2.034803390502929688e+00,2.000571727752685547e+00,1.967472672462463379e+00,1.935451149940490723e+00,1.904454946517944336e+00,1.874436140060424805e+00,1.845348954200744629e+00
5.000000000000000000e+00,5.000000000000000000e+00,5.000000000000000000e+00,4.824141502380371094e+00,4.850936412811279297e+00,5.000000000000000000e+00,5.000000000000000000e+00,5.000000000000000000e+00,5.000000000000000000e+00,5.000000000000000000e+00,5.000000000000000000e+00,5.000000000000000000e+00,5.000000000000000000e+00,5.000000000000000000e+00,5.000000000000000000e+00,5.000000000000000000e+00,5.000000000000000000e+00,5.000000000000000000e+00,5.000000000000000000e+00,5.000000000000000000e+00,5.000000000000000000e+00,5.000000000000000000e+00,5.000000000000000000e+00,5.000000000000000000e+00,5.000000000000000000e+00,5.000000000000000000e+00,5.000000000000000000e+00,5.000000000000000000e+00,5.000000000000000000e+00,5.000000000000000000e+00,5.000000000000000000e+00,5.000000000000000000e+00,5.000000000000000000e+00,1.832327365875244141e+00,1.816925764083862305e+00,1.793757081031799316e+00,1.651008725166320801e+00,1.632490873336791992e+00,1.627035856246948242e+00,1.647503376007080078e+00,1.744795203208923340e+00,1.819180488586425781e+00,1.811309933662414551e+00,1.824488401412963867e+00,1.855840921401977539e+00,3.906468152999877930e+00,3.782221555709838867e+00,3.665635108947753906e+00,3.556020975112915039e+00,3.452772378921508789e+00,3.355350255966186523e+00,3.263274669647216797e+00,3.176117658615112305e+00,3.093495130538940430e+00,3.015062332153320312e+00,2.940508127212524414e+00,2.869552373886108398e+00,2.801940202713012695e+00,2.737440586090087891e+00,2.675843954086303711e+00,2.616958141326904297e+00,2.560608386993408203e+00,2.506633996963500977e+00,2.454888343811035156e+00,2.405235528945922852e+00,2.357552051544189453e+00,2.311722040176391602e+00,2.267639875411987305e+00,2.225207567214965820e+00,2.184334039688110352e+00,2.144934892654418945e+00,2.106932163238525391e+00,2.070252180099487305e+00,2.034827947616577148e+00,2.000595331192016602e+00,1.967495560646057129e+00,1.935473203659057617e+00,1.904476642608642578e+00,1.874456882476806641e+00,1.845369100570678711e+00
4.721186161041259766e+00,4.720326423645019531e+00,4.738657474517822266e+00,4.764331340789794922e+00,4.785017490386962891e+00,4.863324642181396484e+00,4.905863285064697266e+00,5.000000000000000000e+00,5.000000000000000000e+00,5.000000000000000000e+00,5.000000000000000000e+00,5.000000000000000000e+00,5.000000000000000000e+00,5.000000000000000000e+00,5.000000000000000000e+00,5.000000000000000000e+00,5.000000000000000000e+00,5.000000000000000000e+00,5.000000000000000000e+00,5.000000000000000000e+00,5.000000000000000000e+00,5.000000000000000000e+00,5.000000000000000000e+00,5.000000000000000000e+00,5.000000000000000000e+00,5.000000000000000000e+00,5.000000000000000000e+00,5.000000000000000000e+00,5.000000000000000000e+00,5.000000000000000000e+00,5.000000000000000000e+00,5.000000000000000000e+00,5.000000000000000000e+00,1.823251366615295410e+00,5.000000000000000000e+00,1.803919315338134766e+00,1.640667319297790527e+00,1.614872574806213379e+00,1.609978795051574707e+00,1.628198862075805664e+00,1.699079155921936035e+00,1.822566151618957520e+00,1.815520048141479492e+00,1.830435156822204590e+00,1.864446640014648438e+00,3.906558036804199219e+00,3.782306432723999023e+00,3.665714263916015625e+00,3.556095838546752930e+00,3.452842712402343750e+00,3.355416774749755859e+00,3.263337850570678711e+00,3.176177263259887695e+00,3.093551874160766602e+00,3.015115976333618164e+00,2.940559387207031250e+00,2.869600772857666016e+00,2.801986455917358398e+00,2.737484931945800781e+00,2.675886154174804688e+00,2.616998672485351562e+00,2.560647010803222656e+00,2.506671428680419922e+00,2.454923868179321289e+00,2.405269861221313477e+00,2.357584714889526367e+00,2.311753511428833008e+00,2.267670392990112305e+00,2.225236654281616211e+00,2.184362411499023438e+00,2.144962072372436523e+00,2.106958389282226562e+00,2.070277452468872070e+00,2.034852266311645508e+00,2.000618934631347656e+00,1.967518448829650879e+00,1.935495376586914062e+00,1.904497981071472168e+00,1.874477863311767578e+00,1.845389246940612793e+00
4.728354454040527344e+00,4.727002143859863281e+00,4.706211566925048828e+00,4.726002216339111328e+00,4.762317180633544922e+00,4.818068027496337891e+00,4.921993732452392578e+00,4.967280387878417969e+00,5.000000000000000000e+00,5.000000000000000000e+00,5.000000000000000000e+00,5.000000000000000000e+00,5.000000000000000000e+00,5.000000000000000000e+00,5.000000000000000000e+00,5.000000000000000000e+00,5.000000000000000000e+00,5.000000000000000000e+00,5.000000000000000000e+00,5.000000000000000000e+00,5.000000000000000000e+00,5.000000000000000000e+00,5.000000000000000000e+00,5.000000000000000000e+00,5.000000000000000000e+00,5.000000000000000000e+00,5.000000000000000000e+00,5.000000000000000000e+00,5.000000000000000000e+00,5.000000000000000000e+00,5.000000000000000000e+00,5.000000000000000000e+00,5.000000000000000000e+00,1.816125512123107910e+00,5.000000000000000000e+00,5.000000000000000000e+00,1.655228853225708008e+00,1.601829171180725098e+00,1.592777848243713379e+00,1.607718944549560547e+00,1.656501412391662598e+00,1.825165033340454102e+00,1.819749832153320312e+00,1.837393045425415039e+00,4.039347648620605469e+00,3.906648635864257812e+00,3.782390832901000977e+00,3.665794134140014648e+00,3.556170463562011719e+00,3.452913522720336914e+00,3.355483531951904297e+00,3.263400554656982422e+00,3.176237106323242188e+00,3.093608140945434570e+00,3.015169858932495117e+00,2.940610408782958984e+00,2.869649648666381836e+00,2.802032709121704102e+00,2.737529039382934570e+00,2.675928592681884766e+00,2.617039203643798828e+00,2.560685873031616211e+00,2.506708383560180664e+00,2.454959630966186523e+00,2.405303955078125000e+00,2.357617616653442383e+00,2.311785221099853516e+00,2.267700672149658203e+00,2.225266218185424805e+00,2.184390544891357422e+00,2.144989490509033203e+00,2.106984615325927734e+00,2.070302963256835938e+00,2.034876823425292969e+00,2.000642776489257812e+00,1.967541456222534180e+00,1.935517430305480957e+00,1.904519438743591309e+00,1.874498605728149414e+00,1.845409512519836426e+00
5.000000000000000000e+00,4.749568939208984375e+00,4.718837261199951172e+00,4.721291065216064453e+00,4.758994579315185547e+00,4.832244873046875000e+00,4.921431541442871094e+00,4.957549095153808594e+00,5.000000000000000000e+00,5.000000000000000000e+00,5.000000000000000000e+00,5.000000000000000000e+00,5.000000000000000000e+00,5.000000000000000000e+00,5.000000000000000000e+00,5.000000000000000000e+00,5.000000000000000000e+00,5.000000000000000000e+00,5.000000000000000000e+00,5.000000000000000000e+00,5.000000000000000000e+00,5.000000000000000000e+00,5.000000000000000000e+00,5.000000000000000000e+00,5.000000000000000000e+00,5.000000000000000000e+00,5.000000000000000000e+00,5.000000000000000000e+00,5.000000000000000000e+00,5.000000000000000000e+00,5.000000000000000000e+00,5.000000000000000000e+00,5.000000000000000000e+00,1.805806636810302734e+00,5.000000000000000000e+00,5.000000000000000000e+00,1.671894073486328125e+00,1.591852188110351562e+00,1.578613519668579102e+00,1.591544866561889648e+00,1.637362003326416016e+00,1.827911376953125000e+00,1.822920083999633789e+00,1.844741940498352051e+00,4.039443969726562500e+00,3.906738758087158203e+00,3.782475709915161133e+00,3.665873289108276367e+00,3.556245565414428711e+00,3.452983856201171875e+00,3.355549812316894531e+00,3.263463735580444336e+00,3.176296710968017578e+00,3.093664884567260742e+00,3.015223503112792969e+00,2.940661668777465820e+00,2.869698286056518555e+00,2.802079439163208008e+00,2.737573623657226562e+00,2.675970792770385742e+00,2.617079734802246094e+00,2.560724735260009766e+00,2.506745576858520508e+00,2.454995155334472656e+00,2.405338287353515625e+00,2.357650518417358398e+00,2.311816692352294922e+00,2.267731189727783203e+00,2.225295305252075195e+00,2.184418678283691406e+00,2.145016670227050781e+00,2.107010841369628906e+00,2.070328235626220703e+00,2.034901380538940430e+00,2.000666379928588867e+00,1.967564344406127930e+00,1.935539722442626953e+00,1.904540777206420898e+00,1.874519348144531250e+00,1.845429539680480957e+00
5.000000000000000000e+00,4.756922721862792969e+00,4.720897674560546875e+00,4.724667549133300781e+00,4.761854171752929688e+00,4.828476905822753906e+00,5.000000000000000000e+00,4.949714660644531250e+00,5.000000000000000000e+00,5.000000000000000000e+00,5.000000000000000000e+00,5.000000000000000000e+00,5.000000000000000000e+00,5.000000000000000000e+00,5.000000000000000000e+00,5.000000000000000000e+00,5.000000000000000000e+00,5.000000000000000000e+00,5.000000000000000000e+00,5.000000000000000000e+00,5.000000000000000000e+00,5.000000000000000000e+00,5.000000000000000000e+00,5.000000000000000000e+00,5.000000000000000000e+00,5.000000000000000000e+00,5.000000000000000000e+00,5.000000000000000000e+00,5.000000000000000000e+00,5.000000000000000000e+00,5.000000000000000000e+00,5.000000000000000000e+00,5.000000000000000000e+00,1.803443670272827148e+00,5.000000000000000000e+00,5.000000000000000000e+00,1.706807613372802734e+00,1.588073849678039551e+00,1.571891665458679199e+00,1.582194566726684570e+00,1.616803407669067383e+00,1.831595540046691895e+00,1.826584458351135254e+00,1.847658276557922363e+00,4.039540767669677734e+00,3.906829118728637695e+00,3.782560110092163086e+00,3.665953159332275391e+00,3.556320190429687500e+00,3.453054428100585938e+00,3.355616569519042969e+00,3.263526678085327148e+00,3.176356554031372070e+00,3.093721389770507812e+00,3.015277385711669922e+00,2.940712690353393555e+00,2.869747161865234375e+00,2.802125692367553711e+00,2.737617731094360352e+00,2.676013469696044922e+00,2.617120265960693359e+00,2.560763597488403320e+00,2.506782770156860352e+00,2.455030918121337891e+00,2.405372619628906250e+00,2.357683420181274414e+00,2.311848402023315430e+00,2.267761468887329102e+00,2.225324630737304688e+00,2.184446811676025391e+00,2.145043849945068359e+00,2.107037067413330078e+00,2.070353746414184570e+00,2.034925699234008789e+00,2.000689983367919922e+00,1.967587113380432129e+00,1.935561895370483398e+00,1.904562473297119141e+00,1.874540090560913086e+00,1.845449686050415039e+00
5.000000000000000000e+00,4.781177520751953125e+00,4.702059745788574219e+00,4.715422153472900391e+00,4.755325794219970703e+00,4.817918777465820312e+00,5.000000000000000000e+00,4.934430599212646484e+00,5.000000000000000000e+00,5.000000000000000000e+00,5.000000000000000000e+00,5.000000000000000000e+00,5.000000000000000000e+00,5.000000000000000000e+00,5.000000000000000000e+00,5.000000000000000000e+00,5.000000000000000000e+00,5.000000000000000000e+00,5.000000000000000000e+00,5.000000000000000000e+00,5.000000000000000000e+00,5.000000000000000000e+00,5.000000000000000000e+00,5.000000000000000000e+00,5.000000000000000000e+00,5.000000000000000000e+00,5.000000000000000000e+00,5.000000000000000000e+00,5.000000000000000000e+00,5.000000000000000000e+00,5.000000000000000000e+00,5.000000000000000000e+00,5.000000000000000000e+00,5.000000000000000000e+00,5.000000000000000000e+00,5.000000000000000000e+00,5.000000000000000000e+00,1.591426730155944824e+00,1.574014186859130859e+00,1.584974884986877441e+00,1.617061853408813477e+00,1.833372950553894043e+00,1.830263495445251465e+00,1.850584149360656738e+00,4.039637088775634766e+00,3.906919240951538086e+00,3.782644987106323242e+00,3.666032314300537109e+00,3.556395292282104492e+00,3.453124761581420898e+00,3.355683088302612305e+00,3.263589859008789062e+00,3.176415920257568359e+00,3.093778133392333984e+00,3.015331029891967773e+00,2.940763950347900391e+00,2.869795799255371094e+00,2.802172183990478516e+00,2.737662076950073242e+00,2.676055669784545898e+00,2.617160797119140625e+00,2.560802221298217773e+00,2.506819963455200195e+00,2.455066442489624023e+00,2.405406951904296875e+00,2.357716321945190430e+00,2.311880111694335938e+00,2.267791986465454102e+00,2.225353956222534180e+00,2.184475183486938477e+00,2.145071029663085938e+00,2.107063293457031250e+00,2.070379018783569336e+00,2.034950256347656250e+00,2.000713586807250977e+00,1.967610001564025879e+00,1.935583949089050293e+00,1.904583811759948730e+00,1.874560952186584473e+00,1.845469832420349121e+00
5.000000000000000000e+00,4.766928195953369141e+00,4.720445632934570312e+00,4.733216762542724609e+00,4.763330459594726562e+00,4.825502872467041016e+00,5.000000000000000000e+00,4.881606101989746094e+00,5.000000000000000000e+00,5.000000000000000000e+00,5.000000000000000000e+00,5.000000000000000000e+00,5.000000000000000000e+00,5.000000000000000000e+00,5.000000000000000000e+00,5.000000000000000000e+00,5.000000000000000000e+00,5.000000000000000000e+00,5.000000000000000000e+00,5.000000000000000000e+00,5.000000000000000000e+00,5.000000000000000000e+00,5.000000000000000000e+00,5.000000000000000000e+00,5.000000000000000000e+00,5.000000000000000000e+00,5.000000000000000000e+00,5.000000000000000000e+00,5.000000000000000000e+00,5.000000000000000000e+00,5.000000000000000000e+00,5.000000000000000000e+00,5.000000000000000000e+00,5.000000000000000000e+00,5.000000000000000000e+00,5.000000000000000000e+00,5.000000000000000000e+00,1.602516889572143555e+00,1.581863880157470703e+00,1.592934608459472656e+00,1.633841633796691895e+00,1.834587097167968750e+00,1.833957314491271973e+00,1.865090012550354004e+00,4.039733886718750000e+00,3.907009840011596680e+00,3.782729387283325195e+00,3.666112184524536133e+00,3.556469917297363281e+00,3.453195571899414062e+00,3.355749607086181641e+00,3.263652563095092773e+00,3.176475763320922852e+00,3.093834638595581055e+00,3.015384912490844727e+00,2.940814971923828125e+00,2.869844675064086914e+00,2.802218675613403320e+00,2.737706422805786133e+00,2.676098108291625977e+00,2.617201089859008789e+00,2.560841083526611328e+00,2.506857156753540039e+00,2.455102205276489258e+00,2.405441045761108398e+00,2.357749223709106445e+00,2.311911582946777344e+00,2.267822265625000000e+00,2.225383281707763672e+00,2.184503316879272461e+00,2.145098209381103516e+00,2.107089519500732422e+00,2.070404291152954102e+00,2.034974813461303711e+00,2.000737428665161133e+00,1.967633128166198730e+00,1.935606122016906738e+00,1.904605269432067871e+00,1.874581694602966309e+00,1.845490097999572754e+00
5.000000000000000000e+00,4.749033451080322266e+00,4.657974720001220703e+00,4.694603443145751953e+00,4.807393074035644531e+00,4.827980518341064453e+00,5.000000000000000000e+00,5.000000000000000000e+00,5.000000000000000000e+00,5.000000000000000000e+00,5.000000000000000000e+00,5.000000000000000000e+00,5.000000000000000000e+00,5.000000000000000000e+00,5.000000000000000000e+00,5.000000000000000000e+00,5.000000000000000000e+00,5.000000000000000000e+00,5.000000000000000000e+00,5.000000000000000000e+00,5.000000000000000000e+00,5.000000000000000000e+00,5.000000000000000000e+00,5.000000000000000000e+00,5.000000000000000000e+00,5.000000000000000000e+00,5.000000000000000000e+00,5.000000000000000000e+00,5.000000000000000000e+00,5.000000000000000000e+00,5.000000000000000000e+00,5.000000000000000000e+00,5.000000000000000000e+00,5.000000000000000000e+00,5.000000000000000000e+00,5.000000000000000000e+00,5.000000000000000000e+00,1.609285712242126465e+00,1.589792370796203613e+00,1.602279305458068848e+00,1.653156518936157227e+00,1.837218403816223145e+00,1.836460947990417480e+00,4.181895732879638672e+00,4.039830207824707031e+00,3.907099962234497070e+00,3.782814264297485352e+00,3.666191339492797852e+00,3.556544780731201172e+00,3.453265905380249023e+00,3.355816364288330078e+00,3.263715744018554688e+00,3.176535367965698242e+00,3.093891382217407227e+00,3.015438556671142578e+00,2.940866470336914062e+00,2.869893074035644531e+00,2.802265167236328125e+00,2.737750768661499023e+00,2.676140308380126953e+00,2.617241859436035156e+00,2.560879707336425781e+00,2.506894350051879883e+00,2.455137729644775391e+00,2.405475378036499023e+00,2.357782125473022461e+00,2.311943292617797852e+00,2.267852783203125000e+00,2.225412607192993164e+00,2.184531688690185547e+00,2.145125389099121094e+00,2.107115983963012695e+00,2.070429563522338867e+00,2.034999370574951172e+00,2.000761032104492188e+00,1.967655897140502930e+00,1.935628414154052734e+00,1.904626607894897461e+00,1.874602437019348145e+00,1.845510244369506836e+00
5.000000000000000000e+00,4.746569156646728516e+00,4.627301692962646484e+00,4.664026737213134766e+00,4.807685852050781250e+00,4.833403110504150391e+00,5.000000000000000000e+00,5.000000000000000000e+00,4.824353218078613281e+00,5.000000000000000000e+00,5.000000000000000000e+00,5.000000000000000000e+00,5.000000000000000000e+00,5.000000000000000000e+00,5.000000000000000000e+00,5.000000000000000000e+00,5.000000000000000000e+00,5.000000000000000000e+00,5.000000000000000000e+00,5.000000000000000000e+00,5.000000000000000000e+00,5.000000000000000000e+00,5.000000000000000000e+00,5.000000000000000000e+00,5.000000000000000000e+00,5.000000000000000000e+00,5.000000000000000000e+00,5.000000000000000000e+00,5.000000000000000000e+00,5.000000000000000000e+00,5.000000000000000000e+00,5.000000000000000000e+00,5.000000000000000000e+00,5.000000000000000000e+00,5.000000000000000000e+00,5.000000000000000000e+00,5.000000000000000000e+00,1.616112232208251953e+00,1.597800731658935547e+00,1.615445017814636230e+00,1.672933340072631836e+00,1.844223260879516602e+00,1.843540668487548828e+00,4.181999206542968750e+00,4.039926528930664062e+00,3.907190561294555664e+00,3.782898664474487305e+00,3.666271209716796875e+00,3.556619405746459961e+00,3.453336715698242188e+00,3.355882883071899414e+00,3.263778686523437500e+00,3.176595211029052734e+00,3.093947887420654297e+00,3.015492439270019531e+00,2.940917491912841797e+00,2.869941949844360352e+00,2.802311420440673828e+00,2.737795114517211914e+00,2.676182508468627930e+00,2.617282152175903320e+00,2.560918569564819336e+00,2.506931543350219727e+00,2.455173492431640625e+00,2.405509471893310547e+00,2.357815027236938477e+00,2.311974763870239258e+00,2.267883300781250000e+00,2.225441932678222656e+00,2.184559822082519531e+00,2.145152807235717773e+00,2.107142210006713867e+00,2.070455074310302734e+00,2.035023689270019531e+00,2.000784635543823242e+00,1.967678785324096680e+00,1.935650467872619629e+00,1.904648303985595703e+00,1.874623179435729980e+00,1.845530271530151367e+00
5.000000000000000000e+00,4.738190650939941406e+00,4.597747325897216797e+00,4.633803367614746094e+00,4.824709892272949219e+00,4.853937625885009766e+00,5.000000000000000000e+00,5.000000000000000000e+00,5.000000000000000000e+00,5.000000000000000000e+00,5.000000000000000000e+00,5.000000000000000000e+00,5.000000000000000000e+00,5.000000000000000000e+00,5.000000000000000000e+00,5.000000000000000000e+00,5.000000000000000000e+00,5.000000000000000000e+00,5.000000000000000000e+00,5.000000000000000000e+00,5.000000000000000000e+00,5.000000000000000000e+00,5.000000000000000000e+00,5.000000000000000000e+00,5.000000000000000000e+00,5.000000000000000000e+00,5.000000000000000000e+00,5.000000000000000000e+00,5.000000000000000000e+00,5.000000000000000000e+00,5.000000000000000000e+00,5.000000000000000000e+00,5.000000000000000000e+00,5.000000000000000000e+00,5.000000000000000000e+00,5.000000000000000000e+00,1.662661075592041016e+00,1.622996687889099121e+00,1.608402848243713379e+00,1.627029180526733398e+00,1.693189024925231934e+00,1.865883588790893555e+00,1.862619757652282715e+00,4.182102680206298828e+00,4.040023326873779297e+00,3.907280445098876953e+00,3.782983541488647461e+00,3.666350364685058594e+00,3.556694507598876953e+00,3.453407049179077148e+00,3.355949640274047852e+00,3.263841629028320312e+00,3.176654815673828125e+00,3.094004869461059570e+00,3.015546083450317383e+00,2.940968751907348633e+00,2.869990587234497070e+00,2.802358150482177734e+00,2.737839460372924805e+00,2.676225185394287109e+00,2.617322921752929688e+00,2.560957431793212891e+00,2.506968736648559570e+00,2.455209016799926758e+00,2.405543804168701172e+00,2.357847929000854492e+00,2.312006473541259766e+00,2.267913579940795898e+00,2.225471019744873047e+00,2.184588193893432617e+00,2.145179986953735352e+00,2.107168436050415039e+00,2.070480346679687500e+00,2.035048246383666992e+00,2.000808238983154297e+00,1.967701673507690430e+00,1.935672640800476074e+00,1.904669642448425293e+00,1.874644160270690918e+00,1.845550417900085449e+00
5.000000000000000000e+00,5.000000000000000000e+00,4.572176456451416016e+00,4.599239349365234375e+00,4.842121124267578125e+00,4.877228736877441406e+00,5.000000000000000000e+00,5.000000000000000000e+00,5.000000000000000000e+00,5.000000000000000000e+00,5.000000000000000000e+00,5.000000000000000000e+00,5.000000000000000000e+00,5.000000000000000000e+00,5.000000000000000000e+00,5.000000000000000000e+00,5.000000000000000000e+00,5.000000000000000000e+00,5.000000000000000000e+00,5.000000000000000000e+00,5.000000000000000000e+00,5.000000000000000000e+00,5.000000000000000000e+00,5.000000000000000000e+00,5.000000000000000000e+00,5.000000000000000000e+00,5.000000000000000000e+00,5.000000000000000000e+00,5.000000000000000000e+00,5.000000000000000000e+00,5.000000000000000000e+00,5.000000000000000000e+00,5.000000000000000000e+00,5.000000000000000000e+00,5.000000000000000000e+00,5.000000000000000000e+00,1.668768405914306641e+00,1.623497843742370605e+00,1.608088731765747070e+00,1.625868320465087891e+00,1.687313437461853027e+00,1.890817999839782715e+00,1.926063179969787598e+00,4.182206153869628906e+00,4.040119647979736328e+00,3.907371044158935547e+00,3.783067941665649414e+00,3.666430234909057617e+00,3.556769132614135742e+00,3.453477859497070312e+00,3.356016159057617188e+00,3.263904809951782227e+00,3.176714658737182617e+00,3.094061136245727539e+00,3.015600204467773438e+00,2.941019773483276367e+00,2.870039463043212891e+00,2.802404403686523438e+00,2.737883806228637695e+00,2.676267385482788086e+00,2.617363214492797852e+00,2.560996294021606445e+00,2.507005691528320312e+00,2.455244779586791992e+00,2.405577898025512695e+00,2.357880830764770508e+00,2.312037944793701172e+00,2.267944097518920898e+00,2.225500583648681641e+00,2.184616327285766602e+00,2.145207166671752930e+00,2.107194662094116211e+00,2.070505857467651367e+00,2.035072803497314453e+00,2.000832080841064453e+00,1.967724442481994629e+00,1.935694694519042969e+00,1.904691100120544434e+00,1.874664902687072754e+00,1.845570683479309082e+00
5.000000000000000000e+00,5.000000000000000000e+00,4.569796085357666016e+00,4.590760231018066406e+00,4.855654716491699219e+00,4.899252414703369141e+00,5.000000000000000000e+00,5.000000000000000000e+00,5.000000000000000000e+00,5.000000000000000000e+00,5.000000000000000000e+00,5.000000000000000000e+00,5.000000000000000000e+00,5.000000000000000000e+00,5.000000000000000000e+00,5.000000000000000000e+00,5.000000000000000000e+00,5.000000000000000000e+00,5.000000000000000000e+00,5.000000000000000000e+00,5.000000000000000000e+00,5.000000000000000000e+00,5.000000000000000000e+00,5.000000000000000000e+00,5.000000000000000000e+00,5.000000000000000000e+00,5.000000000000000000e+00,5.000000000000000000e+00,5.000000000000000000e+00,5.000000000000000000e+00,5.000000000000000000e+00,5.000000000000000000e+00,5.000000000000000000e+00,5.000000000000000000e+00,5.000000000000000000e+00,5.000000000000000000e+00,5.000000000000000000e+00,1.625376582145690918e+00,1.607723832130432129e+00,1.624709010124206543e+00,1.675626993179321289e+00,1.916427850723266602e+00,4.334761619567871094e+00,4.182309627532958984e+00,4.040215969085693359e+00,3.907461166381835938e+00,3.783152818679809570e+00,3.666509389877319336e+00,3.556844234466552734e+00,3.453548192977905273e+00,3.356082916259765625e+00,3.263967514038085938e+00,3.176774024963378906e+00,3.094118118286132812e+00,3.015653848648071289e+00,2.941071033477783203e+00,2.870088100433349609e+00,2.802450895309448242e+00,2.737928152084350586e+00,2.676309823989868164e+00,2.617403745651245117e+00,2.561034917831420898e+00,2.507043123245239258e+00,2.455280542373657227e+00,2.405612230300903320e+00,2.357913494110107422e+00,2.312069654464721680e+00,2.267974376678466797e+00,2.225529670715332031e+00,2.184644699096679688e+00,2.145234346389770508e+00,2.107220888137817383e+00,2.070531129837036133e+00,2.035097360610961914e+00,2.000855684280395508e+00,1.967747569084167480e+00,1.935716867446899414e+00,1.904712438583374023e+00,1.874685645103454590e+00,1.845590829849243164e+00
5.000000000000000000e+00,5.000000000000000000e+00,4.570071697235107422e+00,4.603607654571533203e+00,4.895666122436523438e+00,4.978402614593505859e+00,5.000000000000000000e+00,5.000000000000000000e+00,5.000000000000000000e+00,5.000000000000000000e+00,5.000000000000000000e+00,5.000000000000000000e+00,5.000000000000000000e+00,5.000000000000000000e+00,5.000000000000000000e+00,5.000000000000000000e+00,5.000000000000000000e+00,5.000000000000000000e+00,5.000000000000000000e+00,5.000000000000000000e+00,5.000000000000000000e+00,5.000000000000000000e+00,5.000000000000000000e+00,5.000000000000000000e+00,5.000000000000000000e+00,5.000000000000000000e+00,5.000000000000000000e+00,5.000000000000000000e+00,5.000000000000000000e+00,5.000000000000000000e+00,5.000000000000000000e+00,5.000000000000000000e+00,5.000000000000000000e+00,5.000000000000000000e+00,5.000000000000000000e+00,5.000000000000000000e+00,5.000000000000000000e+00,1.630350112915039062e+00,1.607359051704406738e+00,1.622968196868896484e+00,1.666084170341491699e+00,1.942617416381835938e+00,4.334872722625732422e+00,4.182413101196289062e+00,4.040312767028808594e+00,3.907551765441894531e+00,3.783237218856811523e+00,3.666589260101318359e+00,3.556918859481811523e+00,3.453618764877319336e+00,3.356149435043334961e+00,3.264030694961547852e+00,3.176833629608154297e+00,3.094174623489379883e+00,3.015707731246948242e+00,2.941122055053710938e+00,2.870136976242065430e+00,2.802497386932373047e+00,2.737972736358642578e+00,2.676352024078369141e+00,2.617444276809692383e+00,2.561073780059814453e+00,2.507080078125000000e+00,2.455316305160522461e+00,2.405646324157714844e+00,2.357946634292602539e+00,2.312101364135742188e+00,2.268004894256591797e+00,2.225558996200561523e+00,2.184672832489013672e+00,2.145261764526367188e+00,2.107247114181518555e+00,2.070556640625000000e+00,2.035121679306030273e+00,2.000879526138305664e+00,1.967770457267761230e+00,1.935739159584045410e+00,1.904734134674072266e+00,1.874706387519836426e+00,1.845610857009887695e+00
5.000000000000000000e+00,5.000000000000000000e+00,4.565058231353759766e+00,4.583828926086425781e+00,4.960395812988281250e+00,5.000000000000000000e+00,5.000000000000000000e+00,5.000000000000000000e+00,5.000000000000000000e+00,5.000000000000000000e+00,5.000000000000000000e+00,5.000000000000000000e+00,5.000000000000000000e+00,5.000000000000000000e+00,5.000000000000000000e+00,5.000000000000000000e+00,5.000000000000000000e+00,5.000000000000000000e+00,5.000000000000000000e+00,5.000000000000000000e+00,5.000000000000000000e+00,5.000000000000000000e+00,5.000000000000000000e+00,5.000000000000000000e+00,5.000000000000000000e+00,5.000000000000000000e+00,5.000000000000000000e+00,5.000000000000000000e+00,5.000000000000000000e+00,5.000000000000000000e+00,5.000000000000000000e+00,5.000000000000000000e+00,5.000000000000000000e+00,5.000000000000000000e+00,5.000000000000000000e+00,5.000000000000000000e+00,5.000000000000000000e+00,1.635860562324523926e+00,1.606994509696960449e+00,1.621147036552429199e+00,1.661794900894165039e+00,1.961691617965698242e+00,4.334984302520751953e+00,4.182516574859619141e+00,4.040409088134765625e+00,3.907641887664794922e+00,3.783322095870971680e+00,3.666668653488159180e+00,3.556993961334228516e+00,3.453689336776733398e+00,3.356216192245483398e+00,3.264093637466430664e+00,3.176893472671508789e+00,3.094231367111206055e+00,3.015761375427246094e+00,2.941173315048217773e+00,2.870185613632202148e+00,2.802543878555297852e+00,2.738016843795776367e+00,2.676394701004028320e+00,2.617484807968139648e+00,2.561112642288208008e+00,2.507117509841918945e+00,2.455351829528808594e+00,2.405680656433105469e+00,2.357979297637939453e+00,2.312133073806762695e+00,2.268035173416137695e+00,2.225588321685791016e+00,2.184700965881347656e+00,2.145288705825805664e+00,2.107273578643798828e+00,2.070581912994384766e+00,2.035146236419677734e+00,2.000903129577636719e+00,1.967793226242065430e+00,1.935761332511901855e+00,1.904755592346191406e+00,1.874727249145507812e+00,1.845631003379821777e+00
5.000000000000000000e+00,5.000000000000000000e+00,4.561393260955810547e+00,4.562524795532226562e+00,4.989837646484375000e+00,5.000000000000000000e+00,5.000000000000000000e+00,5.000000000000000000e+00,5.000000000000000000e+00,5.000000000000000000e+00,5.000000000000000000e+00,5.000000000000000000e+00,5.000000000000000000e+00,5.000000000000000000e+00,5.000000000000000000e+00,5.000000000000000000e+00,5.000000000000000000e+00,5.000000000000000000e+00,5.000000000000000000e+00,5.000000000000000000e+00,5.000000000000000000e+00,5.000000000000000000e+00,5.000000000000000000e+00,5.000000000000000000e+00,5.000000000000000000e+00,5.000000000000000000e+00,5.000000000000000000e+00,5.000000000000000000e+00,5.000000000000000000e+00,5.000000000000000000e+00,5.000000000000000000e+00,5.000000000000000000e+00,5.000000000000000000e+00,5.000000000000000000e+00,5.000000000000000000e+00,5.000000000000000000e+00,5.000000000000000000e+00,1.641447901725769043e+00,1.610108733177185059e+00,1.619871258735656738e+00,1.663525342941284180e+00,1.989304304122924805e+00,4.335095405578613281e+00,4.182620048522949219e+00,4.040505886077880859e+00,3.907732009887695312e+00,3.783406734466552734e+00,3.666748285293579102e+00,3.557068586349487305e+00,3.453759908676147461e+00,3.356282711029052734e+00,3.264156818389892578e+00,3.176953077316284180e+00,3.094287872314453125e+00,3.015815258026123047e+00,2.941224336624145508e+00,2.870234489440917969e+00,2.802590370178222656e+00,2.738061428070068359e+00,2.676436901092529297e+00,2.617525339126586914e+00,2.561151266098022461e+00,2.507154464721679688e+00,2.455387592315673828e+00,2.405714750289916992e+00,2.358012437820434570e+00,2.312164545059204102e+00,2.268065690994262695e+00,2.225617647171020508e+00,2.184729337692260742e+00,2.145316123962402344e+00,2.107299804687500000e+00,2.070607185363769531e+00,2.035170793533325195e+00,2.000926733016967773e+00,1.967816114425659180e+00,1.935783386230468750e+00,1.904776930809020996e+00,1.874747991561889648e+00,1.845651268959045410e+00
5.000000000000000000e+00,5.000000000000000000e+00,5.000000000000000000e+00,4.543249607086181641e+00,5.000000000000000000e+00,5.000000000000000000e+00,5.000000000000000000e+00,5.000000000000000000e+00,5.000000000000000000e+00,5.000000000000000000e+00,5.000000000000000000e+00,5.000000000000000000e+00,5.000000000000000000e+00,5.000000000000000000e+00,5.000000000000000000e+00,5.000000000000000000e+00,5.000000000000000000e+00,5.000000000000000000e+00,5.000000000000000000e+00,5.000000000000000000e+00,5.000000000000000000e+00,5.000000000000000000e+00,5.000000000000000000e+00,5.000000000000000000e+00,5.000000000000000000e+00,5.000000000000000000e+00,5.000000000000000000e+00,5.000000000000000000e+00,5.000000000000000000e+00,5.000000000000000000e+00,5.000000000000000000e+00,5.000000000000000000e+00,5.000000000000000000e+00,5.000000000000000000e+00,5.000000000000000000e+00,5.000000000000000000e+00,5.000000000000000000e+00,1.648624777793884277e+00,1.617620587348937988e+00,1.619255423545837402e+00,1.668422222137451172e+00,4.499225616455078125e+00,4.335205554962158203e+00,4.182723522186279297e+00,4.040602684020996094e+00,3.907822370529174805e+00,3.783491611480712891e+00,3.666827678680419922e+00,3.557143449783325195e+00,3.453830480575561523e+00,3.356349468231201172e+00,3.264219760894775391e+00,3.177012920379638672e+00,3.094344377517700195e+00,3.015868902206420898e+00,2.941275835037231445e+00,2.870283126831054688e+00,2.802636861801147461e+00,2.738105535507202148e+00,2.676479339599609375e+00,2.617565870285034180e+00,2.561190128326416016e+00,2.507191896438598633e+00,2.455423116683959961e+00,2.405749082565307617e+00,2.358045101165771484e+00,2.312196254730224609e+00,2.268096208572387695e+00,2.225646972656250000e+00,2.184757471084594727e+00,2.145343303680419922e+00,2.107326030731201172e+00,2.070632457733154297e+00,2.035195350646972656e+00,2.000950336456298828e+00,1.967839121818542480e+00,1.935805559158325195e+00,1.904798388481140137e+00,1.874768733978271484e+00,1.845671415328979492e+00
5.000000000000000000e+00,5.000000000000000000e+00,5.000000000000000000e+00,4.401620864868164062e+00,5.000000000000000000e+00,5.000000000000000000e+00,5.000000000000000000e+00,5.000000000000000000e+00,5.000000000000000000e+00,5.000000000000000000e+00,5.000000000000000000e+00,5.000000000000000000e+00,5.000000000000000000e+00,5.000000000000000000e+00,5.000000000000000000e+00,5.000000000000000000e+00,5.000000000000000000e+00,5.000000000000000000e+00,5.000000000000000000e+00,5.000000000000000000e+00,5.000000000000000000e+00,5.000000000000000000e+00,5.000000000000000000e+00,5.000000000000000000e+00,5.000000000000000000e+00,5.000000000000000000e+00,5.000000000000000000e+00,5.000000000000000000e+00,5.000000000000000000e+00,5.000000000000000000e+00,5.000000000000000000e+00,5.000000000000000000e+00,5.000000000000000000e+00,5.000000000000000000e+00,5.000000000000000000e+00,5.000000000000000000e+00,5.000000000000000000e+00,1.655864357948303223e+00,1.621878743171691895e+00,1.618640065193176270e+00,1.673348307609558105e+00,4.499344348907470703e+00,4.335316181182861328e+00,4.182826519012451172e+00,4.040699005126953125e+00,3.907912492752075195e+00,3.783576011657714844e+00,3.666907310485839844e+00,3.557218313217163086e+00,3.453901052474975586e+00,3.356415987014770508e+00,3.264282941818237305e+00,3.177072525024414062e+00,3.094401121139526367e+00,3.015923023223876953e+00,2.941326856613159180e+00,2.870331764221191406e+00,2.802683115005493164e+00,2.738150119781494141e+00,2.676521539688110352e+00,2.617606401443481445e+00,2.561228990554809570e+00,2.507228851318359375e+00,2.455458879470825195e+00,2.405783414840698242e+00,2.358078241348266602e+00,2.312227725982666016e+00,2.268126726150512695e+00,2.225676059722900391e+00,2.184785604476928711e+00,2.145370483398437500e+00,2.107352256774902344e+00,2.070657968521118164e+00,2.035219907760620117e+00,2.000974178314208984e+00,1.967862010002136230e+00,1.935827851295471191e+00,1.904819726943969727e+00,1.874789476394653320e+00,1.845691442489624023e+00
4.875243186950683594e+00,4.874032020568847656e+00,4.872821331024169922e+00,4.558768749237060547e+00,4.870401382446289062e+00,4.869193077087402344e+00,4.867984771728515625e+00,4.866776943206787109e+00,4.865570068359375000e+00,4.864363193511962891e+00,4.863157272338867188e+00,4.861952304840087891e+00,4.860747337341308594e+00,4.859543323516845703e+00,4.858340263366699219e+00,4.857137203216552734e+00,4.855935096740722656e+00,4.854732990264892578e+00,4.853531837463378906e+00,4.852331638336181641e+00,4.851131439208984375e+00,4.849932193756103516e+00,4.848733425140380859e+00,4.847535610198974609e+00,4.846338272094726562e+00,4.845140933990478516e+00,4.843944549560546875e+00,4.842748641967773438e+00,4.841553688049316406e+00,4.840358734130859375e+00,4.839164733886718750e+00,4.837971210479736328e+00,4.836778640747070312e+00,4.835586547851562500e+00,4.834394931793212891e+00,4.833203792572021484e+00,4.832013130187988281e+00,1.663168072700500488e+00,1.622745513916015625e+00,1.618025302886962891e+00,1.678303480148315430e+00,4.499463558197021484e+00,4.335426330566406250e+00,4.182929039001464844e+00,4.040795803070068359e+00,3.908003091812133789e+00,3.783660411834716797e+00,3.666986703872680664e+00,3.557293176651000977e+00,3.453971624374389648e+00,3.356482744216918945e+00,3.264345645904541016e+00,3.177132368087768555e+00,3.094457626342773438e+00,3.015976667404174805e+00,2.941378116607666016e+00,2.870380401611328125e+00,2.802729845046997070e+00,2.738194227218627930e+00,2.676563978195190430e+00,2.617646932601928711e+00,2.561267852783203125e+00,2.507266044616699219e+00,2.455494403839111328e+00,2.405817747116088867e+00,2.358110904693603516e+00,2.312259435653686523e+00,2.268157005310058594e+00,2.225705623626708984e+00,2.184813976287841797e+00,2.145397663116455078e+00,2.107378482818603516e+00,2.070683240890502930e+00,2.035244464874267578e+00,2.000997781753540039e+00,1.967884898185729980e+00,1.935849905014038086e+00,1.904841423034667969e+00,1.874810218811035156e+00,1.845711588859558105e+00
3.778032779693603516e+00,3.777305126190185547e+00,3.776578187942504883e+00,3.775851011276245117e+00,3.775124549865722656e+00,3.774397850036621094e+00,3.773672103881835938e+00,3.772946119308471680e+00,3.772220611572265625e+00,3.771495580673217773e+00,3.770770549774169922e+00,3.770045995712280273e+00,3.769321441650390625e+00,3.768597602844238281e+00,3.767873525619506836e+00,3.767150163650512695e+00,3.766426563262939453e+00,3.765703916549682617e+00,3.764980792999267578e+00,3.764258623123168945e+00,3.763536691665649414e+00,3.762814521789550781e+00,3.762093067169189453e+00,3.761371612548828125e+00,3.760650634765625000e+00,3.759929656982421875e+00,3.759209394454956055e+00,3.758488893508911133e+00,3.757769107818603516e+00,3.757049560546875000e+00,3.756330013275146484e+00,3.755611181259155273e+00,3.754891872406005859e+00,3.754173517227172852e+00,3.753455162048339844e+00,3.752737283706665039e+00,3.752019166946411133e+00,1.670536518096923828e+00,1.625081181526184082e+00,1.618041634559631348e+00,3.749151229858398438e+00,3.748434782028198242e+00,3.747718811035156250e+00,3.747002601623535156e+00,3.746287345886230469e+00,3.745571851730346680e+00,3.744857072830200195e+00,3.667066574096679688e+00,3.557368040084838867e+00,3.454042196273803711e+00,3.356549263000488281e+00,3.264408826828002930e+00,3.177191972732543945e+00,3.094514369964599609e+00,3.016030311584472656e+00,2.941429138183593750e+00,2.870429277420043945e+00,2.802776098251342773e+00,2.738238811492919922e+00,2.676606416702270508e+00,2.617687463760375977e+00,2.561306476593017578e+00,2.507303237915039062e+00,2.455530166625976562e+00,2.405851840972900391e+00,2.358144044876098633e+00,2.312291145324707031e+00,2.268187522888183594e+00,2.225734710693359375e+00,2.184842109680175781e+00,2.145424842834472656e+00,2.107404708862304688e+00,2.070708751678466797e+00,2.035268783569335938e+00,2.001021623611450195e+00,1.967907786369323730e+00,1.935872077941894531e+00,1.904862761497497559e+00,1.874831199645996094e+00,1.845731854438781738e+00
3.083963155746459961e+00,3.083478212356567383e+00,3.082993745803833008e+00,3.082509279251098633e+00,3.082025051116943359e+00,3.081541061401367188e+00,3.081056833267211914e+00,3.080573320388793945e+00,3.080089330673217773e+00,3.079606056213378906e+00,3.079122543334960938e+00,3.078639507293701172e+00,3.078156232833862305e+00,3.077673435211181641e+00,3.077190637588500977e+00,3.076708078384399414e+00,3.076225519180297852e+00,3.075743198394775391e+00,3.075261116027832031e+00,3.074779033660888672e+00,3.074297189712524414e+00,3.073815345764160156e+00,3.073333978652954102e+00,3.072852611541748047e+00,3.072371244430541992e+00,3.071890115737915039e+00,3.071409225463867188e+00,3.070928335189819336e+00,3.070447683334350586e+00,3.069967269897460938e+00,3.069486618041992188e+00,3.069006681442260742e+00,3.068526506423950195e+00,3.068046569824218750e+00,3.067567110061645508e+00,3.067087411880493164e+00,3.066607952117919922e+00,3.066128492355346680e+00,1.649321794509887695e+00,1.632311820983886719e+00,3.064691781997680664e+00,3.064212799072265625e+00,3.063734292984008789e+00,3.063256025314331055e+00,3.062777757644653320e+00,3.062299728393554688e+00,3.061821699142456055e+00,3.061343908309936523e+00,3.060866117477416992e+00,3.060388803482055664e+00,3.059911251068115234e+00,3.059434175491333008e+00,3.058957099914550781e+00,3.058480024337768555e+00,3.016084194183349609e+00,2.941480398178100586e+00,2.870477914810180664e+00,2.802822828292846680e+00,2.738282918930053711e+00,2.676648855209350586e+00,2.617727994918823242e+00,2.561345338821411133e+00,2.507340431213378906e+00,2.455565690994262695e+00,2.405886173248291016e+00,2.358176708221435547e+00,2.312322854995727539e+00,2.268217802047729492e+00,2.225764036178588867e+00,2.184870481491088867e+00,2.145452260971069336e+00,2.107431173324584961e+00,2.070734024047851562e+00,2.035293340682983398e+00,2.001045227050781250e+00,1.967930793762207031e+00,1.935894250869750977e+00,1.904884219169616699e+00,1.874851942062377930e+00,1.845752000808715820e+00
2.605332612991333008e+00,2.604986667633056641e+00,2.604640722274780273e+00,2.604295015335083008e+00,2.603949308395385742e+00,2.603603601455688477e+00,2.603258132934570312e+00,2.602912664413452148e+00,2.602567434310913086e+00,2.602222204208374023e+00,2.601877212524414062e+00,2.601531982421875000e+00,2.601187229156494141e+00,2.600842237472534180e+00,2.600497484207153320e+00,2.600152730941772461e+00,2.599808216094970703e+00,2.599463462829589844e+00,2.599119186401367188e+00,2.598774909973144531e+00,2.598430633544921875e+00,2.598086595535278320e+00,2.597742557525634766e+00,2.597398519515991211e+00,2.597054719924926758e+00,2.596710920333862305e+00,2.596367120742797852e+00,2.596023797988891602e+00,2.595680236816406250e+00,2.595336675643920898e+00,2.594993591308593750e+00,2.594650268554687500e+00,2.594307184219360352e+00,2.593964099884033203e+00,2.593621253967285156e+00,2.593278169631958008e+00,2.592935562133789062e+00,2.592592954635620117e+00,1.646920919418334961e+00,1.621762633323669434e+00,2.591565370559692383e+00,2.591223001480102539e+00,2.590880632400512695e+00,2.590538740158081055e+00,2.590196609497070312e+00,2.589854717254638672e+00,2.589512825012207031e+00,2.589170932769775391e+00,2.588829517364501953e+00,2.588487625122070312e+00,2.588146209716796875e+00,2.587804794311523438e+00,2.587463617324829102e+00,2.587122201919555664e+00,2.586781263351440430e+00,2.586440324783325195e+00,2.586099147796630859e+00,2.585758447647094727e+00,2.585417509078979492e+00,2.585076808929443359e+00,2.584736108779907227e+00,2.561384201049804688e+00,2.507377624511718750e+00,2.455601453781127930e+00,2.405920267105102539e+00,2.358209609985351562e+00,2.312354326248168945e+00,2.268248319625854492e+00,2.225793361663818359e+00,2.184898614883422852e+00,2.145479440689086914e+00,2.107457399368286133e+00,2.070759534835815430e+00,2.035317897796630859e+00,2.001068830490112305e+00,1.967953681945800781e+00,1.935916543006896973e+00,1.904905676841735840e+00,1.874872684478759766e+00,1.845772147178649902e+00
2.255332946777343750e+00,2.255072832107543945e+00,2.254812479019165039e+00,2.254552364349365234e+00,2.254292011260986328e+00,2.254032135009765625e+00,2.253772020339965820e+00,2.253512144088745117e+00,2.253252029418945312e+00,2.252992391586303711e+00,2.252732515335083008e+00,2.252472877502441406e+00,2.252213001251220703e+00,2.251953363418579102e+00,2.251693964004516602e+00,2.251434326171875000e+00,2.251175165176391602e+00,2.250915527343750000e+00,2.250656366348266602e+00,2.250396966934204102e+00,2.250138044357299805e+00,2.249878644943237305e+00,2.249619722366333008e+00,2.249361276626586914e+00,2.249103546142578125e+00,2.248845577239990234e+00,2.248587846755981445e+00,2.248330116271972656e+00,2.248072385787963867e+00,2.247814893722534180e+00,2.247557401657104492e+00,2.247299671173095703e+00,2.247042417526245117e+00,2.246785163879394531e+00,2.246527671813964844e+00,2.246270656585693359e+00,2.246013402938842773e+00,2.245756387710571289e+00,1.607934117317199707e+00,1.583858966827392578e+00,2.006478309631347656e+00,2.244728326797485352e+00,2.244471549987792969e+00,2.244214773178100586e+00,2.243957996368408203e+00,2.243701457977294922e+00,2.243444919586181641e+00,2.243188142776489258e+00,2.242931842803955078e+00,2.242675304412841797e+00,2.242419004440307617e+00,2.242162704467773438e+00,2.241906404495239258e+00,2.241650342941284180e+00,2.241394042968750000e+00,2.241138219833374023e+00,2.240882158279418945e+00,2.240626096725463867e+00,2.240370273590087891e+00,2.240114450454711914e+00,2.239858865737915039e+00,2.239603042602539062e+00,2.239347457885742188e+00,2.239091634750366211e+00,2.238836288452148438e+00,2.238580703735351562e+00,2.238325357437133789e+00,2.238069772720336914e+00,2.225822687149047852e+00,2.184926748275756836e+00,2.145506620407104492e+00,2.107483625411987305e+00,2.070784807205200195e+00,2.035342454910278320e+00,2.001092672348022461e+00,1.967976570129394531e+00,1.935938715934753418e+00,1.904927253723144531e+00,1.874893426895141602e+00,1.845792174339294434e+00
1.988281607627868652e+00,1.988079428672790527e+00,1.987877130508422852e+00,1.987674832344055176e+00,1.987472534179687500e+00,1.987270593643188477e+00,1.987068414688110352e+00,1.986866235733032227e+00,1.986664175987243652e+00,1.986462354660034180e+00,1.986260294914245605e+00,1.986058354377746582e+00,1.985856413841247559e+00,1.985654473304748535e+00,1.985452890396118164e+00,1.985251069068908691e+00,1.985049366950988770e+00,1.984847664833068848e+00,1.984646201133728027e+00,1.984444499015808105e+00,1.984242916107177734e+00,1.984041333198547363e+00,1.983839988708496094e+00,1.983638525009155273e+00,1.983437061309814453e+00,1.983235716819763184e+00,1.983034610748291016e+00,1.982833266258239746e+00,1.982632040977478027e+00,1.982430696487426758e+00,1.982229828834533691e+00,1.982028603553771973e+00,1.981827497482299805e+00,1.981626391410827637e+00,1.981425642967224121e+00,1.981224656105041504e+00,1.981023669242858887e+00,1.980822801589965820e+00,1.563800454139709473e+00,1.546662092208862305e+00,1.547909975051879883e+00,1.980019807815551758e+00,1.979819059371948242e+00,1.979618549346923828e+00,1.979417920112609863e+00,1.979217410087585449e+00,1.979016780853271484e+00,1.978816509246826172e+00,1.978616118431091309e+00,1.978415608406066895e+00,1.978215336799621582e+00,1.978015184402465820e+00,1.977814912796020508e+00,1.977614641189575195e+00,1.977414369583129883e+00,1.977214455604553223e+00,1.977014303207397461e+00,1.976814150810241699e+00,1.976614117622375488e+00,1.976414322853088379e+00,1.976214289665222168e+00,1.976014375686645508e+00,1.975814461708068848e+00,1.975614666938781738e+00,1.975414991378784180e+00,1.975215315818786621e+00,1.975015521049499512e+00,1.974815845489501953e+00,1.974616408348083496e+00,1.974416732788085938e+00,1.974217176437377930e+00,1.974017620086669922e+00,1.973818421363830566e+00,1.973618984222412109e+00,1.973419547080993652e+00,1.967999339103698730e+00,1.935960769653320312e+00,1.904948711395263672e+00,1.874914407730102539e+00,1.845812320709228516e+00
1.777777194976806641e+00,1.777615427970886230e+00,1.777453660964965820e+00,1.777292132377624512e+00,1.777130365371704102e+00,1.776968717575073242e+00,1.776807069778442383e+00,1.776645541191101074e+00,1.776484012603759766e+00,1.776322484016418457e+00,1.776160836219787598e+00,1.775999546051025391e+00,1.775838136672973633e+00,1.775676608085632324e+00,1.775515198707580566e+00,1.775353789329528809e+00,1.775192618370056152e+00,1.775031328201293945e+00,1.774870038032531738e+00,1.774708747863769531e+00,1.774547696113586426e+00,1.774386525154113770e+00,1.774225234985351562e+00,1.774064183235168457e+00,1.773903131484985352e+00,1.773742079734802246e+00,1.773581027984619141e+00,1.773419976234436035e+00,1.773259162902832031e+00,1.773098111152648926e+00,1.772937178611755371e+00,1.772776246070861816e+00,1.772615551948547363e+00,1.772454738616943359e+00,1.772293925285339355e+00,1.772133111953735352e+00,1.771972298622131348e+00,1.562360167503356934e+00,1.515576720237731934e+00,1.489742517471313477e+00,1.481662869453430176e+00,1.771169185638427734e+00,1.771008610725402832e+00,1.770848035812377930e+00,1.770687460899353027e+00,1.770527124404907227e+00,1.770366668701171875e+00,1.770206212997436523e+00,1.770045757293701172e+00,1.769885540008544922e+00,1.769725203514099121e+00,1.769564867019653320e+00,1.769404530525207520e+00,1.769244432449340820e+00,1.769084095954895020e+00,1.768923878669738770e+00,1.768763661384582520e+00,1.768603682518005371e+00,1.768443584442138672e+00,1.768283486366271973e+00,1.768123388290405273e+00,1.767963528633117676e+00,1.767803549766540527e+00,1.767643570899963379e+00,1.767483592033386230e+00,1.767323613166809082e+00,1.767163872718811035e+00,1.767004013061523438e+00,1.766844153404235840e+00,1.766684412956237793e+00,1.766524791717529297e+00,1.766365051269531250e+00,1.766205310821533203e+00,1.766045570373535156e+00,1.765886068344116211e+00,1.765726447105407715e+00,1.765566825866699219e+00,1.765407204627990723e+00,1.765247941017150879e+00,1.765088319778442383e+00
1.607578635215759277e+00,1.607446432113647461e+00,1.607314229011535645e+00,1.607181906700134277e+00,1.607049703598022461e+00,1.606917619705200195e+00,1.606785416603088379e+00,1.606653213500976562e+00,1.606521129608154297e+00,1.606389164924621582e+00,1.606256961822509766e+00,1.606124877929687500e+00,1.605992794036865234e+00,1.605860829353332520e+00,1.605728983879089355e+00,1.605596899986267090e+00,1.605464935302734375e+00,1.605332970619201660e+00,1.605201244354248047e+00,1.605069279670715332e+00,1.604937434196472168e+00,1.604805469512939453e+00,1.604673862457275391e+00,1.604542016983032227e+00,1.604410171508789062e+00,1.604278445243835449e+00,1.604146838188171387e+00,1.604014992713928223e+00,1.603883385658264160e+00,1.603751659393310547e+00,1.603620052337646484e+00,1.603488445281982422e+00,1.603356838226318359e+00,1.603225231170654297e+00,1.603093743324279785e+00,1.602962136268615723e+00,1.602830648422241211e+00,1.602699160575866699e+00,1.602567672729492188e+00,1.602436304092407227e+00,1.602304816246032715e+00,1.602173328399658203e+00,1.602041959762573242e+00,1.601910710334777832e+00,1.601779341697692871e+00,1.601647973060607910e+00,1.601516723632812500e+00,1.601385474205017090e+00,1.601254224777221680e+00,1.601122975349426270e+00,1.600991725921630859e+00,1.600860595703125000e+00,1.600729465484619141e+00,1.600598216056823730e+00,1.600467085838317871e+00,1.600336074829101562e+00,1.600205063819885254e+00,1.600073933601379395e+00,1.599942803382873535e+00,1.599811911582946777e+00,1.599680900573730469e+00,1.599549889564514160e+00,1.599418878555297852e+00,1.599287867546081543e+00,1.599157094955444336e+00,1.599026203155517578e+00,1.598895311355590820e+00,1.598764419555664062e+00,1.598633646965026855e+00,1.598502874374389648e+00,1.598371982574462891e+00,1.598241209983825684e+00,1.598110675811767578e+00,1.597979903221130371e+00,1.597849130630493164e+00,1.597718477249145508e+00,1.597587943077087402e+00,1.597457289695739746e+00,1.597326636314392090e+00,1.597195982933044434e+00
1.467121362686157227e+00,1.467011213302612305e+00,1.466900944709777832e+00,1.466790914535522461e+00,1.466680765151977539e+00,1.466570615768432617e+00,1.466460585594177246e+00,1.466350555419921875e+00,1.466240525245666504e+00,1.466130375862121582e+00,1.466020345687866211e+00,1.465910434722900391e+00,1.465800404548645020e+00,1.465690493583679199e+00,1.465580463409423828e+00,1.465470433235168457e+00,1.465360641479492188e+00,1.465250730514526367e+00,1.465140819549560547e+00,1.465030908584594727e+00,1.464921116828918457e+00,1.464811325073242188e+00,1.464701414108276367e+00,1.464591622352600098e+00,1.464481949806213379e+00,1.464372158050537109e+00,1.464262366294860840e+00,1.464152574539184570e+00,1.464042901992797852e+00,1.463933229446411133e+00,1.463823437690734863e+00,1.463713765144348145e+00,1.463604211807250977e+00,1.463494539260864258e+00,1.463384866714477539e+00,1.463275194168090820e+00,1.463165640830993652e+00,1.463056087493896484e+00,1.462946534156799316e+00,1.462836980819702148e+00,1.462727427482604980e+00,1.462617993354797363e+00,1.462508559226989746e+00,1.462399005889892578e+00,1.462289452552795410e+00,1.462180137634277344e+00,1.462070703506469727e+00,1.461961269378662109e+00,1.461851835250854492e+00,1.461742520332336426e+00,1.461633205413818359e+00,1.461523771286010742e+00,1.461414456367492676e+00,1.461305260658264160e+00,1.461195945739746094e+00,1.461086630821228027e+00,1.460977315902709961e+00,1.460868120193481445e+00,1.460758924484252930e+00,1.460649609565734863e+00,1.460540413856506348e+00,1.460431337356567383e+00,1.460322141647338867e+00,1.460212945938110352e+00,1.460103869438171387e+00,1.459994673728942871e+00,1.459885716438293457e+00,1.459776520729064941e+00,1.459667444229125977e+00,1.459558367729187012e+00,1.459449410438537598e+00,1.459340333938598633e+00,1.459231376647949219e+00,1.459122300148010254e+00,1.459013462066650391e+00,1.458904504776000977e+00,1.458795547485351562e+00,1.458686590194702148e+00,1.458577752113342285e+00,1.458468794822692871e+00
1.349235773086547852e+00,1.349142789840698242e+00,1.349049568176269531e+00,1.348956346511840820e+00,1.348863244056701660e+00,1.348770141601562500e+00,1.348677039146423340e+00,1.348583936691284180e+00,1.348490834236145020e+00,1.348397850990295410e+00,1.348304748535156250e+00,1.348211646080017090e+00,1.348118543624877930e+00,1.348025560379028320e+00,1.347932577133178711e+00,1.347839593887329102e+00,1.347746610641479492e+00,1.347653627395629883e+00,1.347560763359069824e+00,1.347467780113220215e+00,1.347374796867370605e+00,1.347281932830810547e+00,1.347189068794250488e+00,1.347096204757690430e+00,1.347003221511840820e+00,1.346910357475280762e+00,1.346817612648010254e+00,1.346724748611450195e+00,1.346631884574890137e+00,1.346539020538330078e+00,1.346446275711059570e+00,1.346353530883789062e+00,1.346260666847229004e+00,1.346167922019958496e+00,1.346075177192687988e+00,1.345982432365417480e+00,1.345889687538146973e+00,1.345796942710876465e+00,1.345704197883605957e+00,1.345611691474914551e+00,1.345518946647644043e+00,1.345426201820373535e+00,1.345333576202392578e+00,1.345241069793701172e+00,1.345148324966430664e+00,1.345055699348449707e+00,1.344963073730468750e+00,1.344870567321777344e+00,1.344778060913085938e+00,1.344685435295104980e+00,1.344592809677124023e+00,1.344500422477722168e+00,1.344407796859741211e+00,1.344315290451049805e+00,1.344222784042358398e+00,1.344130396842956543e+00,1.344037890434265137e+00,1.343945384025573730e+00,1.343852877616882324e+00,1.343760609626770020e+00,1.343668103218078613e+00,1.343575716018676758e+00,1.343483328819274902e+00,1.343390822410583496e+00,1.343298554420471191e+00,1.343206167221069336e+00,1.343113780021667480e+00,1.343021512031555176e+00,1.342929244041442871e+00,1.342836856842041016e+00,1.342744588851928711e+00,1.342652320861816406e+00,1.342560052871704102e+00,1.342467784881591797e+00,1.342375516891479492e+00,1.342283248901367188e+00,1.342191100120544434e+00,1.342098951339721680e+00,1.342006683349609375e+00,1.341914534568786621e+00
1.248885989189147949e+00,1.248806118965148926e+00,1.248726248741149902e+00,1.248646616935729980e+00,1.248566746711730957e+00,1.248486876487731934e+00,1.248407125473022461e+00,1.248327374458312988e+00,1.248247623443603516e+00,1.248167872428894043e+00,1.248088121414184570e+00,1.248008489608764648e+00,1.247928738594055176e+00,1.247848987579345703e+00,1.247769236564636230e+00,1.247689604759216309e+00,1.247609972953796387e+00,1.247530221939086914e+00,1.247450590133666992e+00,1.247370958328247070e+00,1.247291326522827148e+00,1.247211694717407227e+00,1.247132062911987305e+00,1.247052431106567383e+00,1.246972918510437012e+00,1.246893286705017090e+00,1.246813654899597168e+00,1.246734142303466797e+00,1.246654629707336426e+00,1.246574997901916504e+00,1.246495485305786133e+00,1.246415972709655762e+00,1.246336460113525391e+00,1.246256947517395020e+00,1.246177434921264648e+00,1.246097922325134277e+00,1.246018409729003906e+00,1.245939016342163086e+00,1.245859622955322266e+00,1.245780110359191895e+00,1.245700597763061523e+00,1.245621323585510254e+00,1.245541810989379883e+00,1.245462417602539062e+00,1.245383024215698242e+00,1.245303750038146973e+00,1.245224356651306152e+00,1.245144963264465332e+00,1.245065569877624512e+00,1.244986295700073242e+00,1.244906902313232422e+00,1.244827628135681152e+00,1.244748234748840332e+00,1.244668960571289062e+00,1.244589686393737793e+00,1.244510412216186523e+00,1.244431138038635254e+00,1.244351863861083984e+00,1.244272589683532715e+00,1.244193315505981445e+00,1.244114160537719727e+00,1.244035005569458008e+00,1.243955731391906738e+00,1.243876457214355469e+00,1.243797302246093750e+00,1.243718028068542480e+00,1.243638992309570312e+00,1.243559837341308594e+00,1.243480682373046875e+00,1.243401527404785156e+00,1.243322372436523438e+00,1.243243217468261719e+00,1.243164181709289551e+00,1.243085026741027832e+00,1.243005990982055664e+00,1.242926955223083496e+00,1.242847800254821777e+00,1.242768764495849609e+00,1.242689728736877441e+00,1.242610692977905273e+00
1.162429809570312500e+00,1.162360787391662598e+00,1.162291526794433594e+00,1.162222385406494141e+00,1.162153244018554688e+00,1.162084221839904785e+00,1.162015080451965332e+00,1.161945939064025879e+00,1.161876797676086426e+00,1.161807775497436523e+00,1.161738634109497070e+00,1.161669611930847168e+00,1.161600470542907715e+00,1.161531448364257812e+00,1.161462426185607910e+00,1.161393284797668457e+00,1.161324262619018555e+00,1.161255240440368652e+00,1.161186218261718750e+00,1.161117196083068848e+00,1.161048173904418945e+00,1.160979151725769043e+00,1.160910248756408691e+00,1.160841226577758789e+00,1.160772323608398438e+00,1.160703301429748535e+00,1.160634398460388184e+00,1.160565376281738281e+00,1.160496473312377930e+00,1.160427570343017578e+00,1.160358667373657227e+00,1.160289764404296875e+00,1.160220742225646973e+00,1.160151839256286621e+00,1.160083055496215820e+00,1.160014152526855469e+00,1.159945249557495117e+00,1.159876346588134766e+00,1.159807443618774414e+00,1.159738659858703613e+00,1.159669876098632812e+00,1.159600973129272461e+00,1.159532189369201660e+00,1.159463405609130859e+00,1.159394502639770508e+00,1.159325718879699707e+00,1.159256935119628906e+00,1.159188151359558105e+00,1.159119367599487305e+00,1.159050583839416504e+00,1.158981800079345703e+00,1.158913135528564453e+00,1.158844351768493652e+00,1.158775568008422852e+00,1.158706903457641602e+00,1.158638238906860352e+00,1.158569455146789551e+00,1.158500790596008301e+00,1.158432006835937500e+00,1.158363461494445801e+00,1.158294796943664551e+00,1.158226013183593750e+00,1.158157348632812500e+00,1.158088684082031250e+00,1.158020138740539551e+00,1.157951474189758301e+00,1.157882809638977051e+00,1.157814145088195801e+00,1.157745599746704102e+00,1.157677054405212402e+00,1.157608389854431152e+00,1.157539844512939453e+00,1.157471299171447754e+00,1.157402634620666504e+00,1.157334089279174805e+00,1.157265543937683105e+00,1.157196998596191406e+00,1.157128453254699707e+00,1.157059907913208008e+00,1.156991362571716309e+00
1.087168812751770020e+00,1.087108373641967773e+00,1.087047815322875977e+00,1.086987376213073730e+00,1.086926937103271484e+00,1.086866497993469238e+00,1.086805939674377441e+00,1.086745619773864746e+00,1.086685061454772949e+00,1.086624622344970703e+00,1.086564183235168457e+00,1.086503863334655762e+00,1.086443424224853516e+00,1.086382985115051270e+00,1.086322546005249023e+00,1.086262106895446777e+00,1.086201786994934082e+00,1.086141347885131836e+00,1.086080908775329590e+00,1.086020588874816895e+00,1.085960268974304199e+00,1.085899829864501953e+00,1.085839509963989258e+00,1.085779190063476562e+00,1.085718870162963867e+00,1.085658550262451172e+00,1.085598230361938477e+00,1.085537791252136230e+00,1.085477590560913086e+00,1.085417270660400391e+00,1.085356950759887695e+00,1.085296630859375000e+00,1.085236430168151855e+00,1.085176110267639160e+00,1.085115790367126465e+00,1.085055470466613770e+00,1.084995269775390625e+00,1.084935069084167480e+00,1.084874749183654785e+00,1.084814548492431641e+00,1.084754228591918945e+00,1.084694027900695801e+00,1.084633827209472656e+00,1.084573626518249512e+00,1.084513425827026367e+00,1.084453225135803223e+00,1.084393024444580078e+00,1.084332823753356934e+00,1.084272623062133789e+00,1.084212541580200195e+00,1.084152340888977051e+00,1.084092140197753906e+00,1.084032058715820312e+00,1.083971858024597168e+00,1.083911776542663574e+00,1.083851575851440430e+00,1.083791494369506836e+00,1.083731412887573242e+00,1.083671212196350098e+00,1.083611130714416504e+00,1.083551049232482910e+00,1.083490967750549316e+00,1.083430886268615723e+00,1.083370804786682129e+00,1.083310723304748535e+00,1.083250641822814941e+00,1.083190560340881348e+00,1.083130478858947754e+00,1.083070516586303711e+00,1.083010435104370117e+00,1.082950472831726074e+00,1.082890391349792480e+00,1.082830309867858887e+00,1.082770347595214844e+00,1.082710385322570801e+00,1.082650303840637207e+00,1.082590341567993164e+00,1.082530379295349121e+00,1.082470417022705078e+00,1.082410454750061035e+00
1.021060705184936523e+00,1.021007418632507324e+00,1.020954012870788574e+00,1.020900607109069824e+00,1.020847320556640625e+00,1.020794034004211426e+00,1.020740628242492676e+00,1.020687341690063477e+00,1.020633935928344727e+00,1.020580649375915527e+00,1.020527362823486328e+00,1.020474076271057129e+00,1.020420789718627930e+00,1.020367383956909180e+00,1.020314216613769531e+00,1.020260930061340332e+00,1.020207643508911133e+00,1.020154356956481934e+00,1.020101070404052734e+00,1.020047783851623535e+00,1.019994497299194336e+00,1.019941329956054688e+00,1.019888043403625488e+00,1.019834876060485840e+00,1.019781589508056641e+00,1.019728302955627441e+00,1.019675135612487793e+00,1.019621968269348145e+00,1.019568681716918945e+00,1.019515514373779297e+00,1.019462347030639648e+00,1.019409179687500000e+00,1.019355893135070801e+00,1.019302725791931152e+00,1.019249558448791504e+00,1.019196391105651855e+00,1.019143223762512207e+00,1.019090056419372559e+00,1.019036889076232910e+00,1.018983721733093262e+00,1.018930554389953613e+00,1.018877506256103516e+00,1.018824338912963867e+00,1.018771171569824219e+00,1.018718123435974121e+00,1.018664956092834473e+00,1.018611788749694824e+00,1.018558740615844727e+00,1.018505692481994629e+00,1.018452525138854980e+00,1.018399477005004883e+00,1.018346428871154785e+00,1.018293261528015137e+00,1.018240213394165039e+00,1.018187165260314941e+00,1.018134117126464844e+00,1.018081068992614746e+00,1.018028020858764648e+00,1.017974972724914551e+00,1.017921924591064453e+00,1.017868876457214355e+00,1.017815828323364258e+00,1.017762780189514160e+00,1.017709732055664062e+00,1.017656803131103516e+00,1.017603754997253418e+00,1.017550826072692871e+00,1.017497777938842773e+00,1.017444849014282227e+00,1.017391800880432129e+00,1.017338871955871582e+00,1.017285823822021484e+00,1.017232894897460938e+00,1.017179965972900391e+00,1.017126917839050293e+00,1.017073988914489746e+00,1.017021059989929199e+00,1.016968131065368652e+00,1.016915202140808105e+00,1.016862273216247559e+00
9.625315666198730469e-01,9.624841213226318359e-01,9.624367356300354004e-01,9.623893499374389648e-01,9.623418450355529785e-01,9.622945189476013184e-01,9.622470736503601074e-01,9.621996879577636719e-01,9.621523618698120117e-01,9.621049165725708008e-01,9.620575904846191406e-01,9.620102643966674805e-01,9.619628190994262695e-01,9.619154930114746094e-01,9.618680477142333984e-01,9.618207216262817383e-01,9.617734551429748535e-01,9.617260098457336426e-01,9.616787433624267578e-01,9.616312980651855469e-01,9.615840315818786621e-01,9.615367650985717773e-01,9.614893794059753418e-01,9.614421129226684570e-01,9.613947868347167969e-01,9.613474607467651367e-01,9.613001942634582520e-01,9.612528085708618164e-01,9.612055420875549316e-01,9.611583352088928223e-01,9.611109495162963867e-01,9.610637426376342773e-01,9.610164761543273926e-01,9.609691500663757324e-01,9.609219431877136230e-01,9.608746170997619629e-01,9.608274102210998535e-01,9.607801437377929688e-01,9.607328772544860840e-01,9.606856703758239746e-01,9.606383442878723145e-01,9.605911374092102051e-01,9.605439901351928711e-01,9.604966640472412109e-01,9.604495167732238770e-01,9.604023098945617676e-01,9.603550434112548828e-01,9.603078961372375488e-01,9.602606296539306641e-01,9.602134823799133301e-01,9.601663351058959961e-01,9.601190686225891113e-01,9.600719213485717773e-01,9.600247740745544434e-01,9.599775671958923340e-01,9.599304199218750000e-01,9.598831534385681152e-01,9.598360657691955566e-01,9.597889184951782227e-01,9.597417116165161133e-01,9.596946239471435547e-01,9.596475362777709961e-01,9.596003293991088867e-01,9.595532417297363281e-01,9.595060348510742188e-01,9.594589471817016602e-01,9.594118595123291016e-01,9.593647122383117676e-01,9.593176245689392090e-01,9.592704772949218750e-01,9.592233896255493164e-01,9.591763615608215332e-01,9.591292142868041992e-01,9.590821266174316406e-01,9.590350985527038574e-01,9.589879512786865234e-01,9.589409232139587402e-01,9.588937759399414062e-01,9.588467478752136230e-01,9.587997794151306152e-01
9.103485941886901855e-01,9.103061556816101074e-01,9.102637171745300293e-01,9.102213382720947266e-01,9.101788401603698730e-01,9.101365208625793457e-01,9.100941419601440430e-01,9.100517034530639648e-01,9.100093245506286621e-01,9.099670052528381348e-01,9.099245667457580566e-01,9.098821878433227539e-01,9.098397493362426758e-01,9.097974300384521484e-01,9.097551107406616211e-01,9.097126722335815430e-01,9.096703529357910156e-01,9.096279144287109375e-01,9.095856547355651855e-01,9.095433354377746582e-01,9.095008969306945801e-01,9.094586372375488281e-01,9.094163179397583008e-01,9.093739390373229980e-01,9.093316197395324707e-01,9.092892408370971680e-01,9.092469811439514160e-01,9.092047214508056641e-01,9.091623425483703613e-01,9.091200232505798340e-01,9.090777635574340820e-01,9.090354442596435547e-01,9.089931845664978027e-01,9.089508056640625000e-01,9.089085459709167480e-01,9.088663458824157715e-01,9.088239669799804688e-01,9.087817668914794922e-01,9.087393879890441895e-01,9.086971879005432129e-01,9.086549282073974609e-01,9.086126089096069336e-01,9.085704088211059570e-01,9.085282087326049805e-01,9.084858894348144531e-01,9.084436893463134766e-01,9.084013700485229492e-01,9.083591699600219727e-01,9.083169698715209961e-01,9.082747101783752441e-01,9.082325100898742676e-01,9.081903100013732910e-01,9.081480503082275391e-01,9.081058502197265625e-01,9.080635905265808105e-01,9.080214500427246094e-01,9.079793095588684082e-01,9.079370498657226562e-01,9.078948497772216797e-01,9.078527092933654785e-01,9.078104496002197266e-01,9.077683091163635254e-01,9.077260494232177734e-01,9.076839685440063477e-01,9.076418280601501465e-01,9.075995683670043945e-01,9.075574874877929688e-01,9.075152277946472168e-01,9.074731469154357910e-01,9.074310064315795898e-01,9.073888063430786133e-01,9.073467254638671875e-01,9.073045849800109863e-01,9.072623848915100098e-01,9.072203040122985840e-01,9.071781039237976074e-01,9.071360230445861816e-01,9.070939421653747559e-01,9.070518016815185547e-01,9.070097208023071289e-01
8.635327219963073730e-01,8.634945750236511230e-01,8.634563684463500977e-01,8.634182214736938477e-01,8.633800745010375977e-01,8.633418679237365723e-01,8.633037805557250977e-01,8.632656931877136230e-01,8.632274866104125977e-01,8.631893396377563477e-01,8.631511926651000977e-01,8.631130456924438477e-01,8.630749583244323730e-01,8.630368113517761230e-01,8.629987239837646484e-01,8.629605174064636230e-01,8.629224300384521484e-01,8.628843426704406738e-01,8.628461956977844238e-01,8.628081083297729492e-01,8.627700209617614746e-01,8.627318739891052246e-01,8.626938462257385254e-01,8.626556992530822754e-01,8.626176118850708008e-01,8.625795841217041016e-01,8.625414371490478516e-01,8.625034093856811523e-01,8.624653816223144531e-01,8.624272346496582031e-01,8.623892068862915039e-01,8.623510599136352539e-01,8.623130321502685547e-01,8.622750043869018555e-01,8.622369170188903809e-01,8.621988892555236816e-01,8.621608018875122070e-01,8.621227741241455078e-01,8.620847463607788086e-01,8.620466589927673340e-01,8.620086312294006348e-01,8.619706630706787109e-01,8.619325757026672363e-01,8.618946075439453125e-01,8.618565201759338379e-01,8.618184924125671387e-01,8.617805242538452148e-01,8.617424964904785156e-01,8.617044687271118164e-01,8.616665005683898926e-01,8.616284728050231934e-01,8.615905046463012695e-01,8.615524768829345703e-01,8.615145087242126465e-01,8.614765405654907227e-01,8.614385128021240234e-01,8.614005446434020996e-01,8.613625764846801758e-01,8.613245487213134766e-01,8.612866401672363281e-01,8.612486124038696289e-01,8.612107038497924805e-01,8.611727356910705566e-01,8.611347079277038574e-01,8.610967993736267090e-01,8.610588312149047852e-01,8.610208630561828613e-01,8.609829545021057129e-01,8.609449863433837891e-01,8.609070777893066406e-01,8.608691692352294922e-01,8.608312010765075684e-01,8.607932925224304199e-01,8.607553243637084961e-01,8.607174158096313477e-01,8.606795072555541992e-01,8.606415390968322754e-01,8.606036901473999023e-01,8.605658411979675293e-01,8.605278730392456055e-01
8.212964534759521484e-01,8.212619423866271973e-01,8.212274909019470215e-01,8.211929202079772949e-01,8.211584091186523438e-01,8.211239576339721680e-01,8.210893869400024414e-01,8.210549354553222656e-01,8.210203647613525391e-01,8.209858536720275879e-01,8.209514021873474121e-01,8.209168910980224609e-01,8.208823800086975098e-01,8.208478689193725586e-01,8.208134174346923828e-01,8.207789659500122070e-01,8.207444548606872559e-01,8.207100033760070801e-01,8.206755518913269043e-01,8.206410408020019531e-01,8.206065893173217773e-01,8.205720782279968262e-01,8.205376267433166504e-01,8.205031752586364746e-01,8.204687237739562988e-01,8.204342722892761230e-01,8.203998208045959473e-01,8.203653693199157715e-01,8.203309178352355957e-01,8.202964663505554199e-01,8.202620148658752441e-01,8.202276229858398438e-01,8.201931118965148926e-01,8.201587200164794922e-01,8.201243281364440918e-01,8.200898766517639160e-01,8.200554847717285156e-01,8.200209736824035645e-01,8.199865818023681641e-01,8.199522495269775391e-01,8.199177384376525879e-01,8.198834061622619629e-01,8.198489546775817871e-01,8.198145627975463867e-01,8.197801709175109863e-01,8.197457194328308105e-01,8.197113871574401855e-01,8.196769952774047852e-01,8.196426033973693848e-01,8.196082115173339844e-01,8.195737600326538086e-01,8.195394277572631836e-01,8.195050954818725586e-01,8.194706439971923828e-01,8.194363117218017578e-01,8.194019794464111328e-01,8.193675875663757324e-01,8.193332552909851074e-01,8.192988038063049316e-01,8.192644715309143066e-01,8.192301988601684570e-01,8.191957473754882812e-01,8.191614747047424316e-01,8.191270828247070312e-01,8.190927505493164062e-01,8.190584182739257812e-01,8.190240263938903809e-01,8.189897537231445312e-01,8.189554214477539062e-01,8.189210891723632812e-01,8.188867568969726562e-01,8.188524246215820312e-01,8.188180923461914062e-01,8.187838196754455566e-01,8.187494874000549316e-01,8.187151551246643066e-01,8.186808824539184570e-01,8.186465501785278320e-01,8.186122775077819824e-01,8.185779452323913574e-01
7.829992771148681641e-01,7.829678654670715332e-01,7.829365134239196777e-01,7.829051613807678223e-01,7.828737497329711914e-01,7.828423976898193359e-01,7.828109860420227051e-01,7.827796339988708496e-01,7.827483415603637695e-01,7.827169299125671387e-01,7.826855778694152832e-01,7.826542854309082031e-01,7.826228737831115723e-01,7.825915217399597168e-01,7.825601696968078613e-01,7.825288176536560059e-01,7.824975252151489258e-01,7.824661135673522949e-01,7.824348211288452148e-01,7.824034094810485840e-01,7.823721170425415039e-01,7.823408246040344238e-01,7.823094725608825684e-01,7.822781801223754883e-01,7.822468876838684082e-01,7.822154760360717773e-01,7.821841835975646973e-01,7.821528315544128418e-01,7.821215391159057617e-01,7.820902466773986816e-01,7.820588946342468262e-01,7.820276618003845215e-01,7.819963693618774414e-01,7.819650173187255859e-01,7.819337844848632812e-01,7.819024324417114258e-01,7.818711400032043457e-01,7.818399071693420410e-01,7.818085551261901855e-01,7.817773222923278809e-01,7.817459702491760254e-01,7.817147374153137207e-01,7.816834449768066406e-01,7.816521525382995605e-01,7.816209197044372559e-01,7.815896868705749512e-01,7.815583348274230957e-01,7.815271019935607910e-01,7.814958095550537109e-01,7.814645767211914062e-01,7.814333438873291016e-01,7.814020514488220215e-01,7.813708186149597168e-01,7.813395857810974121e-01,7.813082933425903320e-01,7.812770605087280273e-01,7.812457680702209473e-01,7.812145948410034180e-01,7.811833620071411133e-01,7.811520695686340332e-01,7.811208963394165039e-01,7.810896635055541992e-01,7.810584306716918945e-01,7.810271978378295898e-01,7.809959650039672852e-01,7.809647321701049805e-01,7.809335589408874512e-01,7.809022665023803711e-01,7.808710932731628418e-01,7.808398604393005371e-01,7.808086872100830078e-01,7.807775139808654785e-01,7.807462811470031738e-01,7.807150483131408691e-01,7.806839346885681152e-01,7.806526422500610352e-01,7.806215286254882812e-01,7.805902957916259766e-01,7.805591225624084473e-01,7.805279493331909180e-01
7.481145262718200684e-01,7.480859160423278809e-01,7.480571866035461426e-01,7.480285763740539551e-01,7.479999065399169922e-01,7.479712963104248047e-01,7.479426860809326172e-01,7.479140162467956543e-01,7.478854060173034668e-01,7.478567957878112793e-01,7.478281259536743164e-01,7.477995157241821289e-01,7.477709054946899414e-01,7.477422952651977539e-01,7.477136850357055664e-01,7.476850152015686035e-01,7.476564645767211914e-01,7.476277947425842285e-01,7.475991845130920410e-01,7.475706338882446289e-01,7.475419640541076660e-01,7.475134134292602539e-01,7.474848031997680664e-01,7.474561929702758789e-01,7.474276423454284668e-01,7.473989725112915039e-01,7.473704218864440918e-01,7.473418712615966797e-01,7.473132014274597168e-01,7.472846508026123047e-01,7.472561001777648926e-01,7.472274899482727051e-01,7.471989393234252930e-01,7.471703290939331055e-01,7.471417784690856934e-01,7.471132278442382812e-01,7.470846176147460938e-01,7.470560669898986816e-01,7.470274567604064941e-01,7.469989061355590820e-01,7.469703555107116699e-01,7.469418048858642578e-01,7.469132542610168457e-01,7.468847036361694336e-01,7.468560934066772461e-01,7.468276023864746094e-01,7.467989921569824219e-01,7.467705011367797852e-01,7.467419505119323730e-01,7.467133998870849609e-01,7.466848492622375488e-01,7.466563582420349121e-01,7.466278076171875000e-01,7.465992569923400879e-01,7.465707063674926758e-01,7.465422153472900391e-01,7.465137243270874023e-01,7.464851140975952148e-01,7.464566230773925781e-01,7.464281320571899414e-01,7.463995814323425293e-01,7.463710904121398926e-01,7.463425397872924805e-01,7.463140487670898438e-01,7.462855577468872070e-01,7.462570071220397949e-01,7.462285161018371582e-01,7.462000250816345215e-01,7.461715340614318848e-01,7.461430430412292480e-01,7.461144924163818359e-01,7.460860610008239746e-01,7.460575699806213379e-01,7.460290193557739258e-01,7.460005879402160645e-01,7.459720373153686523e-01,7.459436058998107910e-01,7.459151148796081543e-01,7.458866238594055176e-01,7.458581924438476562e-01
