5.000000000000000000e+00,5.000000000000000000e+00,5.000000000000000000e+00,5.000000000000000000e+00,5.000000000000000000e+00,5.000000000000000000e+00,5.000000000000000000e+00,5.000000000000000000e+00,5.000000000000000000e+00,5.000000000000000000e+00,5.000000000000000000e+00,5.000000000000000000e+00,5.000000000000000000e+00,5.000000000000000000e+00,5.000000000000000000e+00,5.000000000000000000e+00,5.000000000000000000e+00,5.000000000000000000e+00,5.000000000000000000e+00,5.000000000000000000e+00,5.000000000000000000e+00,5.000000000000000000e+00,5.000000000000000000e+00,5.000000000000000000e+00,5.000000000000000000e+00,5.000000000000000000e+00,5.000000000000000000e+00,5.000000000000000000e+00,5.000000000000000000e+00,5.000000000000000000e+00,5.000000000000000000e+00,5.000000000000000000e+00,5.000000000000000000e+00,5.000000000000000000e+00,5.000000000000000000e+00,5.000000000000000000e+00,5.000000000000000000e+00,5.000000000000000000e+00,5.000000000000000000e+00,5.000000000000000000e+00,5.000000000000000000e+00,4.494585037231445312e+00,4.330906391143798828e+00,4.178730487823486328e+00,4.036885738372802734e+00,3.904354572296142578e+00,3.780248641967773438e+00,3.663789510726928711e+00,3.554291486740112305e+00,3.451148748397827148e+00,3.353823184967041016e+00,3.261836290359497070e+00,3.174760818481445312e+00,3.092213630676269531e+00,3.013849973678588867e+00,2.939360380172729492e+00,2.868463754653930664e+00,2.800906896591186523e+00,2.736458539962768555e+00,2.674909591674804688e+00,2.616068601608276367e+00,2.559760332107543945e+00,2.505825281143188477e+00,2.454115867614746094e+00,2.404497385025024414e+00,2.356845855712890625e+00,2.311046123504638672e+00,2.266992568969726562e+00,2.224586963653564453e+00,2.183738946914672852e+00,2.144363641738891602e+00,2.106383323669433594e+00,2.069725036621093750e+00,2.034320831298828125e+00,2.000107526779174805e+00,1.967026114463806152e+00,1.935020923614501953e+00,1.904040694236755371e+00,1.874036788940429688e+00,1.844963788986206055e+00
5.000000000000000000e+00,5.000000000000000000e+00,5.000000000000000000e+00,5.000000000000000000e+00,5.000000000000000000e+00,5.000000000000000000e+00,5.000000000000000000e+00,5.000000000000000000e+00,5.000000000000000000e+00,5.000000000000000000e+00,5.000000000000000000e+00,5.000000000000000000e+00,5.000000000000000000e+00,5.000000000000000000e+00,5.000000000000000000e+00,5.000000000000000000e+00,5.000000000000000000e+00,5.000000000000000000e+00,5.000000000000000000e+00,5.000000000000000000e+00,5.000000000000000000e+00,5.000000000000000000e+00,5.000000000000000000e+00,5.000000000000000000e+00,5.000000000000000000e+00,5.000000000000000000e+00,5.000000000000000000e+00,5.000000000000000000e+00,5.000000000000000000e+00,5.000000000000000000e+00,2.843104839324951172e+00,2.809422016143798828e+00,2.828124523162841797e+00,5.000000000000000000e+00,5.000000000000000000e+00,5.000000000000000000e+00,5.000000000000000000e+00,5.000000000000000000e+00,5.000000000000000000e+00,5.000000000000000000e+00,4.671249866485595703e+00,4.494704246520996094e+00,4.331017494201660156e+00,4.178833484649658203e+00,4.036982059478759766e+00,3.904444932937622070e+00,3.780333042144775391e+00,3.663868665695190430e+00,3.554366111755371094e+00,3.451219081878662109e+00,3.353889703750610352e+00,3.261899471282958984e+00,3.174820661544799805e+00,3.092269897460937500e+00,3.013903617858886719e+00,2.939411401748657227e+00,2.868512392044067383e+00,2.800953149795532227e+00,2.736502885818481445e+00,2.674951791763305664e+00,2.616108894348144531e+00,2.559798955917358398e+00,2.505862236022949219e+00,2.454151391983032227e+00,2.404531717300415039e+00,2.356878757476806641e+00,2.311077594757080078e+00,2.267022848129272461e+00,2.224616289138793945e+00,2.183767080307006836e+00,2.144391059875488281e+00,2.106409788131713867e+00,2.069750308990478516e+00,2.034345388412475586e+00,2.000131130218505859e+00,1.967049002647399902e+00,1.935043096542358398e+00,1.904062271118164062e+00,1.874057531356811523e+00,1.844983816146850586e+00
5.000000000000000000e+00,5.000000000000000000e+00,5.000000000000000000e+00,5.000000000000000000e+00,5.000000000000000000e+00,5.000000000000000000e+00,5.000000000000000000e+00,5.000000000000000000e+00,5.000000000000000000e+00,5.000000000000000000e+00,5.000000000000000000e+00,5.000000000000000000e+00,5.000000000000000000e+00,5.000000000000000000e+00,5.000000000000000000e+00,5.000000000000000000e+00,5.000000000000000000e+00,5.000000000000000000e+00,5.000000000000000000e+00,5.000000000000000000e+00,5.000000000000000000e+00,5.000000000000000000e+00,5.000000000000000000e+00,5.000000000000000000e+00,5.000000000000000000e+00,5.000000000000000000e+00,5.000000000000000000e+00,5.000000000000000000e+00,5.000000000000000000e+00,5.000000000000000000e+00,2.850243806838989258e+00,2.816352605819702148e+00,2.830182552337646484e+00,5.000000000000000000e+00,5.000000000000000000e+00,5.000000000000000000e+00,5.000000000000000000e+00,5.000000000000000000e+00,5.000000000000000000e+00,4.862370967864990234e+00,4.671378612518310547e+00,4.494823932647705078e+00,4.331128120422363281e+00,4.178936958312988281e+00,4.037078380584716797e+00,3.904534816741943359e+00,3.780417680740356445e+00,3.663948297500610352e+00,3.554440736770629883e+00,3.451289176940917969e+00,3.353955984115600586e+00,3.261962175369262695e+00,3.174880266189575195e+00,3.092326641082763672e+00,3.013957262039184570e+00,2.939462423324584961e+00,2.868561029434204102e+00,2.800999402999877930e+00,2.736546993255615234e+00,2.674994230270385742e+00,2.616149425506591797e+00,2.559837818145751953e+00,2.505899190902709961e+00,2.454186916351318359e+00,2.404565811157226562e+00,2.356911659240722656e+00,2.311109304428100586e+00,2.267053127288818359e+00,2.224645376205444336e+00,2.183795213699340820e+00,2.144418001174926758e+00,2.106436014175415039e+00,2.069775581359863281e+00,2.034369945526123047e+00,2.000154733657836914e+00,1.967071771621704102e+00,1.935065150260925293e+00,1.904083609580993652e+00,1.874078273773193359e+00,1.845004200935363770e+00
5.000000000000000000e+00,5.000000000000000000e+00,5.000000000000000000e+00,5.000000000000000000e+00,5.000000000000000000e+00,5.000000000000000000e+00,5.000000000000000000e+00,5.000000000000000000e+00,5.000000000000000000e+00,5.000000000000000000e+00,5.000000000000000000e+00,5.000000000000000000e+00,5.000000000000000000e+00,5.000000000000000000e+00,5.000000000000000000e+00,5.000000000000000000e+00,5.000000000000000000e+00,5.000000000000000000e+00,5.000000000000000000e+00,5.000000000000000000e+00,5.000000000000000000e+00,5.000000000000000000e+00,5.000000000000000000e+00,5.000000000000000000e+00,5.000000000000000000e+00,5.000000000000000000e+00,5.000000000000000000e+00,5.000000000000000000e+00,5.000000000000000000e+00,5.000000000000000000e+00,2.863551855087280273e+00,2.826935291290283203e+00,2.820618867874145508e+00,5.000000000000000000e+00,5.000000000000000000e+00,5.000000000000000000e+00,5.000000000000000000e+00,5.000000000000000000e+00,5.000000000000000000e+00,4.862510681152343750e+00,4.671507358551025391e+00,4.494943141937255859e+00,4.331239223480224609e+00,4.179039955139160156e+00,4.037174701690673828e+00,3.904624700546264648e+00,3.780502080917358398e+00,3.664027690887451172e+00,3.554515600204467773e+00,3.451359987258911133e+00,3.354022502899169922e+00,3.262025117874145508e+00,3.174939632415771484e+00,3.092383146286010742e+00,3.014011144638061523e+00,2.939513444900512695e+00,2.868609428405761719e+00,2.801045656204223633e+00,2.736591339111328125e+00,2.675036430358886719e+00,2.616189956665039062e+00,2.559876680374145508e+00,2.505936384201049805e+00,2.454222440719604492e+00,2.404599905014038086e+00,2.356944322586059570e+00,2.311140775680541992e+00,2.267083644866943359e+00,2.224674701690673828e+00,2.183823347091674805e+00,2.144445180892944336e+00,2.106462001800537109e+00,2.069800853729248047e+00,2.034394264221191406e+00,2.000178575515747070e+00,1.967094659805297852e+00,1.935087203979492188e+00,1.904105067253112793e+00,1.874099016189575195e+00,1.845024347305297852e+00
5.000000000000000000e+00,5.000000000000000000e+00,5.000000000000000000e+00,5.000000000000000000e+00,5.000000000000000000e+00,5.000000000000000000e+00,5.000000000000000000e+00,5.000000000000000000e+00,5.000000000000000000e+00,5.000000000000000000e+00,5.000000000000000000e+00,5.000000000000000000e+00,5.000000000000000000e+00,5.000000000000000000e+00,5.000000000000000000e+00,5.000000000000000000e+00,5.000000000000000000e+00,5.000000000000000000e+00,5.000000000000000000e+00,5.000000000000000000e+00,5.000000000000000000e+00,5.000000000000000000e+00,5.000000000000000000e+00,5.000000000000000000e+00,5.000000000000000000e+00,5.000000000000000000e+00,5.000000000000000000e+00,5.000000000000000000e+00,5.000000000000000000e+00,5.000000000000000000e+00,2.899905920028686523e+00,2.845214605331420898e+00,2.854956865310668945e+00,5.000000000000000000e+00,5.000000000000000000e+00,5.000000000000000000e+00,5.000000000000000000e+00,5.000000000000000000e+00,5.000000000000000000e+00,4.862650394439697266e+00,4.671636581420898438e+00,4.495062828063964844e+00,4.331349849700927734e+00,4.179143428802490234e+00,4.037271022796630859e+00,3.904714822769165039e+00,3.780586481094360352e+00,3.664106845855712891e+00,3.554590225219726562e+00,3.451430320739746094e+00,3.354089021682739258e+00,3.262087821960449219e+00,3.174999237060546875e+00,3.092439651489257812e+00,3.014064788818359375e+00,2.939564466476440430e+00,2.868658304214477539e+00,2.801092147827148438e+00,2.736635446548461914e+00,2.675078630447387695e+00,2.616230249404907227e+00,2.559915304183959961e+00,2.505973577499389648e+00,2.454258203506469727e+00,2.404633998870849609e+00,2.356977224349975586e+00,2.311172246932983398e+00,2.267113924026489258e+00,2.224704027175903320e+00,2.183851718902587891e+00,2.144472360610961914e+00,2.106488227844238281e+00,2.069826126098632812e+00,2.034418821334838867e+00,2.000202178955078125e+00,1.967117428779602051e+00,1.935109615325927734e+00,1.904126405715942383e+00,1.874119758605957031e+00,1.845044374465942383e+00
5.000000000000000000e+00,5.000000000000000000e+00,5.000000000000000000e+00,5.000000000000000000e+00,5.000000000000000000e+00,5.000000000000000000e+00,5.000000000000000000e+00,5.000000000000000000e+00,5.000000000000000000e+00,5.000000000000000000e+00,5.000000000000000000e+00,5.000000000000000000e+00,5.000000000000000000e+00,5.000000000000000000e+00,5.000000000000000000e+00,5.000000000000000000e+00,5.000000000000000000e+00,5.000000000000000000e+00,5.000000000000000000e+00,5.000000000000000000e+00,5.000000000000000000e+00,5.000000000000000000e+00,5.000000000000000000e+00,5.000000000000000000e+00,5.000000000000000000e+00,5.000000000000000000e+00,5.000000000000000000e+00,5.000000000000000000e+00,5.000000000000000000e+00,2.848659753799438477e+00,2.905968189239501953e+00,2.900038480758666992e+00,5.000000000000000000e+00,5.000000000000000000e+00,5.000000000000000000e+00,5.000000000000000000e+00,5.000000000000000000e+00,5.000000000000000000e+00,5.000000000000000000e+00,4.862790107727050781e+00,4.671765327453613281e+00,4.495182037353515625e+00,4.331460952758789062e+00,4.179246425628662109e+00,4.037367343902587891e+00,3.904805183410644531e+00,3.780670642852783203e+00,3.664186000823974609e+00,3.554664850234985352e+00,3.451500415802001953e+00,3.354155540466308594e+00,3.262151002883911133e+00,3.175058841705322266e+00,3.092495918273925781e+00,3.014118432998657227e+00,2.939615488052368164e+00,2.868706941604614258e+00,2.801138639450073242e+00,2.736679792404174805e+00,2.675121068954467773e+00,2.616270780563354492e+00,2.559953927993774414e+00,2.506010532379150391e+00,2.454293727874755859e+00,2.404668331146240234e+00,2.357010126113891602e+00,2.311203956604003906e+00,2.267144203186035156e+00,2.224733114242553711e+00,2.183879852294921875e+00,2.144499540328979492e+00,2.106514692306518555e+00,2.069851398468017578e+00,2.034443140029907227e+00,2.000225782394409180e+00,1.967140316963195801e+00,1.935131669044494629e+00,1.904147863388061523e+00,1.874140501022338867e+00,1.845064520835876465e+00
5.000000000000000000e+00,5.000000000000000000e+00,5.000000000000000000e+00,5.000000000000000000e+00,5.000000000000000000e+00,5.000000000000000000e+00,5.000000000000000000e+00,5.000000000000000000e+00,5.000000000000000000e+00,5.000000000000000000e+00,5.000000000000000000e+00,5.000000000000000000e+00,5.000000000000000000e+00,5.000000000000000000e+00,5.000000000000000000e+00,5.000000000000000000e+00,5.000000000000000000e+00,5.000000000000000000e+00,5.000000000000000000e+00,5.000000000000000000e+00,5.000000000000000000e+00,5.000000000000000000e+00,5.000000000000000000e+00,5.000000000000000000e+00,5.000000000000000000e+00,5.000000000000000000e+00,2.816319465637207031e+00,2.759831428527832031e+00,2.786464929580688477e+00,2.807566404342651367e+00,2.818681955337524414e+00,2.841697216033935547e+00,2.888311147689819336e+00,2.958888292312622070e+00,2.989995241165161133e+00,5.000000000000000000e+00,5.000000000000000000e+00,5.000000000000000000e+00,5.000000000000000000e+00,4.862929821014404297e+00,4.671894550323486328e+00,4.495301246643066406e+00,4.331571578979492188e+00,4.179349899291992188e+00,4.037463665008544922e+00,3.904895067214965820e+00,3.780755519866943359e+00,3.664265632629394531e+00,3.554739236831665039e+00,3.451570749282836914e+00,3.354221820831298828e+00,3.262213706970214844e+00,3.175118446350097656e+00,3.092552661895751953e+00,3.014172077178955078e+00,2.939666509628295898e+00,2.868755340576171875e+00,2.801184892654418945e+00,2.736724138259887695e+00,2.675163507461547852e+00,2.616311311721801758e+00,2.559992551803588867e+00,2.506047725677490234e+00,2.454329252243041992e+00,2.404702425003051758e+00,2.357042789459228516e+00,2.311235427856445312e+00,2.267174720764160156e+00,2.224762439727783203e+00,2.183907985687255859e+00,2.144526720046997070e+00,2.106540679931640625e+00,2.069876909255981445e+00,2.034467697143554688e+00,2.000249385833740234e+00,1.967163085937500000e+00,1.935153722763061523e+00,1.904169201850891113e+00,1.874161481857299805e+00,1.845084547996520996e+00
5.000000000000000000e+00,5.000000000000000000e+00,5.000000000000000000e+00,5.000000000000000000e+00,5.000000000000000000e+00,5.000000000000000000e+00,5.000000000000000000e+00,5.000000000000000000e+00,5.000000000000000000e+00,5.000000000000000000e+00,5.000000000000000000e+00,5.000000000000000000e+00,5.000000000000000000e+00,5.000000000000000000e+00,5.000000000000000000e+00,5.000000000000000000e+00,5.000000000000000000e+00,5.000000000000000000e+00,5.000000000000000000e+00,5.000000000000000000e+00,5.000000000000000000e+00,5.000000000000000000e+00,5.000000000000000000e+00,5.000000000000000000e+00,5.000000000000000000e+00,5.000000000000000000e+00,2.792313098907470703e+00,2.767827510833740234e+00,2.786421537399291992e+00,2.778756141662597656e+00,2.780941963195800781e+00,2.810629606246948242e+00,2.842112302780151367e+00,2.885372400283813477e+00,2.943488121032714844e+00,2.995934963226318359e+00,5.000000000000000000e+00,5.000000000000000000e+00,5.000000000000000000e+00,4.863069534301757812e+00,4.672023296356201172e+00,4.495420455932617188e+00,4.331682682037353516e+00,4.179452896118164062e+00,4.037559986114501953e+00,3.904985189437866211e+00,3.780839920043945312e+00,3.664344787597656250e+00,3.554814338684082031e+00,3.451641559600830078e+00,3.354288339614868164e+00,3.262276411056518555e+00,3.175177812576293945e+00,3.092609167098999023e+00,3.014225959777832031e+00,2.939717769622802734e+00,2.868803977966308594e+00,2.801231145858764648e+00,2.736768245697021484e+00,2.675205707550048828e+00,2.616351604461669922e+00,2.560031414031982422e+00,2.506084680557250977e+00,2.454364776611328125e+00,2.404736518859863281e+00,2.357075691223144531e+00,2.311267137527465820e+00,2.267205238342285156e+00,2.224791765213012695e+00,2.183936119079589844e+00,2.144553899765014648e+00,2.106566905975341797e+00,2.069902181625366211e+00,2.034492015838623047e+00,2.000272989273071289e+00,1.967185974121093750e+00,1.935175895690917969e+00,1.904190659523010254e+00,1.874182105064392090e+00,1.845104694366455078e+00
5.000000000000000000e+00,5.000000000000000000e+00,5.000000000000000000e+00,5.000000000000000000e+00,5.000000000000000000e+00,5.000000000000000000e+00,5.000000000000000000e+00,5.000000000000000000e+00,5.000000000000000000e+00,5.000000000000000000e+00,5.000000000000000000e+00,5.000000000000000000e+00,5.000000000000000000e+00,5.000000000000000000e+00,5.000000000000000000e+00,5.000000000000000000e+00,5.000000000000000000e+00,5.000000000000000000e+00,5.000000000000000000e+00,5.000000000000000000e+00,5.000000000000000000e+00,5.000000000000000000e+00,5.000000000000000000e+00,5.000000000000000000e+00,5.000000000000000000e+00,5.000000000000000000e+00,2.819435119628906250e+00,2.787897109985351562e+00,2.802542924880981445e+00,2.781797885894775391e+00,2.776756763458251953e+00,2.788604021072387695e+00,2.818850040435791016e+00,2.849879980087280273e+00,2.939431190490722656e+00,3.007431268692016602e+00,5.000000000000000000e+00,5.000000000000000000e+00,5.000000000000000000e+00,4.863209247589111328e+00,4.672152519226074219e+00,4.495540142059326172e+00,4.331793308258056641e+00,4.179556369781494141e+00,4.037656307220458984e+00,3.905075073242187500e+00,3.780924320220947266e+00,3.664424180984497070e+00,3.554888725280761719e+00,3.451711893081665039e+00,3.354355096817016602e+00,3.262339353561401367e+00,3.175237417221069336e+00,3.092665672302246094e+00,3.014279365539550781e+00,2.939768791198730469e+00,2.868852853775024414e+00,2.801277637481689453e+00,2.736812353134155273e+00,2.675247907638549805e+00,2.616392135620117188e+00,2.560070037841796875e+00,2.506122112274169922e+00,2.454400539398193359e+00,2.404770612716674805e+00,2.357108354568481445e+00,2.311298608779907227e+00,2.267235517501831055e+00,2.224821090698242188e+00,2.183964252471923828e+00,2.144581079483032227e+00,2.106593132019042969e+00,2.069927453994750977e+00,2.034516572952270508e+00,2.000296592712402344e+00,1.967209100723266602e+00,1.935197949409484863e+00,1.904211997985839844e+00,1.874202847480773926e+00,1.845124721527099609e+00
5.000000000000000000e+00,5.000000000000000000e+00,5.000000000000000000e+00,5.000000000000000000e+00,5.000000000000000000e+00,5.000000000000000000e+00,5.000000000000000000e+00,5.000000000000000000e+00,5.000000000000000000e+00,5.000000000000000000e+00,5.000000000000000000e+00,5.000000000000000000e+00,5.000000000000000000e+00,5.000000000000000000e+00,5.000000000000000000e+00,5.000000000000000000e+00,5.000000000000000000e+00,5.000000000000000000e+00,5.000000000000000000e+00,5.000000000000000000e+00,5.000000000000000000e+00,5.000000000000000000e+00,5.000000000000000000e+00,5.000000000000000000e+00,5.000000000000000000e+00,5.000000000000000000e+00,5.000000000000000000e+00,2.802719354629516602e+00,2.813901662826538086e+00,2.787650108337402344e+00,2.789469718933105469e+00,2.790557384490966797e+00,2.813868284225463867e+00,2.850217342376708984e+00,2.934851884841918945e+00,3.020049095153808594e+00,5.000000000000000000e+00,5.000000000000000000e+00,5.000000000000000000e+00,4.863348960876464844e+00,4.672281265258789062e+00,4.495659351348876953e+00,4.331904411315917969e+00,4.179659366607666016e+00,4.037752628326416016e+00,3.905165672302246094e+00,3.781008481979370117e+00,3.664503335952758789e+00,3.554963350296020508e+00,3.451781988143920898e+00,3.354421377182006836e+00,3.262402534484863281e+00,3.175297260284423828e+00,3.092721939086914062e+00,3.014333009719848633e+00,2.939819812774658203e+00,2.868901252746582031e+00,2.801323890686035156e+00,2.736856937408447266e+00,2.675290107727050781e+00,2.616432428359985352e+00,2.560108900070190430e+00,2.506159067153930664e+00,2.454436063766479492e+00,2.404804944992065430e+00,2.357141494750976562e+00,2.311330080032348633e+00,2.267265796661376953e+00,2.224850177764892578e+00,2.183992624282836914e+00,2.144608259201049805e+00,2.106619358062744141e+00,2.069952726364135742e+00,2.034540891647338867e+00,2.000320196151733398e+00,1.967231869697570801e+00,1.935220003128051758e+00,1.904233574867248535e+00,1.874223589897155762e+00,1.845144867897033691e+00
5.000000000000000000e+00,5.000000000000000000e+00,5.000000000000000000e+00,5.000000000000000000e+00,5.000000000000000000e+00,5.000000000000000000e+00,5.000000000000000000e+00,5.000000000000000000e+00,5.000000000000000000e+00,5.000000000000000000e+00,5.000000000000000000e+00,5.000000000000000000e+00,5.000000000000000000e+00,5.000000000000000000e+00,5.000000000000000000e+00,5.000000000000000000e+00,5.000000000000000000e+00,5.000000000000000000e+00,5.000000000000000000e+00,5.000000000000000000e+00,5.000000000000000000e+00,5.000000000000000000e+00,5.000000000000000000e+00,5.000000000000000000e+00,5.000000000000000000e+00,5.000000000000000000e+00,5.000000000000000000e+00,2.809491634368896484e+00,2.813153505325317383e+00,2.795264482498168945e+00,2.783396244049072266e+00,2.788498640060424805e+00,2.809581756591796875e+00,2.853080034255981445e+00,3.002708435058593750e+00,3.023101091384887695e+00,5.000000000000000000e+00,5.000000000000000000e+00,5.000000000000000000e+00,4.863488674163818359e+00,4.672410488128662109e+00,4.495779037475585938e+00,4.332015037536621094e+00,4.179762840270996094e+00,4.037848949432373047e+00,3.905255556106567383e+00,3.781093358993530273e+00,3.664582967758178711e+00,3.555037975311279297e+00,3.451852321624755859e+00,3.354487895965576172e+00,3.262465238571166992e+00,3.175356626510620117e+00,3.092778682708740234e+00,3.014386653900146484e+00,2.939870834350585938e+00,2.868949890136718750e+00,2.801370382308959961e+00,2.736901044845581055e+00,2.675332546234130859e+00,2.616472959518432617e+00,2.560147523880004883e+00,2.506196022033691406e+00,2.454471588134765625e+00,2.404839038848876953e+00,2.357174158096313477e+00,2.311361789703369141e+00,2.267296075820922852e+00,2.224879503250122070e+00,2.184020757675170898e+00,2.144635438919067383e+00,2.106645584106445312e+00,2.069978237152099609e+00,2.034565448760986328e+00,2.000343799591064453e+00,1.967254757881164551e+00,1.935242176055908203e+00,1.904255032539367676e+00,1.874244332313537598e+00,1.845165133476257324e+00
5.000000000000000000e+00,5.000000000000000000e+00,5.000000000000000000e+00,5.000000000000000000e+00,5.000000000000000000e+00,5.000000000000000000e+00,5.000000000000000000e+00,5.000000000000000000e+00,5.000000000000000000e+00,5.000000000000000000e+00,5.000000000000000000e+00,5.000000000000000000e+00,5.000000000000000000e+00,5.000000000000000000e+00,5.000000000000000000e+00,5.000000000000000000e+00,5.000000000000000000e+00,5.000000000000000000e+00,5.000000000000000000e+00,5.000000000000000000e+00,5.000000000000000000e+00,5.000000000000000000e+00,5.000000000000000000e+00,5.000000000000000000e+00,5.000000000000000000e+00,5.000000000000000000e+00,5.000000000000000000e+00,2.817122459411621094e+00,2.815519809722900391e+00,2.805998325347900391e+00,2.782647848129272461e+00,2.790164709091186523e+00,2.810725450515747070e+00,2.850474834442138672e+00,3.003787517547607422e+00,3.018100976943969727e+00,5.000000000000000000e+00,5.000000000000000000e+00,5.000000000000000000e+00,4.863628864288330078e+00,4.672539234161376953e+00,4.495898246765136719e+00,4.332126140594482422e+00,4.179865837097167969e+00,4.037945270538330078e+00,3.905345439910888672e+00,3.781177759170532227e+00,3.664662361145019531e+00,3.555112838745117188e+00,3.451923131942749023e+00,3.354554176330566406e+00,3.262527942657470703e+00,3.175416231155395508e+00,3.092835187911987305e+00,3.014440536499023438e+00,2.939922094345092773e+00,2.868998527526855469e+00,2.801416635513305664e+00,2.736945152282714844e+00,2.675374746322631836e+00,2.616513490676879883e+00,2.560186386108398438e+00,2.506233215332031250e+00,2.454507350921630859e+00,2.404873371124267578e+00,2.357207059860229492e+00,2.311393260955810547e+00,2.267326593399047852e+00,2.224908828735351562e+00,2.184048891067504883e+00,2.144662618637084961e+00,2.106671810150146484e+00,2.070003509521484375e+00,2.034590005874633789e+00,2.000367641448974609e+00,1.967277526855468750e+00,1.935264229774475098e+00,1.904276490211486816e+00,1.874265074729919434e+00,1.845185279846191406e+00
5.000000000000000000e+00,5.000000000000000000e+00,5.000000000000000000e+00,5.000000000000000000e+00,5.000000000000000000e+00,5.000000000000000000e+00,5.000000000000000000e+00,5.000000000000000000e+00,5.000000000000000000e+00,5.000000000000000000e+00,5.000000000000000000e+00,5.000000000000000000e+00,5.000000000000000000e+00,5.000000000000000000e+00,5.000000000000000000e+00,5.000000000000000000e+00,5.000000000000000000e+00,5.000000000000000000e+00,5.000000000000000000e+00,5.000000000000000000e+00,5.000000000000000000e+00,5.000000000000000000e+00,5.000000000000000000e+00,5.000000000000000000e+00,5.000000000000000000e+00,5.000000000000000000e+00,5.000000000000000000e+00,2.826987504959106445e+00,2.831293106079101562e+00,2.790711164474487305e+00,2.771025419235229492e+00,2.777712583541870117e+00,2.811502218246459961e+00,2.841090917587280273e+00,3.017456769943237305e+00,3.024431228637695312e+00,5.000000000000000000e+00,5.000000000000000000e+00,5.000000000000000000e+00,4.863768100738525391e+00,4.672668457031250000e+00,4.496017932891845703e+00,4.332236766815185547e+00,4.179969310760498047e+00,4.038041591644287109e+00,3.905435562133789062e+00,3.781262159347534180e+00,3.664741516113281250e+00,3.555187463760375977e+00,3.451993465423583984e+00,3.354620933532714844e+00,3.262590885162353516e+00,3.175475597381591797e+00,3.092891693115234375e+00,3.014494180679321289e+00,2.939973115921020508e+00,2.869047403335571289e+00,2.801463127136230469e+00,2.736989498138427734e+00,2.675416946411132812e+00,2.616553783416748047e+00,2.560225009918212891e+00,2.506270408630371094e+00,2.454542875289916992e+00,2.404907464981079102e+00,2.357239723205566406e+00,2.311424732208251953e+00,2.267356872558593750e+00,2.224937915802001953e+00,2.184077024459838867e+00,2.144689798355102539e+00,2.106698036193847656e+00,2.070028781890869141e+00,2.034614324569702148e+00,2.000391244888305664e+00,1.967300415039062500e+00,1.935286521911621094e+00,1.904297828674316406e+00,1.874285817146301270e+00,1.845205307006835938e+00
5.000000000000000000e+00,5.000000000000000000e+00,5.000000000000000000e+00,5.000000000000000000e+00,5.000000000000000000e+00,5.000000000000000000e+00,5.000000000000000000e+00,5.000000000000000000e+00,5.000000000000000000e+00,5.000000000000000000e+00,5.000000000000000000e+00,5.000000000000000000e+00,5.000000000000000000e+00,5.000000000000000000e+00,5.000000000000000000e+00,5.000000000000000000e+00,5.000000000000000000e+00,5.000000000000000000e+00,5.000000000000000000e+00,5.000000000000000000e+00,5.000000000000000000e+00,5.000000000000000000e+00,5.000000000000000000e+00,5.000000000000000000e+00,5.000000000000000000e+00,5.000000000000000000e+00,5.000000000000000000e+00,2.832152605056762695e+00,2.844005584716796875e+00,2.790465831756591797e+00,2.783671140670776367e+00,2.788614034652709961e+00,2.795852422714233398e+00,2.830313205718994141e+00,3.030289411544799805e+00,3.039334058761596680e+00,5.000000000000000000e+00,5.000000000000000000e+00,5.000000000000000000e+00,4.863908290863037109e+00,4.672797203063964844e+00,4.496137142181396484e+00,4.332347869873046875e+00,4.180072307586669922e+00,4.038137912750244141e+00,3.905525922775268555e+00,3.781346559524536133e+00,3.664820671081542969e+00,3.555262088775634766e+00,3.452063798904418945e+00,3.354687452316284180e+00,3.262654066085815430e+00,3.175535440444946289e+00,3.092948198318481445e+00,3.014547824859619141e+00,2.940024137496948242e+00,2.869095802307128906e+00,2.801509380340576172e+00,2.737033843994140625e+00,2.675459146499633789e+00,2.616594314575195312e+00,2.560263633728027344e+00,2.506307601928710938e+00,2.454578638076782227e+00,2.404941797256469727e+00,2.357272624969482422e+00,2.311456441879272461e+00,2.267387390136718750e+00,2.224967241287231445e+00,2.184105157852172852e+00,2.144716978073120117e+00,2.106724262237548828e+00,2.070054054260253906e+00,2.034638881683349609e+00,2.000414848327636719e+00,1.967323184013366699e+00,1.935308694839477539e+00,1.904319286346435547e+00,1.874306559562683105e+00,1.845225453376770020e+00
5.000000000000000000e+00,5.000000000000000000e+00,5.000000000000000000e+00,5.000000000000000000e+00,5.000000000000000000e+00,5.000000000000000000e+00,5.000000000000000000e+00,5.000000000000000000e+00,5.000000000000000000e+00,5.000000000000000000e+00,5.000000000000000000e+00,5.000000000000000000e+00,5.000000000000000000e+00,5.000000000000000000e+00,5.000000000000000000e+00,5.000000000000000000e+00,5.000000000000000000e+00,5.000000000000000000e+00,5.000000000000000000e+00,5.000000000000000000e+00,5.000000000000000000e+00,5.000000000000000000e+00,5.000000000000000000e+00,5.000000000000000000e+00,5.000000000000000000e+00,5.000000000000000000e+00,5.000000000000000000e+00,2.808864355087280273e+00,2.813829421997070312e+00,2.789275169372558594e+00,2.783223628997802734e+00,2.789910793304443359e+00,2.803227663040161133e+00,2.845569133758544922e+00,2.929646730422973633e+00,3.018373489379882812e+00,5.000000000000000000e+00,5.000000000000000000e+00,5.000000000000000000e+00,4.864048004150390625e+00,4.672926425933837891e+00,4.496256828308105469e+00,4.332458496093750000e+00,4.180175781250000000e+00,4.038234233856201172e+00,3.905616044998168945e+00,3.781431198120117188e+00,3.664900302886962891e+00,3.555336713790893555e+00,3.452134132385253906e+00,3.354753732681274414e+00,3.262716770172119141e+00,3.175595045089721680e+00,3.093004941940307617e+00,3.014601469039916992e+00,2.940075159072875977e+00,2.869144439697265625e+00,2.801555871963500977e+00,2.737078189849853516e+00,2.675501585006713867e+00,2.616634845733642578e+00,2.560302495956420898e+00,2.506344556808471680e+00,2.454614162445068359e+00,2.404975891113281250e+00,2.357305526733398438e+00,2.311488151550292969e+00,2.267417669296264648e+00,2.224996328353881836e+00,2.184133291244506836e+00,2.144744157791137695e+00,2.106750488281250000e+00,2.070079326629638672e+00,2.034663438796997070e+00,2.000438451766967773e+00,1.967346072196960449e+00,1.935330748558044434e+00,1.904340624809265137e+00,1.874327421188354492e+00,1.845245480537414551e+00
5.000000000000000000e+00,5.000000000000000000e+00,5.000000000000000000e+00,5.000000000000000000e+00,5.000000000000000000e+00,5.000000000000000000e+00,5.000000000000000000e+00,5.000000000000000000e+00,5.000000000000000000e+00,5.000000000000000000e+00,5.000000000000000000e+00,5.000000000000000000e+00,5.000000000000000000e+00,5.000000000000000000e+00,5.000000000000000000e+00,5.000000000000000000e+00,5.000000000000000000e+00,5.000000000000000000e+00,5.000000000000000000e+00,5.000000000000000000e+00,5.000000000000000000e+00,5.000000000000000000e+00,5.000000000000000000e+00,5.000000000000000000e+00,5.000000000000000000e+00,5.000000000000000000e+00,5.000000000000000000e+00,2.796596527099609375e+00,2.793177843093872070e+00,2.745208740234375000e+00,2.740490674972534180e+00,2.792423486709594727e+00,2.815725803375244141e+00,2.863545656204223633e+00,2.908880710601806641e+00,3.010649681091308594e+00,5.000000000000000000e+00,5.000000000000000000e+00,5.000000000000000000e+00,4.864187717437744141e+00,4.673055171966552734e+00,4.496376037597656250e+00,4.332569599151611328e+00,4.180278778076171875e+00,4.038330554962158203e+00,3.905705928802490234e+00,3.781515598297119141e+00,3.664979696273803711e+00,3.555411577224731445e+00,3.452204704284667969e+00,3.354820251464843750e+00,3.262779712677001953e+00,3.175654411315917969e+00,3.093061208724975586e+00,3.014655351638793945e+00,2.940126419067382812e+00,2.869193077087402344e+00,2.801602125167846680e+00,2.737122297286987305e+00,2.675544023513793945e+00,2.616675138473510742e+00,2.560341358184814453e+00,2.506381750106811523e+00,2.454649686813354492e+00,2.405009984970092773e+00,2.357338190078735352e+00,2.311519622802734375e+00,2.267448186874389648e+00,2.225025653839111328e+00,2.184161663055419922e+00,2.144771337509155273e+00,2.106776714324951172e+00,2.070104598999023438e+00,2.034687757492065430e+00,2.000462293624877930e+00,1.967368841171264648e+00,1.935352921485900879e+00,1.904362082481384277e+00,1.874348163604736328e+00,1.845265626907348633e+00
5.000000000000000000e+00,5.000000000000000000e+00,5.000000000000000000e+00,5.000000000000000000e+00,5.000000000000000000e+00,5.000000000000000000e+00,5.000000000000000000e+00,5.000000000000000000e+00,5.000000000000000000e+00,5.000000000000000000e+00,5.000000000000000000e+00,5.000000000000000000e+00,5.000000000000000000e+00,5.000000000000000000e+00,5.000000000000000000e+00,5.000000000000000000e+00,5.000000000000000000e+00,5.000000000000000000e+00,5.000000000000000000e+00,5.000000000000000000e+00,5.000000000000000000e+00,5.000000000000000000e+00,5.000000000000000000e+00,5.000000000000000000e+00,5.000000000000000000e+00,5.000000000000000000e+00,5.000000000000000000e+00,2.779385805130004883e+00,2.767333745956420898e+00,2.712707996368408203e+00,2.706115245819091797e+00,2.716368436813354492e+00,2.869264602661132812e+00,2.854454994201660156e+00,2.877218484878540039e+00,3.007024765014648438e+00,3.014430761337280273e+00,5.000000000000000000e+00,5.000000000000000000e+00,4.864327430725097656e+00,4.673184394836425781e+00,4.496495723724365234e+00,4.332680225372314453e+00,4.180382251739501953e+00,4.038426876068115234e+00,3.905796051025390625e+00,3.781599998474121094e+00,3.665058851242065430e+00,3.555486202239990234e+00,3.452275037765502930e+00,3.354887008666992188e+00,3.262842416763305664e+00,3.175714015960693359e+00,3.093117713928222656e+00,3.014708995819091797e+00,2.940177202224731445e+00,2.869241952896118164e+00,2.801648616790771484e+00,2.737166404724121094e+00,2.675586223602294922e+00,2.616715669631958008e+00,2.560379981994628906e+00,2.506418943405151367e+00,2.454685449600219727e+00,2.405044078826904297e+00,2.357371091842651367e+00,2.311551094055175781e+00,2.267478466033935547e+00,2.225054979324340820e+00,2.184189796447753906e+00,2.144798517227172852e+00,2.106802940368652344e+00,2.070130109786987305e+00,2.034712314605712891e+00,2.000485897064208984e+00,1.967391967773437500e+00,1.935374975204467773e+00,1.904383420944213867e+00,1.874368906021118164e+00,1.845285654067993164e+00
5.000000000000000000e+00,5.000000000000000000e+00,5.000000000000000000e+00,5.000000000000000000e+00,5.000000000000000000e+00,5.000000000000000000e+00,5.000000000000000000e+00,5.000000000000000000e+00,5.000000000000000000e+00,5.000000000000000000e+00,5.000000000000000000e+00,5.000000000000000000e+00,5.000000000000000000e+00,5.000000000000000000e+00,5.000000000000000000e+00,5.000000000000000000e+00,5.000000000000000000e+00,5.000000000000000000e+00,5.000000000000000000e+00,5.000000000000000000e+00,5.000000000000000000e+00,5.000000000000000000e+00,5.000000000000000000e+00,5.000000000000000000e+00,5.000000000000000000e+00,5.000000000000000000e+00,5.000000000000000000e+00,2.785991907119750977e+00,2.763155221939086914e+00,2.699383258819580078e+00,2.687021017074584961e+00,2.689402580261230469e+00,2.849520206451416016e+00,2.833655834197998047e+00,2.849256277084350586e+00,5.000000000000000000e+00,3.011753320693969727e+00,5.000000000000000000e+00,5.000000000000000000e+00,4.864467144012451172e+00,4.673313617706298828e+00,4.496614933013916016e+00,4.332791328430175781e+00,4.180485248565673828e+00,4.038523197174072266e+00,3.905886411666870117e+00,3.781684398651123047e+00,3.665138244628906250e+00,3.555560827255249023e+00,3.452345371246337891e+00,3.354953289031982422e+00,3.262905597686767578e+00,3.175773859024047852e+00,3.093174219131469727e+00,3.014762639999389648e+00,2.940228223800659180e+00,2.869290351867675781e+00,2.801694869995117188e+00,2.737210988998413086e+00,2.675628423690795898e+00,2.616755962371826172e+00,2.560418605804443359e+00,2.506455898284912109e+00,2.454720973968505859e+00,2.405078411102294922e+00,2.357403993606567383e+00,2.311582565307617188e+00,2.267508745193481445e+00,2.225084066390991211e+00,2.184217929840087891e+00,2.144825696945190430e+00,2.106829166412353516e+00,2.070155382156372070e+00,2.034736633300781250e+00,2.000509500503540039e+00,1.967414855957031250e+00,1.935397028923034668e+00,1.904404997825622559e+00,1.874389648437500000e+00,1.845305800437927246e+00
5.000000000000000000e+00,5.000000000000000000e+00,5.000000000000000000e+00,5.000000000000000000e+00,5.000000000000000000e+00,5.000000000000000000e+00,5.000000000000000000e+00,5.000000000000000000e+00,5.000000000000000000e+00,5.000000000000000000e+00,5.000000000000000000e+00,5.000000000000000000e+00,5.000000000000000000e+00,5.000000000000000000e+00,5.000000000000000000e+00,5.000000000000000000e+00,5.000000000000000000e+00,5.000000000000000000e+00,5.000000000000000000e+00,5.000000000000000000e+00,5.000000000000000000e+00,5.000000000000000000e+00,5.000000000000000000e+00,5.000000000000000000e+00,5.000000000000000000e+00,5.000000000000000000e+00,5.000000000000000000e+00,5.000000000000000000e+00,2.722835540771484375e+00,2.710014820098876953e+00,2.670354604721069336e+00,2.665302038192749023e+00,2.718598604202270508e+00,2.828685522079467773e+00,2.840567588806152344e+00,5.000000000000000000e+00,2.976990461349487305e+00,5.000000000000000000e+00,5.000000000000000000e+00,4.864606857299804688e+00,4.673442840576171875e+00,4.496734619140625000e+00,4.332902431488037109e+00,4.180588722229003906e+00,4.038619518280029297e+00,3.905976533889770508e+00,3.781769275665283203e+00,3.665217876434326172e+00,3.555635452270507812e+00,3.452415704727172852e+00,3.355019807815551758e+00,3.262968301773071289e+00,3.175833225250244141e+00,3.093230962753295898e+00,3.014816284179687500e+00,2.940279245376586914e+00,2.869338989257812500e+00,2.801741361618041992e+00,2.737255096435546875e+00,2.675670862197875977e+00,2.616796731948852539e+00,2.560457229614257812e+00,2.506493091583251953e+00,2.454756498336791992e+00,2.405112504959106445e+00,2.357436895370483398e+00,2.311614274978637695e+00,2.267539024353027344e+00,2.225113391876220703e+00,2.184246063232421875e+00,2.144852876663208008e+00,2.106855392456054688e+00,2.070180654525756836e+00,2.034761190414428711e+00,2.000533103942871094e+00,1.967437624931335449e+00,1.935419201850891113e+00,1.904426455497741699e+00,1.874410390853881836e+00,1.845326066017150879e+00
5.000000000000000000e+00,5.000000000000000000e+00,5.000000000000000000e+00,5.000000000000000000e+00,5.000000000000000000e+00,5.000000000000000000e+00,5.000000000000000000e+00,5.000000000000000000e+00,5.000000000000000000e+00,5.000000000000000000e+00,5.000000000000000000e+00,5.000000000000000000e+00,5.000000000000000000e+00,5.000000000000000000e+00,5.000000000000000000e+00,5.000000000000000000e+00,5.000000000000000000e+00,5.000000000000000000e+00,5.000000000000000000e+00,5.000000000000000000e+00,5.000000000000000000e+00,5.000000000000000000e+00,5.000000000000000000e+00,5.000000000000000000e+00,5.000000000000000000e+00,5.000000000000000000e+00,5.000000000000000000e+00,5.000000000000000000e+00,2.700045347213745117e+00,2.716477394104003906e+00,2.652969598770141602e+00,2.644135236740112305e+00,2.691173315048217773e+00,2.825079917907714844e+00,2.836369991302490234e+00,5.000000000000000000e+00,2.954080104827880859e+00,5.000000000000000000e+00,5.000000000000000000e+00,4.864747047424316406e+00,4.673571586608886719e+00,4.496853828430175781e+00,4.333013534545898438e+00,4.180691719055175781e+00,4.038715839385986328e+00,3.906066656112670898e+00,3.781853675842285156e+00,3.665297031402587891e+00,3.555710315704345703e+00,3.452486276626586914e+00,3.355086326599121094e+00,3.263031244277954102e+00,3.175892829895019531e+00,3.093287467956542969e+00,3.014870166778564453e+00,2.940330505371093750e+00,2.869387626647949219e+00,2.801787614822387695e+00,2.737299442291259766e+00,2.675713062286376953e+00,2.616837024688720703e+00,2.560496091842651367e+00,2.506530046463012695e+00,2.454792022705078125e+00,2.405146598815917969e+00,2.357469558715820312e+00,2.311645984649658203e+00,2.267569541931152344e+00,2.225142717361450195e+00,2.184274196624755859e+00,2.144880056381225586e+00,2.106881618499755859e+00,2.070205926895141602e+00,2.034785509109497070e+00,2.000556707382202148e+00,1.967460513114929199e+00,1.935441255569458008e+00,1.904447793960571289e+00,1.874431133270263672e+00,1.845346212387084961e+00
5.000000000000000000e+00,5.000000000000000000e+00,5.000000000000000000e+00,5.000000000000000000e+00,5.000000000000000000e+00,5.000000000000000000e+00,5.000000000000000000e+00,5.000000000000000000e+00,5.000000000000000000e+00,5.000000000000000000e+00,5.000000000000000000e+00,5.000000000000000000e+00,5.000000000000000000e+00,5.000000000000000000e+00,5.000000000000000000e+00,5.000000000000000000e+00,5.000000000000000000e+00,5.000000000000000000e+00,5.000000000000000000e+00,5.000000000000000000e+00,5.000000000000000000e+00,5.000000000000000000e+00,5.000000000000000000e+00,5.000000000000000000e+00,5.000000000000000000e+00,5.000000000000000000e+00,5.000000000000000000e+00,5.000000000000000000e+00,5.000000000000000000e+00,5.000000000000000000e+00,2.638503789901733398e+00,2.625156402587890625e+00,2.663875818252563477e+00,2.820000886917114258e+00,2.831913948059082031e+00,5.000000000000000000e+00,5.000000000000000000e+00,2.991089105606079102e+00,5.000000000000000000e+00,4.864886760711669922e+00,4.673700809478759766e+00,4.496973514556884766e+00,4.333124160766601562e+00,4.180795192718505859e+00,4.038812637329101562e+00,3.906156539916992188e+00,3.781938076019287109e+00,3.665376424789428711e+00,3.555784940719604492e+00,3.452556610107421875e+00,3.355152845382690430e+00,3.263093948364257812e+00,3.175952434539794922e+00,3.093343973159790039e+00,3.014923810958862305e+00,2.940381526947021484e+00,2.869436502456665039e+00,2.801834106445312500e+00,2.737343549728393555e+00,2.675755262374877930e+00,2.616877555847167969e+00,2.560534954071044922e+00,2.506567478179931641e+00,2.454827785491943359e+00,2.405180692672729492e+00,2.357502460479736328e+00,2.311677455902099609e+00,2.267600059509277344e+00,2.225172042846679688e+00,2.184302568435668945e+00,2.144907236099243164e+00,2.106907844543457031e+00,2.070231199264526367e+00,2.034810066223144531e+00,2.000580310821533203e+00,1.967483282089233398e+00,1.935463666915893555e+00,1.904469251632690430e+00,1.874451875686645508e+00,1.845366239547729492e+00
5.000000000000000000e+00,5.000000000000000000e+00,5.000000000000000000e+00,5.000000000000000000e+00,5.000000000000000000e+00,5.000000000000000000e+00,5.000000000000000000e+00,5.000000000000000000e+00,5.000000000000000000e+00,5.000000000000000000e+00,5.000000000000000000e+00,5.000000000000000000e+00,5.000000000000000000e+00,5.000000000000000000e+00,5.000000000000000000e+00,5.000000000000000000e+00,5.000000000000000000e+00,5.000000000000000000e+00,5.000000000000000000e+00,5.000000000000000000e+00,5.000000000000000000e+00,5.000000000000000000e+00,5.000000000000000000e+00,5.000000000000000000e+00,5.000000000000000000e+00,5.000000000000000000e+00,5.000000000000000000e+00,5.000000000000000000e+00,5.000000000000000000e+00,5.000000000000000000e+00,2.651307344436645508e+00,2.607340097427368164e+00,2.636472702026367188e+00,2.814572334289550781e+00,2.828499317169189453e+00,5.000000000000000000e+00,5.000000000000000000e+00,5.000000000000000000e+00,5.000000000000000000e+00,4.865026473999023438e+00,4.673829555511474609e+00,4.497092723846435547e+00,4.333235263824462891e+00,4.180898189544677734e+00,4.038908481597900391e+00,3.906247138977050781e+00,3.782022476196289062e+00,3.665455579757690430e+00,3.555859565734863281e+00,3.452626943588256836e+00,3.355219364166259766e+00,3.263157129287719727e+00,3.176012277603149414e+00,3.093400239944458008e+00,3.014977455139160156e+00,2.940432548522949219e+00,2.869485139846801758e+00,2.801880359649658203e+00,2.737388134002685547e+00,2.675797700881958008e+00,2.616917848587036133e+00,2.560573577880859375e+00,2.506604433059692383e+00,2.454863309860229492e+00,2.405215024948120117e+00,2.357535362243652344e+00,2.311708927154541016e+00,2.267630338668823242e+00,2.225201129913330078e+00,2.184330701828002930e+00,2.144934415817260742e+00,2.106934070587158203e+00,2.070256471633911133e+00,2.034834384918212891e+00,2.000603914260864258e+00,1.967506170272827148e+00,1.935485720634460449e+00,1.904490709304809570e+00,1.874472618103027344e+00,1.845386385917663574e+00
5.000000000000000000e+00,5.000000000000000000e+00,5.000000000000000000e+00,5.000000000000000000e+00,5.000000000000000000e+00,5.000000000000000000e+00,5.000000000000000000e+00,5.000000000000000000e+00,5.000000000000000000e+00,5.000000000000000000e+00,5.000000000000000000e+00,5.000000000000000000e+00,5.000000000000000000e+00,5.000000000000000000e+00,5.000000000000000000e+00,5.000000000000000000e+00,5.000000000000000000e+00,5.000000000000000000e+00,5.000000000000000000e+00,5.000000000000000000e+00,5.000000000000000000e+00,5.000000000000000000e+00,5.000000000000000000e+00,5.000000000000000000e+00,5.000000000000000000e+00,5.000000000000000000e+00,5.000000000000000000e+00,5.000000000000000000e+00,5.000000000000000000e+00,5.000000000000000000e+00,2.670408725738525391e+00,2.601598024368286133e+00,2.624401092529296875e+00,2.806639432907104492e+00,2.825093269348144531e+00,5.000000000000000000e+00,5.000000000000000000e+00,5.000000000000000000e+00,5.000000000000000000e+00,4.865166187286376953e+00,4.673958778381347656e+00,4.497212409973144531e+00,4.333345890045166016e+00,4.181001663208007812e+00,4.039005279541015625e+00,3.906337022781372070e+00,3.782107353210449219e+00,3.665535449981689453e+00,3.555934190750122070e+00,3.452697515487670898e+00,3.355285882949829102e+00,3.263220071792602539e+00,3.176071643829345703e+00,3.093456983566284180e+00,3.015031099319458008e+00,2.940483570098876953e+00,2.869533538818359375e+00,2.801926851272583008e+00,2.737432241439819336e+00,2.675840139389038086e+00,2.616958618164062500e+00,2.560612201690673828e+00,2.506641626358032227e+00,2.454898834228515625e+00,2.405249357223510742e+00,2.357568264007568359e+00,2.311740636825561523e+00,2.267660617828369141e+00,2.225230455398559570e+00,2.184358835220336914e+00,2.144961595535278320e+00,2.106960296630859375e+00,2.070281982421875000e+00,2.034858942031860352e+00,2.000627517700195312e+00,1.967529058456420898e+00,1.935507774353027344e+00,1.904512047767639160e+00,1.874493479728698730e+00,1.845406413078308105e+00
5.000000000000000000e+00,5.000000000000000000e+00,5.000000000000000000e+00,5.000000000000000000e+00,5.000000000000000000e+00,5.000000000000000000e+00,5.000000000000000000e+00,5.000000000000000000e+00,5.000000000000000000e+00,5.000000000000000000e+00,5.000000000000000000e+00,5.000000000000000000e+00,5.000000000000000000e+00,5.000000000000000000e+00,5.000000000000000000e+00,5.000000000000000000e+00,5.000000000000000000e+00,5.000000000000000000e+00,5.000000000000000000e+00,5.000000000000000000e+00,5.000000000000000000e+00,5.000000000000000000e+00,5.000000000000000000e+00,5.000000000000000000e+00,5.000000000000000000e+00,5.000000000000000000e+00,5.000000000000000000e+00,5.000000000000000000e+00,5.000000000000000000e+00,5.000000000000000000e+00,2.662052631378173828e+00,2.609597682952880859e+00,2.635184764862060547e+00,2.803717851638793945e+00,2.822368144989013672e+00,5.000000000000000000e+00,5.000000000000000000e+00,5.000000000000000000e+00,5.000000000000000000e+00,4.865306377410888672e+00,4.674088001251220703e+00,4.497331619262695312e+00,4.333456993103027344e+00,4.181104660034179688e+00,4.039101600646972656e+00,3.906427145004272461e+00,3.782191753387451172e+00,3.665614604949951172e+00,3.556009292602539062e+00,3.452768087387084961e+00,3.355352163314819336e+00,3.263282775878906250e+00,3.176131248474121094e+00,3.093513488769531250e+00,3.015084981918334961e+00,2.940534830093383789e+00,2.869582176208496094e+00,2.801973104476928711e+00,2.737476348876953125e+00,2.675882339477539062e+00,2.616998910903930664e+00,2.560651063919067383e+00,2.506678581237792969e+00,2.454934358596801758e+00,2.405283451080322266e+00,2.357600927352905273e+00,2.311772108078002930e+00,2.267691135406494141e+00,2.225259780883789062e+00,2.184386968612670898e+00,2.144988775253295898e+00,2.106986522674560547e+00,2.070307254791259766e+00,2.034883499145507812e+00,2.000651359558105469e+00,1.967551827430725098e+00,1.935529947280883789e+00,1.904533505439758301e+00,1.874514222145080566e+00,1.845426559448242188e+00
5.000000000000000000e+00,5.000000000000000000e+00,5.000000000000000000e+00,5.000000000000000000e+00,5.000000000000000000e+00,5.000000000000000000e+00,5.000000000000000000e+00,5.000000000000000000e+00,5.000000000000000000e+00,5.000000000000000000e+00,5.000000000000000000e+00,5.000000000000000000e+00,5.000000000000000000e+00,5.000000000000000000e+00,5.000000000000000000e+00,5.000000000000000000e+00,5.000000000000000000e+00,5.000000000000000000e+00,5.000000000000000000e+00,5.000000000000000000e+00,5.000000000000000000e+00,5.000000000000000000e+00,5.000000000000000000e+00,5.000000000000000000e+00,5.000000000000000000e+00,5.000000000000000000e+00,5.000000000000000000e+00,5.000000000000000000e+00,5.000000000000000000e+00,5.000000000000000000e+00,2.679777622222900391e+00,2.650911569595336914e+00,2.846733808517456055e+00,2.821676969528198242e+00,2.836372137069702148e+00,5.000000000000000000e+00,5.000000000000000000e+00,5.000000000000000000e+00,5.000000000000000000e+00,4.865446090698242188e+00,4.674217224121093750e+00,4.497451305389404297e+00,4.333568096160888672e+00,4.181208133697509766e+00,4.039197921752929688e+00,3.906517267227172852e+00,3.782276153564453125e+00,3.665693998336791992e+00,3.556083917617797852e+00,3.452838420867919922e+00,3.355418920516967773e+00,3.263345718383789062e+00,3.176190853118896484e+00,3.093569993972778320e+00,3.015138626098632812e+00,2.940585851669311523e+00,2.869631052017211914e+00,2.802019596099853516e+00,2.737520694732666016e+00,2.675924539566040039e+00,2.617039442062377930e+00,2.560689926147460938e+00,2.506715774536132812e+00,2.454970121383666992e+00,2.405317544937133789e+00,2.357633829116821289e+00,2.311803817749023438e+00,2.267721414566040039e+00,2.225289106369018555e+00,2.184415340423583984e+00,2.145015954971313477e+00,2.107012748718261719e+00,2.070332527160644531e+00,2.034907817840576172e+00,2.000674962997436523e+00,1.967574954032897949e+00,1.935552000999450684e+00,1.904554843902587891e+00,1.874534964561462402e+00,1.845446705818176270e+00
5.000000000000000000e+00,5.000000000000000000e+00,5.000000000000000000e+00,5.000000000000000000e+00,5.000000000000000000e+00,5.000000000000000000e+00,5.000000000000000000e+00,5.000000000000000000e+00,5.000000000000000000e+00,5.000000000000000000e+00,5.000000000000000000e+00,5.000000000000000000e+00,5.000000000000000000e+00,5.000000000000000000e+00,5.000000000000000000e+00,5.000000000000000000e+00,5.000000000000000000e+00,5.000000000000000000e+00,5.000000000000000000e+00,5.000000000000000000e+00,5.000000000000000000e+00,5.000000000000000000e+00,5.000000000000000000e+00,5.000000000000000000e+00,5.000000000000000000e+00,5.000000000000000000e+00,5.000000000000000000e+00,5.000000000000000000e+00,5.000000000000000000e+00,5.000000000000000000e+00,2.711652517318725586e+00,2.716583728790283203e+00,2.862316131591796875e+00,2.853280782699584961e+00,5.000000000000000000e+00,5.000000000000000000e+00,5.000000000000000000e+00,5.000000000000000000e+00,5.000000000000000000e+00,4.865584850311279297e+00,4.674345970153808594e+00,4.497570991516113281e+00,4.333679199218750000e+00,4.181311607360839844e+00,4.039294242858886719e+00,3.906607627868652344e+00,3.782360553741455078e+00,3.665773153305053711e+00,3.556158542633056641e+00,3.452908754348754883e+00,3.355485439300537109e+00,3.263408899307250977e+00,3.176250696182250977e+00,3.093626499176025391e+00,3.015192270278930664e+00,2.940637111663818359e+00,2.869679689407348633e+00,2.802066087722778320e+00,2.737565040588378906e+00,2.675966739654541016e+00,2.617079734802246094e+00,2.560728549957275391e+00,2.506752967834472656e+00,2.455005884170532227e+00,2.405351877212524414e+00,2.357666730880737305e+00,2.311835289001464844e+00,2.267751932144165039e+00,2.225318193435668945e+00,2.184443473815917969e+00,2.145043134689331055e+00,2.107038974761962891e+00,2.070357799530029297e+00,2.034932374954223633e+00,2.000698566436767578e+00,1.967597723007202148e+00,1.935574173927307129e+00,1.904576539993286133e+00,1.874555706977844238e+00,1.845466732978820801e+00
5.000000000000000000e+00,5.000000000000000000e+00,5.000000000000000000e+00,5.000000000000000000e+00,5.000000000000000000e+00,5.000000000000000000e+00,5.000000000000000000e+00,5.000000000000000000e+00,5.000000000000000000e+00,5.000000000000000000e+00,5.000000000000000000e+00,5.000000000000000000e+00,5.000000000000000000e+00,5.000000000000000000e+00,5.000000000000000000e+00,5.000000000000000000e+00,5.000000000000000000e+00,5.000000000000000000e+00,5.000000000000000000e+00,5.000000000000000000e+00,5.000000000000000000e+00,5.000000000000000000e+00,5.000000000000000000e+00,5.000000000000000000e+00,5.000000000000000000e+00,5.000000000000000000e+00,5.000000000000000000e+00,5.000000000000000000e+00,5.000000000000000000e+00,5.000000000000000000e+00,2.740497350692749023e+00,2.763106107711791992e+00,2.879223823547363281e+00,2.884142160415649414e+00,5.000000000000000000e+00,5.000000000000000000e+00,5.000000000000000000e+00,5.000000000000000000e+00,5.000000000000000000e+00,4.865723133087158203e+00,4.674474716186523438e+00,4.497690677642822266e+00,4.333789825439453125e+00,4.181415081024169922e+00,4.039390563964843750e+00,3.906697750091552734e+00,3.782445430755615234e+00,3.665853023529052734e+00,3.556233167648315430e+00,3.452979087829589844e+00,3.355551958084106445e+00,3.263471603393554688e+00,3.176310062408447266e+00,3.093683242797851562e+00,3.015245914459228516e+00,2.940688133239746094e+00,2.869728326797485352e+00,2.802112340927124023e+00,2.737609386444091797e+00,2.676009416580200195e+00,2.617120265960693359e+00,2.560767173767089844e+00,2.506789922714233398e+00,2.455041408538818359e+00,2.405385971069335938e+00,2.357699632644653320e+00,2.311866998672485352e+00,2.267782211303710938e+00,2.225347518920898438e+00,2.184471607208251953e+00,2.145070314407348633e+00,2.107065200805664062e+00,2.070383310317993164e+00,2.034956932067871094e+00,2.000722169876098633e+00,1.967620611190795898e+00,1.935596227645874023e+00,1.904597878456115723e+00,1.874576449394226074e+00,1.845486998558044434e+00
5.000000000000000000e+00,5.000000000000000000e+00,5.000000000000000000e+00,5.000000000000000000e+00,5.000000000000000000e+00,5.000000000000000000e+00,5.000000000000000000e+00,5.000000000000000000e+00,5.000000000000000000e+00,5.000000000000000000e+00,5.000000000000000000e+00,5.000000000000000000e+00,5.000000000000000000e+00,5.000000000000000000e+00,5.000000000000000000e+00,5.000000000000000000e+00,5.000000000000000000e+00,5.000000000000000000e+00,5.000000000000000000e+00,5.000000000000000000e+00,5.000000000000000000e+00,5.000000000000000000e+00,5.000000000000000000e+00,5.000000000000000000e+00,5.000000000000000000e+00,5.000000000000000000e+00,5.000000000000000000e+00,5.000000000000000000e+00,5.000000000000000000e+00,2.826068878173828125e+00,2.770967483520507812e+00,2.808590173721313477e+00,2.889817714691162109e+00,2.915544271469116211e+00,5.000000000000000000e+00,5.000000000000000000e+00,5.000000000000000000e+00,5.000000000000000000e+00,5.000000000000000000e+00,4.865861415863037109e+00,4.674602508544921875e+00,4.497809886932373047e+00,4.333900928497314453e+00,4.181518077850341797e+00,4.039486885070800781e+00,3.906787872314453125e+00,3.782529830932617188e+00,3.665932178497314453e+00,3.556308031082153320e+00,3.453049898147583008e+00,3.355618238449096680e+00,3.263534545898437500e+00,3.176369667053222656e+00,3.093739748001098633e+00,3.015299797058105469e+00,2.940739393234252930e+00,2.869776725769042969e+00,2.802158594131469727e+00,2.737653493881225586e+00,2.676051616668701172e+00,2.617160797119140625e+00,2.560806035995483398e+00,2.506827116012573242e+00,2.455076932907104492e+00,2.405420064926147461e+00,2.357732295989990234e+00,2.311898469924926758e+00,2.267812728881835938e+00,2.225376844406127930e+00,2.184499740600585938e+00,2.145097494125366211e+00,2.107091426849365234e+00,2.070408582687377930e+00,2.034981250762939453e+00,2.000746011734008789e+00,1.967643499374389648e+00,1.935618400573730469e+00,1.904619336128234863e+00,1.874597191810607910e+00,1.845507144927978516e+00
5.000000000000000000e+00,5.000000000000000000e+00,5.000000000000000000e+00,5.000000000000000000e+00,5.000000000000000000e+00,5.000000000000000000e+00,5.000000000000000000e+00,5.000000000000000000e+00,5.000000000000000000e+00,5.000000000000000000e+00,5.000000000000000000e+00,5.000000000000000000e+00,5.000000000000000000e+00,5.000000000000000000e+00,5.000000000000000000e+00,5.000000000000000000e+00,5.000000000000000000e+00,5.000000000000000000e+00,5.000000000000000000e+00,5.000000000000000000e+00,5.000000000000000000e+00,5.000000000000000000e+00,5.000000000000000000e+00,5.000000000000000000e+00,5.000000000000000000e+00,5.000000000000000000e+00,5.000000000000000000e+00,5.000000000000000000e+00,5.000000000000000000e+00,2.859497070312500000e+00,2.814099788665771484e+00,2.914851665496826172e+00,2.900489807128906250e+00,5.000000000000000000e+00,5.000000000000000000e+00,5.000000000000000000e+00,5.000000000000000000e+00,5.000000000000000000e+00,5.000000000000000000e+00,4.866000175476074219e+00,4.674730300903320312e+00,4.497928142547607422e+00,4.334012031555175781e+00,4.181621551513671875e+00,4.039583683013916016e+00,3.906877994537353516e+00,3.782614231109619141e+00,3.666011571884155273e+00,3.556382656097412109e+00,3.453120231628417969e+00,3.355685234069824219e+00,3.263597488403320312e+00,3.176429271697998047e+00,3.093796253204345703e+00,3.015353441238403320e+00,2.940790414810180664e+00,2.869825601577758789e+00,2.802205324172973633e+00,2.737697839736938477e+00,2.676093816757202148e+00,2.617201089859008789e+00,2.560844898223876953e+00,2.506864309310913086e+00,2.455112695693969727e+00,2.405454158782958984e+00,2.357765197753906250e+00,2.311929941177368164e+00,2.267843008041381836e+00,2.225405931472778320e+00,2.184528112411499023e+00,2.145124673843383789e+00,2.107117652893066406e+00,2.070433855056762695e+00,2.035005807876586914e+00,2.000769615173339844e+00,1.967666268348693848e+00,1.935640692710876465e+00,1.904640674591064453e+00,1.874617934226989746e+00,1.845527291297912598e+00
5.000000000000000000e+00,5.000000000000000000e+00,5.000000000000000000e+00,5.000000000000000000e+00,5.000000000000000000e+00,5.000000000000000000e+00,5.000000000000000000e+00,5.000000000000000000e+00,5.000000000000000000e+00,5.000000000000000000e+00,5.000000000000000000e+00,5.000000000000000000e+00,5.000000000000000000e+00,5.000000000000000000e+00,5.000000000000000000e+00,5.000000000000000000e+00,5.000000000000000000e+00,5.000000000000000000e+00,5.000000000000000000e+00,5.000000000000000000e+00,5.000000000000000000e+00,5.000000000000000000e+00,5.000000000000000000e+00,5.000000000000000000e+00,5.000000000000000000e+00,5.000000000000000000e+00,5.000000000000000000e+00,5.000000000000000000e+00,5.000000000000000000e+00,5.000000000000000000e+00,2.856481552124023438e+00,2.922210931777954102e+00,2.912503719329833984e+00,5.000000000000000000e+00,5.000000000000000000e+00,5.000000000000000000e+00,5.000000000000000000e+00,5.000000000000000000e+00,5.000000000000000000e+00,4.866138458251953125e+00,4.674857616424560547e+00,4.498046398162841797e+00,4.334122180938720703e+00,4.181724548339843750e+00,4.039680004119873047e+00,3.906968355178833008e+00,3.782698631286621094e+00,3.666090965270996094e+00,3.556457281112670898e+00,3.453190565109252930e+00,3.355751514434814453e+00,3.263660669326782227e+00,3.176489114761352539e+00,3.093852758407592773e+00,3.015407085418701172e+00,2.940841436386108398e+00,2.869874238967895508e+00,2.802251577377319336e+00,2.737742185592651367e+00,2.676136016845703125e+00,2.617241621017456055e+00,2.560883522033691406e+00,2.506901502609252930e+00,2.455148220062255859e+00,2.405488491058349609e+00,2.357798099517822266e+00,2.311961650848388672e+00,2.267873287200927734e+00,2.225435256958007812e+00,2.184556245803833008e+00,2.145151853561401367e+00,2.107143878936767578e+00,2.070459127426147461e+00,2.035030126571655273e+00,2.000793218612670898e+00,1.967689156532287598e+00,1.935662865638732910e+00,1.904662132263183594e+00,1.874638676643371582e+00,1.845547318458557129e+00
5.000000000000000000e+00,5.000000000000000000e+00,5.000000000000000000e+00,5.000000000000000000e+00,5.000000000000000000e+00,5.000000000000000000e+00,5.000000000000000000e+00,5.000000000000000000e+00,5.000000000000000000e+00,5.000000000000000000e+00,5.000000000000000000e+00,5.000000000000000000e+00,5.000000000000000000e+00,5.000000000000000000e+00,5.000000000000000000e+00,5.000000000000000000e+00,5.000000000000000000e+00,5.000000000000000000e+00,5.000000000000000000e+00,5.000000000000000000e+00,5.000000000000000000e+00,5.000000000000000000e+00,5.000000000000000000e+00,5.000000000000000000e+00,5.000000000000000000e+00,5.000000000000000000e+00,5.000000000000000000e+00,5.000000000000000000e+00,5.000000000000000000e+00,2.912254095077514648e+00,2.888138055801391602e+00,2.929141521453857422e+00,2.940510034561157227e+00,5.000000000000000000e+00,5.000000000000000000e+00,5.000000000000000000e+00,5.000000000000000000e+00,5.000000000000000000e+00,5.000000000000000000e+00,4.866276264190673828e+00,4.674984931945800781e+00,4.498164176940917969e+00,4.334231853485107422e+00,4.181828022003173828e+00,4.039776325225830078e+00,3.907058477401733398e+00,3.782783508300781250e+00,3.666170597076416016e+00,3.556531906127929688e+00,3.453260898590087891e+00,3.355818033218383789e+00,3.263723373413085938e+00,3.176548480987548828e+00,3.093909502029418945e+00,3.015460729598999023e+00,2.940892457962036133e+00,2.869922876358032227e+00,2.802297830581665039e+00,2.737786531448364258e+00,2.676178455352783203e+00,2.617282152175903320e+00,2.560922145843505859e+00,2.506938457489013672e+00,2.455183744430541992e+00,2.405522823333740234e+00,2.357831001281738281e+00,2.311993360519409180e+00,2.267903804779052734e+00,2.225464582443237305e+00,2.184584379196166992e+00,2.145179033279418945e+00,2.107170104980468750e+00,2.070484638214111328e+00,2.035054683685302734e+00,2.000816822052001953e+00,1.967712044715881348e+00,1.935684919357299805e+00,1.904683470726013184e+00,1.874659657478332520e+00,1.845567464828491211e+00
4.871672153472900391e+00,4.870450973510742188e+00,4.869229793548583984e+00,4.868009567260742188e+00,4.866789340972900391e+00,4.865570068359375000e+00,4.864351749420166016e+00,4.863133907318115234e+00,4.861916542053222656e+00,4.860699653625488281e+00,4.859483718872070312e+00,4.858268260955810547e+00,4.857053279876708984e+00,4.855839252471923828e+00,4.854625701904296875e+00,4.853412628173828125e+00,4.852200508117675781e+00,4.850988388061523438e+00,4.849777221679687500e+00,4.848566532135009766e+00,4.847356796264648438e+00,4.846147537231445312e+00,4.844938278198242188e+00,4.843729972839355469e+00,4.842522144317626953e+00,4.841315269470214844e+00,4.840108871459960938e+00,4.838902950286865234e+00,4.837697982788085938e+00,2.876744508743286133e+00,2.866903305053710938e+00,2.950171232223510742e+00,4.832883358001708984e+00,4.831680774688720703e+00,4.830479145050048828e+00,4.829278469085693359e+00,4.828077793121337891e+00,4.826878070831298828e+00,4.825678825378417969e+00,4.824480533599853516e+00,4.675112724304199219e+00,4.498282432556152344e+00,4.334341526031494141e+00,4.181930065155029297e+00,4.039872646331787109e+00,3.907148599624633789e+00,3.782867908477783203e+00,3.666249990463256836e+00,3.556607007980346680e+00,3.453331708908081055e+00,3.355884552001953125e+00,3.263786315917968750e+00,3.176608085632324219e+00,3.093966007232666016e+00,3.015514850616455078e+00,2.940943717956542969e+00,2.869971513748168945e+00,2.802344322204589844e+00,2.737830638885498047e+00,2.676220893859863281e+00,2.617322683334350586e+00,2.560961008071899414e+00,2.506975650787353516e+00,2.455219268798828125e+00,2.405556917190551758e+00,2.357863664627075195e+00,2.312024831771850586e+00,2.267934322357177734e+00,2.225493907928466797e+00,2.184612512588500977e+00,2.145206212997436523e+00,2.107196331024169922e+00,2.070509910583496094e+00,2.035079240798950195e+00,2.000840663909912109e+00,1.967734813690185547e+00,1.935707092285156250e+00,1.904704928398132324e+00,1.874680399894714355e+00,1.845587491989135742e+00
3.776508331298828125e+00,3.775774478912353516e+00,3.775040388107299805e+00,3.774307012557983398e+00,3.773573637008666992e+00,3.772840738296508789e+00,3.772107839584350586e+00,3.771375656127929688e+00,3.770643472671508789e+00,3.769911766052246094e+00,3.769180059432983398e+00,3.768448829650878906e+00,3.767717838287353516e+00,3.766987323760986328e+00,3.766256570816040039e+00,3.765526294708251953e+00,3.764796733856201172e+00,3.764066934585571289e+00,3.763337850570678711e+00,3.762608528137207031e+00,3.761880159378051758e+00,3.761151552200317383e+00,3.760423421859741211e+00,3.759695291519165039e+00,3.758968114852905273e+00,3.758240461349487305e+00,3.757513761520385742e+00,3.756786823272705078e+00,3.756060361862182617e+00,3.755334138870239258e+00,2.839236021041870117e+00,2.901932477951049805e+00,3.753156900405883789e+00,3.752432107925415039e+00,3.751707077026367188e+00,3.750982761383056641e+00,3.750258445739746094e+00,3.749534606933593750e+00,3.748810768127441406e+00,3.748087644577026367e+00,3.747364282608032227e+00,3.746641635894775391e+00,3.745918750762939453e+00,3.745196819305419922e+00,3.744474649429321289e+00,3.743753194808959961e+00,3.743031501770019531e+00,3.666329145431518555e+00,3.556681632995605469e+00,3.453402042388916016e+00,3.355951309204101562e+00,3.263849258422851562e+00,3.176667690277099609e+00,3.094022512435913086e+00,3.015568494796752930e+00,2.940994739532470703e+00,2.870020389556884766e+00,2.802390813827514648e+00,2.737874984741210938e+00,2.676263093948364258e+00,2.617363214492797852e+00,2.560999870300292969e+00,2.507012844085693359e+00,2.455255031585693359e+00,2.405591011047363281e+00,2.357896566390991211e+00,2.312056303024291992e+00,2.267964601516723633e+00,2.225522994995117188e+00,2.184640884399414062e+00,2.145233392715454102e+00,2.107222557067871094e+00,2.070535182952880859e+00,2.035103559494018555e+00,2.000864267349243164e+00,1.967757940292358398e+00,1.935729146003723145e+00,1.904726386070251465e+00,1.874701142311096191e+00,1.845607638359069824e+00
3.083361625671386719e+00,3.082872152328491211e+00,3.082382917404174805e+00,3.081893682479858398e+00,3.081404685974121094e+00,3.080916166305541992e+00,3.080427408218383789e+00,3.079939126968383789e+00,3.079450607299804688e+00,3.078962564468383789e+00,3.078474521636962891e+00,3.077986717224121094e+00,3.077498912811279297e+00,3.077011585235595703e+00,3.076524019241333008e+00,3.076036930084228516e+00,3.075549840927124023e+00,3.075062990188598633e+00,3.074576139450073242e+00,3.074089527130126953e+00,3.073603153228759766e+00,3.073116779327392578e+00,3.072630643844604492e+00,3.072144508361816406e+00,3.071658849716186523e+00,3.071172952651977539e+00,3.070687532424926758e+00,3.070202112197875977e+00,3.069716930389404297e+00,3.069231748580932617e+00,3.068747043609619141e+00,2.855664968490600586e+00,2.841850757598876953e+00,3.067293167114257812e+00,3.066808938980102539e+00,3.066324710845947266e+00,3.065840959548950195e+00,3.065356969833374023e+00,3.064873456954956055e+00,3.064389705657958984e+00,3.063906192779541016e+00,3.063423156738281250e+00,3.062939882278442383e+00,3.062457084655761719e+00,3.061974287033081055e+00,3.061491727828979492e+00,3.061009168624877930e+00,3.060526847839355469e+00,3.060044527053833008e+00,3.059562683105468750e+00,3.059080839157104492e+00,3.058599233627319336e+00,3.058117389678955078e+00,3.057636260986328125e+00,3.015622138977050781e+00,2.941045761108398438e+00,2.870069026947021484e+00,2.802437067031860352e+00,2.737919330596923828e+00,2.676305294036865234e+00,2.617403507232666016e+00,2.561038494110107422e+00,2.507050037384033203e+00,2.455290794372558594e+00,2.405625343322753906e+00,2.357929468154907227e+00,2.312087774276733398e+00,2.267994880676269531e+00,2.225552320480346680e+00,2.184669017791748047e+00,2.145260572433471680e+00,2.107248783111572266e+00,2.070560455322265625e+00,2.035128116607666016e+00,2.000887870788574219e+00,1.967780828475952148e+00,1.935751199722290039e+00,1.904747962951660156e+00,1.874721884727478027e+00,1.845627784729003906e+00
2.605198621749877930e+00,2.604849100112915039e+00,2.604500055313110352e+00,2.604150772094726562e+00,2.603801727294921875e+00,2.603452682495117188e+00,2.603103876113891602e+00,2.602754831314086914e+00,2.602406263351440430e+00,2.602057456970214844e+00,2.601709127426147461e+00,2.601360559463500977e+00,2.601012229919433594e+00,2.600663900375366211e+00,2.600315809249877930e+00,2.599967718124389648e+00,2.599619626998901367e+00,2.599271774291992188e+00,2.598923921585083008e+00,2.598576307296752930e+00,2.598228693008422852e+00,2.597881317138671875e+00,2.597533702850341797e+00,2.597186565399169922e+00,2.596839189529418945e+00,2.596492052078247070e+00,2.596144914627075195e+00,2.595798254013061523e+00,2.595451116561889648e+00,2.595104455947875977e+00,2.594757795333862305e+00,2.594411134719848633e+00,2.594064712524414062e+00,2.593718290328979492e+00,2.593371868133544922e+00,2.593025684356689453e+00,2.592679738998413086e+00,2.592333555221557617e+00,2.591987609863281250e+00,2.591641664505004883e+00,2.591296195983886719e+00,2.590950250625610352e+00,2.590604782104492188e+00,2.590259313583374023e+00,2.589914083480834961e+00,2.589568614959716797e+00,2.589223623275756836e+00,2.588878393173217773e+00,2.588533163070678711e+00,2.588188409805297852e+00,2.587843418121337891e+00,2.587498903274536133e+00,2.587154150009155273e+00,2.586809635162353516e+00,2.586465120315551758e+00,2.586120843887329102e+00,2.585776567459106445e+00,2.585432529449462891e+00,2.585088253021240234e+00,2.584744215011596680e+00,2.584400415420532227e+00,2.561077117919921875e+00,2.507086992263793945e+00,2.455326318740844727e+00,2.405659437179565430e+00,2.357962369918823242e+00,2.312119483947753906e+00,2.268025398254394531e+00,2.225581645965576172e+00,2.184697151184082031e+00,2.145287752151489258e+00,2.107275009155273438e+00,2.070585966110229492e+00,2.035152673721313477e+00,2.000911474227905273e+00,1.967803597450256348e+00,1.935773372650146484e+00,1.904769420623779297e+00,1.874742627143859863e+00,1.845648050308227539e+00
2.255391359329223633e+00,2.255131244659423828e+00,2.254871129989624023e+00,2.254611015319824219e+00,2.254351139068603516e+00,2.254091262817382812e+00,2.253831386566162109e+00,2.253571748733520508e+00,2.253312110900878906e+00,2.253052473068237305e+00,2.252792835235595703e+00,2.252533197402954102e+00,2.252273797988891602e+00,2.252014398574829102e+00,2.251754999160766602e+00,2.251495838165283203e+00,2.251236438751220703e+00,2.250977277755737305e+00,2.250718355178833008e+00,2.250459194183349609e+00,2.250200033187866211e+00,2.249941110610961914e+00,2.249682426452636719e+00,2.249422550201416016e+00,2.249161958694458008e+00,2.248901605606079102e+00,2.248641252517700195e+00,2.248380899429321289e+00,2.248120784759521484e+00,2.247860670089721680e+00,2.247600317001342773e+00,2.247340440750122070e+00,2.247080326080322266e+00,2.246820449829101562e+00,2.246560573577880859e+00,2.246300935745239258e+00,2.246041059494018555e+00,2.245781421661376953e+00,2.245521545410156250e+00,2.245262145996093750e+00,2.245002508163452148e+00,2.244743108749389648e+00,2.244483709335327148e+00,2.244224309921264648e+00,2.243965148925781250e+00,2.243705749511718750e+00,2.243446826934814453e+00,2.243187665939331055e+00,2.242928743362426758e+00,2.242669582366943359e+00,2.242410898208618164e+00,2.242151975631713867e+00,2.241893053054809570e+00,2.241634368896484375e+00,2.241375684738159180e+00,2.241117000579833984e+00,2.240858554840087891e+00,2.240600109100341797e+00,2.240341424942016602e+00,2.240083217620849609e+00,2.239824771881103516e+00,2.239566564559936523e+00,2.239308357238769531e+00,2.239050388336181641e+00,2.238792181015014648e+00,2.238534212112426758e+00,2.238276243209838867e+00,2.238018274307250977e+00,2.225610971450805664e+00,2.184725522994995117e+00,2.145314931869506836e+00,2.107301235198974609e+00,2.070611238479614258e+00,2.035176992416381836e+00,2.000935077667236328e+00,1.967826485633850098e+00,1.935795426368713379e+00,1.904790759086608887e+00,1.874763369560241699e+00,1.845668196678161621e+00
1.988326668739318848e+00,1.988124489784240723e+00,1.987922310829162598e+00,1.987720251083374023e+00,1.987518191337585449e+00,1.987316250801086426e+00,1.987114310264587402e+00,1.986912369728088379e+00,1.986710309982299805e+00,1.986508488655090332e+00,1.986306667327880859e+00,1.986104846000671387e+00,1.985903143882751465e+00,1.985701560974121094e+00,1.985499858856201172e+00,1.985298275947570801e+00,1.985096812248229980e+00,1.984895229339599609e+00,1.984693884849548340e+00,1.984492421150207520e+00,1.984290957450866699e+00,1.984089612960815430e+00,1.983888387680053711e+00,1.983687043190002441e+00,1.983485698699951172e+00,1.983284473419189453e+00,1.983083367347717285e+00,1.982882261276245117e+00,1.982681155204772949e+00,1.982480168342590332e+00,1.982279181480407715e+00,1.982078313827514648e+00,1.981877326965332031e+00,1.981676459312438965e+00,1.981475710868835449e+00,1.981274962425231934e+00,1.981074213981628418e+00,1.980873465538024902e+00,1.980672836303710938e+00,1.980472326278686523e+00,1.980271458625793457e+00,1.980070948600769043e+00,1.979870438575744629e+00,1.979670047760009766e+00,1.979469537734985352e+00,1.979269266128540039e+00,1.979068875312805176e+00,1.978868603706359863e+00,1.978668332099914551e+00,1.978468179702758789e+00,1.978268027305603027e+00,1.978067874908447266e+00,1.977867841720581055e+00,1.977667689323425293e+00,1.977467775344848633e+00,1.977267742156982422e+00,1.977067589759826660e+00,1.976867675781250000e+00,1.976667881011962891e+00,1.976468086242675781e+00,1.976268291473388672e+00,1.976068615913391113e+00,1.975868940353393555e+00,1.975669264793395996e+00,1.975469708442687988e+00,1.975270152091979980e+00,1.975070595741271973e+00,1.974871158599853516e+00,1.974671721458435059e+00,1.974472284317016602e+00,1.974272966384887695e+00,1.974073410034179688e+00,1.973874092102050781e+00,1.973674893379211426e+00,1.973475694656372070e+00,1.967849373817443848e+00,1.935817837715148926e+00,1.904812216758728027e+00,1.874784111976623535e+00,1.845688223838806152e+00
1.777812838554382324e+00,1.777651190757751465e+00,1.777489542961120605e+00,1.777328014373779297e+00,1.777166485786437988e+00,1.777004837989807129e+00,1.776843309402465820e+00,1.776681900024414062e+00,1.776520490646362305e+00,1.776359081268310547e+00,1.776197791099548340e+00,1.776036381721496582e+00,1.775875091552734375e+00,1.775713801383972168e+00,1.775552630424499512e+00,1.775391459465026855e+00,1.775230169296264648e+00,1.775069117546081543e+00,1.774907946586608887e+00,1.774746894836425781e+00,1.774585843086242676e+00,1.774424552917480469e+00,1.774263620376586914e+00,1.774102568626403809e+00,1.773941636085510254e+00,1.773780703544616699e+00,1.773619771003723145e+00,1.773458957672119141e+00,1.773298144340515137e+00,1.773137331008911133e+00,1.772976517677307129e+00,1.772815823554992676e+00,1.772655129432678223e+00,1.772494435310363770e+00,1.772333741188049316e+00,1.772173166275024414e+00,1.772012472152709961e+00,1.771851778030395508e+00,1.771691203117370605e+00,1.771530747413635254e+00,1.771370172500610352e+00,1.771209716796875000e+00,1.771049380302429199e+00,1.770888924598693848e+00,1.770728588104248047e+00,1.770568251609802246e+00,1.770407915115356445e+00,1.770247697830200195e+00,1.770087361335754395e+00,1.769927144050598145e+00,1.769766926765441895e+00,1.769606828689575195e+00,1.769446730613708496e+00,1.769286394119262695e+00,1.769126296043395996e+00,1.768966317176818848e+00,1.768806219100952148e+00,1.768646240234375000e+00,1.768486261367797852e+00,1.768326401710510254e+00,1.768166422843933105e+00,1.768006563186645508e+00,1.767846703529357910e+00,1.767686963081359863e+00,1.767527103424072266e+00,1.767367362976074219e+00,1.767207622528076172e+00,1.767048001289367676e+00,1.766888141632080078e+00,1.766728401184082031e+00,1.766568779945373535e+00,1.766409277915954590e+00,1.766249656677246094e+00,1.766090154647827148e+00,1.765930652618408203e+00,1.765771269798278809e+00,1.765611767768859863e+00,1.765452384948730469e+00,1.765293002128601074e+00,1.765133619308471680e+00
1.607607603073120117e+00,1.607475399971008301e+00,1.607343196868896484e+00,1.607210993766784668e+00,1.607078909873962402e+00,1.606946825981140137e+00,1.606814861297607422e+00,1.606682777404785156e+00,1.606550812721252441e+00,1.606418848037719727e+00,1.606286883354187012e+00,1.606154918670654297e+00,1.606022953987121582e+00,1.605891108512878418e+00,1.605759263038635254e+00,1.605627298355102539e+00,1.605495572090148926e+00,1.605363726615905762e+00,1.605231761932373047e+00,1.605100035667419434e+00,1.604968309402465820e+00,1.604836583137512207e+00,1.604704856872558594e+00,1.604573130607604980e+00,1.604441523551940918e+00,1.604309797286987305e+00,1.604178190231323242e+00,1.604046583175659180e+00,1.603915095329284668e+00,1.603783488273620605e+00,1.603652000427246094e+00,1.603520512580871582e+00,1.603389024734497070e+00,1.603257536888122559e+00,1.603125929832458496e+00,1.602994561195373535e+00,1.602863073348999023e+00,1.602731704711914062e+00,1.602600336074829102e+00,1.602469086647033691e+00,1.602337718009948730e+00,1.602206468582153320e+00,1.602075219154357910e+00,1.601943969726562500e+00,1.601812720298767090e+00,1.601681470870971680e+00,1.601550340652465820e+00,1.601419091224670410e+00,1.601287961006164551e+00,1.601156830787658691e+00,1.601025581359863281e+00,1.600894570350646973e+00,1.600763440132141113e+00,1.600632429122924805e+00,1.600501418113708496e+00,1.600370407104492188e+00,1.600239515304565430e+00,1.600108504295349121e+00,1.599977612495422363e+00,1.599846720695495605e+00,1.599715828895568848e+00,1.599584937095642090e+00,1.599454045295715332e+00,1.599323272705078125e+00,1.599192500114440918e+00,1.599061489105224609e+00,1.598930835723876953e+00,1.598800063133239746e+00,1.598669290542602539e+00,1.598538637161254883e+00,1.598407983779907227e+00,1.598277330398559570e+00,1.598146677017211914e+00,1.598016142845153809e+00,1.597885489463806152e+00,1.597754955291748047e+00,1.597624421119689941e+00,1.597493886947631836e+00,1.597363352775573730e+00,1.597232937812805176e+00
1.467145085334777832e+00,1.467035055160522461e+00,1.466924905776977539e+00,1.466814875602722168e+00,1.466704845428466797e+00,1.466594934463500977e+00,1.466484904289245605e+00,1.466374874114990234e+00,1.466264963150024414e+00,1.466155052185058594e+00,1.466045141220092773e+00,1.465935230255126953e+00,1.465825319290161133e+00,1.465715408325195312e+00,1.465605497360229492e+00,1.465495586395263672e+00,1.465385794639587402e+00,1.465275883674621582e+00,1.465166091918945312e+00,1.465056419372558594e+00,1.464946627616882324e+00,1.464836835861206055e+00,1.464727163314819336e+00,1.464617371559143066e+00,1.464507699012756348e+00,1.464398026466369629e+00,1.464288353919982910e+00,1.464178681373596191e+00,1.464069128036499023e+00,1.463959455490112305e+00,1.463849902153015137e+00,1.463740229606628418e+00,1.463630676269531250e+00,1.463521122932434082e+00,1.463411569595336914e+00,1.463302016258239746e+00,1.463192582130432129e+00,1.463083028793334961e+00,1.462973594665527344e+00,1.462864160537719727e+00,1.462754726409912109e+00,1.462645292282104492e+00,1.462535858154296875e+00,1.462426543235778809e+00,1.462317109107971191e+00,1.462207794189453125e+00,1.462098479270935059e+00,1.461989045143127441e+00,1.461879730224609375e+00,1.461770415306091309e+00,1.461661219596862793e+00,1.461551904678344727e+00,1.461442708969116211e+00,1.461333513259887695e+00,1.461224317550659180e+00,1.461115121841430664e+00,1.461005926132202148e+00,1.460896730422973633e+00,1.460787653923034668e+00,1.460678577423095703e+00,1.460569381713867188e+00,1.460460305213928223e+00,1.460351109504699707e+00,1.460242033004760742e+00,1.460133075714111328e+00,1.460023999214172363e+00,1.459915041923522949e+00,1.459805965423583984e+00,1.459697008132934570e+00,1.459588050842285156e+00,1.459479093551635742e+00,1.459370255470275879e+00,1.459261298179626465e+00,1.459152460098266602e+00,1.459043502807617188e+00,1.458934664726257324e+00,1.458825826644897461e+00,1.458716988563537598e+00,1.458608031272888184e+00,1.458499312400817871e+00
1.349255800247192383e+00,1.349162697792053223e+00,1.349069595336914062e+00,1.348976492881774902e+00,1.348883509635925293e+00,1.348790407180786133e+00,1.348697423934936523e+00,1.348604440689086914e+00,1.348511338233947754e+00,1.348418354988098145e+00,1.348325371742248535e+00,1.348232507705688477e+00,1.348139405250549316e+00,1.348046422004699707e+00,1.347953557968139648e+00,1.347860574722290039e+00,1.347767710685729980e+00,1.347674846649169922e+00,1.347581982612609863e+00,1.347489118576049805e+00,1.347396254539489746e+00,1.347303390502929688e+00,1.347210645675659180e+00,1.347117781639099121e+00,1.347025036811828613e+00,1.346932172775268555e+00,1.346839427947998047e+00,1.346746683120727539e+00,1.346653819084167480e+00,1.346561074256896973e+00,1.346468329429626465e+00,1.346375703811645508e+00,1.346282958984375000e+00,1.346190214157104492e+00,1.346097588539123535e+00,1.346004962921142578e+00,1.345912337303161621e+00,1.345819592475891113e+00,1.345727086067199707e+00,1.345634460449218750e+00,1.345541834831237793e+00,1.345449209213256836e+00,1.345356702804565430e+00,1.345264077186584473e+00,1.345171451568603516e+00,1.345078945159912109e+00,1.344986438751220703e+00,1.344893932342529297e+00,1.344801425933837891e+00,1.344708919525146484e+00,1.344616413116455078e+00,1.344524025917053223e+00,1.344431519508361816e+00,1.344339132308959961e+00,1.344246745109558105e+00,1.344154238700866699e+00,1.344061851501464844e+00,1.343969464302062988e+00,1.343877196311950684e+00,1.343784689903259277e+00,1.343692302703857422e+00,1.343600034713745117e+00,1.343507647514343262e+00,1.343415379524230957e+00,1.343323111534118652e+00,1.343230843544006348e+00,1.343138575553894043e+00,1.343046307563781738e+00,1.342954039573669434e+00,1.342861890792846680e+00,1.342769622802734375e+00,1.342677354812622070e+00,1.342585206031799316e+00,1.342493057250976562e+00,1.342400908470153809e+00,1.342308640480041504e+00,1.342216491699218750e+00,1.342124342918395996e+00,1.342032194137573242e+00,1.341940164566040039e+00
1.248902916908264160e+00,1.248823165893554688e+00,1.248743414878845215e+00,1.248663663864135742e+00,1.248583912849426270e+00,1.248504161834716797e+00,1.248424530029296875e+00,1.248344779014587402e+00,1.248265147209167480e+00,1.248185396194458008e+00,1.248105645179748535e+00,1.248026013374328613e+00,1.247946381568908691e+00,1.247866749763488770e+00,1.247787117958068848e+00,1.247707486152648926e+00,1.247627854347229004e+00,1.247548222541809082e+00,1.247468709945678711e+00,1.247389078140258789e+00,1.247309565544128418e+00,1.247229933738708496e+00,1.247150421142578125e+00,1.247070908546447754e+00,1.246991395950317383e+00,1.246911764144897461e+00,1.246832251548767090e+00,1.246752738952636719e+00,1.246673226356506348e+00,1.246593713760375977e+00,1.246514320373535156e+00,1.246434807777404785e+00,1.246355414390563965e+00,1.246275901794433594e+00,1.246196508407592773e+00,1.246117115020751953e+00,1.246037721633911133e+00,1.245958328247070312e+00,1.245878934860229492e+00,1.245799541473388672e+00,1.245720148086547852e+00,1.245640754699707031e+00,1.245561361312866211e+00,1.245482087135314941e+00,1.245402693748474121e+00,1.245323419570922852e+00,1.245244145393371582e+00,1.245164752006530762e+00,1.245085477828979492e+00,1.245006203651428223e+00,1.244926929473876953e+00,1.244847655296325684e+00,1.244768500328063965e+00,1.244689226150512695e+00,1.244609951972961426e+00,1.244530797004699707e+00,1.244451522827148438e+00,1.244372248649597168e+00,1.244293093681335449e+00,1.244213938713073730e+00,1.244134783744812012e+00,1.244055628776550293e+00,1.243976473808288574e+00,1.243897318840026855e+00,1.243818163871765137e+00,1.243739128112792969e+00,1.243659973144531250e+00,1.243580937385559082e+00,1.243501782417297363e+00,1.243422746658325195e+00,1.243343710899353027e+00,1.243264675140380859e+00,1.243185520172119141e+00,1.243106484413146973e+00,1.243027448654174805e+00,1.242948412895202637e+00,1.242869496345520020e+00,1.242790460586547852e+00,1.242711424827575684e+00,1.242632508277893066e+00
1.162444472312927246e+00,1.162375330924987793e+00,1.162306189537048340e+00,1.162237167358398438e+00,1.162168025970458984e+00,1.162099003791809082e+00,1.162029862403869629e+00,1.161960840225219727e+00,1.161891818046569824e+00,1.161822676658630371e+00,1.161753654479980469e+00,1.161684632301330566e+00,1.161615729331970215e+00,1.161546707153320312e+00,1.161477684974670410e+00,1.161408662796020508e+00,1.161339759826660156e+00,1.161270737648010254e+00,1.161201834678649902e+00,1.161132812500000000e+00,1.161063909530639648e+00,1.160994887351989746e+00,1.160925984382629395e+00,1.160856962203979492e+00,1.160788059234619141e+00,1.160719156265258789e+00,1.160650253295898438e+00,1.160581350326538086e+00,1.160512566566467285e+00,1.160443663597106934e+00,1.160374760627746582e+00,1.160305976867675781e+00,1.160237073898315430e+00,1.160168290138244629e+00,1.160099387168884277e+00,1.160030603408813477e+00,1.159961819648742676e+00,1.159892916679382324e+00,1.159824132919311523e+00,1.159755229949951172e+00,1.159686446189880371e+00,1.159617781639099121e+00,1.159548997879028320e+00,1.159480214118957520e+00,1.159411430358886719e+00,1.159342765808105469e+00,1.159273982048034668e+00,1.159205198287963867e+00,1.159136533737182617e+00,1.159067869186401367e+00,1.158999085426330566e+00,1.158930420875549316e+00,1.158861756324768066e+00,1.158793091773986816e+00,1.158724308013916016e+00,1.158655643463134766e+00,1.158586978912353516e+00,1.158518314361572266e+00,1.158449769020080566e+00,1.158381104469299316e+00,1.158312439918518066e+00,1.158243894577026367e+00,1.158175230026245117e+00,1.158106684684753418e+00,1.158038139343261719e+00,1.157969474792480469e+00,1.157900929450988770e+00,1.157832384109497070e+00,1.157763838768005371e+00,1.157695174217224121e+00,1.157626628875732422e+00,1.157558202743530273e+00,1.157489657402038574e+00,1.157421112060546875e+00,1.157352566719055176e+00,1.157284140586853027e+00,1.157215595245361328e+00,1.157147169113159180e+00,1.157078623771667480e+00,1.157010197639465332e+00
1.087181448936462402e+00,1.087121009826660156e+00,1.087060570716857910e+00,1.087000131607055664e+00,1.086939692497253418e+00,1.086879253387451172e+00,1.086818814277648926e+00,1.086758494377136230e+00,1.086698055267333984e+00,1.086637616157531738e+00,1.086577296257019043e+00,1.086516857147216797e+00,1.086456537246704102e+00,1.086396217346191406e+00,1.086335778236389160e+00,1.086275458335876465e+00,1.086215138435363770e+00,1.086154818534851074e+00,1.086094498634338379e+00,1.086034059524536133e+00,1.085973739624023438e+00,1.085913419723510742e+00,1.085853099822998047e+00,1.085792899131774902e+00,1.085732579231262207e+00,1.085672259330749512e+00,1.085612058639526367e+00,1.085551738739013672e+00,1.085491538047790527e+00,1.085431218147277832e+00,1.085371017456054688e+00,1.085310697555541992e+00,1.085250496864318848e+00,1.085190296173095703e+00,1.085130095481872559e+00,1.085069775581359863e+00,1.085009574890136719e+00,1.084949374198913574e+00,1.084889173507690430e+00,1.084828972816467285e+00,1.084768772125244141e+00,1.084708571434020996e+00,1.084648489952087402e+00,1.084588289260864258e+00,1.084528088569641113e+00,1.084468007087707520e+00,1.084407806396484375e+00,1.084347724914550781e+00,1.084287524223327637e+00,1.084227442741394043e+00,1.084167361259460449e+00,1.084107160568237305e+00,1.084047079086303711e+00,1.083986997604370117e+00,1.083926916122436523e+00,1.083866834640502930e+00,1.083806753158569336e+00,1.083746671676635742e+00,1.083686590194702148e+00,1.083626508712768555e+00,1.083566546440124512e+00,1.083506464958190918e+00,1.083446383476257324e+00,1.083386421203613281e+00,1.083326339721679688e+00,1.083266377449035645e+00,1.083206295967102051e+00,1.083146214485168457e+00,1.083086252212524414e+00,1.083026289939880371e+00,1.082966327667236328e+00,1.082906365394592285e+00,1.082846403121948242e+00,1.082786440849304199e+00,1.082726478576660156e+00,1.082666516304016113e+00,1.082606554031372070e+00,1.082546591758728027e+00,1.082486629486083984e+00,1.082426786422729492e+00
1.021071672439575195e+00,1.021018385887145996e+00,1.020965099334716797e+00,1.020911812782287598e+00,1.020858526229858398e+00,1.020805239677429199e+00,1.020751953125000000e+00,1.020698666572570801e+00,1.020645380020141602e+00,1.020592093467712402e+00,1.020538806915283203e+00,1.020485520362854004e+00,1.020432233810424805e+00,1.020379066467285156e+00,1.020325779914855957e+00,1.020272612571716309e+00,1.020219206809997559e+00,1.020166039466857910e+00,1.020112872123718262e+00,1.020059585571289062e+00,1.020006418228149414e+00,1.019953131675720215e+00,1.019899964332580566e+00,1.019846796989440918e+00,1.019793629646301270e+00,1.019740462303161621e+00,1.019687294960021973e+00,1.019634127616882324e+00,1.019580960273742676e+00,1.019527792930603027e+00,1.019474625587463379e+00,1.019421458244323730e+00,1.019368290901184082e+00,1.019315123558044434e+00,1.019261956214904785e+00,1.019208908081054688e+00,1.019155740737915039e+00,1.019102573394775391e+00,1.019049525260925293e+00,1.018996357917785645e+00,1.018943309783935547e+00,1.018890261650085449e+00,1.018837094306945801e+00,1.018784046173095703e+00,1.018730998039245605e+00,1.018677830696105957e+00,1.018624782562255859e+00,1.018571734428405762e+00,1.018518686294555664e+00,1.018465638160705566e+00,1.018412590026855469e+00,1.018359541893005371e+00,1.018306493759155273e+00,1.018253445625305176e+00,1.018200397491455078e+00,1.018147468566894531e+00,1.018094420433044434e+00,1.018041372299194336e+00,1.017988443374633789e+00,1.017935395240783691e+00,1.017882466316223145e+00,1.017829418182373047e+00,1.017776489257812500e+00,1.017723441123962402e+00,1.017670392990112305e+00,1.017617464065551758e+00,1.017564535140991211e+00,1.017511606216430664e+00,1.017458677291870117e+00,1.017405748367309570e+00,1.017352819442749023e+00,1.017299890518188477e+00,1.017246961593627930e+00,1.017194032669067383e+00,1.017141103744506836e+00,1.017088174819946289e+00,1.017035245895385742e+00,1.016982436180114746e+00,1.016929507255554199e+00,1.016876578330993652e+00
9.625412225723266602e-01,9.624938368797302246e-01,9.624464511871337891e-01,9.623990654945373535e-01,9.623516798019409180e-01,9.623043537139892578e-01,9.622569680213928223e-01,9.622096419334411621e-01,9.621623158454895020e-01,9.621149301528930664e-01,9.620676040649414062e-01,9.620202779769897461e-01,9.619729518890380859e-01,9.619256258010864258e-01,9.618782997131347656e-01,9.618309736251831055e-01,9.617837071418762207e-01,9.617363810539245605e-01,9.616891145706176758e-01,9.616417884826660156e-01,9.615945219993591309e-01,9.615471959114074707e-01,9.614999294281005859e-01,9.614526629447937012e-01,9.614053964614868164e-01,9.613581299781799316e-01,9.613108634948730469e-01,9.612635970115661621e-01,9.612163305282592773e-01,9.611690044403076172e-01,9.611217379570007324e-01,9.610745310783386230e-01,9.610272645950317383e-01,9.609800577163696289e-01,9.609328508377075195e-01,9.608855843544006348e-01,9.608383774757385254e-01,9.607911705970764160e-01,9.607439637184143066e-01,9.606967568397521973e-01,9.606495499610900879e-01,9.606024026870727539e-01,9.605551958084106445e-01,9.605079889297485352e-01,9.604608416557312012e-01,9.604136347770690918e-01,9.603664875030517578e-01,9.603193402290344238e-01,9.602721333503723145e-01,9.602249860763549805e-01,9.601778388023376465e-01,9.601306915283203125e-01,9.600835442543029785e-01,9.600363969802856445e-01,9.599893093109130859e-01,9.599421620368957520e-01,9.598950147628784180e-01,9.598479270935058594e-01,9.598007798194885254e-01,9.597536921501159668e-01,9.597064852714538574e-01,9.596593976020812988e-01,9.596123099327087402e-01,9.595652222633361816e-01,9.595181345939636230e-01,9.594710469245910645e-01,9.594239592552185059e-01,9.593768715858459473e-01,9.593297839164733887e-01,9.592827558517456055e-01,9.592356681823730469e-01,9.591886401176452637e-01,9.591415524482727051e-01,9.590945243835449219e-01,9.590474963188171387e-01,9.590004682540893555e-01,9.589534401893615723e-01,9.589064121246337891e-01,9.588593840599060059e-01,9.588123559951782227e-01
9.103571772575378418e-01,9.103147983551025391e-01,9.102724194526672363e-01,9.102300405502319336e-01,9.101876616477966309e-01,9.101452827453613281e-01,9.101029038429260254e-01,9.100605845451354980e-01,9.100182056427001953e-01,9.099758863449096680e-01,9.099334478378295898e-01,9.098910689353942871e-01,9.098487496376037598e-01,9.098064303398132324e-01,9.097641110420227051e-01,9.097217321395874023e-01,9.096794128417968750e-01,9.096370935440063477e-01,9.095947742462158203e-01,9.095525145530700684e-01,9.095101952552795410e-01,9.094678759574890137e-01,9.094255566596984863e-01,9.093832969665527344e-01,9.093409776687622070e-01,9.092987179756164551e-01,9.092564582824707031e-01,9.092141389846801758e-01,9.091718792915344238e-01,9.091296195983886719e-01,9.090873599052429199e-01,9.090451002120971680e-01,9.090028405189514160e-01,9.089605808258056641e-01,9.089183211326599121e-01,9.088760614395141602e-01,9.088338017463684082e-01,9.087916016578674316e-01,9.087493419647216797e-01,9.087071418762207031e-01,9.086648821830749512e-01,9.086226820945739746e-01,9.085803627967834473e-01,9.085381627082824707e-01,9.084959030151367188e-01,9.084537029266357422e-01,9.084115028381347656e-01,9.083693027496337891e-01,9.083271026611328125e-01,9.082849025726318359e-01,9.082427620887756348e-01,9.082005620002746582e-01,9.081583619117736816e-01,9.081162214279174805e-01,9.080740213394165039e-01,9.080318808555603027e-01,9.079896807670593262e-01,9.079475402832031250e-01,9.079053997993469238e-01,9.078631997108459473e-01,9.078210592269897461e-01,9.077789187431335449e-01,9.077367782592773438e-01,9.076946377754211426e-01,9.076524972915649414e-01,9.076104164123535156e-01,9.075682759284973145e-01,9.075261354446411133e-01,9.074840545654296875e-01,9.074419140815734863e-01,9.073997735977172852e-01,9.073576927185058594e-01,9.073156118392944336e-01,9.072734117507934570e-01,9.072313308715820312e-01,9.071891903877258301e-01,9.071471095085144043e-01,9.071050286293029785e-01,9.070629477500915527e-01,9.070208668708801270e-01
