5.000000000000000000e+00,5.000000000000000000e+00,5.000000000000000000e+00,5.000000000000000000e+00,5.000000000000000000e+00,5.000000000000000000e+00,5.000000000000000000e+00,5.000000000000000000e+00,5.000000000000000000e+00,5.000000000000000000e+00,5.000000000000000000e+00,5.000000000000000000e+00,5.000000000000000000e+00,5.000000000000000000e+00,5.000000000000000000e+00,5.000000000000000000e+00,5.000000000000000000e+00,5.000000000000000000e+00,5.000000000000000000e+00,5.000000000000000000e+00,5.000000000000000000e+00,5.000000000000000000e+00,5.000000000000000000e+00,5.000000000000000000e+00,5.000000000000000000e+00,5.000000000000000000e+00,5.000000000000000000e+00,5.000000000000000000e+00,5.000000000000000000e+00,5.000000000000000000e+00,5.000000000000000000e+00,5.000000000000000000e+00,5.000000000000000000e+00,5.000000000000000000e+00,5.000000000000000000e+00,5.000000000000000000e+00,5.000000000000000000e+00,5.000000000000000000e+00,5.000000000000000000e+00,5.000000000000000000e+00,5.000000000000000000e+00,5.000000000000000000e+00,5.000000000000000000e+00,4.176393032073974609e+00,4.034716606140136719e+00,3.902337551116943359e+00,3.778369188308715820e+00,3.662034511566162109e+00,3.552649736404418945e+00,3.449609994888305664e+00,3.352378845214843750e+00,3.260478496551513672e+00,3.173482418060302734e+00,3.091007947921752930e+00,3.012712240219116211e+00,2.938284635543823242e+00,2.867445707321166992e+00,2.799942255020141602e+00,2.735543727874755859e+00,2.674041271209716797e+00,2.615243196487426758e+00,2.558975219726562500e+00,2.505077838897705078e+00,2.453403711318969727e+00,2.403818368911743164e+00,2.356197834014892578e+00,2.310427188873291016e+00,2.266400814056396484e+00,2.224021196365356445e+00,2.183197259902954102e+00,2.143845319747924805e+00,2.105886697769165039e+00,2.069248676300048828e+00,2.033864021301269531e+00,1.999668836593627930e+00,1.966604948043823242e+00,1.934616208076477051e+00,1.903651714324951172e+00,1.873662829399108887e+00,1.844604015350341797e+00
5.000000000000000000e+00,5.000000000000000000e+00,5.000000000000000000e+00,5.000000000000000000e+00,5.000000000000000000e+00,5.000000000000000000e+00,5.000000000000000000e+00,5.000000000000000000e+00,5.000000000000000000e+00,5.000000000000000000e+00,5.000000000000000000e+00,5.000000000000000000e+00,5.000000000000000000e+00,5.000000000000000000e+00,5.000000000000000000e+00,5.000000000000000000e+00,5.000000000000000000e+00,5.000000000000000000e+00,5.000000000000000000e+00,5.000000000000000000e+00,5.000000000000000000e+00,5.000000000000000000e+00,5.000000000000000000e+00,5.000000000000000000e+00,5.000000000000000000e+00,5.000000000000000000e+00,5.000000000000000000e+00,5.000000000000000000e+00,5.000000000000000000e+00,5.000000000000000000e+00,5.000000000000000000e+00,5.000000000000000000e+00,5.000000000000000000e+00,5.000000000000000000e+00,5.000000000000000000e+00,5.000000000000000000e+00,5.000000000000000000e+00,5.000000000000000000e+00,5.000000000000000000e+00,5.000000000000000000e+00,5.000000000000000000e+00,5.000000000000000000e+00,4.328491687774658203e+00,4.176496028900146484e+00,4.034812927246093750e+00,3.902427911758422852e+00,3.778453588485717773e+00,3.662113666534423828e+00,3.552724123001098633e+00,3.449680089950561523e+00,3.352445125579833984e+00,3.260541677474975586e+00,3.173542022705078125e+00,3.091064691543579102e+00,3.012765884399414062e+00,2.938335657119750977e+00,2.867494344711303711e+00,2.799988508224487305e+00,2.735587835311889648e+00,2.674083471298217773e+00,2.615283727645874023e+00,2.559014081954956055e+00,2.505114793777465820e+00,2.453439235687255859e+00,2.403852462768554688e+00,2.356230497360229492e+00,2.310458660125732422e+00,2.266431331634521484e+00,2.224050521850585938e+00,2.183225631713867188e+00,2.143872261047363281e+00,2.105912685394287109e+00,2.069273948669433594e+00,2.033888339996337891e+00,1.999692440032958984e+00,1.966627717018127441e+00,1.934638500213623047e+00,1.903673171997070312e+00,1.873683571815490723e+00,1.844624042510986328e+00
5.000000000000000000e+00,5.000000000000000000e+00,5.000000000000000000e+00,5.000000000000000000e+00,5.000000000000000000e+00,5.000000000000000000e+00,5.000000000000000000e+00,5.000000000000000000e+00,5.000000000000000000e+00,5.000000000000000000e+00,5.000000000000000000e+00,5.000000000000000000e+00,5.000000000000000000e+00,5.000000000000000000e+00,5.000000000000000000e+00,5.000000000000000000e+00,5.000000000000000000e+00,5.000000000000000000e+00,5.000000000000000000e+00,5.000000000000000000e+00,5.000000000000000000e+00,5.000000000000000000e+00,5.000000000000000000e+00,5.000000000000000000e+00,5.000000000000000000e+00,5.000000000000000000e+00,5.000000000000000000e+00,5.000000000000000000e+00,5.000000000000000000e+00,5.000000000000000000e+00,5.000000000000000000e+00,5.000000000000000000e+00,5.000000000000000000e+00,5.000000000000000000e+00,5.000000000000000000e+00,5.000000000000000000e+00,5.000000000000000000e+00,5.000000000000000000e+00,5.000000000000000000e+00,5.000000000000000000e+00,5.000000000000000000e+00,4.492087841033935547e+00,4.328602313995361328e+00,4.176599025726318359e+00,4.034909248352050781e+00,3.902517557144165039e+00,3.778537750244140625e+00,3.662192821502685547e+00,3.552798986434936523e+00,3.449750661849975586e+00,3.352511644363403320e+00,3.260604381561279297e+00,3.173601627349853516e+00,3.091121196746826172e+00,3.012819290161132812e+00,2.938386678695678711e+00,2.867542982101440430e+00,2.800034999847412109e+00,2.735632419586181641e+00,2.674125671386718750e+00,2.615324020385742188e+00,2.559052705764770508e+00,2.505151748657226562e+00,2.453474760055541992e+00,2.403886795043945312e+00,2.356263399124145508e+00,2.310490131378173828e+00,2.266461610794067383e+00,2.224079608917236328e+00,2.183253765106201172e+00,2.143899440765380859e+00,2.105938911437988281e+00,2.069299221038818359e+00,2.033912897109985352e+00,1.999716281890869141e+00,1.966650485992431641e+00,1.934660553932189941e+00,1.903694510459899902e+00,1.873704314231872559e+00,1.844644188880920410e+00
5.000000000000000000e+00,5.000000000000000000e+00,5.000000000000000000e+00,5.000000000000000000e+00,5.000000000000000000e+00,5.000000000000000000e+00,5.000000000000000000e+00,5.000000000000000000e+00,5.000000000000000000e+00,5.000000000000000000e+00,5.000000000000000000e+00,5.000000000000000000e+00,5.000000000000000000e+00,5.000000000000000000e+00,5.000000000000000000e+00,5.000000000000000000e+00,5.000000000000000000e+00,5.000000000000000000e+00,5.000000000000000000e+00,5.000000000000000000e+00,5.000000000000000000e+00,5.000000000000000000e+00,5.000000000000000000e+00,5.000000000000000000e+00,5.000000000000000000e+00,5.000000000000000000e+00,5.000000000000000000e+00,5.000000000000000000e+00,5.000000000000000000e+00,5.000000000000000000e+00,5.000000000000000000e+00,5.000000000000000000e+00,5.000000000000000000e+00,5.000000000000000000e+00,5.000000000000000000e+00,5.000000000000000000e+00,5.000000000000000000e+00,5.000000000000000000e+00,5.000000000000000000e+00,5.000000000000000000e+00,4.668535232543945312e+00,4.492207050323486328e+00,4.328713417053222656e+00,4.176702499389648438e+00,4.035005569458007812e+00,3.902607917785644531e+00,3.778622388839721680e+00,3.662272453308105469e+00,3.552873611450195312e+00,3.449820995330810547e+00,3.352578163146972656e+00,3.260667085647583008e+00,3.173660993576049805e+00,3.091177701950073242e+00,3.012873172760009766e+00,2.938437700271606445e+00,2.867591619491577148e+00,2.800081253051757812e+00,2.735676527023315430e+00,2.674167871475219727e+00,2.615364551544189453e+00,2.559091567993164062e+00,2.505189180374145508e+00,2.453510522842407227e+00,2.403920888900756836e+00,2.356296300888061523e+00,2.310521841049194336e+00,2.266491889953613281e+00,2.224108934402465820e+00,2.183281898498535156e+00,2.143926858901977539e+00,2.105965375900268555e+00,2.069324493408203125e+00,2.033937215805053711e+00,1.999739885330200195e+00,1.966673374176025391e+00,1.934682726860046387e+00,1.903716087341308594e+00,1.873725056648254395e+00,1.844664454460144043e+00
5.000000000000000000e+00,5.000000000000000000e+00,5.000000000000000000e+00,5.000000000000000000e+00,5.000000000000000000e+00,5.000000000000000000e+00,5.000000000000000000e+00,5.000000000000000000e+00,5.000000000000000000e+00,5.000000000000000000e+00,5.000000000000000000e+00,5.000000000000000000e+00,5.000000000000000000e+00,5.000000000000000000e+00,5.000000000000000000e+00,5.000000000000000000e+00,5.000000000000000000e+00,5.000000000000000000e+00,5.000000000000000000e+00,5.000000000000000000e+00,5.000000000000000000e+00,5.000000000000000000e+00,5.000000000000000000e+00,5.000000000000000000e+00,5.000000000000000000e+00,5.000000000000000000e+00,5.000000000000000000e+00,5.000000000000000000e+00,5.000000000000000000e+00,5.000000000000000000e+00,5.000000000000000000e+00,5.000000000000000000e+00,5.000000000000000000e+00,5.000000000000000000e+00,5.000000000000000000e+00,5.000000000000000000e+00,5.000000000000000000e+00,5.000000000000000000e+00,5.000000000000000000e+00,4.859411716461181641e+00,4.668663978576660156e+00,4.492326259613037109e+00,4.328824043273925781e+00,4.176805496215820312e+00,4.035101890563964844e+00,3.902697801589965820e+00,3.778706789016723633e+00,3.662351608276367188e+00,3.552947998046875000e+00,3.449891090393066406e+00,3.352644681930541992e+00,3.260730028152465820e+00,3.173720836639404297e+00,3.091234207153320312e+00,3.012926816940307617e+00,2.938488721847534180e+00,2.867640256881713867e+00,2.800127506256103516e+00,2.735720872879028320e+00,2.674210309982299805e+00,2.615405082702636719e+00,2.559130191802978516e+00,2.505226135253906250e+00,2.453546047210693359e+00,2.403954982757568359e+00,2.356328964233398438e+00,2.310553312301635742e+00,2.266522407531738281e+00,2.224138259887695312e+00,2.183310031890869141e+00,2.143953800201416016e+00,2.105991363525390625e+00,2.069349765777587891e+00,2.033961772918701172e+00,1.999763488769531250e+00,1.966696381568908691e+00,1.934704780578613281e+00,1.903737545013427734e+00,1.873745679855346680e+00,1.844684481620788574e+00
5.000000000000000000e+00,5.000000000000000000e+00,5.000000000000000000e+00,5.000000000000000000e+00,5.000000000000000000e+00,5.000000000000000000e+00,5.000000000000000000e+00,5.000000000000000000e+00,5.000000000000000000e+00,5.000000000000000000e+00,5.000000000000000000e+00,5.000000000000000000e+00,5.000000000000000000e+00,5.000000000000000000e+00,5.000000000000000000e+00,5.000000000000000000e+00,5.000000000000000000e+00,5.000000000000000000e+00,5.000000000000000000e+00,5.000000000000000000e+00,5.000000000000000000e+00,5.000000000000000000e+00,5.000000000000000000e+00,5.000000000000000000e+00,5.000000000000000000e+00,5.000000000000000000e+00,5.000000000000000000e+00,5.000000000000000000e+00,5.000000000000000000e+00,5.000000000000000000e+00,5.000000000000000000e+00,5.000000000000000000e+00,5.000000000000000000e+00,5.000000000000000000e+00,5.000000000000000000e+00,5.000000000000000000e+00,5.000000000000000000e+00,5.000000000000000000e+00,5.000000000000000000e+00,4.859551429748535156e+00,4.668793201446533203e+00,4.492445468902587891e+00,4.328934669494628906e+00,4.176908969879150391e+00,4.035198211669921875e+00,3.902787685394287109e+00,3.778790950775146484e+00,3.662431001663208008e+00,3.553022861480712891e+00,3.449961900711059570e+00,3.352710962295532227e+00,3.260792732238769531e+00,3.173780202865600586e+00,3.091290473937988281e+00,3.012980222702026367e+00,2.938539981842041016e+00,2.867688894271850586e+00,2.800173997879028320e+00,2.735764980316162109e+00,2.674252510070800781e+00,2.615445375442504883e+00,2.559168815612792969e+00,2.505263090133666992e+00,2.453581571578979492e+00,2.403989315032958984e+00,2.356361865997314453e+00,2.310585021972656250e+00,2.266552686691284180e+00,2.224167346954345703e+00,2.183338165283203125e+00,2.143980979919433594e+00,2.106017827987670898e+00,2.069375276565551758e+00,2.033986330032348633e+00,1.999787092208862305e+00,1.966719269752502441e+00,1.934726834297180176e+00,1.903758883476257324e+00,1.873766422271728516e+00,1.844704627990722656e+00
5.000000000000000000e+00,5.000000000000000000e+00,5.000000000000000000e+00,5.000000000000000000e+00,5.000000000000000000e+00,5.000000000000000000e+00,5.000000000000000000e+00,5.000000000000000000e+00,5.000000000000000000e+00,5.000000000000000000e+00,5.000000000000000000e+00,5.000000000000000000e+00,5.000000000000000000e+00,5.000000000000000000e+00,5.000000000000000000e+00,5.000000000000000000e+00,5.000000000000000000e+00,5.000000000000000000e+00,5.000000000000000000e+00,5.000000000000000000e+00,5.000000000000000000e+00,5.000000000000000000e+00,5.000000000000000000e+00,5.000000000000000000e+00,5.000000000000000000e+00,5.000000000000000000e+00,5.000000000000000000e+00,5.000000000000000000e+00,5.000000000000000000e+00,5.000000000000000000e+00,5.000000000000000000e+00,5.000000000000000000e+00,5.000000000000000000e+00,5.000000000000000000e+00,5.000000000000000000e+00,5.000000000000000000e+00,5.000000000000000000e+00,5.000000000000000000e+00,5.000000000000000000e+00,4.859690666198730469e+00,4.668921947479248047e+00,4.492565155029296875e+00,4.329045772552490234e+00,4.177011489868164062e+00,4.035294532775878906e+00,3.902878046035766602e+00,3.778875589370727539e+00,3.662510156631469727e+00,3.553097486495971680e+00,3.450031995773315430e+00,3.352777481079101562e+00,3.260855674743652344e+00,3.173839807510375977e+00,3.091347217559814453e+00,3.013034105300903320e+00,2.938591003417968750e+00,2.867737531661987305e+00,2.800220251083374023e+00,2.735809087753295898e+00,2.674294710159301758e+00,2.615485906600952148e+00,2.559207677841186523e+00,2.505300283432006836e+00,2.453617095947265625e+00,2.404023408889770508e+00,2.356394767761230469e+00,2.310616493225097656e+00,2.266582965850830078e+00,2.224196672439575195e+00,2.183366537094116211e+00,2.144008159637451172e+00,2.106043815612792969e+00,2.069400548934936523e+00,2.034010648727416992e+00,1.999810695648193359e+00,1.966742038726806641e+00,1.934749126434326172e+00,1.903780341148376465e+00,1.873787403106689453e+00,1.844724655151367188e+00
5.000000000000000000e+00,5.000000000000000000e+00,5.000000000000000000e+00,5.000000000000000000e+00,5.000000000000000000e+00,5.000000000000000000e+00,5.000000000000000000e+00,5.000000000000000000e+00,5.000000000000000000e+00,5.000000000000000000e+00,5.000000000000000000e+00,5.000000000000000000e+00,5.000000000000000000e+00,5.000000000000000000e+00,5.000000000000000000e+00,5.000000000000000000e+00,5.000000000000000000e+00,5.000000000000000000e+00,5.000000000000000000e+00,5.000000000000000000e+00,5.000000000000000000e+00,5.000000000000000000e+00,5.000000000000000000e+00,5.000000000000000000e+00,5.000000000000000000e+00,5.000000000000000000e+00,5.000000000000000000e+00,5.000000000000000000e+00,5.000000000000000000e+00,5.000000000000000000e+00,5.000000000000000000e+00,5.000000000000000000e+00,5.000000000000000000e+00,5.000000000000000000e+00,5.000000000000000000e+00,5.000000000000000000e+00,5.000000000000000000e+00,5.000000000000000000e+00,5.000000000000000000e+00,4.859830379486083984e+00,4.669050693511962891e+00,4.492684364318847656e+00,4.329156398773193359e+00,4.177114963531494141e+00,4.035390377044677734e+00,3.902967929840087891e+00,3.778959989547729492e+00,3.662589311599731445e+00,3.553171873092651367e+00,3.450102567672729492e+00,3.352843999862670898e+00,3.260918617248535156e+00,3.173899412155151367e+00,3.091403722763061523e+00,3.013087749481201172e+00,2.938641786575317383e+00,2.867785930633544922e+00,2.800266742706298828e+00,2.735853672027587891e+00,2.674337148666381836e+00,2.615526199340820312e+00,2.559246301651000977e+00,2.505337476730346680e+00,2.453652620315551758e+00,2.404057502746582031e+00,2.356427669525146484e+00,2.310647964477539062e+00,2.266613483428955078e+00,2.224225997924804688e+00,2.183394670486450195e+00,2.144035339355468750e+00,2.106070041656494141e+00,2.069425821304321289e+00,2.034035205841064453e+00,1.999834537506103516e+00,1.966764926910400391e+00,1.934771299362182617e+00,1.903801679611206055e+00,1.873808145523071289e+00,1.844744801521301270e+00
5.000000000000000000e+00,5.000000000000000000e+00,5.000000000000000000e+00,5.000000000000000000e+00,5.000000000000000000e+00,5.000000000000000000e+00,5.000000000000000000e+00,5.000000000000000000e+00,5.000000000000000000e+00,5.000000000000000000e+00,5.000000000000000000e+00,5.000000000000000000e+00,5.000000000000000000e+00,5.000000000000000000e+00,5.000000000000000000e+00,5.000000000000000000e+00,5.000000000000000000e+00,5.000000000000000000e+00,5.000000000000000000e+00,5.000000000000000000e+00,5.000000000000000000e+00,5.000000000000000000e+00,5.000000000000000000e+00,5.000000000000000000e+00,5.000000000000000000e+00,5.000000000000000000e+00,5.000000000000000000e+00,5.000000000000000000e+00,5.000000000000000000e+00,5.000000000000000000e+00,5.000000000000000000e+00,5.000000000000000000e+00,5.000000000000000000e+00,5.000000000000000000e+00,5.000000000000000000e+00,5.000000000000000000e+00,5.000000000000000000e+00,5.000000000000000000e+00,5.000000000000000000e+00,4.859970092773437500e+00,4.669179916381835938e+00,4.492803573608398438e+00,4.329267501831054688e+00,4.177217960357666016e+00,4.035486698150634766e+00,3.903057813644409180e+00,3.779044628143310547e+00,3.662668943405151367e+00,3.553246736526489258e+00,3.450172901153564453e+00,3.352910280227661133e+00,3.260981321334838867e+00,3.173958778381347656e+00,3.091459989547729492e+00,3.013141632080078125e+00,2.938693046569824219e+00,2.867834806442260742e+00,2.800312995910644531e+00,2.735897779464721680e+00,2.674379348754882812e+00,2.615566730499267578e+00,2.559284925460815430e+00,2.505374670028686523e+00,2.453688383102416992e+00,2.404091596603393555e+00,2.356460332870483398e+00,2.310679674148559570e+00,2.266643762588500977e+00,2.224255084991455078e+00,2.183422803878784180e+00,2.144062757492065430e+00,2.106096506118774414e+00,2.069451093673706055e+00,2.034059524536132812e+00,1.999858140945434570e+00,1.966787695884704590e+00,1.934793353080749512e+00,1.903823018074035645e+00,1.873828768730163574e+00,1.844765067100524902e+00
5.000000000000000000e+00,5.000000000000000000e+00,5.000000000000000000e+00,5.000000000000000000e+00,5.000000000000000000e+00,5.000000000000000000e+00,5.000000000000000000e+00,5.000000000000000000e+00,5.000000000000000000e+00,5.000000000000000000e+00,5.000000000000000000e+00,5.000000000000000000e+00,5.000000000000000000e+00,5.000000000000000000e+00,5.000000000000000000e+00,5.000000000000000000e+00,5.000000000000000000e+00,5.000000000000000000e+00,5.000000000000000000e+00,5.000000000000000000e+00,5.000000000000000000e+00,5.000000000000000000e+00,5.000000000000000000e+00,5.000000000000000000e+00,5.000000000000000000e+00,5.000000000000000000e+00,5.000000000000000000e+00,5.000000000000000000e+00,5.000000000000000000e+00,5.000000000000000000e+00,5.000000000000000000e+00,5.000000000000000000e+00,5.000000000000000000e+00,5.000000000000000000e+00,5.000000000000000000e+00,5.000000000000000000e+00,5.000000000000000000e+00,5.000000000000000000e+00,5.000000000000000000e+00,4.860109806060791016e+00,4.669308662414550781e+00,4.492922782897949219e+00,4.329378128051757812e+00,4.177321434020996094e+00,4.035583019256591797e+00,3.903148174285888672e+00,3.779128789901733398e+00,3.662748098373413086e+00,3.553321361541748047e+00,3.450242996215820312e+00,3.352976799011230469e+00,3.261044502258300781e+00,3.174018621444702148e+00,3.091516733169555664e+00,3.013195037841796875e+00,2.938744068145751953e+00,2.867883205413818359e+00,2.800359249114990234e+00,2.735941886901855469e+00,2.674421787261962891e+00,2.615607261657714844e+00,2.559323787689208984e+00,2.505411624908447266e+00,2.453723907470703125e+00,2.404125690460205078e+00,2.356493234634399414e+00,2.310711145401000977e+00,2.266674280166625977e+00,2.224284410476684570e+00,2.183450937271118164e+00,2.144089698791503906e+00,2.106122493743896484e+00,2.069476366043090820e+00,2.034084081649780273e+00,1.999881744384765625e+00,1.966810822486877441e+00,1.934815406799316406e+00,1.903844714164733887e+00,1.873849511146545410e+00,1.844785094261169434e+00
5.000000000000000000e+00,5.000000000000000000e+00,5.000000000000000000e+00,5.000000000000000000e+00,5.000000000000000000e+00,5.000000000000000000e+00,5.000000000000000000e+00,5.000000000000000000e+00,5.000000000000000000e+00,5.000000000000000000e+00,5.000000000000000000e+00,5.000000000000000000e+00,5.000000000000000000e+00,5.000000000000000000e+00,5.000000000000000000e+00,5.000000000000000000e+00,5.000000000000000000e+00,5.000000000000000000e+00,5.000000000000000000e+00,5.000000000000000000e+00,5.000000000000000000e+00,5.000000000000000000e+00,5.000000000000000000e+00,5.000000000000000000e+00,5.000000000000000000e+00,5.000000000000000000e+00,5.000000000000000000e+00,5.000000000000000000e+00,5.000000000000000000e+00,5.000000000000000000e+00,5.000000000000000000e+00,5.000000000000000000e+00,5.000000000000000000e+00,5.000000000000000000e+00,5.000000000000000000e+00,5.000000000000000000e+00,5.000000000000000000e+00,5.000000000000000000e+00,5.000000000000000000e+00,4.860249042510986328e+00,4.669437885284423828e+00,4.493042469024658203e+00,4.329488754272460938e+00,4.177424430847167969e+00,4.035679340362548828e+00,3.903238058090209961e+00,3.779213190078735352e+00,3.662827253341674805e+00,3.553396224975585938e+00,3.450313806533813477e+00,3.353043317794799805e+00,3.261107206344604492e+00,3.174077987670898438e+00,3.091572999954223633e+00,3.013248682022094727e+00,2.938795089721679688e+00,2.867932081222534180e+00,2.800405979156494141e+00,2.735986232757568359e+00,2.674463987350463867e+00,2.615647554397583008e+00,2.559362411499023438e+00,2.505448818206787109e+00,2.453759431838989258e+00,2.404160022735595703e+00,2.356526136398315430e+00,2.310742855072021484e+00,2.266704559326171875e+00,2.224313735961914062e+00,2.183479070663452148e+00,2.144116878509521484e+00,2.106148719787597656e+00,2.069501876831054688e+00,2.034108638763427734e+00,1.999905347824096680e+00,1.966833591461181641e+00,1.934837579727172852e+00,1.903866052627563477e+00,1.873870253562927246e+00,1.844805240631103516e+00
5.000000000000000000e+00,5.000000000000000000e+00,5.000000000000000000e+00,5.000000000000000000e+00,5.000000000000000000e+00,5.000000000000000000e+00,5.000000000000000000e+00,5.000000000000000000e+00,5.000000000000000000e+00,5.000000000000000000e+00,5.000000000000000000e+00,5.000000000000000000e+00,5.000000000000000000e+00,5.000000000000000000e+00,5.000000000000000000e+00,5.000000000000000000e+00,5.000000000000000000e+00,5.000000000000000000e+00,5.000000000000000000e+00,5.000000000000000000e+00,5.000000000000000000e+00,5.000000000000000000e+00,5.000000000000000000e+00,5.000000000000000000e+00,5.000000000000000000e+00,5.000000000000000000e+00,5.000000000000000000e+00,5.000000000000000000e+00,5.000000000000000000e+00,5.000000000000000000e+00,5.000000000000000000e+00,5.000000000000000000e+00,5.000000000000000000e+00,5.000000000000000000e+00,5.000000000000000000e+00,5.000000000000000000e+00,5.000000000000000000e+00,5.000000000000000000e+00,5.000000000000000000e+00,4.860389232635498047e+00,4.669566154479980469e+00,4.493161678314208984e+00,4.329599857330322266e+00,4.177527427673339844e+00,4.035775661468505859e+00,3.903328418731689453e+00,3.779297828674316406e+00,3.662906885147094727e+00,3.553470611572265625e+00,3.450383901596069336e+00,3.353109836578369141e+00,3.261169910430908203e+00,3.174137353897094727e+00,3.091629743576049805e+00,3.013302564620971680e+00,2.938846349716186523e+00,2.867980480194091797e+00,2.800452232360839844e+00,2.736030578613281250e+00,2.674506187438964844e+00,2.615688085556030273e+00,2.559401273727416992e+00,2.505486011505126953e+00,2.453795194625854492e+00,2.404194116592407227e+00,2.356558799743652344e+00,2.310774326324462891e+00,2.266734838485717773e+00,2.224342823028564453e+00,2.183507442474365234e+00,2.144144058227539062e+00,2.106174945831298828e+00,2.069527149200439453e+00,2.034132957458496094e+00,1.999928951263427734e+00,1.966856479644775391e+00,1.934859633445739746e+00,1.903887510299682617e+00,1.873891234397888184e+00,1.844825267791748047e+00
5.000000000000000000e+00,5.000000000000000000e+00,5.000000000000000000e+00,5.000000000000000000e+00,5.000000000000000000e+00,5.000000000000000000e+00,5.000000000000000000e+00,5.000000000000000000e+00,5.000000000000000000e+00,5.000000000000000000e+00,5.000000000000000000e+00,5.000000000000000000e+00,5.000000000000000000e+00,5.000000000000000000e+00,5.000000000000000000e+00,5.000000000000000000e+00,5.000000000000000000e+00,5.000000000000000000e+00,5.000000000000000000e+00,5.000000000000000000e+00,5.000000000000000000e+00,5.000000000000000000e+00,5.000000000000000000e+00,5.000000000000000000e+00,5.000000000000000000e+00,5.000000000000000000e+00,5.000000000000000000e+00,5.000000000000000000e+00,5.000000000000000000e+00,5.000000000000000000e+00,5.000000000000000000e+00,5.000000000000000000e+00,5.000000000000000000e+00,5.000000000000000000e+00,5.000000000000000000e+00,5.000000000000000000e+00,5.000000000000000000e+00,5.000000000000000000e+00,5.000000000000000000e+00,4.860528945922851562e+00,4.669695377349853516e+00,4.493280887603759766e+00,4.329710483551025391e+00,4.177630901336669922e+00,4.035871982574462891e+00,3.903418302536010742e+00,3.779382228851318359e+00,3.662986040115356445e+00,3.553545236587524414e+00,3.450454235076904297e+00,3.353176355361938477e+00,3.261233091354370117e+00,3.174197196960449219e+00,3.091686248779296875e+00,3.013356208801269531e+00,2.938897132873535156e+00,2.868029117584228516e+00,2.800498485565185547e+00,2.736074924468994141e+00,2.674548625946044922e+00,2.615728616714477539e+00,2.559439897537231445e+00,2.505522966384887695e+00,2.453830718994140625e+00,2.404228210449218750e+00,2.356591701507568359e+00,2.310806035995483398e+00,2.266765356063842773e+00,2.224372148513793945e+00,2.183535575866699219e+00,2.144171237945556641e+00,2.106201171875000000e+00,2.069552421569824219e+00,2.034157276153564453e+00,1.999952793121337891e+00,1.966879248619079590e+00,1.934881925582885742e+00,1.903908848762512207e+00,1.873911857604980469e+00,1.844845414161682129e+00
5.000000000000000000e+00,5.000000000000000000e+00,5.000000000000000000e+00,5.000000000000000000e+00,5.000000000000000000e+00,5.000000000000000000e+00,5.000000000000000000e+00,5.000000000000000000e+00,5.000000000000000000e+00,5.000000000000000000e+00,5.000000000000000000e+00,5.000000000000000000e+00,5.000000000000000000e+00,5.000000000000000000e+00,5.000000000000000000e+00,5.000000000000000000e+00,5.000000000000000000e+00,5.000000000000000000e+00,5.000000000000000000e+00,5.000000000000000000e+00,5.000000000000000000e+00,5.000000000000000000e+00,5.000000000000000000e+00,5.000000000000000000e+00,5.000000000000000000e+00,5.000000000000000000e+00,5.000000000000000000e+00,5.000000000000000000e+00,5.000000000000000000e+00,5.000000000000000000e+00,5.000000000000000000e+00,5.000000000000000000e+00,5.000000000000000000e+00,5.000000000000000000e+00,5.000000000000000000e+00,5.000000000000000000e+00,5.000000000000000000e+00,5.000000000000000000e+00,5.000000000000000000e+00,4.860668659210205078e+00,4.669824123382568359e+00,4.493400096893310547e+00,4.329821109771728516e+00,4.177733898162841797e+00,4.035968303680419922e+00,3.903508186340332031e+00,3.779466390609741211e+00,3.663065671920776367e+00,3.553620100021362305e+00,3.450524806976318359e+00,3.353242874145507812e+00,3.261295795440673828e+00,3.174256563186645508e+00,3.091742515563964844e+00,3.013409614562988281e+00,2.938948392868041992e+00,2.868077993392944336e+00,2.800544977188110352e+00,2.736119031906127930e+00,2.674590826034545898e+00,2.615768909454345703e+00,2.559478759765625000e+00,2.505559921264648438e+00,2.453866481781005859e+00,2.404262542724609375e+00,2.356624603271484375e+00,2.310837507247924805e+00,2.266795635223388672e+00,2.224401473999023438e+00,2.183563709259033203e+00,2.144198417663574219e+00,2.106227636337280273e+00,2.069577693939208984e+00,2.034181833267211914e+00,1.999976396560668945e+00,1.966902017593383789e+00,1.934903979301452637e+00,1.903930187225341797e+00,1.873932600021362305e+00,1.844865679740905762e+00
5.000000000000000000e+00,5.000000000000000000e+00,5.000000000000000000e+00,5.000000000000000000e+00,5.000000000000000000e+00,5.000000000000000000e+00,5.000000000000000000e+00,5.000000000000000000e+00,5.000000000000000000e+00,5.000000000000000000e+00,5.000000000000000000e+00,5.000000000000000000e+00,5.000000000000000000e+00,5.000000000000000000e+00,5.000000000000000000e+00,5.000000000000000000e+00,5.000000000000000000e+00,5.000000000000000000e+00,5.000000000000000000e+00,5.000000000000000000e+00,5.000000000000000000e+00,5.000000000000000000e+00,5.000000000000000000e+00,5.000000000000000000e+00,5.000000000000000000e+00,5.000000000000000000e+00,4.919959068298339844e+00,5.000000000000000000e+00,5.000000000000000000e+00,5.000000000000000000e+00,5.000000000000000000e+00,5.000000000000000000e+00,5.000000000000000000e+00,5.000000000000000000e+00,5.000000000000000000e+00,5.000000000000000000e+00,5.000000000000000000e+00,5.000000000000000000e+00,5.000000000000000000e+00,4.860807895660400391e+00,4.669953346252441406e+00,4.493519783020019531e+00,4.329932212829589844e+00,4.177836894989013672e+00,4.036064624786376953e+00,3.903598546981811523e+00,3.779551267623901367e+00,3.663144826889038086e+00,3.553694486618041992e+00,3.450595140457153320e+00,3.353309154510498047e+00,3.261358499526977539e+00,3.174316406250000000e+00,3.091799259185791016e+00,3.013463497161865234e+00,2.938999414443969727e+00,2.868126392364501953e+00,2.800591230392456055e+00,2.736163139343261719e+00,2.674633026123046875e+00,2.615809440612792969e+00,2.559517383575439453e+00,2.505597352981567383e+00,2.453902006149291992e+00,2.404296636581420898e+00,2.356657266616821289e+00,2.310868978500366211e+00,2.266825914382934570e+00,2.224430799484252930e+00,2.183592081069946289e+00,2.144225597381591797e+00,2.106253623962402344e+00,2.069602966308593750e+00,2.034206390380859375e+00,2.000000000000000000e+00,1.966924905776977539e+00,1.934926152229309082e+00,1.903951883316040039e+00,1.873953342437744141e+00,1.844885706901550293e+00
5.000000000000000000e+00,5.000000000000000000e+00,5.000000000000000000e+00,5.000000000000000000e+00,5.000000000000000000e+00,5.000000000000000000e+00,5.000000000000000000e+00,5.000000000000000000e+00,5.000000000000000000e+00,5.000000000000000000e+00,5.000000000000000000e+00,5.000000000000000000e+00,5.000000000000000000e+00,5.000000000000000000e+00,5.000000000000000000e+00,5.000000000000000000e+00,5.000000000000000000e+00,5.000000000000000000e+00,5.000000000000000000e+00,5.000000000000000000e+00,5.000000000000000000e+00,5.000000000000000000e+00,5.000000000000000000e+00,5.000000000000000000e+00,5.000000000000000000e+00,4.974866867065429688e+00,4.906942367553710938e+00,5.000000000000000000e+00,5.000000000000000000e+00,5.000000000000000000e+00,5.000000000000000000e+00,5.000000000000000000e+00,5.000000000000000000e+00,5.000000000000000000e+00,5.000000000000000000e+00,5.000000000000000000e+00,5.000000000000000000e+00,5.000000000000000000e+00,5.000000000000000000e+00,4.860947608947753906e+00,4.670082092285156250e+00,4.493638992309570312e+00,4.330043315887451172e+00,4.177940368652343750e+00,4.036160945892333984e+00,3.903688669204711914e+00,3.779635429382324219e+00,3.663223981857299805e+00,3.553769111633300781e+00,3.450665712356567383e+00,3.353375911712646484e+00,3.261421680450439453e+00,3.174375772476196289e+00,3.091855764389038086e+00,3.013517141342163086e+00,2.939050436019897461e+00,2.868175029754638672e+00,2.800637722015380859e+00,2.736207723617553711e+00,2.674675464630126953e+00,2.615849971771240234e+00,2.559556245803833008e+00,2.505634307861328125e+00,2.453937530517578125e+00,2.404330730438232422e+00,2.356690168380737305e+00,2.310900688171386719e+00,2.266856431961059570e+00,2.224459886550903320e+00,2.183620214462280273e+00,2.144252777099609375e+00,2.106279850006103516e+00,2.069628238677978516e+00,2.034230947494506836e+00,2.000023603439331055e+00,1.966947913169860840e+00,1.934948205947875977e+00,1.903973221778869629e+00,1.873974084854125977e+00,1.844905853271484375e+00
5.000000000000000000e+00,5.000000000000000000e+00,5.000000000000000000e+00,5.000000000000000000e+00,5.000000000000000000e+00,5.000000000000000000e+00,5.000000000000000000e+00,5.000000000000000000e+00,5.000000000000000000e+00,5.000000000000000000e+00,5.000000000000000000e+00,5.000000000000000000e+00,5.000000000000000000e+00,5.000000000000000000e+00,5.000000000000000000e+00,5.000000000000000000e+00,5.000000000000000000e+00,5.000000000000000000e+00,5.000000000000000000e+00,5.000000000000000000e+00,5.000000000000000000e+00,5.000000000000000000e+00,5.000000000000000000e+00,5.000000000000000000e+00,5.000000000000000000e+00,5.000000000000000000e+00,4.922750949859619141e+00,5.000000000000000000e+00,5.000000000000000000e+00,5.000000000000000000e+00,5.000000000000000000e+00,5.000000000000000000e+00,5.000000000000000000e+00,5.000000000000000000e+00,5.000000000000000000e+00,5.000000000000000000e+00,5.000000000000000000e+00,5.000000000000000000e+00,5.000000000000000000e+00,4.861087322235107422e+00,4.670210838317871094e+00,4.493758678436279297e+00,4.330153942108154297e+00,4.178043365478515625e+00,4.036257266998291016e+00,3.903779029846191406e+00,3.779720067977905273e+00,3.663303613662719727e+00,3.553843975067138672e+00,3.450736045837402344e+00,3.353442192077636719e+00,3.261484384536743164e+00,3.174435377120971680e+00,3.091912269592285156e+00,3.013571023941040039e+00,2.939101696014404297e+00,2.868223667144775391e+00,2.800683975219726562e+00,2.736251831054687500e+00,2.674717664718627930e+00,2.615890264511108398e+00,2.559595108032226562e+00,2.505671501159667969e+00,2.453973293304443359e+00,2.404365062713623047e+00,2.356723070144653320e+00,2.310932159423828125e+00,2.266886949539184570e+00,2.224489212036132812e+00,2.183648347854614258e+00,2.144280195236206055e+00,2.106306314468383789e+00,2.069653749465942383e+00,2.034255266189575195e+00,2.000047206878662109e+00,1.966970801353454590e+00,1.934970259666442871e+00,1.903994679450988770e+00,1.873994946479797363e+00,1.844925880432128906e+00
5.000000000000000000e+00,5.000000000000000000e+00,5.000000000000000000e+00,5.000000000000000000e+00,5.000000000000000000e+00,5.000000000000000000e+00,5.000000000000000000e+00,5.000000000000000000e+00,5.000000000000000000e+00,5.000000000000000000e+00,5.000000000000000000e+00,5.000000000000000000e+00,5.000000000000000000e+00,5.000000000000000000e+00,5.000000000000000000e+00,5.000000000000000000e+00,5.000000000000000000e+00,5.000000000000000000e+00,5.000000000000000000e+00,5.000000000000000000e+00,5.000000000000000000e+00,5.000000000000000000e+00,5.000000000000000000e+00,5.000000000000000000e+00,4.926422119140625000e+00,4.922221183776855469e+00,4.997575283050537109e+00,4.989936828613281250e+00,5.000000000000000000e+00,5.000000000000000000e+00,5.000000000000000000e+00,5.000000000000000000e+00,5.000000000000000000e+00,5.000000000000000000e+00,5.000000000000000000e+00,5.000000000000000000e+00,5.000000000000000000e+00,5.000000000000000000e+00,5.000000000000000000e+00,4.861227512359619141e+00,4.670340061187744141e+00,4.493877887725830078e+00,4.330265045166015625e+00,4.178146839141845703e+00,4.036353588104248047e+00,3.903868913650512695e+00,3.779804468154907227e+00,3.663382768630981445e+00,3.553918600082397461e+00,3.450806140899658203e+00,3.353508949279785156e+00,3.261547565460205078e+00,3.174494981765747070e+00,3.091968774795532227e+00,3.013624668121337891e+00,2.939152479171752930e+00,2.868272304534912109e+00,2.800730228424072266e+00,2.736296176910400391e+00,2.674760103225708008e+00,2.615930795669555664e+00,2.559633731842041016e+00,2.505708694458007812e+00,2.454008817672729492e+00,2.404399156570434570e+00,2.356755733489990234e+00,2.310963869094848633e+00,2.266917228698730469e+00,2.224518537521362305e+00,2.183676481246948242e+00,2.144307136535644531e+00,2.106332302093505859e+00,2.069679021835327148e+00,2.034279823303222656e+00,2.000071048736572266e+00,1.966993570327758789e+00,1.934992671012878418e+00,1.904016017913818359e+00,1.874015688896179199e+00,1.844946026802062988e+00
5.000000000000000000e+00,5.000000000000000000e+00,5.000000000000000000e+00,5.000000000000000000e+00,5.000000000000000000e+00,5.000000000000000000e+00,5.000000000000000000e+00,5.000000000000000000e+00,5.000000000000000000e+00,5.000000000000000000e+00,5.000000000000000000e+00,5.000000000000000000e+00,5.000000000000000000e+00,5.000000000000000000e+00,5.000000000000000000e+00,5.000000000000000000e+00,5.000000000000000000e+00,5.000000000000000000e+00,5.000000000000000000e+00,5.000000000000000000e+00,5.000000000000000000e+00,5.000000000000000000e+00,5.000000000000000000e+00,4.917799472808837891e+00,4.900976181030273438e+00,4.881596088409423828e+00,4.907509326934814453e+00,4.940439224243164062e+00,5.000000000000000000e+00,5.000000000000000000e+00,5.000000000000000000e+00,5.000000000000000000e+00,5.000000000000000000e+00,5.000000000000000000e+00,5.000000000000000000e+00,5.000000000000000000e+00,5.000000000000000000e+00,5.000000000000000000e+00,5.000000000000000000e+00,4.861367225646972656e+00,4.670469284057617188e+00,4.493997097015380859e+00,4.330375671386718750e+00,4.178250312805175781e+00,4.036449909210205078e+00,3.903958797454833984e+00,3.779888868331909180e+00,3.663462400436401367e+00,3.553993463516235352e+00,3.450876951217651367e+00,3.353575229644775391e+00,3.261610269546508789e+00,3.174554586410522461e+00,3.092025279998779297e+00,3.013678312301635742e+00,2.939203739166259766e+00,2.868321180343627930e+00,2.800776720046997070e+00,2.736340284347534180e+00,2.674802303314208984e+00,2.615971326828002930e+00,2.559672355651855469e+00,2.505745649337768555e+00,2.454044342041015625e+00,2.404433488845825195e+00,2.356788635253906250e+00,2.310995340347290039e+00,2.266947746276855469e+00,2.224547624588012695e+00,2.183704614639282227e+00,2.144334316253662109e+00,2.106358766555786133e+00,2.069704294204711914e+00,2.034304141998291016e+00,2.000094652175903320e+00,1.967016458511352539e+00,1.935014724731445312e+00,1.904037356376647949e+00,1.874036431312561035e+00,1.844966292381286621e+00
5.000000000000000000e+00,5.000000000000000000e+00,5.000000000000000000e+00,5.000000000000000000e+00,5.000000000000000000e+00,5.000000000000000000e+00,5.000000000000000000e+00,5.000000000000000000e+00,5.000000000000000000e+00,5.000000000000000000e+00,5.000000000000000000e+00,5.000000000000000000e+00,5.000000000000000000e+00,5.000000000000000000e+00,5.000000000000000000e+00,5.000000000000000000e+00,5.000000000000000000e+00,5.000000000000000000e+00,5.000000000000000000e+00,5.000000000000000000e+00,5.000000000000000000e+00,5.000000000000000000e+00,5.000000000000000000e+00,5.000000000000000000e+00,4.932725906372070312e+00,4.888370990753173828e+00,4.891346931457519531e+00,4.935973167419433594e+00,5.000000000000000000e+00,5.000000000000000000e+00,5.000000000000000000e+00,5.000000000000000000e+00,5.000000000000000000e+00,5.000000000000000000e+00,5.000000000000000000e+00,5.000000000000000000e+00,5.000000000000000000e+00,5.000000000000000000e+00,5.000000000000000000e+00,4.861506462097167969e+00,4.670598030090332031e+00,4.494116783142089844e+00,4.330486297607421875e+00,4.178353309631347656e+00,4.036546230316162109e+00,3.904049158096313477e+00,3.779973506927490234e+00,3.663541555404663086e+00,3.554068088531494141e+00,3.450947046279907227e+00,3.353641510009765625e+00,3.261672973632812500e+00,3.174614429473876953e+00,3.092082023620605469e+00,3.013731956481933594e+00,2.939254760742187500e+00,2.868369579315185547e+00,2.800823211669921875e+00,2.736384630203247070e+00,2.674844503402709961e+00,2.616011857986450195e+00,2.559711217880249023e+00,2.505782842636108398e+00,2.454080104827880859e+00,2.404467582702636719e+00,2.356821537017822266e+00,2.311026811599731445e+00,2.266978025436401367e+00,2.224576950073242188e+00,2.183732986450195312e+00,2.144361734390258789e+00,2.106384992599487305e+00,2.069729566574096680e+00,2.034328699111938477e+00,2.000118255615234375e+00,1.967039227485656738e+00,1.935036778450012207e+00,1.904059052467346191e+00,1.874057173728942871e+00,1.844986319541931152e+00
5.000000000000000000e+00,5.000000000000000000e+00,5.000000000000000000e+00,5.000000000000000000e+00,5.000000000000000000e+00,5.000000000000000000e+00,5.000000000000000000e+00,5.000000000000000000e+00,5.000000000000000000e+00,5.000000000000000000e+00,5.000000000000000000e+00,5.000000000000000000e+00,5.000000000000000000e+00,5.000000000000000000e+00,5.000000000000000000e+00,5.000000000000000000e+00,5.000000000000000000e+00,5.000000000000000000e+00,5.000000000000000000e+00,5.000000000000000000e+00,5.000000000000000000e+00,5.000000000000000000e+00,5.000000000000000000e+00,5.000000000000000000e+00,4.939313411712646484e+00,4.884358406066894531e+00,4.888020038604736328e+00,4.933492183685302734e+00,5.000000000000000000e+00,5.000000000000000000e+00,5.000000000000000000e+00,5.000000000000000000e+00,5.000000000000000000e+00,5.000000000000000000e+00,5.000000000000000000e+00,5.000000000000000000e+00,5.000000000000000000e+00,5.000000000000000000e+00,5.000000000000000000e+00,4.861646175384521484e+00,4.670726776123046875e+00,4.494236469268798828e+00,4.330597400665283203e+00,4.178456306457519531e+00,4.036642551422119141e+00,3.904139041900634766e+00,3.780057907104492188e+00,3.663620710372924805e+00,3.554142475128173828e+00,3.451017856597900391e+00,3.353708267211914062e+00,3.261736154556274414e+00,3.174673795700073242e+00,3.092138290405273438e+00,3.013785600662231445e+00,2.939305782318115234e+00,2.868418216705322266e+00,2.800869703292846680e+00,2.736428976058959961e+00,2.674886941909790039e+00,2.616052150726318359e+00,2.559749841690063477e+00,2.505820035934448242e+00,2.454115629196166992e+00,2.404501676559448242e+00,2.356854438781738281e+00,2.311058521270751953e+00,2.267008543014526367e+00,2.224606275558471680e+00,2.183761119842529297e+00,2.144388675689697266e+00,2.106410980224609375e+00,2.069755077362060547e+00,2.034353256225585938e+00,2.000141859054565430e+00,1.967062354087829590e+00,1.935058951377868652e+00,1.904080390930175781e+00,1.874077916145324707e+00,1.845006465911865234e+00
5.000000000000000000e+00,5.000000000000000000e+00,5.000000000000000000e+00,5.000000000000000000e+00,5.000000000000000000e+00,5.000000000000000000e+00,5.000000000000000000e+00,5.000000000000000000e+00,5.000000000000000000e+00,5.000000000000000000e+00,5.000000000000000000e+00,5.000000000000000000e+00,5.000000000000000000e+00,5.000000000000000000e+00,5.000000000000000000e+00,5.000000000000000000e+00,5.000000000000000000e+00,5.000000000000000000e+00,5.000000000000000000e+00,5.000000000000000000e+00,5.000000000000000000e+00,5.000000000000000000e+00,5.000000000000000000e+00,5.000000000000000000e+00,4.964393615722656250e+00,4.873244762420654297e+00,4.881789207458496094e+00,4.926492691040039062e+00,5.000000000000000000e+00,5.000000000000000000e+00,5.000000000000000000e+00,5.000000000000000000e+00,5.000000000000000000e+00,5.000000000000000000e+00,5.000000000000000000e+00,5.000000000000000000e+00,5.000000000000000000e+00,5.000000000000000000e+00,5.000000000000000000e+00,4.861786365509033203e+00,4.670855998992919922e+00,4.494355678558349609e+00,4.330708503723144531e+00,4.178559780120849609e+00,4.036738872528076172e+00,3.904229164123535156e+00,3.780142545700073242e+00,3.663700342178344727e+00,3.554217338562011719e+00,3.451087951660156250e+00,3.353774547576904297e+00,3.261798858642578125e+00,3.174733161926269531e+00,3.092194795608520508e+00,3.013839483261108398e+00,2.939357042312622070e+00,2.868467092514038086e+00,2.800915956497192383e+00,2.736473083496093750e+00,2.674929141998291016e+00,2.616092681884765625e+00,2.559788465499877930e+00,2.505857229232788086e+00,2.454151153564453125e+00,2.404536008834838867e+00,2.356887340545654297e+00,2.311089992523193359e+00,2.267038822174072266e+00,2.224635362625122070e+00,2.183789253234863281e+00,2.144416093826293945e+00,2.106437444686889648e+00,2.069780349731445312e+00,2.034377574920654297e+00,2.000165462493896484e+00,1.967085242271423340e+00,1.935081005096435547e+00,1.904101848602294922e+00,1.874098777770996094e+00,1.845026493072509766e+00
5.000000000000000000e+00,5.000000000000000000e+00,5.000000000000000000e+00,5.000000000000000000e+00,5.000000000000000000e+00,5.000000000000000000e+00,5.000000000000000000e+00,5.000000000000000000e+00,5.000000000000000000e+00,5.000000000000000000e+00,5.000000000000000000e+00,5.000000000000000000e+00,5.000000000000000000e+00,5.000000000000000000e+00,5.000000000000000000e+00,5.000000000000000000e+00,5.000000000000000000e+00,5.000000000000000000e+00,5.000000000000000000e+00,5.000000000000000000e+00,5.000000000000000000e+00,5.000000000000000000e+00,5.000000000000000000e+00,5.000000000000000000e+00,4.959283351898193359e+00,4.893898010253906250e+00,4.894915580749511719e+00,4.937264919281005859e+00,5.000000000000000000e+00,5.000000000000000000e+00,5.000000000000000000e+00,5.000000000000000000e+00,5.000000000000000000e+00,5.000000000000000000e+00,5.000000000000000000e+00,5.000000000000000000e+00,5.000000000000000000e+00,5.000000000000000000e+00,5.000000000000000000e+00,4.861926078796386719e+00,4.670985221862792969e+00,4.494474887847900391e+00,4.330819129943847656e+00,4.178662776947021484e+00,4.036835193634033203e+00,3.904319524765014648e+00,3.780226945877075195e+00,3.663779497146606445e+00,3.554291963577270508e+00,3.451158285140991211e+00,3.353841066360473633e+00,3.261862039566040039e+00,3.174793004989624023e+00,3.092251539230346680e+00,3.013893127441406250e+00,2.939408063888549805e+00,2.868515491485595703e+00,2.800962209701538086e+00,2.736517429351806641e+00,2.674971580505371094e+00,2.616133213043212891e+00,2.559827327728271484e+00,2.505894184112548828e+00,2.454186677932739258e+00,2.404570102691650391e+00,2.356920003890991211e+00,2.311121463775634766e+00,2.267069339752197266e+00,2.224664688110351562e+00,2.183817625045776367e+00,2.144443273544311523e+00,2.106463670730590820e+00,2.069805622100830078e+00,2.034402132034301758e+00,2.000189065933227539e+00,1.967108011245727539e+00,1.935103297233581543e+00,1.904123187065124512e+00,1.874119520187377930e+00,1.845046639442443848e+00
5.000000000000000000e+00,5.000000000000000000e+00,5.000000000000000000e+00,5.000000000000000000e+00,5.000000000000000000e+00,5.000000000000000000e+00,5.000000000000000000e+00,5.000000000000000000e+00,5.000000000000000000e+00,5.000000000000000000e+00,5.000000000000000000e+00,5.000000000000000000e+00,5.000000000000000000e+00,5.000000000000000000e+00,5.000000000000000000e+00,5.000000000000000000e+00,5.000000000000000000e+00,5.000000000000000000e+00,5.000000000000000000e+00,5.000000000000000000e+00,5.000000000000000000e+00,5.000000000000000000e+00,5.000000000000000000e+00,5.000000000000000000e+00,4.940518856048583984e+00,4.830761909484863281e+00,4.884692192077636719e+00,4.960223197937011719e+00,5.000000000000000000e+00,5.000000000000000000e+00,5.000000000000000000e+00,5.000000000000000000e+00,5.000000000000000000e+00,5.000000000000000000e+00,5.000000000000000000e+00,5.000000000000000000e+00,5.000000000000000000e+00,5.000000000000000000e+00,5.000000000000000000e+00,4.862065315246582031e+00,4.671113967895507812e+00,4.494594573974609375e+00,4.330930233001708984e+00,4.178766250610351562e+00,4.036931514739990234e+00,3.904409408569335938e+00,3.780311346054077148e+00,3.663858652114868164e+00,3.554366827011108398e+00,3.451228857040405273e+00,3.353907823562622070e+00,3.261924743652343750e+00,3.174852609634399414e+00,3.092307806015014648e+00,3.013946771621704102e+00,2.939459085464477539e+00,2.868564367294311523e+00,2.801008701324462891e+00,2.736561775207519531e+00,2.675013780593872070e+00,2.616173505783081055e+00,2.559865951538085938e+00,2.505931377410888672e+00,2.454222440719604492e+00,2.404604434967041016e+00,2.356952905654907227e+00,2.311153173446655273e+00,2.267099618911743164e+00,2.224694013595581055e+00,2.183845758438110352e+00,2.144470214843750000e+00,2.106489658355712891e+00,2.069831132888793945e+00,2.034426689147949219e+00,2.000212907791137695e+00,1.967130899429321289e+00,1.935125470161437988e+00,1.904144644737243652e+00,1.874140262603759766e+00,1.845066666603088379e+00
5.000000000000000000e+00,5.000000000000000000e+00,5.000000000000000000e+00,5.000000000000000000e+00,5.000000000000000000e+00,5.000000000000000000e+00,5.000000000000000000e+00,5.000000000000000000e+00,5.000000000000000000e+00,5.000000000000000000e+00,5.000000000000000000e+00,5.000000000000000000e+00,5.000000000000000000e+00,5.000000000000000000e+00,5.000000000000000000e+00,5.000000000000000000e+00,5.000000000000000000e+00,5.000000000000000000e+00,5.000000000000000000e+00,5.000000000000000000e+00,5.000000000000000000e+00,5.000000000000000000e+00,5.000000000000000000e+00,5.000000000000000000e+00,4.935263156890869141e+00,4.795059680938720703e+00,4.825145244598388672e+00,4.955901145935058594e+00,5.000000000000000000e+00,5.000000000000000000e+00,4.906626701354980469e+00,5.000000000000000000e+00,5.000000000000000000e+00,5.000000000000000000e+00,5.000000000000000000e+00,5.000000000000000000e+00,5.000000000000000000e+00,5.000000000000000000e+00,5.000000000000000000e+00,4.862205505371093750e+00,4.671242713928222656e+00,4.494713783264160156e+00,4.331040859222412109e+00,4.178869247436523438e+00,4.037027835845947266e+00,3.904499769210815430e+00,3.780395984649658203e+00,3.663938283920288086e+00,3.554441452026367188e+00,3.451299190521240234e+00,3.353974103927612305e+00,3.261987686157226562e+00,3.174911975860595703e+00,3.092364549636840820e+00,3.014000654220581055e+00,2.939510107040405273e+00,2.868613004684448242e+00,2.801054954528808594e+00,2.736605882644653320e+00,2.675056219100952148e+00,2.616214036941528320e+00,2.559904813766479492e+00,2.505968570709228516e+00,2.454257965087890625e+00,2.404638528823852539e+00,2.356985807418823242e+00,2.311184644699096680e+00,2.267129898071289062e+00,2.224723100662231445e+00,2.183873891830444336e+00,2.144497632980346680e+00,2.106516122817993164e+00,2.069856405258178711e+00,2.034451007843017578e+00,2.000236511230468750e+00,1.967153668403625488e+00,1.935147523880004883e+00,1.904166221618652344e+00,1.874161005020141602e+00,1.845087051391601562e+00
5.000000000000000000e+00,5.000000000000000000e+00,5.000000000000000000e+00,5.000000000000000000e+00,5.000000000000000000e+00,5.000000000000000000e+00,5.000000000000000000e+00,5.000000000000000000e+00,5.000000000000000000e+00,5.000000000000000000e+00,5.000000000000000000e+00,5.000000000000000000e+00,5.000000000000000000e+00,5.000000000000000000e+00,5.000000000000000000e+00,5.000000000000000000e+00,5.000000000000000000e+00,5.000000000000000000e+00,5.000000000000000000e+00,5.000000000000000000e+00,5.000000000000000000e+00,5.000000000000000000e+00,5.000000000000000000e+00,5.000000000000000000e+00,4.912395477294921875e+00,4.762848854064941406e+00,4.783300399780273438e+00,4.970889091491699219e+00,5.000000000000000000e+00,5.000000000000000000e+00,5.000000000000000000e+00,5.000000000000000000e+00,5.000000000000000000e+00,5.000000000000000000e+00,5.000000000000000000e+00,5.000000000000000000e+00,5.000000000000000000e+00,5.000000000000000000e+00,5.000000000000000000e+00,4.862345218658447266e+00,4.671371936798095703e+00,4.494832992553710938e+00,4.331151962280273438e+00,4.178972721099853516e+00,4.037124156951904297e+00,3.904589891433715820e+00,3.780480384826660156e+00,3.664017677307128906e+00,3.554516077041625977e+00,3.451369524002075195e+00,3.354040861129760742e+00,3.262050628662109375e+00,3.174971818923950195e+00,3.092421054840087891e+00,3.014054298400878906e+00,2.939561128616333008e+00,2.868661403656005859e+00,2.801101446151733398e+00,2.736650466918945312e+00,2.675098657608032227e+00,2.616254568099975586e+00,2.559943675994873047e+00,2.506005525588989258e+00,2.454293489456176758e+00,2.404672622680664062e+00,2.357018470764160156e+00,2.311216354370117188e+00,2.267160415649414062e+00,2.224752664566040039e+00,2.183902025222778320e+00,2.144524812698364258e+00,2.106542348861694336e+00,2.069881677627563477e+00,2.034475564956665039e+00,2.000260114669799805e+00,1.967176795005798340e+00,1.935169577598571777e+00,1.904187560081481934e+00,1.874181747436523438e+00,1.845107078552246094e+00
5.000000000000000000e+00,5.000000000000000000e+00,5.000000000000000000e+00,5.000000000000000000e+00,5.000000000000000000e+00,5.000000000000000000e+00,5.000000000000000000e+00,5.000000000000000000e+00,5.000000000000000000e+00,5.000000000000000000e+00,5.000000000000000000e+00,5.000000000000000000e+00,5.000000000000000000e+00,5.000000000000000000e+00,5.000000000000000000e+00,5.000000000000000000e+00,5.000000000000000000e+00,5.000000000000000000e+00,5.000000000000000000e+00,5.000000000000000000e+00,5.000000000000000000e+00,5.000000000000000000e+00,5.000000000000000000e+00,5.000000000000000000e+00,5.000000000000000000e+00,4.769302845001220703e+00,4.737349510192871094e+00,4.989063739776611328e+00,5.000000000000000000e+00,5.000000000000000000e+00,5.000000000000000000e+00,5.000000000000000000e+00,5.000000000000000000e+00,5.000000000000000000e+00,5.000000000000000000e+00,5.000000000000000000e+00,5.000000000000000000e+00,5.000000000000000000e+00,5.000000000000000000e+00,4.862484931945800781e+00,4.671501159667968750e+00,4.494952678680419922e+00,4.331262588500976562e+00,4.179075717926025391e+00,4.037220478057861328e+00,3.904679775238037109e+00,3.780564785003662109e+00,3.664097070693969727e+00,3.554590940475463867e+00,3.451440095901489258e+00,3.354107141494750977e+00,3.262113571166992188e+00,3.175031185150146484e+00,3.092477560043334961e+00,3.014107704162597656e+00,2.939612388610839844e+00,2.868710279464721680e+00,2.801147937774658203e+00,2.736694574356079102e+00,2.675140857696533203e+00,2.616294860839843750e+00,2.559982299804687500e+00,2.506042718887329102e+00,2.454329252243041992e+00,2.404706954956054688e+00,2.357051372528076172e+00,2.311248064041137695e+00,2.267190694808959961e+00,2.224781751632690430e+00,2.183930158615112305e+00,2.144551753997802734e+00,2.106568574905395508e+00,2.069906949996948242e+00,2.034499883651733398e+00,2.000283718109130859e+00,1.967199563980102539e+00,1.935191750526428223e+00,1.904209017753601074e+00,1.874202489852905273e+00,1.845127224922180176e+00
5.000000000000000000e+00,5.000000000000000000e+00,5.000000000000000000e+00,5.000000000000000000e+00,5.000000000000000000e+00,5.000000000000000000e+00,5.000000000000000000e+00,5.000000000000000000e+00,5.000000000000000000e+00,5.000000000000000000e+00,5.000000000000000000e+00,5.000000000000000000e+00,5.000000000000000000e+00,5.000000000000000000e+00,5.000000000000000000e+00,5.000000000000000000e+00,5.000000000000000000e+00,5.000000000000000000e+00,5.000000000000000000e+00,5.000000000000000000e+00,5.000000000000000000e+00,5.000000000000000000e+00,5.000000000000000000e+00,5.000000000000000000e+00,5.000000000000000000e+00,5.000000000000000000e+00,4.727884292602539062e+00,5.000000000000000000e+00,5.000000000000000000e+00,5.000000000000000000e+00,5.000000000000000000e+00,5.000000000000000000e+00,5.000000000000000000e+00,5.000000000000000000e+00,5.000000000000000000e+00,5.000000000000000000e+00,5.000000000000000000e+00,5.000000000000000000e+00,5.000000000000000000e+00,4.862623214721679688e+00,4.671630382537841797e+00,4.495072364807128906e+00,4.331373691558837891e+00,4.179179191589355469e+00,4.037317276000976562e+00,3.904770135879516602e+00,3.780649423599243164e+00,3.664176464080810547e+00,3.554665565490722656e+00,3.451510429382324219e+00,3.354173660278320312e+00,3.262176275253295898e+00,3.175091028213500977e+00,3.092534065246582031e+00,3.014161586761474609e+00,2.939663410186767578e+00,2.868758916854858398e+00,2.801194190979003906e+00,2.736738681793212891e+00,2.675183057785034180e+00,2.616335630416870117e+00,2.560021162033081055e+00,2.506079912185668945e+00,2.454364776611328125e+00,2.404741048812866211e+00,2.357084274291992188e+00,2.311279535293579102e+00,2.267220973968505859e+00,2.224811077117919922e+00,2.183958530426025391e+00,2.144579172134399414e+00,2.106594800949096680e+00,2.069932222366333008e+00,2.034524440765380859e+00,2.000307321548461914e+00,1.967222452163696289e+00,1.935214042663574219e+00,1.904230356216430664e+00,1.874223351478576660e+00,1.845147252082824707e+00
5.000000000000000000e+00,5.000000000000000000e+00,5.000000000000000000e+00,5.000000000000000000e+00,5.000000000000000000e+00,5.000000000000000000e+00,5.000000000000000000e+00,5.000000000000000000e+00,5.000000000000000000e+00,5.000000000000000000e+00,5.000000000000000000e+00,5.000000000000000000e+00,5.000000000000000000e+00,5.000000000000000000e+00,5.000000000000000000e+00,5.000000000000000000e+00,5.000000000000000000e+00,5.000000000000000000e+00,5.000000000000000000e+00,5.000000000000000000e+00,5.000000000000000000e+00,5.000000000000000000e+00,5.000000000000000000e+00,5.000000000000000000e+00,5.000000000000000000e+00,4.752509593963623047e+00,4.742791652679443359e+00,5.000000000000000000e+00,5.000000000000000000e+00,5.000000000000000000e+00,5.000000000000000000e+00,5.000000000000000000e+00,5.000000000000000000e+00,5.000000000000000000e+00,5.000000000000000000e+00,5.000000000000000000e+00,5.000000000000000000e+00,5.000000000000000000e+00,5.000000000000000000e+00,4.862761974334716797e+00,4.671758174896240234e+00,4.495191574096679688e+00,4.331484794616699219e+00,4.179282188415527344e+00,4.037413120269775391e+00,3.904860258102416992e+00,3.780733823776245117e+00,3.664255619049072266e+00,3.554739952087402344e+00,3.451581001281738281e+00,3.354240417480468750e+00,3.262239456176757812e+00,3.175150632858276367e+00,3.092590570449829102e+00,3.014215230941772461e+00,2.939714431762695312e+00,2.868807315826416016e+00,2.801240682601928711e+00,2.736783266067504883e+00,2.675225496292114258e+00,2.616375923156738281e+00,2.560059785842895508e+00,2.506116867065429688e+00,2.454400300979614258e+00,2.404775142669677734e+00,2.357117176055908203e+00,2.311311244964599609e+00,2.267251491546630859e+00,2.224840402603149414e+00,2.183986663818359375e+00,2.144606351852416992e+00,2.106621026992797852e+00,2.069957494735717773e+00,2.034548997879028320e+00,2.000331163406372070e+00,1.967245221138000488e+00,1.935236096382141113e+00,1.904251813888549805e+00,1.874244093894958496e+00,1.845167398452758789e+00
5.000000000000000000e+00,5.000000000000000000e+00,5.000000000000000000e+00,5.000000000000000000e+00,5.000000000000000000e+00,5.000000000000000000e+00,5.000000000000000000e+00,5.000000000000000000e+00,5.000000000000000000e+00,5.000000000000000000e+00,5.000000000000000000e+00,5.000000000000000000e+00,5.000000000000000000e+00,5.000000000000000000e+00,5.000000000000000000e+00,5.000000000000000000e+00,5.000000000000000000e+00,5.000000000000000000e+00,5.000000000000000000e+00,5.000000000000000000e+00,5.000000000000000000e+00,5.000000000000000000e+00,5.000000000000000000e+00,5.000000000000000000e+00,5.000000000000000000e+00,5.000000000000000000e+00,4.717959403991699219e+00,5.000000000000000000e+00,5.000000000000000000e+00,5.000000000000000000e+00,5.000000000000000000e+00,5.000000000000000000e+00,5.000000000000000000e+00,5.000000000000000000e+00,5.000000000000000000e+00,5.000000000000000000e+00,5.000000000000000000e+00,5.000000000000000000e+00,5.000000000000000000e+00,4.862900733947753906e+00,4.671885967254638672e+00,4.495310783386230469e+00,4.331595420837402344e+00,4.179385662078857422e+00,4.037509918212890625e+00,3.904950141906738281e+00,3.780818462371826172e+00,3.664335250854492188e+00,3.554815053939819336e+00,3.451651334762573242e+00,3.354306697845458984e+00,3.262302160263061523e+00,3.175209999084472656e+00,3.092647075653076172e+00,3.014269113540649414e+00,2.939765691757202148e+00,2.868856191635131836e+00,2.801286935806274414e+00,2.736827373504638672e+00,2.675267696380615234e+00,2.616416215896606445e+00,2.560098409652709961e+00,2.506154298782348633e+00,2.454436063766479492e+00,2.404809474945068359e+00,2.357150077819824219e+00,2.311342716217041016e+00,2.267281770706176758e+00,2.224869489669799805e+00,2.184014797210693359e+00,2.144633531570434570e+00,2.106647253036499023e+00,2.069983005523681641e+00,2.034573316574096680e+00,2.000354766845703125e+00,1.967268109321594238e+00,1.935258269309997559e+00,1.904273152351379395e+00,1.874264836311340332e+00,1.845187664031982422e+00
5.000000000000000000e+00,5.000000000000000000e+00,5.000000000000000000e+00,5.000000000000000000e+00,5.000000000000000000e+00,5.000000000000000000e+00,5.000000000000000000e+00,5.000000000000000000e+00,5.000000000000000000e+00,5.000000000000000000e+00,5.000000000000000000e+00,5.000000000000000000e+00,5.000000000000000000e+00,5.000000000000000000e+00,5.000000000000000000e+00,5.000000000000000000e+00,5.000000000000000000e+00,5.000000000000000000e+00,5.000000000000000000e+00,5.000000000000000000e+00,5.000000000000000000e+00,5.000000000000000000e+00,5.000000000000000000e+00,5.000000000000000000e+00,5.000000000000000000e+00,5.000000000000000000e+00,4.692649364471435547e+00,5.000000000000000000e+00,5.000000000000000000e+00,5.000000000000000000e+00,5.000000000000000000e+00,5.000000000000000000e+00,5.000000000000000000e+00,5.000000000000000000e+00,5.000000000000000000e+00,5.000000000000000000e+00,5.000000000000000000e+00,5.000000000000000000e+00,5.000000000000000000e+00,4.863039493560791016e+00,4.672014236450195312e+00,4.495429039001464844e+00,4.331706523895263672e+00,4.179489135742187500e+00,4.037606239318847656e+00,3.905040502548217773e+00,3.780902862548828125e+00,3.664414405822753906e+00,3.554889440536499023e+00,3.451721668243408203e+00,3.354373216629028320e+00,3.262365341186523438e+00,3.175269842147827148e+00,3.092703819274902344e+00,3.014322757720947266e+00,2.939816713333129883e+00,2.868904829025268555e+00,2.801333427429199219e+00,2.736871480941772461e+00,2.675310134887695312e+00,2.616456985473632812e+00,2.560137271881103516e+00,2.506191253662109375e+00,2.454471588134765625e+00,2.404843568801879883e+00,2.357182741165161133e+00,2.311374187469482422e+00,2.267312288284301758e+00,2.224898815155029297e+00,2.184043169021606445e+00,2.144660711288452148e+00,2.106673479080200195e+00,2.070008277893066406e+00,2.034597873687744141e+00,2.000378370285034180e+00,1.967291116714477539e+00,1.935280323028564453e+00,1.904294848442077637e+00,1.874285578727722168e+00,1.845207691192626953e+00
5.000000000000000000e+00,5.000000000000000000e+00,5.000000000000000000e+00,5.000000000000000000e+00,5.000000000000000000e+00,5.000000000000000000e+00,5.000000000000000000e+00,5.000000000000000000e+00,5.000000000000000000e+00,5.000000000000000000e+00,5.000000000000000000e+00,5.000000000000000000e+00,5.000000000000000000e+00,5.000000000000000000e+00,5.000000000000000000e+00,5.000000000000000000e+00,5.000000000000000000e+00,5.000000000000000000e+00,5.000000000000000000e+00,5.000000000000000000e+00,5.000000000000000000e+00,5.000000000000000000e+00,5.000000000000000000e+00,5.000000000000000000e+00,5.000000000000000000e+00,5.000000000000000000e+00,4.685261249542236328e+00,5.000000000000000000e+00,5.000000000000000000e+00,5.000000000000000000e+00,5.000000000000000000e+00,5.000000000000000000e+00,5.000000000000000000e+00,5.000000000000000000e+00,5.000000000000000000e+00,5.000000000000000000e+00,5.000000000000000000e+00,5.000000000000000000e+00,5.000000000000000000e+00,4.863178253173828125e+00,4.672142028808593750e+00,4.495547771453857422e+00,4.331816196441650391e+00,4.179592132568359375e+00,4.037702560424804688e+00,3.905130624771118164e+00,3.780987262725830078e+00,3.664493799209594727e+00,3.554964542388916016e+00,3.451792478561401367e+00,3.354439973831176758e+00,3.262428045272827148e+00,3.175329446792602539e+00,3.092760324478149414e+00,3.014376401901245117e+00,2.939867734909057617e+00,2.868953704833984375e+00,2.801379919052124023e+00,2.736916065216064453e+00,2.675352334976196289e+00,2.616497278213500977e+00,2.560175895690917969e+00,2.506228446960449219e+00,2.454507350921630859e+00,2.404877901077270508e+00,2.357215642929077148e+00,2.311405897140502930e+00,2.267342805862426758e+00,2.224928140640258789e+00,2.184071302413940430e+00,2.144687891006469727e+00,2.106699705123901367e+00,2.070033788681030273e+00,2.034622430801391602e+00,2.000402212142944336e+00,1.967314004898071289e+00,1.935302376747131348e+00,1.904316186904907227e+00,1.874306321144104004e+00,1.845227837562561035e+00
5.000000000000000000e+00,5.000000000000000000e+00,5.000000000000000000e+00,5.000000000000000000e+00,5.000000000000000000e+00,5.000000000000000000e+00,5.000000000000000000e+00,5.000000000000000000e+00,5.000000000000000000e+00,5.000000000000000000e+00,5.000000000000000000e+00,5.000000000000000000e+00,5.000000000000000000e+00,5.000000000000000000e+00,5.000000000000000000e+00,5.000000000000000000e+00,5.000000000000000000e+00,5.000000000000000000e+00,5.000000000000000000e+00,5.000000000000000000e+00,5.000000000000000000e+00,5.000000000000000000e+00,5.000000000000000000e+00,5.000000000000000000e+00,5.000000000000000000e+00,5.000000000000000000e+00,4.637955665588378906e+00,5.000000000000000000e+00,5.000000000000000000e+00,5.000000000000000000e+00,5.000000000000000000e+00,5.000000000000000000e+00,5.000000000000000000e+00,5.000000000000000000e+00,5.000000000000000000e+00,5.000000000000000000e+00,5.000000000000000000e+00,5.000000000000000000e+00,5.000000000000000000e+00,4.863317012786865234e+00,4.672270298004150391e+00,4.495666027069091797e+00,4.331926345825195312e+00,4.179694652557373047e+00,4.037798881530761719e+00,3.905220985412597656e+00,3.781072139739990234e+00,3.664573431015014648e+00,3.555039167404174805e+00,3.451862573623657227e+00,3.354506254196166992e+00,3.262490987777709961e+00,3.175389051437377930e+00,3.092817068099975586e+00,3.014430284500122070e+00,2.939918994903564453e+00,2.869002103805541992e+00,2.801426172256469727e+00,2.736960172653198242e+00,2.675394535064697266e+00,2.616537809371948242e+00,2.560214757919311523e+00,2.506265640258789062e+00,2.454542875289916992e+00,2.404911994934082031e+00,2.357248544692993164e+00,2.311437368392944336e+00,2.267373085021972656e+00,2.224957466125488281e+00,2.184099674224853516e+00,2.144715070724487305e+00,2.106725931167602539e+00,2.070059061050415039e+00,2.034646749496459961e+00,2.000425815582275391e+00,1.967336893081665039e+00,1.935324788093566895e+00,1.904337644577026367e+00,1.874327301979064941e+00,1.845247983932495117e+00
4.875090122222900391e+00,4.873878955841064453e+00,4.872668743133544922e+00,4.871458530426025391e+00,4.870249271392822266e+00,4.869040966033935547e+00,4.867832660675048828e+00,4.866624832153320312e+00,4.865417957305908203e+00,4.864211559295654297e+00,4.863006114959716797e+00,4.861800670623779297e+00,4.860596179962158203e+00,4.859392166137695312e+00,4.858188629150390625e+00,4.856986045837402344e+00,4.855783939361572266e+00,4.854582309722900391e+00,4.853381633758544922e+00,4.852181434631347656e+00,4.850981712341308594e+00,4.849781990051269531e+00,4.848583698272705078e+00,4.847385883331298828e+00,4.846188068389892578e+00,4.844991207122802734e+00,4.843794822692871094e+00,4.842599391937255859e+00,4.841404438018798828e+00,4.840209960937500000e+00,4.839016437530517578e+00,4.837822914123535156e+00,4.836629867553710938e+00,4.835438251495361328e+00,4.834246635437011719e+00,4.833055496215820312e+00,4.831864833831787109e+00,4.830675601959228516e+00,4.829486370086669922e+00,4.828297615051269531e+00,4.672398567199707031e+00,4.495784759521484375e+00,4.332036495208740234e+00,4.179797172546386719e+00,4.037895202636718750e+00,3.905311107635498047e+00,3.781156539916992188e+00,3.664652585983276367e+00,3.555113554000854492e+00,3.451933383941650391e+00,3.354573011398315430e+00,3.262554168701171875e+00,3.175448656082153320e+00,3.092873334884643555e+00,3.014483928680419922e+00,2.939970016479492188e+00,2.869050741195678711e+00,2.801472663879394531e+00,2.737004756927490234e+00,2.675436973571777344e+00,2.616578340530395508e+00,2.560253620147705078e+00,2.506302595138549805e+00,2.454578638076782227e+00,2.404946088790893555e+00,2.357281446456909180e+00,2.311469078063964844e+00,2.267403602600097656e+00,2.224986553192138672e+00,2.184127807617187500e+00,2.144742250442504883e+00,2.106752157211303711e+00,2.070084333419799805e+00,2.034671306610107422e+00,2.000449419021606445e+00,1.967359662055969238e+00,1.935346841812133789e+00,1.904358983039855957e+00,1.874348044395446777e+00,1.845268011093139648e+00
3.777877569198608398e+00,3.777149915695190430e+00,3.776422977447509766e+00,3.775696277618408203e+00,3.774969577789306641e+00,3.774243354797363281e+00,3.773517608642578125e+00,3.772791624069213867e+00,3.772066354751586914e+00,3.771341323852539062e+00,3.770616292953491211e+00,3.769891977310180664e+00,3.769167184829711914e+00,3.768443346023559570e+00,3.767719984054565430e+00,3.766996145248413086e+00,3.766273260116577148e+00,3.765550374984741211e+00,3.764827489852905273e+00,3.764105319976806641e+00,3.763383388519287109e+00,3.762661218643188477e+00,3.761940002441406250e+00,3.761218786239624023e+00,3.760497570037841797e+00,3.759777069091796875e+00,3.759056568145751953e+00,3.758336544036865234e+00,3.757616758346557617e+00,3.756896972656250000e+00,3.756177663803100586e+00,3.755458831787109375e+00,3.754739761352539062e+00,3.754021644592285156e+00,3.753303527832031250e+00,3.752585172653198242e+00,3.751867771148681641e+00,3.751150608062744141e+00,3.750433206558227539e+00,3.749716520309448242e+00,3.748999595642089844e+00,3.748283624649047852e+00,3.747567653656005859e+00,3.746851682662963867e+00,3.746136426925659180e+00,3.745421171188354492e+00,3.744706153869628906e+00,3.664732217788696289e+00,3.555188655853271484e+00,3.452003717422485352e+00,3.354639291763305664e+00,3.262616872787475586e+00,3.175508022308349609e+00,3.092929840087890625e+00,3.014537811279296875e+00,2.940021276473999023e+00,2.869099617004394531e+00,2.801519155502319336e+00,2.737048864364624023e+00,2.675479412078857422e+00,2.616618633270263672e+00,2.560292243957519531e+00,2.506339788436889648e+00,2.454614162445068359e+00,2.404980421066284180e+00,2.357314348220825195e+00,2.311500549316406250e+00,2.267433881759643555e+00,2.225015878677368164e+00,2.184155941009521484e+00,2.144769430160522461e+00,2.106778383255004883e+00,2.070109605789184570e+00,2.034695863723754883e+00,2.000473022460937500e+00,1.967382550239562988e+00,1.935369014739990234e+00,1.904380440711975098e+00,1.874368667602539062e+00,1.845288276672363281e+00
3.083817481994628906e+00,3.083333015441894531e+00,3.082848548889160156e+00,3.082364082336425781e+00,3.081879854202270508e+00,3.081395864486694336e+00,3.080911874771118164e+00,3.080428123474121094e+00,3.079944372177124023e+00,3.079461097717285156e+00,3.078977823257446289e+00,3.078494548797607422e+00,3.078011512756347656e+00,3.077528953552246094e+00,3.077045917510986328e+00,3.076563596725463867e+00,3.076081275939941406e+00,3.075598716735839844e+00,3.075116872787475586e+00,3.074635028839111328e+00,3.074152946472167969e+00,3.073671340942382812e+00,3.073189735412597656e+00,3.072708606719970703e+00,3.072227478027343750e+00,3.071746349334716797e+00,3.071265459060668945e+00,3.070784807205200195e+00,3.070304155349731445e+00,3.069823741912841797e+00,3.069343566894531250e+00,3.068863153457641602e+00,3.068383455276489258e+00,3.067903518676757812e+00,3.067423820495605469e+00,3.066944360733032227e+00,3.066464662551879883e+00,3.065985679626464844e+00,3.065506696701049805e+00,3.065027713775634766e+00,3.064548969268798828e+00,3.064070463180541992e+00,3.063591718673706055e+00,3.063113451004028320e+00,3.062635421752929688e+00,3.062157154083251953e+00,3.061679363250732422e+00,3.061201810836791992e+00,3.060724020004272461e+00,3.060246706008911133e+00,3.059769153594970703e+00,3.059292078018188477e+00,3.058815240859985352e+00,3.058338165283203125e+00,3.014591455459594727e+00,2.940072298049926758e+00,2.869148254394531250e+00,2.801565408706665039e+00,2.737092971801757812e+00,2.675521850585937500e+00,2.616659402847290039e+00,2.560331106185913086e+00,2.506376981735229492e+00,2.454649925231933594e+00,2.405014514923095703e+00,2.357347011566162109e+00,2.311532258987426758e+00,2.267464399337768555e+00,2.225045204162597656e+00,2.184184074401855469e+00,2.144796609878540039e+00,2.106804609298706055e+00,2.070134878158569336e+00,2.034720182418823242e+00,2.000496625900268555e+00,1.967405557632446289e+00,1.935391068458557129e+00,1.904402017593383789e+00,1.874389410018920898e+00,1.845308423042297363e+00
2.605198621749877930e+00,2.604852676391601562e+00,2.604506969451904297e+00,2.604161262512207031e+00,2.603815317153930664e+00,2.603469848632812500e+00,2.603124618530273438e+00,2.602779150009155273e+00,2.602433919906616211e+00,2.602088689804077148e+00,2.601743698120117188e+00,2.601398706436157227e+00,2.601053714752197266e+00,2.600708961486816406e+00,2.600364208221435547e+00,2.600019454956054688e+00,2.599674940109252930e+00,2.599330663681030273e+00,2.598986148834228516e+00,2.598641872406005859e+00,2.598297834396362305e+00,2.597953557968139648e+00,2.597609758377075195e+00,2.597265958786010742e+00,2.596921920776367188e+00,2.596578359603881836e+00,2.596234560012817383e+00,2.595891237258911133e+00,2.595547676086425781e+00,2.595204353332519531e+00,2.594861030578613281e+00,2.594517946243286133e+00,2.594174861907958984e+00,2.593831777572631836e+00,2.593488931655883789e+00,2.593146085739135742e+00,2.592803478240966797e+00,2.592460870742797852e+00,2.592118263244628906e+00,2.591775894165039062e+00,2.591433286666870117e+00,2.591091156005859375e+00,2.590749025344848633e+00,2.590406894683837891e+00,2.590065002441406250e+00,2.589723110198974609e+00,2.589381217956542969e+00,2.589039564132690430e+00,2.588697910308837891e+00,2.588356256484985352e+00,2.588014841079711914e+00,2.587673664093017578e+00,2.587332248687744141e+00,2.586991071701049805e+00,2.586649894714355469e+00,2.586308956146240234e+00,2.585968255996704102e+00,2.585627317428588867e+00,2.585286617279052734e+00,2.584946155548095703e+00,2.584605455398559570e+00,2.560369729995727539e+00,2.506413936614990234e+00,2.454685449600219727e+00,2.405048847198486328e+00,2.357379913330078125e+00,2.311563968658447266e+00,2.267494678497314453e+00,2.225074529647827148e+00,2.184212207794189453e+00,2.144823789596557617e+00,2.106830835342407227e+00,2.070160388946533203e+00,2.034744739532470703e+00,2.000520467758178711e+00,1.967428445816040039e+00,1.935413122177124023e+00,1.904423475265502930e+00,1.874410152435302734e+00,1.845328569412231445e+00
2.255216598510742188e+00,2.254956007003784180e+00,2.254695415496826172e+00,2.254435062408447266e+00,2.254174709320068359e+00,2.253914356231689453e+00,2.253654003143310547e+00,2.253393888473510742e+00,2.253133773803710938e+00,2.252873659133911133e+00,2.252613544464111328e+00,2.252353668212890625e+00,2.252093791961669922e+00,2.251834154129028320e+00,2.251574039459228516e+00,2.251314401626586914e+00,2.251054763793945312e+00,2.250795125961303711e+00,2.250535726547241211e+00,2.250276088714599609e+00,2.250016689300537109e+00,2.249757289886474609e+00,2.249498128890991211e+00,2.249239206314086914e+00,2.248981475830078125e+00,2.248723506927490234e+00,2.248466014862060547e+00,2.248208284378051758e+00,2.247950553894042969e+00,2.247693061828613281e+00,2.247435808181762695e+00,2.247178077697753906e+00,2.246920824050903320e+00,2.246663570404052734e+00,2.246406316757202148e+00,2.246149063110351562e+00,2.245891809463500977e+00,2.245634794235229492e+00,2.245377779006958008e+00,2.245120763778686523e+00,2.244863986968994141e+00,2.244607210159301758e+00,2.244350194931030273e+00,2.244093656539916992e+00,2.243836879730224609e+00,2.243580341339111328e+00,2.243323802947998047e+00,2.243067264556884766e+00,2.242810726165771484e+00,2.242554426193237305e+00,2.242298126220703125e+00,2.242041826248168945e+00,2.241785764694213867e+00,2.241529464721679688e+00,2.241273403167724609e+00,2.241017580032348633e+00,2.240761518478393555e+00,2.240505695343017578e+00,2.240249872207641602e+00,2.239993810653686523e+00,2.239738225936889648e+00,2.239482641220092773e+00,2.239226818084716797e+00,2.238971471786499023e+00,2.238715887069702148e+00,2.238460540771484375e+00,2.238205194473266602e+00,2.237949609756469727e+00,2.225103616714477539e+00,2.184240579605102539e+00,2.144851207733154297e+00,2.106857061386108398e+00,2.070185661315917969e+00,2.034769296646118164e+00,2.000544071197509766e+00,1.967451214790344238e+00,1.935435295104980469e+00,1.904444813728332520e+00,1.874431133270263672e+00,1.845348596572875977e+00
1.988190889358520508e+00,1.987988233566284180e+00,1.987785696983337402e+00,1.987583398818969727e+00,1.987380981445312500e+00,1.987178564071655273e+00,1.986976385116577148e+00,1.986773967742919922e+00,1.986571907997131348e+00,1.986369729042053223e+00,1.986167430877685547e+00,1.985965490341186523e+00,1.985763311386108398e+00,1.985561251640319824e+00,1.985359430313110352e+00,1.985157370567321777e+00,1.984955668449401855e+00,1.984753727912902832e+00,1.984551787376403809e+00,1.984350085258483887e+00,1.984148263931274414e+00,1.983946561813354492e+00,1.983744978904724121e+00,1.983543276786804199e+00,1.983341693878173828e+00,1.983140349388122559e+00,1.982938766479492188e+00,1.982737421989440918e+00,1.982535958290100098e+00,1.982334494590759277e+00,1.982133269309997559e+00,1.981931924819946289e+00,1.981730580329895020e+00,1.981529593467712402e+00,1.981328248977661133e+00,1.981127262115478516e+00,1.980926156044006348e+00,1.980725049972534180e+00,1.980524182319641113e+00,1.980323076248168945e+00,1.980122089385986328e+00,1.979921340942382812e+00,1.979720473289489746e+00,1.979519605636596680e+00,1.979318976402282715e+00,1.979118108749389648e+00,1.978917598724365234e+00,1.978716969490051270e+00,1.978516221046447754e+00,1.978315830230712891e+00,1.978115200996398926e+00,1.977914690971374512e+00,1.977714419364929199e+00,1.977513909339904785e+00,1.977313637733459473e+00,1.977113246917724609e+00,1.976912975311279297e+00,1.976712822914123535e+00,1.976512551307678223e+00,1.976312398910522461e+00,1.976112365722656250e+00,1.975912213325500488e+00,1.975712060928344727e+00,1.975512266159057617e+00,1.975312232971191406e+00,1.975112438201904297e+00,1.974912524223327637e+00,1.974712610244750977e+00,1.974512934684753418e+00,1.974313139915466309e+00,1.974113345146179199e+00,1.973913908004760742e+00,1.973714113235473633e+00,1.973514676094055176e+00,1.973315119743347168e+00,1.967474102973937988e+00,1.935457587242126465e+00,1.904466271400451660e+00,1.874451875686645508e+00,1.845368742942810059e+00
1.777704358100891113e+00,1.777542352676391602e+00,1.777380347251892090e+00,1.777218699455261230e+00,1.777056813240051270e+00,1.776894927024841309e+00,1.776733279228210449e+00,1.776571512222290039e+00,1.776409864425659180e+00,1.776248097419738770e+00,1.776086449623107910e+00,1.775924921035766602e+00,1.775763273239135742e+00,1.775601625442504883e+00,1.775440216064453125e+00,1.775278687477111816e+00,1.775117158889770508e+00,1.774955868721008301e+00,1.774794340133666992e+00,1.774633049964904785e+00,1.774471640586853027e+00,1.774310231208801270e+00,1.774149060249328613e+00,1.773987770080566406e+00,1.773826479911804199e+00,1.773665428161621094e+00,1.773504137992858887e+00,1.773343086242675781e+00,1.773181915283203125e+00,1.773020744323730469e+00,1.772859811782836914e+00,1.772698760032653809e+00,1.772537708282470703e+00,1.772376775741577148e+00,1.772215843200683594e+00,1.772054791450500488e+00,1.771894097328186035e+00,1.771733164787292480e+00,1.771572470664978027e+00,1.771411538124084473e+00,1.771250724792480469e+00,1.771090149879455566e+00,1.770929336547851562e+00,1.770768523216247559e+00,1.770608067512512207e+00,1.770447373390197754e+00,1.770286917686462402e+00,1.770126223564147949e+00,1.769965648651123047e+00,1.769805312156677246e+00,1.769644737243652344e+00,1.769484162330627441e+00,1.769323945045471191e+00,1.769163370132446289e+00,1.769003033638000488e+00,1.768842816352844238e+00,1.768682479858398438e+00,1.768522262573242188e+00,1.768361926078796387e+00,1.768201708793640137e+00,1.768041610717773438e+00,1.767881393432617188e+00,1.767721176147460938e+00,1.767561197280883789e+00,1.767401099205017090e+00,1.767241120338439941e+00,1.767081022262573242e+00,1.766921043395996094e+00,1.766761183738708496e+00,1.766601204872131348e+00,1.766441226005554199e+00,1.766281485557556152e+00,1.766121625900268555e+00,1.765961766242980957e+00,1.765802025794982910e+00,1.765642285346984863e+00,1.765482664108276367e+00,1.765322923660278320e+00,1.765163183212280273e+00,1.765003681182861328e+00
1.607518911361694336e+00,1.607386469841003418e+00,1.607254028320312500e+00,1.607121706008911133e+00,1.606989383697509766e+00,1.606856942176818848e+00,1.606724739074707031e+00,1.606592416763305664e+00,1.606460213661193848e+00,1.606328010559082031e+00,1.606195807456970215e+00,1.606063723564147949e+00,1.605931520462036133e+00,1.605799317359924316e+00,1.605667352676391602e+00,1.605535149574279785e+00,1.605403065681457520e+00,1.605271100997924805e+00,1.605139017105102539e+00,1.605007052421569824e+00,1.604875087738037109e+00,1.604743003845214844e+00,1.604611158370971680e+00,1.604479193687438965e+00,1.604347229003906250e+00,1.604215502738952637e+00,1.604083538055419922e+00,1.603951692581176758e+00,1.603819966316223145e+00,1.603688120841979980e+00,1.603556513786315918e+00,1.603424668312072754e+00,1.603292942047119141e+00,1.603161334991455078e+00,1.603029608726501465e+00,1.602897882461547852e+00,1.602766275405883789e+00,1.602634668350219727e+00,1.602503180503845215e+00,1.602371573448181152e+00,1.602239966392517090e+00,1.602108478546142578e+00,1.601976990699768066e+00,1.601845383644104004e+00,1.601714015007019043e+00,1.601582527160644531e+00,1.601451039314270020e+00,1.601319789886474609e+00,1.601188302040100098e+00,1.601057052612304688e+00,1.600925683975219727e+00,1.600794315338134766e+00,1.600663185119628906e+00,1.600531816482543945e+00,1.600400567054748535e+00,1.600269436836242676e+00,1.600138187408447266e+00,1.600007057189941406e+00,1.599875807762145996e+00,1.599744558334350586e+00,1.599613547325134277e+00,1.599482417106628418e+00,1.599351286888122559e+00,1.599220395088195801e+00,1.599089264869689941e+00,1.598958253860473633e+00,1.598827362060546875e+00,1.598696351051330566e+00,1.598565459251403809e+00,1.598434448242187500e+00,1.598303556442260742e+00,1.598172783851623535e+00,1.598041772842407227e+00,1.597910881042480469e+00,1.597780227661132812e+00,1.597649335861206055e+00,1.597518682479858398e+00,1.597387909889221191e+00,1.597257137298583984e+00,1.597126483917236328e+00
1.467071175575256348e+00,1.466961026191711426e+00,1.466850638389587402e+00,1.466740489006042480e+00,1.466630220413208008e+00,1.466520071029663086e+00,1.466409921646118164e+00,1.466299653053283691e+00,1.466189503669738770e+00,1.466079473495483398e+00,1.465969204902648926e+00,1.465859174728393555e+00,1.465749144554138184e+00,1.465638995170593262e+00,1.465528964996337891e+00,1.465418934822082520e+00,1.465308785438537598e+00,1.465198874473571777e+00,1.465088844299316406e+00,1.464978814125061035e+00,1.464869022369384766e+00,1.464758992195129395e+00,1.464649081230163574e+00,1.464539170265197754e+00,1.464429259300231934e+00,1.464319467544555664e+00,1.464209556579589844e+00,1.464099645614624023e+00,1.463989853858947754e+00,1.463880062103271484e+00,1.463770389556884766e+00,1.463660478591918945e+00,1.463550686836242676e+00,1.463441014289855957e+00,1.463331222534179688e+00,1.463221549987792969e+00,1.463111877441406250e+00,1.463002204895019531e+00,1.462892413139343262e+00,1.462782859802246094e+00,1.462673187255859375e+00,1.462563753128051758e+00,1.462454080581665039e+00,1.462344408035278320e+00,1.462234973907470703e+00,1.462125420570373535e+00,1.462015748023986816e+00,1.461906313896179199e+00,1.461796879768371582e+00,1.461687445640563965e+00,1.461577892303466797e+00,1.461468458175659180e+00,1.461359024047851562e+00,1.461249589920043945e+00,1.461140155792236328e+00,1.461030840873718262e+00,1.460921406745910645e+00,1.460812091827392578e+00,1.460702776908874512e+00,1.460593461990356445e+00,1.460484266281127930e+00,1.460374951362609863e+00,1.460265636444091797e+00,1.460156440734863281e+00,1.460047125816345215e+00,1.459937930107116699e+00,1.459828734397888184e+00,1.459719538688659668e+00,1.459610462188720703e+00,1.459501266479492188e+00,1.459392070770263672e+00,1.459282994270324707e+00,1.459173917770385742e+00,1.459064722061157227e+00,1.458955764770507812e+00,1.458846688270568848e+00,1.458737611770629883e+00,1.458628654479980469e+00,1.458519577980041504e+00,1.458410620689392090e+00
1.349193334579467773e+00,1.349100112915039062e+00,1.349006772041320801e+00,1.348913669586181641e+00,1.348820328712463379e+00,1.348727107048034668e+00,1.348634004592895508e+00,1.348540782928466797e+00,1.348447561264038086e+00,1.348354458808898926e+00,1.348261237144470215e+00,1.348168134689331055e+00,1.348075032234191895e+00,1.347981929779052734e+00,1.347888827323913574e+00,1.347795724868774414e+00,1.347702622413635254e+00,1.347609639167785645e+00,1.347516536712646484e+00,1.347423553466796875e+00,1.347330570220947266e+00,1.347237586975097656e+00,1.347144603729248047e+00,1.347051620483398438e+00,1.346958637237548828e+00,1.346865653991699219e+00,1.346772670745849609e+00,1.346679806709289551e+00,1.346586942672729492e+00,1.346493959426879883e+00,1.346401095390319824e+00,1.346308231353759766e+00,1.346215367317199707e+00,1.346122503280639648e+00,1.346029639244079590e+00,1.345936775207519531e+00,1.345844030380249023e+00,1.345751166343688965e+00,1.345658421516418457e+00,1.345565676689147949e+00,1.345472931861877441e+00,1.345380187034606934e+00,1.345287442207336426e+00,1.345194697380065918e+00,1.345101952552795410e+00,1.345009207725524902e+00,1.344916582107543945e+00,1.344823956489562988e+00,1.344731211662292480e+00,1.344638586044311523e+00,1.344545960426330566e+00,1.344453334808349609e+00,1.344360828399658203e+00,1.344268083572387695e+00,1.344175457954406738e+00,1.344082951545715332e+00,1.343990445137023926e+00,1.343897819519042969e+00,1.343805313110351562e+00,1.343712806701660156e+00,1.343620300292968750e+00,1.343527793884277344e+00,1.343435287475585938e+00,1.343342900276184082e+00,1.343250393867492676e+00,1.343157887458801270e+00,1.343065500259399414e+00,1.342973113059997559e+00,1.342880606651306152e+00,1.342788338661193848e+00,1.342695951461791992e+00,1.342603564262390137e+00,1.342511177062988281e+00,1.342418789863586426e+00,1.342326521873474121e+00,1.342234253883361816e+00,1.342141866683959961e+00,1.342049598693847656e+00,1.341957330703735352e+00,1.341865062713623047e+00
1.248849391937255859e+00,1.248769521713256836e+00,1.248689651489257812e+00,1.248609662055969238e+00,1.248529911041259766e+00,1.248449921607971191e+00,1.248370170593261719e+00,1.248290300369262695e+00,1.248210430145263672e+00,1.248130679130554199e+00,1.248050808906555176e+00,1.247970938682556152e+00,1.247891187667846680e+00,1.247811436653137207e+00,1.247731566429138184e+00,1.247651934623718262e+00,1.247572064399719238e+00,1.247492432594299316e+00,1.247412681579589844e+00,1.247332930564880371e+00,1.247253179550170898e+00,1.247173547744750977e+00,1.247093796730041504e+00,1.247014164924621582e+00,1.246934413909912109e+00,1.246854782104492188e+00,1.246775150299072266e+00,1.246695518493652344e+00,1.246615886688232422e+00,1.246536254882812500e+00,1.246456623077392578e+00,1.246376991271972656e+00,1.246297478675842285e+00,1.246217846870422363e+00,1.246138334274291992e+00,1.246058702468872070e+00,1.245979189872741699e+00,1.245899677276611328e+00,1.245820045471191406e+00,1.245740652084350586e+00,1.245661020278930664e+00,1.245581507682800293e+00,1.245502114295959473e+00,1.245422601699829102e+00,1.245343208312988281e+00,1.245263695716857910e+00,1.245184183120727539e+00,1.245104789733886719e+00,1.245025396347045898e+00,1.244945883750915527e+00,1.244866609573364258e+00,1.244787096977233887e+00,1.244707703590393066e+00,1.244628429412841797e+00,1.244549036026000977e+00,1.244469642639160156e+00,1.244390249252319336e+00,1.244310975074768066e+00,1.244231700897216797e+00,1.244152307510375977e+00,1.244072914123535156e+00,1.243993759155273438e+00,1.243914365768432617e+00,1.243835210800170898e+00,1.243755936622619629e+00,1.243676543235778809e+00,1.243597388267517090e+00,1.243518114089965820e+00,1.243438839912414551e+00,1.243359684944152832e+00,1.243280529975891113e+00,1.243201375007629395e+00,1.243122100830078125e+00,1.243042945861816406e+00,1.242963790893554688e+00,1.242884635925292969e+00,1.242805480957031250e+00,1.242726325988769531e+00,1.242647171020507812e+00,1.242568135261535645e+00
1.162397980690002441e+00,1.162328839302062988e+00,1.162259578704833984e+00,1.162190318107604980e+00,1.162121176719665527e+00,1.162052035331726074e+00,1.161982774734497070e+00,1.161913633346557617e+00,1.161844491958618164e+00,1.161775350570678711e+00,1.161706209182739258e+00,1.161636948585510254e+00,1.161567926406860352e+00,1.161498785018920898e+00,1.161429643630981445e+00,1.161360502243041992e+00,1.161291360855102539e+00,1.161222338676452637e+00,1.161153197288513184e+00,1.161084175109863281e+00,1.161015152931213379e+00,1.160946011543273926e+00,1.160876989364624023e+00,1.160807967185974121e+00,1.160738825798034668e+00,1.160669803619384766e+00,1.160600781440734863e+00,1.160531759262084961e+00,1.160462856292724609e+00,1.160393834114074707e+00,1.160324811935424805e+00,1.160255908966064453e+00,1.160186886787414551e+00,1.160117864608764648e+00,1.160048961639404297e+00,1.159979939460754395e+00,1.159911036491394043e+00,1.159842133522033691e+00,1.159773111343383789e+00,1.159704327583312988e+00,1.159635305404663086e+00,1.159566402435302734e+00,1.159497618675231934e+00,1.159428715705871582e+00,1.159359812736511230e+00,1.159290909767150879e+00,1.159222126007080078e+00,1.159153223037719727e+00,1.159084439277648926e+00,1.159015536308288574e+00,1.158946752548217773e+00,1.158877849578857422e+00,1.158809065818786621e+00,1.158740282058715820e+00,1.158671498298645020e+00,1.158602714538574219e+00,1.158533930778503418e+00,1.158465147018432617e+00,1.158396482467651367e+00,1.158327698707580566e+00,1.158258914947509766e+00,1.158190250396728516e+00,1.158121466636657715e+00,1.158052682876586914e+00,1.157984018325805664e+00,1.157915353775024414e+00,1.157846689224243164e+00,1.157778024673461914e+00,1.157709240913391113e+00,1.157640695571899414e+00,1.157571911811828613e+00,1.157503247261047363e+00,1.157434701919555664e+00,1.157366037368774414e+00,1.157297492027282715e+00,1.157228827476501465e+00,1.157160162925720215e+00,1.157091617584228516e+00,1.157022953033447266e+00,1.156954407691955566e+00
1.087140917778015137e+00,1.087080359458923340e+00,1.087019801139831543e+00,1.086959242820739746e+00,1.086898803710937500e+00,1.086838245391845703e+00,1.086777687072753906e+00,1.086717247962951660e+00,1.086656689643859863e+00,1.086596250534057617e+00,1.086535692214965820e+00,1.086475133895874023e+00,1.086414694786071777e+00,1.086354255676269531e+00,1.086293697357177734e+00,1.086233377456665039e+00,1.086172819137573242e+00,1.086112380027770996e+00,1.086051940917968750e+00,1.085991501808166504e+00,1.085931181907653809e+00,1.085870742797851562e+00,1.085810303688049316e+00,1.085749864578247070e+00,1.085689544677734375e+00,1.085629105567932129e+00,1.085568785667419434e+00,1.085508346557617188e+00,1.085448026657104492e+00,1.085387587547302246e+00,1.085327267646789551e+00,1.085266947746276855e+00,1.085206508636474609e+00,1.085146188735961914e+00,1.085085868835449219e+00,1.085025548934936523e+00,1.084965229034423828e+00,1.084904909133911133e+00,1.084844589233398438e+00,1.084784388542175293e+00,1.084724068641662598e+00,1.084663748741149902e+00,1.084603548049926758e+00,1.084543228149414062e+00,1.084482908248901367e+00,1.084422707557678223e+00,1.084362387657165527e+00,1.084302186965942383e+00,1.084241986274719238e+00,1.084181666374206543e+00,1.084121465682983398e+00,1.084061264991760254e+00,1.084001064300537109e+00,1.083940863609313965e+00,1.083880662918090820e+00,1.083820462226867676e+00,1.083760261535644531e+00,1.083700060844421387e+00,1.083639979362487793e+00,1.083579778671264648e+00,1.083519577980041504e+00,1.083459496498107910e+00,1.083399295806884766e+00,1.083339214324951172e+00,1.083279132843017578e+00,1.083218932151794434e+00,1.083158850669860840e+00,1.083098769187927246e+00,1.083038568496704102e+00,1.082978487014770508e+00,1.082918405532836914e+00,1.082858324050903320e+00,1.082798242568969727e+00,1.082738161087036133e+00,1.082678079605102539e+00,1.082618117332458496e+00,1.082558035850524902e+00,1.082497954368591309e+00,1.082437872886657715e+00,1.082377910614013672e+00
1.021036028861999512e+00,1.020982623100280762e+00,1.020929217338562012e+00,1.020875692367553711e+00,1.020822405815124512e+00,1.020769000053405762e+00,1.020715594291687012e+00,1.020662188529968262e+00,1.020608782768249512e+00,1.020555496215820312e+00,1.020502090454101562e+00,1.020448684692382812e+00,1.020395398139953613e+00,1.020342111587524414e+00,1.020288705825805664e+00,1.020235419273376465e+00,1.020182013511657715e+00,1.020128726959228516e+00,1.020075440406799316e+00,1.020022034645080566e+00,1.019968867301940918e+00,1.019915461540222168e+00,1.019862174987792969e+00,1.019808888435363770e+00,1.019755601882934570e+00,1.019702315330505371e+00,1.019649028778076172e+00,1.019595742225646973e+00,1.019542455673217773e+00,1.019489288330078125e+00,1.019436001777648926e+00,1.019382834434509277e+00,1.019329547882080078e+00,1.019276261329650879e+00,1.019223093986511230e+00,1.019169807434082031e+00,1.019116640090942383e+00,1.019063472747802734e+00,1.019010186195373535e+00,1.018957018852233887e+00,1.018903851509094238e+00,1.018850564956665039e+00,1.018797516822814941e+00,1.018744230270385742e+00,1.018691062927246094e+00,1.018637895584106445e+00,1.018584728240966797e+00,1.018531560897827148e+00,1.018478512763977051e+00,1.018425226211547852e+00,1.018372178077697754e+00,1.018319010734558105e+00,1.018265843391418457e+00,1.018212795257568359e+00,1.018159627914428711e+00,1.018106460571289062e+00,1.018053412437438965e+00,1.018000364303588867e+00,1.017947316169738770e+00,1.017894148826599121e+00,1.017840981483459473e+00,1.017788052558898926e+00,1.017734885215759277e+00,1.017681837081909180e+00,1.017628788948059082e+00,1.017575740814208984e+00,1.017522573471069336e+00,1.017469644546508789e+00,1.017416596412658691e+00,1.017363548278808594e+00,1.017310500144958496e+00,1.017257452011108398e+00,1.017204523086547852e+00,1.017151474952697754e+00,1.017098426818847656e+00,1.017045497894287109e+00,1.016992449760437012e+00,1.016939520835876465e+00,1.016886472702026367e+00,1.016833424568176270e+00
