5.000000000000000000e+00,5.000000000000000000e+00,5.000000000000000000e+00,5.000000000000000000e+00,5.000000000000000000e+00,5.000000000000000000e+00,5.000000000000000000e+00,5.000000000000000000e+00,5.000000000000000000e+00,5.000000000000000000e+00,5.000000000000000000e+00,5.000000000000000000e+00,5.000000000000000000e+00,5.000000000000000000e+00,5.000000000000000000e+00,5.000000000000000000e+00,5.000000000000000000e+00,5.000000000000000000e+00,5.000000000000000000e+00,5.000000000000000000e+00,5.000000000000000000e+00,5.000000000000000000e+00,5.000000000000000000e+00,5.000000000000000000e+00,5.000000000000000000e+00,5.000000000000000000e+00,5.000000000000000000e+00,5.000000000000000000e+00,5.000000000000000000e+00,5.000000000000000000e+00,5.000000000000000000e+00,2.718739748001098633e+00,2.690801620483398438e+00,2.700417757034301758e+00,5.000000000000000000e+00,5.000000000000000000e+00,5.000000000000000000e+00,5.000000000000000000e+00,5.000000000000000000e+00,4.848587036132812500e+00,4.658745288848876953e+00,4.483209609985351562e+00,4.320421218872070312e+00,4.169040679931640625e+00,4.027909278869628906e+00,3.896020412445068359e+00,3.772494792938232422e+00,3.656560897827148438e+00,3.547540903091430664e+00,3.444832801818847656e+00,3.347904682159423828e+00,3.256282329559326172e+00,3.169540643692016602e+00,3.087301015853881836e+00,3.009220600128173828e+00,2.934992551803588867e+00,2.864338159561157227e+00,2.797005653381347656e+00,2.732765913009643555e+00,2.671410799026489258e+00,2.612750291824340820e+00,2.556610584259033203e+00,2.502832412719726562e+00,2.451270580291748047e+00,2.401789903640747070e+00,2.354267597198486328e+00,2.308589220046997070e+00,2.264649629592895508e+00,2.222351551055908203e+00,2.181604385375976562e+00,2.142324686050415039e+00,2.104434251785278320e+00,2.067860841751098633e+00,2.032537221908569336e+00,1.998400092124938965e+00,1.965390563011169434e+00,1.933453679084777832e+00,1.902538299560546875e+00,1.872596144676208496e+00,1.843581557273864746e+00
5.000000000000000000e+00,5.000000000000000000e+00,5.000000000000000000e+00,5.000000000000000000e+00,5.000000000000000000e+00,5.000000000000000000e+00,5.000000000000000000e+00,5.000000000000000000e+00,5.000000000000000000e+00,5.000000000000000000e+00,5.000000000000000000e+00,5.000000000000000000e+00,5.000000000000000000e+00,5.000000000000000000e+00,5.000000000000000000e+00,5.000000000000000000e+00,5.000000000000000000e+00,5.000000000000000000e+00,5.000000000000000000e+00,5.000000000000000000e+00,5.000000000000000000e+00,5.000000000000000000e+00,5.000000000000000000e+00,5.000000000000000000e+00,5.000000000000000000e+00,5.000000000000000000e+00,5.000000000000000000e+00,5.000000000000000000e+00,5.000000000000000000e+00,5.000000000000000000e+00,5.000000000000000000e+00,2.758576869964599609e+00,2.707977771759033203e+00,2.718112230300903320e+00,5.000000000000000000e+00,5.000000000000000000e+00,5.000000000000000000e+00,5.000000000000000000e+00,5.000000000000000000e+00,4.848725318908691406e+00,4.658872604370117188e+00,4.483327865600585938e+00,4.320530891418457031e+00,4.169142723083496094e+00,4.028004646301269531e+00,3.896109342575073242e+00,3.772578239440917969e+00,3.656639575958251953e+00,3.547614812850952148e+00,3.444902420043945312e+00,3.347970724105834961e+00,3.256344556808471680e+00,3.169600009918212891e+00,3.087356805801391602e+00,3.009274005889892578e+00,2.935043334960937500e+00,2.864386558532714844e+00,2.797051429748535156e+00,2.732809782028198242e+00,2.671452760696411133e+00,2.612790346145629883e+00,2.556648969650268555e+00,2.502869367599487305e+00,2.451305866241455078e+00,2.401823759078979492e+00,2.354300260543823242e+00,2.308620452880859375e+00,2.264679908752441406e+00,2.222380638122558594e+00,2.181632518768310547e+00,2.142351627349853516e+00,2.104460477828979492e+00,2.067886114120483398e+00,2.032561540603637695e+00,1.998423337936401367e+00,1.965413093566894531e+00,1.933475732803344727e+00,1.902559638023376465e+00,1.872616529464721680e+00,1.843601465225219727e+00
5.000000000000000000e+00,5.000000000000000000e+00,5.000000000000000000e+00,5.000000000000000000e+00,5.000000000000000000e+00,5.000000000000000000e+00,5.000000000000000000e+00,5.000000000000000000e+00,5.000000000000000000e+00,5.000000000000000000e+00,5.000000000000000000e+00,5.000000000000000000e+00,5.000000000000000000e+00,5.000000000000000000e+00,5.000000000000000000e+00,5.000000000000000000e+00,5.000000000000000000e+00,5.000000000000000000e+00,5.000000000000000000e+00,5.000000000000000000e+00,5.000000000000000000e+00,5.000000000000000000e+00,5.000000000000000000e+00,5.000000000000000000e+00,5.000000000000000000e+00,5.000000000000000000e+00,5.000000000000000000e+00,5.000000000000000000e+00,5.000000000000000000e+00,5.000000000000000000e+00,2.698725700378417969e+00,2.765223026275634766e+00,2.762653112411499023e+00,5.000000000000000000e+00,5.000000000000000000e+00,5.000000000000000000e+00,5.000000000000000000e+00,5.000000000000000000e+00,5.000000000000000000e+00,4.848863601684570312e+00,4.659000396728515625e+00,4.483445644378662109e+00,4.320640563964843750e+00,4.169244766235351562e+00,4.028100013732910156e+00,3.896198987960815430e+00,3.772661924362182617e+00,3.656718492507934570e+00,3.547688484191894531e+00,3.444972515106201172e+00,3.348036527633666992e+00,3.256407022476196289e+00,3.169658899307250977e+00,3.087412834167480469e+00,3.009327173233032227e+00,2.935093879699707031e+00,2.864434719085693359e+00,2.797097444534301758e+00,2.732853651046752930e+00,2.671494722366333008e+00,2.612830638885498047e+00,2.556687355041503906e+00,2.502906322479248047e+00,2.451341152191162109e+00,2.401857852935791016e+00,2.354332685470581055e+00,2.308651924133300781e+00,2.264709949493408203e+00,2.222409725189208984e+00,2.181660413742065430e+00,2.142378568649291992e+00,2.104486465454101562e+00,2.067911148071289062e+00,2.032585859298706055e+00,1.998446941375732422e+00,1.965435862541198730e+00,1.933497667312622070e+00,1.902580976486206055e+00,1.872637271881103516e+00,1.843621492385864258e+00
5.000000000000000000e+00,5.000000000000000000e+00,5.000000000000000000e+00,5.000000000000000000e+00,5.000000000000000000e+00,5.000000000000000000e+00,5.000000000000000000e+00,5.000000000000000000e+00,5.000000000000000000e+00,5.000000000000000000e+00,5.000000000000000000e+00,5.000000000000000000e+00,5.000000000000000000e+00,5.000000000000000000e+00,5.000000000000000000e+00,5.000000000000000000e+00,5.000000000000000000e+00,5.000000000000000000e+00,5.000000000000000000e+00,5.000000000000000000e+00,5.000000000000000000e+00,5.000000000000000000e+00,5.000000000000000000e+00,5.000000000000000000e+00,5.000000000000000000e+00,5.000000000000000000e+00,5.000000000000000000e+00,2.640603542327880859e+00,2.627419948577880859e+00,2.654886007308959961e+00,2.665668249130249023e+00,2.683867692947387695e+00,2.726423501968383789e+00,2.740998983383178711e+00,2.819182157516479492e+00,2.848243474960327148e+00,5.000000000000000000e+00,5.000000000000000000e+00,5.000000000000000000e+00,4.849001884460449219e+00,4.659128189086914062e+00,4.483563899993896484e+00,4.320750236511230469e+00,4.169347286224365234e+00,4.028195381164550781e+00,3.896288156509399414e+00,3.772745847702026367e+00,3.656796932220458984e+00,3.547762393951416016e+00,3.445042133331298828e+00,3.348102331161499023e+00,3.256469488143920898e+00,3.169718027114868164e+00,3.087469100952148438e+00,3.009380340576171875e+00,2.935144662857055664e+00,2.864482879638671875e+00,2.797143697738647461e+00,2.732897520065307617e+00,2.671536684036254883e+00,2.612870693206787109e+00,2.556725978851318359e+00,2.502943038940429688e+00,2.451376438140869141e+00,2.401891708374023438e+00,2.354365348815917969e+00,2.308683156967163086e+00,2.264740228652954102e+00,2.222438573837280273e+00,2.181688308715820312e+00,2.142405748367309570e+00,2.104512453079223633e+00,2.067936420440673828e+00,2.032610177993774414e+00,1.998470544815063477e+00,1.965458750724792480e+00,1.933519721031188965e+00,1.902602076530456543e+00,1.872658014297485352e+00,1.843641519546508789e+00
5.000000000000000000e+00,5.000000000000000000e+00,5.000000000000000000e+00,5.000000000000000000e+00,5.000000000000000000e+00,5.000000000000000000e+00,5.000000000000000000e+00,5.000000000000000000e+00,5.000000000000000000e+00,5.000000000000000000e+00,5.000000000000000000e+00,5.000000000000000000e+00,5.000000000000000000e+00,5.000000000000000000e+00,5.000000000000000000e+00,5.000000000000000000e+00,5.000000000000000000e+00,5.000000000000000000e+00,5.000000000000000000e+00,5.000000000000000000e+00,5.000000000000000000e+00,5.000000000000000000e+00,5.000000000000000000e+00,5.000000000000000000e+00,5.000000000000000000e+00,5.000000000000000000e+00,5.000000000000000000e+00,2.642525672912597656e+00,2.637263536453247070e+00,2.648559331893920898e+00,2.639142274856567383e+00,2.644721031188964844e+00,2.674963951110839844e+00,2.705277919769287109e+00,2.746724843978881836e+00,2.802585840225219727e+00,2.850629091262817383e+00,5.000000000000000000e+00,5.000000000000000000e+00,4.849140167236328125e+00,4.659255981445312500e+00,4.483682155609130859e+00,4.320859909057617188e+00,4.169449329376220703e+00,4.028290748596191406e+00,3.896377325057983398e+00,3.772829294204711914e+00,3.656875371932983398e+00,3.547836780548095703e+00,3.445111751556396484e+00,3.348168611526489258e+00,3.256531715393066406e+00,3.169777393341064453e+00,3.087525129318237305e+00,3.009433984756469727e+00,2.935195207595825195e+00,2.864531278610229492e+00,2.797189474105834961e+00,2.732941389083862305e+00,2.671578645706176758e+00,2.612910747528076172e+00,2.556764364242553711e+00,2.502979755401611328e+00,2.451411724090576172e+00,2.401925563812255859e+00,2.354398012161254883e+00,2.308714389801025391e+00,2.264770507812500000e+00,2.222467660903930664e+00,2.181716442108154297e+00,2.142432689666748047e+00,2.104538679122924805e+00,2.067961454391479492e+00,2.032634496688842773e+00,1.998493790626525879e+00,1.965481281280517578e+00,1.933541774749755859e+00,1.902623534202575684e+00,1.872678399085998535e+00,1.843661427497863770e+00
5.000000000000000000e+00,5.000000000000000000e+00,5.000000000000000000e+00,5.000000000000000000e+00,5.000000000000000000e+00,5.000000000000000000e+00,5.000000000000000000e+00,5.000000000000000000e+00,5.000000000000000000e+00,5.000000000000000000e+00,5.000000000000000000e+00,5.000000000000000000e+00,5.000000000000000000e+00,5.000000000000000000e+00,5.000000000000000000e+00,5.000000000000000000e+00,5.000000000000000000e+00,5.000000000000000000e+00,5.000000000000000000e+00,5.000000000000000000e+00,5.000000000000000000e+00,5.000000000000000000e+00,5.000000000000000000e+00,5.000000000000000000e+00,5.000000000000000000e+00,5.000000000000000000e+00,5.000000000000000000e+00,2.661626815795898438e+00,2.655048131942749023e+00,2.656195878982543945e+00,2.641636133193969727e+00,2.640183687210083008e+00,2.653387546539306641e+00,2.681055068969726562e+00,2.710424423217773438e+00,2.787769079208374023e+00,2.865822553634643555e+00,5.000000000000000000e+00,5.000000000000000000e+00,4.849278450012207031e+00,4.659383296966552734e+00,4.483800411224365234e+00,4.320969581604003906e+00,4.169551849365234375e+00,4.028386116027832031e+00,3.896466732025146484e+00,3.772912979125976562e+00,3.656954288482666016e+00,3.547910690307617188e+00,3.445181846618652344e+00,3.348234415054321289e+00,3.256594181060791016e+00,3.169836282730102539e+00,3.087580919265747070e+00,3.009487152099609375e+00,2.935245752334594727e+00,2.864579439163208008e+00,2.797235488891601562e+00,2.732985496520996094e+00,2.671620607376098633e+00,2.612951040267944336e+00,2.556802749633789062e+00,2.503016710281372070e+00,2.451447010040283203e+00,2.401959657669067383e+00,2.354430437088012695e+00,2.308745861053466797e+00,2.264800548553466797e+00,2.222496747970581055e+00,2.181744337081909180e+00,2.142459630966186523e+00,2.104564666748046875e+00,2.067986488342285156e+00,2.032658815383911133e+00,1.998517394065856934e+00,1.965504050254821777e+00,1.933563590049743652e+00,1.902644872665405273e+00,1.872699141502380371e+00,1.843681454658508301e+00
5.000000000000000000e+00,5.000000000000000000e+00,5.000000000000000000e+00,5.000000000000000000e+00,5.000000000000000000e+00,5.000000000000000000e+00,5.000000000000000000e+00,5.000000000000000000e+00,5.000000000000000000e+00,5.000000000000000000e+00,5.000000000000000000e+00,5.000000000000000000e+00,5.000000000000000000e+00,5.000000000000000000e+00,5.000000000000000000e+00,5.000000000000000000e+00,5.000000000000000000e+00,5.000000000000000000e+00,5.000000000000000000e+00,5.000000000000000000e+00,5.000000000000000000e+00,5.000000000000000000e+00,5.000000000000000000e+00,5.000000000000000000e+00,5.000000000000000000e+00,5.000000000000000000e+00,5.000000000000000000e+00,2.684567689895629883e+00,2.665028810501098633e+00,2.679504871368408203e+00,2.645823717117309570e+00,2.651824712753295898e+00,2.651978015899658203e+00,2.677953481674194336e+00,2.709186553955078125e+00,2.782011032104492188e+00,2.873698234558105469e+00,5.000000000000000000e+00,5.000000000000000000e+00,4.849416732788085938e+00,4.659511089324951172e+00,4.483918666839599609e+00,4.321079730987548828e+00,4.169653892517089844e+00,4.028481960296630859e+00,3.896555900573730469e+00,3.772996425628662109e+00,3.657032728195190430e+00,3.547984600067138672e+00,3.445251464843750000e+00,3.348300218582153320e+00,3.256656408309936523e+00,3.169895172119140625e+00,3.087637186050415039e+00,3.009540319442749023e+00,2.935296773910522461e+00,2.864627599716186523e+00,2.797281742095947266e+00,2.733029365539550781e+00,2.671662807464599609e+00,2.612991094589233398e+00,2.556841373443603516e+00,2.503053665161132812e+00,2.451482295989990234e+00,2.401993513107299805e+00,2.354463100433349609e+00,2.308777332305908203e+00,2.264830589294433594e+00,2.222525835037231445e+00,2.181772470474243164e+00,2.142486572265625000e+00,2.104590654373168945e+00,2.068011760711669922e+00,2.032682895660400391e+00,1.998540997505187988e+00,1.965526819229125977e+00,1.933585643768310547e+00,1.902665972709655762e+00,1.872719645500183105e+00,1.843701601028442383e+00
5.000000000000000000e+00,5.000000000000000000e+00,5.000000000000000000e+00,5.000000000000000000e+00,5.000000000000000000e+00,5.000000000000000000e+00,5.000000000000000000e+00,5.000000000000000000e+00,5.000000000000000000e+00,5.000000000000000000e+00,5.000000000000000000e+00,5.000000000000000000e+00,5.000000000000000000e+00,5.000000000000000000e+00,5.000000000000000000e+00,5.000000000000000000e+00,5.000000000000000000e+00,5.000000000000000000e+00,5.000000000000000000e+00,5.000000000000000000e+00,5.000000000000000000e+00,5.000000000000000000e+00,5.000000000000000000e+00,5.000000000000000000e+00,5.000000000000000000e+00,5.000000000000000000e+00,5.000000000000000000e+00,2.699340820312500000e+00,2.671355962753295898e+00,2.686427116394042969e+00,2.652290582656860352e+00,2.646955728530883789e+00,2.653008699417114258e+00,2.673283100128173828e+00,2.715978384017944336e+00,2.862195253372192383e+00,2.875265121459960938e+00,5.000000000000000000e+00,5.000000000000000000e+00,4.849555015563964844e+00,4.659638404846191406e+00,4.484036922454833984e+00,4.321189403533935547e+00,4.169755935668945312e+00,4.028576850891113281e+00,3.896645069122314453e+00,3.773080587387084961e+00,3.657111406326293945e+00,3.548058748245239258e+00,3.445321321487426758e+00,3.348366498947143555e+00,3.256718873977661133e+00,3.169954538345336914e+00,3.087693214416503906e+00,3.009593725204467773e+00,2.935347318649291992e+00,2.864675760269165039e+00,2.797327518463134766e+00,2.733073234558105469e+00,2.671704530715942383e+00,2.613031148910522461e+00,2.556879520416259766e+00,2.503090381622314453e+00,2.451517820358276367e+00,2.402027368545532227e+00,2.354495763778686523e+00,2.308808565139770508e+00,2.264860868453979492e+00,2.222554922103881836e+00,2.181800365447998047e+00,2.142513513565063477e+00,2.104616641998291016e+00,2.068037033081054688e+00,2.032707214355468750e+00,1.998564243316650391e+00,1.965549468994140625e+00,1.933607697486877441e+00,1.902687311172485352e+00,1.872740268707275391e+00,1.843721389770507812e+00
5.000000000000000000e+00,5.000000000000000000e+00,5.000000000000000000e+00,5.000000000000000000e+00,5.000000000000000000e+00,5.000000000000000000e+00,5.000000000000000000e+00,5.000000000000000000e+00,5.000000000000000000e+00,5.000000000000000000e+00,5.000000000000000000e+00,5.000000000000000000e+00,5.000000000000000000e+00,5.000000000000000000e+00,5.000000000000000000e+00,5.000000000000000000e+00,5.000000000000000000e+00,5.000000000000000000e+00,5.000000000000000000e+00,5.000000000000000000e+00,5.000000000000000000e+00,5.000000000000000000e+00,5.000000000000000000e+00,5.000000000000000000e+00,5.000000000000000000e+00,5.000000000000000000e+00,5.000000000000000000e+00,2.711875200271606445e+00,2.677348375320434570e+00,2.683852910995483398e+00,2.663969516754150391e+00,2.646922349929809570e+00,2.652915477752685547e+00,2.673606634140014648e+00,2.711184978485107422e+00,2.859497785568237305e+00,2.866084575653076172e+00,5.000000000000000000e+00,5.000000000000000000e+00,4.849693298339843750e+00,4.659766197204589844e+00,4.484155178070068359e+00,4.321299076080322266e+00,4.169858455657958984e+00,4.028672695159912109e+00,3.896734714508056641e+00,3.773164033889770508e+00,3.657190322875976562e+00,3.548132658004760742e+00,3.445391416549682617e+00,3.348432302474975586e+00,3.256781101226806641e+00,3.170013427734375000e+00,3.087749242782592773e+00,3.009646892547607422e+00,2.935397863388061523e+00,2.864724159240722656e+00,2.797373533248901367e+00,2.733117341995239258e+00,2.671746492385864258e+00,2.613071441650390625e+00,2.556917905807495117e+00,2.503127336502075195e+00,2.451553106307983398e+00,2.402061462402343750e+00,2.354528427124023438e+00,2.308839797973632812e+00,2.264891147613525391e+00,2.222583770751953125e+00,2.181828498840332031e+00,2.142540693283081055e+00,2.104642629623413086e+00,2.068062067031860352e+00,2.032731533050537109e+00,1.998587846755981445e+00,1.965572237968444824e+00,1.933629512786865234e+00,1.902708768844604492e+00,1.872761011123657227e+00,1.843741416931152344e+00
5.000000000000000000e+00,5.000000000000000000e+00,5.000000000000000000e+00,5.000000000000000000e+00,5.000000000000000000e+00,5.000000000000000000e+00,5.000000000000000000e+00,5.000000000000000000e+00,5.000000000000000000e+00,5.000000000000000000e+00,5.000000000000000000e+00,5.000000000000000000e+00,5.000000000000000000e+00,5.000000000000000000e+00,5.000000000000000000e+00,5.000000000000000000e+00,5.000000000000000000e+00,5.000000000000000000e+00,5.000000000000000000e+00,5.000000000000000000e+00,5.000000000000000000e+00,5.000000000000000000e+00,5.000000000000000000e+00,5.000000000000000000e+00,5.000000000000000000e+00,5.000000000000000000e+00,5.000000000000000000e+00,5.000000000000000000e+00,2.685587167739868164e+00,2.702228307723999023e+00,2.650564432144165039e+00,2.635649204254150391e+00,2.643759727478027344e+00,2.680692672729492188e+00,2.711266040802001953e+00,2.872696876525878906e+00,2.871533632278442383e+00,5.000000000000000000e+00,5.000000000000000000e+00,4.849831581115722656e+00,4.659893989562988281e+00,4.484273433685302734e+00,4.321409225463867188e+00,4.169960975646972656e+00,4.028768062591552734e+00,3.896823883056640625e+00,3.773247718811035156e+00,3.657269001007080078e+00,3.548206567764282227e+00,3.445461034774780273e+00,3.348498106002807617e+00,3.256843566894531250e+00,3.170072555541992188e+00,3.087805509567260742e+00,3.009700059890747070e+00,2.935448646545410156e+00,2.864772558212280273e+00,2.797419786453247070e+00,2.733161211013793945e+00,2.671788692474365234e+00,2.613111495971679688e+00,2.556956291198730469e+00,2.503164052963256836e+00,2.451588392257690430e+00,2.402095317840576172e+00,2.354560852050781250e+00,2.308871269226074219e+00,2.264921188354492188e+00,2.222612857818603516e+00,2.181856393814086914e+00,2.142567634582519531e+00,2.104668855667114258e+00,2.068087339401245117e+00,2.032755851745605469e+00,1.998611450195312500e+00,1.965595006942749023e+00,1.933651566505432129e+00,1.902729868888854980e+00,1.872781515121459961e+00,1.843761563301086426e+00
5.000000000000000000e+00,5.000000000000000000e+00,5.000000000000000000e+00,5.000000000000000000e+00,5.000000000000000000e+00,5.000000000000000000e+00,5.000000000000000000e+00,5.000000000000000000e+00,5.000000000000000000e+00,5.000000000000000000e+00,5.000000000000000000e+00,5.000000000000000000e+00,5.000000000000000000e+00,5.000000000000000000e+00,5.000000000000000000e+00,5.000000000000000000e+00,5.000000000000000000e+00,5.000000000000000000e+00,5.000000000000000000e+00,5.000000000000000000e+00,5.000000000000000000e+00,5.000000000000000000e+00,5.000000000000000000e+00,5.000000000000000000e+00,5.000000000000000000e+00,5.000000000000000000e+00,5.000000000000000000e+00,5.000000000000000000e+00,2.694222450256347656e+00,2.682760000228881836e+00,2.648339986801147461e+00,2.630459785461425781e+00,2.637641668319702148e+00,2.663419008255004883e+00,2.697023868560791016e+00,2.889454841613769531e+00,2.885179996490478516e+00,5.000000000000000000e+00,5.000000000000000000e+00,4.849969863891601562e+00,4.660021781921386719e+00,4.484391689300537109e+00,4.321518898010253906e+00,4.170063018798828125e+00,4.028863430023193359e+00,3.896913051605224609e+00,3.773331642150878906e+00,3.657347440719604492e+00,3.548280954360961914e+00,3.445530652999877930e+00,3.348564147949218750e+00,3.256905794143676758e+00,3.170131921768188477e+00,3.087861537933349609e+00,3.009753227233886719e+00,2.935499191284179688e+00,2.864820718765258789e+00,2.797465562820434570e+00,2.733205080032348633e+00,2.671830654144287109e+00,2.613151788711547852e+00,2.556994915008544922e+00,2.503201007843017578e+00,2.451623916625976562e+00,2.402129173278808594e+00,2.354593515396118164e+00,2.308902502059936523e+00,2.264951467514038086e+00,2.222641944885253906e+00,2.181884527206420898e+00,2.142594575881958008e+00,2.104694843292236328e+00,2.068112373352050781e+00,2.032780170440673828e+00,1.998634815216064453e+00,1.965617537498474121e+00,1.933673620223999023e+00,1.902751207351684570e+00,1.872802257537841797e+00,1.843781352043151855e+00
5.000000000000000000e+00,5.000000000000000000e+00,5.000000000000000000e+00,5.000000000000000000e+00,5.000000000000000000e+00,5.000000000000000000e+00,5.000000000000000000e+00,5.000000000000000000e+00,5.000000000000000000e+00,5.000000000000000000e+00,5.000000000000000000e+00,5.000000000000000000e+00,5.000000000000000000e+00,5.000000000000000000e+00,5.000000000000000000e+00,5.000000000000000000e+00,5.000000000000000000e+00,5.000000000000000000e+00,5.000000000000000000e+00,5.000000000000000000e+00,5.000000000000000000e+00,5.000000000000000000e+00,5.000000000000000000e+00,5.000000000000000000e+00,5.000000000000000000e+00,5.000000000000000000e+00,5.000000000000000000e+00,5.000000000000000000e+00,2.675129890441894531e+00,2.684597492218017578e+00,2.649449586868286133e+00,2.647011280059814453e+00,2.651786565780639648e+00,2.668033838272094727e+00,2.707666397094726562e+00,2.892444610595703125e+00,2.876349210739135742e+00,5.000000000000000000e+00,5.000000000000000000e+00,4.850108146667480469e+00,4.660149574279785156e+00,4.484509944915771484e+00,4.321628570556640625e+00,4.170165061950683594e+00,4.028958797454833984e+00,3.897002696990966797e+00,3.773415327072143555e+00,3.657426357269287109e+00,3.548354864120483398e+00,3.445600509643554688e+00,3.348629951477050781e+00,3.256968259811401367e+00,3.170190811157226562e+00,3.087917327880859375e+00,3.009806632995605469e+00,2.935549736022949219e+00,2.864869117736816406e+00,2.797511577606201172e+00,2.733249187469482422e+00,2.671872377395629883e+00,2.613192081451416016e+00,2.557033300399780273e+00,2.503237962722778320e+00,2.451659202575683594e+00,2.402163028717041016e+00,2.354626178741455078e+00,2.308933973312377930e+00,2.264981508255004883e+00,2.222671031951904297e+00,2.181912422180175781e+00,2.142621517181396484e+00,2.104720830917358398e+00,2.068137407302856445e+00,2.032804489135742188e+00,1.998658299446105957e+00,1.965640425682067871e+00,1.933695554733276367e+00,1.902772545814514160e+00,1.872822880744934082e+00,1.843801379203796387e+00
5.000000000000000000e+00,5.000000000000000000e+00,5.000000000000000000e+00,5.000000000000000000e+00,5.000000000000000000e+00,5.000000000000000000e+00,5.000000000000000000e+00,5.000000000000000000e+00,5.000000000000000000e+00,5.000000000000000000e+00,5.000000000000000000e+00,5.000000000000000000e+00,5.000000000000000000e+00,5.000000000000000000e+00,5.000000000000000000e+00,5.000000000000000000e+00,5.000000000000000000e+00,5.000000000000000000e+00,5.000000000000000000e+00,5.000000000000000000e+00,5.000000000000000000e+00,5.000000000000000000e+00,5.000000000000000000e+00,5.000000000000000000e+00,5.000000000000000000e+00,5.000000000000000000e+00,5.000000000000000000e+00,5.000000000000000000e+00,2.662827968597412109e+00,2.681002140045166016e+00,2.633606433868408203e+00,2.633455276489257812e+00,2.664931774139404297e+00,2.676383972167968750e+00,2.713603258132934570e+00,2.781412601470947266e+00,2.867339134216308594e+00,2.883160829544067383e+00,5.000000000000000000e+00,4.850246429443359375e+00,4.660277366638183594e+00,4.484628200531005859e+00,4.321738243103027344e+00,4.170267581939697266e+00,4.029054164886474609e+00,3.897091865539550781e+00,3.773498773574829102e+00,3.657504796981811523e+00,3.548428773880004883e+00,3.445670366287231445e+00,3.348695755004882812e+00,3.257030725479125977e+00,3.170249938964843750e+00,3.087973594665527344e+00,3.009859800338745117e+00,2.935600757598876953e+00,2.864917278289794922e+00,2.797557830810546875e+00,2.733293056488037109e+00,2.671914339065551758e+00,2.613232135772705078e+00,2.557071685791015625e+00,2.503274679183959961e+00,2.451694488525390625e+00,2.402197122573852539e+00,2.354658603668212891e+00,2.308965444564819336e+00,2.265011548995971680e+00,2.222700119018554688e+00,2.181940317153930664e+00,2.142648696899414062e+00,2.104746818542480469e+00,2.068162679672241211e+00,2.032828807830810547e+00,1.998681664466857910e+00,1.965663194656372070e+00,1.933717608451843262e+00,1.902793765068054199e+00,1.872843384742736816e+00,1.843821525573730469e+00
5.000000000000000000e+00,5.000000000000000000e+00,5.000000000000000000e+00,5.000000000000000000e+00,5.000000000000000000e+00,5.000000000000000000e+00,5.000000000000000000e+00,5.000000000000000000e+00,5.000000000000000000e+00,5.000000000000000000e+00,5.000000000000000000e+00,5.000000000000000000e+00,5.000000000000000000e+00,5.000000000000000000e+00,5.000000000000000000e+00,5.000000000000000000e+00,5.000000000000000000e+00,5.000000000000000000e+00,5.000000000000000000e+00,5.000000000000000000e+00,5.000000000000000000e+00,5.000000000000000000e+00,5.000000000000000000e+00,5.000000000000000000e+00,5.000000000000000000e+00,5.000000000000000000e+00,5.000000000000000000e+00,5.000000000000000000e+00,2.653314590454101562e+00,2.663374900817871094e+00,2.582346439361572266e+00,2.575640916824340820e+00,2.594069719314575195e+00,2.706597089767456055e+00,2.727382183074951172e+00,2.760795116424560547e+00,2.867189645767211914e+00,2.859375953674316406e+00,5.000000000000000000e+00,4.850384712219238281e+00,4.660404682159423828e+00,4.484746456146240234e+00,4.321848392486572266e+00,4.170369625091552734e+00,4.029150009155273438e+00,3.897181034088134766e+00,3.773582935333251953e+00,3.657583475112915039e+00,3.548503160476684570e+00,3.445740222930908203e+00,3.348762035369873047e+00,3.257092952728271484e+00,3.170308828353881836e+00,3.088029623031616211e+00,3.009912967681884766e+00,2.935651302337646484e+00,2.864965438842773438e+00,2.797603845596313477e+00,2.733336925506591797e+00,2.671956539154052734e+00,2.613272190093994141e+00,2.557110309600830078e+00,2.503311395645141602e+00,2.451730012893676758e+00,2.402230978012084961e+00,2.354691505432128906e+00,2.308996677398681641e+00,2.265041828155517578e+00,2.222729206085205078e+00,2.181968212127685547e+00,2.142675638198852539e+00,2.104772806167602539e+00,2.068187952041625977e+00,2.032853126525878906e+00,1.998705267906188965e+00,1.965685725212097168e+00,1.933739662170410156e+00,1.902815103530883789e+00,1.872864127159118652e+00,1.843841314315795898e+00
5.000000000000000000e+00,5.000000000000000000e+00,5.000000000000000000e+00,5.000000000000000000e+00,5.000000000000000000e+00,5.000000000000000000e+00,5.000000000000000000e+00,5.000000000000000000e+00,5.000000000000000000e+00,5.000000000000000000e+00,5.000000000000000000e+00,5.000000000000000000e+00,5.000000000000000000e+00,5.000000000000000000e+00,5.000000000000000000e+00,5.000000000000000000e+00,5.000000000000000000e+00,5.000000000000000000e+00,5.000000000000000000e+00,5.000000000000000000e+00,5.000000000000000000e+00,5.000000000000000000e+00,5.000000000000000000e+00,5.000000000000000000e+00,5.000000000000000000e+00,5.000000000000000000e+00,5.000000000000000000e+00,5.000000000000000000e+00,2.636454105377197266e+00,2.639303684234619141e+00,2.560443878173828125e+00,2.553961515426635742e+00,2.558369159698486328e+00,2.717761516571044922e+00,2.709126949310302734e+00,2.725259065628051758e+00,5.000000000000000000e+00,2.848255872726440430e+00,5.000000000000000000e+00,4.850522994995117188e+00,4.660532474517822266e+00,4.484864711761474609e+00,4.321958065032958984e+00,4.170472145080566406e+00,4.029245376586914062e+00,3.897270679473876953e+00,3.773666620254516602e+00,3.657661914825439453e+00,3.548577070236206055e+00,3.445809841156005859e+00,3.348827838897705078e+00,3.257155418395996094e+00,3.170368194580078125e+00,3.088085651397705078e+00,3.009966611862182617e+00,2.935701847076416016e+00,2.865013837814331055e+00,2.797649621963500977e+00,2.733380794525146484e+00,2.671998500823974609e+00,2.613312482833862305e+00,2.557148694992065430e+00,2.503348350524902344e+00,2.451765298843383789e+00,2.402264833450317383e+00,2.354723930358886719e+00,2.309027910232543945e+00,2.265072107315063477e+00,2.222758054733276367e+00,2.181996345520019531e+00,2.142702579498291016e+00,2.104799032211303711e+00,2.068212985992431641e+00,2.032877445220947266e+00,1.998728871345520020e+00,1.965708613395690918e+00,1.933761477470397949e+00,1.902836441993713379e+00,1.872884750366210938e+00,1.843861460685729980e+00
5.000000000000000000e+00,5.000000000000000000e+00,5.000000000000000000e+00,5.000000000000000000e+00,5.000000000000000000e+00,5.000000000000000000e+00,5.000000000000000000e+00,5.000000000000000000e+00,5.000000000000000000e+00,5.000000000000000000e+00,5.000000000000000000e+00,5.000000000000000000e+00,5.000000000000000000e+00,5.000000000000000000e+00,5.000000000000000000e+00,5.000000000000000000e+00,5.000000000000000000e+00,5.000000000000000000e+00,5.000000000000000000e+00,5.000000000000000000e+00,5.000000000000000000e+00,5.000000000000000000e+00,5.000000000000000000e+00,5.000000000000000000e+00,5.000000000000000000e+00,5.000000000000000000e+00,5.000000000000000000e+00,5.000000000000000000e+00,2.630342483520507812e+00,2.626029491424560547e+00,2.556883573532104492e+00,2.535455226898193359e+00,2.531084060668945312e+00,2.586285591125488281e+00,2.697540760040283203e+00,2.710894107818603516e+00,5.000000000000000000e+00,2.832253694534301758e+00,5.000000000000000000e+00,4.850661754608154297e+00,4.660660266876220703e+00,4.484982967376708984e+00,4.322068214416503906e+00,4.170574188232421875e+00,4.029340744018554688e+00,3.897359848022460938e+00,3.773750066757202148e+00,3.657740831375122070e+00,3.548650979995727539e+00,3.445879936218261719e+00,3.348893642425537109e+00,3.257217884063720703e+00,3.170427083969116211e+00,3.088141918182373047e+00,3.010019779205322266e+00,2.935752868652343750e+00,2.865061998367309570e+00,2.797695636749267578e+00,2.733424663543701172e+00,2.672040462493896484e+00,2.613352537155151367e+00,2.557187080383300781e+00,2.503385305404663086e+00,2.451800584793090820e+00,2.402298927307128906e+00,2.354756593704223633e+00,2.309059381484985352e+00,2.265102148056030273e+00,2.222787380218505859e+00,2.182024240493774414e+00,2.142729759216308594e+00,2.104825019836425781e+00,2.068238019943237305e+00,2.032901763916015625e+00,1.998752117156982422e+00,1.965731382369995117e+00,1.933783531188964844e+00,1.902857661247253418e+00,1.872905254364013672e+00,1.843881487846374512e+00
5.000000000000000000e+00,5.000000000000000000e+00,5.000000000000000000e+00,5.000000000000000000e+00,5.000000000000000000e+00,5.000000000000000000e+00,5.000000000000000000e+00,5.000000000000000000e+00,5.000000000000000000e+00,5.000000000000000000e+00,5.000000000000000000e+00,5.000000000000000000e+00,5.000000000000000000e+00,5.000000000000000000e+00,5.000000000000000000e+00,5.000000000000000000e+00,5.000000000000000000e+00,5.000000000000000000e+00,5.000000000000000000e+00,5.000000000000000000e+00,5.000000000000000000e+00,5.000000000000000000e+00,5.000000000000000000e+00,5.000000000000000000e+00,5.000000000000000000e+00,5.000000000000000000e+00,5.000000000000000000e+00,5.000000000000000000e+00,2.613432645797729492e+00,2.601380586624145508e+00,2.567083358764648438e+00,2.518769502639770508e+00,2.509838581085205078e+00,2.555001735687255859e+00,2.695424795150756836e+00,2.707583904266357422e+00,5.000000000000000000e+00,2.805619478225708008e+00,2.823589801788330078e+00,4.850800037384033203e+00,4.660788059234619141e+00,4.485101222991943359e+00,4.322177886962890625e+00,4.170676708221435547e+00,4.029436111450195312e+00,3.897449016571044922e+00,3.773834228515625000e+00,3.657819509506225586e+00,3.548725366592407227e+00,3.445949554443359375e+00,3.348959684371948242e+00,3.257280349731445312e+00,3.170486211776733398e+00,3.088197946548461914e+00,3.010072946548461914e+00,2.935803413391113281e+00,2.865110158920288086e+00,2.797741889953613281e+00,2.733468532562255859e+00,2.672082424163818359e+00,2.613392591476440430e+00,2.557225704193115234e+00,2.503422021865844727e+00,2.451835870742797852e+00,2.402332782745361328e+00,2.354789257049560547e+00,2.309090614318847656e+00,2.265132188796997070e+00,2.222816228866577148e+00,2.182052373886108398e+00,2.142756700515747070e+00,2.104851007461547852e+00,2.068263292312622070e+00,2.032925844192504883e+00,1.998775720596313477e+00,1.965753912925720215e+00,1.933805584907531738e+00,1.902878999710083008e+00,1.872925996780395508e+00,1.843901395797729492e+00
5.000000000000000000e+00,5.000000000000000000e+00,5.000000000000000000e+00,5.000000000000000000e+00,5.000000000000000000e+00,5.000000000000000000e+00,5.000000000000000000e+00,5.000000000000000000e+00,5.000000000000000000e+00,5.000000000000000000e+00,5.000000000000000000e+00,5.000000000000000000e+00,5.000000000000000000e+00,5.000000000000000000e+00,5.000000000000000000e+00,5.000000000000000000e+00,5.000000000000000000e+00,5.000000000000000000e+00,5.000000000000000000e+00,5.000000000000000000e+00,5.000000000000000000e+00,5.000000000000000000e+00,5.000000000000000000e+00,5.000000000000000000e+00,5.000000000000000000e+00,5.000000000000000000e+00,5.000000000000000000e+00,5.000000000000000000e+00,2.608871221542358398e+00,2.567904949188232422e+00,2.588663339614868164e+00,2.500800371170043945e+00,2.489627361297607422e+00,2.526699542999267578e+00,2.692386150360107422e+00,2.705348730087280273e+00,5.000000000000000000e+00,5.000000000000000000e+00,2.809288740158081055e+00,4.850938320159912109e+00,4.660915851593017578e+00,4.485219478607177734e+00,4.322288036346435547e+00,4.170778751373291016e+00,4.029531478881835938e+00,3.897538185119628906e+00,3.773917913436889648e+00,3.657897949218750000e+00,3.548799276351928711e+00,3.446019411087036133e+00,3.349025726318359375e+00,3.257342576980590820e+00,3.170545578002929688e+00,3.088253974914550781e+00,3.010126352310180664e+00,2.935853958129882812e+00,2.865158796310424805e+00,2.797787666320800781e+00,2.733512639999389648e+00,2.672124385833740234e+00,2.613432645797729492e+00,2.557264089584350586e+00,2.503458738327026367e+00,2.451871395111083984e+00,2.402366638183593750e+00,2.354821920394897461e+00,2.309122085571289062e+00,2.265162467956542969e+00,2.222845315933227539e+00,2.182080507278442383e+00,2.142783641815185547e+00,2.104877233505249023e+00,2.068288564682006836e+00,2.032950401306152344e+00,1.998799324035644531e+00,1.965776681900024414e+00,1.933827519416809082e+00,1.902900099754333496e+00,1.872946619987487793e+00,1.843921422958374023e+00
5.000000000000000000e+00,5.000000000000000000e+00,5.000000000000000000e+00,5.000000000000000000e+00,5.000000000000000000e+00,5.000000000000000000e+00,5.000000000000000000e+00,5.000000000000000000e+00,5.000000000000000000e+00,5.000000000000000000e+00,5.000000000000000000e+00,5.000000000000000000e+00,5.000000000000000000e+00,5.000000000000000000e+00,5.000000000000000000e+00,5.000000000000000000e+00,5.000000000000000000e+00,5.000000000000000000e+00,5.000000000000000000e+00,5.000000000000000000e+00,5.000000000000000000e+00,5.000000000000000000e+00,5.000000000000000000e+00,5.000000000000000000e+00,5.000000000000000000e+00,5.000000000000000000e+00,5.000000000000000000e+00,5.000000000000000000e+00,2.595980405807495117e+00,5.000000000000000000e+00,5.000000000000000000e+00,2.504050254821777344e+00,2.469738960266113281e+00,2.496105194091796875e+00,2.688910484313964844e+00,2.701598882675170898e+00,5.000000000000000000e+00,5.000000000000000000e+00,5.000000000000000000e+00,4.851076602935791016e+00,4.661043167114257812e+00,4.485337734222412109e+00,4.322397708892822266e+00,4.170881271362304688e+00,4.029627323150634766e+00,3.897627830505371094e+00,3.774001359939575195e+00,3.657976865768432617e+00,3.548873186111450195e+00,3.446089506149291992e+00,3.349091529846191406e+00,3.257405042648315430e+00,3.170604467391967773e+00,3.088310241699218750e+00,3.010179519653320312e+00,2.935904502868652344e+00,2.865206956863403320e+00,2.797833919525146484e+00,2.733556509017944336e+00,2.672166347503662109e+00,2.613472938537597656e+00,2.557302474975585938e+00,2.503495931625366211e+00,2.451906681060791016e+00,2.402400732040405273e+00,2.354854345321655273e+00,2.309153556823730469e+00,2.265192747116088867e+00,2.222874402999877930e+00,2.182108402252197266e+00,2.142810583114624023e+00,2.104903221130371094e+00,2.068313598632812500e+00,2.032974720001220703e+00,1.998822689056396484e+00,1.965799570083618164e+00,1.933849573135375977e+00,1.902921557426452637e+00,1.872967123985290527e+00,1.843941450119018555e+00
5.000000000000000000e+00,5.000000000000000000e+00,5.000000000000000000e+00,5.000000000000000000e+00,5.000000000000000000e+00,5.000000000000000000e+00,5.000000000000000000e+00,5.000000000000000000e+00,5.000000000000000000e+00,5.000000000000000000e+00,5.000000000000000000e+00,5.000000000000000000e+00,5.000000000000000000e+00,5.000000000000000000e+00,5.000000000000000000e+00,5.000000000000000000e+00,5.000000000000000000e+00,5.000000000000000000e+00,5.000000000000000000e+00,5.000000000000000000e+00,5.000000000000000000e+00,5.000000000000000000e+00,5.000000000000000000e+00,5.000000000000000000e+00,5.000000000000000000e+00,5.000000000000000000e+00,5.000000000000000000e+00,5.000000000000000000e+00,5.000000000000000000e+00,5.000000000000000000e+00,5.000000000000000000e+00,2.520730495452880859e+00,2.459167957305908203e+00,2.473675489425659180e+00,2.684561967849731445e+00,2.697839498519897461e+00,5.000000000000000000e+00,5.000000000000000000e+00,5.000000000000000000e+00,4.851214885711669922e+00,4.661171436309814453e+00,4.485455989837646484e+00,4.322507381439208984e+00,4.170983314514160156e+00,4.029722690582275391e+00,3.897716999053955078e+00,3.774085521697998047e+00,3.658055543899536133e+00,3.548947095870971680e+00,3.446159124374389648e+00,3.349157571792602539e+00,3.257467508316040039e+00,3.170663595199584961e+00,3.088366270065307617e+00,3.010232686996459961e+00,2.935955524444580078e+00,2.865255117416381836e+00,2.797879934310913086e+00,2.733600378036499023e+00,2.672208547592163086e+00,2.613513231277465820e+00,2.557341098785400391e+00,2.503532648086547852e+00,2.451941967010498047e+00,2.402434587478637695e+00,2.354887008666992188e+00,2.309184789657592773e+00,2.265222787857055664e+00,2.222903490066528320e+00,2.182136297225952148e+00,2.142837524414062500e+00,2.104929208755493164e+00,2.068338871002197266e+00,2.032998800277709961e+00,1.998846173286437988e+00,1.965822100639343262e+00,1.933871626853942871e+00,1.902942895889282227e+00,1.872987866401672363e+00,1.843961358070373535e+00
5.000000000000000000e+00,5.000000000000000000e+00,5.000000000000000000e+00,5.000000000000000000e+00,5.000000000000000000e+00,5.000000000000000000e+00,5.000000000000000000e+00,5.000000000000000000e+00,5.000000000000000000e+00,5.000000000000000000e+00,5.000000000000000000e+00,5.000000000000000000e+00,5.000000000000000000e+00,5.000000000000000000e+00,5.000000000000000000e+00,5.000000000000000000e+00,5.000000000000000000e+00,5.000000000000000000e+00,5.000000000000000000e+00,5.000000000000000000e+00,5.000000000000000000e+00,5.000000000000000000e+00,5.000000000000000000e+00,5.000000000000000000e+00,5.000000000000000000e+00,5.000000000000000000e+00,5.000000000000000000e+00,5.000000000000000000e+00,5.000000000000000000e+00,5.000000000000000000e+00,5.000000000000000000e+00,2.540578126907348633e+00,2.460126638412475586e+00,2.470388412475585938e+00,2.678070068359375000e+00,2.695590257644653320e+00,5.000000000000000000e+00,5.000000000000000000e+00,5.000000000000000000e+00,4.851353645324707031e+00,4.661299228668212891e+00,4.485574722290039062e+00,4.322617530822753906e+00,4.171085834503173828e+00,4.029818058013916016e+00,3.897806167602539062e+00,3.774169206619262695e+00,3.658133983612060547e+00,3.549021482467651367e+00,3.446228981018066406e+00,3.349223613739013672e+00,3.257529735565185547e+00,3.170722961425781250e+00,3.088422298431396484e+00,3.010286331176757812e+00,2.936006069183349609e+00,2.865303516387939453e+00,2.797925949096679688e+00,2.733644485473632812e+00,2.672250270843505859e+00,2.613553285598754883e+00,2.557379484176635742e+00,2.503569364547729492e+00,2.451977252960205078e+00,2.402468442916870117e+00,2.354919672012329102e+00,2.309216022491455078e+00,2.265253067016601562e+00,2.222932577133178711e+00,2.182164430618286133e+00,2.142864465713500977e+00,2.104955434799194336e+00,2.068363904953002930e+00,2.033023357391357422e+00,1.998869776725769043e+00,1.965844869613647461e+00,1.933893442153930664e+00,1.902963995933532715e+00,1.873008608818054199e+00,1.843981385231018066e+00
5.000000000000000000e+00,5.000000000000000000e+00,5.000000000000000000e+00,5.000000000000000000e+00,5.000000000000000000e+00,5.000000000000000000e+00,5.000000000000000000e+00,5.000000000000000000e+00,5.000000000000000000e+00,5.000000000000000000e+00,5.000000000000000000e+00,5.000000000000000000e+00,5.000000000000000000e+00,5.000000000000000000e+00,5.000000000000000000e+00,5.000000000000000000e+00,5.000000000000000000e+00,5.000000000000000000e+00,5.000000000000000000e+00,5.000000000000000000e+00,5.000000000000000000e+00,5.000000000000000000e+00,5.000000000000000000e+00,5.000000000000000000e+00,5.000000000000000000e+00,5.000000000000000000e+00,5.000000000000000000e+00,5.000000000000000000e+00,5.000000000000000000e+00,5.000000000000000000e+00,5.000000000000000000e+00,2.521718502044677734e+00,2.480303764343261719e+00,2.495709180831909180e+00,2.675517559051513672e+00,2.694823503494262695e+00,5.000000000000000000e+00,5.000000000000000000e+00,5.000000000000000000e+00,4.851491928100585938e+00,4.661426544189453125e+00,4.485692501068115234e+00,4.322727203369140625e+00,4.171187877655029297e+00,4.029913425445556641e+00,3.897895812988281250e+00,3.774252653121948242e+00,3.658213138580322266e+00,3.549095392227172852e+00,3.446299076080322266e+00,3.349289417266845703e+00,3.257592439651489258e+00,3.170781850814819336e+00,3.088478088378906250e+00,3.010339498519897461e+00,2.936056613922119141e+00,2.865351676940917969e+00,2.797971963882446289e+00,2.733688354492187500e+00,2.672292232513427734e+00,2.613593578338623047e+00,2.557417869567871094e+00,2.503606319427490234e+00,2.452012538909912109e+00,2.402502536773681641e+00,2.354952335357666016e+00,2.309247493743896484e+00,2.265283107757568359e+00,2.222961664199829102e+00,2.182192325592041016e+00,2.142891645431518555e+00,2.104981422424316406e+00,2.068388938903808594e+00,2.033047437667846680e+00,1.998893141746520996e+00,1.965867757797241211e+00,1.933915495872497559e+00,1.902985453605651855e+00,1.873029112815856934e+00,1.844001412391662598e+00
5.000000000000000000e+00,5.000000000000000000e+00,5.000000000000000000e+00,5.000000000000000000e+00,5.000000000000000000e+00,5.000000000000000000e+00,5.000000000000000000e+00,5.000000000000000000e+00,5.000000000000000000e+00,5.000000000000000000e+00,5.000000000000000000e+00,5.000000000000000000e+00,5.000000000000000000e+00,5.000000000000000000e+00,5.000000000000000000e+00,5.000000000000000000e+00,5.000000000000000000e+00,5.000000000000000000e+00,5.000000000000000000e+00,5.000000000000000000e+00,5.000000000000000000e+00,5.000000000000000000e+00,5.000000000000000000e+00,5.000000000000000000e+00,5.000000000000000000e+00,5.000000000000000000e+00,5.000000000000000000e+00,5.000000000000000000e+00,5.000000000000000000e+00,5.000000000000000000e+00,5.000000000000000000e+00,2.538252592086791992e+00,2.514527082443237305e+00,2.563279867172241211e+00,2.696508884429931641e+00,5.000000000000000000e+00,5.000000000000000000e+00,5.000000000000000000e+00,5.000000000000000000e+00,4.851630210876464844e+00,4.661554813385009766e+00,4.485811233520507812e+00,4.322837352752685547e+00,4.171290397644042969e+00,4.030009269714355469e+00,3.897984981536865234e+00,3.774336814880371094e+00,3.658291578292846680e+00,3.549169301986694336e+00,3.446368694305419922e+00,3.349355459213256836e+00,3.257654666900634766e+00,3.170840978622436523e+00,3.088534593582153320e+00,3.010392665863037109e+00,2.936107635498046875e+00,2.865399837493896484e+00,2.798018217086791992e+00,2.733732223510742188e+00,2.672334432601928711e+00,2.613633632659912109e+00,2.557456493377685547e+00,2.503643274307250977e+00,2.452048063278198242e+00,2.402536392211914062e+00,2.354984760284423828e+00,2.309278964996337891e+00,2.265313386917114258e+00,2.222990751266479492e+00,2.182220220565795898e+00,2.142918586730957031e+00,2.105007410049438477e+00,2.068414211273193359e+00,2.033071756362915039e+00,1.998916745185852051e+00,1.965890288352966309e+00,1.933937549591064453e+00,1.903006792068481445e+00,1.873049736022949219e+00,1.844021320343017578e+00
5.000000000000000000e+00,5.000000000000000000e+00,5.000000000000000000e+00,5.000000000000000000e+00,5.000000000000000000e+00,5.000000000000000000e+00,5.000000000000000000e+00,5.000000000000000000e+00,5.000000000000000000e+00,5.000000000000000000e+00,5.000000000000000000e+00,5.000000000000000000e+00,5.000000000000000000e+00,5.000000000000000000e+00,5.000000000000000000e+00,5.000000000000000000e+00,5.000000000000000000e+00,5.000000000000000000e+00,5.000000000000000000e+00,5.000000000000000000e+00,5.000000000000000000e+00,5.000000000000000000e+00,5.000000000000000000e+00,5.000000000000000000e+00,5.000000000000000000e+00,5.000000000000000000e+00,5.000000000000000000e+00,5.000000000000000000e+00,5.000000000000000000e+00,5.000000000000000000e+00,5.000000000000000000e+00,2.559450626373291016e+00,2.548120498657226562e+00,2.730298280715942383e+00,2.728594541549682617e+00,5.000000000000000000e+00,5.000000000000000000e+00,5.000000000000000000e+00,5.000000000000000000e+00,4.851768493652343750e+00,4.661682605743408203e+00,4.485929489135742188e+00,4.322947025299072266e+00,4.171392440795898438e+00,4.030104637145996094e+00,3.898074150085449219e+00,3.774420499801635742e+00,3.658370256423950195e+00,3.549243688583374023e+00,3.446438550949096680e+00,3.349421501159667969e+00,3.257716894149780273e+00,3.170900344848632812e+00,3.088590383529663086e+00,3.010446071624755859e+00,2.936158180236816406e+00,2.865448474884033203e+00,2.798064231872558594e+00,2.733776092529296875e+00,2.672376394271850586e+00,2.613673686981201172e+00,2.557494878768920898e+00,2.503679990768432617e+00,2.452083349227905273e+00,2.402570247650146484e+00,2.355017423629760742e+00,2.309310197830200195e+00,2.265343666076660156e+00,2.223019599914550781e+00,2.182248353958129883e+00,2.142945528030395508e+00,2.105033636093139648e+00,2.068439483642578125e+00,2.033096075057983398e+00,1.998940229415893555e+00,1.965913057327270508e+00,1.933959484100341797e+00,1.903027892112731934e+00,1.873070478439331055e+00,1.844041347503662109e+00
5.000000000000000000e+00,5.000000000000000000e+00,5.000000000000000000e+00,5.000000000000000000e+00,5.000000000000000000e+00,5.000000000000000000e+00,5.000000000000000000e+00,5.000000000000000000e+00,5.000000000000000000e+00,5.000000000000000000e+00,5.000000000000000000e+00,5.000000000000000000e+00,5.000000000000000000e+00,5.000000000000000000e+00,5.000000000000000000e+00,5.000000000000000000e+00,5.000000000000000000e+00,5.000000000000000000e+00,5.000000000000000000e+00,5.000000000000000000e+00,5.000000000000000000e+00,5.000000000000000000e+00,5.000000000000000000e+00,5.000000000000000000e+00,5.000000000000000000e+00,5.000000000000000000e+00,5.000000000000000000e+00,5.000000000000000000e+00,5.000000000000000000e+00,5.000000000000000000e+00,5.000000000000000000e+00,2.581365823745727539e+00,2.582269191741943359e+00,2.754390716552734375e+00,2.777480840682983398e+00,5.000000000000000000e+00,5.000000000000000000e+00,5.000000000000000000e+00,5.000000000000000000e+00,4.851906299591064453e+00,4.661809921264648438e+00,4.486047744750976562e+00,4.323057174682617188e+00,4.171494960784912109e+00,4.030200004577636719e+00,3.898164033889770508e+00,3.774503946304321289e+00,3.658449172973632812e+00,3.549317598342895508e+00,3.446508646011352539e+00,3.349487304687500000e+00,3.257779359817504883e+00,3.170959234237670898e+00,3.088646411895751953e+00,3.010499238967895508e+00,2.936208724975585938e+00,2.865496635437011719e+00,2.798110008239746094e+00,2.733820199966430664e+00,2.672418355941772461e+00,2.613713979721069336e+00,2.557533264160156250e+00,2.503716945648193359e+00,2.452118635177612305e+00,2.402604341506958008e+00,2.355050086975097656e+00,2.309341669082641602e+00,2.265373706817626953e+00,2.223048686981201172e+00,2.182276487350463867e+00,2.142972469329833984e+00,2.105059623718261719e+00,2.068464517593383789e+00,2.033120393753051758e+00,1.998963594436645508e+00,1.965935945510864258e+00,1.933981537818908691e+00,1.903049349784851074e+00,1.873090982437133789e+00,1.844061493873596191e+00
5.000000000000000000e+00,5.000000000000000000e+00,5.000000000000000000e+00,5.000000000000000000e+00,5.000000000000000000e+00,5.000000000000000000e+00,5.000000000000000000e+00,5.000000000000000000e+00,5.000000000000000000e+00,5.000000000000000000e+00,5.000000000000000000e+00,5.000000000000000000e+00,5.000000000000000000e+00,5.000000000000000000e+00,5.000000000000000000e+00,5.000000000000000000e+00,5.000000000000000000e+00,5.000000000000000000e+00,5.000000000000000000e+00,5.000000000000000000e+00,5.000000000000000000e+00,5.000000000000000000e+00,5.000000000000000000e+00,5.000000000000000000e+00,5.000000000000000000e+00,5.000000000000000000e+00,5.000000000000000000e+00,5.000000000000000000e+00,5.000000000000000000e+00,5.000000000000000000e+00,5.000000000000000000e+00,2.604313135147094727e+00,2.615463495254516602e+00,2.766545772552490234e+00,5.000000000000000000e+00,5.000000000000000000e+00,5.000000000000000000e+00,5.000000000000000000e+00,5.000000000000000000e+00,4.852044105529785156e+00,4.661937236785888672e+00,4.486166000366210938e+00,4.323166847229003906e+00,4.171597480773925781e+00,4.030295848846435547e+00,3.898253202438354492e+00,3.774587631225585938e+00,3.658527851104736328e+00,3.549391508102416992e+00,3.446578264236450195e+00,3.349553346633911133e+00,3.257841825485229492e+00,3.171018362045288086e+00,3.088702678680419922e+00,3.010552644729614258e+00,2.936259508132934570e+00,2.865544795989990234e+00,2.798156261444091797e+00,2.733864068984985352e+00,2.672460556030273438e+00,2.613754272460937500e+00,2.557571649551391602e+00,2.503753900527954102e+00,2.452153921127319336e+00,2.402638196945190430e+00,2.355082511901855469e+00,2.309372901916503906e+00,2.265403985977172852e+00,2.223077774047851562e+00,2.182304382324218750e+00,2.142999649047851562e+00,2.105085611343383789e+00,2.068489789962768555e+00,2.033144712448120117e+00,1.998987197875976562e+00,1.965958476066589355e+00,1.934003591537475586e+00,1.903070688247680664e+00,1.873111605644226074e+00,1.844081282615661621e+00
5.000000000000000000e+00,5.000000000000000000e+00,5.000000000000000000e+00,5.000000000000000000e+00,5.000000000000000000e+00,5.000000000000000000e+00,5.000000000000000000e+00,5.000000000000000000e+00,5.000000000000000000e+00,5.000000000000000000e+00,5.000000000000000000e+00,5.000000000000000000e+00,5.000000000000000000e+00,5.000000000000000000e+00,5.000000000000000000e+00,5.000000000000000000e+00,5.000000000000000000e+00,5.000000000000000000e+00,5.000000000000000000e+00,5.000000000000000000e+00,5.000000000000000000e+00,5.000000000000000000e+00,5.000000000000000000e+00,5.000000000000000000e+00,5.000000000000000000e+00,5.000000000000000000e+00,5.000000000000000000e+00,5.000000000000000000e+00,5.000000000000000000e+00,5.000000000000000000e+00,5.000000000000000000e+00,2.632368564605712891e+00,2.651393413543701172e+00,2.778103351593017578e+00,5.000000000000000000e+00,5.000000000000000000e+00,5.000000000000000000e+00,5.000000000000000000e+00,5.000000000000000000e+00,4.852181911468505859e+00,4.662064552307128906e+00,4.486284255981445312e+00,4.323276519775390625e+00,4.171699523925781250e+00,4.030391216278076172e+00,3.898342370986938477e+00,3.774671792984008789e+00,3.658606290817260742e+00,3.549465894699096680e+00,3.446648120880126953e+00,3.349619388580322266e+00,3.257904291152954102e+00,3.171077728271484375e+00,3.088758707046508789e+00,3.010606050491333008e+00,2.936310291290283203e+00,2.865592956542968750e+00,2.798202276229858398e+00,2.733907938003540039e+00,2.672502279281616211e+00,2.613794326782226562e+00,2.557610273361206055e+00,2.503790616989135742e+00,2.452189445495605469e+00,2.402672290802001953e+00,2.355115413665771484e+00,2.309404373168945312e+00,2.265434265136718750e+00,2.223106861114501953e+00,2.182332515716552734e+00,2.143026590347290039e+00,2.105111598968505859e+00,2.068514823913574219e+00,2.033169031143188477e+00,1.999010801315307617e+00,1.965981245040893555e+00,1.934025406837463379e+00,1.903091788291931152e+00,1.873132348060607910e+00,1.844101428985595703e+00
5.000000000000000000e+00,5.000000000000000000e+00,5.000000000000000000e+00,5.000000000000000000e+00,5.000000000000000000e+00,5.000000000000000000e+00,5.000000000000000000e+00,5.000000000000000000e+00,5.000000000000000000e+00,5.000000000000000000e+00,5.000000000000000000e+00,5.000000000000000000e+00,5.000000000000000000e+00,5.000000000000000000e+00,5.000000000000000000e+00,5.000000000000000000e+00,5.000000000000000000e+00,5.000000000000000000e+00,5.000000000000000000e+00,5.000000000000000000e+00,5.000000000000000000e+00,5.000000000000000000e+00,5.000000000000000000e+00,5.000000000000000000e+00,5.000000000000000000e+00,5.000000000000000000e+00,5.000000000000000000e+00,5.000000000000000000e+00,5.000000000000000000e+00,5.000000000000000000e+00,5.000000000000000000e+00,2.660932064056396484e+00,2.787285089492797852e+00,2.790675163269042969e+00,5.000000000000000000e+00,5.000000000000000000e+00,5.000000000000000000e+00,5.000000000000000000e+00,5.000000000000000000e+00,4.852320194244384766e+00,4.662191867828369141e+00,4.486402034759521484e+00,4.323386669158935547e+00,4.171802043914794922e+00,4.030486583709716797e+00,3.898432016372680664e+00,3.774755477905273438e+00,3.658685207366943359e+00,3.549539804458618164e+00,3.446717739105224609e+00,3.349685430526733398e+00,3.257966518402099609e+00,3.171136617660522461e+00,3.088814735412597656e+00,3.010659217834472656e+00,2.936360836029052734e+00,2.865641355514526367e+00,2.798248291015625000e+00,2.733952045440673828e+00,2.672544240951538086e+00,2.613834619522094727e+00,2.557648658752441406e+00,2.503827571868896484e+00,2.452224731445312500e+00,2.402706146240234375e+00,2.355147838592529297e+00,2.309435606002807617e+00,2.265464305877685547e+00,2.223135948181152344e+00,2.182360410690307617e+00,2.143053531646728516e+00,2.105137825012207031e+00,2.068540096282958984e+00,2.033193349838256836e+00,1.999034166336059570e+00,1.966004133224487305e+00,1.934047460556030273e+00,1.903113245964050293e+00,1.873152852058410645e+00,1.844121456146240234e+00
5.000000000000000000e+00,5.000000000000000000e+00,5.000000000000000000e+00,5.000000000000000000e+00,5.000000000000000000e+00,5.000000000000000000e+00,5.000000000000000000e+00,5.000000000000000000e+00,5.000000000000000000e+00,5.000000000000000000e+00,5.000000000000000000e+00,5.000000000000000000e+00,5.000000000000000000e+00,5.000000000000000000e+00,5.000000000000000000e+00,5.000000000000000000e+00,5.000000000000000000e+00,5.000000000000000000e+00,5.000000000000000000e+00,5.000000000000000000e+00,5.000000000000000000e+00,5.000000000000000000e+00,5.000000000000000000e+00,5.000000000000000000e+00,5.000000000000000000e+00,5.000000000000000000e+00,5.000000000000000000e+00,5.000000000000000000e+00,5.000000000000000000e+00,5.000000000000000000e+00,5.000000000000000000e+00,2.704241037368774414e+00,2.800282955169677734e+00,5.000000000000000000e+00,5.000000000000000000e+00,5.000000000000000000e+00,5.000000000000000000e+00,5.000000000000000000e+00,5.000000000000000000e+00,4.852458000183105469e+00,4.662319660186767578e+00,4.486519813537597656e+00,4.323495864868164062e+00,4.171904087066650391e+00,4.030581951141357422e+00,3.898521184921264648e+00,3.774839162826538086e+00,3.658763885498046875e+00,3.549613952636718750e+00,3.446787834167480469e+00,3.349751234054565430e+00,3.258029222488403320e+00,3.171195745468139648e+00,3.088871240615844727e+00,3.010712385177612305e+00,2.936411857604980469e+00,2.865689754486083984e+00,2.798294544219970703e+00,2.733996152877807617e+00,2.672586202621459961e+00,2.613874673843383789e+00,2.557687044143676758e+00,2.503864288330078125e+00,2.452260017395019531e+00,2.402740240097045898e+00,2.355180501937866211e+00,2.309467077255249023e+00,2.265494346618652344e+00,2.223165035247802734e+00,2.182388305664062500e+00,2.143080711364746094e+00,2.105163812637329102e+00,2.068565368652343750e+00,2.033217668533325195e+00,1.999057650566101074e+00,1.966026663780212402e+00,1.934069395065307617e+00,1.903134584426879883e+00,1.873173594474792480e+00,1.844141364097595215e+00
4.875373840332031250e+00,4.874163150787353516e+00,4.872953414916992188e+00,4.871744155883789062e+00,4.870535373687744141e+00,4.869327545166015625e+00,4.868120193481445312e+00,4.866913318634033203e+00,4.865706920623779297e+00,4.864500999450683594e+00,4.863296031951904297e+00,4.862091541290283203e+00,4.860887527465820312e+00,4.859684467315673828e+00,4.858481407165527344e+00,4.857279777526855469e+00,4.856077671051025391e+00,4.854876995086669922e+00,4.853676795959472656e+00,4.852477073669433594e+00,4.851278305053710938e+00,4.850079536437988281e+00,4.848881721496582031e+00,4.847683906555175781e+00,4.846487522125244141e+00,4.845291137695312500e+00,4.844095706939697266e+00,4.842900276184082031e+00,4.841706275939941406e+00,4.840512752532958984e+00,4.839319229125976562e+00,2.687227010726928711e+00,2.827243328094482422e+00,4.835742950439453125e+00,4.834551811218261719e+00,4.833361625671386719e+00,4.832171916961669922e+00,4.830982685089111328e+00,4.829793930053710938e+00,4.828606128692626953e+00,4.662446975708007812e+00,4.486638069152832031e+00,4.323605537414550781e+00,4.172006130218505859e+00,4.030677795410156250e+00,3.898610591888427734e+00,3.774923086166381836e+00,3.658842563629150391e+00,3.549688100814819336e+00,3.446857690811157227e+00,3.349817514419555664e+00,3.258091449737548828e+00,3.171255111694335938e+00,3.088927030563354492e+00,3.010765552520751953e+00,2.936462402343750000e+00,2.865737915039062500e+00,2.798340320587158203e+00,2.734040021896362305e+00,2.672628402709960938e+00,2.613914728164672852e+00,2.557725667953491211e+00,2.503901243209838867e+00,2.452295541763305664e+00,2.402774095535278320e+00,2.355213165283203125e+00,2.309498310089111328e+00,2.265524625778198242e+00,2.223194122314453125e+00,2.182416439056396484e+00,2.143107652664184570e+00,2.105189800262451172e+00,2.068590402603149414e+00,2.033241987228393555e+00,1.999081254005432129e+00,1.966049432754516602e+00,1.934091448783874512e+00,1.903155684471130371e+00,1.873194217681884766e+00,1.844161391258239746e+00
3.778197288513183594e+00,3.777470588684082031e+00,3.776743412017822266e+00,3.776017189025878906e+00,3.775290966033935547e+00,3.774565219879150391e+00,3.773839235305786133e+00,3.773113965988159180e+00,3.772389173507690430e+00,3.771664381027221680e+00,3.770939588546752930e+00,3.770215511322021484e+00,3.769491672515869141e+00,3.768768072128295898e+00,3.768044710159301758e+00,3.767321348190307617e+00,3.766598701477050781e+00,3.765876293182373047e+00,3.765154123306274414e+00,3.764431715011596680e+00,3.763710021972656250e+00,3.762988805770874023e+00,3.762267589569091797e+00,3.761546850204467773e+00,3.760825872421264648e+00,3.760105848312377930e+00,3.759385824203491211e+00,3.758666038513183594e+00,3.757946252822875977e+00,3.757227182388305664e+00,3.756508350372314453e+00,2.658384561538696289e+00,2.664848327636718750e+00,3.754353046417236328e+00,3.753635168075561523e+00,3.752917766571044922e+00,3.752200365066528320e+00,3.751483201980590820e+00,3.750766515731811523e+00,3.750050067901611328e+00,3.749333858489990234e+00,3.748617649078369141e+00,3.747902154922485352e+00,3.747186899185180664e+00,3.746471881866455078e+00,3.745756626129150391e+00,3.745042085647583008e+00,3.658921003341674805e+00,3.549762248992919922e+00,3.446927309036254883e+00,3.349883317947387695e+00,3.258153915405273438e+00,3.171314239501953125e+00,3.088983058929443359e+00,3.010819196701049805e+00,2.936512947082519531e+00,2.865786314010620117e+00,2.798386335372924805e+00,2.734084129333496094e+00,2.672670364379882812e+00,2.613955259323120117e+00,2.557764053344726562e+00,2.503938198089599609e+00,2.452330827713012695e+00,2.402807950973510742e+00,2.355245828628540039e+00,2.309529781341552734e+00,2.265554666519165039e+00,2.223222970962524414e+00,2.182444334030151367e+00,2.143134593963623047e+00,2.105216026306152344e+00,2.068615436553955078e+00,2.033266305923461914e+00,1.999104619026184082e+00,1.966072320938110352e+00,1.934113502502441406e+00,1.903177142143249512e+00,1.873214721679687500e+00,1.844181299209594727e+00
3.084130525588989258e+00,3.083646059036254883e+00,3.083161592483520508e+00,3.082677364349365234e+00,3.082193613052368164e+00,3.081709861755371094e+00,3.081226110458374023e+00,3.080742359161376953e+00,3.080259084701538086e+00,3.079775810241699219e+00,3.079292774200439453e+00,3.078809738159179688e+00,3.078326940536499023e+00,3.077844381332397461e+00,3.077362060546875000e+00,3.076879501342773438e+00,3.076397418975830078e+00,3.075915336608886719e+00,3.075433492660522461e+00,3.074951887130737305e+00,3.074470043182373047e+00,3.073988914489746094e+00,3.073507547378540039e+00,3.073026418685913086e+00,3.072545289993286133e+00,3.072064638137817383e+00,3.071583986282348633e+00,3.071103572845458984e+00,3.070622920989990234e+00,3.070142745971679688e+00,3.069662809371948242e+00,3.069182872772216797e+00,2.620415687561035156e+00,2.769764661788940430e+00,3.067744016647338867e+00,3.067264795303344727e+00,3.066785573959350586e+00,3.066306352615356445e+00,3.065827608108520508e+00,3.065349102020263672e+00,3.064870595932006836e+00,3.064392328262329102e+00,3.063913822174072266e+00,3.063435792922973633e+00,3.062957763671875000e+00,3.062479972839355469e+00,3.062002182006835938e+00,3.061524629592895508e+00,3.061047315597534180e+00,3.060570240020751953e+00,3.060092926025390625e+00,3.059616088867187500e+00,3.059139251708984375e+00,3.058662652969360352e+00,3.010872364044189453e+00,2.936563968658447266e+00,2.865834474563598633e+00,2.798432350158691406e+00,2.734127998352050781e+00,2.672712326049804688e+00,2.613995313644409180e+00,2.557802438735961914e+00,2.503974914550781250e+00,2.452366113662719727e+00,2.402842044830322266e+00,2.355278253555297852e+00,2.309561252593994141e+00,2.265584945678710938e+00,2.223252296447753906e+00,2.182472467422485352e+00,2.143161773681640625e+00,2.105242013931274414e+00,2.068640708923339844e+00,2.033290624618530273e+00,1.999128222465515137e+00,1.966094851493835449e+00,1.934135317802429199e+00,1.903198480606079102e+00,1.873235464096069336e+00,1.844201326370239258e+00
2.605493068695068359e+00,2.605147361755371094e+00,2.604801654815673828e+00,2.604455947875976562e+00,2.604110479354858398e+00,2.603765010833740234e+00,2.603419780731201172e+00,2.603074550628662109e+00,2.602729320526123047e+00,2.602384328842163086e+00,2.602039575576782227e+00,2.601694822311401367e+00,2.601349830627441406e+00,2.601005315780639648e+00,2.600660800933837891e+00,2.600316286087036133e+00,2.599971771240234375e+00,2.599627494812011719e+00,2.599283456802368164e+00,2.598939180374145508e+00,2.598595142364501953e+00,2.598251104354858398e+00,2.597907304763793945e+00,2.597563743591308594e+00,2.597220182418823242e+00,2.596876382827758789e+00,2.596532821655273438e+00,2.596189498901367188e+00,2.595846414566040039e+00,2.595503091812133789e+00,2.595160007476806641e+00,2.594816923141479492e+00,2.594474077224731445e+00,2.594130992889404297e+00,2.593788385391235352e+00,2.593445777893066406e+00,2.593103170394897461e+00,2.592760801315307617e+00,2.592418193817138672e+00,2.592076063156127930e+00,2.591733932495117188e+00,2.591391801834106445e+00,2.591049671173095703e+00,2.590707778930664062e+00,2.590365886688232422e+00,2.590024232864379883e+00,2.589682340621948242e+00,2.589340925216674805e+00,2.588999509811401367e+00,2.588658094406127930e+00,2.588316679000854492e+00,2.587975502014160156e+00,2.587634325027465820e+00,2.587293386459350586e+00,2.586952447891235352e+00,2.586611509323120117e+00,2.586270809173583984e+00,2.585930109024047852e+00,2.585589647293090820e+00,2.585249185562133789e+00,2.584908723831176758e+00,2.557841062545776367e+00,2.504011869430541992e+00,2.452401638031005859e+00,2.402875900268554688e+00,2.355311155319213867e+00,2.309592485427856445e+00,2.265614986419677734e+00,2.223281383514404297e+00,2.182500362396240234e+00,2.143188714981079102e+00,2.105268001556396484e+00,2.068665981292724609e+00,2.033314943313598633e+00,1.999151825904846191e+00,1.966117739677429199e+00,1.934157371520996094e+00,1.903219699859619141e+00,1.873256206512451172e+00,1.844221353530883789e+00
2.255476474761962891e+00,2.255216836929321289e+00,2.254956960678100586e+00,2.254697322845458984e+00,2.254437685012817383e+00,2.254178285598754883e+00,2.253918647766113281e+00,2.253659248352050781e+00,2.253399848937988281e+00,2.253140449523925781e+00,2.252881288528442383e+00,2.252621889114379883e+00,2.252362966537475586e+00,2.252103805541992188e+00,2.251844882965087891e+00,2.251585721969604492e+00,2.251326799392700195e+00,2.251067876815795898e+00,2.250809192657470703e+00,2.250550508499145508e+00,2.250291824340820312e+00,2.250033140182495117e+00,2.249774694442749023e+00,2.249516248703002930e+00,2.249258041381835938e+00,2.249000310897827148e+00,2.248742580413818359e+00,2.248485088348388672e+00,2.248227596282958984e+00,2.247970104217529297e+00,2.247712612152099609e+00,2.247455358505249023e+00,2.247198104858398438e+00,2.246941089630126953e+00,2.246683835983276367e+00,2.246426820755004883e+00,2.246169805526733398e+00,2.245912790298461914e+00,2.245655775070190430e+00,2.245398759841918945e+00,2.245142221450805664e+00,2.244885444641113281e+00,2.244628667831420898e+00,2.244372129440307617e+00,2.244115591049194336e+00,2.243859052658081055e+00,2.243602752685546875e+00,2.243346214294433594e+00,2.243089914321899414e+00,2.242833614349365234e+00,2.242577552795410156e+00,2.242321252822875977e+00,2.242065191268920898e+00,2.241809129714965820e+00,2.241553068161010742e+00,2.241297245025634766e+00,2.241041421890258789e+00,2.240785598754882812e+00,2.240529775619506836e+00,2.240274190902709961e+00,2.240018367767333984e+00,2.239763021469116211e+00,2.239507436752319336e+00,2.239252090454101562e+00,2.238996505737304688e+00,2.238741159439086914e+00,2.238486051559448242e+00,2.238230705261230469e+00,2.223310232162475586e+00,2.182528495788574219e+00,2.143215656280517578e+00,2.105294227600097656e+00,2.068691015243530273e+00,2.033339262008666992e+00,1.999175190925598145e+00,1.966140508651733398e+00,1.934179544448852539e+00,1.903241038322448730e+00,1.873276710510253906e+00,1.844241261482238770e+00
1.988394737243652344e+00,1.988192796707153320e+00,1.987990856170654297e+00,1.987789034843444824e+00,1.987587213516235352e+00,1.987385392189025879e+00,1.987183928489685059e+00,1.986982226371765137e+00,1.986780643463134766e+00,1.986578941345214844e+00,1.986377477645874023e+00,1.986175894737243652e+00,1.985974431037902832e+00,1.985772967338562012e+00,1.985571622848510742e+00,1.985370159149169922e+00,1.985168933868408203e+00,1.984967589378356934e+00,1.984766364097595215e+00,1.984565138816833496e+00,1.984364032745361328e+00,1.984162807464599609e+00,1.983961820602416992e+00,1.983760714530944824e+00,1.983559966087341309e+00,1.983358979225158691e+00,1.983158111572265625e+00,1.982957243919372559e+00,1.982756376266479492e+00,1.982555627822875977e+00,1.982354879379272461e+00,1.982154130935668945e+00,1.981953501701354980e+00,1.981752872467041016e+00,1.981552243232727051e+00,1.981351733207702637e+00,1.981151223182678223e+00,1.980950713157653809e+00,1.980750322341918945e+00,1.980549931526184082e+00,1.980349540710449219e+00,1.980149507522583008e+00,1.979949235916137695e+00,1.979748964309692383e+00,1.979548811912536621e+00,1.979348659515380859e+00,1.979148507118225098e+00,1.978948473930358887e+00,1.978748440742492676e+00,1.978548407554626465e+00,1.978348493576049805e+00,1.978148579597473145e+00,1.977948665618896484e+00,1.977748870849609375e+00,1.977549076080322266e+00,1.977349400520324707e+00,1.977149605751037598e+00,1.976949930191040039e+00,1.976750373840332031e+00,1.976551055908203125e+00,1.976351499557495117e+00,1.976151943206787109e+00,1.975952506065368652e+00,1.975753068923950195e+00,1.975553631782531738e+00,1.975354313850402832e+00,1.975154995918273926e+00,1.974955797195434570e+00,1.974756598472595215e+00,1.974557399749755859e+00,1.974358201026916504e+00,1.974159121513366699e+00,1.973960041999816895e+00,1.973761081695556641e+00,1.973562121391296387e+00,1.966163039207458496e+00,1.934201359748840332e+00,1.903262376785278320e+00,1.873297333717346191e+00,1.844261288642883301e+00
1.777868747711181641e+00,1.777707338333129883e+00,1.777545928955078125e+00,1.777384519577026367e+00,1.777223229408264160e+00,1.777061820030212402e+00,1.776900529861450195e+00,1.776739239692687988e+00,1.776578068733215332e+00,1.776417016983032227e+00,1.776255846023559570e+00,1.776094675064086914e+00,1.775933623313903809e+00,1.775772452354431152e+00,1.775611400604248047e+00,1.775450348854064941e+00,1.775289416313171387e+00,1.775128364562988281e+00,1.774967432022094727e+00,1.774806499481201172e+00,1.774645686149597168e+00,1.774484872817993164e+00,1.774323940277099609e+00,1.774163126945495605e+00,1.774002432823181152e+00,1.773841619491577148e+00,1.773680925369262695e+00,1.773520469665527344e+00,1.773359775543212891e+00,1.773199200630187988e+00,1.773038625717163086e+00,1.772878050804138184e+00,1.772717475891113281e+00,1.772556900978088379e+00,1.772396445274353027e+00,1.772235989570617676e+00,1.772075533866882324e+00,1.771915197372436523e+00,1.771754860877990723e+00,1.771594524383544922e+00,1.771434187889099121e+00,1.771273851394653320e+00,1.771113634109497070e+00,1.770953416824340820e+00,1.770793199539184570e+00,1.770633220672607422e+00,1.770473122596740723e+00,1.770313024520874023e+00,1.770152926445007324e+00,1.769992947578430176e+00,1.769832849502563477e+00,1.769672870635986328e+00,1.769512891769409180e+00,1.769353032112121582e+00,1.769193053245544434e+00,1.769033193588256836e+00,1.768873333930969238e+00,1.768713593482971191e+00,1.768553733825683594e+00,1.768393993377685547e+00,1.768234252929687500e+00,1.768074631690979004e+00,1.767915129661560059e+00,1.767755508422851562e+00,1.767595887184143066e+00,1.767436265945434570e+00,1.767276763916015625e+00,1.767117142677307129e+00,1.766957640647888184e+00,1.766798257827758789e+00,1.766638755798339844e+00,1.766479372978210449e+00,1.766319990158081055e+00,1.766160607337951660e+00,1.766001343727111816e+00,1.765842080116271973e+00,1.765682816505432129e+00,1.765523552894592285e+00,1.765364408493041992e+00,1.765205144882202148e+00
1.607654571533203125e+00,1.607522606849670410e+00,1.607390522956848145e+00,1.607258558273315430e+00,1.607126712799072266e+00,1.606994748115539551e+00,1.606862783432006836e+00,1.606730937957763672e+00,1.606599092483520508e+00,1.606467247009277344e+00,1.606335401535034180e+00,1.606203675270080566e+00,1.606071829795837402e+00,1.605940222740173340e+00,1.605808496475219727e+00,1.605676889419555664e+00,1.605545163154602051e+00,1.605413436889648438e+00,1.605281829833984375e+00,1.605150222778320312e+00,1.605018615722656250e+00,1.604887008666992188e+00,1.604755520820617676e+00,1.604623913764953613e+00,1.604492425918579102e+00,1.604360938072204590e+00,1.604229450225830078e+00,1.604097962379455566e+00,1.603966593742370605e+00,1.603835225105285645e+00,1.603703975677490234e+00,1.603572607040405273e+00,1.603441238403320312e+00,1.603309869766235352e+00,1.603178620338439941e+00,1.603047370910644531e+00,1.602916121482849121e+00,1.602784872055053711e+00,1.602653622627258301e+00,1.602522492408752441e+00,1.602391242980957031e+00,1.602260112762451172e+00,1.602128982543945312e+00,1.601997852325439453e+00,1.601866841316223145e+00,1.601735711097717285e+00,1.601604700088500977e+00,1.601473689079284668e+00,1.601342916488647461e+00,1.601211905479431152e+00,1.601080894470214844e+00,1.600950002670288086e+00,1.600819110870361328e+00,1.600688219070434570e+00,1.600557327270507812e+00,1.600426435470581055e+00,1.600295662879943848e+00,1.600164890289306641e+00,1.600034117698669434e+00,1.599903225898742676e+00,1.599772572517395020e+00,1.599641799926757812e+00,1.599511146545410156e+00,1.599380493164062500e+00,1.599249839782714844e+00,1.599119186401367188e+00,1.598988652229309082e+00,1.598858118057250977e+00,1.598727583885192871e+00,1.598596930503845215e+00,1.598466515541076660e+00,1.598335981369018555e+00,1.598205447196960449e+00,1.598075032234191895e+00,1.597944617271423340e+00,1.597814202308654785e+00,1.597683787345886230e+00,1.597553372383117676e+00,1.597422957420349121e+00,1.597292661666870117e+00
1.467185378074645996e+00,1.467075467109680176e+00,1.466965436935424805e+00,1.466855525970458984e+00,1.466745615005493164e+00,1.466635823249816895e+00,1.466525912284851074e+00,1.466416001319885254e+00,1.466306209564208984e+00,1.466196417808532715e+00,1.466086626052856445e+00,1.465976834297180176e+00,1.465867042541503906e+00,1.465757250785827637e+00,1.465647578239440918e+00,1.465537786483764648e+00,1.465428233146667480e+00,1.465318560600280762e+00,1.465208888053894043e+00,1.465099215507507324e+00,1.464989542961120605e+00,1.464879989624023438e+00,1.464770317077636719e+00,1.464660763740539551e+00,1.464551210403442383e+00,1.464441657066345215e+00,1.464332103729248047e+00,1.464222550392150879e+00,1.464113116264343262e+00,1.464003562927246094e+00,1.463894128799438477e+00,1.463784694671630859e+00,1.463675141334533691e+00,1.463565707206726074e+00,1.463456511497497559e+00,1.463347077369689941e+00,1.463237762451171875e+00,1.463128328323364258e+00,1.463019013404846191e+00,1.462909698486328125e+00,1.462800383567810059e+00,1.462691068649291992e+00,1.462581753730773926e+00,1.462472558021545410e+00,1.462363362312316895e+00,1.462254047393798828e+00,1.462144851684570312e+00,1.462035655975341797e+00,1.461926460266113281e+00,1.461817383766174316e+00,1.461708188056945801e+00,1.461599230766296387e+00,1.461490035057067871e+00,1.461380958557128906e+00,1.461271882057189941e+00,1.461162805557250977e+00,1.461053729057312012e+00,1.460944771766662598e+00,1.460835695266723633e+00,1.460726737976074219e+00,1.460617780685424805e+00,1.460508823394775391e+00,1.460399866104125977e+00,1.460290908813476562e+00,1.460181951522827148e+00,1.460073113441467285e+00,1.459964156150817871e+00,1.459855318069458008e+00,1.459746479988098145e+00,1.459637761116027832e+00,1.459528923034667969e+00,1.459420084953308105e+00,1.459311366081237793e+00,1.459202527999877930e+00,1.459093809127807617e+00,1.458985090255737305e+00,1.458876371383666992e+00,1.458767652511596680e+00,1.458658933639526367e+00,1.458550214767456055e+00
1.349290609359741211e+00,1.349197626113891602e+00,1.349104762077331543e+00,1.349011778831481934e+00,1.348918795585632324e+00,1.348825931549072266e+00,1.348732948303222656e+00,1.348640084266662598e+00,1.348547101020812988e+00,1.348454236984252930e+00,1.348361372947692871e+00,1.348268508911132812e+00,1.348175644874572754e+00,1.348082900047302246e+00,1.347990036010742188e+00,1.347897171974182129e+00,1.347804427146911621e+00,1.347711682319641113e+00,1.347618818283081055e+00,1.347526192665100098e+00,1.347433447837829590e+00,1.347340703010559082e+00,1.347248077392578125e+00,1.347155332565307617e+00,1.347062587738037109e+00,1.346969962120056152e+00,1.346877217292785645e+00,1.346784591674804688e+00,1.346691966056823730e+00,1.346599340438842773e+00,1.346506714820861816e+00,1.346414089202880859e+00,1.346321463584899902e+00,1.346228957176208496e+00,1.346136331558227539e+00,1.346043825149536133e+00,1.345951318740844727e+00,1.345858812332153320e+00,1.345766305923461914e+00,1.345673799514770508e+00,1.345581293106079102e+00,1.345488786697387695e+00,1.345396399497985840e+00,1.345303893089294434e+00,1.345211505889892578e+00,1.345118999481201172e+00,1.345026612281799316e+00,1.344934225082397461e+00,1.344841837882995605e+00,1.344749450683593750e+00,1.344657063484191895e+00,1.344564676284790039e+00,1.344472408294677734e+00,1.344380021095275879e+00,1.344287753105163574e+00,1.344195485115051270e+00,1.344103217124938965e+00,1.344010949134826660e+00,1.343918681144714355e+00,1.343826413154602051e+00,1.343734264373779297e+00,1.343641996383666992e+00,1.343549728393554688e+00,1.343457579612731934e+00,1.343365430831909180e+00,1.343273162841796875e+00,1.343181014060974121e+00,1.343088865280151367e+00,1.342996716499328613e+00,1.342904567718505859e+00,1.342812538146972656e+00,1.342720389366149902e+00,1.342628359794616699e+00,1.342536330223083496e+00,1.342444300651550293e+00,1.342352271080017090e+00,1.342260241508483887e+00,1.342168211936950684e+00,1.342076182365417480e+00,1.341984152793884277e+00
1.248933434486389160e+00,1.248853802680969238e+00,1.248774170875549316e+00,1.248694539070129395e+00,1.248614907264709473e+00,1.248535394668579102e+00,1.248455762863159180e+00,1.248376131057739258e+00,1.248296499252319336e+00,1.248216867446899414e+00,1.248137354850769043e+00,1.248057723045349121e+00,1.247978210449218750e+00,1.247898697853088379e+00,1.247819066047668457e+00,1.247739553451538086e+00,1.247660040855407715e+00,1.247580528259277344e+00,1.247501015663146973e+00,1.247421503067016602e+00,1.247342109680175781e+00,1.247262597084045410e+00,1.247183084487915039e+00,1.247103810310363770e+00,1.247024297714233398e+00,1.246944904327392578e+00,1.246865510940551758e+00,1.246786117553710938e+00,1.246706724166870117e+00,1.246627330780029297e+00,1.246547937393188477e+00,1.246468544006347656e+00,1.246389150619506836e+00,1.246309876441955566e+00,1.246230483055114746e+00,1.246151208877563477e+00,1.246071815490722656e+00,1.245992541313171387e+00,1.245913267135620117e+00,1.245833992958068848e+00,1.245754718780517578e+00,1.245675444602966309e+00,1.245596289634704590e+00,1.245517015457153320e+00,1.245437741279602051e+00,1.245358467102050781e+00,1.245279312133789062e+00,1.245200037956237793e+00,1.245120882987976074e+00,1.245041728019714355e+00,1.244962573051452637e+00,1.244883418083190918e+00,1.244804263114929199e+00,1.244725108146667480e+00,1.244645953178405762e+00,1.244566798210144043e+00,1.244487643241882324e+00,1.244408607482910156e+00,1.244329571723937988e+00,1.244250535964965820e+00,1.244171380996704102e+00,1.244092345237731934e+00,1.244013309478759766e+00,1.243934273719787598e+00,1.243855237960815430e+00,1.243776202201843262e+00,1.243697166442871094e+00,1.243618130683898926e+00,1.243539214134216309e+00,1.243460178375244141e+00,1.243381142616271973e+00,1.243302226066589355e+00,1.243223309516906738e+00,1.243144273757934570e+00,1.243065357208251953e+00,1.242986559867858887e+00,1.242907643318176270e+00,1.242828726768493652e+00,1.242749810218811035e+00,1.242671012878417969e+00
1.162471532821655273e+00,1.162402510643005371e+00,1.162333488464355469e+00,1.162264585494995117e+00,1.162195563316345215e+00,1.162126541137695312e+00,1.162057518959045410e+00,1.161988615989685059e+00,1.161919713020324707e+00,1.161850690841674805e+00,1.161781787872314453e+00,1.161712884902954102e+00,1.161643862724304199e+00,1.161574959754943848e+00,1.161506056785583496e+00,1.161437153816223145e+00,1.161368250846862793e+00,1.161299347877502441e+00,1.161230444908142090e+00,1.161161541938781738e+00,1.161092758178710938e+00,1.161023855209350586e+00,1.160955071449279785e+00,1.160886168479919434e+00,1.160817384719848633e+00,1.160748481750488281e+00,1.160679817199707031e+00,1.160610914230346680e+00,1.160542130470275879e+00,1.160473346710205078e+00,1.160404562950134277e+00,1.160335779190063477e+00,1.160266995429992676e+00,1.160198211669921875e+00,1.160129547119140625e+00,1.160060763359069824e+00,1.159991979598999023e+00,1.159923315048217773e+00,1.159854531288146973e+00,1.159785866737365723e+00,1.159717082977294922e+00,1.159648418426513672e+00,1.159579753875732422e+00,1.159511089324951172e+00,1.159442424774169922e+00,1.159373760223388672e+00,1.159305095672607422e+00,1.159236431121826172e+00,1.159167885780334473e+00,1.159099221229553223e+00,1.159030556678771973e+00,1.158962011337280273e+00,1.158893346786499023e+00,1.158824801445007324e+00,1.158756136894226074e+00,1.158687591552734375e+00,1.158619046211242676e+00,1.158550381660461426e+00,1.158481836318969727e+00,1.158413290977478027e+00,1.158344864845275879e+00,1.158276319503784180e+00,1.158207774162292480e+00,1.158139348030090332e+00,1.158070802688598633e+00,1.158002257347106934e+00,1.157933831214904785e+00,1.157865285873413086e+00,1.157796859741210938e+00,1.157728314399719238e+00,1.157659888267517090e+00,1.157591462135314941e+00,1.157523036003112793e+00,1.157454609870910645e+00,1.157386183738708496e+00,1.157317757606506348e+00,1.157249331474304199e+00,1.157180905342102051e+00,1.157112479209899902e+00,1.157044172286987305e+00
1.087205767631530762e+00,1.087145447731018066e+00,1.087085008621215820e+00,1.087024688720703125e+00,1.086964368820190430e+00,1.086903929710388184e+00,1.086843609809875488e+00,1.086783289909362793e+00,1.086722970008850098e+00,1.086662650108337402e+00,1.086602330207824707e+00,1.086542010307312012e+00,1.086481809616088867e+00,1.086421489715576172e+00,1.086361169815063477e+00,1.086300969123840332e+00,1.086240649223327637e+00,1.086180329322814941e+00,1.086120128631591797e+00,1.086059927940368652e+00,1.085999608039855957e+00,1.085939407348632812e+00,1.085879206657409668e+00,1.085818886756896973e+00,1.085758686065673828e+00,1.085698485374450684e+00,1.085638284683227539e+00,1.085578083992004395e+00,1.085517883300781250e+00,1.085457801818847656e+00,1.085397601127624512e+00,1.085337400436401367e+00,1.085277199745178223e+00,1.085217118263244629e+00,1.085156917572021484e+00,1.085096836090087891e+00,1.085036635398864746e+00,1.084976553916931152e+00,1.084916353225708008e+00,1.084856271743774414e+00,1.084796190261840820e+00,1.084735989570617676e+00,1.084675908088684082e+00,1.084615826606750488e+00,1.084555745124816895e+00,1.084495663642883301e+00,1.084435582160949707e+00,1.084375619888305664e+00,1.084315538406372070e+00,1.084255456924438477e+00,1.084195375442504883e+00,1.084135413169860840e+00,1.084075331687927246e+00,1.084015369415283203e+00,1.083955287933349609e+00,1.083895325660705566e+00,1.083835244178771973e+00,1.083775281906127930e+00,1.083715319633483887e+00,1.083655357360839844e+00,1.083595275878906250e+00,1.083535313606262207e+00,1.083475351333618164e+00,1.083415389060974121e+00,1.083355426788330078e+00,1.083295583724975586e+00,1.083235621452331543e+00,1.083175659179687500e+00,1.083115816116333008e+00,1.083055853843688965e+00,1.082995891571044922e+00,1.082936048507690430e+00,1.082876086235046387e+00,1.082816243171691895e+00,1.082756400108337402e+00,1.082696437835693359e+00,1.082636594772338867e+00,1.082576751708984375e+00,1.082516789436340332e+00,1.082456946372985840e+00
1.021093726158142090e+00,1.021040439605712891e+00,1.020987153053283691e+00,1.020933985710144043e+00,1.020880699157714844e+00,1.020827531814575195e+00,1.020774245262145996e+00,1.020721077919006348e+00,1.020667791366577148e+00,1.020614624023437500e+00,1.020561456680297852e+00,1.020508170127868652e+00,1.020455002784729004e+00,1.020401835441589355e+00,1.020348668098449707e+00,1.020295500755310059e+00,1.020242333412170410e+00,1.020189166069030762e+00,1.020135998725891113e+00,1.020082831382751465e+00,1.020029664039611816e+00,1.019976615905761719e+00,1.019923448562622070e+00,1.019870281219482422e+00,1.019817113876342773e+00,1.019764065742492676e+00,1.019710898399353027e+00,1.019657850265502930e+00,1.019604682922363281e+00,1.019551634788513184e+00,1.019498467445373535e+00,1.019445419311523438e+00,1.019392371177673340e+00,1.019339323043823242e+00,1.019286274909973145e+00,1.019233226776123047e+00,1.019180178642272949e+00,1.019127011299133301e+00,1.019073963165283203e+00,1.019020915031433105e+00,1.018967986106872559e+00,1.018914937973022461e+00,1.018861889839172363e+00,1.018808841705322266e+00,1.018755793571472168e+00,1.018702864646911621e+00,1.018649816513061523e+00,1.018596768379211426e+00,1.018543839454650879e+00,1.018490791320800781e+00,1.018437862396240234e+00,1.018384933471679688e+00,1.018331885337829590e+00,1.018278956413269043e+00,1.018226027488708496e+00,1.018173098564147949e+00,1.018120050430297852e+00,1.018067121505737305e+00,1.018014192581176758e+00,1.017961263656616211e+00,1.017908334732055664e+00,1.017855405807495117e+00,1.017802476882934570e+00,1.017749547958374023e+00,1.017696738243103027e+00,1.017643809318542480e+00,1.017590880393981934e+00,1.017537951469421387e+00,1.017485141754150391e+00,1.017432332038879395e+00,1.017379403114318848e+00,1.017326593399047852e+00,1.017273664474487305e+00,1.017220854759216309e+00,1.017167925834655762e+00,1.017115116119384766e+00,1.017062306404113770e+00,1.017009496688842773e+00,1.016956567764282227e+00,1.016903758049011230e+00
9.625611901283264160e-01,9.625139236450195312e-01,9.624665379524230957e-01,9.624192714691162109e-01,9.623718857765197754e-01,9.623246192932128906e-01,9.622772932052612305e-01,9.622300267219543457e-01,9.621827006340026855e-01,9.621354937553405762e-01,9.620881080627441406e-01,9.620409011840820312e-01,9.619935750961303711e-01,9.619463682174682617e-01,9.618990421295166016e-01,9.618518352508544922e-01,9.618045091629028320e-01,9.617573618888854980e-01,9.617101550102233887e-01,9.616628289222717285e-01,9.616156816482543945e-01,9.615683555603027344e-01,9.615212082862854004e-01,9.614739418029785156e-01,9.614267945289611816e-01,9.613795280456542969e-01,9.613323211669921875e-01,9.612851142883300781e-01,9.612379670143127441e-01,9.611907005310058594e-01,9.611435532569885254e-01,9.610962867736816406e-01,9.610491991043090820e-01,9.610019326210021973e-01,9.609548449516296387e-01,9.609076380729675293e-01,9.608604907989501953e-01,9.608134031295776367e-01,9.607661962509155273e-01,9.607191085815429688e-01,9.606719017028808594e-01,9.606248140335083008e-01,9.605776071548461914e-01,9.605305790901184082e-01,9.604833722114562988e-01,9.604362845420837402e-01,9.603891372680664062e-01,9.603420495986938477e-01,9.602949023246765137e-01,9.602478742599487305e-01,9.602007269859313965e-01,9.601536393165588379e-01,9.601065516471862793e-01,9.600595235824584961e-01,9.600124955177307129e-01,9.599653482437133789e-01,9.599183201789855957e-01,9.598712325096130371e-01,9.598242044448852539e-01,9.597770571708679199e-01,9.597300887107849121e-01,9.596830010414123535e-01,9.596359729766845703e-01,9.595888853073120117e-01,9.595419168472290039e-01,9.594948291778564453e-01,9.594478607177734375e-01,9.594007730484008789e-01,9.593538045883178711e-01,9.593067765235900879e-01,9.592598080635070801e-01,9.592128396034240723e-01,9.591658115386962891e-01,9.591189026832580566e-01,9.590718150138854980e-01,9.590249061584472656e-01,9.589778780937194824e-01,9.589309692382812500e-01,9.588839411735534668e-01,9.588370323181152344e-01
9.103753566741943359e-01,9.103330373764038086e-01,9.102906584739685059e-01,9.102483987808227539e-01,9.102061390876770020e-01,9.101637601852416992e-01,9.101215004920959473e-01,9.100791215896606445e-01,9.100368618965148926e-01,9.099945425987243652e-01,9.099522829055786133e-01,9.099099636077880859e-01,9.098677039146423340e-01,9.098253846168518066e-01,9.097831249237060547e-01,9.097408056259155273e-01,9.096985459327697754e-01,9.096562266349792480e-01,9.096140265464782715e-01,9.095717072486877441e-01,9.095295071601867676e-01,9.094873070716857910e-01,9.094449877738952637e-01,9.094027876853942871e-01,9.093605279922485352e-01,9.093183279037475586e-01,9.092760682106018066e-01,9.092338681221008301e-01,9.091916084289550781e-01,9.091494083404541016e-01,9.091071486473083496e-01,9.090649485588073730e-01,9.090226888656616211e-01,9.089805483818054199e-01,9.089382886886596680e-01,9.088961482048034668e-01,9.088538885116577148e-01,9.088117480278015137e-01,9.087695479393005371e-01,9.087274074554443359e-01,9.086852669715881348e-01,9.086430668830871582e-01,9.086009263992309570e-01,9.085587263107299805e-01,9.085165858268737793e-01,9.084743857383728027e-01,9.084322452545166016e-01,9.083900451660156250e-01,9.083479642868041992e-01,9.083057641983032227e-01,9.082636833190917969e-01,9.082214832305908203e-01,9.081794023513793945e-01,9.081372618675231934e-01,9.080951809883117676e-01,9.080529808998107910e-01,9.080109000205993652e-01,9.079688787460327148e-01,9.079266786575317383e-01,9.078846573829650879e-01,9.078425168991088867e-01,9.078004360198974609e-01,9.077582955360412598e-01,9.077162742614746094e-01,9.076741337776184082e-01,9.076321125030517578e-01,9.075899720191955566e-01,9.075479507446289062e-01,9.075058102607727051e-01,9.074637889862060547e-01,9.074217081069946289e-01,9.073796868324279785e-01,9.073376059532165527e-01,9.072955846786499023e-01,9.072535634040832520e-01,9.072114825248718262e-01,9.071695208549499512e-01,9.071274399757385254e-01,9.070854187011718750e-01,9.070433378219604492e-01
8.635571599006652832e-01,8.635190129280090332e-01,8.634809851646423340e-01,8.634428381919860840e-01,8.634048104286193848e-01,8.633666634559631348e-01,8.633286356925964355e-01,8.632906079292297363e-01,8.632525205612182617e-01,8.632144927978515625e-01,8.631764054298400879e-01,8.631383776664733887e-01,8.631002902984619141e-01,8.630622625350952148e-01,8.630241751670837402e-01,8.629862070083618164e-01,8.629481196403503418e-01,8.629100918769836426e-01,8.628720045089721680e-01,8.628340363502502441e-01,8.627959489822387695e-01,8.627579808235168457e-01,8.627198934555053711e-01,8.626819252967834473e-01,8.626438975334167480e-01,8.626059293746948242e-01,8.625679612159729004e-01,8.625299334526062012e-01,8.624919652938842773e-01,8.624539375305175781e-01,8.624159693717956543e-01,8.623779416084289551e-01,8.623399734497070312e-01,8.623019456863403320e-01,8.622640371322631836e-01,8.622260093688964844e-01,8.621880412101745605e-01,8.621500730514526367e-01,8.621121048927307129e-01,8.620741367340087891e-01,8.620362281799316406e-01,8.619982004165649414e-01,8.619602918624877930e-01,8.619223833084106445e-01,8.618844151496887207e-01,8.618465065956115723e-01,8.618085384368896484e-01,8.617706298828125000e-01,8.617326617240905762e-01,8.616947531700134277e-01,8.616567850112915039e-01,8.616189360618591309e-01,8.615809679031372070e-01,8.615430593490600586e-01,8.615050911903381348e-01,8.614672422409057617e-01,8.614292740821838379e-01,8.613914251327514648e-01,8.613535165786743164e-01,8.613156676292419434e-01,8.612777590751647949e-01,8.612398505210876465e-01,8.612020015716552734e-01,8.611640930175781250e-01,8.611262440681457520e-01,8.610883355140686035e-01,8.610504865646362305e-01,8.610125780105590820e-01,8.609747290611267090e-01,8.609368205070495605e-01,8.608990311622619629e-01,8.608611226081848145e-01,8.608233332633972168e-01,8.607854247093200684e-01,8.607476353645324707e-01,8.607097268104553223e-01,8.606719374656677246e-01,8.606340885162353516e-01,8.605962395668029785e-01,8.605585098266601562e-01
8.213188052177429199e-01,8.212844133377075195e-01,8.212499022483825684e-01,8.212155103683471680e-01,8.211809992790222168e-01,8.211466073989868164e-01,8.211121559143066406e-01,8.210777044296264648e-01,8.210432529449462891e-01,8.210088610649108887e-01,8.209744095802307129e-01,8.209400177001953125e-01,8.209056258201599121e-01,8.208711743354797363e-01,8.208367824554443359e-01,8.208023309707641602e-01,8.207679390907287598e-01,8.207334876060485840e-01,8.206991553306579590e-01,8.206647038459777832e-01,8.206303715705871582e-01,8.205959200859069824e-01,8.205615282058715820e-01,8.205271363258361816e-01,8.204927444458007812e-01,8.204583525657653809e-01,8.204240202903747559e-01,8.203895688056945801e-01,8.203552365303039551e-01,8.203209042549133301e-01,8.202865123748779297e-01,8.202521800994873047e-01,8.202177286148071289e-01,8.201834559440612793e-01,8.201490044593811035e-01,8.201147317886352539e-01,8.200803399085998535e-01,8.200460076332092285e-01,8.200116157531738281e-01,8.199773430824279785e-01,8.199429512023925781e-01,8.199086189270019531e-01,8.198742270469665527e-01,8.198399543762207031e-01,8.198055624961853027e-01,8.197712898254394531e-01,8.197370171546936035e-01,8.197026252746582031e-01,8.196683526039123535e-01,8.196340203285217285e-01,8.195997476577758789e-01,8.195653557777404785e-01,8.195310831069946289e-01,8.194967508316040039e-01,8.194624781608581543e-01,8.194281458854675293e-01,8.193938732147216797e-01,8.193595409393310547e-01,8.193253278732299805e-01,8.192909955978393555e-01,8.192567229270935059e-01,8.192223906517028809e-01,8.191881775856018066e-01,8.191539645195007324e-01,8.191196322441101074e-01,8.190854191780090332e-01,8.190510869026184082e-01,8.190168738365173340e-01,8.189825415611267090e-01,8.189483284950256348e-01,8.189140558242797852e-01,8.188798427581787109e-01,8.188455104827880859e-01,8.188112974166870117e-01,8.187770247459411621e-01,8.187428116798400879e-01,8.187085390090942383e-01,8.186743259429931641e-01,8.186400532722473145e-01,8.186058998107910156e-01
