5.000000000000000000e+00,5.000000000000000000e+00,5.000000000000000000e+00,5.000000000000000000e+00,5.000000000000000000e+00,5.000000000000000000e+00,5.000000000000000000e+00,5.000000000000000000e+00,5.000000000000000000e+00,5.000000000000000000e+00,5.000000000000000000e+00,5.000000000000000000e+00,5.000000000000000000e+00,5.000000000000000000e+00,5.000000000000000000e+00,5.000000000000000000e+00,5.000000000000000000e+00,5.000000000000000000e+00,5.000000000000000000e+00,5.000000000000000000e+00,5.000000000000000000e+00,5.000000000000000000e+00,5.000000000000000000e+00,5.000000000000000000e+00,5.000000000000000000e+00,5.000000000000000000e+00,5.000000000000000000e+00,5.000000000000000000e+00,5.000000000000000000e+00,5.000000000000000000e+00,5.000000000000000000e+00,5.000000000000000000e+00,5.000000000000000000e+00,5.000000000000000000e+00,5.000000000000000000e+00,5.000000000000000000e+00,5.000000000000000000e+00,5.000000000000000000e+00,5.000000000000000000e+00,4.846991062164306641e+00,4.657287120819091797e+00,4.481873512268066406e+00,4.319193840026855469e+00,4.167910099029541016e+00,4.026865482330322266e+00,3.895054817199707031e+00,3.771599054336547852e+00,3.655729293823242188e+00,3.546766757965087891e+00,3.444111585617065430e+00,3.347231626510620117e+00,3.255652904510498047e+00,3.168951511383056641e+00,3.086748838424682617e+00,3.008702516555786133e+00,2.934505701065063477e+00,2.863880395889282227e+00,2.796574592590332031e+00,2.732359886169433594e+00,2.671027898788452148e+00,2.612388849258422852e+00,2.556269168853759766e+00,2.502509832382202148e+00,2.450965166091918945e+00,2.401500940322875977e+00,2.353993892669677734e+00,2.308329820632934570e+00,2.264403820037841797e+00,2.222118139266967773e+00,2.181383132934570312e+00,2.142114400863647461e+00,2.104234457015991211e+00,2.067671060562133789e+00,2.032356739044189453e+00,1.998228430747985840e+00,1.965227365493774414e+00,1.933298468589782715e+00,1.902390480041503906e+00,1.872455239295959473e+00,1.843447566032409668e+00
5.000000000000000000e+00,5.000000000000000000e+00,5.000000000000000000e+00,5.000000000000000000e+00,5.000000000000000000e+00,5.000000000000000000e+00,5.000000000000000000e+00,5.000000000000000000e+00,5.000000000000000000e+00,5.000000000000000000e+00,5.000000000000000000e+00,5.000000000000000000e+00,5.000000000000000000e+00,5.000000000000000000e+00,5.000000000000000000e+00,5.000000000000000000e+00,5.000000000000000000e+00,5.000000000000000000e+00,5.000000000000000000e+00,5.000000000000000000e+00,5.000000000000000000e+00,5.000000000000000000e+00,5.000000000000000000e+00,5.000000000000000000e+00,5.000000000000000000e+00,5.000000000000000000e+00,5.000000000000000000e+00,5.000000000000000000e+00,5.000000000000000000e+00,5.000000000000000000e+00,5.000000000000000000e+00,5.000000000000000000e+00,5.000000000000000000e+00,5.000000000000000000e+00,5.000000000000000000e+00,5.000000000000000000e+00,5.000000000000000000e+00,5.000000000000000000e+00,5.000000000000000000e+00,4.847129344940185547e+00,4.657414436340332031e+00,4.481991767883300781e+00,4.319303512573242188e+00,4.168012619018554688e+00,4.026960849761962891e+00,3.895143747329711914e+00,3.771682977676391602e+00,3.655807971954345703e+00,3.546840667724609375e+00,3.444181442260742188e+00,3.347297430038452148e+00,3.255715608596801758e+00,3.169010877609252930e+00,3.086804628372192383e+00,3.008755922317504883e+00,2.934556484222412109e+00,2.863928556442260742e+00,2.796620607376098633e+00,2.732403755187988281e+00,2.671069860458374023e+00,2.612429141998291016e+00,2.556307554244995117e+00,2.502546787261962891e+00,2.451000452041625977e+00,2.401534795761108398e+00,2.354026556015014648e+00,2.308361053466796875e+00,2.264434099197387695e+00,2.222147226333618164e+00,2.181411027908325195e+00,2.142141342163085938e+00,2.104260683059692383e+00,2.067696094512939453e+00,2.032381057739257812e+00,1.998251795768737793e+00,1.965250134468078613e+00,1.933320522308349609e+00,1.902411818504333496e+00,1.872475862503051758e+00,1.843467593193054199e+00
5.000000000000000000e+00,5.000000000000000000e+00,5.000000000000000000e+00,5.000000000000000000e+00,5.000000000000000000e+00,5.000000000000000000e+00,5.000000000000000000e+00,5.000000000000000000e+00,5.000000000000000000e+00,5.000000000000000000e+00,5.000000000000000000e+00,5.000000000000000000e+00,5.000000000000000000e+00,5.000000000000000000e+00,5.000000000000000000e+00,5.000000000000000000e+00,5.000000000000000000e+00,5.000000000000000000e+00,5.000000000000000000e+00,5.000000000000000000e+00,5.000000000000000000e+00,5.000000000000000000e+00,5.000000000000000000e+00,5.000000000000000000e+00,5.000000000000000000e+00,5.000000000000000000e+00,5.000000000000000000e+00,5.000000000000000000e+00,5.000000000000000000e+00,5.000000000000000000e+00,5.000000000000000000e+00,5.000000000000000000e+00,5.000000000000000000e+00,5.000000000000000000e+00,5.000000000000000000e+00,5.000000000000000000e+00,5.000000000000000000e+00,5.000000000000000000e+00,5.000000000000000000e+00,4.847267627716064453e+00,4.657542228698730469e+00,4.482110023498535156e+00,4.319413661956787109e+00,4.168114662170410156e+00,4.027056217193603516e+00,3.895233392715454102e+00,3.771766662597656250e+00,3.655886888504028320e+00,3.546914815902709961e+00,3.444251060485839844e+00,3.347363710403442383e+00,3.255777835845947266e+00,3.169069766998291016e+00,3.086860895156860352e+00,3.008809089660644531e+00,2.934607267379760742e+00,2.863976955413818359e+00,2.796666622161865234e+00,2.732447862625122070e+00,2.671111822128295898e+00,2.612469196319580078e+00,2.556346178054809570e+00,2.502583503723144531e+00,2.451035976409912109e+00,2.401568889617919922e+00,2.354058980941772461e+00,2.308392524719238281e+00,2.264464139938354492e+00,2.222176313400268555e+00,2.181439161300659180e+00,2.142168283462524414e+00,2.104286670684814453e+00,2.067721366882324219e+00,2.032405376434326172e+00,1.998275279998779297e+00,1.965272665023803711e+00,1.933342337608337402e+00,1.902433156967163086e+00,1.872496604919433594e+00,1.843487620353698730e+00
5.000000000000000000e+00,5.000000000000000000e+00,5.000000000000000000e+00,5.000000000000000000e+00,5.000000000000000000e+00,5.000000000000000000e+00,5.000000000000000000e+00,5.000000000000000000e+00,5.000000000000000000e+00,5.000000000000000000e+00,5.000000000000000000e+00,5.000000000000000000e+00,5.000000000000000000e+00,5.000000000000000000e+00,5.000000000000000000e+00,5.000000000000000000e+00,5.000000000000000000e+00,5.000000000000000000e+00,5.000000000000000000e+00,5.000000000000000000e+00,5.000000000000000000e+00,5.000000000000000000e+00,5.000000000000000000e+00,5.000000000000000000e+00,5.000000000000000000e+00,5.000000000000000000e+00,5.000000000000000000e+00,5.000000000000000000e+00,5.000000000000000000e+00,5.000000000000000000e+00,5.000000000000000000e+00,5.000000000000000000e+00,5.000000000000000000e+00,5.000000000000000000e+00,5.000000000000000000e+00,5.000000000000000000e+00,5.000000000000000000e+00,5.000000000000000000e+00,5.000000000000000000e+00,4.847405910491943359e+00,4.657670497894287109e+00,4.482228279113769531e+00,4.319523334503173828e+00,4.168216705322265625e+00,4.027152061462402344e+00,3.895322322845458984e+00,3.771850585937500000e+00,3.655965328216552734e+00,3.546989202499389648e+00,3.444321155548095703e+00,3.347429513931274414e+00,3.255840301513671875e+00,3.169129133224487305e+00,3.086916923522949219e+00,3.008862495422363281e+00,2.934657812118530273e+00,2.864025354385375977e+00,2.796712875366210938e+00,2.732491731643676758e+00,2.671154022216796875e+00,2.612509489059448242e+00,2.556384563446044922e+00,2.502620458602905273e+00,2.451071262359619141e+00,2.401602983474731445e+00,2.354091644287109375e+00,2.308423757553100586e+00,2.264494419097900391e+00,2.222205400466918945e+00,2.181467056274414062e+00,2.142195463180541992e+00,2.104312658309936523e+00,2.067746639251708984e+00,2.032429695129394531e+00,1.998298883438110352e+00,1.965295433998107910e+00,1.933364391326904297e+00,1.902454376220703125e+00,1.872517347335815430e+00,1.843507647514343262e+00
5.000000000000000000e+00,5.000000000000000000e+00,5.000000000000000000e+00,5.000000000000000000e+00,5.000000000000000000e+00,5.000000000000000000e+00,5.000000000000000000e+00,5.000000000000000000e+00,5.000000000000000000e+00,5.000000000000000000e+00,5.000000000000000000e+00,5.000000000000000000e+00,5.000000000000000000e+00,5.000000000000000000e+00,5.000000000000000000e+00,5.000000000000000000e+00,5.000000000000000000e+00,5.000000000000000000e+00,5.000000000000000000e+00,5.000000000000000000e+00,5.000000000000000000e+00,5.000000000000000000e+00,5.000000000000000000e+00,5.000000000000000000e+00,5.000000000000000000e+00,5.000000000000000000e+00,5.000000000000000000e+00,5.000000000000000000e+00,5.000000000000000000e+00,5.000000000000000000e+00,5.000000000000000000e+00,5.000000000000000000e+00,5.000000000000000000e+00,5.000000000000000000e+00,5.000000000000000000e+00,5.000000000000000000e+00,5.000000000000000000e+00,5.000000000000000000e+00,5.000000000000000000e+00,4.847544193267822266e+00,4.657797813415527344e+00,4.482346534729003906e+00,4.319633007049560547e+00,4.168319225311279297e+00,4.027247428894042969e+00,3.895411968231201172e+00,3.771934032440185547e+00,3.656044244766235352e+00,3.547063112258911133e+00,3.444391250610351562e+00,3.347495555877685547e+00,3.255902528762817383e+00,3.169188261032104492e+00,3.086973190307617188e+00,3.008915662765502930e+00,2.934708833694458008e+00,2.864073514938354492e+00,2.796758890151977539e+00,2.732535600662231445e+00,2.671195745468139648e+00,2.612549543380737305e+00,2.556422948837280273e+00,2.502657175064086914e+00,2.451106786727905273e+00,2.401636838912963867e+00,2.354124546051025391e+00,2.308455228805541992e+00,2.264524459838867188e+00,2.222234487533569336e+00,2.181494951248168945e+00,2.142222404479980469e+00,2.104338884353637695e+00,2.067771673202514648e+00,2.032454013824462891e+00,1.998322486877441406e+00,1.965318322181701660e+00,1.933386445045471191e+00,1.902475714683532715e+00,1.872537732124328613e+00,1.843527674674987793e+00
5.000000000000000000e+00,5.000000000000000000e+00,5.000000000000000000e+00,5.000000000000000000e+00,5.000000000000000000e+00,5.000000000000000000e+00,5.000000000000000000e+00,5.000000000000000000e+00,5.000000000000000000e+00,5.000000000000000000e+00,5.000000000000000000e+00,5.000000000000000000e+00,5.000000000000000000e+00,5.000000000000000000e+00,5.000000000000000000e+00,5.000000000000000000e+00,5.000000000000000000e+00,5.000000000000000000e+00,5.000000000000000000e+00,5.000000000000000000e+00,5.000000000000000000e+00,5.000000000000000000e+00,5.000000000000000000e+00,5.000000000000000000e+00,5.000000000000000000e+00,5.000000000000000000e+00,5.000000000000000000e+00,5.000000000000000000e+00,5.000000000000000000e+00,5.000000000000000000e+00,5.000000000000000000e+00,5.000000000000000000e+00,5.000000000000000000e+00,5.000000000000000000e+00,5.000000000000000000e+00,5.000000000000000000e+00,5.000000000000000000e+00,5.000000000000000000e+00,5.000000000000000000e+00,4.847682476043701172e+00,4.657925605773925781e+00,4.482464790344238281e+00,4.319743156433105469e+00,4.168421268463134766e+00,4.027342796325683594e+00,3.895501613616943359e+00,3.772017955780029297e+00,3.656122684478759766e+00,3.547137260437011719e+00,3.444460868835449219e+00,3.347561597824096680e+00,3.255964994430541992e+00,3.169247388839721680e+00,3.087029457092285156e+00,3.008969068527221680e+00,2.934759378433227539e+00,2.864121913909912109e+00,2.796804904937744141e+00,2.732579708099365234e+00,2.671237945556640625e+00,2.612589836120605469e+00,2.556461572647094727e+00,2.502694129943847656e+00,2.451142072677612305e+00,2.401670694351196289e+00,2.354156970977783203e+00,2.308486700057983398e+00,2.264554738998413086e+00,2.222263574600219727e+00,2.181523084640502930e+00,2.142249345779418945e+00,2.104364871978759766e+00,2.067796945571899414e+00,2.032478332519531250e+00,1.998345971107482910e+00,1.965341091156005859e+00,1.933408498764038086e+00,1.902497053146362305e+00,1.872558474540710449e+00,1.843547582626342773e+00
5.000000000000000000e+00,5.000000000000000000e+00,5.000000000000000000e+00,5.000000000000000000e+00,5.000000000000000000e+00,5.000000000000000000e+00,5.000000000000000000e+00,5.000000000000000000e+00,5.000000000000000000e+00,5.000000000000000000e+00,5.000000000000000000e+00,5.000000000000000000e+00,5.000000000000000000e+00,5.000000000000000000e+00,5.000000000000000000e+00,5.000000000000000000e+00,5.000000000000000000e+00,5.000000000000000000e+00,5.000000000000000000e+00,5.000000000000000000e+00,5.000000000000000000e+00,5.000000000000000000e+00,5.000000000000000000e+00,5.000000000000000000e+00,5.000000000000000000e+00,5.000000000000000000e+00,5.000000000000000000e+00,5.000000000000000000e+00,5.000000000000000000e+00,5.000000000000000000e+00,5.000000000000000000e+00,5.000000000000000000e+00,5.000000000000000000e+00,5.000000000000000000e+00,5.000000000000000000e+00,5.000000000000000000e+00,5.000000000000000000e+00,5.000000000000000000e+00,5.000000000000000000e+00,4.847821235656738281e+00,4.658053398132324219e+00,4.482583045959472656e+00,4.319852828979492188e+00,4.168523788452148438e+00,4.027438163757324219e+00,3.895590543746948242e+00,3.772101879119873047e+00,3.656201601028442383e+00,3.547211170196533203e+00,3.444530725479125977e+00,3.347627401351928711e+00,3.256027698516845703e+00,3.169306516647338867e+00,3.087085247039794922e+00,3.009022712707519531e+00,2.934810161590576172e+00,2.864170074462890625e+00,2.796850919723510742e+00,2.732623577117919922e+00,2.671280145645141602e+00,2.612629890441894531e+00,2.556499958038330078e+00,2.502731084823608398e+00,2.451177358627319336e+00,2.401704549789428711e+00,2.354189634323120117e+00,2.308517932891845703e+00,2.264585018157958984e+00,2.222292661666870117e+00,2.181550979614257812e+00,2.142276525497436523e+00,2.104391098022460938e+00,2.067821979522705078e+00,2.032502651214599609e+00,1.998369336128234863e+00,1.965363860130310059e+00,1.933430552482604980e+00,1.902518391609191895e+00,1.872579216957092285e+00,1.843567609786987305e+00
5.000000000000000000e+00,5.000000000000000000e+00,5.000000000000000000e+00,5.000000000000000000e+00,5.000000000000000000e+00,5.000000000000000000e+00,5.000000000000000000e+00,5.000000000000000000e+00,5.000000000000000000e+00,5.000000000000000000e+00,5.000000000000000000e+00,5.000000000000000000e+00,5.000000000000000000e+00,5.000000000000000000e+00,5.000000000000000000e+00,5.000000000000000000e+00,5.000000000000000000e+00,5.000000000000000000e+00,5.000000000000000000e+00,5.000000000000000000e+00,5.000000000000000000e+00,5.000000000000000000e+00,5.000000000000000000e+00,5.000000000000000000e+00,5.000000000000000000e+00,5.000000000000000000e+00,5.000000000000000000e+00,5.000000000000000000e+00,5.000000000000000000e+00,5.000000000000000000e+00,5.000000000000000000e+00,5.000000000000000000e+00,5.000000000000000000e+00,5.000000000000000000e+00,5.000000000000000000e+00,5.000000000000000000e+00,5.000000000000000000e+00,5.000000000000000000e+00,5.000000000000000000e+00,4.847959518432617188e+00,4.658181190490722656e+00,4.482701301574707031e+00,4.319962978363037109e+00,4.168626308441162109e+00,4.027534008026123047e+00,3.895680189132690430e+00,3.772185564041137695e+00,3.656280517578125000e+00,3.547285318374633789e+00,3.444600343704223633e+00,3.347693681716918945e+00,3.256089925765991211e+00,3.169365644454956055e+00,3.087141513824462891e+00,3.009075641632080078e+00,2.934860944747924805e+00,2.864218473434448242e+00,2.796896934509277344e+00,2.732667684555053711e+00,2.671321868896484375e+00,2.612670183181762695e+00,2.556538581848144531e+00,2.502768039703369141e+00,2.451212882995605469e+00,2.401738643646240234e+00,2.354222297668457031e+00,2.308549404144287109e+00,2.264615058898925781e+00,2.222321748733520508e+00,2.181579113006591797e+00,2.142303466796875000e+00,2.104417085647583008e+00,2.067847251892089844e+00,2.032526969909667969e+00,1.998392939567565918e+00,1.965386390686035156e+00,1.933452367782592773e+00,1.902539730072021484e+00,1.872599840164184570e+00,1.843587636947631836e+00
5.000000000000000000e+00,5.000000000000000000e+00,5.000000000000000000e+00,5.000000000000000000e+00,5.000000000000000000e+00,5.000000000000000000e+00,5.000000000000000000e+00,5.000000000000000000e+00,5.000000000000000000e+00,5.000000000000000000e+00,5.000000000000000000e+00,5.000000000000000000e+00,5.000000000000000000e+00,5.000000000000000000e+00,5.000000000000000000e+00,5.000000000000000000e+00,5.000000000000000000e+00,5.000000000000000000e+00,5.000000000000000000e+00,5.000000000000000000e+00,5.000000000000000000e+00,5.000000000000000000e+00,5.000000000000000000e+00,5.000000000000000000e+00,5.000000000000000000e+00,5.000000000000000000e+00,5.000000000000000000e+00,5.000000000000000000e+00,5.000000000000000000e+00,5.000000000000000000e+00,5.000000000000000000e+00,5.000000000000000000e+00,5.000000000000000000e+00,5.000000000000000000e+00,5.000000000000000000e+00,5.000000000000000000e+00,5.000000000000000000e+00,5.000000000000000000e+00,5.000000000000000000e+00,4.848098278045654297e+00,4.658308982849121094e+00,4.482819557189941406e+00,4.320072650909423828e+00,4.168728351593017578e+00,4.027629375457763672e+00,3.895769357681274414e+00,3.772269487380981445e+00,3.656358957290649414e+00,3.547359704971313477e+00,3.444670438766479492e+00,3.347759485244750977e+00,3.256152391433715820e+00,3.169424772262573242e+00,3.087197542190551758e+00,3.009129285812377930e+00,2.934911489486694336e+00,2.864266872406005859e+00,2.796943187713623047e+00,2.732711553573608398e+00,2.671364068984985352e+00,2.612710237503051758e+00,2.556576967239379883e+00,2.502804994583129883e+00,2.451248168945312500e+00,2.401772737503051758e+00,2.354254961013793945e+00,2.308580636978149414e+00,2.264645338058471680e+00,2.222350835800170898e+00,2.181607007980346680e+00,2.142330646514892578e+00,2.104443073272705078e+00,2.067872524261474609e+00,2.032551288604736328e+00,1.998416423797607422e+00,1.965409159660339355e+00,1.933474421501159668e+00,1.902560949325561523e+00,1.872620582580566406e+00,1.843607783317565918e+00
5.000000000000000000e+00,5.000000000000000000e+00,5.000000000000000000e+00,5.000000000000000000e+00,5.000000000000000000e+00,5.000000000000000000e+00,5.000000000000000000e+00,5.000000000000000000e+00,5.000000000000000000e+00,5.000000000000000000e+00,5.000000000000000000e+00,5.000000000000000000e+00,5.000000000000000000e+00,5.000000000000000000e+00,5.000000000000000000e+00,5.000000000000000000e+00,5.000000000000000000e+00,5.000000000000000000e+00,5.000000000000000000e+00,5.000000000000000000e+00,5.000000000000000000e+00,5.000000000000000000e+00,5.000000000000000000e+00,5.000000000000000000e+00,5.000000000000000000e+00,5.000000000000000000e+00,5.000000000000000000e+00,5.000000000000000000e+00,5.000000000000000000e+00,5.000000000000000000e+00,5.000000000000000000e+00,5.000000000000000000e+00,5.000000000000000000e+00,5.000000000000000000e+00,5.000000000000000000e+00,5.000000000000000000e+00,5.000000000000000000e+00,5.000000000000000000e+00,5.000000000000000000e+00,4.848236560821533203e+00,4.658436775207519531e+00,4.482938289642333984e+00,4.320182800292968750e+00,4.168830871582031250e+00,4.027725219726562500e+00,3.895858764648437500e+00,3.772352933883666992e+00,3.656437873840332031e+00,3.547433614730834961e+00,3.444740533828735352e+00,3.347825527191162109e+00,3.256214618682861328e+00,3.169484138488769531e+00,3.087253808975219727e+00,3.009182453155517578e+00,2.934962272644042969e+00,2.864315032958984375e+00,2.796989202499389648e+00,2.732755661010742188e+00,2.671406030654907227e+00,2.612750530242919922e+00,2.556615352630615234e+00,2.502841711044311523e+00,2.451283693313598633e+00,2.401806592941284180e+00,2.354287624359130859e+00,2.308612108230590820e+00,2.264675378799438477e+00,2.222379922866821289e+00,2.181635141372680664e+00,2.142357587814331055e+00,2.104469299316406250e+00,2.067897558212280273e+00,2.032575845718383789e+00,1.998440027236938477e+00,1.965432047843933105e+00,1.933496475219726562e+00,1.902582287788391113e+00,1.872641086578369141e+00,1.843627810478210449e+00
5.000000000000000000e+00,5.000000000000000000e+00,5.000000000000000000e+00,5.000000000000000000e+00,5.000000000000000000e+00,5.000000000000000000e+00,5.000000000000000000e+00,5.000000000000000000e+00,5.000000000000000000e+00,5.000000000000000000e+00,5.000000000000000000e+00,5.000000000000000000e+00,5.000000000000000000e+00,5.000000000000000000e+00,5.000000000000000000e+00,5.000000000000000000e+00,5.000000000000000000e+00,5.000000000000000000e+00,5.000000000000000000e+00,5.000000000000000000e+00,5.000000000000000000e+00,5.000000000000000000e+00,4.978407859802246094e+00,4.998424530029296875e+00,5.000000000000000000e+00,5.000000000000000000e+00,5.000000000000000000e+00,5.000000000000000000e+00,5.000000000000000000e+00,5.000000000000000000e+00,5.000000000000000000e+00,5.000000000000000000e+00,5.000000000000000000e+00,5.000000000000000000e+00,5.000000000000000000e+00,5.000000000000000000e+00,5.000000000000000000e+00,5.000000000000000000e+00,5.000000000000000000e+00,4.848374843597412109e+00,4.658564567565917969e+00,4.483056545257568359e+00,4.320292472839355469e+00,4.168933391571044922e+00,4.027820587158203125e+00,3.895948410034179688e+00,3.772437095642089844e+00,3.656516313552856445e+00,3.547507762908935547e+00,3.444810152053833008e+00,3.347891569137573242e+00,3.256277322769165039e+00,3.169543027877807617e+00,3.087310075759887695e+00,3.009235858917236328e+00,2.935013055801391602e+00,2.864363431930541992e+00,2.797035217285156250e+00,2.732799530029296875e+00,2.671447992324829102e+00,2.612790822982788086e+00,2.556653976440429688e+00,2.502878665924072266e+00,2.451318979263305664e+00,2.401840686798095703e+00,2.354320287704467773e+00,2.308643579483032227e+00,2.264705657958984375e+00,2.222409009933471680e+00,2.181663274765014648e+00,2.142384529113769531e+00,2.104495286941528320e+00,2.067922830581665039e+00,2.032599925994873047e+00,1.998463630676269531e+00,1.965454816818237305e+00,1.933518528938293457e+00,1.902603626251220703e+00,1.872661709785461426e+00,1.843647599220275879e+00
5.000000000000000000e+00,5.000000000000000000e+00,5.000000000000000000e+00,5.000000000000000000e+00,5.000000000000000000e+00,5.000000000000000000e+00,5.000000000000000000e+00,5.000000000000000000e+00,5.000000000000000000e+00,5.000000000000000000e+00,5.000000000000000000e+00,5.000000000000000000e+00,5.000000000000000000e+00,5.000000000000000000e+00,5.000000000000000000e+00,5.000000000000000000e+00,5.000000000000000000e+00,5.000000000000000000e+00,5.000000000000000000e+00,5.000000000000000000e+00,5.000000000000000000e+00,5.000000000000000000e+00,4.998463630676269531e+00,5.000000000000000000e+00,4.998533725738525391e+00,5.000000000000000000e+00,5.000000000000000000e+00,5.000000000000000000e+00,5.000000000000000000e+00,5.000000000000000000e+00,5.000000000000000000e+00,5.000000000000000000e+00,5.000000000000000000e+00,5.000000000000000000e+00,5.000000000000000000e+00,5.000000000000000000e+00,5.000000000000000000e+00,5.000000000000000000e+00,5.000000000000000000e+00,4.848513603210449219e+00,4.658692359924316406e+00,4.483174800872802734e+00,4.320402622222900391e+00,4.169035911560058594e+00,4.027915954589843750e+00,3.896037578582763672e+00,3.772521018981933594e+00,3.656595230102539062e+00,3.547581672668457031e+00,3.444880247116088867e+00,3.347957372665405273e+00,3.256339788436889648e+00,3.169602394104003906e+00,3.087365865707397461e+00,3.009289264678955078e+00,2.935063838958740234e+00,2.864411830902099609e+00,2.797081470489501953e+00,2.732843399047851562e+00,2.671490192413330078e+00,2.612830877304077148e+00,2.556692361831665039e+00,2.502915620803833008e+00,2.451354265213012695e+00,2.401874542236328125e+00,2.354352951049804688e+00,2.308675050735473633e+00,2.264735937118530273e+00,2.222438097000122070e+00,2.181691169738769531e+00,2.142411708831787109e+00,2.104521512985229492e+00,2.067948102951049805e+00,2.032624483108520508e+00,1.998486876487731934e+00,1.965477585792541504e+00,1.933540582656860352e+00,1.902624964714050293e+00,1.872682452201843262e+00,1.843667745590209961e+00
5.000000000000000000e+00,5.000000000000000000e+00,5.000000000000000000e+00,5.000000000000000000e+00,5.000000000000000000e+00,5.000000000000000000e+00,5.000000000000000000e+00,5.000000000000000000e+00,5.000000000000000000e+00,5.000000000000000000e+00,5.000000000000000000e+00,5.000000000000000000e+00,5.000000000000000000e+00,5.000000000000000000e+00,5.000000000000000000e+00,5.000000000000000000e+00,5.000000000000000000e+00,5.000000000000000000e+00,5.000000000000000000e+00,5.000000000000000000e+00,5.000000000000000000e+00,5.000000000000000000e+00,4.992927551269531250e+00,5.000000000000000000e+00,5.000000000000000000e+00,5.000000000000000000e+00,5.000000000000000000e+00,5.000000000000000000e+00,5.000000000000000000e+00,5.000000000000000000e+00,5.000000000000000000e+00,5.000000000000000000e+00,5.000000000000000000e+00,5.000000000000000000e+00,5.000000000000000000e+00,5.000000000000000000e+00,5.000000000000000000e+00,5.000000000000000000e+00,5.000000000000000000e+00,4.848651885986328125e+00,4.658820152282714844e+00,4.483293056488037109e+00,4.320512294769287109e+00,4.169137954711914062e+00,4.028011322021484375e+00,3.896126985549926758e+00,3.772604465484619141e+00,3.656674146652221680e+00,3.547656059265136719e+00,3.444949865341186523e+00,3.348023653030395508e+00,3.256402015686035156e+00,3.169661283493041992e+00,3.087422132492065430e+00,3.009342432022094727e+00,2.935114622116088867e+00,2.864460229873657227e+00,2.797127246856689453e+00,2.732887506484985352e+00,2.671532154083251953e+00,2.612871170043945312e+00,2.556730985641479492e+00,2.502952337265014648e+00,2.451389789581298828e+00,2.401908636093139648e+00,2.354385375976562500e+00,2.308706283569335938e+00,2.264766216278076172e+00,2.222467184066772461e+00,2.181719303131103516e+00,2.142438650131225586e+00,2.104547500610351562e+00,2.067973136901855469e+00,2.032648563385009766e+00,1.998510479927062988e+00,1.965500116348266602e+00,1.933562517166137695e+00,1.902646422386169434e+00,1.872703075408935547e+00,1.843687772750854492e+00
5.000000000000000000e+00,5.000000000000000000e+00,5.000000000000000000e+00,5.000000000000000000e+00,5.000000000000000000e+00,5.000000000000000000e+00,5.000000000000000000e+00,5.000000000000000000e+00,5.000000000000000000e+00,5.000000000000000000e+00,5.000000000000000000e+00,5.000000000000000000e+00,5.000000000000000000e+00,5.000000000000000000e+00,5.000000000000000000e+00,5.000000000000000000e+00,5.000000000000000000e+00,5.000000000000000000e+00,5.000000000000000000e+00,5.000000000000000000e+00,5.000000000000000000e+00,5.000000000000000000e+00,4.990761756896972656e+00,5.000000000000000000e+00,5.000000000000000000e+00,5.000000000000000000e+00,5.000000000000000000e+00,5.000000000000000000e+00,5.000000000000000000e+00,5.000000000000000000e+00,5.000000000000000000e+00,5.000000000000000000e+00,5.000000000000000000e+00,5.000000000000000000e+00,5.000000000000000000e+00,5.000000000000000000e+00,5.000000000000000000e+00,5.000000000000000000e+00,5.000000000000000000e+00,4.848790168762207031e+00,4.658948421478271484e+00,4.483411312103271484e+00,4.320622444152832031e+00,4.169240474700927734e+00,4.028107166290283203e+00,3.896216154098510742e+00,3.772688627243041992e+00,3.656752586364746094e+00,3.547730207443237305e+00,3.445019960403442383e+00,3.348089456558227539e+00,3.256464719772338867e+00,3.169720649719238281e+00,3.087478160858154297e+00,3.009395837783813477e+00,2.935165166854858398e+00,2.864508628845214844e+00,2.797173500061035156e+00,2.732931375503540039e+00,2.671574115753173828e+00,2.612911462783813477e+00,2.556769371032714844e+00,2.502989292144775391e+00,2.451425075531005859e+00,2.401942491531372070e+00,2.354418039321899414e+00,2.308737754821777344e+00,2.264796495437622070e+00,2.222496271133422852e+00,2.181747198104858398e+00,2.142465829849243164e+00,2.104573488235473633e+00,2.067998409271240234e+00,2.032673120498657227e+00,1.998534083366394043e+00,1.965523004531860352e+00,1.933584570884704590e+00,1.902667522430419922e+00,1.872723817825317383e+00,1.843707799911499023e+00
5.000000000000000000e+00,5.000000000000000000e+00,5.000000000000000000e+00,5.000000000000000000e+00,5.000000000000000000e+00,5.000000000000000000e+00,5.000000000000000000e+00,5.000000000000000000e+00,5.000000000000000000e+00,5.000000000000000000e+00,5.000000000000000000e+00,5.000000000000000000e+00,5.000000000000000000e+00,5.000000000000000000e+00,5.000000000000000000e+00,5.000000000000000000e+00,5.000000000000000000e+00,5.000000000000000000e+00,5.000000000000000000e+00,5.000000000000000000e+00,5.000000000000000000e+00,5.000000000000000000e+00,4.945647716522216797e+00,5.000000000000000000e+00,5.000000000000000000e+00,5.000000000000000000e+00,5.000000000000000000e+00,5.000000000000000000e+00,5.000000000000000000e+00,5.000000000000000000e+00,5.000000000000000000e+00,5.000000000000000000e+00,5.000000000000000000e+00,5.000000000000000000e+00,5.000000000000000000e+00,5.000000000000000000e+00,5.000000000000000000e+00,5.000000000000000000e+00,5.000000000000000000e+00,4.848928451538085938e+00,4.659075736999511719e+00,4.483530044555664062e+00,4.320732116699218750e+00,4.169342517852783203e+00,4.028202533721923828e+00,3.896305799484252930e+00,3.772772073745727539e+00,3.656831502914428711e+00,3.547804117202758789e+00,3.445089817047119141e+00,3.348155498504638672e+00,3.256526947021484375e+00,3.169780015945434570e+00,3.087534427642822266e+00,3.009449005126953125e+00,2.935215950012207031e+00,2.864556789398193359e+00,2.797219514846801758e+00,2.732975482940673828e+00,2.671616077423095703e+00,2.612951755523681641e+00,2.556807994842529297e+00,2.503026247024536133e+00,2.451460599899291992e+00,2.401976346969604492e+00,2.354450941085815430e+00,2.308769226074218750e+00,2.264826536178588867e+00,2.222525358200073242e+00,2.181775331497192383e+00,2.142492771148681641e+00,2.104599714279174805e+00,2.068023681640625000e+00,2.032697439193725586e+00,1.998557567596435547e+00,1.965545773506164551e+00,1.933606624603271484e+00,1.902688860893249512e+00,1.872744321823120117e+00,1.843727827072143555e+00
5.000000000000000000e+00,5.000000000000000000e+00,5.000000000000000000e+00,5.000000000000000000e+00,5.000000000000000000e+00,5.000000000000000000e+00,5.000000000000000000e+00,5.000000000000000000e+00,5.000000000000000000e+00,5.000000000000000000e+00,5.000000000000000000e+00,5.000000000000000000e+00,5.000000000000000000e+00,5.000000000000000000e+00,5.000000000000000000e+00,5.000000000000000000e+00,5.000000000000000000e+00,5.000000000000000000e+00,5.000000000000000000e+00,5.000000000000000000e+00,5.000000000000000000e+00,5.000000000000000000e+00,4.893877983093261719e+00,5.000000000000000000e+00,5.000000000000000000e+00,5.000000000000000000e+00,5.000000000000000000e+00,5.000000000000000000e+00,5.000000000000000000e+00,5.000000000000000000e+00,5.000000000000000000e+00,5.000000000000000000e+00,5.000000000000000000e+00,5.000000000000000000e+00,5.000000000000000000e+00,5.000000000000000000e+00,5.000000000000000000e+00,5.000000000000000000e+00,5.000000000000000000e+00,4.849067211151123047e+00,4.659203529357910156e+00,4.483648300170898438e+00,4.320842266082763672e+00,4.169445037841796875e+00,4.028298377990722656e+00,3.896395444869995117e+00,3.772855997085571289e+00,3.656910181045532227e+00,3.547878503799438477e+00,3.445159673690795898e+00,3.348221778869628906e+00,3.256589412689208984e+00,3.169838905334472656e+00,3.087590694427490234e+00,3.009502410888671875e+00,2.935266494750976562e+00,2.864605188369750977e+00,2.797265529632568359e+00,2.733019590377807617e+00,2.671658277511596680e+00,2.612991809844970703e+00,2.556846618652343750e+00,2.503063201904296875e+00,2.451495885848999023e+00,2.402010440826416016e+00,2.354483366012573242e+00,2.308800697326660156e+00,2.264856815338134766e+00,2.222554445266723633e+00,2.181803464889526367e+00,2.142519712448120117e+00,2.104625701904296875e+00,2.068048715591430664e+00,2.032721757888793945e+00,1.998581171035766602e+00,1.965568542480468750e+00,1.933628678321838379e+00,1.902710199356079102e+00,1.872764945030212402e+00,1.843747735023498535e+00
5.000000000000000000e+00,5.000000000000000000e+00,5.000000000000000000e+00,5.000000000000000000e+00,5.000000000000000000e+00,5.000000000000000000e+00,5.000000000000000000e+00,5.000000000000000000e+00,5.000000000000000000e+00,5.000000000000000000e+00,5.000000000000000000e+00,5.000000000000000000e+00,5.000000000000000000e+00,5.000000000000000000e+00,5.000000000000000000e+00,5.000000000000000000e+00,5.000000000000000000e+00,5.000000000000000000e+00,5.000000000000000000e+00,5.000000000000000000e+00,5.000000000000000000e+00,5.000000000000000000e+00,4.861513137817382812e+00,4.839190006256103516e+00,5.000000000000000000e+00,5.000000000000000000e+00,4.998164176940917969e+00,5.000000000000000000e+00,5.000000000000000000e+00,5.000000000000000000e+00,5.000000000000000000e+00,5.000000000000000000e+00,5.000000000000000000e+00,5.000000000000000000e+00,5.000000000000000000e+00,5.000000000000000000e+00,5.000000000000000000e+00,5.000000000000000000e+00,5.000000000000000000e+00,4.849205970764160156e+00,4.659331321716308594e+00,4.483767032623291016e+00,4.320951938629150391e+00,4.169547557830810547e+00,4.028393745422363281e+00,3.896484375000000000e+00,3.772940158843994141e+00,3.656989097595214844e+00,3.547952413558959961e+00,3.445229530334472656e+00,3.348287582397460938e+00,3.256652116775512695e+00,3.169898271560668945e+00,3.087646722793579102e+00,3.009555816650390625e+00,2.935317516326904297e+00,2.864653348922729492e+00,2.797311782836914062e+00,2.733063459396362305e+00,2.671700477600097656e+00,2.613032102584838867e+00,2.556885004043579102e+00,2.503100156784057617e+00,2.451531171798706055e+00,2.402044296264648438e+00,2.354516029357910156e+00,2.308831930160522461e+00,2.264887094497680664e+00,2.222583532333374023e+00,2.181831359863281250e+00,2.142546892166137695e+00,2.104651927947998047e+00,2.068073987960815430e+00,2.032746076583862305e+00,1.998604536056518555e+00,1.965591311454772949e+00,1.933650732040405273e+00,1.902731657028198242e+00,1.872785687446594238e+00,1.843767762184143066e+00
5.000000000000000000e+00,5.000000000000000000e+00,5.000000000000000000e+00,5.000000000000000000e+00,5.000000000000000000e+00,5.000000000000000000e+00,5.000000000000000000e+00,5.000000000000000000e+00,5.000000000000000000e+00,5.000000000000000000e+00,5.000000000000000000e+00,5.000000000000000000e+00,5.000000000000000000e+00,5.000000000000000000e+00,5.000000000000000000e+00,5.000000000000000000e+00,5.000000000000000000e+00,5.000000000000000000e+00,5.000000000000000000e+00,5.000000000000000000e+00,5.000000000000000000e+00,5.000000000000000000e+00,4.832314491271972656e+00,5.000000000000000000e+00,5.000000000000000000e+00,5.000000000000000000e+00,4.957705020904541016e+00,5.000000000000000000e+00,5.000000000000000000e+00,5.000000000000000000e+00,5.000000000000000000e+00,5.000000000000000000e+00,5.000000000000000000e+00,5.000000000000000000e+00,5.000000000000000000e+00,5.000000000000000000e+00,5.000000000000000000e+00,5.000000000000000000e+00,5.000000000000000000e+00,4.849344253540039062e+00,4.659459114074707031e+00,4.483885288238525391e+00,4.321062088012695312e+00,4.169650077819824219e+00,4.028489112854003906e+00,3.896574020385742188e+00,3.773023605346679688e+00,3.657068014144897461e+00,3.548026561737060547e+00,3.445299386978149414e+00,3.348353624343872070e+00,3.256714344024658203e+00,3.169957160949707031e+00,3.087702989578247070e+00,3.009608983993530273e+00,2.935368299484252930e+00,2.864701747894287109e+00,2.797357797622680664e+00,2.733107566833496094e+00,2.671742200851440430e+00,2.613072156906127930e+00,2.556923389434814453e+00,2.503136873245239258e+00,2.451566696166992188e+00,2.402078390121459961e+00,2.354548692703247070e+00,2.308863401412963867e+00,2.264917135238647461e+00,2.222612619400024414e+00,2.181859493255615234e+00,2.142573833465576172e+00,2.104677915573120117e+00,2.068099260330200195e+00,2.032770395278930664e+00,1.998628139495849609e+00,1.965613961219787598e+00,1.933672547340393066e+00,1.902752995491027832e+00,1.872806429862976074e+00,1.843787908554077148e+00
5.000000000000000000e+00,5.000000000000000000e+00,5.000000000000000000e+00,5.000000000000000000e+00,5.000000000000000000e+00,5.000000000000000000e+00,5.000000000000000000e+00,5.000000000000000000e+00,5.000000000000000000e+00,5.000000000000000000e+00,5.000000000000000000e+00,5.000000000000000000e+00,5.000000000000000000e+00,5.000000000000000000e+00,5.000000000000000000e+00,5.000000000000000000e+00,5.000000000000000000e+00,5.000000000000000000e+00,5.000000000000000000e+00,5.000000000000000000e+00,5.000000000000000000e+00,5.000000000000000000e+00,5.000000000000000000e+00,5.000000000000000000e+00,5.000000000000000000e+00,5.000000000000000000e+00,4.920448780059814453e+00,5.000000000000000000e+00,5.000000000000000000e+00,5.000000000000000000e+00,5.000000000000000000e+00,5.000000000000000000e+00,5.000000000000000000e+00,5.000000000000000000e+00,5.000000000000000000e+00,5.000000000000000000e+00,5.000000000000000000e+00,5.000000000000000000e+00,5.000000000000000000e+00,4.849482536315917969e+00,4.659587383270263672e+00,4.484003543853759766e+00,4.321171760559082031e+00,4.169752120971679688e+00,4.028584957122802734e+00,3.896663188934326172e+00,3.773107767105102539e+00,3.657146453857421875e+00,3.548100948333740234e+00,3.445369482040405273e+00,3.348419427871704102e+00,3.256776809692382812e+00,3.170016527175903320e+00,3.087758779525756836e+00,3.009662628173828125e+00,2.935418844223022461e+00,2.864750146865844727e+00,2.797403812408447266e+00,2.733151435852050781e+00,2.671784400939941406e+00,2.613112449645996094e+00,2.556961774826049805e+00,2.503173828125000000e+00,2.451601982116699219e+00,2.402112483978271484e+00,2.354581356048583984e+00,2.308894634246826172e+00,2.264947414398193359e+00,2.222641706466674805e+00,2.181887388229370117e+00,2.142601013183593750e+00,2.104703903198242188e+00,2.068124294281005859e+00,2.032794713973999023e+00,1.998651623725891113e+00,1.965636730194091797e+00,1.933694601058959961e+00,1.902774095535278320e+00,1.872827053070068359e+00,1.843807935714721680e+00
5.000000000000000000e+00,5.000000000000000000e+00,5.000000000000000000e+00,5.000000000000000000e+00,5.000000000000000000e+00,5.000000000000000000e+00,5.000000000000000000e+00,5.000000000000000000e+00,5.000000000000000000e+00,5.000000000000000000e+00,5.000000000000000000e+00,5.000000000000000000e+00,5.000000000000000000e+00,5.000000000000000000e+00,5.000000000000000000e+00,5.000000000000000000e+00,5.000000000000000000e+00,5.000000000000000000e+00,5.000000000000000000e+00,5.000000000000000000e+00,5.000000000000000000e+00,5.000000000000000000e+00,5.000000000000000000e+00,5.000000000000000000e+00,5.000000000000000000e+00,5.000000000000000000e+00,4.904147148132324219e+00,5.000000000000000000e+00,5.000000000000000000e+00,5.000000000000000000e+00,5.000000000000000000e+00,5.000000000000000000e+00,5.000000000000000000e+00,5.000000000000000000e+00,5.000000000000000000e+00,5.000000000000000000e+00,5.000000000000000000e+00,5.000000000000000000e+00,5.000000000000000000e+00,4.849619865417480469e+00,4.659715175628662109e+00,4.484122276306152344e+00,4.321281909942626953e+00,4.169854640960693359e+00,4.028680324554443359e+00,3.896752834320068359e+00,3.773191213607788086e+00,3.657225370407104492e+00,3.548174858093261719e+00,3.445439338684082031e+00,3.348485708236694336e+00,3.256839275360107422e+00,3.170075893402099609e+00,3.087815046310424805e+00,3.009715795516967773e+00,2.935469627380371094e+00,2.864798307418823242e+00,2.797450065612792969e+00,2.733195543289184570e+00,2.671826362609863281e+00,2.613152742385864258e+00,2.557000398635864258e+00,2.503210544586181641e+00,2.451637506484985352e+00,2.402146339416503906e+00,2.354614019393920898e+00,2.308926105499267578e+00,2.264977455139160156e+00,2.222670793533325195e+00,2.181915521621704102e+00,2.142627954483032227e+00,2.104730129241943359e+00,2.068149566650390625e+00,2.032819032669067383e+00,1.998675227165222168e+00,1.965659499168395996e+00,1.933716654777526855e+00,1.902795433998107910e+00,1.872847557067871094e+00,1.843827962875366211e+00
5.000000000000000000e+00,5.000000000000000000e+00,5.000000000000000000e+00,5.000000000000000000e+00,5.000000000000000000e+00,5.000000000000000000e+00,5.000000000000000000e+00,5.000000000000000000e+00,5.000000000000000000e+00,5.000000000000000000e+00,5.000000000000000000e+00,5.000000000000000000e+00,5.000000000000000000e+00,5.000000000000000000e+00,5.000000000000000000e+00,5.000000000000000000e+00,5.000000000000000000e+00,5.000000000000000000e+00,5.000000000000000000e+00,5.000000000000000000e+00,5.000000000000000000e+00,5.000000000000000000e+00,5.000000000000000000e+00,5.000000000000000000e+00,5.000000000000000000e+00,5.000000000000000000e+00,4.925837993621826172e+00,5.000000000000000000e+00,5.000000000000000000e+00,5.000000000000000000e+00,5.000000000000000000e+00,5.000000000000000000e+00,5.000000000000000000e+00,5.000000000000000000e+00,5.000000000000000000e+00,5.000000000000000000e+00,5.000000000000000000e+00,5.000000000000000000e+00,5.000000000000000000e+00,4.849758148193359375e+00,4.659842967987060547e+00,4.484240531921386719e+00,4.321392059326171875e+00,4.169956684112548828e+00,4.028776168823242188e+00,3.896842479705810547e+00,3.773275375366210938e+00,3.657304048538208008e+00,3.548249006271362305e+00,3.445509195327758789e+00,3.348551750183105469e+00,3.256901741027832031e+00,3.170134782791137695e+00,3.087871313095092773e+00,3.009769201278686523e+00,2.935520410537719727e+00,2.864846706390380859e+00,2.797496080398559570e+00,2.733239412307739258e+00,2.671868324279785156e+00,2.613192796707153320e+00,2.557039022445678711e+00,2.503247499465942383e+00,2.451672792434692383e+00,2.402180433273315430e+00,2.354646682739257812e+00,2.308957576751708984e+00,2.265007734298706055e+00,2.222699880599975586e+00,2.181943655014038086e+00,2.142654895782470703e+00,2.104756116867065430e+00,2.068174839019775391e+00,2.032843351364135742e+00,1.998698830604553223e+00,1.965682268142700195e+00,1.933738708496093750e+00,1.902816891670227051e+00,1.872868299484252930e+00,1.843847870826721191e+00
5.000000000000000000e+00,5.000000000000000000e+00,5.000000000000000000e+00,5.000000000000000000e+00,5.000000000000000000e+00,5.000000000000000000e+00,5.000000000000000000e+00,5.000000000000000000e+00,5.000000000000000000e+00,5.000000000000000000e+00,5.000000000000000000e+00,5.000000000000000000e+00,5.000000000000000000e+00,5.000000000000000000e+00,5.000000000000000000e+00,5.000000000000000000e+00,5.000000000000000000e+00,5.000000000000000000e+00,5.000000000000000000e+00,5.000000000000000000e+00,5.000000000000000000e+00,5.000000000000000000e+00,5.000000000000000000e+00,5.000000000000000000e+00,5.000000000000000000e+00,5.000000000000000000e+00,4.918879032135009766e+00,5.000000000000000000e+00,5.000000000000000000e+00,5.000000000000000000e+00,5.000000000000000000e+00,5.000000000000000000e+00,5.000000000000000000e+00,5.000000000000000000e+00,5.000000000000000000e+00,5.000000000000000000e+00,5.000000000000000000e+00,5.000000000000000000e+00,5.000000000000000000e+00,4.849896430969238281e+00,4.659969806671142578e+00,4.484358787536621094e+00,4.321501731872558594e+00,4.170059204101562500e+00,4.028871536254882812e+00,3.896931648254394531e+00,3.773359298706054688e+00,3.657382965087890625e+00,3.548322916030883789e+00,3.445579290390014648e+00,3.348617553710937500e+00,3.256963968276977539e+00,3.170194149017333984e+00,3.087927341461181641e+00,3.009822607040405273e+00,2.935571193695068359e+00,2.864894866943359375e+00,2.797542095184326172e+00,2.733283281326293945e+00,2.671910285949707031e+00,2.613233089447021484e+00,2.557077407836914062e+00,2.503284692764282227e+00,2.451708316802978516e+00,2.402214288711547852e+00,2.354679346084594727e+00,2.308988809585571289e+00,2.265038013458251953e+00,2.222728967666625977e+00,2.181971549987792969e+00,2.142682075500488281e+00,2.104782342910766602e+00,2.068199872970581055e+00,2.032867670059204102e+00,1.998722195625305176e+00,1.965704917907714844e+00,1.933760881423950195e+00,1.902838230133056641e+00,1.872888922691345215e+00,1.843867897987365723e+00
5.000000000000000000e+00,5.000000000000000000e+00,5.000000000000000000e+00,5.000000000000000000e+00,5.000000000000000000e+00,5.000000000000000000e+00,5.000000000000000000e+00,5.000000000000000000e+00,5.000000000000000000e+00,5.000000000000000000e+00,5.000000000000000000e+00,5.000000000000000000e+00,5.000000000000000000e+00,5.000000000000000000e+00,5.000000000000000000e+00,5.000000000000000000e+00,5.000000000000000000e+00,5.000000000000000000e+00,5.000000000000000000e+00,5.000000000000000000e+00,5.000000000000000000e+00,5.000000000000000000e+00,5.000000000000000000e+00,5.000000000000000000e+00,5.000000000000000000e+00,5.000000000000000000e+00,4.905413150787353516e+00,5.000000000000000000e+00,5.000000000000000000e+00,5.000000000000000000e+00,5.000000000000000000e+00,5.000000000000000000e+00,5.000000000000000000e+00,5.000000000000000000e+00,5.000000000000000000e+00,5.000000000000000000e+00,5.000000000000000000e+00,5.000000000000000000e+00,5.000000000000000000e+00,4.850034713745117188e+00,4.660097599029541016e+00,4.484476089477539062e+00,4.321611881256103516e+00,4.170161724090576172e+00,4.028967380523681641e+00,3.897021293640136719e+00,3.773442983627319336e+00,3.657461881637573242e+00,3.548397302627563477e+00,3.445648908615112305e+00,3.348683834075927734e+00,3.257026672363281250e+00,3.170253276824951172e+00,3.087983608245849609e+00,3.009875774383544922e+00,2.935621976852416992e+00,2.864943504333496094e+00,2.797588109970092773e+00,2.733327388763427734e+00,2.671952486038208008e+00,2.613273143768310547e+00,2.557116031646728516e+00,2.503321409225463867e+00,2.451743841171264648e+00,2.402248382568359375e+00,2.354712009429931641e+00,2.309020280838012695e+00,2.265068292617797852e+00,2.222758054733276367e+00,2.181999683380126953e+00,2.142709016799926758e+00,2.104808330535888672e+00,2.068225145339965820e+00,2.032891988754272461e+00,1.998745679855346680e+00,1.965727686882019043e+00,1.933782696723937988e+00,1.902859568595886230e+00,1.872909665107727051e+00,1.843887925148010254e+00
5.000000000000000000e+00,5.000000000000000000e+00,5.000000000000000000e+00,5.000000000000000000e+00,5.000000000000000000e+00,5.000000000000000000e+00,5.000000000000000000e+00,5.000000000000000000e+00,5.000000000000000000e+00,5.000000000000000000e+00,5.000000000000000000e+00,5.000000000000000000e+00,5.000000000000000000e+00,5.000000000000000000e+00,5.000000000000000000e+00,5.000000000000000000e+00,5.000000000000000000e+00,5.000000000000000000e+00,5.000000000000000000e+00,5.000000000000000000e+00,5.000000000000000000e+00,5.000000000000000000e+00,5.000000000000000000e+00,5.000000000000000000e+00,5.000000000000000000e+00,5.000000000000000000e+00,4.903928756713867188e+00,5.000000000000000000e+00,5.000000000000000000e+00,5.000000000000000000e+00,5.000000000000000000e+00,5.000000000000000000e+00,5.000000000000000000e+00,5.000000000000000000e+00,5.000000000000000000e+00,5.000000000000000000e+00,5.000000000000000000e+00,5.000000000000000000e+00,5.000000000000000000e+00,4.850173473358154297e+00,4.660224914550781250e+00,4.484594821929931641e+00,4.321721076965332031e+00,4.170264244079589844e+00,4.029062747955322266e+00,3.897110462188720703e+00,3.773526906967163086e+00,3.657540321350097656e+00,3.548471689224243164e+00,3.445719003677368164e+00,3.348749637603759766e+00,3.257089376449584961e+00,3.170312404632568359e+00,3.088039636611938477e+00,3.009929180145263672e+00,2.935672521591186523e+00,2.864991903305053711e+00,2.797634363174438477e+00,2.733371257781982422e+00,2.671994686126708984e+00,2.613313436508178711e+00,2.557154417037963867e+00,2.503358364105224609e+00,2.451779127120971680e+00,2.402282476425170898e+00,2.354744672775268555e+00,2.309051513671875000e+00,2.265098571777343750e+00,2.222787141799926758e+00,2.182027578353881836e+00,2.142736196517944336e+00,2.104834318161010742e+00,2.068250417709350586e+00,2.032916307449340820e+00,1.998769283294677734e+00,1.965750455856323242e+00,1.933804750442504883e+00,1.902880787849426270e+00,1.872930407524108887e+00,1.843908071517944336e+00
5.000000000000000000e+00,5.000000000000000000e+00,5.000000000000000000e+00,5.000000000000000000e+00,5.000000000000000000e+00,5.000000000000000000e+00,5.000000000000000000e+00,5.000000000000000000e+00,5.000000000000000000e+00,5.000000000000000000e+00,5.000000000000000000e+00,5.000000000000000000e+00,5.000000000000000000e+00,5.000000000000000000e+00,5.000000000000000000e+00,5.000000000000000000e+00,5.000000000000000000e+00,5.000000000000000000e+00,5.000000000000000000e+00,5.000000000000000000e+00,5.000000000000000000e+00,5.000000000000000000e+00,5.000000000000000000e+00,5.000000000000000000e+00,5.000000000000000000e+00,5.000000000000000000e+00,4.921811580657958984e+00,4.762200832366943359e+00,5.000000000000000000e+00,5.000000000000000000e+00,5.000000000000000000e+00,5.000000000000000000e+00,5.000000000000000000e+00,5.000000000000000000e+00,5.000000000000000000e+00,5.000000000000000000e+00,5.000000000000000000e+00,5.000000000000000000e+00,5.000000000000000000e+00,4.850311279296875000e+00,4.660353183746337891e+00,4.484712600708007812e+00,4.321830749511718750e+00,4.170366764068603516e+00,4.029158592224121094e+00,3.897200107574462891e+00,3.773610591888427734e+00,3.657619237899780273e+00,3.548545598983764648e+00,3.445789098739624023e+00,3.348815917968750000e+00,3.257151603698730469e+00,3.170371770858764648e+00,3.088095903396606445e+00,3.009982347488403320e+00,2.935723543167114258e+00,2.865040063858032227e+00,2.797680377960205078e+00,2.733415365219116211e+00,2.672036409378051758e+00,2.613353729248046875e+00,2.557193040847778320e+00,2.503395080566406250e+00,2.451814413070678711e+00,2.402316331863403320e+00,2.354777336120605469e+00,2.309082984924316406e+00,2.265128612518310547e+00,2.222816228866577148e+00,2.182055711746215820e+00,2.142763137817382812e+00,2.104860544204711914e+00,2.068275451660156250e+00,2.032940626144409180e+00,1.998792886734008789e+00,1.965773344039916992e+00,1.933826804161071777e+00,1.902902126312255859e+00,1.872950911521911621e+00,1.843928098678588867e+00
4.874906063079833984e+00,4.873695850372314453e+00,4.872486114501953125e+00,4.871276855468750000e+00,4.870068073272705078e+00,4.868859767913818359e+00,4.867652416229248047e+00,4.866445541381835938e+00,4.865239143371582031e+00,4.864033699035644531e+00,4.862828731536865234e+00,4.861624717712402344e+00,4.860420703887939453e+00,4.859217643737792969e+00,4.858014583587646484e+00,4.856812953948974609e+00,4.855611324310302734e+00,4.854410648345947266e+00,4.853209972381591797e+00,4.852010726928710938e+00,4.850811481475830078e+00,4.849612712860107422e+00,4.848414897918701172e+00,4.847217559814453125e+00,4.846021175384521484e+00,4.844825267791748047e+00,4.843629837036132812e+00,4.842434883117675781e+00,4.841240406036376953e+00,4.840046405792236328e+00,4.838853359222412109e+00,4.837660789489746094e+00,4.836468696594238281e+00,4.835277080535888672e+00,4.834086418151855469e+00,4.832896232604980469e+00,4.831706523895263672e+00,4.830517768859863281e+00,4.829329013824462891e+00,4.828141212463378906e+00,4.660480499267578125e+00,4.484831333160400391e+00,4.321940422058105469e+00,4.170468330383300781e+00,4.029253959655761719e+00,3.897289514541625977e+00,3.773694515228271484e+00,3.657697916030883789e+00,3.548619747161865234e+00,3.445858716964721680e+00,3.348881959915161133e+00,3.257214069366455078e+00,3.170430898666381836e+00,3.088152170181274414e+00,3.010035991668701172e+00,2.935774087905883789e+00,2.865088462829589844e+00,2.797726392745971680e+00,2.733459472656250000e+00,2.672078609466552734e+00,2.613393783569335938e+00,2.557231664657592773e+00,2.503432035446166992e+00,2.451849699020385742e+00,2.402350425720214844e+00,2.354809999465942383e+00,2.309114456176757812e+00,2.265158891677856445e+00,2.222845315933227539e+00,2.182083845138549805e+00,2.142790079116821289e+00,2.104886531829833984e+00,2.068300724029541016e+00,2.032964944839477539e+00,1.998816490173339844e+00,1.965796113014221191e+00,1.933848857879638672e+00,1.902923464775085449e+00,1.872971534729003906e+00,1.843948006629943848e+00
3.777739763259887695e+00,3.777013063430786133e+00,3.776286602020263672e+00,3.775559902191162109e+00,3.774833917617797852e+00,3.774107933044433594e+00,3.773382663726806641e+00,3.772657155990600586e+00,3.771932363510131836e+00,3.771207332611083984e+00,3.770483255386352539e+00,3.769758939743041992e+00,3.769035100936889648e+00,3.768311500549316406e+00,3.767588376998901367e+00,3.766865491867065430e+00,3.766142606735229492e+00,3.765420198440551758e+00,3.764697790145874023e+00,3.763976097106933594e+00,3.763254165649414062e+00,3.762532949447631836e+00,3.761811733245849609e+00,3.761091232299804688e+00,3.760370492935180664e+00,3.759650230407714844e+00,3.758930206298828125e+00,3.758210659027099609e+00,3.757491350173950195e+00,3.756772041320800781e+00,3.756053209304809570e+00,3.755334377288818359e+00,3.754616260528564453e+00,3.753898143768310547e+00,3.753180503845214844e+00,3.752462625503540039e+00,3.751745700836181641e+00,3.751028537750244141e+00,3.750312089920043945e+00,3.749595880508422852e+00,3.748879432678222656e+00,3.748163700103759766e+00,3.747447967529296875e+00,3.746732711791992188e+00,3.746017456054687500e+00,3.745302915573120117e+00,3.744588136672973633e+00,3.657776832580566406e+00,3.548693656921386719e+00,3.445928812026977539e+00,3.348947763442993164e+00,3.257276773452758789e+00,3.170490026473999023e+00,3.088208198547363281e+00,3.010089397430419922e+00,2.935824871063232422e+00,2.865136623382568359e+00,2.797772645950317383e+00,2.733503341674804688e+00,2.672120809555053711e+00,2.613434076309204102e+00,2.557270050048828125e+00,2.503468990325927734e+00,2.451885223388671875e+00,2.402384281158447266e+00,2.354842662811279297e+00,2.309145927429199219e+00,2.265189170837402344e+00,2.222874402999877930e+00,2.182111740112304688e+00,2.142817258834838867e+00,2.104912757873535156e+00,2.068325757980346680e+00,2.032989501953125000e+00,1.998839735984802246e+00,1.965818881988525391e+00,1.933870911598205566e+00,1.902944803237915039e+00,1.872992277145385742e+00,1.843968033790588379e+00
3.083708047866821289e+00,3.083223581314086914e+00,3.082739591598510742e+00,3.082255363464355469e+00,3.081771373748779297e+00,3.081287860870361328e+00,3.080804109573364258e+00,3.080320596694946289e+00,3.079837322235107422e+00,3.079354286193847656e+00,3.078871011734008789e+00,3.078388214111328125e+00,3.077905416488647461e+00,3.077423095703125000e+00,3.076940536499023438e+00,3.076458215713500977e+00,3.075976133346557617e+00,3.075494289398193359e+00,3.075012445449829102e+00,3.074530839920043945e+00,3.074049234390258789e+00,3.073567867279052734e+00,3.073086738586425781e+00,3.072605609893798828e+00,3.072124719619750977e+00,3.071643829345703125e+00,3.071163415908813477e+00,3.070682764053344727e+00,3.070202589035034180e+00,3.069722414016723633e+00,3.069242477416992188e+00,3.068762779235839844e+00,3.068282842636108398e+00,3.067803382873535156e+00,3.067323923110961914e+00,3.066844701766967773e+00,3.066365480422973633e+00,3.065886735916137695e+00,3.065407752990722656e+00,3.064929246902465820e+00,3.064450740814208984e+00,3.063972473144531250e+00,3.063494205474853516e+00,3.063016176223754883e+00,3.062538385391235352e+00,3.062060594558715820e+00,3.061583042144775391e+00,3.061105489730834961e+00,3.060628175735473633e+00,3.060150861740112305e+00,3.059674024581909180e+00,3.059196949005126953e+00,3.058720350265502930e+00,3.058243751525878906e+00,3.010142564773559570e+00,2.935875892639160156e+00,2.865185022354125977e+00,2.797818660736083984e+00,2.733547449111938477e+00,2.672162771224975586e+00,2.613474369049072266e+00,2.557308435440063477e+00,2.503505945205688477e+00,2.451920747756958008e+00,2.402418375015258789e+00,2.354875087738037109e+00,2.309177398681640625e+00,2.265219211578369141e+00,2.222903490066528320e+00,2.182139873504638672e+00,2.142844200134277344e+00,2.104938983917236328e+00,2.068351030349731445e+00,2.033013582229614258e+00,1.998863339424133301e+00,1.965841412544250488e+00,1.933892846107482910e+00,1.902966141700744629e+00,1.873012900352478027e+00,1.843988060951232910e+00
2.605107545852661133e+00,2.604762077331542969e+00,2.604416370391845703e+00,2.604070901870727539e+00,2.603725433349609375e+00,2.603379964828491211e+00,2.603034734725952148e+00,2.602689743041992188e+00,2.602344512939453125e+00,2.601999521255493164e+00,2.601654767990112305e+00,2.601310014724731445e+00,2.600965261459350586e+00,2.600620508193969727e+00,2.600276231765747070e+00,2.599931716918945312e+00,2.599587440490722656e+00,2.599243164062500000e+00,2.598898887634277344e+00,2.598554849624633789e+00,2.598211050033569336e+00,2.597867250442504883e+00,2.597523212432861328e+00,2.597179651260375977e+00,2.596835851669311523e+00,2.596492528915405273e+00,2.596148967742919922e+00,2.595805883407592773e+00,2.595462322235107422e+00,2.595119476318359375e+00,2.594776153564453125e+00,2.594433307647705078e+00,2.594090461730957031e+00,2.593747615814208984e+00,2.593405008316040039e+00,2.593062400817871094e+00,2.592720031738281250e+00,2.592377424240112305e+00,2.592035055160522461e+00,2.591692686080932617e+00,2.591350793838500977e+00,2.591008663177490234e+00,2.590666770935058594e+00,2.590324640274047852e+00,2.589982986450195312e+00,2.589641332626342773e+00,2.589299678802490234e+00,2.588958263397216797e+00,2.588616609573364258e+00,2.588275432586669922e+00,2.587934017181396484e+00,2.587593078613281250e+00,2.587251901626586914e+00,2.586910963058471680e+00,2.586570024490356445e+00,2.586229324340820312e+00,2.585888385772705078e+00,2.585547924041748047e+00,2.585207462310791016e+00,2.584867000579833984e+00,2.584526777267456055e+00,2.557346820831298828e+00,2.503542900085449219e+00,2.451956033706665039e+00,2.402452230453491211e+00,2.354907989501953125e+00,2.309208631515502930e+00,2.265249490737915039e+00,2.222932577133178711e+00,2.182167768478393555e+00,2.142871379852294922e+00,2.104964971542358398e+00,2.068376302719116211e+00,2.033038139343261719e+00,1.998886942863464355e+00,1.965864300727844238e+00,1.933914899826049805e+00,1.902987360954284668e+00,1.873033642768859863e+00,1.844008088111877441e+00
2.255145311355590820e+00,2.254884958267211914e+00,2.254624366760253906e+00,2.254363775253295898e+00,2.254103183746337891e+00,2.253842830657958984e+00,2.253582477569580078e+00,2.253322362899780273e+00,2.253062009811401367e+00,2.252801895141601562e+00,2.252541780471801758e+00,2.252281665802001953e+00,2.252021789550781250e+00,2.251761913299560547e+00,2.251502037048339844e+00,2.251242160797119141e+00,2.250982522964477539e+00,2.250722885131835938e+00,2.250463247299194336e+00,2.250203847885131836e+00,2.249944210052490234e+00,2.249684810638427734e+00,2.249425411224365234e+00,2.249166011810302734e+00,2.248907566070556641e+00,2.248649835586547852e+00,2.248392343521118164e+00,2.248134613037109375e+00,2.247877359390258789e+00,2.247619867324829102e+00,2.247362613677978516e+00,2.247105121612548828e+00,2.246848106384277344e+00,2.246590852737426758e+00,2.246333837509155273e+00,2.246076583862304688e+00,2.245819807052612305e+00,2.245562791824340820e+00,2.245305776596069336e+00,2.245049238204956055e+00,2.244792222976684570e+00,2.244535684585571289e+00,2.244278907775878906e+00,2.244022369384765625e+00,2.243765830993652344e+00,2.243509531021118164e+00,2.243252992630004883e+00,2.242996692657470703e+00,2.242740392684936523e+00,2.242484331130981445e+00,2.242228031158447266e+00,2.241971969604492188e+00,2.241715908050537109e+00,2.241459846496582031e+00,2.241204023361206055e+00,2.240947961807250977e+00,2.240692377090454102e+00,2.240436553955078125e+00,2.240180969238281250e+00,2.239925146102905273e+00,2.239669561386108398e+00,2.239414215087890625e+00,2.239158630371093750e+00,2.238903284072875977e+00,2.238647937774658203e+00,2.238392591476440430e+00,2.238137245178222656e+00,2.237882137298583984e+00,2.222961902618408203e+00,2.182195901870727539e+00,2.142898321151733398e+00,2.104990959167480469e+00,2.068401336669921875e+00,2.033062458038330078e+00,1.998910546302795410e+00,1.965887069702148438e+00,1.933936953544616699e+00,1.903008699417114258e+00,1.873054146766662598e+00,1.844028234481811523e+00
1.988141894340515137e+00,1.987939596176147461e+00,1.987736940383911133e+00,1.987534523010253906e+00,1.987331986427307129e+00,1.987129569053649902e+00,1.986927151679992676e+00,1.986724853515625000e+00,1.986522555351257324e+00,1.986320257186889648e+00,1.986118078231811523e+00,1.985915899276733398e+00,1.985713720321655273e+00,1.985511898994445801e+00,1.985309839248657227e+00,1.985107779502868652e+00,1.984905838966369629e+00,1.984703898429870605e+00,1.984502077102661133e+00,1.984300136566162109e+00,1.984098315238952637e+00,1.983896613121032715e+00,1.983694791793823242e+00,1.983493208885192871e+00,1.983291745185852051e+00,1.983090162277221680e+00,1.982888579368591309e+00,1.982686996459960938e+00,1.982485532760620117e+00,1.982284069061279297e+00,1.982082724571228027e+00,1.981881380081176758e+00,1.981680035591125488e+00,1.981478810310363770e+00,1.981277465820312500e+00,1.981076359748840332e+00,1.980875372886657715e+00,1.980674266815185547e+00,1.980473160743713379e+00,1.980272173881530762e+00,1.980071187019348145e+00,1.979870200157165527e+00,1.979669332504272461e+00,1.979468464851379395e+00,1.979267597198486328e+00,1.979066848754882812e+00,1.978865981101989746e+00,1.978665590286254883e+00,1.978464841842651367e+00,1.978264212608337402e+00,1.978063702583312988e+00,1.977863073348999023e+00,1.977662563323974609e+00,1.977462172508239746e+00,1.977261781692504883e+00,1.977061390876770020e+00,1.976861000061035156e+00,1.976660728454589844e+00,1.976460695266723633e+00,1.976260423660278320e+00,1.976060271263122559e+00,1.975860118865966797e+00,1.975659966468811035e+00,1.975459933280944824e+00,1.975259900093078613e+00,1.975059986114501953e+00,1.974859952926635742e+00,1.974660038948059082e+00,1.974460244178771973e+00,1.974260449409484863e+00,1.974060893058776855e+00,1.973861098289489746e+00,1.973661422729492188e+00,1.973461747169494629e+00,1.973262190818786621e+00,1.965909838676452637e+00,1.933959007263183594e+00,1.903030037879943848e+00,1.873074889183044434e+00,1.844048023223876953e+00
1.777670383453369141e+00,1.777508378028869629e+00,1.777346491813659668e+00,1.777184605598449707e+00,1.777022719383239746e+00,1.776860833168029785e+00,1.776699066162109375e+00,1.776537418365478516e+00,1.776375651359558105e+00,1.776213884353637695e+00,1.776052236557006836e+00,1.775890588760375977e+00,1.775728940963745117e+00,1.775567293167114258e+00,1.775405645370483398e+00,1.775244116783142090e+00,1.775082588195800781e+00,1.774921059608459473e+00,1.774759650230407715e+00,1.774598360061645508e+00,1.774436950683593750e+00,1.774275541305541992e+00,1.774114251136779785e+00,1.773952841758728027e+00,1.773791551589965820e+00,1.773630380630493164e+00,1.773469090461730957e+00,1.773307919502258301e+00,1.773146748542785645e+00,1.772985577583312988e+00,1.772824645042419434e+00,1.772663474082946777e+00,1.772502422332763672e+00,1.772341370582580566e+00,1.772180438041687012e+00,1.772019386291503906e+00,1.771858453750610352e+00,1.771697521209716797e+00,1.771536707878112793e+00,1.771375775337219238e+00,1.771214962005615234e+00,1.771054387092590332e+00,1.770893573760986328e+00,1.770732879638671875e+00,1.770572185516357422e+00,1.770411491394042969e+00,1.770250797271728516e+00,1.770090222358703613e+00,1.769929647445678711e+00,1.769769072532653809e+00,1.769608497619628906e+00,1.769448041915893555e+00,1.769287467002868652e+00,1.769127249717712402e+00,1.768966794013977051e+00,1.768806457519531250e+00,1.768646121025085449e+00,1.768485784530639648e+00,1.768325448036193848e+00,1.768165111541748047e+00,1.768004894256591797e+00,1.767844676971435547e+00,1.767684459686279297e+00,1.767524361610412598e+00,1.767364382743835449e+00,1.767204284667968750e+00,1.767044186592102051e+00,1.766884207725524902e+00,1.766724228858947754e+00,1.766564249992370605e+00,1.766404271125793457e+00,1.766244292259216309e+00,1.766084432601928711e+00,1.765924572944641113e+00,1.765764713287353516e+00,1.765605092048645020e+00,1.765445351600646973e+00,1.765285611152648926e+00,1.765125870704650879e+00,1.764966130256652832e+00
1.607495307922363281e+00,1.607362985610961914e+00,1.607230544090270996e+00,1.607098221778869629e+00,1.606965780258178711e+00,1.606833457946777344e+00,1.606701135635375977e+00,1.606568813323974609e+00,1.606436491012573242e+00,1.606304168701171875e+00,1.606171965599060059e+00,1.606039762496948242e+00,1.605907559394836426e+00,1.605775475502014160e+00,1.605643391609191895e+00,1.605511188507080078e+00,1.605379104614257812e+00,1.605247020721435547e+00,1.605114936828613281e+00,1.604982852935791016e+00,1.604850769042968750e+00,1.604718804359436035e+00,1.604586839675903320e+00,1.604454874992370605e+00,1.604323029518127441e+00,1.604191064834594727e+00,1.604059219360351562e+00,1.603927373886108398e+00,1.603795528411865234e+00,1.603663682937622070e+00,1.603531837463378906e+00,1.603399991989135742e+00,1.603268265724182129e+00,1.603136539459228516e+00,1.603004813194274902e+00,1.602873086929321289e+00,1.602741479873657227e+00,1.602609872817993164e+00,1.602478265762329102e+00,1.602346658706665039e+00,1.602215051651000977e+00,1.602083444595336914e+00,1.601951837539672852e+00,1.601820349693298340e+00,1.601688861846923828e+00,1.601557374000549316e+00,1.601425886154174805e+00,1.601294517517089844e+00,1.601163148880004883e+00,1.601031780242919922e+00,1.600900411605834961e+00,1.600769042968750000e+00,1.600637674331665039e+00,1.600506305694580078e+00,1.600375056266784668e+00,1.600243806838989258e+00,1.600112557411193848e+00,1.599981188774108887e+00,1.599850177764892578e+00,1.599718928337097168e+00,1.599587798118591309e+00,1.599456667900085449e+00,1.599325537681579590e+00,1.599194407463073730e+00,1.599063396453857422e+00,1.598932266235351562e+00,1.598801255226135254e+00,1.598670244216918945e+00,1.598539233207702637e+00,1.598408341407775879e+00,1.598277449607849121e+00,1.598146557807922363e+00,1.598015666007995605e+00,1.597884774208068848e+00,1.597753882408142090e+00,1.597622990608215332e+00,1.597492218017578125e+00,1.597361445426940918e+00,1.597230672836303711e+00,1.597099900245666504e+00
1.467055320739746094e+00,1.466944932937622070e+00,1.466834664344787598e+00,1.466724395751953125e+00,1.466614127159118652e+00,1.466503858566284180e+00,1.466393589973449707e+00,1.466283559799194336e+00,1.466173291206359863e+00,1.466063141822814941e+00,1.465952992439270020e+00,1.465842843055725098e+00,1.465732693672180176e+00,1.465622544288635254e+00,1.465512514114379883e+00,1.465402364730834961e+00,1.465292334556579590e+00,1.465182304382324219e+00,1.465072274208068848e+00,1.464962363243103027e+00,1.464852333068847656e+00,1.464742302894592285e+00,1.464632391929626465e+00,1.464522480964660645e+00,1.464412450790405273e+00,1.464302539825439453e+00,1.464192628860473633e+00,1.464082837104797363e+00,1.463972926139831543e+00,1.463863015174865723e+00,1.463753342628479004e+00,1.463643550872802734e+00,1.463533759117126465e+00,1.463423967361450195e+00,1.463314175605773926e+00,1.463204383850097656e+00,1.463094711303710938e+00,1.462984919548034668e+00,1.462875247001647949e+00,1.462765574455261230e+00,1.462655901908874512e+00,1.462546348571777344e+00,1.462436676025390625e+00,1.462327122688293457e+00,1.462217450141906738e+00,1.462107896804809570e+00,1.461998343467712402e+00,1.461888790130615234e+00,1.461779236793518066e+00,1.461669683456420898e+00,1.461560249328613281e+00,1.461450695991516113e+00,1.461341261863708496e+00,1.461231946945190430e+00,1.461122512817382812e+00,1.461013078689575195e+00,1.460903644561767578e+00,1.460794210433959961e+00,1.460684895515441895e+00,1.460575580596923828e+00,1.460466146469116211e+00,1.460356831550598145e+00,1.460247516632080078e+00,1.460138201713562012e+00,1.460029125213623047e+00,1.459919810295104980e+00,1.459810614585876465e+00,1.459701418876647949e+00,1.459592103958129883e+00,1.459482908248901367e+00,1.459373831748962402e+00,1.459264636039733887e+00,1.459155440330505371e+00,1.459046363830566406e+00,1.458937168121337891e+00,1.458828210830688477e+00,1.458719134330749512e+00,1.458610057830810547e+00,1.458501100540161133e+00,1.458392024040222168e+00
1.349182724952697754e+00,1.349089622497558594e+00,1.348996281623840332e+00,1.348903059959411621e+00,1.348809719085693359e+00,1.348716497421264648e+00,1.348623275756835938e+00,1.348530054092407227e+00,1.348436832427978516e+00,1.348343610763549805e+00,1.348250389099121094e+00,1.348157286643981934e+00,1.348064064979553223e+00,1.347971081733703613e+00,1.347877979278564453e+00,1.347784757614135742e+00,1.347691655158996582e+00,1.347598671913146973e+00,1.347505569458007812e+00,1.347412467002868652e+00,1.347319483757019043e+00,1.347226381301879883e+00,1.347133398056030273e+00,1.347040295600891113e+00,1.346947431564331055e+00,1.346854448318481445e+00,1.346761465072631836e+00,1.346668481826782227e+00,1.346575617790222168e+00,1.346482634544372559e+00,1.346389651298522949e+00,1.346296787261962891e+00,1.346203923225402832e+00,1.346110939979553223e+00,1.346018075942993164e+00,1.345925211906433105e+00,1.345832467079162598e+00,1.345739603042602539e+00,1.345646858215332031e+00,1.345553994178771973e+00,1.345461249351501465e+00,1.345368385314941406e+00,1.345275640487670898e+00,1.345182895660400391e+00,1.345090150833129883e+00,1.344997406005859375e+00,1.344904661178588867e+00,1.344812035560607910e+00,1.344719409942626953e+00,1.344626665115356445e+00,1.344534039497375488e+00,1.344441413879394531e+00,1.344348669052124023e+00,1.344256043434143066e+00,1.344163417816162109e+00,1.344070792198181152e+00,1.343978285789489746e+00,1.343885660171508789e+00,1.343793153762817383e+00,1.343700647354125977e+00,1.343608140945434570e+00,1.343515515327453613e+00,1.343423008918762207e+00,1.343330502510070801e+00,1.343237996101379395e+00,1.343145489692687988e+00,1.343053102493286133e+00,1.342960596084594727e+00,1.342868208885192871e+00,1.342775702476501465e+00,1.342683434486389160e+00,1.342591047286987305e+00,1.342498660087585449e+00,1.342406272888183594e+00,1.342313885688781738e+00,1.342221498489379883e+00,1.342129230499267578e+00,1.342036843299865723e+00,1.341944575309753418e+00,1.341852188110351562e+00
1.248842954635620117e+00,1.248762965202331543e+00,1.248683094978332520e+00,1.248603224754333496e+00,1.248523235321044922e+00,1.248443365097045898e+00,1.248363494873046875e+00,1.248283743858337402e+00,1.248203873634338379e+00,1.248124003410339355e+00,1.248044133186340332e+00,1.247964262962341309e+00,1.247884392738342285e+00,1.247804641723632812e+00,1.247724771499633789e+00,1.247645020484924316e+00,1.247565269470214844e+00,1.247485399246215820e+00,1.247405648231506348e+00,1.247326016426086426e+00,1.247246265411376953e+00,1.247166514396667480e+00,1.247086763381958008e+00,1.247007131576538086e+00,1.246927380561828613e+00,1.246847748756408691e+00,1.246767997741699219e+00,1.246688365936279297e+00,1.246608614921569824e+00,1.246528983116149902e+00,1.246449470520019531e+00,1.246369838714599609e+00,1.246290206909179688e+00,1.246210575103759766e+00,1.246130943298339844e+00,1.246051430702209473e+00,1.245971798896789551e+00,1.245892286300659180e+00,1.245812654495239258e+00,1.245733141899108887e+00,1.245653629302978516e+00,1.245574116706848145e+00,1.245494604110717773e+00,1.245415091514587402e+00,1.245335578918457031e+00,1.245256066322326660e+00,1.245176672935485840e+00,1.245097160339355469e+00,1.245017647743225098e+00,1.244938254356384277e+00,1.244858741760253906e+00,1.244779348373413086e+00,1.244699954986572266e+00,1.244620680809020996e+00,1.244541168212890625e+00,1.244461774826049805e+00,1.244382500648498535e+00,1.244303107261657715e+00,1.244223713874816895e+00,1.244144320487976074e+00,1.244065046310424805e+00,1.243985652923583984e+00,1.243906378746032715e+00,1.243827104568481445e+00,1.243747830390930176e+00,1.243668556213378906e+00,1.243589282035827637e+00,1.243510007858276367e+00,1.243430733680725098e+00,1.243351578712463379e+00,1.243272304534912109e+00,1.243193030357360840e+00,1.243113875389099121e+00,1.243034601211547852e+00,1.242955446243286133e+00,1.242876291275024414e+00,1.242797136306762695e+00,1.242717981338500977e+00,1.242638826370239258e+00,1.242559671401977539e+00
1.162394642829895020e+00,1.162325501441955566e+00,1.162256240844726562e+00,1.162186980247497559e+00,1.162117719650268555e+00,1.162048578262329102e+00,1.161979317665100098e+00,1.161910057067871094e+00,1.161840915679931641e+00,1.161771774291992188e+00,1.161702513694763184e+00,1.161633372306823730e+00,1.161564230918884277e+00,1.161495089530944824e+00,1.161425948143005371e+00,1.161356806755065918e+00,1.161287665367126465e+00,1.161218523979187012e+00,1.161149501800537109e+00,1.161080360412597656e+00,1.161011219024658203e+00,1.160942196846008301e+00,1.160873055458068848e+00,1.160804033279418945e+00,1.160735011100769043e+00,1.160665988922119141e+00,1.160596847534179688e+00,1.160527825355529785e+00,1.160458803176879883e+00,1.160389780998229980e+00,1.160320758819580078e+00,1.160251736640930176e+00,1.160182714462280273e+00,1.160113811492919922e+00,1.160044789314270020e+00,1.159975767135620117e+00,1.159906864166259766e+00,1.159837961196899414e+00,1.159768939018249512e+00,1.159700036048889160e+00,1.159631133079528809e+00,1.159562230110168457e+00,1.159493207931518555e+00,1.159424304962158203e+00,1.159355401992797852e+00,1.159286499023437500e+00,1.159217715263366699e+00,1.159148812294006348e+00,1.159080028533935547e+00,1.159011125564575195e+00,1.158942222595214844e+00,1.158873438835144043e+00,1.158804535865783691e+00,1.158735752105712891e+00,1.158666968345642090e+00,1.158598065376281738e+00,1.158529281616210938e+00,1.158460497856140137e+00,1.158391833305358887e+00,1.158323049545288086e+00,1.158254265785217285e+00,1.158185482025146484e+00,1.158116817474365234e+00,1.158048033714294434e+00,1.157979249954223633e+00,1.157910585403442383e+00,1.157841801643371582e+00,1.157773137092590332e+00,1.157704353332519531e+00,1.157635688781738281e+00,1.157567143440246582e+00,1.157498359680175781e+00,1.157429695129394531e+00,1.157361030578613281e+00,1.157292366027832031e+00,1.157223820686340332e+00,1.157155156135559082e+00,1.157086491584777832e+00,1.157017827033996582e+00,1.156949281692504883e+00
1.087139964103698730e+00,1.087079286575317383e+00,1.087018728256225586e+00,1.086958169937133789e+00,1.086897611618041992e+00,1.086837053298950195e+00,1.086776494979858398e+00,1.086716055870056152e+00,1.086655497550964355e+00,1.086595058441162109e+00,1.086534500122070312e+00,1.086473941802978516e+00,1.086413502693176270e+00,1.086352944374084473e+00,1.086292505264282227e+00,1.086231946945190430e+00,1.086171507835388184e+00,1.086111068725585938e+00,1.086050629615783691e+00,1.085990190505981445e+00,1.085929751396179199e+00,1.085869312286376953e+00,1.085808873176574707e+00,1.085748434066772461e+00,1.085687994956970215e+00,1.085627555847167969e+00,1.085567235946655273e+00,1.085506796836853027e+00,1.085446357727050781e+00,1.085386037826538086e+00,1.085325717926025391e+00,1.085265278816223145e+00,1.085204958915710449e+00,1.085144639015197754e+00,1.085084199905395508e+00,1.085023880004882812e+00,1.084963560104370117e+00,1.084903240203857422e+00,1.084842920303344727e+00,1.084782600402832031e+00,1.084722161293029785e+00,1.084661960601806641e+00,1.084601640701293945e+00,1.084541320800781250e+00,1.084481120109558105e+00,1.084420800209045410e+00,1.084360480308532715e+00,1.084300279617309570e+00,1.084239959716796875e+00,1.084179759025573730e+00,1.084119439125061035e+00,1.084059238433837891e+00,1.083999037742614746e+00,1.083938837051391602e+00,1.083878636360168457e+00,1.083818435668945312e+00,1.083758234977722168e+00,1.083698034286499023e+00,1.083637833595275879e+00,1.083577632904052734e+00,1.083517432212829590e+00,1.083457231521606445e+00,1.083397030830383301e+00,1.083336949348449707e+00,1.083276867866516113e+00,1.083216667175292969e+00,1.083156585693359375e+00,1.083096385002136230e+00,1.083036303520202637e+00,1.082976102828979492e+00,1.082916021347045898e+00,1.082855939865112305e+00,1.082795858383178711e+00,1.082735776901245117e+00,1.082675695419311523e+00,1.082615613937377930e+00,1.082555532455444336e+00,1.082495450973510742e+00,1.082435369491577148e+00,1.082375407218933105e+00
1.021036744117736816e+00,1.020983457565307617e+00,1.020929932594299316e+00,1.020876526832580566e+00,1.020823121070861816e+00,1.020769715309143066e+00,1.020716309547424316e+00,1.020662903785705566e+00,1.020609498023986816e+00,1.020556092262268066e+00,1.020502686500549316e+00,1.020449399948120117e+00,1.020395994186401367e+00,1.020342707633972168e+00,1.020289301872253418e+00,1.020235896110534668e+00,1.020182609558105469e+00,1.020129203796386719e+00,1.020075917243957520e+00,1.020022630691528320e+00,1.019969224929809570e+00,1.019915938377380371e+00,1.019862651824951172e+00,1.019809246063232422e+00,1.019756078720092773e+00,1.019702792167663574e+00,1.019649505615234375e+00,1.019596099853515625e+00,1.019542813301086426e+00,1.019489645957946777e+00,1.019436359405517578e+00,1.019383072853088379e+00,1.019329786300659180e+00,1.019276499748229980e+00,1.019223332405090332e+00,1.019170045852661133e+00,1.019116878509521484e+00,1.019063591957092285e+00,1.019010424613952637e+00,1.018957138061523438e+00,1.018903970718383789e+00,1.018850684165954590e+00,1.018797516822814941e+00,1.018744349479675293e+00,1.018691182136535645e+00,1.018637895584106445e+00,1.018584728240966797e+00,1.018531680107116699e+00,1.018478512763977051e+00,1.018425226211547852e+00,1.018372178077697754e+00,1.018319010734558105e+00,1.018265843391418457e+00,1.018212676048278809e+00,1.018159508705139160e+00,1.018106341361999512e+00,1.018053293228149414e+00,1.018000125885009766e+00,1.017947077751159668e+00,1.017893910408020020e+00,1.017840862274169922e+00,1.017787694931030273e+00,1.017734646797180176e+00,1.017681598663330078e+00,1.017628431320190430e+00,1.017575383186340332e+00,1.017522335052490234e+00,1.017469286918640137e+00,1.017416238784790039e+00,1.017363190650939941e+00,1.017310142517089844e+00,1.017257094383239746e+00,1.017204046249389648e+00,1.017150998115539551e+00,1.017097949981689453e+00,1.017044901847839355e+00,1.016991972923278809e+00,1.016938924789428711e+00,1.016885876655578613e+00,1.016832947731018066e+00
9.625117182731628418e-01,9.624642133712768555e-01,9.624167680740356445e-01,9.623692631721496582e-01,9.623217582702636719e-01,9.622743129730224609e-01,9.622268676757812500e-01,9.621794819831848145e-01,9.621320366859436035e-01,9.620845913887023926e-01,9.620371460914611816e-01,9.619897007942199707e-01,9.619423151016235352e-01,9.618948698043823242e-01,9.618474245071411133e-01,9.618000388145446777e-01,9.617525935173034668e-01,9.617052078247070312e-01,9.616577625274658203e-01,9.616103768348693848e-01,9.615629911422729492e-01,9.615156054496765137e-01,9.614682197570800781e-01,9.614208340644836426e-01,9.613734483718872070e-01,9.613260626792907715e-01,9.612786769866943359e-01,9.612313508987426758e-01,9.611839652061462402e-01,9.611366391181945801e-01,9.610893726348876953e-01,9.610420465469360352e-01,9.609947204589843750e-01,9.609473347663879395e-01,9.609000086784362793e-01,9.608526825904846191e-01,9.608053565025329590e-01,9.607580304145812988e-01,9.607107639312744141e-01,9.606634378433227539e-01,9.606161117553710938e-01,9.605688452720642090e-01,9.605215191841125488e-01,9.604742527008056641e-01,9.604269862174987793e-01,9.603796601295471191e-01,9.603323936462402344e-01,9.602851271629333496e-01,9.602378606796264648e-01,9.601905941963195801e-01,9.601433277130126953e-01,9.600960612297058105e-01,9.600488543510437012e-01,9.600017070770263672e-01,9.599544405937194824e-01,9.599072337150573730e-01,9.598600268363952637e-01,9.598127603530883789e-01,9.597655534744262695e-01,9.597183465957641602e-01,9.596711397171020508e-01,9.596239328384399414e-01,9.595767259597778320e-01,9.595295190811157227e-01,9.594823122024536133e-01,9.594351649284362793e-01,9.593879580497741699e-01,9.593407511711120605e-01,9.592936038970947266e-01,9.592464566230773926e-01,9.591992497444152832e-01,9.591521024703979492e-01,9.591049551963806152e-01,9.590578079223632812e-01,9.590106606483459473e-01,9.589636325836181641e-01,9.589164853096008301e-01,9.588693380355834961e-01,9.588221907615661621e-01,9.587751030921936035e-01
9.103320837020874023e-01,9.102897047996520996e-01,9.102472066879272461e-01,9.102047681808471680e-01,9.101622700691223145e-01,9.101198315620422363e-01,9.100773334503173828e-01,9.100348949432373047e-01,9.099924564361572266e-01,9.099500179290771484e-01,9.099075794219970703e-01,9.098651409149169922e-01,9.098227024078369141e-01,9.097802639007568359e-01,9.097378253936767578e-01,9.096953868865966797e-01,9.096530079841613770e-01,9.096105694770812988e-01,9.095681905746459961e-01,9.095257520675659180e-01,9.094833731651306152e-01,9.094409346580505371e-01,9.093985557556152344e-01,9.093561768531799316e-01,9.093139171600341797e-01,9.092715382575988770e-01,9.092291593551635742e-01,9.091867804527282715e-01,9.091444015502929688e-01,9.091020226478576660e-01,9.090596437454223633e-01,9.090173244476318359e-01,9.089749455451965332e-01,9.089325666427612305e-01,9.088902473449707031e-01,9.088479280471801758e-01,9.088055491447448730e-01,9.087632298469543457e-01,9.087209105491638184e-01,9.086785912513732910e-01,9.086362719535827637e-01,9.085939526557922363e-01,9.085516333580017090e-01,9.085093140602111816e-01,9.084669947624206543e-01,9.084246754646301270e-01,9.083824157714843750e-01,9.083402156829833984e-01,9.082978963851928711e-01,9.082556366920471191e-01,9.082133173942565918e-01,9.081710577011108398e-01,9.081287980079650879e-01,9.080865383148193359e-01,9.080442190170288086e-01,9.080019593238830566e-01,9.079596996307373047e-01,9.079174399375915527e-01,9.078752398490905762e-01,9.078329801559448242e-01,9.077907204627990723e-01,9.077484607696533203e-01,9.077062606811523438e-01,9.076640009880065918e-01,9.076218008995056152e-01,9.075795412063598633e-01,9.075373411178588867e-01,9.074951410293579102e-01,9.074528813362121582e-01,9.074106812477111816e-01,9.073686003684997559e-01,9.073264002799987793e-01,9.072842001914978027e-01,9.072420001029968262e-01,9.071998000144958496e-01,9.071575999259948730e-01,9.071154594421386719e-01,9.070732593536376953e-01,9.070311188697814941e-01,9.069889187812805176e-01
8.635191321372985840e-01,8.634808659553527832e-01,8.634426593780517578e-01,8.634044528007507324e-01,8.633662462234497070e-01,8.633280396461486816e-01,8.632898330688476562e-01,8.632516264915466309e-01,8.632134199142456055e-01,8.631752133369445801e-01,8.631370663642883301e-01,8.630988597869873047e-01,8.630606532096862793e-01,8.630225062370300293e-01,8.629842996597290039e-01,8.629461526870727539e-01,8.629079461097717285e-01,8.628697991371154785e-01,8.628316521644592285e-01,8.627935647964477539e-01,8.627554178237915039e-01,8.627172708511352539e-01,8.626791238784790039e-01,8.626409769058227539e-01,8.626028299331665039e-01,8.625646829605102539e-01,8.625265359878540039e-01,8.624883890151977539e-01,8.624503016471862793e-01,8.624121546745300293e-01,8.623740077018737793e-01,8.623359203338623047e-01,8.622977733612060547e-01,8.622596859931945801e-01,8.622215390205383301e-01,8.621834516525268555e-01,8.621453642845153809e-01,8.621072769165039062e-01,8.620691895484924316e-01,8.620310425758361816e-01,8.619929552078247070e-01,8.619549870491027832e-01,8.619168996810913086e-01,8.618788123130798340e-01,8.618407249450683594e-01,8.618026971817016602e-01,8.617646098136901855e-01,8.617265224456787109e-01,8.616884946823120117e-01,8.616504073143005371e-01,8.616123795509338379e-01,8.615742921829223633e-01,8.615362644195556641e-01,8.614982366561889648e-01,8.614601492881774902e-01,8.614221215248107910e-01,8.613840937614440918e-01,8.613460659980773926e-01,8.613080382347106934e-01,8.612700104713439941e-01,8.612319827079772949e-01,8.611939549446105957e-01,8.611559271812438965e-01,8.611179590225219727e-01,8.610799908638000488e-01,8.610420227050781250e-01,8.610039949417114258e-01,8.609660267829895020e-01,8.609279990196228027e-01,8.608900308609008789e-01,8.608520627021789551e-01,8.608140349388122559e-01,8.607760667800903320e-01,8.607380986213684082e-01,8.607001304626464844e-01,8.606621623039245605e-01,8.606241941452026367e-01,8.605862259864807129e-01,8.605482578277587891e-01,8.605102896690368652e-01
8.212851881980895996e-01,8.212506175041198730e-01,8.212160468101501465e-01,8.211814761161804199e-01,8.211469054222106934e-01,8.211123943328857422e-01,8.210778236389160156e-01,8.210432529449462891e-01,8.210086822509765625e-01,8.209741711616516113e-01,8.209396004676818848e-01,8.209050893783569336e-01,8.208705186843872070e-01,8.208360671997070312e-01,8.208015561103820801e-01,8.207669854164123535e-01,8.207324743270874023e-01,8.206979632377624512e-01,8.206633925437927246e-01,8.206288814544677734e-01,8.205943703651428223e-01,8.205598592758178711e-01,8.205253481864929199e-01,8.204908370971679688e-01,8.204563260078430176e-01,8.204218149185180664e-01,8.203873038291931152e-01,8.203528523445129395e-01,8.203183412551879883e-01,8.202838301658630371e-01,8.202493786811828613e-01,8.202148675918579102e-01,8.201804161071777344e-01,8.201459050178527832e-01,8.201114535331726074e-01,8.200769424438476562e-01,8.200425505638122559e-01,8.200080990791320801e-01,8.199736475944519043e-01,8.199391365051269531e-01,8.199046850204467773e-01,8.198702335357666016e-01,8.198357820510864258e-01,8.198013305664062500e-01,8.197668790817260742e-01,8.197324275970458984e-01,8.196979761123657227e-01,8.196635842323303223e-01,8.196291327476501465e-01,8.195946812629699707e-01,8.195602297782897949e-01,8.195258378982543945e-01,8.194913864135742188e-01,8.194569945335388184e-01,8.194225430488586426e-01,8.193881511688232422e-01,8.193536996841430664e-01,8.193193078041076660e-01,8.192849755287170410e-01,8.192505836486816406e-01,8.192161917686462402e-01,8.191817998886108398e-01,8.191474080085754395e-01,8.191129565238952637e-01,8.190785646438598633e-01,8.190442323684692383e-01,8.190098404884338379e-01,8.189754486083984375e-01,8.189410567283630371e-01,8.189066648483276367e-01,8.188723325729370117e-01,8.188379406929016113e-01,8.188035488128662109e-01,8.187692165374755859e-01,8.187348246574401855e-01,8.187004923820495605e-01,8.186661005020141602e-01,8.186317682266235352e-01,8.185974359512329102e-01,8.185630440711975098e-01
7.829899191856384277e-01,7.829585075378417969e-01,7.829270958900451660e-01,7.828956842422485352e-01,7.828642725944519043e-01,7.828328609466552734e-01,7.828014492988586426e-01,7.827700972557067871e-01,7.827386856079101562e-01,7.827072739601135254e-01,7.826758623123168945e-01,7.826444506645202637e-01,7.826130986213684082e-01,7.825816869735717773e-01,7.825502753257751465e-01,7.825189232826232910e-01,7.824875116348266602e-01,7.824560999870300293e-01,7.824247479438781738e-01,7.823933362960815430e-01,7.823619842529296875e-01,7.823306322097778320e-01,7.822992205619812012e-01,7.822678685188293457e-01,7.822365164756774902e-01,7.822051644325256348e-01,7.821737527847290039e-01,7.821424007415771484e-01,7.821110486984252930e-01,7.820796966552734375e-01,7.820484042167663574e-01,7.820170521736145020e-01,7.819857001304626465e-01,7.819544076919555664e-01,7.819230556488037109e-01,7.818917036056518555e-01,7.818603515625000000e-01,7.818289995193481445e-01,7.817977070808410645e-01,7.817663550376892090e-01,7.817350625991821289e-01,7.817037105560302734e-01,7.816724181175231934e-01,7.816410660743713379e-01,7.816097736358642578e-01,7.815784215927124023e-01,7.815471291542053223e-01,7.815158367156982422e-01,7.814844846725463867e-01,7.814531922340393066e-01,7.814218997955322266e-01,7.813906073570251465e-01,7.813593149185180664e-01,7.813280820846557617e-01,7.812967896461486816e-01,7.812654972076416016e-01,7.812342047691345215e-01,7.812029123306274414e-01,7.811716794967651367e-01,7.811403870582580566e-01,7.811090946197509766e-01,7.810778021812438965e-01,7.810465693473815918e-01,7.810152769088745117e-01,7.809840440750122070e-01,7.809527516365051270e-01,7.809215188026428223e-01,7.808902263641357422e-01,7.808589935302734375e-01,7.808277010917663574e-01,7.807964682579040527e-01,7.807652354240417480e-01,7.807339429855346680e-01,7.807027101516723633e-01,7.806714773178100586e-01,7.806403040885925293e-01,7.806090712547302246e-01,7.805778384208679199e-01,7.805466055870056152e-01,7.805153727531433105e-01
7.481068372726440430e-01,7.480782270431518555e-01,7.480495572090148926e-01,7.480208873748779297e-01,7.479921579360961914e-01,7.479634881019592285e-01,7.479348182678222656e-01,7.479061484336853027e-01,7.478774785995483398e-01,7.478488087654113770e-01,7.478201389312744141e-01,7.477914690971374512e-01,7.477627992630004883e-01,7.477341294288635254e-01,7.477055191993713379e-01,7.476768493652343750e-01,7.476481795310974121e-01,7.476195096969604492e-01,7.475908994674682617e-01,7.475622296333312988e-01,7.475335597991943359e-01,7.475049495697021484e-01,7.474762797355651855e-01,7.474476695060729980e-01,7.474191188812255859e-01,7.473904490470886230e-01,7.473618388175964355e-01,7.473331689834594727e-01,7.473045587539672852e-01,7.472759485244750977e-01,7.472473382949829102e-01,7.472186684608459473e-01,7.471900582313537598e-01,7.471614480018615723e-01,7.471328377723693848e-01,7.471042275428771973e-01,7.470756173133850098e-01,7.470470070838928223e-01,7.470183968544006348e-01,7.469897866249084473e-01,7.469611763954162598e-01,7.469326257705688477e-01,7.469040155410766602e-01,7.468754053115844727e-01,7.468467950820922852e-01,7.468182444572448730e-01,7.467896342277526855e-01,7.467611432075500488e-01,7.467325329780578613e-01,7.467039227485656738e-01,7.466753721237182617e-01,7.466467618942260742e-01,7.466182112693786621e-01,7.465896606445312500e-01,7.465610504150390625e-01,7.465324997901916504e-01,7.465039491653442383e-01,7.464753389358520508e-01,7.464467883110046387e-01,7.464182376861572266e-01,7.463896870613098145e-01,7.463611364364624023e-01,7.463325858116149902e-01,7.463040351867675781e-01,7.462754845619201660e-01,7.462469339370727539e-01,7.462183833122253418e-01,7.461898326873779297e-01,7.461612820625305176e-01,7.461327314376831055e-01,7.461043000221252441e-01,7.460757493972778320e-01,7.460471987724304199e-01,7.460187077522277832e-01,7.459901571273803711e-01,7.459616661071777344e-01,7.459331154823303223e-01,7.459046244621276855e-01,7.458760738372802734e-01,7.458475828170776367e-01
7.161993980407714844e-01,7.161731123924255371e-01,7.161468267440795898e-01,7.161205410957336426e-01,7.160942554473876953e-01,7.160679697990417480e-01,7.160416841506958008e-01,7.160153985023498535e-01,7.159891128540039062e-01,7.159628272056579590e-01,7.159366011619567871e-01,7.159103155136108398e-01,7.158840298652648926e-01,7.158577442169189453e-01,7.158315181732177734e-01,7.158052325248718262e-01,7.157789468765258789e-01,7.157527208328247070e-01,7.157264351844787598e-01,7.157002687454223633e-01,7.156739830970764160e-01,7.156477570533752441e-01,7.156214714050292969e-01,7.155952453613281250e-01,7.155689597129821777e-01,7.155427336692810059e-01,7.155165076255798340e-01,7.154902815818786621e-01,7.154639959335327148e-01,7.154377698898315430e-01,7.154115438461303711e-01,7.153853178024291992e-01,7.153590917587280273e-01,7.153328657150268555e-01,7.153066396713256836e-01,7.152804136276245117e-01,7.152541875839233398e-01,7.152279615402221680e-01,7.152017354965209961e-01,7.151755094528198242e-01,7.151492834091186523e-01,7.151231169700622559e-01,7.150968909263610840e-01,7.150707244873046875e-01,7.150444984436035156e-01,7.150182723999023438e-01,7.149921059608459473e-01,7.149658799171447754e-01,7.149396538734436035e-01,7.149134874343872070e-01,7.148872613906860352e-01,7.148610949516296387e-01,7.148348689079284668e-01,7.148087024688720703e-01,7.147825360298156738e-01,7.147563099861145020e-01,7.147301435470581055e-01,7.147039771080017090e-01,7.146777510643005371e-01,7.146515846252441406e-01,7.146254181861877441e-01,7.145992517471313477e-01,7.145730853080749512e-01,7.145468592643737793e-01,7.145207524299621582e-01,7.144945859909057617e-01,7.144684195518493652e-01,7.144422531127929688e-01,7.144160866737365723e-01,7.143899202346801758e-01,7.143638134002685547e-01,7.143376469612121582e-01,7.143114805221557617e-01,7.142853140830993652e-01,7.142591476440429688e-01,7.142330408096313477e-01,7.142068743705749512e-01,7.141807079315185547e-01,7.141546010971069336e-01,7.141284346580505371e-01
6.869023442268371582e-01,6.868781447410583496e-01,6.868540048599243164e-01,6.868298053741455078e-01,6.868056058883666992e-01,6.867814660072326660e-01,6.867572665214538574e-01,6.867330670356750488e-01,6.867089271545410156e-01,6.866847276687622070e-01,6.866605877876281738e-01,6.866363883018493652e-01,6.866122484207153320e-01,6.865881085395812988e-01,6.865639686584472656e-01,6.865398287773132324e-01,6.865156292915344238e-01,6.864914894104003906e-01,6.864673495292663574e-01,6.864431500434875488e-01,6.864190101623535156e-01,6.863948702812194824e-01,6.863707304000854492e-01,6.863465905189514160e-01,6.863224506378173828e-01,6.862983107566833496e-01,6.862741112709045410e-01,6.862499713897705078e-01,6.862258315086364746e-01,6.862016916275024414e-01,6.861776113510131836e-01,6.861534714698791504e-01,6.861293315887451172e-01,6.861051917076110840e-01,6.860810518264770508e-01,6.860569119453430176e-01,6.860328316688537598e-01,6.860087513923645020e-01,6.859846115112304688e-01,6.859604716300964355e-01,6.859363913536071777e-01,6.859122514724731445e-01,6.858881115913391113e-01,6.858640313148498535e-01,6.858398914337158203e-01,6.858158111572265625e-01,6.857916712760925293e-01,6.857675909996032715e-01,6.857434511184692383e-01,6.857193708419799805e-01,6.856952905654907227e-01,6.856711506843566895e-01,6.856470704078674316e-01,6.856229901313781738e-01,6.855989098548889160e-01,6.855747699737548828e-01,6.855506896972656250e-01,6.855266094207763672e-01,6.855025887489318848e-01,6.854785084724426270e-01,6.854544281959533691e-01,6.854302883148193359e-01,6.854062080383300781e-01,6.853821277618408203e-01,6.853581070899963379e-01,6.853340268135070801e-01,6.853099465370178223e-01,6.852858662605285645e-01,6.852617859840393066e-01,6.852377057075500488e-01,6.852136254310607910e-01,6.851896047592163086e-01,6.851655244827270508e-01,6.851414442062377930e-01,6.851173639297485352e-01,6.850933432579040527e-01,6.850692629814147949e-01,6.850451827049255371e-01,6.850211620330810547e-01,6.849970817565917969e-01
