5.000000000000000000e+00,5.000000000000000000e+00,5.000000000000000000e+00,5.000000000000000000e+00,5.000000000000000000e+00,5.000000000000000000e+00,5.000000000000000000e+00,5.000000000000000000e+00,5.000000000000000000e+00,5.000000000000000000e+00,5.000000000000000000e+00,5.000000000000000000e+00,5.000000000000000000e+00,5.000000000000000000e+00,5.000000000000000000e+00,5.000000000000000000e+00,5.000000000000000000e+00,5.000000000000000000e+00,5.000000000000000000e+00,5.000000000000000000e+00,5.000000000000000000e+00,5.000000000000000000e+00,5.000000000000000000e+00,5.000000000000000000e+00,5.000000000000000000e+00,5.000000000000000000e+00,5.000000000000000000e+00,5.000000000000000000e+00,5.000000000000000000e+00,5.000000000000000000e+00,5.000000000000000000e+00,5.000000000000000000e+00,5.000000000000000000e+00,5.000000000000000000e+00,5.000000000000000000e+00,5.000000000000000000e+00,5.000000000000000000e+00,5.000000000000000000e+00,5.000000000000000000e+00,4.851481914520263672e+00,4.661398410797119141e+00,4.485648155212402344e+00,4.322669506072998047e+00,4.171118736267089844e+00,4.029834270477294922e+00,3.897808074951171875e+00,3.774157524108886719e+00,3.658111810684204102e+00,3.548988819122314453e+00,3.446187734603881836e+00,3.349174499511718750e+00,3.257474184036254883e+00,3.170660972595214844e+00,3.088355064392089844e+00,3.010214090347290039e+00,2.935930013656616211e+00,2.865223646163940430e+00,2.797842979431152344e+00,2.733558416366577148e+00,2.672161817550659180e+00,2.613462448120117188e+00,2.557286739349365234e+00,2.503474950790405273e+00,2.451881408691406250e+00,2.402371168136596680e+00,2.354821205139160156e+00,2.309116601943969727e+00,2.265152692794799805e+00,2.222831487655639648e+00,2.182062864303588867e+00,2.142762422561645508e+00,2.104852914810180664e+00,2.068261146545410156e+00,2.032920360565185547e+00,1.998766660690307617e+00,1.965741753578186035e+00,1.933790087699890137e+00,1.902860999107360840e+00,1.872905373573303223e+00,1.843878269195556641e+00
5.000000000000000000e+00,5.000000000000000000e+00,5.000000000000000000e+00,5.000000000000000000e+00,5.000000000000000000e+00,5.000000000000000000e+00,5.000000000000000000e+00,5.000000000000000000e+00,5.000000000000000000e+00,5.000000000000000000e+00,5.000000000000000000e+00,5.000000000000000000e+00,5.000000000000000000e+00,5.000000000000000000e+00,5.000000000000000000e+00,5.000000000000000000e+00,5.000000000000000000e+00,5.000000000000000000e+00,5.000000000000000000e+00,5.000000000000000000e+00,5.000000000000000000e+00,5.000000000000000000e+00,5.000000000000000000e+00,5.000000000000000000e+00,5.000000000000000000e+00,5.000000000000000000e+00,5.000000000000000000e+00,5.000000000000000000e+00,5.000000000000000000e+00,5.000000000000000000e+00,5.000000000000000000e+00,5.000000000000000000e+00,5.000000000000000000e+00,5.000000000000000000e+00,5.000000000000000000e+00,5.000000000000000000e+00,5.000000000000000000e+00,5.000000000000000000e+00,5.000000000000000000e+00,4.851621150970458984e+00,4.661526679992675781e+00,4.485767364501953125e+00,4.322779655456542969e+00,4.171221256256103516e+00,4.029930114746093750e+00,3.897897720336914062e+00,3.774242162704467773e+00,3.658190727233886719e+00,3.549063444137573242e+00,3.446257829666137695e+00,3.349241018295288086e+00,3.257536649703979492e+00,3.170720577239990234e+00,3.088411331176757812e+00,3.010267972946166992e+00,2.935980796813964844e+00,2.865272283554077148e+00,2.797889232635498047e+00,2.733602762222290039e+00,2.672204017639160156e+00,2.613502979278564453e+00,2.557325363159179688e+00,2.503512144088745117e+00,2.451916694641113281e+00,2.402405261993408203e+00,2.354853868484497070e+00,2.309148311614990234e+00,2.265182971954345703e+00,2.222860813140869141e+00,2.182090997695922852e+00,2.142789840698242188e+00,2.104879140853881836e+00,2.068286418914794922e+00,2.032944679260253906e+00,1.998790264129638672e+00,1.965764522552490234e+00,1.933812379837036133e+00,1.902882337570190430e+00,1.872926115989685059e+00,1.843898415565490723e+00
5.000000000000000000e+00,5.000000000000000000e+00,5.000000000000000000e+00,5.000000000000000000e+00,5.000000000000000000e+00,5.000000000000000000e+00,5.000000000000000000e+00,5.000000000000000000e+00,5.000000000000000000e+00,5.000000000000000000e+00,5.000000000000000000e+00,5.000000000000000000e+00,5.000000000000000000e+00,5.000000000000000000e+00,5.000000000000000000e+00,5.000000000000000000e+00,5.000000000000000000e+00,5.000000000000000000e+00,5.000000000000000000e+00,5.000000000000000000e+00,5.000000000000000000e+00,5.000000000000000000e+00,5.000000000000000000e+00,5.000000000000000000e+00,5.000000000000000000e+00,5.000000000000000000e+00,5.000000000000000000e+00,5.000000000000000000e+00,5.000000000000000000e+00,5.000000000000000000e+00,5.000000000000000000e+00,5.000000000000000000e+00,5.000000000000000000e+00,5.000000000000000000e+00,5.000000000000000000e+00,5.000000000000000000e+00,5.000000000000000000e+00,5.000000000000000000e+00,5.000000000000000000e+00,4.851759910583496094e+00,4.661654949188232422e+00,4.485886096954345703e+00,4.322890281677246094e+00,4.171324253082275391e+00,4.030025959014892578e+00,3.897987365722656250e+00,3.774326086044311523e+00,3.658269643783569336e+00,3.549137830734252930e+00,3.446327924728393555e+00,3.349307298660278320e+00,3.257599353790283203e+00,3.170779705047607422e+00,3.088467597961425781e+00,3.010321378707885742e+00,2.936031818389892578e+00,2.865320682525634766e+00,2.797935247421264648e+00,2.733646869659423828e+00,2.672246217727661133e+00,2.613543272018432617e+00,2.557363986968994141e+00,2.503549098968505859e+00,2.451952219009399414e+00,2.402439355850219727e+00,2.354886531829833984e+00,2.309179782867431641e+00,2.265213251113891602e+00,2.222889900207519531e+00,2.182118892669677734e+00,2.142816781997680664e+00,2.104905128479003906e+00,2.068311691284179688e+00,2.032968997955322266e+00,1.998813867568969727e+00,1.965787291526794434e+00,1.933834433555603027e+00,1.902903676033020020e+00,1.872946739196777344e+00,1.843918442726135254e+00
5.000000000000000000e+00,5.000000000000000000e+00,5.000000000000000000e+00,5.000000000000000000e+00,5.000000000000000000e+00,5.000000000000000000e+00,5.000000000000000000e+00,5.000000000000000000e+00,5.000000000000000000e+00,5.000000000000000000e+00,5.000000000000000000e+00,5.000000000000000000e+00,5.000000000000000000e+00,5.000000000000000000e+00,5.000000000000000000e+00,5.000000000000000000e+00,5.000000000000000000e+00,5.000000000000000000e+00,5.000000000000000000e+00,5.000000000000000000e+00,5.000000000000000000e+00,5.000000000000000000e+00,5.000000000000000000e+00,5.000000000000000000e+00,5.000000000000000000e+00,5.000000000000000000e+00,5.000000000000000000e+00,5.000000000000000000e+00,5.000000000000000000e+00,5.000000000000000000e+00,5.000000000000000000e+00,5.000000000000000000e+00,5.000000000000000000e+00,5.000000000000000000e+00,5.000000000000000000e+00,5.000000000000000000e+00,5.000000000000000000e+00,5.000000000000000000e+00,5.000000000000000000e+00,4.851899147033691406e+00,4.661783218383789062e+00,4.486004829406738281e+00,4.323000431060791016e+00,4.171426773071289062e+00,4.030121803283691406e+00,3.898077011108398438e+00,3.774410247802734375e+00,3.658348560333251953e+00,3.549212217330932617e+00,3.446398019790649414e+00,3.349373340606689453e+00,3.257661819458007812e+00,3.170839071273803711e+00,3.088523864746093750e+00,3.010374784469604492e+00,2.936082601547241211e+00,2.865369081497192383e+00,2.797981500625610352e+00,2.733690977096557617e+00,2.672288179397583008e+00,2.613583564758300781e+00,2.557402372360229492e+00,2.503586053848266602e+00,2.451987743377685547e+00,2.402473449707031250e+00,2.354919433593750000e+00,2.309211254119873047e+00,2.265243530273437500e+00,2.222918987274169922e+00,2.182147026062011719e+00,2.142843961715698242e+00,2.104931354522705078e+00,2.068336963653564453e+00,2.032993555068969727e+00,1.998837351799011230e+00,1.965810179710388184e+00,1.933856606483459473e+00,1.902925014495849609e+00,1.872967481613159180e+00,1.843938469886779785e+00
5.000000000000000000e+00,5.000000000000000000e+00,5.000000000000000000e+00,5.000000000000000000e+00,5.000000000000000000e+00,5.000000000000000000e+00,5.000000000000000000e+00,5.000000000000000000e+00,5.000000000000000000e+00,5.000000000000000000e+00,5.000000000000000000e+00,5.000000000000000000e+00,5.000000000000000000e+00,5.000000000000000000e+00,5.000000000000000000e+00,5.000000000000000000e+00,5.000000000000000000e+00,5.000000000000000000e+00,5.000000000000000000e+00,5.000000000000000000e+00,5.000000000000000000e+00,5.000000000000000000e+00,5.000000000000000000e+00,5.000000000000000000e+00,5.000000000000000000e+00,5.000000000000000000e+00,5.000000000000000000e+00,5.000000000000000000e+00,5.000000000000000000e+00,5.000000000000000000e+00,5.000000000000000000e+00,5.000000000000000000e+00,5.000000000000000000e+00,5.000000000000000000e+00,5.000000000000000000e+00,5.000000000000000000e+00,5.000000000000000000e+00,5.000000000000000000e+00,5.000000000000000000e+00,4.852037906646728516e+00,4.661911487579345703e+00,4.486123561859130859e+00,4.323110580444335938e+00,4.171529293060302734e+00,4.030217647552490234e+00,3.898166656494140625e+00,3.774494409561157227e+00,3.658427715301513672e+00,3.549286365509033203e+00,3.446468114852905273e+00,3.349439620971679688e+00,3.257724523544311523e+00,3.170898437500000000e+00,3.088580369949340820e+00,3.010428190231323242e+00,2.936133384704589844e+00,2.865417480468750000e+00,2.798027753829956055e+00,2.733735084533691406e+00,2.672330379486083984e+00,2.613623857498168945e+00,2.557440996170043945e+00,2.503623008728027344e+00,2.452023267745971680e+00,2.402507543563842773e+00,2.354952096939086914e+00,2.309242725372314453e+00,2.265273809432983398e+00,2.222948312759399414e+00,2.182175159454345703e+00,2.142870903015136719e+00,2.104957580566406250e+00,2.068362236022949219e+00,2.033017873764038086e+00,1.998860955238342285e+00,1.965832948684692383e+00,1.933878660202026367e+00,1.902946472167968750e+00,1.872988104820251465e+00,1.843958616256713867e+00
5.000000000000000000e+00,5.000000000000000000e+00,5.000000000000000000e+00,5.000000000000000000e+00,5.000000000000000000e+00,5.000000000000000000e+00,5.000000000000000000e+00,5.000000000000000000e+00,5.000000000000000000e+00,5.000000000000000000e+00,5.000000000000000000e+00,5.000000000000000000e+00,5.000000000000000000e+00,5.000000000000000000e+00,5.000000000000000000e+00,5.000000000000000000e+00,5.000000000000000000e+00,5.000000000000000000e+00,5.000000000000000000e+00,5.000000000000000000e+00,5.000000000000000000e+00,5.000000000000000000e+00,5.000000000000000000e+00,5.000000000000000000e+00,5.000000000000000000e+00,5.000000000000000000e+00,5.000000000000000000e+00,5.000000000000000000e+00,5.000000000000000000e+00,5.000000000000000000e+00,5.000000000000000000e+00,5.000000000000000000e+00,5.000000000000000000e+00,5.000000000000000000e+00,5.000000000000000000e+00,5.000000000000000000e+00,5.000000000000000000e+00,5.000000000000000000e+00,5.000000000000000000e+00,4.852177143096923828e+00,4.662040233612060547e+00,4.486242771148681641e+00,4.323221206665039062e+00,4.171632289886474609e+00,4.030313968658447266e+00,3.898256778717041016e+00,3.774578332901000977e+00,3.658507108688354492e+00,3.549360752105712891e+00,3.446538686752319336e+00,3.349505901336669922e+00,3.257787466049194336e+00,3.170957803726196289e+00,3.088636875152587891e+00,3.010481834411621094e+00,2.936184644699096680e+00,2.865466117858886719e+00,2.798074245452880859e+00,2.733779191970825195e+00,2.672372817993164062e+00,2.613664150238037109e+00,2.557479858398437500e+00,2.503659963607788086e+00,2.452058792114257812e+00,2.402541637420654297e+00,2.354984998703002930e+00,2.309274196624755859e+00,2.265304327011108398e+00,2.222977399826049805e+00,2.182203531265258789e+00,2.142898082733154297e+00,2.104983806610107422e+00,2.068387508392333984e+00,2.033042430877685547e+00,1.998884558677673340e+00,1.965855956077575684e+00,1.933900713920593262e+00,1.902967810630798340e+00,1.873008847236633301e+00,1.843978881835937500e+00
5.000000000000000000e+00,5.000000000000000000e+00,5.000000000000000000e+00,5.000000000000000000e+00,5.000000000000000000e+00,5.000000000000000000e+00,5.000000000000000000e+00,5.000000000000000000e+00,5.000000000000000000e+00,5.000000000000000000e+00,5.000000000000000000e+00,5.000000000000000000e+00,5.000000000000000000e+00,5.000000000000000000e+00,5.000000000000000000e+00,5.000000000000000000e+00,5.000000000000000000e+00,5.000000000000000000e+00,5.000000000000000000e+00,5.000000000000000000e+00,5.000000000000000000e+00,5.000000000000000000e+00,5.000000000000000000e+00,5.000000000000000000e+00,5.000000000000000000e+00,5.000000000000000000e+00,5.000000000000000000e+00,5.000000000000000000e+00,5.000000000000000000e+00,5.000000000000000000e+00,5.000000000000000000e+00,5.000000000000000000e+00,5.000000000000000000e+00,5.000000000000000000e+00,5.000000000000000000e+00,5.000000000000000000e+00,5.000000000000000000e+00,5.000000000000000000e+00,5.000000000000000000e+00,4.852315902709960938e+00,4.662168502807617188e+00,4.486361503601074219e+00,4.323331356048583984e+00,4.171735286712646484e+00,4.030409812927246094e+00,3.898346424102783203e+00,3.774662494659423828e+00,3.658586025238037109e+00,3.549435138702392578e+00,3.446608781814575195e+00,3.349571943283081055e+00,3.257850170135498047e+00,3.171017169952392578e+00,3.088693141937255859e+00,3.010535240173339844e+00,2.936235427856445312e+00,2.865514516830444336e+00,2.798120260238647461e+00,2.733823299407958984e+00,2.672415018081665039e+00,2.613704442977905273e+00,2.557518482208251953e+00,2.503696918487548828e+00,2.452094316482543945e+00,2.402575731277465820e+00,2.355017662048339844e+00,2.309305667877197266e+00,2.265334606170654297e+00,2.223006486892700195e+00,2.182231426239013672e+00,2.142925262451171875e+00,2.105010032653808594e+00,2.068412780761718750e+00,2.033066749572753906e+00,1.998908162117004395e+00,1.965878725051879883e+00,1.933922767639160156e+00,1.902989149093627930e+00,1.873029589653015137e+00,1.843998908996582031e+00
5.000000000000000000e+00,5.000000000000000000e+00,5.000000000000000000e+00,5.000000000000000000e+00,5.000000000000000000e+00,5.000000000000000000e+00,5.000000000000000000e+00,5.000000000000000000e+00,5.000000000000000000e+00,5.000000000000000000e+00,5.000000000000000000e+00,5.000000000000000000e+00,5.000000000000000000e+00,5.000000000000000000e+00,5.000000000000000000e+00,5.000000000000000000e+00,5.000000000000000000e+00,5.000000000000000000e+00,5.000000000000000000e+00,5.000000000000000000e+00,5.000000000000000000e+00,5.000000000000000000e+00,5.000000000000000000e+00,5.000000000000000000e+00,5.000000000000000000e+00,5.000000000000000000e+00,5.000000000000000000e+00,5.000000000000000000e+00,5.000000000000000000e+00,5.000000000000000000e+00,5.000000000000000000e+00,5.000000000000000000e+00,5.000000000000000000e+00,5.000000000000000000e+00,5.000000000000000000e+00,5.000000000000000000e+00,5.000000000000000000e+00,5.000000000000000000e+00,5.000000000000000000e+00,4.852455139160156250e+00,4.662296772003173828e+00,4.486480236053466797e+00,4.323441982269287109e+00,4.171837806701660156e+00,4.030505657196044922e+00,3.898436069488525391e+00,3.774746417999267578e+00,3.658664941787719727e+00,3.549509525299072266e+00,3.446678876876831055e+00,3.349638223648071289e+00,3.257912635803222656e+00,3.171076536178588867e+00,3.088749408721923828e+00,3.010588645935058594e+00,2.936286449432373047e+00,2.865562915802001953e+00,2.798166513442993164e+00,2.733867168426513672e+00,2.672456979751586914e+00,2.613744735717773438e+00,2.557557106018066406e+00,2.503733873367309570e+00,2.452129840850830078e+00,2.402609825134277344e+00,2.355050325393676758e+00,2.309337139129638672e+00,2.265364885330200195e+00,2.223035812377929688e+00,2.182259559631347656e+00,2.142952203750610352e+00,2.105036020278930664e+00,2.068438053131103516e+00,2.033091068267822266e+00,1.998931765556335449e+00,1.965901613235473633e+00,1.933944821357727051e+00,1.903010606765747070e+00,1.873050212860107422e+00,1.844018936157226562e+00
5.000000000000000000e+00,5.000000000000000000e+00,5.000000000000000000e+00,5.000000000000000000e+00,5.000000000000000000e+00,5.000000000000000000e+00,5.000000000000000000e+00,5.000000000000000000e+00,5.000000000000000000e+00,5.000000000000000000e+00,5.000000000000000000e+00,5.000000000000000000e+00,5.000000000000000000e+00,5.000000000000000000e+00,5.000000000000000000e+00,5.000000000000000000e+00,5.000000000000000000e+00,5.000000000000000000e+00,5.000000000000000000e+00,5.000000000000000000e+00,5.000000000000000000e+00,5.000000000000000000e+00,5.000000000000000000e+00,5.000000000000000000e+00,5.000000000000000000e+00,4.270023345947265625e+00,4.353971958160400391e+00,5.000000000000000000e+00,5.000000000000000000e+00,5.000000000000000000e+00,5.000000000000000000e+00,5.000000000000000000e+00,5.000000000000000000e+00,5.000000000000000000e+00,5.000000000000000000e+00,5.000000000000000000e+00,5.000000000000000000e+00,5.000000000000000000e+00,5.000000000000000000e+00,4.852594375610351562e+00,4.662425041198730469e+00,4.486599445343017578e+00,4.323552608489990234e+00,4.171940803527832031e+00,4.030601978302001953e+00,3.898525714874267578e+00,3.774831056594848633e+00,3.658743858337402344e+00,3.549584150314331055e+00,3.446748971939086914e+00,3.349704742431640625e+00,3.257975339889526367e+00,3.171136140823364258e+00,3.088805675506591797e+00,3.010642528533935547e+00,2.936337232589721680e+00,2.865611553192138672e+00,2.798212766647338867e+00,2.733911514282226562e+00,2.672499179840087891e+00,2.613785266876220703e+00,2.557595729827880859e+00,2.503771066665649414e+00,2.452165365219116211e+00,2.402643918991088867e+00,2.355083227157592773e+00,2.309368610382080078e+00,2.265395164489746094e+00,2.223065137863159180e+00,2.182287693023681641e+00,2.142979621887207031e+00,2.105062246322631836e+00,2.068463325500488281e+00,2.033115625381469727e+00,1.998955488204956055e+00,1.965924382209777832e+00,1.933966875076293945e+00,1.903031945228576660e+00,1.873071193695068359e+00,1.844039082527160645e+00
5.000000000000000000e+00,5.000000000000000000e+00,5.000000000000000000e+00,5.000000000000000000e+00,5.000000000000000000e+00,5.000000000000000000e+00,5.000000000000000000e+00,5.000000000000000000e+00,5.000000000000000000e+00,5.000000000000000000e+00,5.000000000000000000e+00,5.000000000000000000e+00,5.000000000000000000e+00,5.000000000000000000e+00,5.000000000000000000e+00,5.000000000000000000e+00,5.000000000000000000e+00,5.000000000000000000e+00,5.000000000000000000e+00,5.000000000000000000e+00,5.000000000000000000e+00,5.000000000000000000e+00,5.000000000000000000e+00,5.000000000000000000e+00,5.000000000000000000e+00,4.273844242095947266e+00,4.340700149536132812e+00,5.000000000000000000e+00,5.000000000000000000e+00,5.000000000000000000e+00,5.000000000000000000e+00,5.000000000000000000e+00,5.000000000000000000e+00,5.000000000000000000e+00,5.000000000000000000e+00,5.000000000000000000e+00,5.000000000000000000e+00,5.000000000000000000e+00,5.000000000000000000e+00,4.852733135223388672e+00,4.662553310394287109e+00,4.486718177795410156e+00,4.323662757873535156e+00,4.172043323516845703e+00,4.030697822570800781e+00,3.898615598678588867e+00,3.774915218353271484e+00,3.658823013305664062e+00,3.549658536911010742e+00,3.446819067001342773e+00,3.349771022796630859e+00,3.258038043975830078e+00,3.171195507049560547e+00,3.088861942291259766e+00,3.010695934295654297e+00,2.936388015747070312e+00,2.865660190582275391e+00,2.798259019851684570e+00,2.733955621719360352e+00,2.672541379928588867e+00,2.613825559616088867e+00,2.557634353637695312e+00,2.503808259963989258e+00,2.452200889587402344e+00,2.402678012847900391e+00,2.355115890502929688e+00,2.309400081634521484e+00,2.265425443649291992e+00,2.223094224929809570e+00,2.182315826416015625e+00,2.143006563186645508e+00,2.105088472366333008e+00,2.068488597869873047e+00,2.033139944076538086e+00,1.998979091644287109e+00,1.965947151184082031e+00,1.933988928794860840e+00,1.903053283691406250e+00,1.873091936111450195e+00,1.844059109687805176e+00
5.000000000000000000e+00,5.000000000000000000e+00,5.000000000000000000e+00,5.000000000000000000e+00,5.000000000000000000e+00,5.000000000000000000e+00,5.000000000000000000e+00,5.000000000000000000e+00,5.000000000000000000e+00,5.000000000000000000e+00,5.000000000000000000e+00,5.000000000000000000e+00,5.000000000000000000e+00,5.000000000000000000e+00,5.000000000000000000e+00,5.000000000000000000e+00,5.000000000000000000e+00,5.000000000000000000e+00,5.000000000000000000e+00,5.000000000000000000e+00,5.000000000000000000e+00,5.000000000000000000e+00,5.000000000000000000e+00,5.000000000000000000e+00,5.000000000000000000e+00,4.298964023590087891e+00,4.415507316589355469e+00,5.000000000000000000e+00,5.000000000000000000e+00,5.000000000000000000e+00,5.000000000000000000e+00,5.000000000000000000e+00,5.000000000000000000e+00,5.000000000000000000e+00,5.000000000000000000e+00,5.000000000000000000e+00,5.000000000000000000e+00,5.000000000000000000e+00,5.000000000000000000e+00,4.852872371673583984e+00,4.662681579589843750e+00,4.486836910247802734e+00,4.323772907257080078e+00,4.172146320343017578e+00,4.030793666839599609e+00,3.898705244064331055e+00,3.774999141693115234e+00,3.658901929855346680e+00,3.549732923507690430e+00,3.446889162063598633e+00,3.349837303161621094e+00,3.258100748062133789e+00,3.171254873275756836e+00,3.088918209075927734e+00,3.010749340057373047e+00,2.936439037322998047e+00,2.865708589553833008e+00,2.798305273056030273e+00,2.733999729156494141e+00,2.672583580017089844e+00,2.613866090774536133e+00,2.557672977447509766e+00,2.503845214843750000e+00,2.452236175537109375e+00,2.402712106704711914e+00,2.355148553848266602e+00,2.309431552886962891e+00,2.265455722808837891e+00,2.223123311996459961e+00,2.182343959808349609e+00,2.143033742904663086e+00,2.105114459991455078e+00,2.068513870239257812e+00,2.033164262771606445e+00,1.999002695083618164e+00,1.965970039367675781e+00,1.934010982513427734e+00,1.903074622154235840e+00,1.873112559318542480e+00,1.844079136848449707e+00
5.000000000000000000e+00,5.000000000000000000e+00,5.000000000000000000e+00,5.000000000000000000e+00,5.000000000000000000e+00,5.000000000000000000e+00,5.000000000000000000e+00,5.000000000000000000e+00,5.000000000000000000e+00,5.000000000000000000e+00,5.000000000000000000e+00,5.000000000000000000e+00,5.000000000000000000e+00,5.000000000000000000e+00,5.000000000000000000e+00,5.000000000000000000e+00,5.000000000000000000e+00,5.000000000000000000e+00,5.000000000000000000e+00,5.000000000000000000e+00,5.000000000000000000e+00,5.000000000000000000e+00,5.000000000000000000e+00,4.325806140899658203e+00,4.294106483459472656e+00,4.347838401794433594e+00,4.323117733001708984e+00,4.380643844604492188e+00,4.408343315124511719e+00,5.000000000000000000e+00,5.000000000000000000e+00,5.000000000000000000e+00,5.000000000000000000e+00,5.000000000000000000e+00,5.000000000000000000e+00,5.000000000000000000e+00,5.000000000000000000e+00,5.000000000000000000e+00,5.000000000000000000e+00,4.853011608123779297e+00,4.662810325622558594e+00,4.486956119537353516e+00,4.323883533477783203e+00,4.172249317169189453e+00,4.030889511108398438e+00,3.898795366287231445e+00,3.775083303451538086e+00,3.658981323242187500e+00,3.549807310104370117e+00,3.446959495544433594e+00,3.349903345108032227e+00,3.258163690567016602e+00,3.171314239501953125e+00,3.088974952697753906e+00,3.010802984237670898e+00,2.936490058898925781e+00,2.865756988525390625e+00,2.798351526260375977e+00,2.734043836593627930e+00,2.672625780105590820e+00,2.613906383514404297e+00,2.557711601257324219e+00,2.503882169723510742e+00,2.452271938323974609e+00,2.402746200561523438e+00,2.355181455612182617e+00,2.309463024139404297e+00,2.265486240386962891e+00,2.223152637481689453e+00,2.182372093200683594e+00,2.143060922622680664e+00,2.105140686035156250e+00,2.068539142608642578e+00,2.033188819885253906e+00,1.999026298522949219e+00,1.965992808341979980e+00,1.934033155441284180e+00,1.903096199035644531e+00,1.873133301734924316e+00,1.844099283218383789e+00
5.000000000000000000e+00,5.000000000000000000e+00,5.000000000000000000e+00,5.000000000000000000e+00,5.000000000000000000e+00,5.000000000000000000e+00,5.000000000000000000e+00,5.000000000000000000e+00,5.000000000000000000e+00,5.000000000000000000e+00,5.000000000000000000e+00,5.000000000000000000e+00,5.000000000000000000e+00,5.000000000000000000e+00,5.000000000000000000e+00,5.000000000000000000e+00,5.000000000000000000e+00,5.000000000000000000e+00,5.000000000000000000e+00,5.000000000000000000e+00,5.000000000000000000e+00,5.000000000000000000e+00,4.292653560638427734e+00,4.286655902862548828e+00,4.260026454925537109e+00,4.272319316864013672e+00,4.285297393798828125e+00,4.342490196228027344e+00,4.396005153656005859e+00,5.000000000000000000e+00,5.000000000000000000e+00,5.000000000000000000e+00,5.000000000000000000e+00,5.000000000000000000e+00,5.000000000000000000e+00,5.000000000000000000e+00,5.000000000000000000e+00,5.000000000000000000e+00,5.000000000000000000e+00,4.853150367736816406e+00,4.662938594818115234e+00,4.487074851989746094e+00,4.323994159698486328e+00,4.172351837158203125e+00,4.030985355377197266e+00,3.898885011672973633e+00,3.775167465209960938e+00,3.659060239791870117e+00,3.549881696701049805e+00,3.447029829025268555e+00,3.349969625473022461e+00,3.258226156234741211e+00,3.171373605728149414e+00,3.089031219482421875e+00,3.010856389999389648e+00,2.936541080474853516e+00,2.865805387496948242e+00,2.798397779464721680e+00,2.734087944030761719e+00,2.672667980194091797e+00,2.613946676254272461e+00,2.557750225067138672e+00,2.503919124603271484e+00,2.452307462692260742e+00,2.402780294418334961e+00,2.355214118957519531e+00,2.309494495391845703e+00,2.265516281127929688e+00,2.223181724548339844e+00,2.182400226593017578e+00,2.143087863922119141e+00,2.105166912078857422e+00,2.068564414978027344e+00,2.033213138580322266e+00,1.999049782752990723e+00,1.966015577316284180e+00,1.934055209159851074e+00,1.903117656707763672e+00,1.873154044151306152e+00,1.844119310379028320e+00
5.000000000000000000e+00,5.000000000000000000e+00,5.000000000000000000e+00,5.000000000000000000e+00,5.000000000000000000e+00,5.000000000000000000e+00,5.000000000000000000e+00,5.000000000000000000e+00,5.000000000000000000e+00,5.000000000000000000e+00,5.000000000000000000e+00,5.000000000000000000e+00,5.000000000000000000e+00,5.000000000000000000e+00,5.000000000000000000e+00,5.000000000000000000e+00,5.000000000000000000e+00,5.000000000000000000e+00,5.000000000000000000e+00,5.000000000000000000e+00,5.000000000000000000e+00,5.000000000000000000e+00,4.335305690765380859e+00,4.314360141754150391e+00,4.257511138916015625e+00,4.261295318603515625e+00,4.282180786132812500e+00,4.342806816101074219e+00,4.409819126129150391e+00,5.000000000000000000e+00,5.000000000000000000e+00,5.000000000000000000e+00,5.000000000000000000e+00,5.000000000000000000e+00,5.000000000000000000e+00,5.000000000000000000e+00,5.000000000000000000e+00,5.000000000000000000e+00,5.000000000000000000e+00,4.853289604187011719e+00,4.663066864013671875e+00,4.487193584442138672e+00,4.324104309082031250e+00,4.172454833984375000e+00,4.031081199645996094e+00,3.898974657058715820e+00,3.775251388549804688e+00,3.659139394760131836e+00,3.549956083297729492e+00,3.447099924087524414e+00,3.350035905838012695e+00,3.258288860321044922e+00,3.171432971954345703e+00,3.089087486267089844e+00,3.010910034179687500e+00,2.936591863632202148e+00,2.865854024887084961e+00,2.798444032669067383e+00,2.734132051467895508e+00,2.672710180282592773e+00,2.613986968994140625e+00,2.557788848876953125e+00,2.503956079483032227e+00,2.452342987060546875e+00,2.402814388275146484e+00,2.355247020721435547e+00,2.309525966644287109e+00,2.265546560287475586e+00,2.223210811614990234e+00,2.182428359985351562e+00,2.143115043640136719e+00,2.105193138122558594e+00,2.068589687347412109e+00,2.033237695693969727e+00,1.999073386192321777e+00,1.966038465499877930e+00,1.934077262878417969e+00,1.903138995170593262e+00,1.873174667358398438e+00,1.844139337539672852e+00
5.000000000000000000e+00,5.000000000000000000e+00,5.000000000000000000e+00,5.000000000000000000e+00,5.000000000000000000e+00,5.000000000000000000e+00,5.000000000000000000e+00,5.000000000000000000e+00,5.000000000000000000e+00,5.000000000000000000e+00,5.000000000000000000e+00,5.000000000000000000e+00,5.000000000000000000e+00,5.000000000000000000e+00,5.000000000000000000e+00,5.000000000000000000e+00,5.000000000000000000e+00,5.000000000000000000e+00,5.000000000000000000e+00,5.000000000000000000e+00,5.000000000000000000e+00,5.000000000000000000e+00,5.000000000000000000e+00,4.319080352783203125e+00,4.257544994354248047e+00,4.253121852874755859e+00,4.279850959777832031e+00,4.355146884918212891e+00,4.410944461822509766e+00,5.000000000000000000e+00,5.000000000000000000e+00,5.000000000000000000e+00,5.000000000000000000e+00,5.000000000000000000e+00,5.000000000000000000e+00,5.000000000000000000e+00,5.000000000000000000e+00,5.000000000000000000e+00,5.000000000000000000e+00,4.853428363800048828e+00,4.663195133209228516e+00,4.487312316894531250e+00,4.324214935302734375e+00,4.172557353973388672e+00,4.031177043914794922e+00,3.899064540863037109e+00,3.775335550308227539e+00,3.659218311309814453e+00,3.550030469894409180e+00,3.447170019149780273e+00,3.350102186203002930e+00,3.258351564407348633e+00,3.171492099761962891e+00,3.089143753051757812e+00,3.010963439941406250e+00,2.936642885208129883e+00,2.865902423858642578e+00,2.798490285873413086e+00,2.734176158905029297e+00,2.672752380371093750e+00,2.614027261734008789e+00,2.557827472686767578e+00,2.503993034362792969e+00,2.452378511428833008e+00,2.402848243713378906e+00,2.355279684066772461e+00,2.309557437896728516e+00,2.265576839447021484e+00,2.223240137100219727e+00,2.182456493377685547e+00,2.143142223358154297e+00,2.105219364166259766e+00,2.068614959716796875e+00,2.033262014389038086e+00,1.999096989631652832e+00,1.966061234474182129e+00,1.934099316596984863e+00,1.903160333633422852e+00,1.873195409774780273e+00,1.844159483909606934e+00
5.000000000000000000e+00,5.000000000000000000e+00,5.000000000000000000e+00,5.000000000000000000e+00,5.000000000000000000e+00,5.000000000000000000e+00,5.000000000000000000e+00,5.000000000000000000e+00,5.000000000000000000e+00,5.000000000000000000e+00,5.000000000000000000e+00,5.000000000000000000e+00,5.000000000000000000e+00,5.000000000000000000e+00,5.000000000000000000e+00,5.000000000000000000e+00,5.000000000000000000e+00,5.000000000000000000e+00,5.000000000000000000e+00,5.000000000000000000e+00,5.000000000000000000e+00,5.000000000000000000e+00,5.000000000000000000e+00,4.327610969543457031e+00,4.248427867889404297e+00,4.258026123046875000e+00,4.274677753448486328e+00,4.384942054748535156e+00,4.423531532287597656e+00,5.000000000000000000e+00,5.000000000000000000e+00,5.000000000000000000e+00,5.000000000000000000e+00,5.000000000000000000e+00,5.000000000000000000e+00,5.000000000000000000e+00,5.000000000000000000e+00,5.000000000000000000e+00,5.000000000000000000e+00,4.853567600250244141e+00,4.663323879241943359e+00,4.487431526184082031e+00,4.324325561523437500e+00,4.172660350799560547e+00,4.031273365020751953e+00,3.899154186248779297e+00,3.775420188903808594e+00,3.659297466278076172e+00,3.550105094909667969e+00,3.447240114212036133e+00,3.350168704986572266e+00,3.258414268493652344e+00,3.171551942825317383e+00,3.089200258255004883e+00,3.011017084121704102e+00,2.936693668365478516e+00,2.865951061248779297e+00,2.798536539077758789e+00,2.734220504760742188e+00,2.672794342041015625e+00,2.614067792892456055e+00,2.557866096496582031e+00,2.504030227661132812e+00,2.452413797378540039e+00,2.402882575988769531e+00,2.355312347412109375e+00,2.309589147567749023e+00,2.265607118606567383e+00,2.223269224166870117e+00,2.182484626770019531e+00,2.143169403076171875e+00,2.105245351791381836e+00,2.068640232086181641e+00,2.033286333084106445e+00,1.999120593070983887e+00,1.966084003448486328e+00,1.934121608734130859e+00,1.903181791305541992e+00,1.873216152191162109e+00,1.844179511070251465e+00
5.000000000000000000e+00,5.000000000000000000e+00,5.000000000000000000e+00,5.000000000000000000e+00,5.000000000000000000e+00,5.000000000000000000e+00,5.000000000000000000e+00,5.000000000000000000e+00,5.000000000000000000e+00,5.000000000000000000e+00,5.000000000000000000e+00,5.000000000000000000e+00,5.000000000000000000e+00,5.000000000000000000e+00,5.000000000000000000e+00,5.000000000000000000e+00,5.000000000000000000e+00,5.000000000000000000e+00,5.000000000000000000e+00,5.000000000000000000e+00,5.000000000000000000e+00,5.000000000000000000e+00,5.000000000000000000e+00,4.339651584625244141e+00,4.257385253906250000e+00,4.248770713806152344e+00,4.275759696960449219e+00,4.359478950500488281e+00,4.427811145782470703e+00,5.000000000000000000e+00,5.000000000000000000e+00,5.000000000000000000e+00,5.000000000000000000e+00,5.000000000000000000e+00,5.000000000000000000e+00,5.000000000000000000e+00,5.000000000000000000e+00,5.000000000000000000e+00,5.000000000000000000e+00,4.853706836700439453e+00,4.663452148437500000e+00,4.487550258636474609e+00,4.324435710906982422e+00,4.172763347625732422e+00,4.031369209289550781e+00,3.899243831634521484e+00,3.775504350662231445e+00,3.659376382827758789e+00,3.550179481506347656e+00,3.447310209274291992e+00,3.350234985351562500e+00,3.258476734161376953e+00,3.171611309051513672e+00,3.089256525039672852e+00,3.011070728302001953e+00,2.936744451522827148e+00,2.865999460220336914e+00,2.798582553863525391e+00,2.734264612197875977e+00,2.672836542129516602e+00,2.614108085632324219e+00,2.557904720306396484e+00,2.504067420959472656e+00,2.452449321746826172e+00,2.402916669845581055e+00,2.355345249176025391e+00,2.309620618820190430e+00,2.265637397766113281e+00,2.223298549652099609e+00,2.182512760162353516e+00,2.143196582794189453e+00,2.105271577835083008e+00,2.068665504455566406e+00,2.033310890197753906e+00,1.999144196510314941e+00,1.966106891632080078e+00,1.934143662452697754e+00,1.903203129768371582e+00,1.873236775398254395e+00,1.844199538230895996e+00
5.000000000000000000e+00,5.000000000000000000e+00,5.000000000000000000e+00,5.000000000000000000e+00,5.000000000000000000e+00,5.000000000000000000e+00,5.000000000000000000e+00,5.000000000000000000e+00,5.000000000000000000e+00,5.000000000000000000e+00,5.000000000000000000e+00,5.000000000000000000e+00,5.000000000000000000e+00,5.000000000000000000e+00,5.000000000000000000e+00,5.000000000000000000e+00,5.000000000000000000e+00,5.000000000000000000e+00,5.000000000000000000e+00,5.000000000000000000e+00,5.000000000000000000e+00,5.000000000000000000e+00,5.000000000000000000e+00,4.303392410278320312e+00,4.250041007995605469e+00,4.263803958892822266e+00,4.287011146545410156e+00,4.323519706726074219e+00,4.414446830749511719e+00,5.000000000000000000e+00,5.000000000000000000e+00,5.000000000000000000e+00,5.000000000000000000e+00,5.000000000000000000e+00,5.000000000000000000e+00,5.000000000000000000e+00,5.000000000000000000e+00,5.000000000000000000e+00,5.000000000000000000e+00,4.853846073150634766e+00,4.663580417633056641e+00,4.487668991088867188e+00,4.324545860290527344e+00,4.172865867614746094e+00,4.031465053558349609e+00,3.899333477020263672e+00,3.775588274002075195e+00,3.659455299377441406e+00,3.550253868103027344e+00,3.447380304336547852e+00,3.350301027297973633e+00,3.258539438247680664e+00,3.171670675277709961e+00,3.089312791824340820e+00,3.011124134063720703e+00,2.936795473098754883e+00,2.866048097610473633e+00,2.798628807067871094e+00,2.734308719635009766e+00,2.672878742218017578e+00,2.614148378372192383e+00,2.557943344116210938e+00,2.504104375839233398e+00,2.452484846115112305e+00,2.402950763702392578e+00,2.355377912521362305e+00,2.309652090072631836e+00,2.265667676925659180e+00,2.223327636718750000e+00,2.182540893554687500e+00,2.143223524093627930e+00,2.105297803878784180e+00,2.068690776824951172e+00,2.033335208892822266e+00,1.999167799949645996e+00,1.966129660606384277e+00,1.934165716171264648e+00,1.903224468231201172e+00,1.873257517814636230e+00,1.844219684600830078e+00
5.000000000000000000e+00,5.000000000000000000e+00,5.000000000000000000e+00,5.000000000000000000e+00,5.000000000000000000e+00,5.000000000000000000e+00,5.000000000000000000e+00,5.000000000000000000e+00,5.000000000000000000e+00,5.000000000000000000e+00,5.000000000000000000e+00,5.000000000000000000e+00,5.000000000000000000e+00,5.000000000000000000e+00,5.000000000000000000e+00,5.000000000000000000e+00,5.000000000000000000e+00,5.000000000000000000e+00,5.000000000000000000e+00,5.000000000000000000e+00,5.000000000000000000e+00,5.000000000000000000e+00,5.000000000000000000e+00,4.218320846557617188e+00,4.198676586151123047e+00,4.277828693389892578e+00,4.260993003845214844e+00,4.289191246032714844e+00,4.415202140808105469e+00,5.000000000000000000e+00,5.000000000000000000e+00,5.000000000000000000e+00,5.000000000000000000e+00,5.000000000000000000e+00,5.000000000000000000e+00,5.000000000000000000e+00,5.000000000000000000e+00,5.000000000000000000e+00,5.000000000000000000e+00,4.853985309600830078e+00,4.663709163665771484e+00,4.487788200378417969e+00,4.324656486511230469e+00,4.172968864440917969e+00,4.031561374664306641e+00,3.899423837661743164e+00,3.775672435760498047e+00,3.659534931182861328e+00,3.550328254699707031e+00,3.447450876235961914e+00,3.350367307662963867e+00,3.258602380752563477e+00,3.171730041503906250e+00,3.089369297027587891e+00,3.011177778244018555e+00,2.936846494674682617e+00,2.866096496582031250e+00,2.798675298690795898e+00,2.734353065490722656e+00,2.672921180725097656e+00,2.614188671112060547e+00,2.557982206344604492e+00,2.504141330718994141e+00,2.452520608901977539e+00,2.402984857559204102e+00,2.355410814285278320e+00,2.309683561325073242e+00,2.265698194503784180e+00,2.223356962203979492e+00,2.182569026947021484e+00,2.143250703811645508e+00,2.105324029922485352e+00,2.068716049194335938e+00,2.033359766006469727e+00,1.999191284179687500e+00,1.966152667999267578e+00,1.934187889099121094e+00,1.903245806694030762e+00,1.873278260231018066e+00,1.844239950180053711e+00
5.000000000000000000e+00,5.000000000000000000e+00,5.000000000000000000e+00,5.000000000000000000e+00,5.000000000000000000e+00,5.000000000000000000e+00,5.000000000000000000e+00,5.000000000000000000e+00,5.000000000000000000e+00,5.000000000000000000e+00,5.000000000000000000e+00,5.000000000000000000e+00,5.000000000000000000e+00,5.000000000000000000e+00,5.000000000000000000e+00,5.000000000000000000e+00,5.000000000000000000e+00,5.000000000000000000e+00,5.000000000000000000e+00,5.000000000000000000e+00,5.000000000000000000e+00,5.000000000000000000e+00,5.000000000000000000e+00,4.188959598541259766e+00,4.176374912261962891e+00,4.266914367675781250e+00,4.243303298950195312e+00,4.278230667114257812e+00,4.377553462982177734e+00,5.000000000000000000e+00,5.000000000000000000e+00,5.000000000000000000e+00,5.000000000000000000e+00,5.000000000000000000e+00,5.000000000000000000e+00,5.000000000000000000e+00,5.000000000000000000e+00,5.000000000000000000e+00,5.000000000000000000e+00,4.854124069213867188e+00,4.663837432861328125e+00,4.487907409667968750e+00,4.324767112731933594e+00,4.173071861267089844e+00,4.031657218933105469e+00,3.899513483047485352e+00,3.775756597518920898e+00,3.659613847732543945e+00,3.550402641296386719e+00,3.447520971298217773e+00,3.350433588027954102e+00,3.258665084838867188e+00,3.171789407730102539e+00,3.089425802230834961e+00,3.011231184005737305e+00,2.936897516250610352e+00,2.866144895553588867e+00,2.798721551895141602e+00,2.734397172927856445e+00,2.672963380813598633e+00,2.614228963851928711e+00,2.558020830154418945e+00,2.504178285598754883e+00,2.452556133270263672e+00,2.403018951416015625e+00,2.355443477630615234e+00,2.309715032577514648e+00,2.265728473663330078e+00,2.223386049270629883e+00,2.182597160339355469e+00,2.143277883529663086e+00,2.105350255966186523e+00,2.068741321563720703e+00,2.033384084701538086e+00,1.999214887619018555e+00,1.966175556182861328e+00,1.934209942817687988e+00,1.903267264366149902e+00,1.873298883438110352e+00,1.844259977340698242e+00
5.000000000000000000e+00,5.000000000000000000e+00,5.000000000000000000e+00,5.000000000000000000e+00,5.000000000000000000e+00,5.000000000000000000e+00,5.000000000000000000e+00,5.000000000000000000e+00,5.000000000000000000e+00,5.000000000000000000e+00,5.000000000000000000e+00,5.000000000000000000e+00,5.000000000000000000e+00,5.000000000000000000e+00,5.000000000000000000e+00,5.000000000000000000e+00,5.000000000000000000e+00,5.000000000000000000e+00,5.000000000000000000e+00,5.000000000000000000e+00,5.000000000000000000e+00,5.000000000000000000e+00,4.204474449157714844e+00,4.165012836456298828e+00,4.155473709106445312e+00,5.000000000000000000e+00,4.236008167266845703e+00,4.274249076843261719e+00,4.356535911560058594e+00,4.413948535919189453e+00,5.000000000000000000e+00,5.000000000000000000e+00,5.000000000000000000e+00,5.000000000000000000e+00,5.000000000000000000e+00,5.000000000000000000e+00,5.000000000000000000e+00,5.000000000000000000e+00,5.000000000000000000e+00,4.854263305664062500e+00,4.663965702056884766e+00,4.488026142120361328e+00,4.324877262115478516e+00,4.173174381256103516e+00,4.031753063201904297e+00,3.899603128433227539e+00,3.775840759277343750e+00,3.659692764282226562e+00,3.550477027893066406e+00,3.447591066360473633e+00,3.350499868392944336e+00,3.258727788925170898e+00,3.171848773956298828e+00,3.089482069015502930e+00,3.011284589767456055e+00,2.936948299407958984e+00,2.866193532943725586e+00,2.798767805099487305e+00,2.734441280364990234e+00,2.673005342483520508e+00,2.614269495010375977e+00,2.558059215545654297e+00,2.504215240478515625e+00,2.452591657638549805e+00,2.403053045272827148e+00,2.355476379394531250e+00,2.309746503829956055e+00,2.265758752822875977e+00,2.223415136337280273e+00,2.182625293731689453e+00,2.143304824829101562e+00,2.105376243591308594e+00,2.068766593933105469e+00,2.033408403396606445e+00,1.999238491058349609e+00,1.966198325157165527e+00,1.934231996536254883e+00,1.903288602828979492e+00,1.873319625854492188e+00,1.844280004501342773e+00
5.000000000000000000e+00,5.000000000000000000e+00,5.000000000000000000e+00,5.000000000000000000e+00,5.000000000000000000e+00,5.000000000000000000e+00,5.000000000000000000e+00,5.000000000000000000e+00,5.000000000000000000e+00,5.000000000000000000e+00,5.000000000000000000e+00,5.000000000000000000e+00,5.000000000000000000e+00,5.000000000000000000e+00,5.000000000000000000e+00,5.000000000000000000e+00,5.000000000000000000e+00,5.000000000000000000e+00,5.000000000000000000e+00,5.000000000000000000e+00,5.000000000000000000e+00,5.000000000000000000e+00,5.000000000000000000e+00,4.138529300689697266e+00,4.135582447052001953e+00,5.000000000000000000e+00,4.226933002471923828e+00,4.270091056823730469e+00,5.000000000000000000e+00,5.000000000000000000e+00,5.000000000000000000e+00,5.000000000000000000e+00,5.000000000000000000e+00,5.000000000000000000e+00,5.000000000000000000e+00,5.000000000000000000e+00,5.000000000000000000e+00,5.000000000000000000e+00,5.000000000000000000e+00,4.854402542114257812e+00,4.664094448089599609e+00,4.488144874572753906e+00,4.324987888336181641e+00,4.173277378082275391e+00,4.031848907470703125e+00,3.899693012237548828e+00,3.775924921035766602e+00,3.659771919250488281e+00,3.550551414489746094e+00,3.447661161422729492e+00,3.350566148757934570e+00,3.258790493011474609e+00,3.171908140182495117e+00,3.089538335800170898e+00,3.011338233947753906e+00,2.936999320983886719e+00,2.866241931915283203e+00,2.798814058303833008e+00,2.734485387802124023e+00,2.673047542572021484e+00,2.614309787750244141e+00,2.558097839355468750e+00,2.504252433776855469e+00,2.452626943588256836e+00,2.403087139129638672e+00,2.355509042739868164e+00,2.309777975082397461e+00,2.265789031982421875e+00,2.223444461822509766e+00,2.182653427124023438e+00,2.143332004547119141e+00,2.105402469635009766e+00,2.068791866302490234e+00,2.033432960510253906e+00,1.999262094497680664e+00,1.966221094131469727e+00,1.934254050254821777e+00,1.903309941291809082e+00,1.873340368270874023e+00,1.844300150871276855e+00
5.000000000000000000e+00,5.000000000000000000e+00,5.000000000000000000e+00,5.000000000000000000e+00,5.000000000000000000e+00,5.000000000000000000e+00,5.000000000000000000e+00,5.000000000000000000e+00,5.000000000000000000e+00,5.000000000000000000e+00,5.000000000000000000e+00,5.000000000000000000e+00,5.000000000000000000e+00,5.000000000000000000e+00,5.000000000000000000e+00,5.000000000000000000e+00,5.000000000000000000e+00,5.000000000000000000e+00,5.000000000000000000e+00,5.000000000000000000e+00,5.000000000000000000e+00,5.000000000000000000e+00,5.000000000000000000e+00,4.122035026550292969e+00,4.115791797637939453e+00,5.000000000000000000e+00,4.214236736297607422e+00,5.000000000000000000e+00,5.000000000000000000e+00,5.000000000000000000e+00,5.000000000000000000e+00,5.000000000000000000e+00,5.000000000000000000e+00,5.000000000000000000e+00,5.000000000000000000e+00,5.000000000000000000e+00,5.000000000000000000e+00,5.000000000000000000e+00,5.000000000000000000e+00,4.854541778564453125e+00,4.664223194122314453e+00,4.488264083862304688e+00,4.325098514556884766e+00,4.173380374908447266e+00,4.031945228576660156e+00,3.899782657623291016e+00,3.776009321212768555e+00,3.659850835800170898e+00,3.550626039505004883e+00,3.447731256484985352e+00,3.350632667541503906e+00,3.258853197097778320e+00,3.171967744827270508e+00,3.089594602584838867e+00,3.011391878128051758e+00,2.937050104141235352e+00,2.866290569305419922e+00,2.798860311508178711e+00,2.734529733657836914e+00,2.673089742660522461e+00,2.614350318908691406e+00,2.558136463165283203e+00,2.504289627075195312e+00,2.452662467956542969e+00,2.403121232986450195e+00,2.355541706085205078e+00,2.309809684753417969e+00,2.265819311141967773e+00,2.223473787307739258e+00,2.182681560516357422e+00,2.143359184265136719e+00,2.105428695678710938e+00,2.068817138671875000e+00,2.033457279205322266e+00,1.999285936355590820e+00,1.966243982315063477e+00,1.934276103973388672e+00,1.903331398963928223e+00,1.873361229896545410e+00,1.844320178031921387e+00
5.000000000000000000e+00,5.000000000000000000e+00,5.000000000000000000e+00,5.000000000000000000e+00,5.000000000000000000e+00,5.000000000000000000e+00,5.000000000000000000e+00,5.000000000000000000e+00,5.000000000000000000e+00,5.000000000000000000e+00,5.000000000000000000e+00,5.000000000000000000e+00,5.000000000000000000e+00,5.000000000000000000e+00,5.000000000000000000e+00,5.000000000000000000e+00,5.000000000000000000e+00,5.000000000000000000e+00,5.000000000000000000e+00,5.000000000000000000e+00,5.000000000000000000e+00,5.000000000000000000e+00,5.000000000000000000e+00,5.000000000000000000e+00,4.134657859802246094e+00,5.000000000000000000e+00,4.227749824523925781e+00,5.000000000000000000e+00,5.000000000000000000e+00,5.000000000000000000e+00,5.000000000000000000e+00,5.000000000000000000e+00,5.000000000000000000e+00,5.000000000000000000e+00,5.000000000000000000e+00,5.000000000000000000e+00,5.000000000000000000e+00,5.000000000000000000e+00,5.000000000000000000e+00,4.854679107666015625e+00,4.664351463317871094e+00,4.488382816314697266e+00,4.325208663940429688e+00,4.173482894897460938e+00,4.032041072845458984e+00,3.899872541427612305e+00,3.776093482971191406e+00,3.659929990768432617e+00,3.550700426101684570e+00,3.447801589965820312e+00,3.350698947906494141e+00,3.258915901184082031e+00,3.172027111053466797e+00,3.089651107788085938e+00,3.011445522308349609e+00,2.937101125717163086e+00,2.866339206695556641e+00,2.798906326293945312e+00,2.734573841094970703e+00,2.673131942749023438e+00,2.614390611648559570e+00,2.558175086975097656e+00,2.504326581954956055e+00,2.452697992324829102e+00,2.403155326843261719e+00,2.355574607849121094e+00,2.309841156005859375e+00,2.265849590301513672e+00,2.223502874374389648e+00,2.182709693908691406e+00,2.143386363983154297e+00,2.105454683303833008e+00,2.068842411041259766e+00,2.033481597900390625e+00,1.999309539794921875e+00,1.966266751289367676e+00,1.934298276901245117e+00,1.903352737426757812e+00,1.873381972312927246e+00,1.844340324401855469e+00
5.000000000000000000e+00,5.000000000000000000e+00,5.000000000000000000e+00,5.000000000000000000e+00,5.000000000000000000e+00,5.000000000000000000e+00,5.000000000000000000e+00,5.000000000000000000e+00,5.000000000000000000e+00,5.000000000000000000e+00,5.000000000000000000e+00,5.000000000000000000e+00,5.000000000000000000e+00,5.000000000000000000e+00,5.000000000000000000e+00,5.000000000000000000e+00,5.000000000000000000e+00,5.000000000000000000e+00,5.000000000000000000e+00,5.000000000000000000e+00,5.000000000000000000e+00,5.000000000000000000e+00,5.000000000000000000e+00,5.000000000000000000e+00,4.245186328887939453e+00,5.000000000000000000e+00,4.269342422485351562e+00,5.000000000000000000e+00,5.000000000000000000e+00,5.000000000000000000e+00,5.000000000000000000e+00,5.000000000000000000e+00,5.000000000000000000e+00,5.000000000000000000e+00,5.000000000000000000e+00,5.000000000000000000e+00,5.000000000000000000e+00,5.000000000000000000e+00,5.000000000000000000e+00,4.854816913604736328e+00,4.664479732513427734e+00,4.488502025604248047e+00,4.325319290161132812e+00,4.173585891723632812e+00,4.032136917114257812e+00,3.899962186813354492e+00,3.776177644729614258e+00,3.660008907318115234e+00,3.550774812698364258e+00,3.447871685028076172e+00,3.350765228271484375e+00,3.258978366851806641e+00,3.172086477279663086e+00,3.089707374572753906e+00,3.011498928070068359e+00,2.937151908874511719e+00,2.866387605667114258e+00,2.798952579498291016e+00,2.734617948532104492e+00,2.673174142837524414e+00,2.614430904388427734e+00,2.558213710784912109e+00,2.504363536834716797e+00,2.452733516693115234e+00,2.403189420700073242e+00,2.355607271194458008e+00,2.309872627258300781e+00,2.265880107879638672e+00,2.223531961441040039e+00,2.182737827301025391e+00,2.143413543701171875e+00,2.105480909347534180e+00,2.068867683410644531e+00,2.033506155014038086e+00,1.999333143234252930e+00,1.966289639472961426e+00,1.934320330619812012e+00,1.903374075889587402e+00,1.873402714729309082e+00,1.844360351562500000e+00
5.000000000000000000e+00,5.000000000000000000e+00,5.000000000000000000e+00,5.000000000000000000e+00,5.000000000000000000e+00,5.000000000000000000e+00,5.000000000000000000e+00,5.000000000000000000e+00,5.000000000000000000e+00,5.000000000000000000e+00,5.000000000000000000e+00,5.000000000000000000e+00,5.000000000000000000e+00,5.000000000000000000e+00,5.000000000000000000e+00,5.000000000000000000e+00,5.000000000000000000e+00,5.000000000000000000e+00,5.000000000000000000e+00,5.000000000000000000e+00,5.000000000000000000e+00,5.000000000000000000e+00,5.000000000000000000e+00,5.000000000000000000e+00,4.314331531524658203e+00,5.000000000000000000e+00,4.291707515716552734e+00,5.000000000000000000e+00,5.000000000000000000e+00,5.000000000000000000e+00,5.000000000000000000e+00,5.000000000000000000e+00,5.000000000000000000e+00,5.000000000000000000e+00,5.000000000000000000e+00,5.000000000000000000e+00,5.000000000000000000e+00,5.000000000000000000e+00,5.000000000000000000e+00,4.854955196380615234e+00,4.664606094360351562e+00,4.488620758056640625e+00,4.325429916381835938e+00,4.173688888549804688e+00,4.032233238220214844e+00,3.900052309036254883e+00,3.776261806488037109e+00,3.660088539123535156e+00,3.550849437713623047e+00,3.447942256927490234e+00,3.350831508636474609e+00,3.259041547775268555e+00,3.172145843505859375e+00,3.089763879776000977e+00,3.011552572250366211e+00,2.937203168869018555e+00,2.866436004638671875e+00,2.798999071121215820e+00,2.734662055969238281e+00,2.673216581344604492e+00,2.614471197128295898e+00,2.558252573013305664e+00,2.504400491714477539e+00,2.452769279479980469e+00,2.403223514556884766e+00,2.355640172958374023e+00,2.309904098510742188e+00,2.265910387039184570e+00,2.223561286926269531e+00,2.182765960693359375e+00,2.143440485000610352e+00,2.105507135391235352e+00,2.068892955780029297e+00,2.033530712127685547e+00,1.999356627464294434e+00,1.966312408447265625e+00,1.934342384338378906e+00,1.903395652770996094e+00,1.873423337936401367e+00,1.844380378723144531e+00
5.000000000000000000e+00,5.000000000000000000e+00,5.000000000000000000e+00,5.000000000000000000e+00,5.000000000000000000e+00,5.000000000000000000e+00,5.000000000000000000e+00,5.000000000000000000e+00,5.000000000000000000e+00,5.000000000000000000e+00,5.000000000000000000e+00,5.000000000000000000e+00,5.000000000000000000e+00,5.000000000000000000e+00,5.000000000000000000e+00,5.000000000000000000e+00,5.000000000000000000e+00,5.000000000000000000e+00,5.000000000000000000e+00,5.000000000000000000e+00,5.000000000000000000e+00,5.000000000000000000e+00,5.000000000000000000e+00,5.000000000000000000e+00,5.000000000000000000e+00,4.564593791961669922e+00,4.305348873138427734e+00,5.000000000000000000e+00,5.000000000000000000e+00,5.000000000000000000e+00,5.000000000000000000e+00,5.000000000000000000e+00,5.000000000000000000e+00,5.000000000000000000e+00,5.000000000000000000e+00,5.000000000000000000e+00,5.000000000000000000e+00,5.000000000000000000e+00,5.000000000000000000e+00,4.855093479156494141e+00,4.664733409881591797e+00,4.488738059997558594e+00,4.325540542602539062e+00,4.173791408538818359e+00,4.032329082489013672e+00,3.900142192840576172e+00,3.776345968246459961e+00,3.660167455673217773e+00,3.550923824310302734e+00,3.448012351989746094e+00,3.350897550582885742e+00,3.259104013442993164e+00,3.172205209732055664e+00,3.089820384979248047e+00,3.011605978012084961e+00,2.937254190444946289e+00,2.866484642028808594e+00,2.799045324325561523e+00,2.734706163406372070e+00,2.673258781433105469e+00,2.614511489868164062e+00,2.558291196823120117e+00,2.504437685012817383e+00,2.452804803848266602e+00,2.403257608413696289e+00,2.355672836303710938e+00,2.309935569763183594e+00,2.265940666198730469e+00,2.223590373992919922e+00,2.182794094085693359e+00,2.143467664718627930e+00,2.105533361434936523e+00,2.068918228149414062e+00,2.033555030822753906e+00,1.999380230903625488e+00,1.966335177421569824e+00,1.934364438056945801e+00,1.903417110443115234e+00,1.873444080352783203e+00,1.844400525093078613e+00
5.000000000000000000e+00,5.000000000000000000e+00,5.000000000000000000e+00,5.000000000000000000e+00,5.000000000000000000e+00,5.000000000000000000e+00,5.000000000000000000e+00,5.000000000000000000e+00,5.000000000000000000e+00,5.000000000000000000e+00,5.000000000000000000e+00,5.000000000000000000e+00,5.000000000000000000e+00,5.000000000000000000e+00,5.000000000000000000e+00,5.000000000000000000e+00,5.000000000000000000e+00,5.000000000000000000e+00,5.000000000000000000e+00,5.000000000000000000e+00,5.000000000000000000e+00,5.000000000000000000e+00,5.000000000000000000e+00,5.000000000000000000e+00,4.502883434295654297e+00,5.000000000000000000e+00,4.340328693389892578e+00,5.000000000000000000e+00,5.000000000000000000e+00,5.000000000000000000e+00,5.000000000000000000e+00,5.000000000000000000e+00,5.000000000000000000e+00,5.000000000000000000e+00,5.000000000000000000e+00,5.000000000000000000e+00,5.000000000000000000e+00,5.000000000000000000e+00,5.000000000000000000e+00,4.855231285095214844e+00,4.664860725402832031e+00,4.488855838775634766e+00,4.325649261474609375e+00,4.173894405364990234e+00,4.032425403594970703e+00,3.900231838226318359e+00,3.776430130004882812e+00,3.660246610641479492e+00,3.550998210906982422e+00,3.448082447052001953e+00,3.350963830947875977e+00,3.259166717529296875e+00,3.172264575958251953e+00,3.089876651763916016e+00,3.011659622192382812e+00,2.937304973602294922e+00,2.866533041000366211e+00,2.799091577529907227e+00,2.734750270843505859e+00,2.673300743103027344e+00,2.614552021026611328e+00,2.558329820632934570e+00,2.504474639892578125e+00,2.452840089797973633e+00,2.403291702270507812e+00,2.355705738067626953e+00,2.309967041015625000e+00,2.265970945358276367e+00,2.223619461059570312e+00,2.182822227478027344e+00,2.143494844436645508e+00,2.105559587478637695e+00,2.068943500518798828e+00,2.033579349517822266e+00,1.999403834342956543e+00,1.966358065605163574e+00,1.934386491775512695e+00,1.903438448905944824e+00,1.873464822769165039e+00,1.844420552253723145e+00
5.000000000000000000e+00,5.000000000000000000e+00,5.000000000000000000e+00,5.000000000000000000e+00,5.000000000000000000e+00,5.000000000000000000e+00,5.000000000000000000e+00,5.000000000000000000e+00,5.000000000000000000e+00,5.000000000000000000e+00,5.000000000000000000e+00,5.000000000000000000e+00,5.000000000000000000e+00,5.000000000000000000e+00,5.000000000000000000e+00,5.000000000000000000e+00,5.000000000000000000e+00,5.000000000000000000e+00,5.000000000000000000e+00,5.000000000000000000e+00,5.000000000000000000e+00,5.000000000000000000e+00,5.000000000000000000e+00,5.000000000000000000e+00,4.455195903778076172e+00,5.000000000000000000e+00,4.389787673950195312e+00,5.000000000000000000e+00,5.000000000000000000e+00,5.000000000000000000e+00,5.000000000000000000e+00,5.000000000000000000e+00,5.000000000000000000e+00,5.000000000000000000e+00,5.000000000000000000e+00,5.000000000000000000e+00,5.000000000000000000e+00,5.000000000000000000e+00,5.000000000000000000e+00,4.855369567871093750e+00,4.664988517761230469e+00,4.488974094390869141e+00,4.325758934020996094e+00,4.173997402191162109e+00,4.032521247863769531e+00,3.900321722030639648e+00,3.776514768600463867e+00,3.660325527191162109e+00,3.551072835922241211e+00,3.448152542114257812e+00,3.351030588150024414e+00,3.259229421615600586e+00,3.172324180603027344e+00,3.089932918548583984e+00,3.011713266372680664e+00,2.937355995178222656e+00,2.866581916809082031e+00,2.799137830734252930e+00,2.734794616699218750e+00,2.673342943191528320e+00,2.614592552185058594e+00,2.558368444442749023e+00,2.504511833190917969e+00,2.452875614166259766e+00,2.403326034545898438e+00,2.355738401412963867e+00,2.309998750686645508e+00,2.266001462936401367e+00,2.223648786544799805e+00,2.182850360870361328e+00,2.143522024154663086e+00,2.105585813522338867e+00,2.068968772888183594e+00,2.033603906631469727e+00,1.999427437782287598e+00,1.966380834579467773e+00,1.934408903121948242e+00,1.903459787368774414e+00,1.873485565185546875e+00,1.844440579414367676e+00
4.875095844268798828e+00,4.873885631561279297e+00,4.872675418853759766e+00,4.871466636657714844e+00,4.870257854461669922e+00,4.869049549102783203e+00,4.867842197418212891e+00,4.866635322570800781e+00,4.865428924560546875e+00,4.864223003387451172e+00,4.863018035888671875e+00,4.861813545227050781e+00,4.860609531402587891e+00,4.859406471252441406e+00,4.858203411102294922e+00,4.857001304626464844e+00,4.855800151824951172e+00,4.854599475860595703e+00,4.853398799896240234e+00,4.852199077606201172e+00,4.850999832153320312e+00,4.849801540374755859e+00,4.848603725433349609e+00,4.847406387329101562e+00,4.846209526062011719e+00,4.242069244384765625e+00,4.309108257293701172e+00,4.842622756958007812e+00,4.841428756713867188e+00,4.840234756469726562e+00,4.839041233062744141e+00,4.837848663330078125e+00,4.836656570434570312e+00,4.835464954376220703e+00,4.834273815155029297e+00,4.833084106445312500e+00,4.831894397735595703e+00,4.830705165863037109e+00,4.829516410827636719e+00,4.828328609466552734e+00,4.665116310119628906e+00,4.489092350006103516e+00,4.325868606567382812e+00,4.174098491668701172e+00,4.032617568969726562e+00,3.900411367416381836e+00,3.776598930358886719e+00,3.660404682159423828e+00,3.551147222518920898e+00,3.448222875595092773e+00,3.351096868515014648e+00,3.259292125701904297e+00,3.172383546829223633e+00,3.089989185333251953e+00,3.011766910552978516e+00,2.937406778335571289e+00,2.866630315780639648e+00,2.799184083938598633e+00,2.734838724136352539e+00,2.673385143280029297e+00,2.614632844924926758e+00,2.558407068252563477e+00,2.504548788070678711e+00,2.452911138534545898e+00,2.403360128402709961e+00,2.355771064758300781e+00,2.310030221939086914e+00,2.266031742095947266e+00,2.223678112030029297e+00,2.182878494262695312e+00,2.143549203872680664e+00,2.105611801147460938e+00,2.068994045257568359e+00,2.033628225326538086e+00,1.999451041221618652e+00,1.966403603553771973e+00,1.934430956840515137e+00,1.903481245040893555e+00,1.873506188392639160e+00,1.844460725784301758e+00
3.777916193008422852e+00,3.777189016342163086e+00,3.776462554931640625e+00,3.775736331939697266e+00,3.775009870529174805e+00,3.774284124374389648e+00,3.773558378219604492e+00,3.772833108901977539e+00,3.772107839584350586e+00,3.771383285522460938e+00,3.770658969879150391e+00,3.769934654235839844e+00,3.769210815429687500e+00,3.768486976623535156e+00,3.767763853073120117e+00,3.767040491104125977e+00,3.766317844390869141e+00,3.765595674514770508e+00,3.764873266220092773e+00,3.764151334762573242e+00,3.763429403305053711e+00,3.762708187103271484e+00,3.761987209320068359e+00,3.761265993118286133e+00,3.760545730590820312e+00,3.759825229644775391e+00,3.759105205535888672e+00,3.758385419845581055e+00,3.757666110992431641e+00,3.756947040557861328e+00,3.756227731704711914e+00,3.755509376525878906e+00,3.754790782928466797e+00,3.754072666168212891e+00,3.753354787826538086e+00,3.752637386322021484e+00,3.751920223236083984e+00,3.751203060150146484e+00,3.750486373901367188e+00,3.749769687652587891e+00,3.749053716659545898e+00,3.748337984085083008e+00,3.747622013092041016e+00,3.746906757354736328e+00,3.746191501617431641e+00,3.745476961135864258e+00,3.744762182235717773e+00,3.660483837127685547e+00,3.551221847534179688e+00,3.448292970657348633e+00,3.351163148880004883e+00,3.259354829788208008e+00,3.172443151473999023e+00,3.090045690536499023e+00,3.011820316314697266e+00,2.937457799911499023e+00,2.866678714752197266e+00,2.799230337142944336e+00,2.734882831573486328e+00,2.673427343368530273e+00,2.614673137664794922e+00,2.558445692062377930e+00,2.504585742950439453e+00,2.452946662902832031e+00,2.403394222259521484e+00,2.355803966522216797e+00,2.310061693191528320e+00,2.266062021255493164e+00,2.223707199096679688e+00,2.182906627655029297e+00,2.143576383590698242e+00,2.105638027191162109e+00,2.069019317626953125e+00,2.033652544021606445e+00,1.999474644660949707e+00,1.966426491737365723e+00,1.934453010559082031e+00,1.903502583503723145e+00,1.873526930809020996e+00,1.844480752944946289e+00
3.083866834640502930e+00,3.083382606506347656e+00,3.082898139953613281e+00,3.082414150238037109e+00,3.081930160522460938e+00,3.081446170806884766e+00,3.080962657928466797e+00,3.080479145050048828e+00,3.079995870590209961e+00,3.079512596130371094e+00,3.079029560089111328e+00,3.078546762466430664e+00,3.078063726425170898e+00,3.077581405639648438e+00,3.077098846435546875e+00,3.076616525650024414e+00,3.076134443283081055e+00,3.075652360916137695e+00,3.075170516967773438e+00,3.074688673019409180e+00,3.074207305908203125e+00,3.073725700378417969e+00,3.073244571685791016e+00,3.072763681411743164e+00,3.072282552719116211e+00,3.071801900863647461e+00,3.071321010589599609e+00,3.070840835571289062e+00,3.070360422134399414e+00,3.069880247116088867e+00,3.069400310516357422e+00,3.068920135498046875e+00,3.068440675735473633e+00,3.067960739135742188e+00,3.067481517791748047e+00,3.067002296447753906e+00,3.066523075103759766e+00,3.066044092178344727e+00,3.065565347671508789e+00,3.065086603164672852e+00,3.064608097076416016e+00,3.064129829406738281e+00,3.063651561737060547e+00,3.063173294067382812e+00,3.062695503234863281e+00,3.062217473983764648e+00,3.061740159988403320e+00,3.061262607574462891e+00,3.060785055160522461e+00,3.060307979583740234e+00,3.059830904006958008e+00,3.059354066848754883e+00,3.058877229690551758e+00,3.058400630950927734e+00,3.011873960494995117e+00,2.937508583068847656e+00,2.866727352142333984e+00,2.799276590347290039e+00,2.734926939010620117e+00,2.673469543457031250e+00,2.614713430404663086e+00,2.558484315872192383e+00,2.504622936248779297e+00,2.452982187271118164e+00,2.403428316116333008e+00,2.355836629867553711e+00,2.310093164443969727e+00,2.266092300415039062e+00,2.223736286163330078e+00,2.182934761047363281e+00,2.143603324890136719e+00,2.105664253234863281e+00,2.069044589996337891e+00,2.033677101135253906e+00,1.999498248100280762e+00,1.966449260711669922e+00,1.934475064277648926e+00,1.903524041175842285e+00,1.873547673225402832e+00,1.844500899314880371e+00
2.605250597000122070e+00,2.604904890060424805e+00,2.604559183120727539e+00,2.604213714599609375e+00,2.603868246078491211e+00,2.603522777557373047e+00,2.603177547454833984e+00,2.602832317352294922e+00,2.602487087249755859e+00,2.602142333984375000e+00,2.601797342300415039e+00,2.601452589035034180e+00,2.601107835769653320e+00,2.600763082504272461e+00,2.600418567657470703e+00,2.600074052810668945e+00,2.599729776382446289e+00,2.599385738372802734e+00,2.599041461944580078e+00,2.598697185516357422e+00,2.598353147506713867e+00,2.598009347915649414e+00,2.597665548324584961e+00,2.597321748733520508e+00,2.596978187561035156e+00,2.596634626388549805e+00,2.596291303634643555e+00,2.595947742462158203e+00,2.595604658126831055e+00,2.595261573791503906e+00,2.594918251037597656e+00,2.594575405120849609e+00,2.594232320785522461e+00,2.593889713287353516e+00,2.593546867370605469e+00,2.593204259872436523e+00,2.592861890792846680e+00,2.592519283294677734e+00,2.592176914215087891e+00,2.591834545135498047e+00,2.591492414474487305e+00,2.591150522232055664e+00,2.590808391571044922e+00,2.590466499328613281e+00,2.590124607086181641e+00,2.589782953262329102e+00,2.589441061019897461e+00,2.589099645614624023e+00,2.588758230209350586e+00,2.588416814804077148e+00,2.588075637817382812e+00,2.587734222412109375e+00,2.587393283843994141e+00,2.587052345275878906e+00,2.586711406707763672e+00,2.586370706558227539e+00,2.586029767990112305e+00,2.585689306259155273e+00,2.585348606109619141e+00,2.585008144378662109e+00,2.584667921066284180e+00,2.558523178100585938e+00,2.504659891128540039e+00,2.453017950057983398e+00,2.403462409973144531e+00,2.355869531631469727e+00,2.310124635696411133e+00,2.266122817993164062e+00,2.223765611648559570e+00,2.182962894439697266e+00,2.143630504608154297e+00,2.105690479278564453e+00,2.069069862365722656e+00,2.033701658248901367e+00,1.999521851539611816e+00,1.966472387313842773e+00,1.934497237205505371e+00,1.903545379638671875e+00,1.873568415641784668e+00,1.844521164894104004e+00
2.255265474319458008e+00,2.255005359649658203e+00,2.254745006561279297e+00,2.254484891891479492e+00,2.254224777221679688e+00,2.253964662551879883e+00,2.253704786300659180e+00,2.253444671630859375e+00,2.253185033798217773e+00,2.252925157546997070e+00,2.252665281295776367e+00,2.252405643463134766e+00,2.252146005630493164e+00,2.251886367797851562e+00,2.251626968383789062e+00,2.251367568969726562e+00,2.251108169555664062e+00,2.250848770141601562e+00,2.250589609146118164e+00,2.250330209732055664e+00,2.250071048736572266e+00,2.249812126159667969e+00,2.249552965164184570e+00,2.249294042587280273e+00,2.249036073684692383e+00,2.248778581619262695e+00,2.248520851135253906e+00,2.248263359069824219e+00,2.248005867004394531e+00,2.247748374938964844e+00,2.247491121292114258e+00,2.247233629226684570e+00,2.246976613998413086e+00,2.246719360351562500e+00,2.246462106704711914e+00,2.246205091476440430e+00,2.245948076248168945e+00,2.245691299438476562e+00,2.245434284210205078e+00,2.245177507400512695e+00,2.244920492172241211e+00,2.244663953781127930e+00,2.244407415390014648e+00,2.244150638580322266e+00,2.243894100189208984e+00,2.243637561798095703e+00,2.243381261825561523e+00,2.243124961853027344e+00,2.242868661880493164e+00,2.242612361907958984e+00,2.242356061935424805e+00,2.242100000381469727e+00,2.241843938827514648e+00,2.241587877273559570e+00,2.241332054138183594e+00,2.241075992584228516e+00,2.240820169448852539e+00,2.240564346313476562e+00,2.240308761596679688e+00,2.240052938461303711e+00,2.239797353744506836e+00,2.239542007446289062e+00,2.239286422729492188e+00,2.239031076431274414e+00,2.238775491714477539e+00,2.238520383834838867e+00,2.238265037536621094e+00,2.238009929656982422e+00,2.223794698715209961e+00,2.182991027832031250e+00,2.143657684326171875e+00,2.105716705322265625e+00,2.069095134735107422e+00,2.033725976943969727e+00,1.999545335769653320e+00,1.966495156288146973e+00,1.934519290924072266e+00,1.903566718101501465e+00,1.873589038848876953e+00,1.844541192054748535e+00
1.988230228424072266e+00,1.988027811050415039e+00,1.987825751304626465e+00,1.987623453140258789e+00,1.987421274185180664e+00,1.987219214439392090e+00,1.987017035484313965e+00,1.986814975738525391e+00,1.986612915992736816e+00,1.986411094665527344e+00,1.986209034919738770e+00,1.986007094383239746e+00,1.985805392265319824e+00,1.985603570938110352e+00,1.985401749610900879e+00,1.985200166702270508e+00,1.984998345375061035e+00,1.984796643257141113e+00,1.984594941139221191e+00,1.984393596649169922e+00,1.984192013740539551e+00,1.983990430831909180e+00,1.983789086341857910e+00,1.983587622642517090e+00,1.983386278152465820e+00,1.983184814453125000e+00,1.982983708381652832e+00,1.982782363891601562e+00,1.982581138610839844e+00,1.982380151748657227e+00,1.982178926467895508e+00,1.981977820396423340e+00,1.981776952743530273e+00,1.981575846672058105e+00,1.981374859809875488e+00,1.981173872947692871e+00,1.980973124504089355e+00,1.980772256851196289e+00,1.980571389198303223e+00,1.980370759963989258e+00,1.980170011520385742e+00,1.979969263076782227e+00,1.979768633842468262e+00,1.979568123817443848e+00,1.979367494583129883e+00,1.979166984558105469e+00,1.978966593742370605e+00,1.978766202926635742e+00,1.978565692901611328e+00,1.978365540504455566e+00,1.978165149688720703e+00,1.977964758872985840e+00,1.977764487266540527e+00,1.977564454078674316e+00,1.977364301681518555e+00,1.977164030075073242e+00,1.976964235305786133e+00,1.976764082908630371e+00,1.976564049720764160e+00,1.976364016532897949e+00,1.976164340972900391e+00,1.975964307785034180e+00,1.975764513015747070e+00,1.975564837455749512e+00,1.975365042686462402e+00,1.975165247917175293e+00,1.974965810775756836e+00,1.974766135215759277e+00,1.974566459655761719e+00,1.974366784095764160e+00,1.974167466163635254e+00,1.973968029022216797e+00,1.973768472671508789e+00,1.973569273948669434e+00,1.973369836807250977e+00,1.966517925262451172e+00,1.934541344642639160e+00,1.903588175773620605e+00,1.873609781265258789e+00,1.844561338424682617e+00
1.777736902236938477e+00,1.777575135231018066e+00,1.777413368225097656e+00,1.777251839637756348e+00,1.777090072631835938e+00,1.776928424835205078e+00,1.776766896247863770e+00,1.776605367660522461e+00,1.776443719863891602e+00,1.776282429695129395e+00,1.776120901107788086e+00,1.775959372520446777e+00,1.775797843933105469e+00,1.775636672973632812e+00,1.775475144386291504e+00,1.775313854217529297e+00,1.775152683258056641e+00,1.774991273880004883e+00,1.774829983711242676e+00,1.774668812751770020e+00,1.774507761001586914e+00,1.774346470832824707e+00,1.774185299873352051e+00,1.774024367332458496e+00,1.773863196372985840e+00,1.773702144622802734e+00,1.773541212081909180e+00,1.773380279541015625e+00,1.773219227790832520e+00,1.773058295249938965e+00,1.772897481918334961e+00,1.772736549377441406e+00,1.772575736045837402e+00,1.772415041923522949e+00,1.772254228591918945e+00,1.772093415260314941e+00,1.771932601928710938e+00,1.771772027015686035e+00,1.771611332893371582e+00,1.771450638771057129e+00,1.771290183067321777e+00,1.771129608154296875e+00,1.770968914031982422e+00,1.770808577537536621e+00,1.770648002624511719e+00,1.770487546920776367e+00,1.770327091217041016e+00,1.770166754722595215e+00,1.770006299018859863e+00,1.769845962524414062e+00,1.769685745239257812e+00,1.769525408744812012e+00,1.769365072250366211e+00,1.769204854965209961e+00,1.769044756889343262e+00,1.768884539604187012e+00,1.768724322319030762e+00,1.768564462661743164e+00,1.768404245376586914e+00,1.768244147300720215e+00,1.768084287643432617e+00,1.767924189567565918e+00,1.767764210700988770e+00,1.767604231834411621e+00,1.767444491386413574e+00,1.767284512519836426e+00,1.767124652862548828e+00,1.766964912414550781e+00,1.766805052757263184e+00,1.766645312309265137e+00,1.766485452651977539e+00,1.766325950622558594e+00,1.766166210174560547e+00,1.766006469726562500e+00,1.765847086906433105e+00,1.765687346458435059e+00,1.765527844429016113e+00,1.765368461608886719e+00,1.765208840370178223e+00,1.765049338340759277e+00
1.607546448707580566e+00,1.607414126396179199e+00,1.607281804084777832e+00,1.607149720191955566e+00,1.607017517089843750e+00,1.606885313987731934e+00,1.606753110885620117e+00,1.606621146202087402e+00,1.606488943099975586e+00,1.606356859207153320e+00,1.606224894523620605e+00,1.606092810630798340e+00,1.605960726737976074e+00,1.605828642845153809e+00,1.605696797370910645e+00,1.605564832687377930e+00,1.605432868003845215e+00,1.605301022529602051e+00,1.605169057846069336e+00,1.605037212371826172e+00,1.604905486106872559e+00,1.604773640632629395e+00,1.604641795158386230e+00,1.604509949684143066e+00,1.604378223419189453e+00,1.604246497154235840e+00,1.604114770889282227e+00,1.603983163833618164e+00,1.603851437568664551e+00,1.603719711303710938e+00,1.603588104248046875e+00,1.603456616401672363e+00,1.603324890136718750e+00,1.603193283081054688e+00,1.603061914443969727e+00,1.602930307388305664e+00,1.602798819541931152e+00,1.602667450904846191e+00,1.602535963058471680e+00,1.602404475212097168e+00,1.602272987365722656e+00,1.602141737937927246e+00,1.602010250091552734e+00,1.601878881454467773e+00,1.601747632026672363e+00,1.601616382598876953e+00,1.601485013961791992e+00,1.601353764533996582e+00,1.601222634315490723e+00,1.601091384887695312e+00,1.600960135459899902e+00,1.600829005241394043e+00,1.600697875022888184e+00,1.600566625595092773e+00,1.600435614585876465e+00,1.600304484367370605e+00,1.600173354148864746e+00,1.600042343139648438e+00,1.599911332130432129e+00,1.599780321121215820e+00,1.599649310111999512e+00,1.599518418312072754e+00,1.599387407302856445e+00,1.599256515502929688e+00,1.599125504493713379e+00,1.598994731903076172e+00,1.598863840103149414e+00,1.598733067512512207e+00,1.598602294921875000e+00,1.598471522331237793e+00,1.598340630531311035e+00,1.598209977149963379e+00,1.598079323768615723e+00,1.597948551177978516e+00,1.597817778587341309e+00,1.597687244415283203e+00,1.597556591033935547e+00,1.597425937652587891e+00,1.597295403480529785e+00,1.597164750099182129e+00
1.467094898223876953e+00,1.466984868049621582e+00,1.466874718666076660e+00,1.466764569282531738e+00,1.466654539108276367e+00,1.466544389724731445e+00,1.466434240341186523e+00,1.466324210166931152e+00,1.466214179992675781e+00,1.466104149818420410e+00,1.465994119644165039e+00,1.465884208679199219e+00,1.465774178504943848e+00,1.465664148330688477e+00,1.465554356575012207e+00,1.465444326400756836e+00,1.465334415435791016e+00,1.465224504470825195e+00,1.465114712715148926e+00,1.465004801750183105e+00,1.464894890785217285e+00,1.464785218238830566e+00,1.464675307273864746e+00,1.464565515518188477e+00,1.464455723762512207e+00,1.464346051216125488e+00,1.464236259460449219e+00,1.464126467704772949e+00,1.464016914367675781e+00,1.463907122611999512e+00,1.463797450065612793e+00,1.463687777519226074e+00,1.463578104972839355e+00,1.463468432426452637e+00,1.463358879089355469e+00,1.463249325752258301e+00,1.463139653205871582e+00,1.463030099868774414e+00,1.462920665740966797e+00,1.462811112403869629e+00,1.462701559066772461e+00,1.462592005729675293e+00,1.462482571601867676e+00,1.462373137474060059e+00,1.462263584136962891e+00,1.462154269218444824e+00,1.462044835090637207e+00,1.461935400962829590e+00,1.461825966835021973e+00,1.461716771125793457e+00,1.461607336997985840e+00,1.461498022079467773e+00,1.461388707160949707e+00,1.461279392242431641e+00,1.461170077323913574e+00,1.461060881614685059e+00,1.460951566696166992e+00,1.460842370986938477e+00,1.460733056068420410e+00,1.460623979568481445e+00,1.460514783859252930e+00,1.460405588150024414e+00,1.460296511650085449e+00,1.460187315940856934e+00,1.460078120231628418e+00,1.459969043731689453e+00,1.459859967231750488e+00,1.459750890731811523e+00,1.459641814231872559e+00,1.459532856941223145e+00,1.459423780441284180e+00,1.459314703941345215e+00,1.459205865859985352e+00,1.459096789360046387e+00,1.458987832069396973e+00,1.458878874778747559e+00,1.458770036697387695e+00,1.458661079406738281e+00,1.458552122116088867e+00,1.458443403244018555e+00
1.349213957786560059e+00,1.349120855331420898e+00,1.349027752876281738e+00,1.348934531211853027e+00,1.348841428756713867e+00,1.348748326301574707e+00,1.348655223846435547e+00,1.348562121391296387e+00,1.348469018936157227e+00,1.348376035690307617e+00,1.348282933235168457e+00,1.348189830780029297e+00,1.348096966743469238e+00,1.348003864288330078e+00,1.347910881042480469e+00,1.347817897796630859e+00,1.347724914550781250e+00,1.347631931304931641e+00,1.347538948059082031e+00,1.347446084022521973e+00,1.347353219985961914e+00,1.347260236740112305e+00,1.347167491912841797e+00,1.347074508666992188e+00,1.346981644630432129e+00,1.346888780593872070e+00,1.346795916557312012e+00,1.346703052520751953e+00,1.346610307693481445e+00,1.346517562866210938e+00,1.346424698829650879e+00,1.346331834793090820e+00,1.346239209175109863e+00,1.346146464347839355e+00,1.346053600311279297e+00,1.345960855484008789e+00,1.345868229866027832e+00,1.345775485038757324e+00,1.345682740211486816e+00,1.345590233802795410e+00,1.345497488975524902e+00,1.345404744148254395e+00,1.345312118530273438e+00,1.345219612121582031e+00,1.345126867294311523e+00,1.345034241676330566e+00,1.344941735267639160e+00,1.344849109649658203e+00,1.344756603240966797e+00,1.344664096832275391e+00,1.344571471214294434e+00,1.344478964805603027e+00,1.344386458396911621e+00,1.344293951988220215e+00,1.344201445579528809e+00,1.344108939170837402e+00,1.344016551971435547e+00,1.343924045562744141e+00,1.343831658363342285e+00,1.343739151954650879e+00,1.343646883964538574e+00,1.343554377555847168e+00,1.343461990356445312e+00,1.343369722366333008e+00,1.343277335166931152e+00,1.343184947967529297e+00,1.343092679977416992e+00,1.343000292778015137e+00,1.342907905578613281e+00,1.342815637588500977e+00,1.342723369598388672e+00,1.342631101608276367e+00,1.342538833618164062e+00,1.342446684837341309e+00,1.342354416847229004e+00,1.342262148857116699e+00,1.342169880867004395e+00,1.342077732086181641e+00,1.341985583305358887e+00,1.341893315315246582e+00
1.248867630958557129e+00,1.248787760734558105e+00,1.248708009719848633e+00,1.248628258705139160e+00,1.248548388481140137e+00,1.248468637466430664e+00,1.248388886451721191e+00,1.248309135437011719e+00,1.248229384422302246e+00,1.248149633407592773e+00,1.248069882392883301e+00,1.247990131378173828e+00,1.247910380363464355e+00,1.247830748558044434e+00,1.247751116752624512e+00,1.247671365737915039e+00,1.247591733932495117e+00,1.247512102127075195e+00,1.247432351112365723e+00,1.247352719306945801e+00,1.247273206710815430e+00,1.247193574905395508e+00,1.247113823890686035e+00,1.247034311294555664e+00,1.246954679489135742e+00,1.246875166893005371e+00,1.246795654296875000e+00,1.246716022491455078e+00,1.246636509895324707e+00,1.246556878089904785e+00,1.246477484703063965e+00,1.246397852897644043e+00,1.246318340301513672e+00,1.246238946914672852e+00,1.246159434318542480e+00,1.246079921722412109e+00,1.246000409126281738e+00,1.245921015739440918e+00,1.245841503143310547e+00,1.245762109756469727e+00,1.245682716369628906e+00,1.245603203773498535e+00,1.245523810386657715e+00,1.245444536209106445e+00,1.245365023612976074e+00,1.245285630226135254e+00,1.245206236839294434e+00,1.245126962661743164e+00,1.245047569274902344e+00,1.244968295097351074e+00,1.244889020919799805e+00,1.244809627532958984e+00,1.244730353355407715e+00,1.244650959968566895e+00,1.244571805000305176e+00,1.244492530822753906e+00,1.244413137435913086e+00,1.244333982467651367e+00,1.244254708290100098e+00,1.244175434112548828e+00,1.244096279144287109e+00,1.244017124176025391e+00,1.243937849998474121e+00,1.243858575820922852e+00,1.243779540061950684e+00,1.243700265884399414e+00,1.243621110916137695e+00,1.243542075157165527e+00,1.243462800979614258e+00,1.243383646011352539e+00,1.243304491043090820e+00,1.243225455284118652e+00,1.243146300315856934e+00,1.243067264556884766e+00,1.242988228797912598e+00,1.242909073829650879e+00,1.242830038070678711e+00,1.242751002311706543e+00,1.242671966552734375e+00,1.242592930793762207e+00
1.162414431571960449e+00,1.162345170974731445e+00,1.162276029586791992e+00,1.162207007408142090e+00,1.162137866020202637e+00,1.162068605422973633e+00,1.161999464035034180e+00,1.161930441856384277e+00,1.161861300468444824e+00,1.161792278289794922e+00,1.161723256111145020e+00,1.161654114723205566e+00,1.161585092544555664e+00,1.161515951156616211e+00,1.161446928977966309e+00,1.161377906799316406e+00,1.161308884620666504e+00,1.161239862442016602e+00,1.161170840263366699e+00,1.161101818084716797e+00,1.161032915115356445e+00,1.160963892936706543e+00,1.160894870758056641e+00,1.160825848579406738e+00,1.160756945610046387e+00,1.160687923431396484e+00,1.160619020462036133e+00,1.160550117492675781e+00,1.160481095314025879e+00,1.160412192344665527e+00,1.160343289375305176e+00,1.160274386405944824e+00,1.160205483436584473e+00,1.160136580467224121e+00,1.160067677497863770e+00,1.159998774528503418e+00,1.159929871559143066e+00,1.159861087799072266e+00,1.159792304039001465e+00,1.159723401069641113e+00,1.159654498100280762e+00,1.159585714340209961e+00,1.159516930580139160e+00,1.159448027610778809e+00,1.159379363059997559e+00,1.159310460090637207e+00,1.159241676330566406e+00,1.159172892570495605e+00,1.159104228019714355e+00,1.159035444259643555e+00,1.158966660499572754e+00,1.158897876739501953e+00,1.158829212188720703e+00,1.158760428428649902e+00,1.158691763877868652e+00,1.158622980117797852e+00,1.158554315567016602e+00,1.158485531806945801e+00,1.158416867256164551e+00,1.158348202705383301e+00,1.158279538154602051e+00,1.158210992813110352e+00,1.158142209053039551e+00,1.158073544502258301e+00,1.158004879951477051e+00,1.157936334609985352e+00,1.157867670059204102e+00,1.157799124717712402e+00,1.157730579376220703e+00,1.157661914825439453e+00,1.157593250274658203e+00,1.157524824142456055e+00,1.157456159591674805e+00,1.157387614250183105e+00,1.157318949699401855e+00,1.157250523567199707e+00,1.157181978225708008e+00,1.157113432884216309e+00,1.157044887542724609e+00,1.156976342201232910e+00
1.087155580520629883e+00,1.087095141410827637e+00,1.087034583091735840e+00,1.086974143981933594e+00,1.086913704872131348e+00,1.086853265762329102e+00,1.086792707443237305e+00,1.086732268333435059e+00,1.086671829223632812e+00,1.086611390113830566e+00,1.086550951004028320e+00,1.086490631103515625e+00,1.086430191993713379e+00,1.086369752883911133e+00,1.086309313774108887e+00,1.086248993873596191e+00,1.086188554763793945e+00,1.086128115653991699e+00,1.086067795753479004e+00,1.086007475852966309e+00,1.085947036743164062e+00,1.085886716842651367e+00,1.085826396942138672e+00,1.085765957832336426e+00,1.085705637931823730e+00,1.085645318031311035e+00,1.085584998130798340e+00,1.085524678230285645e+00,1.085464477539062500e+00,1.085404157638549805e+00,1.085343837738037109e+00,1.085283517837524414e+00,1.085223317146301270e+00,1.085162997245788574e+00,1.085102677345275879e+00,1.085042476654052734e+00,1.084982156753540039e+00,1.084921956062316895e+00,1.084861755371093750e+00,1.084801435470581055e+00,1.084741234779357910e+00,1.084680914878845215e+00,1.084620833396911621e+00,1.084560632705688477e+00,1.084500312805175781e+00,1.084440231323242188e+00,1.084380030632019043e+00,1.084319829940795898e+00,1.084259629249572754e+00,1.084199547767639160e+00,1.084139347076416016e+00,1.084079146385192871e+00,1.084019064903259277e+00,1.083958864212036133e+00,1.083898782730102539e+00,1.083838701248168945e+00,1.083778500556945801e+00,1.083718419075012207e+00,1.083658218383789062e+00,1.083598136901855469e+00,1.083538055419921875e+00,1.083477973937988281e+00,1.083417892456054688e+00,1.083357810974121094e+00,1.083297729492187500e+00,1.083237648010253906e+00,1.083177685737609863e+00,1.083117604255676270e+00,1.083057522773742676e+00,1.082997560501098633e+00,1.082937479019165039e+00,1.082877397537231445e+00,1.082817435264587402e+00,1.082757472991943359e+00,1.082697391510009766e+00,1.082637429237365723e+00,1.082577466964721680e+00,1.082517504692077637e+00,1.082457423210144043e+00,1.082397580146789551e+00
1.021049261093139648e+00,1.020995855331420898e+00,1.020942568778991699e+00,1.020889282226562500e+00,1.020835876464843750e+00,1.020782589912414551e+00,1.020729184150695801e+00,1.020675897598266602e+00,1.020622611045837402e+00,1.020569324493408203e+00,1.020515918731689453e+00,1.020462632179260254e+00,1.020409345626831055e+00,1.020356059074401855e+00,1.020302772521972656e+00,1.020249485969543457e+00,1.020196199417114258e+00,1.020142912864685059e+00,1.020089626312255859e+00,1.020036458969116211e+00,1.019983172416687012e+00,1.019929885864257812e+00,1.019876718521118164e+00,1.019823431968688965e+00,1.019770264625549316e+00,1.019716978073120117e+00,1.019663810729980469e+00,1.019610643386840820e+00,1.019557356834411621e+00,1.019504189491271973e+00,1.019451022148132324e+00,1.019397735595703125e+00,1.019344687461853027e+00,1.019291400909423828e+00,1.019238233566284180e+00,1.019185066223144531e+00,1.019131898880004883e+00,1.019078731536865234e+00,1.019025564193725586e+00,1.018972516059875488e+00,1.018919348716735840e+00,1.018866181373596191e+00,1.018813014030456543e+00,1.018759965896606445e+00,1.018706798553466797e+00,1.018653750419616699e+00,1.018600583076477051e+00,1.018547534942626953e+00,1.018494367599487305e+00,1.018441319465637207e+00,1.018388271331787109e+00,1.018335103988647461e+00,1.018282055854797363e+00,1.018229007720947266e+00,1.018175959587097168e+00,1.018122911453247070e+00,1.018069863319396973e+00,1.018016815185546875e+00,1.017963767051696777e+00,1.017910718917846680e+00,1.017857670783996582e+00,1.017804622650146484e+00,1.017751574516296387e+00,1.017698645591735840e+00,1.017645597457885742e+00,1.017592668533325195e+00,1.017539620399475098e+00,1.017486691474914551e+00,1.017433643341064453e+00,1.017380595207214355e+00,1.017327666282653809e+00,1.017274737358093262e+00,1.017221808433532715e+00,1.017168879508972168e+00,1.017115831375122070e+00,1.017062902450561523e+00,1.017009973526000977e+00,1.016957044601440430e+00,1.016904115676879883e+00,1.016851186752319336e+00
9.625216722488403320e-01,9.624741673469543457e-01,9.624267816543579102e-01,9.623793959617614746e-01,9.623319506645202637e-01,9.622845649719238281e-01,9.622372388839721680e-01,9.621897339820861816e-01,9.621424078941345215e-01,9.620950818061828613e-01,9.620476365089416504e-01,9.620003104209899902e-01,9.619528651237487793e-01,9.619055390357971191e-01,9.618582129478454590e-01,9.618108272552490234e-01,9.617635011672973633e-01,9.617162346839904785e-01,9.616687893867492676e-01,9.616215229034423828e-01,9.615741968154907227e-01,9.615268111228942871e-01,9.614795446395874023e-01,9.614322781562805176e-01,9.613848924636840820e-01,9.613376259803771973e-01,9.612903594970703125e-01,9.612430334091186523e-01,9.611957669258117676e-01,9.611483812332153320e-01,9.611011743545532227e-01,9.610539078712463379e-01,9.610065817832946777e-01,9.609593749046325684e-01,9.609121084213256836e-01,9.608647823333740234e-01,9.608175754547119141e-01,9.607703685760498047e-01,9.607230424880981445e-01,9.606758356094360352e-01,9.606286883354187012e-01,9.605813622474670410e-01,9.605341553688049316e-01,9.604870080947875977e-01,9.604397416114807129e-01,9.603925347328186035e-01,9.603452682495117188e-01,9.602981209754943848e-01,9.602509737014770508e-01,9.602037072181701660e-01,9.601565003395080566e-01,9.601094126701354980e-01,9.600621461868286133e-01,9.600149989128112793e-01,9.599678516387939453e-01,9.599206447601318359e-01,9.598734974861145020e-01,9.598264098167419434e-01,9.597791433334350586e-01,9.597320556640625000e-01,9.596849679946899414e-01,9.596377611160278320e-01,9.595906734466552734e-01,9.595434665679931641e-01,9.594963788986206055e-01,9.594492912292480469e-01,9.594020843505859375e-01,9.593550562858581543e-01,9.593079686164855957e-01,9.592608213424682617e-01,9.592137336730957031e-01,9.591667056083679199e-01,9.591195583343505859e-01,9.590724706649780273e-01,9.590254426002502441e-01,9.589782953262329102e-01,9.589312672615051270e-01,9.588842391967773438e-01,9.588371515274047852e-01,9.587901234626770020e-01
9.103398919105529785e-01,9.102975130081176758e-01,9.102550148963928223e-01,9.102126359939575195e-01,9.101702570915222168e-01,9.101278185844421387e-01,9.100854396820068359e-01,9.100431203842163086e-01,9.100006222724914551e-01,9.099583029747009277e-01,9.099159836769104004e-01,9.098734855651855469e-01,9.098311662673950195e-01,9.097887277603149414e-01,9.097464084625244141e-01,9.097040891647338867e-01,9.096616506576538086e-01,9.096193313598632812e-01,9.095770716667175293e-01,9.095346331596374512e-01,9.094923138618469238e-01,9.094500541687011719e-01,9.094076156616210938e-01,9.093653559684753418e-01,9.093230366706848145e-01,9.092806577682495117e-01,9.092383980751037598e-01,9.091961383819580078e-01,9.091537594795227051e-01,9.091114997863769531e-01,9.090691208839416504e-01,9.090268611907958984e-01,9.089846014976501465e-01,9.089422225952148438e-01,9.089000225067138672e-01,9.088577628135681152e-01,9.088153839111328125e-01,9.087731838226318359e-01,9.087309241294860840e-01,9.086886048316955566e-01,9.086464047431945801e-01,9.086041450500488281e-01,9.085618257522583008e-01,9.085196256637573242e-01,9.084774255752563477e-01,9.084351062774658203e-01,9.083929061889648438e-01,9.083506464958190918e-01,9.083084464073181152e-01,9.082662463188171387e-01,9.082239270210266113e-01,9.081817865371704102e-01,9.081395864486694336e-01,9.080973267555236816e-01,9.080551266670227051e-01,9.080129861831665039e-01,9.079707264900207520e-01,9.079285860061645508e-01,9.078863859176635742e-01,9.078441858291625977e-01,9.078020453453063965e-01,9.077598452568054199e-01,9.077176451683044434e-01,9.076755046844482422e-01,9.076332449913024902e-01,9.075911641120910645e-01,9.075490236282348633e-01,9.075068235397338867e-01,9.074646830558776855e-01,9.074226021766662598e-01,9.073803424835205078e-01,9.073382616043090820e-01,9.072961807250976562e-01,9.072539806365966797e-01,9.072118997573852539e-01,9.071698188781738281e-01,9.071276187896728516e-01,9.070855379104614258e-01,9.070434570312500000e-01,9.070012569427490234e-01
8.635250329971313477e-01,8.634869456291198730e-01,8.634487986564636230e-01,8.634105920791625977e-01,8.633724451065063477e-01,8.633343577384948730e-01,8.632961511611938477e-01,8.632580041885375977e-01,8.632199168205261230e-01,8.631817102432250977e-01,8.631436228752136230e-01,8.631055355072021484e-01,8.630673289299011230e-01,8.630292415618896484e-01,8.629911541938781738e-01,8.629530072212219238e-01,8.629149198532104492e-01,8.628767132759094238e-01,8.628386259078979492e-01,8.628005981445312500e-01,8.627624511718750000e-01,8.627243638038635254e-01,8.626862764358520508e-01,8.626481294631958008e-01,8.626101016998291016e-01,8.625720143318176270e-01,8.625339269638061523e-01,8.624958395957946777e-01,8.624578118324279785e-01,8.624196648597717285e-01,8.623816370964050293e-01,8.623436093330383301e-01,8.623055219650268555e-01,8.622674942016601562e-01,8.622293472290039062e-01,8.621913194656372070e-01,8.621533513069152832e-01,8.621152043342590332e-01,8.620772361755371094e-01,8.620392084121704102e-01,8.620011210441589355e-01,8.619631528854370117e-01,8.619251251220703125e-01,8.618870377540588379e-01,8.618490695953369141e-01,8.618111014366149902e-01,8.617730140686035156e-01,8.617350459098815918e-01,8.616969585418701172e-01,8.616589903831481934e-01,8.616210222244262695e-01,8.615829944610595703e-01,8.615450263023376465e-01,8.615070581436157227e-01,8.614690303802490234e-01,8.614310622215270996e-01,8.613930940628051758e-01,8.613550662994384766e-01,8.613171577453613281e-01,8.612791895866394043e-01,8.612411618232727051e-01,8.612032532691955566e-01,8.611653447151184082e-01,8.611273169517517090e-01,8.610894083976745605e-01,8.610513806343078613e-01,8.610134720802307129e-01,8.609755635261535645e-01,8.609375357627868652e-01,8.608996272087097168e-01,8.608617782592773438e-01,8.608237504959106445e-01,8.607858419418334961e-01,8.607479929924011230e-01,8.607100248336791992e-01,8.606721162796020508e-01,8.606342077255249023e-01,8.605962395668029785e-01,8.605583906173706055e-01,8.605205416679382324e-01
8.212897777557373047e-01,8.212552070617675781e-01,8.212206959724426270e-01,8.211862444877624512e-01,8.211516737937927246e-01,8.211171627044677734e-01,8.210827112197875977e-01,8.210481405258178711e-01,8.210136890411376953e-01,8.209792375564575195e-01,8.209446668624877930e-01,8.209102153778076172e-01,8.208757638931274414e-01,8.208411931991577148e-01,8.208067417144775391e-01,8.207722902297973633e-01,8.207377791404724121e-01,8.207033276557922363e-01,8.206688165664672852e-01,8.206343650817871094e-01,8.205999135971069336e-01,8.205654025077819824e-01,8.205309510231018066e-01,8.204965591430664062e-01,8.204620480537414551e-01,8.204275965690612793e-01,8.203932046890258789e-01,8.203586935997009277e-01,8.203243017196655273e-01,8.202898502349853516e-01,8.202553987503051758e-01,8.202209472656250000e-01,8.201865553855895996e-01,8.201521039009094238e-01,8.201177120208740234e-01,8.200832009315490723e-01,8.200488090515136719e-01,8.200144171714782715e-01,8.199799656867980957e-01,8.199455738067626953e-01,8.199111819267272949e-01,8.198767304420471191e-01,8.198423385620117188e-01,8.198080062866210938e-01,8.197735548019409180e-01,8.197391629219055176e-01,8.197048306465148926e-01,8.196703791618347168e-01,8.196359872817993164e-01,8.196016550064086914e-01,8.195672035217285156e-01,8.195328712463378906e-01,8.194984197616577148e-01,8.194640874862670898e-01,8.194297552108764648e-01,8.193953633308410645e-01,8.193610310554504395e-01,8.193266987800598145e-01,8.192922472953796387e-01,8.192579150199890137e-01,8.192236423492431641e-01,8.191891908645629883e-01,8.191549181938171387e-01,8.191205859184265137e-01,8.190861940383911133e-01,8.190518617630004883e-01,8.190175890922546387e-01,8.189831972122192383e-01,8.189488649368286133e-01,8.189145326614379883e-01,8.188802003860473633e-01,8.188459277153015137e-01,8.188115358352661133e-01,8.187772631645202637e-01,8.187429904937744141e-01,8.187085986137390137e-01,8.186743259429931641e-01,8.186400532722473145e-01,8.186057209968566895e-01,8.185714483261108398e-01
