5.000000000000000000e+00,5.000000000000000000e+00,5.000000000000000000e+00,5.000000000000000000e+00,5.000000000000000000e+00,5.000000000000000000e+00,5.000000000000000000e+00,5.000000000000000000e+00,5.000000000000000000e+00,5.000000000000000000e+00,5.000000000000000000e+00,5.000000000000000000e+00,5.000000000000000000e+00,5.000000000000000000e+00,5.000000000000000000e+00,5.000000000000000000e+00,5.000000000000000000e+00,5.000000000000000000e+00,5.000000000000000000e+00,5.000000000000000000e+00,5.000000000000000000e+00,5.000000000000000000e+00,5.000000000000000000e+00,5.000000000000000000e+00,5.000000000000000000e+00,2.640717267990112305e+00,2.630158185958862305e+00,2.628701925277709961e+00,2.597568511962890625e+00,2.592269182205200195e+00,2.589754104614257812e+00,2.594209194183349609e+00,2.602112293243408203e+00,2.615825891494750977e+00,2.651332616806030273e+00,2.651673793792724609e+00,5.000000000000000000e+00,5.000000000000000000e+00,5.000000000000000000e+00,4.851172924041748047e+00,4.661117076873779297e+00,4.485392093658447266e+00,4.322434902191162109e+00,4.170903205871582031e+00,4.029636383056640625e+00,3.897625923156738281e+00,3.773989915847778320e+00,3.657956600189208984e+00,3.548845291137695312e+00,3.446054697036743164e+00,3.349051237106323242e+00,3.257359266281127930e+00,3.170554161071777344e+00,3.088255643844604492e+00,3.010121583938598633e+00,2.935843467712402344e+00,2.865142822265625000e+00,2.797767162322998047e+00,2.733487844467163086e+00,2.672095537185668945e+00,2.613400459289550781e+00,2.557228326797485352e+00,2.503420352935791016e+00,2.451830148696899414e+00,2.402323246002197266e+00,2.354776144027709961e+00,2.309074401855468750e+00,2.265113115310668945e+00,2.222794294357299805e+00,2.182027816772460938e+00,2.142729759216308594e+00,2.104821920394897461e+00,2.068232297897338867e+00,2.032893180847167969e+00,1.998741149902343750e+00,1.965717792510986328e+00,1.933767914772033691e+00,1.902839899063110352e+00,1.872885823249816895e+00,1.843860030174255371e+00
5.000000000000000000e+00,5.000000000000000000e+00,5.000000000000000000e+00,5.000000000000000000e+00,5.000000000000000000e+00,5.000000000000000000e+00,5.000000000000000000e+00,5.000000000000000000e+00,5.000000000000000000e+00,5.000000000000000000e+00,5.000000000000000000e+00,5.000000000000000000e+00,5.000000000000000000e+00,5.000000000000000000e+00,5.000000000000000000e+00,5.000000000000000000e+00,5.000000000000000000e+00,5.000000000000000000e+00,5.000000000000000000e+00,5.000000000000000000e+00,5.000000000000000000e+00,5.000000000000000000e+00,5.000000000000000000e+00,5.000000000000000000e+00,5.000000000000000000e+00,2.631447553634643555e+00,2.630830049514770508e+00,2.595372200012207031e+00,2.566859960556030273e+00,2.557964086532592773e+00,2.563479661941528320e+00,2.565662622451782227e+00,2.580163478851318359e+00,2.613646030426025391e+00,2.661670923233032227e+00,2.662481307983398438e+00,5.000000000000000000e+00,5.000000000000000000e+00,5.000000000000000000e+00,4.851311683654785156e+00,4.661245346069335938e+00,4.485510826110839844e+00,4.322545051574707031e+00,4.171006202697753906e+00,4.029732704162597656e+00,3.897715568542480469e+00,3.774074077606201172e+00,3.658035516738891602e+00,3.548919677734375000e+00,3.446124792098999023e+00,3.349117279052734375e+00,3.257421970367431641e+00,3.170613527297973633e+00,3.088311910629272461e+00,3.010174989700317383e+00,2.935894250869750977e+00,2.865191221237182617e+00,2.797813415527343750e+00,2.733531951904296875e+00,2.672137737274169922e+00,2.613440990447998047e+00,2.557267189025878906e+00,2.503457546234130859e+00,2.451865673065185547e+00,2.402357339859008789e+00,2.354809045791625977e+00,2.309105873107910156e+00,2.265143394470214844e+00,2.222823381423950195e+00,2.182055950164794922e+00,2.142756700515747070e+00,2.104848146438598633e+00,2.068257570266723633e+00,2.032917499542236328e+00,1.998764753341674805e+00,1.965740561485290527e+00,1.933789968490600586e+00,1.902861356735229492e+00,1.872906565666198730e+00,1.843880057334899902e+00
5.000000000000000000e+00,5.000000000000000000e+00,5.000000000000000000e+00,5.000000000000000000e+00,5.000000000000000000e+00,5.000000000000000000e+00,5.000000000000000000e+00,5.000000000000000000e+00,5.000000000000000000e+00,5.000000000000000000e+00,5.000000000000000000e+00,5.000000000000000000e+00,5.000000000000000000e+00,5.000000000000000000e+00,5.000000000000000000e+00,5.000000000000000000e+00,5.000000000000000000e+00,5.000000000000000000e+00,5.000000000000000000e+00,5.000000000000000000e+00,5.000000000000000000e+00,5.000000000000000000e+00,5.000000000000000000e+00,5.000000000000000000e+00,5.000000000000000000e+00,2.657914638519287109e+00,2.650650978088378906e+00,2.600927352905273438e+00,2.567324399948120117e+00,2.554510354995727539e+00,2.558983802795410156e+00,2.564673423767089844e+00,2.582399129867553711e+00,2.612025022506713867e+00,2.671763420104980469e+00,2.661219596862792969e+00,2.726619482040405273e+00,5.000000000000000000e+00,5.000000000000000000e+00,4.851450920104980469e+00,4.661374092102050781e+00,4.485629558563232422e+00,4.322655677795410156e+00,4.171109199523925781e+00,4.029828548431396484e+00,3.897805213928222656e+00,3.774158000946044922e+00,3.658114433288574219e+00,3.548994064331054688e+00,3.446194887161254883e+00,3.349183559417724609e+00,3.257484436035156250e+00,3.170672893524169922e+00,3.088368177413940430e+00,3.010228395462036133e+00,2.935945272445678711e+00,2.865239620208740234e+00,2.797859668731689453e+00,2.733576059341430664e+00,2.672179937362670898e+00,2.613481283187866211e+00,2.557305812835693359e+00,2.503494501113891602e+00,2.451901197433471680e+00,2.402391433715820312e+00,2.354841709136962891e+00,2.309137344360351562e+00,2.265173673629760742e+00,2.222852706909179688e+00,2.182084083557128906e+00,2.142783880233764648e+00,2.104874372482299805e+00,2.068282842636108398e+00,2.032942056655883789e+00,1.998788356781005859e+00,1.965763330459594727e+00,1.933812141418457031e+00,1.902882695198059082e+00,1.872927188873291016e+00,1.843900084495544434e+00
5.000000000000000000e+00,5.000000000000000000e+00,5.000000000000000000e+00,5.000000000000000000e+00,5.000000000000000000e+00,5.000000000000000000e+00,5.000000000000000000e+00,5.000000000000000000e+00,5.000000000000000000e+00,5.000000000000000000e+00,5.000000000000000000e+00,5.000000000000000000e+00,5.000000000000000000e+00,5.000000000000000000e+00,5.000000000000000000e+00,5.000000000000000000e+00,5.000000000000000000e+00,5.000000000000000000e+00,5.000000000000000000e+00,5.000000000000000000e+00,5.000000000000000000e+00,5.000000000000000000e+00,5.000000000000000000e+00,5.000000000000000000e+00,5.000000000000000000e+00,5.000000000000000000e+00,2.661346912384033203e+00,2.618424654006958008e+00,2.578969717025756836e+00,2.556337356567382812e+00,2.555104017257690430e+00,2.561727285385131836e+00,2.591616868972778320e+00,2.619446992874145508e+00,2.669342756271362305e+00,2.661465406417846680e+00,2.690698862075805664e+00,5.000000000000000000e+00,5.000000000000000000e+00,4.851590156555175781e+00,4.661502361297607422e+00,4.485748291015625000e+00,4.322765827178955078e+00,4.171211719512939453e+00,4.029924392700195312e+00,3.897895336151123047e+00,3.774242639541625977e+00,3.658193826675415039e+00,3.549068689346313477e+00,3.446265459060668945e+00,3.349250078201293945e+00,3.257547378540039062e+00,3.170732259750366211e+00,3.088424444198608398e+00,3.010281801223754883e+00,2.935996055603027344e+00,2.865288019180297852e+00,2.797905921936035156e+00,2.733620166778564453e+00,2.672222137451171875e+00,2.613521575927734375e+00,2.557344436645507812e+00,2.503531455993652344e+00,2.451936721801757812e+00,2.402425527572631836e+00,2.354874372482299805e+00,2.309168815612792969e+00,2.265203952789306641e+00,2.222881793975830078e+00,2.182112216949462891e+00,2.142811059951782227e+00,2.104900598526000977e+00,2.068308115005493164e+00,2.032966375350952148e+00,1.998811960220336914e+00,1.965786457061767578e+00,1.933834195137023926e+00,1.902904272079467773e+00,1.872947931289672852e+00,1.843920350074768066e+00
5.000000000000000000e+00,5.000000000000000000e+00,5.000000000000000000e+00,5.000000000000000000e+00,5.000000000000000000e+00,5.000000000000000000e+00,5.000000000000000000e+00,5.000000000000000000e+00,5.000000000000000000e+00,5.000000000000000000e+00,5.000000000000000000e+00,5.000000000000000000e+00,5.000000000000000000e+00,5.000000000000000000e+00,5.000000000000000000e+00,5.000000000000000000e+00,5.000000000000000000e+00,5.000000000000000000e+00,5.000000000000000000e+00,5.000000000000000000e+00,5.000000000000000000e+00,5.000000000000000000e+00,5.000000000000000000e+00,5.000000000000000000e+00,5.000000000000000000e+00,5.000000000000000000e+00,2.673130512237548828e+00,2.655632019042968750e+00,2.571839809417724609e+00,2.554642438888549805e+00,2.554155111312866211e+00,2.562750339508056641e+00,2.586298465728759766e+00,2.627298116683959961e+00,2.669234037399291992e+00,2.655608654022216797e+00,2.680294036865234375e+00,5.000000000000000000e+00,5.000000000000000000e+00,4.851729393005371094e+00,4.661630630493164062e+00,4.485867500305175781e+00,4.322876453399658203e+00,4.171314716339111328e+00,4.030020236968994141e+00,3.897984981536865234e+00,3.774326562881469727e+00,3.658272981643676758e+00,3.549143075942993164e+00,3.446335554122924805e+00,3.349316358566284180e+00,3.257610082626342773e+00,3.170791864395141602e+00,3.088480949401855469e+00,3.010335683822631836e+00,2.936047077178955078e+00,2.865336894989013672e+00,2.797952413558959961e+00,2.733664274215698242e+00,2.672264337539672852e+00,2.613561868667602539e+00,2.557383060455322266e+00,2.503568410873413086e+00,2.451972246170043945e+00,2.402459621429443359e+00,2.354907035827636719e+00,2.309200286865234375e+00,2.265234231948852539e+00,2.222910881042480469e+00,2.182140350341796875e+00,2.142838239669799805e+00,2.104926824569702148e+00,2.068333387374877930e+00,2.032990694046020508e+00,1.998835444450378418e+00,1.965809226036071777e+00,1.933856248855590820e+00,1.902925610542297363e+00,1.872968673706054688e+00,1.843940496444702148e+00
5.000000000000000000e+00,5.000000000000000000e+00,5.000000000000000000e+00,5.000000000000000000e+00,5.000000000000000000e+00,5.000000000000000000e+00,5.000000000000000000e+00,5.000000000000000000e+00,5.000000000000000000e+00,5.000000000000000000e+00,5.000000000000000000e+00,5.000000000000000000e+00,5.000000000000000000e+00,5.000000000000000000e+00,5.000000000000000000e+00,5.000000000000000000e+00,5.000000000000000000e+00,5.000000000000000000e+00,5.000000000000000000e+00,5.000000000000000000e+00,5.000000000000000000e+00,5.000000000000000000e+00,5.000000000000000000e+00,5.000000000000000000e+00,5.000000000000000000e+00,5.000000000000000000e+00,2.683742046356201172e+00,2.666777849197387695e+00,2.571119070053100586e+00,2.557724237442016602e+00,2.557280778884887695e+00,2.566775321960449219e+00,2.590181827545166016e+00,2.646940708160400391e+00,5.000000000000000000e+00,2.660066366195678711e+00,2.680584192276000977e+00,5.000000000000000000e+00,5.000000000000000000e+00,4.851868152618408203e+00,4.661758899688720703e+00,4.485986232757568359e+00,4.322986602783203125e+00,4.171417713165283203e+00,4.030116558074951172e+00,3.898074626922607422e+00,3.774410724639892578e+00,3.658351898193359375e+00,3.549217462539672852e+00,3.446405649185180664e+00,3.349382400512695312e+00,3.257672786712646484e+00,3.170851230621337891e+00,3.088537216186523438e+00,3.010389089584350586e+00,2.936098098754882812e+00,2.865385293960571289e+00,2.797998666763305664e+00,2.733708381652832031e+00,2.672306537628173828e+00,2.613602399826049805e+00,2.557421684265136719e+00,2.503605604171752930e+00,2.452007770538330078e+00,2.402493715286254883e+00,2.354939937591552734e+00,2.309231996536254883e+00,2.265264749526977539e+00,2.222940206527709961e+00,2.182168483734130859e+00,2.142865180969238281e+00,2.104952812194824219e+00,2.068358659744262695e+00,2.033015012741088867e+00,1.998859047889709473e+00,1.965831995010375977e+00,1.933878302574157715e+00,1.902946949005126953e+00,1.872989296913146973e+00,1.843960523605346680e+00
5.000000000000000000e+00,5.000000000000000000e+00,5.000000000000000000e+00,5.000000000000000000e+00,5.000000000000000000e+00,5.000000000000000000e+00,5.000000000000000000e+00,5.000000000000000000e+00,5.000000000000000000e+00,5.000000000000000000e+00,5.000000000000000000e+00,5.000000000000000000e+00,5.000000000000000000e+00,5.000000000000000000e+00,5.000000000000000000e+00,5.000000000000000000e+00,5.000000000000000000e+00,5.000000000000000000e+00,5.000000000000000000e+00,5.000000000000000000e+00,5.000000000000000000e+00,5.000000000000000000e+00,5.000000000000000000e+00,5.000000000000000000e+00,5.000000000000000000e+00,5.000000000000000000e+00,2.695723533630371094e+00,2.617231130599975586e+00,2.558149337768554688e+00,2.547066926956176758e+00,2.556781053543090820e+00,2.559928655624389648e+00,2.580987453460693359e+00,2.651431322097778320e+00,5.000000000000000000e+00,2.671747207641601562e+00,2.679870605468750000e+00,5.000000000000000000e+00,5.000000000000000000e+00,4.852007389068603516e+00,4.661887645721435547e+00,4.486105442047119141e+00,4.323097229003906250e+00,4.171520233154296875e+00,4.030212402343750000e+00,3.898164272308349609e+00,3.774494647979736328e+00,3.658430814743041992e+00,3.549291610717773438e+00,3.446475744247436523e+00,3.349448680877685547e+00,3.257735252380371094e+00,3.170910358428955078e+00,3.088593721389770508e+00,3.010442495346069336e+00,2.936148881912231445e+00,2.865433692932128906e+00,2.798044681549072266e+00,2.733752489089965820e+00,2.672348737716674805e+00,2.613642692565917969e+00,2.557460308074951172e+00,2.503642559051513672e+00,2.452043294906616211e+00,2.402527809143066406e+00,2.354972600936889648e+00,2.309263467788696289e+00,2.265295028686523438e+00,2.222969532012939453e+00,2.182196617126464844e+00,2.142892599105834961e+00,2.104979038238525391e+00,2.068383932113647461e+00,2.033039569854736328e+00,1.998882889747619629e+00,1.965854763984680176e+00,1.933900594711303711e+00,1.902968406677246094e+00,1.873010039329528809e+00,1.843980550765991211e+00
5.000000000000000000e+00,5.000000000000000000e+00,5.000000000000000000e+00,5.000000000000000000e+00,5.000000000000000000e+00,5.000000000000000000e+00,5.000000000000000000e+00,5.000000000000000000e+00,5.000000000000000000e+00,5.000000000000000000e+00,5.000000000000000000e+00,5.000000000000000000e+00,5.000000000000000000e+00,5.000000000000000000e+00,5.000000000000000000e+00,5.000000000000000000e+00,5.000000000000000000e+00,5.000000000000000000e+00,5.000000000000000000e+00,5.000000000000000000e+00,5.000000000000000000e+00,5.000000000000000000e+00,5.000000000000000000e+00,5.000000000000000000e+00,5.000000000000000000e+00,5.000000000000000000e+00,2.726992845535278320e+00,2.613420009613037109e+00,2.555605411529541016e+00,2.547314643859863281e+00,2.547165155410766602e+00,2.556555747985839844e+00,2.591009855270385742e+00,2.634468317031860352e+00,5.000000000000000000e+00,2.640979290008544922e+00,2.628519058227539062e+00,5.000000000000000000e+00,5.000000000000000000e+00,4.852146148681640625e+00,4.662015914916992188e+00,4.486224174499511719e+00,4.323207855224609375e+00,4.171623229980468750e+00,4.030308246612548828e+00,3.898254394531250000e+00,3.774579286575317383e+00,3.658510208129882812e+00,3.549366474151611328e+00,3.446546077728271484e+00,3.349515199661254883e+00,3.257798194885253906e+00,3.170970201492309570e+00,3.088649988174438477e+00,3.010496139526367188e+00,2.936199665069580078e+00,2.865482091903686523e+00,2.798090934753417969e+00,2.733796596527099609e+00,2.672390937805175781e+00,2.613682985305786133e+00,2.557498931884765625e+00,2.503679513931274414e+00,2.452078819274902344e+00,2.402561902999877930e+00,2.355005502700805664e+00,2.309294939041137695e+00,2.265325307846069336e+00,2.222998619079589844e+00,2.182224750518798828e+00,2.142919540405273438e+00,2.105005264282226562e+00,2.068409204483032227e+00,2.033064126968383789e+00,1.998906493186950684e+00,1.965877652168273926e+00,1.933922648429870605e+00,1.902989745140075684e+00,1.873030900955200195e+00,1.844000697135925293e+00
5.000000000000000000e+00,5.000000000000000000e+00,5.000000000000000000e+00,5.000000000000000000e+00,5.000000000000000000e+00,5.000000000000000000e+00,5.000000000000000000e+00,5.000000000000000000e+00,5.000000000000000000e+00,5.000000000000000000e+00,5.000000000000000000e+00,5.000000000000000000e+00,5.000000000000000000e+00,5.000000000000000000e+00,5.000000000000000000e+00,5.000000000000000000e+00,5.000000000000000000e+00,5.000000000000000000e+00,5.000000000000000000e+00,5.000000000000000000e+00,5.000000000000000000e+00,5.000000000000000000e+00,5.000000000000000000e+00,5.000000000000000000e+00,5.000000000000000000e+00,5.000000000000000000e+00,5.000000000000000000e+00,2.629090070724487305e+00,2.574743986129760742e+00,2.561098337173461914e+00,2.555639982223510742e+00,2.570169687271118164e+00,2.589340686798095703e+00,2.630513668060302734e+00,5.000000000000000000e+00,2.625425100326538086e+00,2.598523378372192383e+00,5.000000000000000000e+00,5.000000000000000000e+00,4.852285385131835938e+00,4.662144184112548828e+00,4.486342906951904297e+00,4.323318004608154297e+00,4.171726226806640625e+00,4.030404567718505859e+00,3.898344039916992188e+00,3.774663209915161133e+00,3.658589124679565430e+00,3.549440860748291016e+00,3.446616172790527344e+00,3.349581480026245117e+00,3.257860898971557617e+00,3.171029329299926758e+00,3.088706493377685547e+00,3.010549783706665039e+00,2.936250925064086914e+00,2.865530967712402344e+00,2.798137426376342773e+00,2.733840942382812500e+00,2.672433137893676758e+00,2.613723516464233398e+00,2.557537794113159180e+00,2.503716707229614258e+00,2.452114343643188477e+00,2.402595996856689453e+00,2.355038166046142578e+00,2.309326410293579102e+00,2.265355587005615234e+00,2.223027706146240234e+00,2.182252883911132812e+00,2.142946720123291016e+00,2.105031490325927734e+00,2.068434476852416992e+00,2.033088445663452148e+00,1.998930096626281738e+00,1.965900421142578125e+00,1.933944702148437500e+00,1.903011083602905273e+00,1.873051643371582031e+00,1.844020724296569824e+00
5.000000000000000000e+00,5.000000000000000000e+00,5.000000000000000000e+00,5.000000000000000000e+00,5.000000000000000000e+00,5.000000000000000000e+00,5.000000000000000000e+00,5.000000000000000000e+00,5.000000000000000000e+00,5.000000000000000000e+00,5.000000000000000000e+00,5.000000000000000000e+00,5.000000000000000000e+00,5.000000000000000000e+00,5.000000000000000000e+00,5.000000000000000000e+00,5.000000000000000000e+00,5.000000000000000000e+00,5.000000000000000000e+00,5.000000000000000000e+00,5.000000000000000000e+00,5.000000000000000000e+00,5.000000000000000000e+00,5.000000000000000000e+00,5.000000000000000000e+00,5.000000000000000000e+00,2.698157548904418945e+00,2.590038776397705078e+00,2.563605546951293945e+00,2.578273773193359375e+00,2.575506925582885742e+00,2.582025051116943359e+00,2.593659162521362305e+00,2.627154350280761719e+00,5.000000000000000000e+00,5.000000000000000000e+00,2.559213161468505859e+00,5.000000000000000000e+00,5.000000000000000000e+00,4.852424621582031250e+00,4.662272453308105469e+00,4.486462116241455078e+00,4.323428630828857422e+00,4.171828746795654297e+00,4.030500411987304688e+00,3.898433923721313477e+00,3.774747371673583984e+00,3.658668041229248047e+00,3.549515008926391602e+00,3.446686267852783203e+00,3.349647521972656250e+00,3.257923603057861328e+00,3.171088695526123047e+00,3.088762760162353516e+00,3.010603427886962891e+00,2.936301708221435547e+00,2.865579366683959961e+00,2.798183679580688477e+00,2.733885049819946289e+00,2.672475337982177734e+00,2.613763809204101562e+00,2.557576417922973633e+00,2.503753900527954102e+00,2.452149868011474609e+00,2.402630090713500977e+00,2.355071067810058594e+00,2.309358119964599609e+00,2.265386104583740234e+00,2.223057031631469727e+00,2.182281017303466797e+00,2.142973899841308594e+00,2.105057477951049805e+00,2.068459749221801758e+00,2.033112764358520508e+00,1.998953580856323242e+00,1.965923190116882324e+00,1.933966755867004395e+00,1.903032422065734863e+00,1.873072385787963867e+00,1.844040751457214355e+00
5.000000000000000000e+00,5.000000000000000000e+00,5.000000000000000000e+00,5.000000000000000000e+00,5.000000000000000000e+00,5.000000000000000000e+00,5.000000000000000000e+00,5.000000000000000000e+00,5.000000000000000000e+00,5.000000000000000000e+00,5.000000000000000000e+00,5.000000000000000000e+00,5.000000000000000000e+00,5.000000000000000000e+00,5.000000000000000000e+00,5.000000000000000000e+00,5.000000000000000000e+00,5.000000000000000000e+00,5.000000000000000000e+00,5.000000000000000000e+00,5.000000000000000000e+00,5.000000000000000000e+00,5.000000000000000000e+00,5.000000000000000000e+00,5.000000000000000000e+00,5.000000000000000000e+00,2.690554141998291016e+00,2.532827615737915039e+00,2.510019779205322266e+00,2.527544975280761719e+00,2.606539726257324219e+00,2.611308097839355469e+00,2.598865270614624023e+00,2.629348754882812500e+00,5.000000000000000000e+00,5.000000000000000000e+00,2.533852100372314453e+00,5.000000000000000000e+00,5.000000000000000000e+00,4.852563858032226562e+00,4.662401199340820312e+00,4.486580848693847656e+00,4.323539257049560547e+00,4.171931743621826172e+00,4.030596256256103516e+00,3.898524045944213867e+00,3.774831533432006836e+00,3.658747196197509766e+00,3.549589395523071289e+00,3.446756362915039062e+00,3.349713802337646484e+00,3.257986068725585938e+00,3.171148061752319336e+00,3.088819026947021484e+00,3.010656833648681641e+00,2.936352729797363281e+00,2.865627765655517578e+00,2.798229694366455078e+00,2.733929157257080078e+00,2.672517538070678711e+00,2.613804101943969727e+00,2.557615041732788086e+00,2.503790855407714844e+00,2.452185392379760742e+00,2.402664184570312500e+00,2.355103731155395508e+00,2.309389591217041016e+00,2.265416383743286133e+00,2.223086357116699219e+00,2.182309150695800781e+00,2.143001079559326172e+00,2.105083942413330078e+00,2.068485021591186523e+00,2.033137321472167969e+00,1.998977184295654297e+00,1.965946316719055176e+00,1.933988809585571289e+00,1.903053998947143555e+00,1.873093008995056152e+00,1.844060778617858887e+00
5.000000000000000000e+00,5.000000000000000000e+00,5.000000000000000000e+00,5.000000000000000000e+00,5.000000000000000000e+00,5.000000000000000000e+00,5.000000000000000000e+00,5.000000000000000000e+00,5.000000000000000000e+00,5.000000000000000000e+00,5.000000000000000000e+00,5.000000000000000000e+00,5.000000000000000000e+00,5.000000000000000000e+00,5.000000000000000000e+00,5.000000000000000000e+00,5.000000000000000000e+00,5.000000000000000000e+00,5.000000000000000000e+00,5.000000000000000000e+00,5.000000000000000000e+00,5.000000000000000000e+00,5.000000000000000000e+00,5.000000000000000000e+00,5.000000000000000000e+00,5.000000000000000000e+00,2.677722930908203125e+00,2.511725902557373047e+00,2.489548206329345703e+00,2.502391338348388672e+00,2.556670427322387695e+00,2.615686655044555664e+00,2.604350328445434570e+00,2.630920171737670898e+00,5.000000000000000000e+00,5.000000000000000000e+00,2.518425226211547852e+00,2.517690658569335938e+00,5.000000000000000000e+00,4.852702617645263672e+00,4.662529468536376953e+00,4.486699581146240234e+00,4.323649406433105469e+00,4.172034263610839844e+00,4.030692100524902344e+00,3.898613691329956055e+00,3.774915933609008789e+00,3.658826589584350586e+00,3.549664258956909180e+00,3.446826934814453125e+00,3.349780321121215820e+00,3.258049011230468750e+00,3.171207666397094727e+00,3.088875770568847656e+00,3.010710477828979492e+00,2.936403512954711914e+00,2.865676164627075195e+00,2.798275947570800781e+00,2.733973264694213867e+00,2.672559738159179688e+00,2.613844394683837891e+00,2.557653665542602539e+00,2.503827810287475586e+00,2.452220916748046875e+00,2.402698278427124023e+00,2.355136632919311523e+00,2.309421062469482422e+00,2.265446662902832031e+00,2.223115444183349609e+00,2.182337284088134766e+00,2.143028020858764648e+00,2.105109930038452148e+00,2.068510293960571289e+00,2.033161640167236328e+00,1.999000787734985352e+00,1.965969085693359375e+00,1.934010982513427734e+00,1.903075456619262695e+00,1.873113751411437988e+00,1.844081163406372070e+00
5.000000000000000000e+00,5.000000000000000000e+00,5.000000000000000000e+00,5.000000000000000000e+00,5.000000000000000000e+00,5.000000000000000000e+00,5.000000000000000000e+00,5.000000000000000000e+00,5.000000000000000000e+00,5.000000000000000000e+00,5.000000000000000000e+00,5.000000000000000000e+00,5.000000000000000000e+00,5.000000000000000000e+00,5.000000000000000000e+00,5.000000000000000000e+00,5.000000000000000000e+00,5.000000000000000000e+00,5.000000000000000000e+00,5.000000000000000000e+00,5.000000000000000000e+00,5.000000000000000000e+00,5.000000000000000000e+00,5.000000000000000000e+00,5.000000000000000000e+00,5.000000000000000000e+00,2.665563821792602539e+00,2.496086359024047852e+00,2.473084211349487305e+00,2.487271547317504883e+00,2.545081138610839844e+00,2.617431879043579102e+00,2.608731508255004883e+00,2.635367155075073242e+00,5.000000000000000000e+00,5.000000000000000000e+00,5.000000000000000000e+00,2.482838392257690430e+00,5.000000000000000000e+00,4.852841854095458984e+00,4.662658214569091797e+00,4.486818790435791016e+00,4.323760032653808594e+00,4.172137260437011719e+00,4.030788421630859375e+00,3.898703336715698242e+00,3.775000095367431641e+00,3.658905506134033203e+00,3.549738645553588867e+00,3.446897029876708984e+00,3.349846601486206055e+00,3.258111715316772461e+00,3.171267032623291016e+00,3.088932037353515625e+00,3.010764122009277344e+00,2.936454772949218750e+00,2.865725040435791016e+00,2.798322439193725586e+00,2.734017610549926758e+00,2.672601938247680664e+00,2.613884925842285156e+00,2.557692289352416992e+00,2.503865003585815430e+00,2.452256441116333008e+00,2.402732372283935547e+00,2.355169296264648438e+00,2.309452533721923828e+00,2.265476942062377930e+00,2.223144531250000000e+00,2.182365417480468750e+00,2.143055200576782227e+00,2.105136156082153320e+00,2.068535566329956055e+00,2.033186197280883789e+00,1.999024391174316406e+00,1.965991854667663574e+00,1.934033036231994629e+00,1.903096795082092285e+00,1.873134493827819824e+00,1.844101190567016602e+00
5.000000000000000000e+00,5.000000000000000000e+00,5.000000000000000000e+00,5.000000000000000000e+00,5.000000000000000000e+00,5.000000000000000000e+00,5.000000000000000000e+00,5.000000000000000000e+00,5.000000000000000000e+00,5.000000000000000000e+00,5.000000000000000000e+00,5.000000000000000000e+00,5.000000000000000000e+00,5.000000000000000000e+00,5.000000000000000000e+00,5.000000000000000000e+00,5.000000000000000000e+00,5.000000000000000000e+00,5.000000000000000000e+00,5.000000000000000000e+00,5.000000000000000000e+00,5.000000000000000000e+00,5.000000000000000000e+00,5.000000000000000000e+00,5.000000000000000000e+00,5.000000000000000000e+00,2.671299934387207031e+00,2.481777667999267578e+00,2.457267522811889648e+00,2.470309257507324219e+00,2.530928373336791992e+00,2.626090049743652344e+00,2.619006395339965820e+00,2.647350788116455078e+00,5.000000000000000000e+00,5.000000000000000000e+00,5.000000000000000000e+00,5.000000000000000000e+00,5.000000000000000000e+00,4.852981567382812500e+00,4.662786483764648438e+00,4.486937522888183594e+00,4.323870182037353516e+00,4.172240257263183594e+00,4.030884265899658203e+00,3.898792982101440430e+00,3.775084257125854492e+00,3.658984422683715820e+00,3.549812793731689453e+00,3.446967124938964844e+00,3.349912881851196289e+00,3.258174419403076172e+00,3.171326398849487305e+00,3.088988304138183594e+00,3.010817527770996094e+00,2.936505556106567383e+00,2.865773439407348633e+00,2.798368692398071289e+00,2.734061717987060547e+00,2.672644138336181641e+00,2.613925218582153320e+00,2.557730913162231445e+00,2.503901958465576172e+00,2.452291965484619141e+00,2.402766704559326172e+00,2.355202198028564453e+00,2.309484004974365234e+00,2.265507221221923828e+00,2.223173856735229492e+00,2.182393550872802734e+00,2.143082380294799805e+00,2.105162382125854492e+00,2.068560838699340820e+00,2.033210515975952148e+00,1.999047875404357910e+00,1.966014742851257324e+00,1.934055089950561523e+00,1.903118133544921875e+00,1.873155117034912109e+00,1.844121217727661133e+00
5.000000000000000000e+00,5.000000000000000000e+00,5.000000000000000000e+00,5.000000000000000000e+00,5.000000000000000000e+00,5.000000000000000000e+00,5.000000000000000000e+00,5.000000000000000000e+00,5.000000000000000000e+00,5.000000000000000000e+00,5.000000000000000000e+00,5.000000000000000000e+00,5.000000000000000000e+00,5.000000000000000000e+00,5.000000000000000000e+00,5.000000000000000000e+00,5.000000000000000000e+00,5.000000000000000000e+00,5.000000000000000000e+00,5.000000000000000000e+00,5.000000000000000000e+00,5.000000000000000000e+00,5.000000000000000000e+00,5.000000000000000000e+00,5.000000000000000000e+00,5.000000000000000000e+00,2.653363943099975586e+00,2.476587057113647461e+00,2.437544345855712891e+00,2.452958822250366211e+00,2.515760421752929688e+00,2.640937805175781250e+00,2.633488655090332031e+00,2.663126707077026367e+00,5.000000000000000000e+00,5.000000000000000000e+00,5.000000000000000000e+00,5.000000000000000000e+00,5.000000000000000000e+00,4.853120326995849609e+00,4.662914752960205078e+00,4.487056732177734375e+00,4.323980808258056641e+00,4.172343254089355469e+00,4.030980587005615234e+00,3.898883104324340820e+00,3.775168657302856445e+00,3.659063816070556641e+00,3.549887180328369141e+00,3.447037220001220703e+00,3.349978923797607422e+00,3.258237123489379883e+00,3.171385765075683594e+00,3.089044570922851562e+00,3.010870933532714844e+00,2.936556339263916016e+00,2.865821838378906250e+00,2.798414945602416992e+00,2.734105825424194336e+00,2.672686338424682617e+00,2.613965511322021484e+00,2.557769536972045898e+00,2.503938913345336914e+00,2.452327489852905273e+00,2.402800798416137695e+00,2.355234861373901367e+00,2.309515476226806641e+00,2.265537500381469727e+00,2.223202943801879883e+00,2.182421684265136719e+00,2.143109560012817383e+00,2.105188608169555664e+00,2.068586111068725586e+00,2.033235073089599609e+00,1.999071717262268066e+00,1.966037511825561523e+00,1.934077382087707520e+00,1.903139591217041016e+00,1.873176097869873047e+00,1.844141364097595215e+00
5.000000000000000000e+00,5.000000000000000000e+00,5.000000000000000000e+00,5.000000000000000000e+00,5.000000000000000000e+00,5.000000000000000000e+00,5.000000000000000000e+00,5.000000000000000000e+00,5.000000000000000000e+00,5.000000000000000000e+00,5.000000000000000000e+00,5.000000000000000000e+00,5.000000000000000000e+00,5.000000000000000000e+00,5.000000000000000000e+00,5.000000000000000000e+00,5.000000000000000000e+00,5.000000000000000000e+00,5.000000000000000000e+00,5.000000000000000000e+00,5.000000000000000000e+00,5.000000000000000000e+00,5.000000000000000000e+00,5.000000000000000000e+00,5.000000000000000000e+00,5.000000000000000000e+00,2.705408573150634766e+00,5.000000000000000000e+00,2.416665554046630859e+00,2.433962583541870117e+00,2.490020513534545898e+00,2.654780626296997070e+00,2.648228406906127930e+00,2.680696249008178711e+00,5.000000000000000000e+00,5.000000000000000000e+00,5.000000000000000000e+00,5.000000000000000000e+00,5.000000000000000000e+00,4.853259563446044922e+00,4.663043498992919922e+00,4.487175464630126953e+00,4.324091434478759766e+00,4.172445774078369141e+00,4.031076431274414062e+00,3.898972988128662109e+00,3.775252819061279297e+00,3.659142971038818359e+00,3.549962043762207031e+00,3.447107553482055664e+00,3.350045680999755859e+00,3.258300065994262695e+00,3.171445369720458984e+00,3.089101076126098633e+00,3.010924816131591797e+00,2.936607599258422852e+00,2.865870237350463867e+00,2.798460960388183594e+00,2.734149932861328125e+00,2.672728538513183594e+00,2.614005804061889648e+00,2.557808160781860352e+00,2.503975868225097656e+00,2.452363014221191406e+00,2.402834653854370117e+00,2.355267524719238281e+00,2.309546947479248047e+00,2.265567779541015625e+00,2.223232269287109375e+00,2.182449817657470703e+00,2.143136739730834961e+00,2.105214834213256836e+00,2.068611383438110352e+00,2.033259391784667969e+00,1.999095320701599121e+00,1.966060280799865723e+00,1.934099435806274414e+00,1.903160929679870605e+00,1.873196721076965332e+00,1.844161391258239746e+00
5.000000000000000000e+00,5.000000000000000000e+00,5.000000000000000000e+00,5.000000000000000000e+00,5.000000000000000000e+00,5.000000000000000000e+00,5.000000000000000000e+00,5.000000000000000000e+00,5.000000000000000000e+00,5.000000000000000000e+00,5.000000000000000000e+00,5.000000000000000000e+00,5.000000000000000000e+00,5.000000000000000000e+00,5.000000000000000000e+00,5.000000000000000000e+00,5.000000000000000000e+00,5.000000000000000000e+00,5.000000000000000000e+00,5.000000000000000000e+00,5.000000000000000000e+00,5.000000000000000000e+00,5.000000000000000000e+00,5.000000000000000000e+00,5.000000000000000000e+00,5.000000000000000000e+00,5.000000000000000000e+00,5.000000000000000000e+00,2.398620605468750000e+00,2.414068937301635742e+00,2.474345207214355469e+00,2.668109655380249023e+00,2.662879467010498047e+00,2.709541320800781250e+00,5.000000000000000000e+00,5.000000000000000000e+00,5.000000000000000000e+00,5.000000000000000000e+00,5.000000000000000000e+00,4.853398799896240234e+00,4.663171768188476562e+00,4.487294673919677734e+00,4.324202060699462891e+00,4.172548770904541016e+00,4.031172275543212891e+00,3.899062633514404297e+00,3.775336980819702148e+00,3.659221887588500977e+00,3.550036430358886719e+00,3.447177648544311523e+00,3.350111722946166992e+00,3.258362531661987305e+00,3.171504735946655273e+00,3.089157581329345703e+00,3.010978221893310547e+00,2.936658382415771484e+00,2.865919113159179688e+00,2.798507452011108398e+00,2.734194278717041016e+00,2.672770738601684570e+00,2.614046335220336914e+00,2.557847023010253906e+00,2.504013061523437500e+00,2.452398777008056641e+00,2.402868986129760742e+00,2.355300426483154297e+00,2.309578418731689453e+00,2.265598058700561523e+00,2.223261356353759766e+00,2.182477951049804688e+00,2.143163681030273438e+00,2.105240821838378906e+00,2.068636655807495117e+00,2.033283710479736328e+00,1.999118924140930176e+00,1.966083168983459473e+00,1.934121489524841309e+00,1.903182268142700195e+00,1.873217463493347168e+00,1.844181418418884277e+00
5.000000000000000000e+00,5.000000000000000000e+00,5.000000000000000000e+00,5.000000000000000000e+00,5.000000000000000000e+00,5.000000000000000000e+00,5.000000000000000000e+00,5.000000000000000000e+00,5.000000000000000000e+00,5.000000000000000000e+00,5.000000000000000000e+00,5.000000000000000000e+00,5.000000000000000000e+00,5.000000000000000000e+00,5.000000000000000000e+00,5.000000000000000000e+00,5.000000000000000000e+00,5.000000000000000000e+00,5.000000000000000000e+00,5.000000000000000000e+00,5.000000000000000000e+00,5.000000000000000000e+00,5.000000000000000000e+00,5.000000000000000000e+00,5.000000000000000000e+00,5.000000000000000000e+00,5.000000000000000000e+00,5.000000000000000000e+00,2.392157554626464844e+00,2.406663656234741211e+00,2.460614919662475586e+00,2.681511163711547852e+00,2.674210548400878906e+00,5.000000000000000000e+00,5.000000000000000000e+00,5.000000000000000000e+00,5.000000000000000000e+00,5.000000000000000000e+00,5.000000000000000000e+00,4.853538036346435547e+00,4.663300514221191406e+00,4.487413406372070312e+00,4.324312210083007812e+00,4.172651767730712891e+00,4.031268119812011719e+00,3.899152278900146484e+00,3.775420904159545898e+00,3.659301042556762695e+00,3.550110816955566406e+00,3.447247982025146484e+00,3.350178003311157227e+00,3.258425235748291016e+00,3.171564102172851562e+00,3.089213848114013672e+00,3.011031866073608398e+00,2.936709403991699219e+00,2.865967512130737305e+00,2.798553705215454102e+00,2.734238386154174805e+00,2.672812938690185547e+00,2.614086627960205078e+00,2.557885646820068359e+00,2.504050254821777344e+00,2.452434062957763672e+00,2.402903079986572266e+00,2.355333328247070312e+00,2.309610128402709961e+00,2.265628576278686523e+00,2.223290681838989258e+00,2.182506084442138672e+00,2.143191099166870117e+00,2.105267286300659180e+00,2.068662166595458984e+00,2.033308267593383789e+00,1.999142527580261230e+00,1.966105937957763672e+00,1.934143543243408203e+00,1.903203725814819336e+00,1.873238205909729004e+00,1.844201564788818359e+00
5.000000000000000000e+00,5.000000000000000000e+00,5.000000000000000000e+00,5.000000000000000000e+00,5.000000000000000000e+00,5.000000000000000000e+00,5.000000000000000000e+00,5.000000000000000000e+00,5.000000000000000000e+00,5.000000000000000000e+00,5.000000000000000000e+00,5.000000000000000000e+00,5.000000000000000000e+00,5.000000000000000000e+00,5.000000000000000000e+00,5.000000000000000000e+00,5.000000000000000000e+00,5.000000000000000000e+00,5.000000000000000000e+00,5.000000000000000000e+00,5.000000000000000000e+00,5.000000000000000000e+00,5.000000000000000000e+00,5.000000000000000000e+00,5.000000000000000000e+00,5.000000000000000000e+00,5.000000000000000000e+00,5.000000000000000000e+00,2.409065723419189453e+00,2.415146827697753906e+00,2.471130132675170898e+00,2.692047119140625000e+00,2.685638427734375000e+00,5.000000000000000000e+00,5.000000000000000000e+00,5.000000000000000000e+00,5.000000000000000000e+00,5.000000000000000000e+00,5.000000000000000000e+00,4.853676795959472656e+00,4.663428783416748047e+00,4.487532615661621094e+00,4.324422836303710938e+00,4.172754764556884766e+00,4.031364440917968750e+00,3.899242401123046875e+00,3.775505542755126953e+00,3.659380435943603516e+00,3.550185441970825195e+00,3.447318077087402344e+00,3.350244283676147461e+00,3.258487939834594727e+00,3.171623468399047852e+00,3.089270114898681641e+00,3.011085271835327148e+00,2.936760187149047852e+00,2.866015911102294922e+00,2.798599958419799805e+00,2.734282493591308594e+00,2.672855138778686523e+00,2.614126920700073242e+00,2.557924270629882812e+00,2.504087209701538086e+00,2.452469587326049805e+00,2.402937173843383789e+00,2.355365991592407227e+00,2.309641599655151367e+00,2.265658855438232422e+00,2.223319768905639648e+00,2.182534217834472656e+00,2.143218040466308594e+00,2.105293273925781250e+00,2.068687200546264648e+00,2.033332824707031250e+00,1.999166131019592285e+00,1.966128945350646973e+00,1.934165716171264648e+00,1.903225302696228027e+00,1.873258948326110840e+00,1.844221830368041992e+00
5.000000000000000000e+00,5.000000000000000000e+00,5.000000000000000000e+00,5.000000000000000000e+00,5.000000000000000000e+00,5.000000000000000000e+00,5.000000000000000000e+00,5.000000000000000000e+00,5.000000000000000000e+00,5.000000000000000000e+00,5.000000000000000000e+00,5.000000000000000000e+00,5.000000000000000000e+00,5.000000000000000000e+00,5.000000000000000000e+00,5.000000000000000000e+00,5.000000000000000000e+00,5.000000000000000000e+00,5.000000000000000000e+00,5.000000000000000000e+00,5.000000000000000000e+00,5.000000000000000000e+00,5.000000000000000000e+00,5.000000000000000000e+00,5.000000000000000000e+00,5.000000000000000000e+00,5.000000000000000000e+00,5.000000000000000000e+00,2.428459644317626953e+00,2.427281141281127930e+00,2.488254070281982422e+00,2.707302570343017578e+00,2.703059911727905273e+00,5.000000000000000000e+00,5.000000000000000000e+00,5.000000000000000000e+00,5.000000000000000000e+00,5.000000000000000000e+00,5.000000000000000000e+00,4.853816509246826172e+00,4.663557529449462891e+00,4.487651824951171875e+00,4.324532985687255859e+00,4.172857284545898438e+00,4.031460285186767578e+00,3.899332284927368164e+00,3.775589704513549805e+00,3.659459352493286133e+00,3.550259828567504883e+00,3.447388410568237305e+00,3.350310802459716797e+00,3.258550882339477539e+00,3.171683073043823242e+00,3.089326620101928711e+00,3.011139154434204102e+00,2.936811447143554688e+00,2.866064786911010742e+00,2.798646450042724609e+00,2.734326601028442383e+00,2.672897338867187500e+00,2.614167451858520508e+00,2.557962894439697266e+00,2.504124164581298828e+00,2.452505111694335938e+00,2.402971267700195312e+00,2.355398654937744141e+00,2.309673070907592773e+00,2.265689134597778320e+00,2.223349094390869141e+00,2.182562351226806641e+00,2.143245220184326172e+00,2.105319499969482422e+00,2.068712472915649414e+00,2.033357143402099609e+00,1.999189615249633789e+00,1.966151833534240723e+00,1.934187769889831543e+00,1.903246641159057617e+00,1.873279571533203125e+00,1.844241857528686523e+00
5.000000000000000000e+00,5.000000000000000000e+00,5.000000000000000000e+00,5.000000000000000000e+00,5.000000000000000000e+00,5.000000000000000000e+00,5.000000000000000000e+00,5.000000000000000000e+00,5.000000000000000000e+00,5.000000000000000000e+00,5.000000000000000000e+00,5.000000000000000000e+00,5.000000000000000000e+00,5.000000000000000000e+00,5.000000000000000000e+00,5.000000000000000000e+00,5.000000000000000000e+00,5.000000000000000000e+00,5.000000000000000000e+00,5.000000000000000000e+00,5.000000000000000000e+00,5.000000000000000000e+00,5.000000000000000000e+00,5.000000000000000000e+00,5.000000000000000000e+00,5.000000000000000000e+00,5.000000000000000000e+00,5.000000000000000000e+00,2.438334226608276367e+00,2.441561698913574219e+00,2.502185344696044922e+00,2.761065721511840820e+00,2.764746904373168945e+00,5.000000000000000000e+00,5.000000000000000000e+00,5.000000000000000000e+00,5.000000000000000000e+00,5.000000000000000000e+00,5.000000000000000000e+00,4.853953838348388672e+00,4.663685798645019531e+00,4.487770557403564453e+00,4.324644088745117188e+00,4.172960281372070312e+00,4.031556606292724609e+00,3.899421930313110352e+00,3.775673866271972656e+00,3.659538507461547852e+00,3.550334215164184570e+00,3.447458505630493164e+00,3.350377082824707031e+00,3.258613586425781250e+00,3.171742439270019531e+00,3.089383125305175781e+00,3.011192560195922852e+00,2.936862230300903320e+00,2.866113185882568359e+00,2.798692703247070312e+00,2.734370946884155273e+00,2.672939777374267578e+00,2.614207983016967773e+00,2.558001518249511719e+00,2.504161357879638672e+00,2.452540874481201172e+00,2.403005361557006836e+00,2.355431556701660156e+00,2.309704542160034180e+00,2.265719413757324219e+00,2.223378181457519531e+00,2.182590484619140625e+00,2.143272399902343750e+00,2.105345726013183594e+00,2.068737745285034180e+00,2.033381462097167969e+00,1.999213218688964844e+00,1.966174602508544922e+00,1.934209823608398438e+00,1.903267979621887207e+00,1.873300313949584961e+00,1.844261884689331055e+00
5.000000000000000000e+00,5.000000000000000000e+00,5.000000000000000000e+00,5.000000000000000000e+00,5.000000000000000000e+00,5.000000000000000000e+00,5.000000000000000000e+00,5.000000000000000000e+00,5.000000000000000000e+00,5.000000000000000000e+00,5.000000000000000000e+00,5.000000000000000000e+00,5.000000000000000000e+00,5.000000000000000000e+00,5.000000000000000000e+00,5.000000000000000000e+00,5.000000000000000000e+00,5.000000000000000000e+00,5.000000000000000000e+00,5.000000000000000000e+00,5.000000000000000000e+00,5.000000000000000000e+00,5.000000000000000000e+00,5.000000000000000000e+00,5.000000000000000000e+00,5.000000000000000000e+00,5.000000000000000000e+00,5.000000000000000000e+00,2.436690568923950195e+00,2.437577486038208008e+00,2.490295886993408203e+00,2.842992544174194336e+00,2.837153434753417969e+00,5.000000000000000000e+00,5.000000000000000000e+00,5.000000000000000000e+00,5.000000000000000000e+00,5.000000000000000000e+00,5.000000000000000000e+00,4.854092121124267578e+00,4.663814544677734375e+00,4.487889766693115234e+00,4.324754714965820312e+00,4.173063278198242188e+00,4.031652450561523438e+00,3.899511575698852539e+00,3.775757789611816406e+00,3.659617424011230469e+00,3.550408601760864258e+00,3.447528839111328125e+00,3.350443363189697266e+00,3.258676290512084961e+00,3.171801805496215820e+00,3.089439392089843750e+00,3.011245965957641602e+00,2.936913251876831055e+00,2.866161584854125977e+00,2.798738718032836914e+00,2.734415054321289062e+00,2.672981739044189453e+00,2.614248275756835938e+00,2.558040142059326172e+00,2.504198312759399414e+00,2.452576398849487305e+00,2.403039455413818359e+00,2.355464458465576172e+00,2.309736251831054688e+00,2.265749692916870117e+00,2.223407506942749023e+00,2.182618856430053711e+00,2.143299579620361328e+00,2.105371952056884766e+00,2.068763256072998047e+00,2.033406019210815430e+00,1.999237060546875000e+00,1.966197371482849121e+00,1.934231877326965332e+00,1.903289437294006348e+00,1.873321056365966797e+00,1.844282031059265137e+00
5.000000000000000000e+00,5.000000000000000000e+00,5.000000000000000000e+00,5.000000000000000000e+00,5.000000000000000000e+00,5.000000000000000000e+00,5.000000000000000000e+00,5.000000000000000000e+00,5.000000000000000000e+00,5.000000000000000000e+00,5.000000000000000000e+00,5.000000000000000000e+00,5.000000000000000000e+00,5.000000000000000000e+00,5.000000000000000000e+00,5.000000000000000000e+00,5.000000000000000000e+00,5.000000000000000000e+00,5.000000000000000000e+00,5.000000000000000000e+00,5.000000000000000000e+00,5.000000000000000000e+00,5.000000000000000000e+00,5.000000000000000000e+00,5.000000000000000000e+00,5.000000000000000000e+00,5.000000000000000000e+00,5.000000000000000000e+00,2.437668800354003906e+00,2.433531999588012695e+00,2.479808807373046875e+00,2.879991769790649414e+00,2.874988079071044922e+00,5.000000000000000000e+00,5.000000000000000000e+00,5.000000000000000000e+00,5.000000000000000000e+00,5.000000000000000000e+00,5.000000000000000000e+00,4.854230403900146484e+00,4.663940906524658203e+00,4.488008499145507812e+00,4.324864864349365234e+00,4.173166275024414062e+00,4.031748771667480469e+00,3.899601936340332031e+00,3.775842428207397461e+00,3.659696817398071289e+00,3.550483465194702148e+00,3.447599172592163086e+00,3.350509881973266602e+00,3.258738756179809570e+00,3.171861171722412109e+00,3.089495658874511719e+00,3.011299610137939453e+00,2.936964035034179688e+00,2.866210222244262695e+00,2.798784971237182617e+00,2.734459161758422852e+00,2.673023939132690430e+00,2.614288568496704102e+00,2.558078765869140625e+00,2.504235267639160156e+00,2.452611684799194336e+00,2.403073549270629883e+00,2.355497121810913086e+00,2.309767723083496094e+00,2.265779972076416016e+00,2.223436594009399414e+00,2.182646989822387695e+00,2.143326759338378906e+00,2.105398178100585938e+00,2.068788528442382812e+00,2.033430337905883789e+00,1.999260663986206055e+00,1.966220259666442871e+00,1.934254169464111328e+00,1.903310775756835938e+00,1.873341917991638184e+00,1.844302058219909668e+00
5.000000000000000000e+00,5.000000000000000000e+00,5.000000000000000000e+00,5.000000000000000000e+00,5.000000000000000000e+00,5.000000000000000000e+00,5.000000000000000000e+00,5.000000000000000000e+00,5.000000000000000000e+00,5.000000000000000000e+00,5.000000000000000000e+00,5.000000000000000000e+00,5.000000000000000000e+00,5.000000000000000000e+00,5.000000000000000000e+00,5.000000000000000000e+00,5.000000000000000000e+00,5.000000000000000000e+00,5.000000000000000000e+00,5.000000000000000000e+00,5.000000000000000000e+00,5.000000000000000000e+00,5.000000000000000000e+00,5.000000000000000000e+00,5.000000000000000000e+00,5.000000000000000000e+00,5.000000000000000000e+00,5.000000000000000000e+00,2.444618940353393555e+00,2.428670644760131836e+00,2.473376035690307617e+00,2.917215347290039062e+00,2.923267364501953125e+00,5.000000000000000000e+00,5.000000000000000000e+00,5.000000000000000000e+00,5.000000000000000000e+00,5.000000000000000000e+00,5.000000000000000000e+00,4.854368686676025391e+00,4.664068698883056641e+00,4.488126277923583984e+00,4.324975490570068359e+00,4.173268795013427734e+00,4.031844615936279297e+00,3.899691581726074219e+00,3.775926589965820312e+00,3.659775972366333008e+00,3.550557851791381836e+00,3.447669267654418945e+00,3.350576162338256836e+00,3.258801937103271484e+00,3.171921014785766602e+00,3.089552402496337891e+00,3.011353254318237305e+00,2.937015295028686523e+00,2.866258859634399414e+00,2.798831462860107422e+00,2.734503507614135742e+00,2.673066139221191406e+00,2.614328861236572266e+00,2.558117389678955078e+00,2.504272460937500000e+00,2.452647209167480469e+00,2.403107643127441406e+00,2.355529785156250000e+00,2.309799194335937500e+00,2.265810489654541016e+00,2.223465919494628906e+00,2.182674884796142578e+00,2.143353700637817383e+00,2.105424165725708008e+00,2.068813800811767578e+00,2.033454895019531250e+00,1.999284267425537109e+00,1.966243028640747070e+00,1.934276223182678223e+00,1.903332114219665527e+00,1.873362660408020020e+00,1.844322085380554199e+00
5.000000000000000000e+00,5.000000000000000000e+00,5.000000000000000000e+00,5.000000000000000000e+00,5.000000000000000000e+00,5.000000000000000000e+00,5.000000000000000000e+00,5.000000000000000000e+00,5.000000000000000000e+00,5.000000000000000000e+00,5.000000000000000000e+00,5.000000000000000000e+00,5.000000000000000000e+00,5.000000000000000000e+00,5.000000000000000000e+00,5.000000000000000000e+00,5.000000000000000000e+00,5.000000000000000000e+00,5.000000000000000000e+00,5.000000000000000000e+00,5.000000000000000000e+00,5.000000000000000000e+00,5.000000000000000000e+00,5.000000000000000000e+00,5.000000000000000000e+00,5.000000000000000000e+00,5.000000000000000000e+00,5.000000000000000000e+00,2.456835269927978516e+00,2.425399065017700195e+00,2.473757266998291016e+00,2.957978010177612305e+00,2.991571903228759766e+00,5.000000000000000000e+00,5.000000000000000000e+00,5.000000000000000000e+00,5.000000000000000000e+00,5.000000000000000000e+00,5.000000000000000000e+00,4.854506492614746094e+00,4.664196014404296875e+00,4.488244056701660156e+00,4.325084686279296875e+00,4.173371791839599609e+00,4.031940460205078125e+00,3.899781227111816406e+00,3.776010751724243164e+00,3.659854888916015625e+00,3.550632238388061523e+00,3.447739601135253906e+00,3.350642442703247070e+00,3.258864402770996094e+00,3.171980381011962891e+00,3.089608669281005859e+00,3.011406898498535156e+00,2.937066078186035156e+00,2.866307258605957031e+00,2.798877716064453125e+00,2.734547615051269531e+00,2.673108577728271484e+00,2.614369392395019531e+00,2.558156251907348633e+00,2.504309654235839844e+00,2.452682971954345703e+00,2.403141975402832031e+00,2.355562686920166016e+00,2.309830904006958008e+00,2.265840768814086914e+00,2.223495006561279297e+00,2.182703018188476562e+00,2.143380880355834961e+00,2.105450391769409180e+00,2.068839073181152344e+00,2.033479213714599609e+00,1.999307870864868164e+00,1.966265797615051270e+00,1.934298396110534668e+00,1.903353452682495117e+00,1.873383402824401855e+00,1.844342231750488281e+00
5.000000000000000000e+00,5.000000000000000000e+00,5.000000000000000000e+00,5.000000000000000000e+00,5.000000000000000000e+00,5.000000000000000000e+00,5.000000000000000000e+00,5.000000000000000000e+00,5.000000000000000000e+00,5.000000000000000000e+00,5.000000000000000000e+00,5.000000000000000000e+00,5.000000000000000000e+00,5.000000000000000000e+00,5.000000000000000000e+00,5.000000000000000000e+00,5.000000000000000000e+00,5.000000000000000000e+00,5.000000000000000000e+00,5.000000000000000000e+00,5.000000000000000000e+00,5.000000000000000000e+00,5.000000000000000000e+00,5.000000000000000000e+00,5.000000000000000000e+00,5.000000000000000000e+00,5.000000000000000000e+00,5.000000000000000000e+00,2.469983577728271484e+00,2.423430681228637695e+00,2.474138736724853516e+00,3.022672891616821289e+00,5.000000000000000000e+00,5.000000000000000000e+00,5.000000000000000000e+00,5.000000000000000000e+00,5.000000000000000000e+00,5.000000000000000000e+00,5.000000000000000000e+00,4.854644775390625000e+00,4.664323806762695312e+00,4.488362312316894531e+00,4.325194835662841797e+00,4.173474788665771484e+00,4.032036781311035156e+00,3.899871110916137695e+00,3.776094913482666016e+00,3.659934043884277344e+00,3.550706624984741211e+00,3.447809696197509766e+00,3.350708484649658203e+00,3.258927106857299805e+00,3.172039747238159180e+00,3.089664936065673828e+00,3.011460304260253906e+00,2.937117099761962891e+00,2.866355895996093750e+00,2.798923969268798828e+00,2.734591722488403320e+00,2.673150777816772461e+00,2.614409685134887695e+00,2.558194875717163086e+00,2.504346609115600586e+00,2.452718496322631836e+00,2.403176069259643555e+00,2.355595588684082031e+00,2.309862375259399414e+00,2.265871047973632812e+00,2.223524332046508789e+00,2.182731389999389648e+00,2.143408060073852539e+00,2.105476617813110352e+00,2.068864345550537109e+00,2.033503770828247070e+00,1.999331474304199219e+00,1.966288924217224121e+00,1.934320449829101562e+00,1.903374910354614258e+00,1.873404026031494141e+00,1.844362258911132812e+00
4.875058174133300781e+00,4.873847007751464844e+00,4.872637271881103516e+00,4.871428012847900391e+00,4.870219230651855469e+00,4.869010925292968750e+00,4.867803096771240234e+00,4.866596221923828125e+00,4.865389823913574219e+00,4.864183902740478516e+00,4.862978935241699219e+00,4.861774444580078125e+00,4.860569953918457031e+00,4.859366416931152344e+00,4.858163833618164062e+00,4.856961727142333984e+00,4.855760097503662109e+00,4.854558944702148438e+00,4.853358745574951172e+00,4.852159023284912109e+00,4.850959300994873047e+00,4.849761009216308594e+00,4.848562717437744141e+00,4.847364902496337891e+00,4.846168518066406250e+00,4.844972133636474609e+00,4.843776226043701172e+00,4.842581272125244141e+00,4.841386795043945312e+00,2.428991079330444336e+00,2.473364591598510742e+00,3.011564493179321289e+00,4.836614131927490234e+00,4.835422992706298828e+00,4.834231853485107422e+00,4.833041191101074219e+00,4.831851482391357422e+00,4.830662250518798828e+00,4.829473495483398438e+00,4.828285217285156250e+00,4.664451122283935547e+00,4.488480567932128906e+00,4.325304031372070312e+00,4.173576354980468750e+00,4.032132625579833984e+00,3.899961233139038086e+00,3.776179313659667969e+00,3.660013437271118164e+00,3.550781250000000000e+00,3.447880029678344727e+00,3.350775241851806641e+00,3.258990287780761719e+00,3.172099113464355469e+00,3.089721202850341797e+00,3.011513948440551758e+00,2.937167882919311523e+00,2.866404294967651367e+00,2.798970222473144531e+00,2.734636068344116211e+00,2.673192739486694336e+00,2.614449977874755859e+00,2.558233499526977539e+00,2.504383563995361328e+00,2.452754020690917969e+00,2.403210163116455078e+00,2.355628252029418945e+00,2.309893846511840820e+00,2.265901327133178711e+00,2.223553419113159180e+00,2.182759523391723633e+00,2.143435239791870117e+00,2.105502843856811523e+00,2.068889617919921875e+00,2.033528089523315430e+00,1.999354958534240723e+00,1.966311693191528320e+00,1.934342503547668457e+00,1.903396487236022949e+00,1.873424768447875977e+00,1.844382524490356445e+00
3.777877569198608398e+00,3.777150392532348633e+00,3.776423692703247070e+00,3.775697231292724609e+00,3.774971246719360352e+00,3.774245023727416992e+00,3.773519277572631836e+00,3.772794246673583984e+00,3.772068977355957031e+00,3.771343946456909180e+00,3.770619630813598633e+00,3.769895315170288086e+00,3.769170999526977539e+00,3.768447637557983398e+00,3.767724037170410156e+00,3.767001152038574219e+00,3.766278266906738281e+00,3.765555381774902344e+00,3.764833450317382812e+00,3.764111280441284180e+00,3.763389348983764648e+00,3.762668132781982422e+00,3.761946678161621094e+00,3.761225700378417969e+00,3.760505199432373047e+00,3.759784698486328125e+00,3.759064912796020508e+00,3.758344888687133789e+00,3.757625102996826172e+00,2.438864707946777344e+00,3.756186962127685547e+00,2.988715410232543945e+00,3.754750013351440430e+00,3.754031658172607422e+00,3.753314018249511719e+00,3.752596139907836914e+00,3.751878738403320312e+00,3.751161813735961914e+00,3.750444889068603516e+00,3.749728202819824219e+00,3.749012231826782227e+00,3.748296022415161133e+00,3.747580289840698242e+00,3.746865034103393555e+00,3.746149778366088867e+00,3.745434999465942383e+00,3.744720220565795898e+00,3.660092353820800781e+00,3.550855636596679688e+00,3.447950363159179688e+00,3.350841522216796875e+00,3.259052753448486328e+00,3.172158718109130859e+00,3.089777946472167969e+00,3.011567592620849609e+00,2.937219142913818359e+00,2.866452932357788086e+00,2.799016714096069336e+00,2.734680414199829102e+00,2.673235177993774414e+00,2.614490509033203125e+00,2.558272123336791992e+00,2.504420518875122070e+00,2.452789545059204102e+00,2.403244256973266602e+00,2.355660915374755859e+00,2.309925317764282227e+00,2.265931606292724609e+00,2.223582744598388672e+00,2.182787656784057617e+00,2.143462419509887695e+00,2.105529069900512695e+00,2.068914890289306641e+00,2.033552646636962891e+00,1.999378561973571777e+00,1.966334581375122070e+00,1.934364557266235352e+00,1.903417825698852539e+00,1.873445510864257812e+00,1.844402670860290527e+00
3.083830833435058594e+00,3.083346366882324219e+00,3.082861900329589844e+00,3.082377910614013672e+00,3.081893682479858398e+00,3.081409692764282227e+00,3.080926179885864258e+00,3.080442667007446289e+00,3.079959154129028320e+00,3.079476118087768555e+00,3.078992843627929688e+00,3.078510046005249023e+00,3.078027009963989258e+00,3.077544450759887695e+00,3.077062129974365234e+00,3.076579570770263672e+00,3.076097249984741211e+00,3.075615406036376953e+00,3.075133323669433594e+00,3.074651956558227539e+00,3.074170112609863281e+00,3.073688507080078125e+00,3.073207616806030273e+00,3.072726249694824219e+00,3.072245121002197266e+00,3.071764469146728516e+00,3.071283817291259766e+00,3.070803165435791016e+00,3.070322751998901367e+00,2.398259401321411133e+00,2.412003040313720703e+00,3.068882703781127930e+00,3.068402767181396484e+00,3.067923307418823242e+00,3.067443609237670898e+00,3.066964149475097656e+00,3.066485166549682617e+00,3.066006183624267578e+00,3.065527200698852539e+00,3.065048694610595703e+00,3.064569950103759766e+00,3.064091682434082031e+00,3.063613176345825195e+00,3.063135147094726562e+00,3.062657356262207031e+00,3.062179327011108398e+00,3.061701536178588867e+00,3.061224222183227539e+00,3.060746669769287109e+00,3.060269594192504883e+00,3.059792280197143555e+00,3.059315204620361328e+00,3.058838605880737305e+00,3.058362007141113281e+00,3.011621236801147461e+00,2.937269926071166992e+00,2.866501569747924805e+00,2.799062967300415039e+00,2.734724521636962891e+00,2.673277378082275391e+00,2.614531040191650391e+00,2.558310985565185547e+00,2.504457712173461914e+00,2.452825069427490234e+00,2.403278350830078125e+00,2.355693817138671875e+00,2.309957027435302734e+00,2.265962123870849609e+00,2.223612070083618164e+00,2.182815790176391602e+00,2.143489360809326172e+00,2.105555295944213867e+00,2.068940162658691406e+00,2.033576965332031250e+00,1.999402165412902832e+00,1.966357350349426270e+00,1.934386610984802246e+00,1.903439283370971680e+00,1.873466134071350098e+00,1.844422698020935059e+00
2.605217218399047852e+00,2.604871511459350586e+00,2.604525804519653320e+00,2.604180097579956055e+00,2.603834867477416992e+00,2.603489398956298828e+00,2.603143930435180664e+00,2.602798938751220703e+00,2.602453708648681641e+00,2.602108478546142578e+00,2.601763725280761719e+00,2.601418733596801758e+00,2.601073980331420898e+00,2.600729465484619141e+00,2.600384712219238281e+00,2.600040435791015625e+00,2.599695920944213867e+00,2.599351644515991211e+00,2.599007606506347656e+00,2.598663330078125000e+00,2.598319292068481445e+00,2.597975492477416992e+00,2.597631454467773438e+00,2.597287654876708984e+00,2.596944093704223633e+00,2.596600532531738281e+00,2.596257209777832031e+00,2.595913648605346680e+00,2.595570325851440430e+00,2.315789461135864258e+00,2.293564796447753906e+00,2.594540834426879883e+00,2.594197988510131836e+00,2.593855142593383789e+00,2.593512535095214844e+00,2.593169689178466797e+00,2.592827081680297852e+00,2.592484712600708008e+00,2.592142343521118164e+00,2.591799974441528320e+00,2.591457843780517578e+00,2.591115713119506836e+00,2.590773582458496094e+00,2.590431690216064453e+00,2.590089797973632812e+00,2.589748144149780273e+00,2.589406490325927734e+00,2.589064836502075195e+00,2.588723421096801758e+00,2.588382005691528320e+00,2.588040590286254883e+00,2.587699413299560547e+00,2.587358236312866211e+00,2.587017059326171875e+00,2.586676359176635742e+00,2.586335420608520508e+00,2.585994720458984375e+00,2.585654020309448242e+00,2.585313320159912109e+00,2.584972858428955078e+00,2.584632396697998047e+00,2.558349609375000000e+00,2.504494667053222656e+00,2.452860593795776367e+00,2.403312444686889648e+00,2.355726718902587891e+00,2.309988498687744141e+00,2.265992403030395508e+00,2.223641157150268555e+00,2.182843923568725586e+00,2.143516778945922852e+00,2.105581521987915039e+00,2.068965435028076172e+00,2.033601522445678711e+00,1.999426007270812988e+00,1.966380119323730469e+00,1.934409022331237793e+00,1.903460621833801270e+00,1.873486876487731934e+00,1.844442725181579590e+00
2.255237340927124023e+00,2.254976749420166016e+00,2.254716634750366211e+00,2.254456281661987305e+00,2.254196166992187500e+00,2.253935813903808594e+00,2.253675699234008789e+00,2.253415584564208984e+00,2.253155708312988281e+00,2.252895593643188477e+00,2.252635955810546875e+00,2.252376079559326172e+00,2.252116203308105469e+00,2.251856565475463867e+00,2.251596927642822266e+00,2.251337528228759766e+00,2.251077890396118164e+00,2.250818490982055664e+00,2.250559091567993164e+00,2.250299453735351562e+00,2.250040292739868164e+00,2.249781131744384766e+00,2.249521970748901367e+00,2.249262809753417969e+00,2.249004840850830078e+00,2.248747348785400391e+00,2.248489618301391602e+00,2.248231887817382812e+00,2.247974634170532227e+00,2.247717142105102539e+00,2.247459888458251953e+00,2.247202396392822266e+00,2.246945142745971680e+00,2.246687889099121094e+00,2.246430873870849609e+00,2.246173620223999023e+00,2.245916604995727539e+00,2.245659589767456055e+00,2.245402574539184570e+00,2.245145797729492188e+00,2.244889020919799805e+00,2.244632482528686523e+00,2.244375705718994141e+00,2.244118928909301758e+00,2.243862390518188477e+00,2.243605852127075195e+00,2.243349552154541016e+00,2.243093252182006836e+00,2.242836713790893555e+00,2.242580652236938477e+00,2.242324352264404297e+00,2.242068052291870117e+00,2.241812229156494141e+00,2.241555929183959961e+00,2.241299867630004883e+00,2.241044044494628906e+00,2.240788221359252930e+00,2.240532398223876953e+00,2.240276813507080078e+00,2.240020990371704102e+00,2.239765405654907227e+00,2.239509820938110352e+00,2.239254236221313477e+00,2.238998889923095703e+00,2.238743543624877930e+00,2.238487958908081055e+00,2.238232851028442383e+00,2.237977504730224609e+00,2.223670482635498047e+00,2.182872056961059570e+00,2.143543720245361328e+00,2.105607748031616211e+00,2.068990707397460938e+00,2.033625841140747070e+00,1.999449610710144043e+00,1.966403007507324219e+00,1.934431076049804688e+00,1.903481960296630859e+00,1.873507857322692871e+00,1.844462871551513672e+00
1.988209962844848633e+00,1.988007545471191406e+00,1.987805247306823730e+00,1.987602949142456055e+00,1.987400770187377930e+00,1.987198352813720703e+00,1.986996173858642578e+00,1.986793994903564453e+00,1.986591935157775879e+00,1.986389875411987305e+00,1.986187934875488281e+00,1.985985994338989258e+00,1.985783815383911133e+00,1.985581874847412109e+00,1.985380053520202637e+00,1.985178232192993164e+00,1.984976530075073242e+00,1.984774827957153320e+00,1.984573125839233398e+00,1.984371304512023926e+00,1.984169602394104004e+00,1.983968138694763184e+00,1.983766555786132812e+00,1.983565092086791992e+00,1.983363747596740723e+00,1.983162283897399902e+00,1.982960700988769531e+00,1.982759475708007812e+00,1.982558250427246094e+00,1.982356905937194824e+00,1.982155799865722656e+00,1.981954693794250488e+00,1.981753587722778320e+00,1.981552481651306152e+00,1.981351256370544434e+00,1.981150269508361816e+00,1.980949282646179199e+00,1.980748414993286133e+00,1.980547547340393066e+00,1.980346679687500000e+00,1.980145931243896484e+00,1.979944944381713867e+00,1.979744315147399902e+00,1.979543685913085938e+00,1.979343056678771973e+00,1.979142427444458008e+00,1.978941917419433594e+00,1.978741407394409180e+00,1.978540778160095215e+00,1.978340268135070801e+00,1.978139996528625488e+00,1.977939605712890625e+00,1.977739334106445312e+00,1.977539062500000000e+00,1.977338910102844238e+00,1.977138638496398926e+00,1.976938366889953613e+00,1.976738214492797852e+00,1.976538181304931641e+00,1.976338148117065430e+00,1.976138234138488770e+00,1.975938320159912109e+00,1.975738406181335449e+00,1.975538372993469238e+00,1.975338578224182129e+00,1.975138783454895020e+00,1.974938988685607910e+00,1.974739313125610352e+00,1.974539756774902344e+00,1.974340081214904785e+00,1.974140286445617676e+00,1.973940849304199219e+00,1.973741292953491211e+00,1.973541855812072754e+00,1.973342418670654297e+00,1.966425776481628418e+00,1.934453129768371582e+00,1.903503417968750000e+00,1.873528480529785156e+00,1.844482898712158203e+00
1.777722001075744629e+00,1.777560234069824219e+00,1.777398467063903809e+00,1.777236700057983398e+00,1.777075052261352539e+00,1.776913166046142578e+00,1.776751518249511719e+00,1.776589870452880859e+00,1.776428341865539551e+00,1.776266813278198242e+00,1.776105284690856934e+00,1.775943756103515625e+00,1.775782108306884766e+00,1.775620698928833008e+00,1.775459289550781250e+00,1.775297880172729492e+00,1.775136470794677734e+00,1.774975180625915527e+00,1.774813890457153320e+00,1.774652481079101562e+00,1.774491190910339355e+00,1.774330019950866699e+00,1.774168848991394043e+00,1.774007678031921387e+00,1.773846507072448730e+00,1.773685455322265625e+00,1.773524165153503418e+00,1.773363113403320312e+00,1.773202180862426758e+00,1.773041248321533203e+00,1.772880196571350098e+00,1.772719383239746094e+00,1.772558450698852539e+00,1.772397637367248535e+00,1.772236585617065430e+00,1.772075772285461426e+00,1.771914958953857422e+00,1.771754264831542969e+00,1.771593570709228516e+00,1.771432876586914062e+00,1.771272182464599609e+00,1.771111369132995605e+00,1.770950794219970703e+00,1.770790219306945801e+00,1.770629763603210449e+00,1.770469188690185547e+00,1.770308732986450195e+00,1.770148277282714844e+00,1.769987702369689941e+00,1.769827246665954590e+00,1.769666910171508789e+00,1.769506573677062988e+00,1.769346237182617188e+00,1.769186019897460938e+00,1.769025802612304688e+00,1.768865585327148438e+00,1.768705129623413086e+00,1.768545031547546387e+00,1.768384933471679688e+00,1.768224835395812988e+00,1.768064737319946289e+00,1.767904639244079590e+00,1.767744660377502441e+00,1.767584443092346191e+00,1.767424583435058594e+00,1.767264604568481445e+00,1.767104744911193848e+00,1.766944885253906250e+00,1.766785025596618652e+00,1.766625165939331055e+00,1.766465187072753906e+00,1.766305446624755859e+00,1.766145825386047363e+00,1.765986084938049316e+00,1.765826463699340820e+00,1.765666723251342773e+00,1.765507221221923828e+00,1.765347599983215332e+00,1.765187859535217285e+00,1.765028357505798340e+00
1.607535362243652344e+00,1.607403039932250977e+00,1.607270717620849609e+00,1.607138514518737793e+00,1.607006311416625977e+00,1.606873869895935059e+00,1.606741666793823242e+00,1.606609582901000977e+00,1.606477379798889160e+00,1.606345295906066895e+00,1.606213212013244629e+00,1.606081128120422363e+00,1.605948925018310547e+00,1.605816841125488281e+00,1.605684876441955566e+00,1.605552792549133301e+00,1.605420827865600586e+00,1.605288863182067871e+00,1.605157017707824707e+00,1.605024933815002441e+00,1.604892969131469727e+00,1.604761123657226562e+00,1.604629278182983398e+00,1.604497551918029785e+00,1.604365706443786621e+00,1.604233860969543457e+00,1.604102015495300293e+00,1.603970289230346680e+00,1.603838562965393066e+00,1.603706836700439453e+00,1.603575229644775391e+00,1.603443503379821777e+00,1.603311896324157715e+00,1.603180289268493652e+00,1.603048563003540039e+00,1.602916955947875977e+00,1.602785468101501465e+00,1.602653980255126953e+00,1.602522492408752441e+00,1.602391004562377930e+00,1.602259516716003418e+00,1.602127909660339355e+00,1.601996541023254395e+00,1.601865172386169434e+00,1.601733803749084473e+00,1.601602435111999512e+00,1.601471066474914551e+00,1.601339817047119141e+00,1.601208329200744629e+00,1.601077079772949219e+00,1.600945830345153809e+00,1.600814700126647949e+00,1.600683450698852539e+00,1.600552320480346680e+00,1.600421190261840820e+00,1.600290060043334961e+00,1.600158810615539551e+00,1.600027680397033691e+00,1.599896550178527832e+00,1.599765539169311523e+00,1.599634528160095215e+00,1.599503517150878906e+00,1.599372506141662598e+00,1.599241375923156738e+00,1.599110484123229980e+00,1.598979592323303223e+00,1.598848700523376465e+00,1.598717808723449707e+00,1.598586916923522949e+00,1.598456144332885742e+00,1.598325133323669434e+00,1.598194360733032227e+00,1.598063588142395020e+00,1.597932815551757812e+00,1.597802162170410156e+00,1.597671389579772949e+00,1.597540736198425293e+00,1.597410082817077637e+00,1.597279310226440430e+00,1.597148656845092773e+00
1.467086672782897949e+00,1.466976523399353027e+00,1.466866374015808105e+00,1.466756224632263184e+00,1.466646075248718262e+00,1.466535806655883789e+00,1.466425657272338867e+00,1.466315627098083496e+00,1.466205477714538574e+00,1.466095447540283203e+00,1.465985417366027832e+00,1.465875387191772461e+00,1.465765237808227539e+00,1.465655207633972168e+00,1.465545296669006348e+00,1.465435266494750977e+00,1.465325355529785156e+00,1.465215444564819336e+00,1.465105533599853516e+00,1.464995503425598145e+00,1.464885592460632324e+00,1.464775681495666504e+00,1.464665889739990234e+00,1.464556097984313965e+00,1.464446187019348145e+00,1.464336395263671875e+00,1.464226484298706055e+00,1.464116811752319336e+00,1.464007019996643066e+00,1.463897347450256348e+00,1.463787555694580078e+00,1.463677883148193359e+00,1.463568210601806641e+00,1.463458538055419922e+00,1.463348746299743652e+00,1.463239073753356934e+00,1.463129520416259766e+00,1.463019847869873047e+00,1.462910294532775879e+00,1.462800741195678711e+00,1.462691187858581543e+00,1.462581515312194824e+00,1.462472081184387207e+00,1.462362527847290039e+00,1.462253093719482422e+00,1.462143540382385254e+00,1.462034106254577637e+00,1.461924672126770020e+00,1.461815118789672852e+00,1.461705803871154785e+00,1.461596369743347168e+00,1.461487054824829102e+00,1.461377620697021484e+00,1.461268305778503418e+00,1.461158990859985352e+00,1.461049675941467285e+00,1.460940241813659668e+00,1.460831046104431152e+00,1.460721731185913086e+00,1.460612535476684570e+00,1.460503339767456055e+00,1.460394144058227539e+00,1.460284948348999023e+00,1.460175633430480957e+00,1.460066437721252441e+00,1.459957361221313477e+00,1.459848165512084961e+00,1.459739089012145996e+00,1.459630012512207031e+00,1.459520936012268066e+00,1.459411740303039551e+00,1.459302663803100586e+00,1.459193706512451172e+00,1.459084630012512207e+00,1.458975672721862793e+00,1.458866715431213379e+00,1.458757758140563965e+00,1.458648800849914551e+00,1.458539724349975586e+00,1.458430767059326172e+00
1.349207878112792969e+00,1.349114656448364258e+00,1.349021434783935547e+00,1.348928332328796387e+00,1.348835110664367676e+00,1.348741888999938965e+00,1.348648786544799805e+00,1.348555564880371094e+00,1.348462462425231934e+00,1.348369359970092773e+00,1.348276376724243164e+00,1.348183274269104004e+00,1.348090052604675293e+00,1.347997069358825684e+00,1.347904086112976074e+00,1.347810983657836914e+00,1.347718000411987305e+00,1.347625017166137695e+00,1.347532033920288086e+00,1.347438931465148926e+00,1.347346067428588867e+00,1.347253084182739258e+00,1.347160220146179199e+00,1.347067236900329590e+00,1.346974372863769531e+00,1.346881508827209473e+00,1.346788525581359863e+00,1.346695661544799805e+00,1.346602797508239746e+00,1.346509933471679688e+00,1.346417188644409180e+00,1.346324324607849121e+00,1.346231579780578613e+00,1.346138715744018555e+00,1.346045851707458496e+00,1.345953106880187988e+00,1.345860362052917480e+00,1.345767617225646973e+00,1.345674872398376465e+00,1.345582246780395508e+00,1.345489501953125000e+00,1.345396757125854492e+00,1.345304012298583984e+00,1.345211386680603027e+00,1.345118761062622070e+00,1.345026135444641113e+00,1.344933509826660156e+00,1.344840884208679199e+00,1.344748139381408691e+00,1.344655632972717285e+00,1.344563007354736328e+00,1.344470500946044922e+00,1.344377875328063965e+00,1.344285368919372559e+00,1.344192862510681152e+00,1.344100356101989746e+00,1.344007730484008789e+00,1.343915224075317383e+00,1.343822836875915527e+00,1.343730330467224121e+00,1.343637943267822266e+00,1.343545436859130859e+00,1.343453049659729004e+00,1.343360543251037598e+00,1.343268156051635742e+00,1.343175768852233887e+00,1.343083381652832031e+00,1.342990994453430176e+00,1.342898726463317871e+00,1.342806339263916016e+00,1.342713952064514160e+00,1.342621684074401855e+00,1.342529296875000000e+00,1.342437028884887695e+00,1.342344760894775391e+00,1.342252612113952637e+00,1.342160344123840332e+00,1.342068076133728027e+00,1.341975808143615723e+00,1.341883540153503418e+00
1.248862981796264648e+00,1.248783111572265625e+00,1.248703360557556152e+00,1.248623490333557129e+00,1.248543739318847656e+00,1.248463749885559082e+00,1.248383998870849609e+00,1.248304247856140137e+00,1.248224377632141113e+00,1.248144626617431641e+00,1.248064875602722168e+00,1.247985124588012695e+00,1.247905373573303223e+00,1.247825622558593750e+00,1.247745871543884277e+00,1.247666120529174805e+00,1.247586488723754883e+00,1.247506737709045410e+00,1.247427105903625488e+00,1.247347354888916016e+00,1.247267723083496094e+00,1.247188091278076172e+00,1.247108459472656250e+00,1.247028827667236328e+00,1.246949195861816406e+00,1.246869564056396484e+00,1.246789932250976562e+00,1.246710300445556641e+00,1.246630668640136719e+00,1.246551156044006348e+00,1.246471643447875977e+00,1.246392011642456055e+00,1.246312499046325684e+00,1.246232986450195312e+00,1.246153354644775391e+00,1.246073842048645020e+00,1.245994329452514648e+00,1.245914936065673828e+00,1.245835423469543457e+00,1.245755910873413086e+00,1.245676517486572266e+00,1.245597004890441895e+00,1.245517492294311523e+00,1.245438098907470703e+00,1.245358705520629883e+00,1.245279312133789062e+00,1.245199918746948242e+00,1.245120525360107422e+00,1.245041012763977051e+00,1.244961738586425781e+00,1.244882345199584961e+00,1.244802951812744141e+00,1.244723677635192871e+00,1.244644403457641602e+00,1.244565010070800781e+00,1.244485735893249512e+00,1.244406342506408691e+00,1.244327068328857422e+00,1.244247794151306152e+00,1.244168519973754883e+00,1.244089245796203613e+00,1.244010090827941895e+00,1.243930816650390625e+00,1.243851542472839355e+00,1.243772268295288086e+00,1.243693113327026367e+00,1.243613958358764648e+00,1.243534684181213379e+00,1.243455529212951660e+00,1.243376374244689941e+00,1.243297219276428223e+00,1.243218064308166504e+00,1.243138909339904785e+00,1.243059754371643066e+00,1.242980718612670898e+00,1.242901563644409180e+00,1.242822527885437012e+00,1.242743372917175293e+00,1.242664217948913574e+00,1.242585182189941406e+00
1.162410974502563477e+00,1.162341713905334473e+00,1.162272572517395020e+00,1.162203431129455566e+00,1.162134289741516113e+00,1.162065029144287109e+00,1.161995887756347656e+00,1.161926746368408203e+00,1.161857604980468750e+00,1.161788582801818848e+00,1.161719441413879395e+00,1.161650300025939941e+00,1.161581158638000488e+00,1.161512136459350586e+00,1.161442995071411133e+00,1.161373972892761230e+00,1.161304950714111328e+00,1.161235809326171875e+00,1.161166787147521973e+00,1.161097764968872070e+00,1.161028742790222168e+00,1.160959720611572266e+00,1.160890698432922363e+00,1.160821676254272461e+00,1.160752654075622559e+00,1.160683751106262207e+00,1.160614609718322754e+00,1.160545706748962402e+00,1.160476684570312500e+00,1.160407781600952148e+00,1.160338878631591797e+00,1.160269856452941895e+00,1.160200953483581543e+00,1.160132050514221191e+00,1.160063028335571289e+00,1.159994125366210938e+00,1.159925222396850586e+00,1.159856438636779785e+00,1.159787535667419434e+00,1.159718632698059082e+00,1.159649848937988281e+00,1.159580826759338379e+00,1.159512042999267578e+00,1.159443140029907227e+00,1.159374356269836426e+00,1.159305572509765625e+00,1.159236669540405273e+00,1.159167885780334473e+00,1.159099102020263672e+00,1.159030318260192871e+00,1.158961534500122070e+00,1.158892750740051270e+00,1.158823966979980469e+00,1.158755183219909668e+00,1.158686399459838867e+00,1.158617734909057617e+00,1.158548951148986816e+00,1.158480167388916016e+00,1.158411502838134766e+00,1.158342838287353516e+00,1.158274054527282715e+00,1.158205389976501465e+00,1.158136725425720215e+00,1.158068060874938965e+00,1.157999396324157715e+00,1.157930731773376465e+00,1.157862067222595215e+00,1.157793402671813965e+00,1.157724738121032715e+00,1.157656192779541016e+00,1.157587409019470215e+00,1.157518863677978516e+00,1.157450318336486816e+00,1.157381653785705566e+00,1.157313108444213867e+00,1.157244563102722168e+00,1.157176017761230469e+00,1.157107353210449219e+00,1.157038807868957520e+00,1.156970262527465820e+00
1.087153077125549316e+00,1.087092518806457520e+00,1.087032079696655273e+00,1.086971521377563477e+00,1.086911082267761230e+00,1.086850523948669434e+00,1.086790084838867188e+00,1.086729526519775391e+00,1.086669087409973145e+00,1.086608648300170898e+00,1.086548209190368652e+00,1.086487770080566406e+00,1.086427211761474609e+00,1.086366891860961914e+00,1.086306452751159668e+00,1.086246013641357422e+00,1.086185574531555176e+00,1.086125135421752930e+00,1.086064815521240234e+00,1.086004376411437988e+00,1.085943937301635742e+00,1.085883617401123047e+00,1.085823178291320801e+00,1.085762858390808105e+00,1.085702538490295410e+00,1.085642099380493164e+00,1.085581779479980469e+00,1.085521340370178223e+00,1.085461020469665527e+00,1.085400700569152832e+00,1.085340380668640137e+00,1.085280179977416992e+00,1.085219860076904297e+00,1.085159540176391602e+00,1.085099220275878906e+00,1.085038900375366211e+00,1.084978580474853516e+00,1.084918379783630371e+00,1.084858059883117676e+00,1.084797859191894531e+00,1.084737539291381836e+00,1.084677219390869141e+00,1.084617018699645996e+00,1.084556818008422852e+00,1.084496617317199707e+00,1.084436416625976562e+00,1.084376096725463867e+00,1.084315896034240723e+00,1.084255695343017578e+00,1.084195494651794434e+00,1.084135293960571289e+00,1.084075093269348145e+00,1.084015011787414551e+00,1.083954811096191406e+00,1.083894610404968262e+00,1.083834528923034668e+00,1.083774328231811523e+00,1.083714127540588379e+00,1.083654046058654785e+00,1.083593964576721191e+00,1.083533763885498047e+00,1.083473682403564453e+00,1.083413600921630859e+00,1.083353400230407715e+00,1.083293318748474121e+00,1.083233237266540527e+00,1.083173155784606934e+00,1.083113074302673340e+00,1.083053112030029297e+00,1.082993030548095703e+00,1.082932829856872559e+00,1.082872867584228516e+00,1.082812786102294922e+00,1.082752823829650879e+00,1.082692742347717285e+00,1.082632780075073242e+00,1.082572698593139648e+00,1.082512736320495605e+00,1.082452654838562012e+00,1.082392692565917969e+00
1.021047592163085938e+00,1.020994186401367188e+00,1.020940780639648438e+00,1.020887374877929688e+00,1.020834088325500488e+00,1.020780682563781738e+00,1.020727276802062988e+00,1.020673990249633789e+00,1.020620584487915039e+00,1.020567297935485840e+00,1.020514011383056641e+00,1.020460605621337891e+00,1.020407319068908691e+00,1.020353913307189941e+00,1.020300626754760742e+00,1.020247340202331543e+00,1.020194053649902344e+00,1.020140767097473145e+00,1.020087480545043945e+00,1.020034193992614746e+00,1.019980907440185547e+00,1.019927620887756348e+00,1.019874334335327148e+00,1.019821166992187500e+00,1.019767880439758301e+00,1.019714593887329102e+00,1.019661307334899902e+00,1.019608139991760254e+00,1.019554853439331055e+00,1.019501686096191406e+00,1.019448399543762207e+00,1.019395232200622559e+00,1.019342064857482910e+00,1.019288897514343262e+00,1.019235610961914062e+00,1.019182443618774414e+00,1.019129276275634766e+00,1.019076108932495117e+00,1.019022941589355469e+00,1.018969774246215820e+00,1.018916606903076172e+00,1.018863320350646973e+00,1.018810153007507324e+00,1.018757104873657227e+00,1.018703937530517578e+00,1.018650770187377930e+00,1.018597722053527832e+00,1.018544554710388184e+00,1.018491387367248535e+00,1.018438220024108887e+00,1.018385171890258789e+00,1.018332123756408691e+00,1.018278956413269043e+00,1.018225908279418945e+00,1.018172860145568848e+00,1.018119692802429199e+00,1.018066644668579102e+00,1.018013477325439453e+00,1.017960429191589355e+00,1.017907381057739258e+00,1.017854332923889160e+00,1.017801284790039062e+00,1.017748355865478516e+00,1.017695188522338867e+00,1.017642140388488770e+00,1.017589211463928223e+00,1.017536163330078125e+00,1.017483115196228027e+00,1.017430186271667480e+00,1.017377138137817383e+00,1.017324090003967285e+00,1.017271041870117188e+00,1.017218112945556641e+00,1.017165184020996094e+00,1.017112135887145996e+00,1.017059206962585449e+00,1.017006278038024902e+00,1.016953349113464355e+00,1.016900300979614258e+00,1.016847372055053711e+00
9.625204205513000488e-01,9.624730348587036133e-01,9.624255895614624023e-01,9.623782038688659668e-01,9.623306989669799805e-01,9.622832536697387695e-01,9.622359275817871094e-01,9.621884226799011230e-01,9.621410965919494629e-01,9.620936512947082520e-01,9.620463252067565918e-01,9.619988799095153809e-01,9.619514346122741699e-01,9.619041085243225098e-01,9.618567228317260742e-01,9.618093967437744141e-01,9.617619514465332031e-01,9.617146849632263184e-01,9.616672396659851074e-01,9.616198539733886719e-01,9.615725874900817871e-01,9.615252017974853516e-01,9.614778757095336914e-01,9.614304900169372559e-01,9.613832235336303711e-01,9.613358974456787109e-01,9.612885117530822754e-01,9.612412452697753906e-01,9.611938595771789551e-01,9.611466526985168457e-01,9.610992670059204102e-01,9.610520601272583008e-01,9.610047340393066406e-01,9.609574675559997559e-01,9.609101414680480957e-01,9.608628153800964355e-01,9.608156085014343262e-01,9.607682824134826660e-01,9.607210755348205566e-01,9.606737494468688965e-01,9.606266021728515625e-01,9.605792760848999023e-01,9.605320096015930176e-01,9.604848027229309082e-01,9.604375362396240234e-01,9.603903293609619141e-01,9.603430628776550293e-01,9.602959156036376953e-01,9.602486491203308105e-01,9.602013826370239258e-01,9.601542353630065918e-01,9.601069688796997070e-01,9.600598216056823730e-01,9.600125551223754883e-01,9.599654674530029297e-01,9.599182009696960449e-01,9.598709940910339355e-01,9.598238468170166016e-01,9.597766399383544922e-01,9.597295522689819336e-01,9.596823453903198242e-01,9.596352577209472656e-01,9.595880508422851562e-01,9.595408439636230469e-01,9.594937562942504883e-01,9.594465494155883789e-01,9.593994617462158203e-01,9.593523144721984863e-01,9.593052268028259277e-01,9.592580795288085938e-01,9.592108726501464844e-01,9.591638445854187012e-01,9.591166973114013672e-01,9.590696692466735840e-01,9.590225219726562500e-01,9.589754343032836914e-01,9.589283466339111328e-01,9.588813185691833496e-01,9.588341712951660156e-01,9.587870240211486816e-01
9.103391766548156738e-01,9.102967977523803711e-01,9.102542996406555176e-01,9.102119803428649902e-01,9.101694822311401367e-01,9.101270437240600586e-01,9.100846648216247559e-01,9.100422263145446777e-01,9.099998474121093750e-01,9.099574089050292969e-01,9.099150896072387695e-01,9.098726511001586914e-01,9.098302125930786133e-01,9.097878336906433105e-01,9.097454547882080078e-01,9.097031354904174805e-01,9.096606969833374023e-01,9.096183776855468750e-01,9.095759391784667969e-01,9.095335602760314941e-01,9.094912409782409668e-01,9.094488620758056641e-01,9.094065427780151367e-01,9.093641638755798340e-01,9.093219041824340820e-01,9.092794656753540039e-01,9.092370867729187012e-01,9.091948270797729492e-01,9.091524481773376465e-01,9.091101884841918945e-01,9.090678095817565918e-01,9.090255498886108398e-01,9.089832305908203125e-01,9.089409708976745605e-01,9.088985919952392578e-01,9.088562726974487305e-01,9.088140130043029785e-01,9.087716937065124512e-01,9.087294936180114746e-01,9.086871147155761719e-01,9.086449146270751953e-01,9.086025953292846680e-01,9.085602760314941406e-01,9.085180759429931641e-01,9.084757566452026367e-01,9.084335565567016602e-01,9.083912372589111328e-01,9.083490371704101562e-01,9.083067774772644043e-01,9.082644581794738770e-01,9.082222580909729004e-01,9.081799983978271484e-01,9.081378579139709473e-01,9.080955386161804199e-01,9.080533981323242188e-01,9.080111384391784668e-01,9.079688787460327148e-01,9.079266786575317383e-01,9.078844785690307617e-01,9.078422784805297852e-01,9.078000187873840332e-01,9.077578783035278320e-01,9.077156782150268555e-01,9.076734185218811035e-01,9.076312780380249023e-01,9.075890779495239258e-01,9.075469374656677246e-01,9.075047373771667480e-01,9.074625968933105469e-01,9.074203968048095703e-01,9.073781967163085938e-01,9.073361158370971680e-01,9.072939157485961914e-01,9.072518348693847656e-01,9.072096347808837891e-01,9.071675539016723633e-01,9.071253538131713867e-01,9.070832729339599609e-01,9.070410728454589844e-01,9.069989323616027832e-01
8.635247945785522461e-01,8.634866476058959961e-01,8.634484410285949707e-01,8.634102940559387207e-01,8.633720874786376953e-01,8.633338809013366699e-01,8.632957935333251953e-01,8.632575869560241699e-01,8.632194995880126953e-01,8.631812930107116699e-01,8.631431460380554199e-01,8.631049990653991699e-01,8.630667924880981445e-01,8.630287051200866699e-01,8.629905581474304199e-01,8.629524707794189453e-01,8.629142642021179199e-01,8.628761768341064453e-01,8.628380298614501953e-01,8.627998828887939453e-01,8.627617955207824707e-01,8.627236485481262207e-01,8.626855611801147461e-01,8.626474142074584961e-01,8.626093864440917969e-01,8.625712394714355469e-01,8.625330924987792969e-01,8.624950647354125977e-01,8.624569177627563477e-01,8.624188899993896484e-01,8.623807430267333984e-01,8.623427152633666992e-01,8.623046278953552246e-01,8.622666001319885254e-01,8.622284531593322754e-01,8.621903657913208008e-01,8.621523380279541016e-01,8.621142506599426270e-01,8.620762228965759277e-01,8.620381355285644531e-01,8.620001673698425293e-01,8.619620800018310547e-01,8.619239926338195801e-01,8.618859648704528809e-01,8.618479371070861816e-01,8.618099093437194824e-01,8.617718815803527832e-01,8.617338538169860840e-01,8.616958260536193848e-01,8.616577386856079102e-01,8.616197705268859863e-01,8.615817427635192871e-01,8.615437746047973633e-01,8.615057468414306641e-01,8.614677786827087402e-01,8.614297509193420410e-01,8.613917231559753418e-01,8.613537549972534180e-01,8.613157272338867188e-01,8.612777590751647949e-01,8.612397909164428711e-01,8.612018227577209473e-01,8.611637949943542480e-01,8.611258268356323242e-01,8.610878586769104004e-01,8.610498905181884766e-01,8.610119819641113281e-01,8.609739542007446289e-01,8.609360456466674805e-01,8.608980774879455566e-01,8.608600497245788574e-01,8.608222007751464844e-01,8.607841730117797852e-01,8.607463240623474121e-01,8.607082962989807129e-01,8.606704473495483398e-01,8.606324791908264160e-01,8.605945706367492676e-01,8.605566024780273438e-01,8.605186939239501953e-01
8.212897777557373047e-01,8.212552666664123535e-01,8.212206959724426270e-01,8.211862444877624512e-01,8.211516737937927246e-01,8.211171030998229980e-01,8.210826516151428223e-01,8.210480809211730957e-01,8.210136294364929199e-01,8.209790587425231934e-01,8.209446072578430176e-01,8.209100365638732910e-01,8.208755254745483398e-01,8.208410739898681641e-01,8.208065032958984375e-01,8.207720518112182617e-01,8.207375407218933105e-01,8.207030892372131348e-01,8.206685781478881836e-01,8.206340074539184570e-01,8.205996155738830566e-01,8.205651044845581055e-01,8.205306529998779297e-01,8.204961419105529785e-01,8.204616904258728027e-01,8.204272389411926270e-01,8.203927278518676758e-01,8.203582763671875000e-01,8.203237652778625488e-01,8.202893733978271484e-01,8.202549219131469727e-01,8.202204704284667969e-01,8.201860189437866211e-01,8.201516270637512207e-01,8.201171159744262695e-01,8.200826644897460938e-01,8.200482726097106934e-01,8.200137615203857422e-01,8.199793696403503418e-01,8.199449181556701660e-01,8.199105262756347656e-01,8.198760747909545898e-01,8.198416233062744141e-01,8.198072910308837891e-01,8.197728395462036133e-01,8.197384476661682129e-01,8.197039961814880371e-01,8.196696639060974121e-01,8.196352124214172363e-01,8.196007609367370605e-01,8.195664286613464355e-01,8.195319771766662598e-01,8.194976449012756348e-01,8.194631934165954590e-01,8.194288611412048340e-01,8.193944692611694336e-01,8.193600773811340332e-01,8.193256855010986328e-01,8.192912936210632324e-01,8.192569613456726074e-01,8.192225694656372070e-01,8.191882371902465820e-01,8.191538453102111816e-01,8.191194534301757812e-01,8.190851211547851562e-01,8.190507888793945312e-01,8.190164566040039062e-01,8.189820647239685059e-01,8.189477920532226562e-01,8.189134001731872559e-01,8.188790082931518555e-01,8.188447356224060059e-01,8.188103437423706055e-01,8.187760710716247559e-01,8.187416791915893555e-01,8.187074065208435059e-01,8.186730742454528809e-01,8.186388015747070312e-01,8.186044692993164062e-01,8.185700774192810059e-01
7.829936146736145020e-01,7.829622626304626465e-01,7.829307913780212402e-01,7.828994989395141602e-01,7.828680276870727539e-01,7.828366160392761230e-01,7.828053236007690430e-01,7.827739119529724121e-01,7.827425599098205566e-01,7.827111482620239258e-01,7.826797962188720703e-01,7.826484441757202148e-01,7.826170325279235840e-01,7.825856804847717285e-01,7.825543284416198730e-01,7.825229763984680176e-01,7.824916243553161621e-01,7.824602723121643066e-01,7.824289202690124512e-01,7.823975086212158203e-01,7.823662161827087402e-01,7.823348641395568848e-01,7.823035717010498047e-01,7.822721600532531738e-01,7.822408676147460938e-01,7.822095155715942383e-01,7.821781635284423828e-01,7.821468710899353027e-01,7.821155190467834473e-01,7.820842266082763672e-01,7.820528745651245117e-01,7.820215821266174316e-01,7.819902300834655762e-01,7.819589972496032715e-01,7.819276452064514160e-01,7.818962931632995605e-01,7.818650007247924805e-01,7.818337082862854004e-01,7.818024158477783203e-01,7.817711234092712402e-01,7.817398309707641602e-01,7.817085385322570801e-01,7.816771864891052246e-01,7.816459536552429199e-01,7.816146612167358398e-01,7.815833687782287598e-01,7.815520763397216797e-01,7.815208435058593750e-01,7.814895510673522949e-01,7.814582586288452148e-01,7.814270257949829102e-01,7.813956737518310547e-01,7.813645005226135254e-01,7.813332080841064453e-01,7.813019752502441406e-01,7.812706828117370605e-01,7.812393903732299805e-01,7.812081575393676758e-01,7.811768651008605957e-01,7.811456918716430664e-01,7.811143994331359863e-01,7.810832262039184570e-01,7.810519337654113770e-01,7.810206413269042969e-01,7.809894680976867676e-01,7.809581756591796875e-01,7.809270024299621582e-01,7.808957695960998535e-01,7.808645963668823242e-01,7.808333039283752441e-01,7.808020710945129395e-01,7.807708978652954102e-01,7.807396650314331055e-01,7.807084918022155762e-01,7.806771993637084961e-01,7.806460857391357422e-01,7.806147933006286621e-01,7.805836796760559082e-01,7.805524468421936035e-01,7.805212140083312988e-01
7.481096982955932617e-01,7.480810880661010742e-01,7.480524182319641113e-01,7.480238080024719238e-01,7.479951381683349609e-01,7.479664087295532227e-01,7.479377985000610352e-01,7.479091286659240723e-01,7.478805184364318848e-01,7.478518486022949219e-01,7.478232979774475098e-01,7.477946281433105469e-01,7.477659583091735840e-01,7.477373480796813965e-01,7.477086782455444336e-01,7.476801276206970215e-01,7.476514577865600586e-01,7.476228475570678711e-01,7.475942373275756836e-01,7.475655674934387207e-01,7.475369572639465332e-01,7.475083470344543457e-01,7.474797368049621582e-01,7.474511265754699707e-01,7.474225759506225586e-01,7.473939061164855957e-01,7.473652958869934082e-01,7.473367452621459961e-01,7.473080754280090332e-01,7.472795248031616211e-01,7.472509145736694336e-01,7.472223639488220215e-01,7.471937537193298340e-01,7.471652030944824219e-01,7.471365928649902344e-01,7.471079826354980469e-01,7.470794320106506348e-01,7.470508217811584473e-01,7.470222711563110352e-01,7.469936609268188477e-01,7.469651103019714355e-01,7.469365000724792480e-01,7.469079494476318359e-01,7.468793988227844238e-01,7.468507885932922363e-01,7.468222975730895996e-01,7.467936873435974121e-01,7.467651963233947754e-01,7.467365860939025879e-01,7.467079758644104004e-01,7.466794848442077637e-01,7.466509342193603516e-01,7.466223835945129395e-01,7.465938329696655273e-01,7.465653419494628906e-01,7.465367317199707031e-01,7.465081810951232910e-01,7.464796900749206543e-01,7.464511394500732422e-01,7.464226484298706055e-01,7.463940382003784180e-01,7.463656067848205566e-01,7.463369965553283691e-01,7.463084459304809570e-01,7.462800145149230957e-01,7.462514638900756836e-01,7.462229728698730469e-01,7.461944222450256348e-01,7.461659312248229980e-01,7.461373805999755859e-01,7.461088895797729492e-01,7.460803985595703125e-01,7.460518479347229004e-01,7.460234165191650391e-01,7.459948658943176270e-01,7.459664344787597656e-01,7.459378838539123535e-01,7.459094524383544922e-01,7.458809018135070801e-01,7.458524107933044434e-01
7.162015438079833984e-01,7.161753177642822266e-01,7.161490321159362793e-01,7.161228060722351074e-01,7.160965204238891602e-01,7.160702347755432129e-01,7.160440087318420410e-01,7.160177230834960938e-01,7.159914970397949219e-01,7.159652113914489746e-01,7.159390449523925781e-01,7.159127593040466309e-01,7.158864736557006836e-01,7.158602476119995117e-01,7.158340215682983398e-01,7.158077955245971680e-01,7.157815098762512207e-01,7.157553434371948242e-01,7.157290577888488770e-01,7.157028317451477051e-01,7.156766057014465332e-01,7.156503796577453613e-01,7.156241536140441895e-01,7.155979275703430176e-01,7.155717611312866211e-01,7.155454754829406738e-01,7.155192494392395020e-01,7.154930830001831055e-01,7.154667973518371582e-01,7.154406309127807617e-01,7.154144048690795898e-01,7.153882384300231934e-01,7.153620123863220215e-01,7.153358459472656250e-01,7.153096199035644531e-01,7.152833938598632812e-01,7.152572274208068848e-01,7.152310013771057129e-01,7.152048349380493164e-01,7.151786088943481445e-01,7.151524424552917480e-01,7.151262164115905762e-01,7.151000499725341797e-01,7.150738835334777832e-01,7.150476574897766113e-01,7.150214910507202148e-01,7.149953246116638184e-01,7.149691581726074219e-01,7.149429917335510254e-01,7.149167656898498535e-01,7.148906588554382324e-01,7.148644328117370605e-01,7.148383259773254395e-01,7.148120999336242676e-01,7.147859930992126465e-01,7.147597670555114746e-01,7.147336006164550781e-01,7.147074937820434570e-01,7.146812677383422852e-01,7.146551609039306641e-01,7.146289944648742676e-01,7.146028876304626465e-01,7.145767211914062500e-01,7.145505547523498535e-01,7.145244479179382324e-01,7.144982814788818359e-01,7.144721746444702148e-01,7.144460082054138184e-01,7.144199013710021973e-01,7.143937349319458008e-01,7.143675684928894043e-01,7.143414616584777832e-01,7.143152952194213867e-01,7.142891883850097656e-01,7.142630815505981445e-01,7.142369747161865234e-01,7.142108082771301270e-01,7.141847610473632812e-01,7.141585946083068848e-01,7.141324281692504883e-01
