5.000000000000000000e+00,5.000000000000000000e+00,5.000000000000000000e+00,5.000000000000000000e+00,5.000000000000000000e+00,5.000000000000000000e+00,5.000000000000000000e+00,5.000000000000000000e+00,5.000000000000000000e+00,5.000000000000000000e+00,5.000000000000000000e+00,5.000000000000000000e+00,5.000000000000000000e+00,5.000000000000000000e+00,5.000000000000000000e+00,5.000000000000000000e+00,5.000000000000000000e+00,5.000000000000000000e+00,5.000000000000000000e+00,5.000000000000000000e+00,5.000000000000000000e+00,5.000000000000000000e+00,5.000000000000000000e+00,5.000000000000000000e+00,5.000000000000000000e+00,5.000000000000000000e+00,5.000000000000000000e+00,5.000000000000000000e+00,5.000000000000000000e+00,5.000000000000000000e+00,2.111478567123413086e+00,2.106516361236572266e+00,2.122300148010253906e+00,2.103786945343017578e+00,2.104168653488159180e+00,2.134958982467651367e+00,2.139895677566528320e+00,2.165262937545776367e+00,2.182958602905273438e+00,2.240582466125488281e+00,2.322600603103637695e+00,2.334483623504638672e+00,4.331534385681152344e+00,4.179316520690917969e+00,4.037434577941894531e+00,3.904869318008422852e+00,3.780732631683349609e+00,3.664245367050170898e+00,3.554721593856811523e+00,3.451555252075195312e+00,3.354208230972290039e+00,3.262201786041259766e+00,3.175107955932617188e+00,3.092543601989746094e+00,3.014164447784423828e+00,2.939660072326660156e+00,2.868750095367431641e+00,2.801180362701416016e+00,2.736720561981201172e+00,2.675160646438598633e+00,2.616309404373168945e+00,2.559991598129272461e+00,2.506047248840332031e+00,2.454329490661621094e+00,2.404703140258789062e+00,2.357043981552124023e+00,2.311237096786499023e+00,2.267176866531372070e+00,2.224764823913574219e+00,2.183910846710205078e+00,2.144529819488525391e+00,2.106544256210327148e+00,2.069880485534667969e+00,2.034471511840820312e+00,2.000253677368164062e+00,1.967167735099792480e+00,1.935158491134643555e+00,1.904174208641052246e+00,1.874166488647460938e+00,1.845089793205261230e+00
5.000000000000000000e+00,5.000000000000000000e+00,5.000000000000000000e+00,5.000000000000000000e+00,5.000000000000000000e+00,5.000000000000000000e+00,5.000000000000000000e+00,5.000000000000000000e+00,5.000000000000000000e+00,5.000000000000000000e+00,5.000000000000000000e+00,5.000000000000000000e+00,5.000000000000000000e+00,5.000000000000000000e+00,5.000000000000000000e+00,5.000000000000000000e+00,5.000000000000000000e+00,5.000000000000000000e+00,5.000000000000000000e+00,5.000000000000000000e+00,5.000000000000000000e+00,5.000000000000000000e+00,5.000000000000000000e+00,5.000000000000000000e+00,5.000000000000000000e+00,5.000000000000000000e+00,5.000000000000000000e+00,5.000000000000000000e+00,5.000000000000000000e+00,5.000000000000000000e+00,2.097722053527832031e+00,2.087780237197875977e+00,2.115884542465209961e+00,2.091535329818725586e+00,2.094823122024536133e+00,2.126286029815673828e+00,2.170606851577758789e+00,2.161123275756835938e+00,2.153911828994750977e+00,2.154240131378173828e+00,2.320323705673217773e+00,2.316148042678833008e+00,4.331645488739013672e+00,4.179419994354248047e+00,4.037530422210693359e+00,3.904959201812744141e+00,3.780816793441772461e+00,3.664324522018432617e+00,3.554796218872070312e+00,3.451625585556030273e+00,3.354274511337280273e+00,3.262264490127563477e+00,3.175167322158813477e+00,3.092600107192993164e+00,3.014218330383300781e+00,2.939711332321166992e+00,2.868798732757568359e+00,2.801226854324340820e+00,2.736764907836914062e+00,2.675203084945678711e+00,2.616349935531616211e+00,2.560030221939086914e+00,2.506084442138671875e+00,2.454365015029907227e+00,2.404737234115600586e+00,2.357076883316040039e+00,2.311268568038940430e+00,2.267207145690917969e+00,2.224794149398803711e+00,2.183938980102539062e+00,2.144556999206542969e+00,2.106570482254028320e+00,2.069905757904052734e+00,2.034496068954467773e+00,2.000277280807495117e+00,1.967190623283386230e+00,1.935180544853210449e+00,1.904195547103881836e+00,1.874187231063842773e+00,1.845109939575195312e+00
5.000000000000000000e+00,5.000000000000000000e+00,5.000000000000000000e+00,5.000000000000000000e+00,5.000000000000000000e+00,5.000000000000000000e+00,5.000000000000000000e+00,5.000000000000000000e+00,5.000000000000000000e+00,5.000000000000000000e+00,5.000000000000000000e+00,5.000000000000000000e+00,5.000000000000000000e+00,5.000000000000000000e+00,5.000000000000000000e+00,5.000000000000000000e+00,5.000000000000000000e+00,5.000000000000000000e+00,5.000000000000000000e+00,5.000000000000000000e+00,5.000000000000000000e+00,5.000000000000000000e+00,5.000000000000000000e+00,5.000000000000000000e+00,5.000000000000000000e+00,5.000000000000000000e+00,5.000000000000000000e+00,5.000000000000000000e+00,5.000000000000000000e+00,5.000000000000000000e+00,2.086490631103515625e+00,2.074562549591064453e+00,2.112115859985351562e+00,2.085879802703857422e+00,2.086660146713256836e+00,2.096755981445312500e+00,2.174460172653198242e+00,2.135255336761474609e+00,2.124290704727172852e+00,2.124393939971923828e+00,2.185952425003051758e+00,2.296071052551269531e+00,4.331756114959716797e+00,4.179522991180419922e+00,4.037626743316650391e+00,3.905049324035644531e+00,3.780901193618774414e+00,3.664403676986694336e+00,3.554871082305908203e+00,3.451696157455444336e+00,3.354341268539428711e+00,3.262327671051025391e+00,3.175227165222167969e+00,3.092656850814819336e+00,3.014271974563598633e+00,2.939762353897094727e+00,2.868847370147705078e+00,2.801273107528686523e+00,2.736809015274047852e+00,2.675245285034179688e+00,2.616390228271484375e+00,2.560068845748901367e+00,2.506121397018432617e+00,2.454400539398193359e+00,2.404771327972412109e+00,2.357109546661376953e+00,2.311300277709960938e+00,2.267237424850463867e+00,2.224823236465454102e+00,2.183967113494873047e+00,2.144584178924560547e+00,2.106596708297729492e+00,2.069931268692016602e+00,2.034520387649536133e+00,2.000300884246826172e+00,1.967213392257690430e+00,1.935202598571777344e+00,1.904217004776000977e+00,1.874207854270935059e+00,1.845129966735839844e+00
5.000000000000000000e+00,5.000000000000000000e+00,5.000000000000000000e+00,5.000000000000000000e+00,5.000000000000000000e+00,5.000000000000000000e+00,5.000000000000000000e+00,5.000000000000000000e+00,5.000000000000000000e+00,5.000000000000000000e+00,5.000000000000000000e+00,5.000000000000000000e+00,5.000000000000000000e+00,5.000000000000000000e+00,5.000000000000000000e+00,5.000000000000000000e+00,5.000000000000000000e+00,5.000000000000000000e+00,5.000000000000000000e+00,5.000000000000000000e+00,5.000000000000000000e+00,5.000000000000000000e+00,5.000000000000000000e+00,5.000000000000000000e+00,5.000000000000000000e+00,5.000000000000000000e+00,5.000000000000000000e+00,5.000000000000000000e+00,5.000000000000000000e+00,5.000000000000000000e+00,2.085087537765502930e+00,2.072398662567138672e+00,2.108656167984008789e+00,2.084883928298950195e+00,2.085270404815673828e+00,2.088114976882934570e+00,2.141860723495483398e+00,2.134356021881103516e+00,2.111986160278320312e+00,2.112904310226440430e+00,2.149341821670532227e+00,2.302115440368652344e+00,4.331867218017578125e+00,4.179626464843750000e+00,4.037723064422607422e+00,3.905139684677124023e+00,3.780986070632934570e+00,3.664483308792114258e+00,3.554945707321166992e+00,3.451766490936279297e+00,3.354407787322998047e+00,3.262390375137329102e+00,3.175286769866943359e+00,3.092713117599487305e+00,3.014325618743896484e+00,2.939813375473022461e+00,2.868896007537841797e+00,2.801319599151611328e+00,2.736853361129760742e+00,2.675287485122680664e+00,2.616430521011352539e+00,2.560107707977294922e+00,2.506158590316772461e+00,2.454436063766479492e+00,2.404805421829223633e+00,2.357142448425292969e+00,2.311331748962402344e+00,2.267267704010009766e+00,2.224852561950683594e+00,2.183995246887207031e+00,2.144611358642578125e+00,2.106622695922851562e+00,2.069956541061401367e+00,2.034544944763183594e+00,2.000324487686157227e+00,1.967236280441284180e+00,1.935224771499633789e+00,1.904238343238830566e+00,1.874228596687316895e+00,1.845150113105773926e+00
5.000000000000000000e+00,5.000000000000000000e+00,5.000000000000000000e+00,5.000000000000000000e+00,5.000000000000000000e+00,5.000000000000000000e+00,5.000000000000000000e+00,5.000000000000000000e+00,5.000000000000000000e+00,5.000000000000000000e+00,5.000000000000000000e+00,5.000000000000000000e+00,5.000000000000000000e+00,5.000000000000000000e+00,5.000000000000000000e+00,5.000000000000000000e+00,5.000000000000000000e+00,5.000000000000000000e+00,5.000000000000000000e+00,5.000000000000000000e+00,5.000000000000000000e+00,5.000000000000000000e+00,5.000000000000000000e+00,5.000000000000000000e+00,5.000000000000000000e+00,5.000000000000000000e+00,5.000000000000000000e+00,5.000000000000000000e+00,5.000000000000000000e+00,5.000000000000000000e+00,2.069409608840942383e+00,2.042789459228515625e+00,2.054211139678955078e+00,2.086677074432373047e+00,2.086604118347167969e+00,2.087128162384033203e+00,2.138481855392456055e+00,2.133914232254028320e+00,2.099677324295043945e+00,2.103091239929199219e+00,2.117889165878295898e+00,2.262379646301269531e+00,4.331977844238281250e+00,4.179729461669921875e+00,4.037819385528564453e+00,3.905229568481445312e+00,3.781070470809936523e+00,3.664562463760375977e+00,3.555020332336425781e+00,3.451836824417114258e+00,3.354474067687988281e+00,3.262453079223632812e+00,3.175346136093139648e+00,3.092769622802734375e+00,3.014379024505615234e+00,2.939864397048950195e+00,2.868944644927978516e+00,2.801365852355957031e+00,2.736897468566894531e+00,2.675329685211181641e+00,2.616471052169799805e+00,2.560146331787109375e+00,2.506195545196533203e+00,2.454471588134765625e+00,2.404839754104614258e+00,2.357175111770629883e+00,2.311363220214843750e+00,2.267298221588134766e+00,2.224881887435913086e+00,2.184023618698120117e+00,2.144638538360595703e+00,2.106649160385131836e+00,2.069981813430786133e+00,2.034569501876831055e+00,2.000348091125488281e+00,1.967259049415588379e+00,1.935246825218200684e+00,1.904259800910949707e+00,1.874249339103698730e+00,1.845170259475708008e+00
5.000000000000000000e+00,5.000000000000000000e+00,5.000000000000000000e+00,5.000000000000000000e+00,5.000000000000000000e+00,5.000000000000000000e+00,5.000000000000000000e+00,5.000000000000000000e+00,5.000000000000000000e+00,5.000000000000000000e+00,5.000000000000000000e+00,5.000000000000000000e+00,5.000000000000000000e+00,5.000000000000000000e+00,5.000000000000000000e+00,5.000000000000000000e+00,5.000000000000000000e+00,5.000000000000000000e+00,5.000000000000000000e+00,5.000000000000000000e+00,5.000000000000000000e+00,5.000000000000000000e+00,5.000000000000000000e+00,5.000000000000000000e+00,5.000000000000000000e+00,5.000000000000000000e+00,5.000000000000000000e+00,5.000000000000000000e+00,5.000000000000000000e+00,5.000000000000000000e+00,2.059677124023437500e+00,2.025889635086059570e+00,2.038091421127319336e+00,2.089426279067993164e+00,2.088006496429443359e+00,2.088327407836914062e+00,2.136299133300781250e+00,2.132791042327880859e+00,2.096298217773437500e+00,2.090467929840087891e+00,2.094271183013916016e+00,2.244862079620361328e+00,2.263346672058105469e+00,4.179832935333251953e+00,4.037915706634521484e+00,3.905319690704345703e+00,3.781154632568359375e+00,3.664641857147216797e+00,3.555094718933105469e+00,3.451907157897949219e+00,3.354540586471557617e+00,3.262516021728515625e+00,3.175405740737915039e+00,3.092826128005981445e+00,3.014432668685913086e+00,2.939915418624877930e+00,2.868993043899536133e+00,2.801412105560302734e+00,2.736941576004028320e+00,2.675371885299682617e+00,2.616511344909667969e+00,2.560184955596923828e+00,2.506232738494873047e+00,2.454507350921630859e+00,2.404873847961425781e+00,2.357208013534545898e+00,2.311394929885864258e+00,2.267328500747680664e+00,2.224911212921142578e+00,2.184051752090454102e+00,2.144665718078613281e+00,2.106675386428833008e+00,2.070007085800170898e+00,2.034593820571899414e+00,2.000371694564819336e+00,1.967281937599182129e+00,1.935268998146057129e+00,1.904281139373779297e+00,1.874270081520080566e+00,1.845190286636352539e+00
5.000000000000000000e+00,5.000000000000000000e+00,5.000000000000000000e+00,5.000000000000000000e+00,5.000000000000000000e+00,5.000000000000000000e+00,5.000000000000000000e+00,5.000000000000000000e+00,5.000000000000000000e+00,5.000000000000000000e+00,5.000000000000000000e+00,5.000000000000000000e+00,5.000000000000000000e+00,5.000000000000000000e+00,5.000000000000000000e+00,5.000000000000000000e+00,5.000000000000000000e+00,5.000000000000000000e+00,5.000000000000000000e+00,5.000000000000000000e+00,5.000000000000000000e+00,5.000000000000000000e+00,5.000000000000000000e+00,5.000000000000000000e+00,5.000000000000000000e+00,5.000000000000000000e+00,5.000000000000000000e+00,5.000000000000000000e+00,5.000000000000000000e+00,5.000000000000000000e+00,2.053295135498046875e+00,2.009863853454589844e+00,2.164001464843750000e+00,2.094547033309936523e+00,2.090666055679321289e+00,2.089731931686401367e+00,2.133845806121826172e+00,2.132257223129272461e+00,2.094753026962280273e+00,2.078872203826904297e+00,2.083444118499755859e+00,2.145995378494262695e+00,2.245101451873779297e+00,4.179935932159423828e+00,4.038012027740478516e+00,3.905409574508666992e+00,3.781239032745361328e+00,3.664721012115478516e+00,3.555169343948364258e+00,3.451977491378784180e+00,3.354606866836547852e+00,3.262578725814819336e+00,3.175465106964111328e+00,3.092882633209228516e+00,3.014486312866210938e+00,2.939966440200805664e+00,2.869041919708251953e+00,2.801458597183227539e+00,2.736986160278320312e+00,2.675414562225341797e+00,2.616552114486694336e+00,2.560223817825317383e+00,2.506269931793212891e+00,2.454542875289916992e+00,2.404908180236816406e+00,2.357240915298461914e+00,2.311426401138305664e+00,2.267359018325805664e+00,2.224940299987792969e+00,2.184079885482788086e+00,2.144692897796630859e+00,2.106701374053955078e+00,2.070032358169555664e+00,2.034618377685546875e+00,2.000395536422729492e+00,1.967304825782775879e+00,1.935291051864624023e+00,1.904302597045898438e+00,1.874290823936462402e+00,1.845210433006286621e+00
5.000000000000000000e+00,5.000000000000000000e+00,5.000000000000000000e+00,5.000000000000000000e+00,5.000000000000000000e+00,5.000000000000000000e+00,5.000000000000000000e+00,5.000000000000000000e+00,5.000000000000000000e+00,5.000000000000000000e+00,5.000000000000000000e+00,5.000000000000000000e+00,5.000000000000000000e+00,5.000000000000000000e+00,5.000000000000000000e+00,5.000000000000000000e+00,5.000000000000000000e+00,5.000000000000000000e+00,5.000000000000000000e+00,5.000000000000000000e+00,5.000000000000000000e+00,5.000000000000000000e+00,5.000000000000000000e+00,5.000000000000000000e+00,5.000000000000000000e+00,5.000000000000000000e+00,5.000000000000000000e+00,5.000000000000000000e+00,5.000000000000000000e+00,5.000000000000000000e+00,2.040836811065673828e+00,5.000000000000000000e+00,2.189834594726562500e+00,2.109892606735229492e+00,2.091320753097534180e+00,2.089951992034912109e+00,2.131475925445556641e+00,2.148826122283935547e+00,2.090081930160522461e+00,2.064582824707031250e+00,2.073082208633422852e+00,2.104817628860473633e+00,4.332310199737548828e+00,4.180039405822753906e+00,4.038108348846435547e+00,3.905499696731567383e+00,3.781323432922363281e+00,3.664800405502319336e+00,3.555243968963623047e+00,3.452047824859619141e+00,3.354673624038696289e+00,3.262641906738281250e+00,3.175524950027465820e+00,3.092939138412475586e+00,3.014540195465087891e+00,2.940017700195312500e+00,2.869090557098388672e+00,2.801505088806152344e+00,2.737030267715454102e+00,2.675456762313842773e+00,2.616592407226562500e+00,2.560262441635131836e+00,2.506306886672973633e+00,2.454578638076782227e+00,2.404942274093627930e+00,2.357273578643798828e+00,2.311457872390747070e+00,2.267389297485351562e+00,2.224969625473022461e+00,2.184108018875122070e+00,2.144720077514648438e+00,2.106727600097656250e+00,2.070057630538940430e+00,2.034642696380615234e+00,2.000419139862060547e+00,1.967327594757080078e+00,1.935313105583190918e+00,1.904323935508728027e+00,1.874311566352844238e+00,1.845230460166931152e+00
5.000000000000000000e+00,5.000000000000000000e+00,5.000000000000000000e+00,5.000000000000000000e+00,5.000000000000000000e+00,5.000000000000000000e+00,5.000000000000000000e+00,5.000000000000000000e+00,5.000000000000000000e+00,5.000000000000000000e+00,5.000000000000000000e+00,5.000000000000000000e+00,5.000000000000000000e+00,5.000000000000000000e+00,5.000000000000000000e+00,5.000000000000000000e+00,5.000000000000000000e+00,5.000000000000000000e+00,5.000000000000000000e+00,5.000000000000000000e+00,5.000000000000000000e+00,5.000000000000000000e+00,5.000000000000000000e+00,5.000000000000000000e+00,5.000000000000000000e+00,5.000000000000000000e+00,5.000000000000000000e+00,5.000000000000000000e+00,5.000000000000000000e+00,5.000000000000000000e+00,5.000000000000000000e+00,5.000000000000000000e+00,5.000000000000000000e+00,2.126349925994873047e+00,2.090158462524414062e+00,2.088691949844360352e+00,2.127828836441040039e+00,5.000000000000000000e+00,2.085431575775146484e+00,2.059129238128662109e+00,2.059423446655273438e+00,2.067324399948120117e+00,4.332421302795410156e+00,4.180142402648925781e+00,4.038204669952392578e+00,3.905590057373046875e+00,3.781408309936523438e+00,3.664880037307739258e+00,3.555318832397460938e+00,3.452118396759033203e+00,3.354740142822265625e+00,3.262704849243164062e+00,3.175584554672241211e+00,3.092995643615722656e+00,3.014593839645385742e+00,2.940068721771240234e+00,2.869138956069946289e+00,2.801551342010498047e+00,2.737074613571166992e+00,2.675498962402343750e+00,2.616632699966430664e+00,2.560301303863525391e+00,2.506344079971313477e+00,2.454614162445068359e+00,2.404976367950439453e+00,2.357306480407714844e+00,2.311489582061767578e+00,2.267419576644897461e+00,2.224998712539672852e+00,2.184136152267456055e+00,2.144747257232666016e+00,2.106753826141357422e+00,2.070082902908325195e+00,2.034667253494262695e+00,2.000442743301391602e+00,1.967350482940673828e+00,1.935335516929626465e+00,1.904345631599426270e+00,1.874332547187805176e+00,1.845250725746154785e+00
5.000000000000000000e+00,5.000000000000000000e+00,5.000000000000000000e+00,5.000000000000000000e+00,5.000000000000000000e+00,5.000000000000000000e+00,5.000000000000000000e+00,5.000000000000000000e+00,5.000000000000000000e+00,5.000000000000000000e+00,5.000000000000000000e+00,5.000000000000000000e+00,5.000000000000000000e+00,5.000000000000000000e+00,5.000000000000000000e+00,5.000000000000000000e+00,5.000000000000000000e+00,5.000000000000000000e+00,5.000000000000000000e+00,5.000000000000000000e+00,5.000000000000000000e+00,5.000000000000000000e+00,5.000000000000000000e+00,5.000000000000000000e+00,5.000000000000000000e+00,5.000000000000000000e+00,5.000000000000000000e+00,5.000000000000000000e+00,5.000000000000000000e+00,5.000000000000000000e+00,5.000000000000000000e+00,5.000000000000000000e+00,5.000000000000000000e+00,2.145943641662597656e+00,2.094830989837646484e+00,2.087433815002441406e+00,2.122507572174072266e+00,5.000000000000000000e+00,2.083275794982910156e+00,2.055952548980712891e+00,2.046940565109252930e+00,2.058135747909545898e+00,4.332532405853271484e+00,4.180245876312255859e+00,4.038300991058349609e+00,3.905680179595947266e+00,3.781492710113525391e+00,3.664959192276000977e+00,3.555393457412719727e+00,3.452188730239868164e+00,3.354806423187255859e+00,3.262767553329467773e+00,3.175643920898437500e+00,3.093052148818969727e+00,3.014647483825683594e+00,2.940119504928588867e+00,2.869187593460083008e+00,2.801597595214843750e+00,2.737118721008300781e+00,2.675541162490844727e+00,2.616673231124877930e+00,2.560339927673339844e+00,2.506381034851074219e+00,2.454649686813354492e+00,2.405010461807250977e+00,2.357339382171630859e+00,2.311521053314208984e+00,2.267449855804443359e+00,2.225028038024902344e+00,2.184164285659790039e+00,2.144774436950683594e+00,2.106780290603637695e+00,2.070108413696289062e+00,2.034691810607910156e+00,2.000466346740722656e+00,1.967373490333557129e+00,1.935357570648193359e+00,1.904366970062255859e+00,1.874353170394897461e+00,1.845270872116088867e+00
5.000000000000000000e+00,5.000000000000000000e+00,5.000000000000000000e+00,5.000000000000000000e+00,5.000000000000000000e+00,5.000000000000000000e+00,5.000000000000000000e+00,5.000000000000000000e+00,5.000000000000000000e+00,5.000000000000000000e+00,5.000000000000000000e+00,5.000000000000000000e+00,5.000000000000000000e+00,5.000000000000000000e+00,5.000000000000000000e+00,5.000000000000000000e+00,5.000000000000000000e+00,5.000000000000000000e+00,5.000000000000000000e+00,5.000000000000000000e+00,5.000000000000000000e+00,5.000000000000000000e+00,5.000000000000000000e+00,5.000000000000000000e+00,5.000000000000000000e+00,5.000000000000000000e+00,5.000000000000000000e+00,5.000000000000000000e+00,5.000000000000000000e+00,5.000000000000000000e+00,5.000000000000000000e+00,5.000000000000000000e+00,5.000000000000000000e+00,2.167293787002563477e+00,2.099524497985839844e+00,2.087536811828613281e+00,2.117212772369384766e+00,5.000000000000000000e+00,5.000000000000000000e+00,2.056498050689697266e+00,2.043927669525146484e+00,2.056343793869018555e+00,4.332643032073974609e+00,4.180348873138427734e+00,4.038397312164306641e+00,3.905770063400268555e+00,3.781577110290527344e+00,3.665038585662841797e+00,3.555468082427978516e+00,3.452259063720703125e+00,3.354872941970825195e+00,3.262830495834350586e+00,3.175703525543212891e+00,3.093108654022216797e+00,3.014701128005981445e+00,2.940170526504516602e+00,2.869236230850219727e+00,2.801643848419189453e+00,2.737162828445434570e+00,2.675583362579345703e+00,2.616713523864746094e+00,2.560378551483154297e+00,2.506418228149414062e+00,2.454685211181640625e+00,2.405044555664062500e+00,2.357372283935546875e+00,2.311552762985229492e+00,2.267480373382568359e+00,2.225057363510131836e+00,2.184192657470703125e+00,2.144801616668701172e+00,2.106806278228759766e+00,2.070133686065673828e+00,2.034716129302978516e+00,2.000489950180053711e+00,1.967396378517150879e+00,1.935379624366760254e+00,1.904388427734375000e+00,1.874373912811279297e+00,1.845291018486022949e+00
5.000000000000000000e+00,5.000000000000000000e+00,5.000000000000000000e+00,5.000000000000000000e+00,5.000000000000000000e+00,5.000000000000000000e+00,5.000000000000000000e+00,5.000000000000000000e+00,5.000000000000000000e+00,5.000000000000000000e+00,5.000000000000000000e+00,5.000000000000000000e+00,5.000000000000000000e+00,5.000000000000000000e+00,5.000000000000000000e+00,5.000000000000000000e+00,5.000000000000000000e+00,5.000000000000000000e+00,5.000000000000000000e+00,5.000000000000000000e+00,5.000000000000000000e+00,5.000000000000000000e+00,5.000000000000000000e+00,5.000000000000000000e+00,5.000000000000000000e+00,5.000000000000000000e+00,5.000000000000000000e+00,5.000000000000000000e+00,5.000000000000000000e+00,5.000000000000000000e+00,5.000000000000000000e+00,5.000000000000000000e+00,5.000000000000000000e+00,2.187811374664306641e+00,2.115331172943115234e+00,2.091072082519531250e+00,2.119864940643310547e+00,5.000000000000000000e+00,2.100930690765380859e+00,2.069611787796020508e+00,2.057380676269531250e+00,2.068440914154052734e+00,4.332754135131835938e+00,4.180452346801757812e+00,4.038493633270263672e+00,3.905860185623168945e+00,3.781661510467529297e+00,3.665117740631103516e+00,3.555542707443237305e+00,3.452329397201538086e+00,3.354939222335815430e+00,3.262893199920654297e+00,3.175762891769409180e+00,3.093165159225463867e+00,3.014754772186279297e+00,2.940221548080444336e+00,2.869284868240356445e+00,2.801690340042114258e+00,2.737207412719726562e+00,2.675625801086425781e+00,2.616754293441772461e+00,2.560417413711547852e+00,2.506455421447753906e+00,2.454720973968505859e+00,2.405078887939453125e+00,2.357404947280883789e+00,2.311584234237670898e+00,2.267510890960693359e+00,2.225086450576782227e+00,2.184220790863037109e+00,2.144828796386718750e+00,2.106832504272460938e+00,2.070158958435058594e+00,2.034740686416625977e+00,2.000513553619384766e+00,1.967419147491455078e+00,1.935401797294616699e+00,1.904409766197204590e+00,1.874394655227661133e+00,1.845311045646667480e+00
5.000000000000000000e+00,5.000000000000000000e+00,5.000000000000000000e+00,5.000000000000000000e+00,5.000000000000000000e+00,5.000000000000000000e+00,5.000000000000000000e+00,5.000000000000000000e+00,5.000000000000000000e+00,5.000000000000000000e+00,5.000000000000000000e+00,5.000000000000000000e+00,5.000000000000000000e+00,5.000000000000000000e+00,5.000000000000000000e+00,5.000000000000000000e+00,5.000000000000000000e+00,5.000000000000000000e+00,5.000000000000000000e+00,5.000000000000000000e+00,5.000000000000000000e+00,5.000000000000000000e+00,5.000000000000000000e+00,5.000000000000000000e+00,5.000000000000000000e+00,5.000000000000000000e+00,5.000000000000000000e+00,5.000000000000000000e+00,5.000000000000000000e+00,5.000000000000000000e+00,5.000000000000000000e+00,5.000000000000000000e+00,5.000000000000000000e+00,2.184798240661621094e+00,2.126917600631713867e+00,2.107757329940795898e+00,2.145375728607177734e+00,5.000000000000000000e+00,2.130911827087402344e+00,2.093905925750732422e+00,2.091518878936767578e+00,4.496692180633544922e+00,4.332864761352539062e+00,4.180555343627929688e+00,4.038589954376220703e+00,3.905950069427490234e+00,3.781745910644531250e+00,3.665197134017944336e+00,3.555617332458496094e+00,3.452399730682373047e+00,3.355005741119384766e+00,3.262956142425537109e+00,3.175822496414184570e+00,3.093221902847290039e+00,3.014808654785156250e+00,2.940272808074951172e+00,2.869333744049072266e+00,2.801736831665039062e+00,2.737251520156860352e+00,2.675668001174926758e+00,2.616794586181640625e+00,2.560456037521362305e+00,2.506492376327514648e+00,2.454756498336791992e+00,2.405112981796264648e+00,2.357437849044799805e+00,2.311615705490112305e+00,2.267541170120239258e+00,2.225115776062011719e+00,2.184248924255371094e+00,2.144855976104736328e+00,2.106858730316162109e+00,2.070184230804443359e+00,2.034765005111694336e+00,2.000537157058715820e+00,1.967442035675048828e+00,1.935423851013183594e+00,1.904431223869323730e+00,1.874415397644042969e+00,1.845331192016601562e+00
5.000000000000000000e+00,5.000000000000000000e+00,5.000000000000000000e+00,5.000000000000000000e+00,5.000000000000000000e+00,5.000000000000000000e+00,5.000000000000000000e+00,5.000000000000000000e+00,5.000000000000000000e+00,5.000000000000000000e+00,5.000000000000000000e+00,5.000000000000000000e+00,5.000000000000000000e+00,5.000000000000000000e+00,5.000000000000000000e+00,5.000000000000000000e+00,5.000000000000000000e+00,5.000000000000000000e+00,5.000000000000000000e+00,5.000000000000000000e+00,5.000000000000000000e+00,5.000000000000000000e+00,5.000000000000000000e+00,5.000000000000000000e+00,5.000000000000000000e+00,5.000000000000000000e+00,5.000000000000000000e+00,5.000000000000000000e+00,5.000000000000000000e+00,5.000000000000000000e+00,5.000000000000000000e+00,5.000000000000000000e+00,5.000000000000000000e+00,2.177509307861328125e+00,2.145493030548095703e+00,2.136541128158569336e+00,5.000000000000000000e+00,2.211659669876098633e+00,2.146398067474365234e+00,2.132310867309570312e+00,2.129416227340698242e+00,4.496811389923095703e+00,4.332975387573242188e+00,4.180658340454101562e+00,4.038686275482177734e+00,3.906040191650390625e+00,3.781830310821533203e+00,3.665276765823364258e+00,3.555692434310913086e+00,3.452470302581787109e+00,3.355072498321533203e+00,3.263019084930419922e+00,3.175882339477539062e+00,3.093278169631958008e+00,3.014862298965454102e+00,2.940323829650878906e+00,2.869382143020629883e+00,2.801783084869384766e+00,2.737295866012573242e+00,2.675710439682006836e+00,2.616835117340087891e+00,2.560494899749755859e+00,2.506529569625854492e+00,2.454792022705078125e+00,2.405147075653076172e+00,2.357470512390136719e+00,2.311647415161132812e+00,2.267571449279785156e+00,2.225144863128662109e+00,2.184277057647705078e+00,2.144882917404174805e+00,2.106884956359863281e+00,2.070209503173828125e+00,2.034789323806762695e+00,2.000560760498046875e+00,1.967464923858642578e+00,1.935446023941040039e+00,1.904452562332153320e+00,1.874436140060424805e+00,1.845351219177246094e+00
5.000000000000000000e+00,5.000000000000000000e+00,5.000000000000000000e+00,5.000000000000000000e+00,5.000000000000000000e+00,5.000000000000000000e+00,5.000000000000000000e+00,5.000000000000000000e+00,5.000000000000000000e+00,5.000000000000000000e+00,5.000000000000000000e+00,5.000000000000000000e+00,5.000000000000000000e+00,5.000000000000000000e+00,5.000000000000000000e+00,5.000000000000000000e+00,5.000000000000000000e+00,5.000000000000000000e+00,5.000000000000000000e+00,5.000000000000000000e+00,5.000000000000000000e+00,5.000000000000000000e+00,5.000000000000000000e+00,5.000000000000000000e+00,5.000000000000000000e+00,5.000000000000000000e+00,5.000000000000000000e+00,5.000000000000000000e+00,5.000000000000000000e+00,5.000000000000000000e+00,5.000000000000000000e+00,5.000000000000000000e+00,5.000000000000000000e+00,2.187180280685424805e+00,2.164786577224731445e+00,2.167844772338867188e+00,5.000000000000000000e+00,2.196850061416625977e+00,2.161999702453613281e+00,2.159823656082153320e+00,4.673652648925781250e+00,4.496931076049804688e+00,4.333086490631103516e+00,4.180761814117431641e+00,4.038782596588134766e+00,3.906130790710449219e+00,3.781914949417114258e+00,3.665355920791625977e+00,3.555766820907592773e+00,3.452540636062622070e+00,3.355138778686523438e+00,3.263082027435302734e+00,3.175941944122314453e+00,3.093334674835205078e+00,3.014915943145751953e+00,2.940374851226806641e+00,2.869430780410766602e+00,2.801829338073730469e+00,2.737339973449707031e+00,2.675752639770507812e+00,2.616875410079956055e+00,2.560533523559570312e+00,2.506566524505615234e+00,2.454827547073364258e+00,2.405181407928466797e+00,2.357503414154052734e+00,2.311678886413574219e+00,2.267601728439331055e+00,2.225174188613891602e+00,2.184305191040039062e+00,2.144910097122192383e+00,2.106911182403564453e+00,2.070234775543212891e+00,2.034813880920410156e+00,2.000584602355957031e+00,1.967487692832946777e+00,1.935468077659606934e+00,1.904474020004272461e+00,1.874456882476806641e+00,1.845371365547180176e+00
5.000000000000000000e+00,5.000000000000000000e+00,5.000000000000000000e+00,5.000000000000000000e+00,5.000000000000000000e+00,5.000000000000000000e+00,5.000000000000000000e+00,5.000000000000000000e+00,5.000000000000000000e+00,5.000000000000000000e+00,5.000000000000000000e+00,5.000000000000000000e+00,5.000000000000000000e+00,5.000000000000000000e+00,5.000000000000000000e+00,5.000000000000000000e+00,5.000000000000000000e+00,5.000000000000000000e+00,5.000000000000000000e+00,5.000000000000000000e+00,5.000000000000000000e+00,5.000000000000000000e+00,5.000000000000000000e+00,5.000000000000000000e+00,5.000000000000000000e+00,5.000000000000000000e+00,5.000000000000000000e+00,5.000000000000000000e+00,5.000000000000000000e+00,5.000000000000000000e+00,5.000000000000000000e+00,5.000000000000000000e+00,5.000000000000000000e+00,2.201329231262207031e+00,2.177204608917236328e+00,2.188147783279418945e+00,5.000000000000000000e+00,2.208004236221313477e+00,2.183370351791381836e+00,2.181761264801025391e+00,4.673780918121337891e+00,4.497050285339355469e+00,4.333197593688964844e+00,4.180864810943603516e+00,4.038878917694091797e+00,3.906220674514770508e+00,3.781999349594116211e+00,3.665435314178466797e+00,3.555841445922851562e+00,3.452610969543457031e+00,3.355205297470092773e+00,3.263144731521606445e+00,3.176001310348510742e+00,3.093391180038452148e+00,3.014969587326049805e+00,2.940425872802734375e+00,2.869479417800903320e+00,2.801875829696655273e+00,2.737384319305419922e+00,2.675794839859008789e+00,2.616915941238403320e+00,2.560572147369384766e+00,2.506603717803955078e+00,2.454863071441650391e+00,2.405215501785278320e+00,2.357536315917968750e+00,2.311710357666015625e+00,2.267632246017456055e+00,2.225203514099121094e+00,2.184333562850952148e+00,2.144937515258789062e+00,2.106937408447265625e+00,2.070260286331176758e+00,2.034838438034057617e+00,2.000608205795288086e+00,1.967510581016540527e+00,1.935490250587463379e+00,1.904495358467102051e+00,1.874477624893188477e+00,1.845391392707824707e+00
5.000000000000000000e+00,5.000000000000000000e+00,5.000000000000000000e+00,5.000000000000000000e+00,5.000000000000000000e+00,5.000000000000000000e+00,5.000000000000000000e+00,5.000000000000000000e+00,5.000000000000000000e+00,5.000000000000000000e+00,5.000000000000000000e+00,5.000000000000000000e+00,5.000000000000000000e+00,5.000000000000000000e+00,5.000000000000000000e+00,5.000000000000000000e+00,5.000000000000000000e+00,5.000000000000000000e+00,5.000000000000000000e+00,5.000000000000000000e+00,5.000000000000000000e+00,5.000000000000000000e+00,5.000000000000000000e+00,5.000000000000000000e+00,5.000000000000000000e+00,5.000000000000000000e+00,5.000000000000000000e+00,5.000000000000000000e+00,5.000000000000000000e+00,5.000000000000000000e+00,5.000000000000000000e+00,5.000000000000000000e+00,5.000000000000000000e+00,2.215383768081665039e+00,2.188050031661987305e+00,2.199806213378906250e+00,5.000000000000000000e+00,2.222351551055908203e+00,2.205167531967163086e+00,2.204148769378662109e+00,4.673908233642578125e+00,4.497169494628906250e+00,4.333308219909667969e+00,4.180968284606933594e+00,4.038975238800048828e+00,3.906310796737670898e+00,3.782083749771118164e+00,3.665514469146728516e+00,3.555916070938110352e+00,3.452681303024291992e+00,3.355271816253662109e+00,3.263207674026489258e+00,3.176060914993286133e+00,3.093447685241699219e+00,3.015023231506347656e+00,2.940476894378662109e+00,2.869528055191040039e+00,2.801922082901000977e+00,2.737428426742553711e+00,2.675837039947509766e+00,2.616956233978271484e+00,2.560611009597778320e+00,2.506640911102294922e+00,2.454898834228515625e+00,2.405249834060668945e+00,2.357569217681884766e+00,2.311742067337036133e+00,2.267662763595581055e+00,2.225232839584350586e+00,2.184361696243286133e+00,2.144964694976806641e+00,2.106963634490966797e+00,2.070285558700561523e+00,2.034862756729125977e+00,2.000631809234619141e+00,1.967533349990844727e+00,1.935512304306030273e+00,1.904516816139221191e+00,1.874498367309570312e+00,1.845411539077758789e+00
5.000000000000000000e+00,5.000000000000000000e+00,5.000000000000000000e+00,5.000000000000000000e+00,5.000000000000000000e+00,5.000000000000000000e+00,5.000000000000000000e+00,5.000000000000000000e+00,5.000000000000000000e+00,5.000000000000000000e+00,5.000000000000000000e+00,5.000000000000000000e+00,5.000000000000000000e+00,5.000000000000000000e+00,5.000000000000000000e+00,5.000000000000000000e+00,5.000000000000000000e+00,5.000000000000000000e+00,5.000000000000000000e+00,5.000000000000000000e+00,5.000000000000000000e+00,5.000000000000000000e+00,5.000000000000000000e+00,5.000000000000000000e+00,5.000000000000000000e+00,5.000000000000000000e+00,5.000000000000000000e+00,5.000000000000000000e+00,5.000000000000000000e+00,5.000000000000000000e+00,5.000000000000000000e+00,5.000000000000000000e+00,5.000000000000000000e+00,2.229645729064941406e+00,2.200213670730590820e+00,2.210725545883178711e+00,5.000000000000000000e+00,2.239475727081298828e+00,2.228551387786865234e+00,4.865245342254638672e+00,4.674036026000976562e+00,4.497287273406982422e+00,4.333419322967529297e+00,4.181071281433105469e+00,4.039072036743164062e+00,3.906400918960571289e+00,3.782168149948120117e+00,3.665593862533569336e+00,3.555990695953369141e+00,3.452751636505126953e+00,3.355338096618652344e+00,3.263270378112792969e+00,3.176120519638061523e+00,3.093504190444946289e+00,3.015076875686645508e+00,2.940528154373168945e+00,2.869576692581176758e+00,2.801968574523925781e+00,2.737472772598266602e+00,2.675879478454589844e+00,2.616996765136718750e+00,2.560649871826171875e+00,2.506678104400634766e+00,2.454934358596801758e+00,2.405283927917480469e+00,2.357601881027221680e+00,2.311773538589477539e+00,2.267693042755126953e+00,2.225261926651000977e+00,2.184389829635620117e+00,2.144991874694824219e+00,2.106989860534667969e+00,2.070310831069946289e+00,2.034887313842773438e+00,2.000655412673950195e+00,1.967556238174438477e+00,1.935534358024597168e+00,1.904538273811340332e+00,1.874519109725952148e+00,1.845431566238403320e+00
5.000000000000000000e+00,5.000000000000000000e+00,5.000000000000000000e+00,5.000000000000000000e+00,5.000000000000000000e+00,5.000000000000000000e+00,5.000000000000000000e+00,5.000000000000000000e+00,5.000000000000000000e+00,5.000000000000000000e+00,5.000000000000000000e+00,5.000000000000000000e+00,5.000000000000000000e+00,5.000000000000000000e+00,5.000000000000000000e+00,5.000000000000000000e+00,5.000000000000000000e+00,5.000000000000000000e+00,5.000000000000000000e+00,5.000000000000000000e+00,5.000000000000000000e+00,5.000000000000000000e+00,5.000000000000000000e+00,5.000000000000000000e+00,5.000000000000000000e+00,5.000000000000000000e+00,5.000000000000000000e+00,5.000000000000000000e+00,5.000000000000000000e+00,5.000000000000000000e+00,5.000000000000000000e+00,5.000000000000000000e+00,5.000000000000000000e+00,2.244991540908813477e+00,2.213484525680541992e+00,2.222301959991455078e+00,5.000000000000000000e+00,2.256958246231079102e+00,2.252778291702270508e+00,4.865383625030517578e+00,4.674163341522216797e+00,4.497405529022216797e+00,4.333528995513916016e+00,4.181174755096435547e+00,4.039167881011962891e+00,3.906490802764892578e+00,3.782252550125122070e+00,3.665673017501831055e+00,3.556065320968627930e+00,3.452822446823120117e+00,3.355404853820800781e+00,3.263333559036254883e+00,3.176180362701416016e+00,3.093560934066772461e+00,3.015130758285522461e+00,2.940579175949096680e+00,2.869625329971313477e+00,2.802015066146850586e+00,2.737517118453979492e+00,2.675921916961669922e+00,2.617037296295166016e+00,2.560688495635986328e+00,2.506715059280395508e+00,2.454970121383666992e+00,2.405318021774291992e+00,2.357634782791137695e+00,2.311805248260498047e+00,2.267723321914672852e+00,2.225291252136230469e+00,2.184417963027954102e+00,2.145018815994262695e+00,2.107016086578369141e+00,2.070336103439331055e+00,2.034911632537841797e+00,2.000679016113281250e+00,1.967579126358032227e+00,1.935556530952453613e+00,1.904559612274169922e+00,1.874539852142333984e+00,1.845451712608337402e+00
5.000000000000000000e+00,5.000000000000000000e+00,5.000000000000000000e+00,5.000000000000000000e+00,5.000000000000000000e+00,5.000000000000000000e+00,5.000000000000000000e+00,5.000000000000000000e+00,5.000000000000000000e+00,5.000000000000000000e+00,5.000000000000000000e+00,5.000000000000000000e+00,5.000000000000000000e+00,5.000000000000000000e+00,5.000000000000000000e+00,5.000000000000000000e+00,5.000000000000000000e+00,5.000000000000000000e+00,5.000000000000000000e+00,5.000000000000000000e+00,5.000000000000000000e+00,5.000000000000000000e+00,5.000000000000000000e+00,5.000000000000000000e+00,5.000000000000000000e+00,5.000000000000000000e+00,5.000000000000000000e+00,5.000000000000000000e+00,5.000000000000000000e+00,5.000000000000000000e+00,5.000000000000000000e+00,5.000000000000000000e+00,5.000000000000000000e+00,2.261625766754150391e+00,2.229996442794799805e+00,2.235342741012573242e+00,2.334236860275268555e+00,2.281482458114624023e+00,5.000000000000000000e+00,4.865521907806396484e+00,4.674291133880615234e+00,4.497523307800292969e+00,4.333638668060302734e+00,4.181277275085449219e+00,4.039264678955078125e+00,3.906581401824951172e+00,3.782337427139282227e+00,3.665752887725830078e+00,3.556140422821044922e+00,3.452892780303955078e+00,3.355471372604370117e+00,3.263396501541137695e+00,3.176239728927612305e+00,3.093617439270019531e+00,3.015184402465820312e+00,2.940630197525024414e+00,2.869673967361450195e+00,2.802061319351196289e+00,2.737561225891113281e+00,2.675964117050170898e+00,2.617077827453613281e+00,2.560727119445800781e+00,2.506752252578735352e+00,2.455005645751953125e+00,2.405352115631103516e+00,2.357667446136474609e+00,2.311836719512939453e+00,2.267753601074218750e+00,2.225320339202880859e+00,2.184446096420288086e+00,2.145045995712280273e+00,2.107042312622070312e+00,2.070361375808715820e+00,2.034936189651489258e+00,2.000702619552612305e+00,1.967602133750915527e+00,1.935578823089599609e+00,1.904581189155578613e+00,1.874560713768005371e+00,1.845471978187561035e+00
4.875524044036865234e+00,4.874312877655029297e+00,4.873102188110351562e+00,4.871892452239990234e+00,4.870683193206787109e+00,4.869474887847900391e+00,4.868266582489013672e+00,4.867059230804443359e+00,4.865851879119873047e+00,4.864645957946777344e+00,4.863440036773681641e+00,4.862235069274902344e+00,4.861030578613281250e+00,4.859826564788818359e+00,4.858623504638671875e+00,4.857420921325683594e+00,4.856218814849853516e+00,4.855017185211181641e+00,4.853816509246826172e+00,4.852615833282470703e+00,4.851416110992431641e+00,4.850217342376708984e+00,4.849018573760986328e+00,4.847820758819580078e+00,4.846623420715332031e+00,4.845427036285400391e+00,4.844230651855468750e+00,4.843035221099853516e+00,4.841839790344238281e+00,4.840645790100097656e+00,4.839451789855957031e+00,4.838258266448974609e+00,4.837065696716308594e+00,2.295595645904541016e+00,2.246756315231323242e+00,2.248537540435791016e+00,2.332621335983276367e+00,2.303327560424804688e+00,4.829922199249267578e+00,4.828733921051025391e+00,4.674418449401855469e+00,4.497641563415527344e+00,4.333748340606689453e+00,4.181379318237304688e+00,4.039361000061035156e+00,3.906671524047851562e+00,3.782421827316284180e+00,3.665832042694091797e+00,3.556215047836303711e+00,3.452963113784790039e+00,3.355537891387939453e+00,3.263459444046020508e+00,3.176299333572387695e+00,3.093673944473266602e+00,3.015238046646118164e+00,2.940681219100952148e+00,2.869722604751586914e+00,2.802107572555541992e+00,2.737605571746826172e+00,2.676006317138671875e+00,2.617118120193481445e+00,2.560765743255615234e+00,2.506789207458496094e+00,2.455041170120239258e+00,2.405386209487915039e+00,2.357700347900390625e+00,2.311868190765380859e+00,2.267784118652343750e+00,2.225349664688110352e+00,2.184474468231201172e+00,2.145073413848876953e+00,2.107068538665771484e+00,2.070386886596679688e+00,2.034960746765136719e+00,2.000726461410522461e+00,1.967625021934509277e+00,1.935600996017456055e+00,1.904602646827697754e+00,1.874581456184387207e+00,1.845492124557495117e+00
3.778318166732788086e+00,3.777591228485107422e+00,3.776864051818847656e+00,3.776137351989746094e+00,3.775410890579223633e+00,3.774684429168701172e+00,3.773958444595336914e+00,3.773232936859130859e+00,3.772507429122924805e+00,3.771782159805297852e+00,3.771057367324829102e+00,3.770332813262939453e+00,3.769608497619628906e+00,3.768884420394897461e+00,3.768160820007324219e+00,3.767437219619750977e+00,3.766714096069335938e+00,3.765991210937500000e+00,3.765268564224243164e+00,3.764546155929565430e+00,3.763823986053466797e+00,3.763102769851684570e+00,3.762381076812744141e+00,3.761659860610961914e+00,3.760938882827758789e+00,3.760218381881713867e+00,3.759497880935668945e+00,3.758777618408203125e+00,3.758057832717895508e+00,3.757338285446166992e+00,3.756618976593017578e+00,3.755899906158447266e+00,3.755181074142456055e+00,3.754462480545043945e+00,2.277546405792236328e+00,2.303770780563354492e+00,3.752308607101440430e+00,2.281112909317016602e+00,2.332650184631347656e+00,3.750157356262207031e+00,3.749440670013427734e+00,3.748724460601806641e+00,3.748008489608764648e+00,3.747292995452880859e+00,3.746577501296997070e+00,3.745862483978271484e+00,3.745147466659545898e+00,3.665911436080932617e+00,3.556289672851562500e+00,3.453033447265625000e+00,3.355604171752929688e+00,3.263522148132324219e+00,3.176358938217163086e+00,3.093730211257934570e+00,3.015291690826416016e+00,2.940732240676879883e+00,2.869771242141723633e+00,2.802154064178466797e+00,2.737649679183959961e+00,2.676048517227172852e+00,2.617158651351928711e+00,2.560804605484008789e+00,2.506826400756835938e+00,2.455076932907104492e+00,2.405420541763305664e+00,2.357733249664306641e+00,2.311899900436401367e+00,2.267814636230468750e+00,2.225378990173339844e+00,2.184502601623535156e+00,2.145100593566894531e+00,2.107094764709472656e+00,2.070412158966064453e+00,2.034985065460205078e+00,2.000750064849853516e+00,1.967647910118103027e+00,1.935623049736022949e+00,1.904624104499816895e+00,1.874602198600769043e+00,1.845512270927429199e+00
3.084231853485107422e+00,3.083747148513793945e+00,3.083262681961059570e+00,3.082778215408325195e+00,3.082293987274169922e+00,3.081809997558593750e+00,3.081326007843017578e+00,3.080842256546020508e+00,3.080358505249023438e+00,3.079875230789184570e+00,3.079391717910766602e+00,3.078908681869506836e+00,3.078425645828247070e+00,3.077942609786987305e+00,3.077460050582885742e+00,3.076977491378784180e+00,3.076494932174682617e+00,3.076012611389160156e+00,3.075530529022216797e+00,3.075048923492431641e+00,3.074567079544067383e+00,3.074085474014282227e+00,3.073603868484497070e+00,3.073122501373291016e+00,3.072641372680664062e+00,3.072160243988037109e+00,3.071679353713989258e+00,3.071198463439941406e+00,3.070717811584472656e+00,3.070237398147583008e+00,3.069757223129272461e+00,3.069277048110961914e+00,3.068796873092651367e+00,3.068317174911499023e+00,2.279161691665649414e+00,2.262242317199707031e+00,3.066878557205200195e+00,2.259232521057128906e+00,2.276895999908447266e+00,3.065441131591796875e+00,3.064962625503540039e+00,3.064484119415283203e+00,3.064005613327026367e+00,3.063527107238769531e+00,3.063048839569091797e+00,3.062570810317993164e+00,3.062093019485473633e+00,3.061615228652954102e+00,3.061137676239013672e+00,3.060660123825073242e+00,3.060182809829711914e+00,3.059705495834350586e+00,3.059228658676147461e+00,3.058751583099365234e+00,3.015345335006713867e+00,2.940783500671386719e+00,2.869819879531860352e+00,2.802200555801391602e+00,2.737694263458251953e+00,2.676090955734252930e+00,2.617199182510375977e+00,2.560843467712402344e+00,2.506863594055175781e+00,2.455112457275390625e+00,2.405454874038696289e+00,2.357766151428222656e+00,2.311931371688842773e+00,2.267844915390014648e+00,2.225408315658569336e+00,2.184530735015869141e+00,2.145127773284912109e+00,2.107120990753173828e+00,2.070437431335449219e+00,2.035009622573852539e+00,2.000773668289184570e+00,1.967670679092407227e+00,1.935645222663879395e+00,1.904645442962646484e+00,1.874622941017150879e+00,1.845532298088073730e+00
2.605580091476440430e+00,2.605234146118164062e+00,2.604888439178466797e+00,2.604542732238769531e+00,2.604197025299072266e+00,2.603851318359375000e+00,2.603505849838256836e+00,2.603160619735717773e+00,2.602815151214599609e+00,2.602469921112060547e+00,2.602124929428100586e+00,2.601779937744140625e+00,2.601434946060180664e+00,2.601090192794799805e+00,2.600745439529418945e+00,2.600400686264038086e+00,2.600056171417236328e+00,2.599711894989013672e+00,2.599367618560791016e+00,2.599023342132568359e+00,2.598679065704345703e+00,2.598334789276123047e+00,2.597990751266479492e+00,2.597646951675415039e+00,2.597303152084350586e+00,2.596959352493286133e+00,2.596615791320800781e+00,2.596272230148315430e+00,2.595928668975830078e+00,2.595585346221923828e+00,2.595242023468017578e+00,2.594898939132690430e+00,2.594555616378784180e+00,2.594212770462036133e+00,2.255833387374877930e+00,2.228626966476440430e+00,2.225247144699096680e+00,2.592841625213623047e+00,2.214354515075683594e+00,2.592156648635864258e+00,2.591814279556274414e+00,2.591471910476684570e+00,2.591129779815673828e+00,2.590787649154663086e+00,2.590445756912231445e+00,2.590103864669799805e+00,2.589761972427368164e+00,2.589420080184936523e+00,2.589078426361083984e+00,2.588737010955810547e+00,2.588395357131958008e+00,2.588054180145263672e+00,2.587712764739990234e+00,2.587371587753295898e+00,2.587030410766601562e+00,2.586689472198486328e+00,2.586348533630371094e+00,2.586007595062255859e+00,2.585666894912719727e+00,2.585326433181762695e+00,2.584985971450805664e+00,2.560882091522216797e+00,2.506900787353515625e+00,2.455147981643676758e+00,2.405488967895507812e+00,2.357799053192138672e+00,2.311963081359863281e+00,2.267875194549560547e+00,2.225437402725219727e+00,2.184558868408203125e+00,2.145154714584350586e+00,2.107147216796875000e+00,2.070462703704833984e+00,2.035033941268920898e+00,2.000797271728515625e+00,1.967693567276000977e+00,1.935667276382446289e+00,1.904666900634765625e+00,1.874643683433532715e+00,1.845552444458007812e+00
2.255548477172851562e+00,2.255288600921630859e+00,2.255028963088989258e+00,2.254769325256347656e+00,2.254509687423706055e+00,2.254250049591064453e+00,2.253990650177001953e+00,2.253731250762939453e+00,2.253471851348876953e+00,2.253212690353393555e+00,2.252953290939331055e+00,2.252694129943847656e+00,2.252434968948364258e+00,2.252175807952880859e+00,2.251917123794555664e+00,2.251657962799072266e+00,2.251399278640747070e+00,2.251140356063842773e+00,2.250881671905517578e+00,2.250622987747192383e+00,2.250364065170288086e+00,2.250105619430541992e+00,2.249847173690795898e+00,2.249589204788208008e+00,2.249331235885620117e+00,2.249073505401611328e+00,2.248815774917602539e+00,2.248558044433593750e+00,2.248300313949584961e+00,2.248042821884155273e+00,2.247785329818725586e+00,2.247527837753295898e+00,2.247270345687866211e+00,2.247013092041015625e+00,2.246755838394165039e+00,2.184473276138305664e+00,2.177984714508056641e+00,2.175055503845214844e+00,2.245727539062500000e+00,2.245470285415649414e+00,2.245213508605957031e+00,2.244956493377685547e+00,2.244699716567993164e+00,2.244442939758300781e+00,2.244186401367187500e+00,2.243929624557495117e+00,2.243673086166381836e+00,2.243416547775268555e+00,2.243160247802734375e+00,2.242903709411621094e+00,2.242647409439086914e+00,2.242391109466552734e+00,2.242135047912597656e+00,2.241878747940063477e+00,2.241622686386108398e+00,2.241366624832153320e+00,2.241110801696777344e+00,2.240854740142822266e+00,2.240598917007446289e+00,2.240343093872070312e+00,2.240087509155273438e+00,2.239831686019897461e+00,2.239576101303100586e+00,2.239320516586303711e+00,2.239064931869506836e+00,2.238809585571289062e+00,2.238554000854492188e+00,2.238298654556274414e+00,2.225466728210449219e+00,2.184587001800537109e+00,2.145181894302368164e+00,2.107173442840576172e+00,2.070487976074218750e+00,2.035058498382568359e+00,2.000820875167846680e+00,1.967716336250305176e+00,1.935689449310302734e+00,1.904688239097595215e+00,1.874664425849914551e+00,1.845572471618652344e+00
1.988449096679687500e+00,1.988247156143188477e+00,1.988045573234558105e+00,1.987843632698059082e+00,1.987641811370849609e+00,1.987440109252929688e+00,1.987238287925720215e+00,1.987036824226379395e+00,1.986835241317749023e+00,1.986633539199829102e+00,1.986431956291198730e+00,1.986230731010437012e+00,1.986029148101806641e+00,1.985827684402465820e+00,1.985626339912414551e+00,1.985424995422363281e+00,1.985223889350891113e+00,1.985022544860839844e+00,1.984821319580078125e+00,1.984620094299316406e+00,1.984418869018554688e+00,1.984218001365661621e+00,1.984016895294189453e+00,1.983815908432006836e+00,1.983614802360534668e+00,1.983414173126220703e+00,1.983213186264038086e+00,1.983012318611145020e+00,1.982811450958251953e+00,1.982610702514648438e+00,1.982410192489624023e+00,1.982209444046020508e+00,1.982008695602416992e+00,1.981808066368103027e+00,1.981607675552368164e+00,1.981407165527343750e+00,1.981206655502319336e+00,1.981006145477294922e+00,1.980805754661560059e+00,1.980605483055114746e+00,1.980405211448669434e+00,1.980204820632934570e+00,1.980004549026489258e+00,1.979804515838623047e+00,1.979604363441467285e+00,1.979404211044311523e+00,1.979204058647155762e+00,1.979004025459289551e+00,1.978804230690002441e+00,1.978604197502136230e+00,1.978404283523559570e+00,1.978204369544982910e+00,1.978004455566406250e+00,1.977804780006408691e+00,1.977604985237121582e+00,1.977405309677124023e+00,1.977205514907836914e+00,1.977006077766418457e+00,1.976806521415710449e+00,1.976606845855712891e+00,1.976407289505004883e+00,1.976207852363586426e+00,1.976008534431457520e+00,1.975809097290039062e+00,1.975609779357910156e+00,1.975410342216491699e+00,1.975211262702941895e+00,1.975012063980102539e+00,1.974812746047973633e+00,1.974613666534423828e+00,1.974414467811584473e+00,1.974215626716613770e+00,1.974016547203063965e+00,1.973817467689514160e+00,1.973618507385253906e+00,1.967739224433898926e+00,1.935711503028869629e+00,1.904709696769714355e+00,1.874685168266296387e+00,1.845592617988586426e+00
1.777911186218261719e+00,1.777749657630920410e+00,1.777588486671447754e+00,1.777427077293395996e+00,1.777265667915344238e+00,1.777104377746582031e+00,1.776943087577819824e+00,1.776782035827636719e+00,1.776620745658874512e+00,1.776459574699401855e+00,1.776298403739929199e+00,1.776137351989746094e+00,1.775976300239562988e+00,1.775815129280090332e+00,1.775654077529907227e+00,1.775493025779724121e+00,1.775332212448120117e+00,1.775171279907226562e+00,1.775010347366333008e+00,1.774849414825439453e+00,1.774688482284545898e+00,1.774527788162231445e+00,1.774366974830627441e+00,1.774206161499023438e+00,1.774045348167419434e+00,1.773884773254394531e+00,1.773724079132080078e+00,1.773563385009765625e+00,1.773402690887451172e+00,1.773242115974426270e+00,1.773081660270690918e+00,1.772921085357666016e+00,1.772760510444641113e+00,1.772600054740905762e+00,1.772439718246459961e+00,1.772279262542724609e+00,1.772118806838989258e+00,1.771958470344543457e+00,1.771798014640808105e+00,1.771637916564941406e+00,1.771477580070495605e+00,1.771317243576049805e+00,1.771157026290893555e+00,1.770997047424316406e+00,1.770836830139160156e+00,1.770676612854003906e+00,1.770516514778137207e+00,1.770356416702270508e+00,1.770196437835693359e+00,1.770036458969116211e+00,1.769876360893249512e+00,1.769716382026672363e+00,1.769556403160095215e+00,1.769396662712097168e+00,1.769236803054809570e+00,1.769076824188232422e+00,1.768916964530944824e+00,1.768757343292236328e+00,1.768597602844238281e+00,1.768437862396240234e+00,1.768278121948242188e+00,1.768118381500244141e+00,1.767958879470825195e+00,1.767799258232116699e+00,1.767639636993408203e+00,1.767480015754699707e+00,1.767320632934570312e+00,1.767161130905151367e+00,1.767001628875732422e+00,1.766842126846313477e+00,1.766682744026184082e+00,1.766523480415344238e+00,1.766364097595214844e+00,1.766204714775085449e+00,1.766045331954956055e+00,1.765886306762695312e+00,1.765726923942565918e+00,1.765567779541015625e+00,1.765408515930175781e+00,1.765249371528625488e+00
1.607688307762145996e+00,1.607556343078613281e+00,1.607424497604370117e+00,1.607292532920837402e+00,1.607160568237304688e+00,1.607028603553771973e+00,1.606896638870239258e+00,1.606764912605285645e+00,1.606633067131042480e+00,1.606501221656799316e+00,1.606369376182556152e+00,1.606237769126892090e+00,1.606106042861938477e+00,1.605974197387695312e+00,1.605842471122741699e+00,1.605710744857788086e+00,1.605579257011413574e+00,1.605447530746459961e+00,1.605315923690795898e+00,1.605184316635131836e+00,1.605052709579467773e+00,1.604921221733093262e+00,1.604789733886718750e+00,1.604658126831054688e+00,1.604526638984680176e+00,1.604395270347595215e+00,1.604263782501220703e+00,1.604132413864135742e+00,1.604000926017761230e+00,1.603869557380676270e+00,1.603738307952880859e+00,1.603606939315795898e+00,1.603475570678710938e+00,1.603344202041625977e+00,1.603213071823120117e+00,1.603081822395324707e+00,1.602950572967529297e+00,1.602819323539733887e+00,1.602688074111938477e+00,1.602557063102722168e+00,1.602425932884216309e+00,1.602294683456420898e+00,1.602163553237915039e+00,1.602032661437988281e+00,1.601901531219482422e+00,1.601770520210266113e+00,1.601639389991760254e+00,1.601508378982543945e+00,1.601377606391906738e+00,1.601246595382690430e+00,1.601115584373474121e+00,1.600984692573547363e+00,1.600853800773620605e+00,1.600723028182983398e+00,1.600592136383056641e+00,1.600461244583129883e+00,1.600330471992492676e+00,1.600199818611145020e+00,1.600069046020507812e+00,1.599938154220581055e+00,1.599807500839233398e+00,1.599676728248596191e+00,1.599546194076538086e+00,1.599415540695190430e+00,1.599284887313842773e+00,1.599154233932495117e+00,1.599023699760437012e+00,1.598893165588378906e+00,1.598762512207031250e+00,1.598631978034973145e+00,1.598501443862915039e+00,1.598371148109436035e+00,1.598240613937377930e+00,1.598110198974609375e+00,1.597979664802551270e+00,1.597849488258361816e+00,1.597719073295593262e+00,1.597588658332824707e+00,1.597458243370056152e+00,1.597327947616577148e+00
1.467212677001953125e+00,1.467102766036987305e+00,1.466992974281311035e+00,1.466883063316345215e+00,1.466773152351379395e+00,1.466663241386413574e+00,1.466553330421447754e+00,1.466443657875061035e+00,1.466333746910095215e+00,1.466223955154418945e+00,1.466114163398742676e+00,1.466004490852355957e+00,1.465894699096679688e+00,1.465784907341003418e+00,1.465675234794616699e+00,1.465565443038940430e+00,1.465455889701843262e+00,1.465346217155456543e+00,1.465236544609069824e+00,1.465126872062683105e+00,1.465017199516296387e+00,1.464907765388488770e+00,1.464798092842102051e+00,1.464688539505004883e+00,1.464578986167907715e+00,1.464469552040100098e+00,1.464359998703002930e+00,1.464250445365905762e+00,1.464140892028808594e+00,1.464031457901000977e+00,1.463922023773193359e+00,1.463812589645385742e+00,1.463703155517578125e+00,1.463593721389770508e+00,1.463484406471252441e+00,1.463375091552734375e+00,1.463265657424926758e+00,1.463156342506408691e+00,1.463046908378601074e+00,1.462937712669372559e+00,1.462828397750854492e+00,1.462719082832336426e+00,1.462609887123107910e+00,1.462500691413879395e+00,1.462391495704650879e+00,1.462282299995422363e+00,1.462172985076904297e+00,1.462063789367675781e+00,1.461954832077026367e+00,1.461845636367797852e+00,1.461736440658569336e+00,1.461627364158630371e+00,1.461518168449401855e+00,1.461409211158752441e+00,1.461300134658813477e+00,1.461191058158874512e+00,1.461081981658935547e+00,1.460973143577575684e+00,1.460864067077636719e+00,1.460755109786987305e+00,1.460646152496337891e+00,1.460537075996398926e+00,1.460428357124328613e+00,1.460319399833679199e+00,1.460210442543029785e+00,1.460101485252380371e+00,1.459992766380310059e+00,1.459883928298950195e+00,1.459774971008300781e+00,1.459666132926940918e+00,1.459557414054870605e+00,1.459448695182800293e+00,1.459339857101440430e+00,1.459231138229370117e+00,1.459122300148010254e+00,1.459013700485229492e+00,1.458904981613159180e+00,1.458796262741088867e+00,1.458687543869018555e+00,1.458578944206237793e+00
1.349313139915466309e+00,1.349220156669616699e+00,1.349127292633056641e+00,1.349034309387207031e+00,1.348941445350646973e+00,1.348848462104797363e+00,1.348755478858947754e+00,1.348662734031677246e+00,1.348569869995117188e+00,1.348476886749267578e+00,1.348384022712707520e+00,1.348291277885437012e+00,1.348198413848876953e+00,1.348105549812316895e+00,1.348012804985046387e+00,1.347919940948486328e+00,1.347827315330505371e+00,1.347734451293945312e+00,1.347641706466674805e+00,1.347548961639404297e+00,1.347456216812133789e+00,1.347363591194152832e+00,1.347270846366882324e+00,1.347178101539611816e+00,1.347085475921630859e+00,1.346992850303649902e+00,1.346900224685668945e+00,1.346807599067687988e+00,1.346714854240417480e+00,1.346622228622436523e+00,1.346529722213745117e+00,1.346437096595764160e+00,1.346344470977783203e+00,1.346251964569091797e+00,1.346159458160400391e+00,1.346066951751708984e+00,1.345974326133728027e+00,1.345881819725036621e+00,1.345789313316345215e+00,1.345696926116943359e+00,1.345604419708251953e+00,1.345511913299560547e+00,1.345419406890869141e+00,1.345327138900756836e+00,1.345234632492065430e+00,1.345142245292663574e+00,1.345049858093261719e+00,1.344957351684570312e+00,1.344865083694458008e+00,1.344772696495056152e+00,1.344680309295654297e+00,1.344588041305541992e+00,1.344495654106140137e+00,1.344403386116027832e+00,1.344311118125915527e+00,1.344218850135803223e+00,1.344126462936401367e+00,1.344034314155578613e+00,1.343942046165466309e+00,1.343849778175354004e+00,1.343757510185241699e+00,1.343665361404418945e+00,1.343573212623596191e+00,1.343481063842773438e+00,1.343388795852661133e+00,1.343296647071838379e+00,1.343204617500305176e+00,1.343112468719482422e+00,1.343020319938659668e+00,1.342928171157836914e+00,1.342836022377014160e+00,1.342743992805480957e+00,1.342651963233947754e+00,1.342559814453125000e+00,1.342467784881591797e+00,1.342375874519348145e+00,1.342283844947814941e+00,1.342191815376281738e+00,1.342099785804748535e+00,1.342007756233215332e+00
1.248952269554138184e+00,1.248872637748718262e+00,1.248793005943298340e+00,1.248713374137878418e+00,1.248633742332458496e+00,1.248554110527038574e+00,1.248474478721618652e+00,1.248394966125488281e+00,1.248315334320068359e+00,1.248235821723937988e+00,1.248156189918518066e+00,1.248076677322387695e+00,1.247997164726257324e+00,1.247917532920837402e+00,1.247838020324707031e+00,1.247758507728576660e+00,1.247679114341735840e+00,1.247599601745605469e+00,1.247520089149475098e+00,1.247440576553344727e+00,1.247361063957214355e+00,1.247281670570373535e+00,1.247202277183532715e+00,1.247122764587402344e+00,1.247043371200561523e+00,1.246963977813720703e+00,1.246884584426879883e+00,1.246805191040039062e+00,1.246725797653198242e+00,1.246646404266357422e+00,1.246567130088806152e+00,1.246487736701965332e+00,1.246408343315124512e+00,1.246328949928283691e+00,1.246249794960021973e+00,1.246170401573181152e+00,1.246091127395629883e+00,1.246011734008789062e+00,1.245932459831237793e+00,1.245853304862976074e+00,1.245774030685424805e+00,1.245694756507873535e+00,1.245615482330322266e+00,1.245536327362060547e+00,1.245457053184509277e+00,1.245377898216247559e+00,1.245298624038696289e+00,1.245219469070434570e+00,1.245140314102172852e+00,1.245061159133911133e+00,1.244981884956359863e+00,1.244902729988098145e+00,1.244823575019836426e+00,1.244744539260864258e+00,1.244665384292602539e+00,1.244586229324340820e+00,1.244507193565368652e+00,1.244428157806396484e+00,1.244349002838134766e+00,1.244269967079162598e+00,1.244190931320190430e+00,1.244111776351928711e+00,1.244032859802246094e+00,1.243953824043273926e+00,1.243874788284301758e+00,1.243795752525329590e+00,1.243716835975646973e+00,1.243637800216674805e+00,1.243558764457702637e+00,1.243479847908020020e+00,1.243400812149047852e+00,1.243321895599365234e+00,1.243242979049682617e+00,1.243164062500000000e+00,1.243085145950317383e+00,1.243006229400634766e+00,1.242927312850952148e+00,1.242848396301269531e+00,1.242769598960876465e+00,1.242690682411193848e+00
1.162487387657165527e+00,1.162418365478515625e+00,1.162349343299865723e+00,1.162280440330505371e+00,1.162211418151855469e+00,1.162142395973205566e+00,1.162073373794555664e+00,1.162004470825195312e+00,1.161935567855834961e+00,1.161866545677185059e+00,1.161797642707824707e+00,1.161728739738464355e+00,1.161659836769104004e+00,1.161590933799743652e+00,1.161522030830383301e+00,1.161453127861022949e+00,1.161384224891662598e+00,1.161315321922302246e+00,1.161246418952941895e+00,1.161177635192871094e+00,1.161108732223510742e+00,1.161039948463439941e+00,1.160971045494079590e+00,1.160902261734008789e+00,1.160833358764648438e+00,1.160764694213867188e+00,1.160695791244506836e+00,1.160627007484436035e+00,1.160558223724365234e+00,1.160489439964294434e+00,1.160420656204223633e+00,1.160351872444152832e+00,1.160283088684082031e+00,1.160214424133300781e+00,1.160145640373229980e+00,1.160076975822448730e+00,1.160008192062377930e+00,1.159939527511596680e+00,1.159870743751525879e+00,1.159802079200744629e+00,1.159733414649963379e+00,1.159664750099182129e+00,1.159595966339111328e+00,1.159527420997619629e+00,1.159458756446838379e+00,1.159390091896057129e+00,1.159321427345275879e+00,1.159252762794494629e+00,1.159184217453002930e+00,1.159115552902221680e+00,1.159046888351440430e+00,1.158978343009948730e+00,1.158909678459167480e+00,1.158841133117675781e+00,1.158772587776184082e+00,1.158703923225402832e+00,1.158635377883911133e+00,1.158566951751708984e+00,1.158498406410217285e+00,1.158429741859436035e+00,1.158361315727233887e+00,1.158292770385742188e+00,1.158224344253540039e+00,1.158155798912048340e+00,1.158087253570556641e+00,1.158018708229064941e+00,1.157950401306152344e+00,1.157881855964660645e+00,1.157813429832458496e+00,1.157744884490966797e+00,1.157676458358764648e+00,1.157608032226562500e+00,1.157539606094360352e+00,1.157471179962158203e+00,1.157402753829956055e+00,1.157334446907043457e+00,1.157266020774841309e+00,1.157197594642639160e+00,1.157129168510437012e+00,1.157060742378234863e+00
1.087219119071960449e+00,1.087158799171447754e+00,1.087098479270935059e+00,1.087038159370422363e+00,1.086977720260620117e+00,1.086917400360107422e+00,1.086857080459594727e+00,1.086796760559082031e+00,1.086736440658569336e+00,1.086676120758056641e+00,1.086615800857543945e+00,1.086555600166320801e+00,1.086495280265808105e+00,1.086434960365295410e+00,1.086374759674072266e+00,1.086314439773559570e+00,1.086254239082336426e+00,1.086193919181823730e+00,1.086133718490600586e+00,1.086073398590087891e+00,1.086013197898864746e+00,1.085952997207641602e+00,1.085892796516418457e+00,1.085832595825195312e+00,1.085772275924682617e+00,1.085712194442749023e+00,1.085651993751525879e+00,1.085591793060302734e+00,1.085531592369079590e+00,1.085471391677856445e+00,1.085411310195922852e+00,1.085351109504699707e+00,1.085290908813476562e+00,1.085230827331542969e+00,1.085170745849609375e+00,1.085110545158386230e+00,1.085050463676452637e+00,1.084990262985229492e+00,1.084930181503295898e+00,1.084870100021362305e+00,1.084810018539428711e+00,1.084749817848205566e+00,1.084689736366271973e+00,1.084629654884338379e+00,1.084569573402404785e+00,1.084509491920471191e+00,1.084449410438537598e+00,1.084389448165893555e+00,1.084329366683959961e+00,1.084269404411315918e+00,1.084209322929382324e+00,1.084149241447448730e+00,1.084089279174804688e+00,1.084029316902160645e+00,1.083969235420227051e+00,1.083909273147583008e+00,1.083849191665649414e+00,1.083789229393005371e+00,1.083729267120361328e+00,1.083669304847717285e+00,1.083609342575073242e+00,1.083549380302429199e+00,1.083489418029785156e+00,1.083429455757141113e+00,1.083369493484497070e+00,1.083309531211853027e+00,1.083249688148498535e+00,1.083189725875854492e+00,1.083129882812500000e+00,1.083069920539855957e+00,1.083009958267211914e+00,1.082950115203857422e+00,1.082890272140502930e+00,1.082830309867858887e+00,1.082770466804504395e+00,1.082710623741149902e+00,1.082650780677795410e+00,1.082590937614440918e+00,1.082530975341796875e+00,1.082471132278442383e+00
1.021105170249938965e+00,1.021051883697509766e+00,1.020998716354370117e+00,1.020945429801940918e+00,1.020892262458801270e+00,1.020838975906372070e+00,1.020785689353942871e+00,1.020732641220092773e+00,1.020679354667663574e+00,1.020626187324523926e+00,1.020572900772094727e+00,1.020519852638244629e+00,1.020466566085815430e+00,1.020413398742675781e+00,1.020360231399536133e+00,1.020307064056396484e+00,1.020253896713256836e+00,1.020200729370117188e+00,1.020147562026977539e+00,1.020094513893127441e+00,1.020041346549987793e+00,1.019988179206848145e+00,1.019935131072998047e+00,1.019881963729858398e+00,1.019828796386718750e+00,1.019775748252868652e+00,1.019722580909729004e+00,1.019669532775878906e+00,1.019616365432739258e+00,1.019563317298889160e+00,1.019510269165039062e+00,1.019457221031188965e+00,1.019404053688049316e+00,1.019351005554199219e+00,1.019297957420349121e+00,1.019244909286499023e+00,1.019191861152648926e+00,1.019138813018798828e+00,1.019085764884948730e+00,1.019032835960388184e+00,1.018979787826538086e+00,1.018926739692687988e+00,1.018873691558837891e+00,1.018820762634277344e+00,1.018767714500427246e+00,1.018714666366577148e+00,1.018661737442016602e+00,1.018608689308166504e+00,1.018555760383605957e+00,1.018502712249755859e+00,1.018449783325195312e+00,1.018396735191345215e+00,1.018343806266784668e+00,1.018290877342224121e+00,1.018237948417663574e+00,1.018185019493103027e+00,1.018131971359252930e+00,1.018079161643981934e+00,1.018026232719421387e+00,1.017973303794860840e+00,1.017920374870300293e+00,1.017867445945739746e+00,1.017814517021179199e+00,1.017761588096618652e+00,1.017708778381347656e+00,1.017655849456787109e+00,1.017603039741516113e+00,1.017550110816955566e+00,1.017497181892395020e+00,1.017444372177124023e+00,1.017391443252563477e+00,1.017338633537292480e+00,1.017285823822021484e+00,1.017232894897460938e+00,1.017180085182189941e+00,1.017127275466918945e+00,1.017074465751647949e+00,1.017021536827087402e+00,1.016968727111816406e+00,1.016915917396545410e+00
9.625710248947143555e-01,9.625237584114074707e-01,9.624764919281005859e-01,9.624291062355041504e-01,9.623818397521972656e-01,9.623344540596008301e-01,9.622872471809387207e-01,9.622399806976318359e-01,9.621926546096801758e-01,9.621453881263732910e-01,9.620980620384216309e-01,9.620508551597595215e-01,9.620035886764526367e-01,9.619562625885009766e-01,9.619090557098388672e-01,9.618617892265319824e-01,9.618145823478698730e-01,9.617673754692077637e-01,9.617200493812561035e-01,9.616729021072387695e-01,9.616255760192871094e-01,9.615784287452697754e-01,9.615312218666076660e-01,9.614839553833007812e-01,9.614368081092834473e-01,9.613896608352661133e-01,9.613423943519592285e-01,9.612952470779418945e-01,9.612479805946350098e-01,9.612008333206176758e-01,9.611536860466003418e-01,9.611064195632934570e-01,9.610593318939208984e-01,9.610120654106140137e-01,9.609649777412414551e-01,9.609178304672241211e-01,9.608706235885620117e-01,9.608235359191894531e-01,9.607763290405273438e-01,9.607292413711547852e-01,9.606821537017822266e-01,9.606349468231201172e-01,9.605878591537475586e-01,9.605407714843750000e-01,9.604936242103576660e-01,9.604465365409851074e-01,9.603993892669677734e-01,9.603523015975952148e-01,9.603052735328674316e-01,9.602580666542053223e-01,9.602110385894775391e-01,9.601638913154602051e-01,9.601168632507324219e-01,9.600698351860046387e-01,9.600226879119873047e-01,9.599756598472595215e-01,9.599285125732421875e-01,9.598815441131591797e-01,9.598345160484313965e-01,9.597874283790588379e-01,9.597404003143310547e-01,9.596933126449584961e-01,9.596463441848754883e-01,9.595993161201477051e-01,9.595522284507751465e-01,9.595052599906921387e-01,9.594582915306091309e-01,9.594112038612365723e-01,9.593642354011535645e-01,9.593172073364257812e-01,9.592702388763427734e-01,9.592232704162597656e-01,9.591762423515319824e-01,9.591292738914489746e-01,9.590822458267211914e-01,9.590353369712829590e-01,9.589883685111999512e-01,9.589413404464721680e-01,9.588944315910339355e-01,9.588474035263061523e-01
9.103839397430419922e-01,9.103415608406066895e-01,9.102992415428161621e-01,9.102569818496704102e-01,9.102146029472351074e-01,9.101723432540893555e-01,9.101299643516540527e-01,9.100877046585083008e-01,9.100454449653625488e-01,9.100031256675720215e-01,9.099608659744262695e-01,9.099186062812805176e-01,9.098762869834899902e-01,9.098340272903442383e-01,9.097917079925537109e-01,9.097495079040527344e-01,9.097072482109069824e-01,9.096649289131164551e-01,9.096227288246154785e-01,9.095804095268249512e-01,9.095382094383239746e-01,9.094960093498229980e-01,9.094536900520324707e-01,9.094114899635314941e-01,9.093691706657409668e-01,9.093270301818847656e-01,9.092848300933837891e-01,9.092425107955932617e-01,9.092003703117370605e-01,9.091581106185913086e-01,9.091159105300903320e-01,9.090737700462341309e-01,9.090315103530883789e-01,9.089893102645874023e-01,9.089471697807312012e-01,9.089049100875854492e-01,9.088627696037292480e-01,9.088205099105834961e-01,9.087783694267272949e-01,9.087362289428710938e-01,9.086940288543701172e-01,9.086518883705139160e-01,9.086096882820129395e-01,9.085675477981567383e-01,9.085254669189453125e-01,9.084832072257995605e-01,9.084411263465881348e-01,9.083989262580871582e-01,9.083568453788757324e-01,9.083147048950195312e-01,9.082725644111633301e-01,9.082304239273071289e-01,9.081882834434509277e-01,9.081462025642395020e-01,9.081041216850280762e-01,9.080619215965270996e-01,9.080199003219604492e-01,9.079778194427490234e-01,9.079356193542480469e-01,9.078935980796813965e-01,9.078514575958251953e-01,9.078093767166137695e-01,9.077673554420471191e-01,9.077252149581909180e-01,9.076831340789794922e-01,9.076410531997680664e-01,9.075989723205566406e-01,9.075569510459899902e-01,9.075148701667785645e-01,9.074728488922119141e-01,9.074307084083557129e-01,9.073886871337890625e-01,9.073467254638671875e-01,9.073045849800109863e-01,9.072626233100891113e-01,9.072206020355224609e-01,9.071785211563110352e-01,9.071365594863891602e-01,9.070944786071777344e-01,9.070524573326110840e-01
8.635645508766174316e-01,8.635264635086059570e-01,8.634884357452392578e-01,8.634502887725830078e-01,8.634122610092163086e-01,8.633741736412048340e-01,8.633361458778381348e-01,8.632981181144714355e-01,8.632599711418151855e-01,8.632219433784484863e-01,8.631838560104370117e-01,8.631458282470703125e-01,8.631078004837036133e-01,8.630697131156921387e-01,8.630317449569702148e-01,8.629936575889587402e-01,8.629556298255920410e-01,8.629176616668701172e-01,8.628795742988586426e-01,8.628416061401367188e-01,8.628035187721252441e-01,8.627655506134033203e-01,8.627275228500366211e-01,8.626894950866699219e-01,8.626515269279479980e-01,8.626135587692260742e-01,8.625754714012145996e-01,8.625375628471374512e-01,8.624994754791259766e-01,8.624615669250488281e-01,8.624235987663269043e-01,8.623855710029602051e-01,8.623476028442382812e-01,8.623095750808715820e-01,8.622716665267944336e-01,8.622336983680725098e-01,8.621956706047058105e-01,8.621577620506286621e-01,8.621197342872619629e-01,8.620818257331848145e-01,8.620439171791076660e-01,8.620058894157409668e-01,8.619679808616638184e-01,8.619300723075866699e-01,8.618921041488647461e-01,8.618541955947875977e-01,8.618162274360656738e-01,8.617783188819885254e-01,8.617404103279113770e-01,8.617024421691894531e-01,8.616645932197570801e-01,8.616266250610351562e-01,8.615887165069580078e-01,8.615508675575256348e-01,8.615128993988037109e-01,8.614750504493713379e-01,8.614370822906494141e-01,8.613992333412170410e-01,8.613613843917846680e-01,8.613234162330627441e-01,8.612855672836303711e-01,8.612476587295532227e-01,8.612098097801208496e-01,8.611719608306884766e-01,8.611340522766113281e-01,8.610962033271789551e-01,8.610583543777465820e-01,8.610204458236694336e-01,8.609825968742370605e-01,8.609446883201599121e-01,8.609068989753723145e-01,8.608691096305847168e-01,8.608312010765075684e-01,8.607933521270751953e-01,8.607555031776428223e-01,8.607177138328552246e-01,8.606798648834228516e-01,8.606420159339904785e-01,8.606042265892028809e-01,8.605663180351257324e-01
8.213253021240234375e-01,8.212908506393432617e-01,8.212563991546630859e-01,8.212220072746276855e-01,8.211874961853027344e-01,8.211531043052673340e-01,8.211186528205871582e-01,8.210842609405517578e-01,8.210498690605163574e-01,8.210153579711914062e-01,8.209809660911560059e-01,8.209465742111206055e-01,8.209121227264404297e-01,8.208777308464050293e-01,8.208432793617248535e-01,8.208088874816894531e-01,8.207745552062988281e-01,8.207401037216186523e-01,8.207057118415832520e-01,8.206712603569030762e-01,8.206369280815124512e-01,8.206025362014770508e-01,8.205681443214416504e-01,8.205337524414062500e-01,8.204993605613708496e-01,8.204650282859802246e-01,8.204306364059448242e-01,8.203962445259094238e-01,8.203619122505187988e-01,8.203274607658386230e-01,8.202931284904479980e-01,8.202587962150573730e-01,8.202244043350219727e-01,8.201900720596313477e-01,8.201557993888854980e-01,8.201213479042053223e-01,8.200870752334594727e-01,8.200526833534240723e-01,8.200183510780334473e-01,8.199840188026428223e-01,8.199496865272521973e-01,8.199153542518615723e-01,8.198809623718261719e-01,8.198466897010803223e-01,8.198124170303344727e-01,8.197780251502990723e-01,8.197437524795532227e-01,8.197093605995178223e-01,8.196750879287719727e-01,8.196408152580261230e-01,8.196064829826354980e-01,8.195722103118896484e-01,8.195378184318542480e-01,8.195035457611083984e-01,8.194693326950073242e-01,8.194349408149719238e-01,8.194007277488708496e-01,8.193664550781250000e-01,8.193321228027343750e-01,8.192978501319885254e-01,8.192635178565979004e-01,8.192293047904968262e-01,8.191950321197509766e-01,8.191607594490051270e-01,8.191264867782592773e-01,8.190922141075134277e-01,8.190579414367675781e-01,8.190237283706665039e-01,8.189894556999206543e-01,8.189551830291748047e-01,8.189209103584289551e-01,8.188866972923278809e-01,8.188524842262268066e-01,8.188182115554809570e-01,8.187839984893798828e-01,8.187497854232788086e-01,8.187155127525329590e-01,8.186812996864318848e-01,8.186470270156860352e-01,8.186128139495849609e-01
7.830254435539245605e-01,7.829941511154174805e-01,7.829629182815551758e-01,7.829315662384033203e-01,7.829002737998962402e-01,7.828689217567443848e-01,7.828376889228820801e-01,7.828063964843750000e-01,7.827750444412231445e-01,7.827438116073608398e-01,7.827124595642089844e-01,7.826812267303466797e-01,7.826499342918395996e-01,7.826186418533325195e-01,7.825873494148254395e-01,7.825560569763183594e-01,7.825248241424560547e-01,7.824935913085937500e-01,7.824622392654418945e-01,7.824310064315795898e-01,7.823997139930725098e-01,7.823684811592102051e-01,7.823372483253479004e-01,7.823059558868408203e-01,7.822747230529785156e-01,7.822434902191162109e-01,7.822121977806091309e-01,7.821810245513916016e-01,7.821497321128845215e-01,7.821184992790222168e-01,7.820872664451599121e-01,7.820560336112976074e-01,7.820248007774353027e-01,7.819935083389282227e-01,7.819623351097106934e-01,7.819311618804931641e-01,7.818998694419860840e-01,7.818686962127685547e-01,7.818374037742614746e-01,7.818062305450439453e-01,7.817750573158264160e-01,7.817437648773193359e-01,7.817125916481018066e-01,7.816814184188842773e-01,7.816501855850219727e-01,7.816190123558044434e-01,7.815877795219421387e-01,7.815566062927246094e-01,7.815254330635070801e-01,7.814942002296447754e-01,7.814630270004272461e-01,7.814317941665649414e-01,7.814006805419921875e-01,7.813695073127746582e-01,7.813382744789123535e-01,7.813071012496948242e-01,7.812759280204772949e-01,7.812447547912597656e-01,7.812136411666870117e-01,7.811824083328247070e-01,7.811512947082519531e-01,7.811200618743896484e-01,7.810889482498168945e-01,7.810578346252441406e-01,7.810266017913818359e-01,7.809954881668090820e-01,7.809643745422363281e-01,7.809332013130187988e-01,7.809020876884460449e-01,7.808709144592285156e-01,7.808398008346557617e-01,7.808086872100830078e-01,7.807775139808654785e-01,7.807464003562927246e-01,7.807152271270751953e-01,7.806841135025024414e-01,7.806530594825744629e-01,7.806218862533569336e-01,7.805907726287841797e-01,7.805595993995666504e-01
7.481384873390197754e-01,7.481098771095275879e-01,7.480812668800354004e-01,7.480527162551879883e-01,7.480241060256958008e-01,7.479955554008483887e-01,7.479669451713562012e-01,7.479384541511535645e-01,7.479099035263061523e-01,7.478812932968139648e-01,7.478527426719665527e-01,7.478241920471191406e-01,7.477955818176269531e-01,7.477670907974243164e-01,7.477384805679321289e-01,7.477099299430847168e-01,7.476814389228820801e-01,7.476528286933898926e-01,7.476243376731872559e-01,7.475957274436950684e-01,7.475672364234924316e-01,7.475387454032897949e-01,7.475101351737976074e-01,7.474816441535949707e-01,7.474530339241027832e-01,7.474245429039001465e-01,7.473960518836975098e-01,7.473675012588500977e-01,7.473390102386474609e-01,7.473104000091552734e-01,7.472819089889526367e-01,7.472534179687500000e-01,7.472248673439025879e-01,7.471963763236999512e-01,7.471678853034973145e-01,7.471393346786499023e-01,7.471109032630920410e-01,7.470823526382446289e-01,7.470538616180419922e-01,7.470253705978393555e-01,7.469968795776367188e-01,7.469683885574340820e-01,7.469398379325866699e-01,7.469114065170288086e-01,7.468829154968261719e-01,7.468543648719787598e-01,7.468259334564208984e-01,7.467974424362182617e-01,7.467689514160156250e-01,7.467405200004577637e-01,7.467119693756103516e-01,7.466835379600524902e-01,7.466550469398498535e-01,7.466266155242919922e-01,7.465981245040893555e-01,7.465696334838867188e-01,7.465412020683288574e-01,7.465127706527709961e-01,7.464842796325683594e-01,7.464558482170104980e-01,7.464273571968078613e-01,7.463989257812500000e-01,7.463704943656921387e-01,7.463420033454895020e-01,7.463135719299316406e-01,7.462850809097290039e-01,7.462567090988159180e-01,7.462282776832580566e-01,7.461997866630554199e-01,7.461714148521423340e-01,7.461429238319396973e-01,7.461144924163818359e-01,7.460861206054687500e-01,7.460576295852661133e-01,7.460292577743530273e-01,7.460008263587951660e-01,7.459723949432373047e-01,7.459440231323242188e-01,7.459155321121215820e-01,7.458871603012084961e-01
7.162275314331054688e-01,7.162013649940490723e-01,7.161751985549926758e-01,7.161489725112915039e-01,7.161228060722351074e-01,7.160965800285339355e-01,7.160704135894775391e-01,7.160442471504211426e-01,7.160180211067199707e-01,7.159918546676635742e-01,7.159656286239624023e-01,7.159395217895507812e-01,7.159133553504943848e-01,7.158871293067932129e-01,7.158610224723815918e-01,7.158347964286804199e-01,7.158086299896240234e-01,7.157825231552124023e-01,7.157562971115112305e-01,7.157301902770996094e-01,7.157039642333984375e-01,7.156778573989868164e-01,7.156516909599304199e-01,7.156255245208740234e-01,7.155993580818176270e-01,7.155732512474060059e-01,7.155470848083496094e-01,7.155209779739379883e-01,7.154947519302368164e-01,7.154686450958251953e-01,7.154425382614135742e-01,7.154163718223571777e-01,7.153902649879455566e-01,7.153640985488891602e-01,7.153379917144775391e-01,7.153118848800659180e-01,7.152857184410095215e-01,7.152596116065979004e-01,7.152334451675415039e-01,7.152073383331298828e-01,7.151812314987182617e-01,7.151550650596618652e-01,7.151289582252502441e-01,7.151029109954833984e-01,7.150767445564270020e-01,7.150506377220153809e-01,7.150245308876037598e-01,7.149984240531921387e-01,7.149723172187805176e-01,7.149462103843688965e-01,7.149201035499572754e-01,7.148939967155456543e-01,7.148678898811340332e-01,7.148418426513671875e-01,7.148156762123107910e-01,7.147896289825439453e-01,7.147635221481323242e-01,7.147374153137207031e-01,7.147113680839538574e-01,7.146852612495422363e-01,7.146592140197753906e-01,7.146331071853637695e-01,7.146070003509521484e-01,7.145809531211853027e-01,7.145548462867736816e-01,7.145287990570068359e-01,7.145027518272399902e-01,7.144766449928283691e-01,7.144505977630615234e-01,7.144244909286499023e-01,7.143984436988830566e-01,7.143723964691162109e-01,7.143463492393493652e-01,7.143203020095825195e-01,7.142941951751708984e-01,7.142681479454040527e-01,7.142421603202819824e-01,7.142160534858703613e-01,7.141900062561035156e-01,7.141639590263366699e-01
6.869275569915771484e-01,6.869034171104431152e-01,6.868793368339538574e-01,6.868552565574645996e-01,6.868311762809753418e-01,6.868070960044860840e-01,6.867829561233520508e-01,6.867588758468627930e-01,6.867348551750183105e-01,6.867107152938842773e-01,6.866866350173950195e-01,6.866626143455505371e-01,6.866384744644165039e-01,6.866144537925720215e-01,6.865903139114379883e-01,6.865662932395935059e-01,6.865422129631042480e-01,6.865181326866149902e-01,6.864940524101257324e-01,6.864699721336364746e-01,6.864459514617919922e-01,6.864218711853027344e-01,6.863977909088134766e-01,6.863737702369689941e-01,6.863496899604797363e-01,6.863256096839904785e-01,6.863015890121459961e-01,6.862775087356567383e-01,6.862534880638122559e-01,6.862294077873229980e-01,6.862053871154785156e-01,6.861813664436340332e-01,6.861572861671447754e-01,6.861332654953002930e-01,6.861092448234558105e-01,6.860851645469665527e-01,6.860611438751220703e-01,6.860370635986328125e-01,6.860130429267883301e-01,6.859890222549438477e-01,6.859650015830993652e-01,6.859409809112548828e-01,6.859169006347656250e-01,6.858928799629211426e-01,6.858689188957214355e-01,6.858448386192321777e-01,6.858208775520324707e-01,6.857967972755432129e-01,6.857727766036987305e-01,6.857488155364990234e-01,6.857247352600097656e-01,6.857007741928100586e-01,6.856766939163208008e-01,6.856527328491210938e-01,6.856287717819213867e-01,6.856046915054321289e-01,6.855807304382324219e-01,6.855567693710327148e-01,6.855326890945434570e-01,6.855087280273437500e-01,6.854847073554992676e-01,6.854607462882995605e-01,6.854367852210998535e-01,6.854127049446105957e-01,6.853887438774108887e-01,6.853647232055664062e-01,6.853407621383666992e-01,6.853168010711669922e-01,6.852927803993225098e-01,6.852688193321228027e-01,6.852447986602783203e-01,6.852208375930786133e-01,6.851969361305236816e-01,6.851729154586791992e-01,6.851489543914794922e-01,6.851249933242797852e-01,6.851009726524353027e-01,6.850770711898803711e-01,6.850530505180358887e-01,6.850290894508361816e-01
6.599305272102355957e-01,6.599082946777343750e-01,6.598861217498779297e-01,6.598638296127319336e-01,6.598415970802307129e-01,6.598193645477294922e-01,6.597971320152282715e-01,6.597749590873718262e-01,6.597526669502258301e-01,6.597304940223693848e-01,6.597082018852233887e-01,6.596860289573669434e-01,6.596637964248657227e-01,6.596415638923645020e-01,6.596193313598632812e-01,6.595970988273620605e-01,6.595749258995056152e-01,6.595526933670043945e-01,6.595304608345031738e-01,6.595082879066467285e-01,6.594860553741455078e-01,6.594638228416442871e-01,6.594416499137878418e-01,6.594194173812866211e-01,6.593972444534301758e-01,6.593750715255737305e-01,6.593528389930725098e-01,6.593306064605712891e-01,6.593083739280700684e-01,6.592862010002136230e-01,6.592640280723571777e-01,6.592417955398559570e-01,6.592196226119995117e-01,6.591974496841430664e-01,6.591752767562866211e-01,6.591531038284301758e-01,6.591308712959289551e-01,6.591086983680725098e-01,6.590864658355712891e-01,6.590642929077148438e-01,6.590421795845031738e-01,6.590199470520019531e-01,6.589977741241455078e-01,6.589756608009338379e-01,6.589534282684326172e-01,6.589312553405761719e-01,6.589090824127197266e-01,6.588869094848632812e-01,6.588647961616516113e-01,6.588425636291503906e-01,6.588204503059387207e-01,6.587982177734375000e-01,6.587761044502258301e-01,6.587539315223693848e-01,6.587317585945129395e-01,6.587095856666564941e-01,6.586874127388000488e-01,6.586652994155883789e-01,6.586431264877319336e-01,6.586209535598754883e-01,6.585988402366638184e-01,6.585766673088073730e-01,6.585544943809509277e-01,6.585323810577392578e-01,6.585102081298828125e-01,6.584880948066711426e-01,6.584659814834594727e-01,6.584438085556030273e-01,6.584216952323913574e-01,6.583995223045349121e-01,6.583774089813232422e-01,6.583552956581115723e-01,6.583331227302551270e-01,6.583110094070434570e-01,6.582888364791870117e-01,6.582667231559753418e-01,6.582446098327636719e-01,6.582224369049072266e-01,6.582003831863403320e-01,6.581782102584838867e-01
6.349753737449645996e-01,6.349547505378723145e-01,6.349341869354248047e-01,6.349136233329772949e-01,6.348930001258850098e-01,6.348724365234375000e-01,6.348518133163452148e-01,6.348312497138977051e-01,6.348106861114501953e-01,6.347900629043579102e-01,6.347694993019104004e-01,6.347489356994628906e-01,6.347283720970153809e-01,6.347078084945678711e-01,6.346871852874755859e-01,6.346666216850280762e-01,6.346461176872253418e-01,6.346254944801330566e-01,6.346049308776855469e-01,6.345843672752380371e-01,6.345638036727905273e-01,6.345432400703430176e-01,6.345226764678955078e-01,6.345021128654479980e-01,6.344815492630004883e-01,6.344609856605529785e-01,6.344404816627502441e-01,6.344198584556579590e-01,6.343993544578552246e-01,6.343787908554077148e-01,6.343582272529602051e-01,6.343377232551574707e-01,6.343171000480651855e-01,6.342965960502624512e-01,6.342760920524597168e-01,6.342554688453674316e-01,6.342349648475646973e-01,6.342144012451171875e-01,6.341938972473144531e-01,6.341733336448669434e-01,6.341527700424194336e-01,6.341322660446166992e-01,6.341117024421691895e-01,6.340911984443664551e-01,6.340706944465637207e-01,6.340501308441162109e-01,6.340296268463134766e-01,6.340090632438659668e-01,6.339885592460632324e-01,6.339680552482604980e-01,6.339474916458129883e-01,6.339269876480102539e-01,6.339064240455627441e-01,6.338859200477600098e-01,6.338654160499572754e-01,6.338449120521545410e-01,6.338244080543518066e-01,6.338039040565490723e-01,6.337833404541015625e-01,6.337628364562988281e-01,6.337423324584960938e-01,6.337218284606933594e-01,6.337013244628906250e-01,6.336808204650878906e-01,6.336603164672851562e-01,6.336397528648376465e-01,6.336193084716796875e-01,6.335988044738769531e-01,6.335782408714294434e-01,6.335577964782714844e-01,6.335372328758239746e-01,6.335167884826660156e-01,6.334962844848632812e-01,6.334757804870605469e-01,6.334553360939025879e-01,6.334348320960998535e-01,6.334143280982971191e-01,6.333938241004943848e-01,6.333733201026916504e-01,6.333528757095336914e-01
6.118387579917907715e-01,6.118196249008178711e-01,6.118005514144897461e-01,6.117814183235168457e-01,6.117622852325439453e-01,6.117431521415710449e-01,6.117240786552429199e-01,6.117049455642700195e-01,6.116858124732971191e-01,6.116667389869689941e-01,6.116476058959960938e-01,6.116285324096679688e-01,6.116094589233398438e-01,6.115903258323669434e-01,6.115712523460388184e-01,6.115521192550659180e-01,6.115330457687377930e-01,6.115139126777648926e-01,6.114948391914367676e-01,6.114757657051086426e-01,6.114566326141357422e-01,6.114375591278076172e-01,6.114184856414794922e-01,6.113993525505065918e-01,6.113802790641784668e-01,6.113612055778503418e-01,6.113420724868774414e-01,6.113229990005493164e-01,6.113039255142211914e-01,6.112848520278930664e-01,6.112657785415649414e-01,6.112467050552368164e-01,6.112276315689086914e-01,6.112084984779357910e-01,6.111894249916076660e-01,6.111704111099243164e-01,6.111512780189514160e-01,6.111322045326232910e-01,6.111131310462951660e-01,6.110940575599670410e-01,6.110750436782836914e-01,6.110559105873107910e-01,6.110368967056274414e-01,6.110178232192993164e-01,6.109987497329711914e-01,6.109796762466430664e-01,6.109606027603149414e-01,6.109415292739868164e-01,6.109225153923034668e-01,6.109034419059753418e-01,6.108843684196472168e-01,6.108652949333190918e-01,6.108462810516357422e-01,6.108272075653076172e-01,6.108081340789794922e-01,6.107891201972961426e-01,6.107700467109680176e-01,6.107509732246398926e-01,6.107319593429565430e-01,6.107128858566284180e-01,6.106938719749450684e-01,6.106747984886169434e-01,6.106557846069335938e-01,6.106367111206054688e-01,6.106176376342773438e-01,6.105986237525939941e-01,6.105796098709106445e-01,6.105605363845825195e-01,6.105415225028991699e-01,6.105224490165710449e-01,6.105034351348876953e-01,6.104844212532043457e-01,6.104654073715209961e-01,6.104463934898376465e-01,6.104273200035095215e-01,6.104083061218261719e-01,6.103892922401428223e-01,6.103702187538146973e-01,6.103512048721313477e-01,6.103321909904479980e-01
5.903289318084716797e-01,5.903111100196838379e-01,5.902932882308959961e-01,5.902755260467529297e-01,5.902577042579650879e-01,5.902399420738220215e-01,5.902221202850341797e-01,5.902043581008911133e-01,5.901865959167480469e-01,5.901687741279602051e-01,5.901510119438171387e-01,5.901331901550292969e-01,5.901154279708862305e-01,5.900976657867431641e-01,5.900798439979553223e-01,5.900620818138122559e-01,5.900443196296691895e-01,5.900264978408813477e-01,5.900087356567382812e-01,5.899909138679504395e-01,5.899731516838073730e-01,5.899554491043090820e-01,5.899376273155212402e-01,5.899198651313781738e-01,5.899020433425903320e-01,5.898843407630920410e-01,5.898665785789489746e-01,5.898488163948059082e-01,5.898310542106628418e-01,5.898132324218750000e-01,5.897954702377319336e-01,5.897777676582336426e-01,5.897599458694458008e-01,5.897422432899475098e-01,5.897244811058044434e-01,5.897066593170166016e-01,5.896889567375183105e-01,5.896711349487304688e-01,5.896534323692321777e-01,5.896356701850891113e-01,5.896179080009460449e-01,5.896001458168029785e-01,5.895823836326599121e-01,5.895646810531616211e-01,5.895469188690185547e-01,5.895291566848754883e-01,5.895113945007324219e-01,5.894936323165893555e-01,5.894759297370910645e-01,5.894581675529479980e-01,5.894404053688049316e-01,5.894227027893066406e-01,5.894049406051635742e-01,5.893871784210205078e-01,5.893694758415222168e-01,5.893517136573791504e-01,5.893340110778808594e-01,5.893162488937377930e-01,5.892984867095947266e-01,5.892807841300964355e-01,5.892630219459533691e-01,5.892453193664550781e-01,5.892276167869567871e-01,5.892098546028137207e-01,5.891921520233154297e-01,5.891743898391723633e-01,5.891566872596740723e-01,5.891389846801757812e-01,5.891212224960327148e-01,5.891035199165344238e-01,5.890857577323913574e-01,5.890680551528930664e-01,5.890503525733947754e-01,5.890325903892517090e-01,5.890148878097534180e-01,5.889971852302551270e-01,5.889794826507568359e-01,5.889617800712585449e-01,5.889440178871154785e-01,5.889263153076171875e-01
5.702800750732421875e-01,5.702635049819946289e-01,5.702469348907470703e-01,5.702303051948547363e-01,5.702136754989624023e-01,5.701970458030700684e-01,5.701804757118225098e-01,5.701639056205749512e-01,5.701472759246826172e-01,5.701307058334350586e-01,5.701140761375427246e-01,5.700974464416503906e-01,5.700808763504028320e-01,5.700642466545104980e-01,5.700476765632629395e-01,5.700310468673706055e-01,5.700144767761230469e-01,5.699979066848754883e-01,5.699812769889831543e-01,5.699647068977355957e-01,5.699481368064880371e-01,5.699315667152404785e-01,5.699149966239929199e-01,5.698983669281005859e-01,5.698817968368530273e-01,5.698652267456054688e-01,5.698485970497131348e-01,5.698320269584655762e-01,5.698154568672180176e-01,5.697988867759704590e-01,5.697823166847229004e-01,5.697656869888305664e-01,5.697491168975830078e-01,5.697325468063354492e-01,5.697159767150878906e-01,5.696994066238403320e-01,5.696828365325927734e-01,5.696662664413452148e-01,5.696496367454528809e-01,5.696331262588500977e-01,5.696165561676025391e-01,5.695999860763549805e-01,5.695834159851074219e-01,5.695668458938598633e-01,5.695502758026123047e-01,5.695337057113647461e-01,5.695171356201171875e-01,5.695005655288696289e-01,5.694840550422668457e-01,5.694674253463745117e-01,5.694509148597717285e-01,5.694342851638793945e-01,5.694177746772766113e-01,5.694012045860290527e-01,5.693846344947814941e-01,5.693681240081787109e-01,5.693515539169311523e-01,5.693349838256835938e-01,5.693184733390808105e-01,5.693019032478332520e-01,5.692853331565856934e-01,5.692687630653381348e-01,5.692522525787353516e-01,5.692356824874877930e-01,5.692191123962402344e-01,5.692026019096374512e-01,5.691860914230346680e-01,5.691695213317871094e-01,5.691529512405395508e-01,5.691363811492919922e-01,5.691198706626892090e-01,5.691033601760864258e-01,5.690867900848388672e-01,5.690702795982360840e-01,5.690537095069885254e-01,5.690371990203857422e-01,5.690206885337829590e-01,5.690041184425354004e-01,5.689876079559326172e-01,5.689710378646850586e-01
