5.000000000000000000e+00,5.000000000000000000e+00,5.000000000000000000e+00,5.000000000000000000e+00,5.000000000000000000e+00,5.000000000000000000e+00,5.000000000000000000e+00,5.000000000000000000e+00,5.000000000000000000e+00,5.000000000000000000e+00,5.000000000000000000e+00,5.000000000000000000e+00,5.000000000000000000e+00,5.000000000000000000e+00,5.000000000000000000e+00,5.000000000000000000e+00,5.000000000000000000e+00,5.000000000000000000e+00,5.000000000000000000e+00,5.000000000000000000e+00,5.000000000000000000e+00,5.000000000000000000e+00,5.000000000000000000e+00,5.000000000000000000e+00,5.000000000000000000e+00,5.000000000000000000e+00,5.000000000000000000e+00,5.000000000000000000e+00,5.000000000000000000e+00,5.000000000000000000e+00,5.000000000000000000e+00,5.000000000000000000e+00,5.000000000000000000e+00,5.000000000000000000e+00,5.000000000000000000e+00,5.000000000000000000e+00,5.000000000000000000e+00,5.000000000000000000e+00,5.000000000000000000e+00,5.000000000000000000e+00,4.875590324401855469e+00,4.682175159454345703e+00,4.503520011901855469e+00,4.337997436523437500e+00,4.184210777282714844e+00,4.040954589843750000e+00,3.907183647155761719e+00,3.781985044479370117e+00,3.664561033248901367e+00,3.554208755493164062e+00,3.450308799743652344e+00,3.352310419082641602e+00,1.280468463897705078e+00,1.243897795677185059e+00,1.217014074325561523e+00,1.204438090324401855e+00,1.200964212417602539e+00,1.197888731956481934e+00,1.195490598678588867e+00,1.223423361778259277e+00,2.669835329055786133e+00,2.610778570175170898e+00,2.554277896881103516e+00,1.182897090911865234e+00,1.151244521141052246e+00,1.125820279121398926e+00,1.107557892799377441e+00,1.090767264366149902e+00,1.077259898185729980e+00,1.064082980155944824e+00,1.061378121376037598e+00,1.062393426895141602e+00,1.062669515609741211e+00,2.063138484954833984e+00,2.027694225311279297e+00,1.993447065353393555e+00,1.960337758064270020e+00,1.928310394287109375e+00,1.897312521934509277e+00,1.867295384407043457e+00
5.000000000000000000e+00,5.000000000000000000e+00,5.000000000000000000e+00,5.000000000000000000e+00,5.000000000000000000e+00,5.000000000000000000e+00,5.000000000000000000e+00,5.000000000000000000e+00,5.000000000000000000e+00,5.000000000000000000e+00,5.000000000000000000e+00,5.000000000000000000e+00,5.000000000000000000e+00,5.000000000000000000e+00,5.000000000000000000e+00,5.000000000000000000e+00,5.000000000000000000e+00,5.000000000000000000e+00,5.000000000000000000e+00,5.000000000000000000e+00,5.000000000000000000e+00,5.000000000000000000e+00,5.000000000000000000e+00,5.000000000000000000e+00,5.000000000000000000e+00,5.000000000000000000e+00,5.000000000000000000e+00,5.000000000000000000e+00,5.000000000000000000e+00,5.000000000000000000e+00,5.000000000000000000e+00,5.000000000000000000e+00,5.000000000000000000e+00,5.000000000000000000e+00,5.000000000000000000e+00,5.000000000000000000e+00,5.000000000000000000e+00,5.000000000000000000e+00,5.000000000000000000e+00,5.000000000000000000e+00,4.875732898712158203e+00,4.682306766510009766e+00,4.503641605377197266e+00,4.338110446929931641e+00,4.184316158294677734e+00,4.041052818298339844e+00,3.907274961471557617e+00,3.782071113586425781e+00,3.664641380310058594e+00,3.554284811019897461e+00,3.450380086898803711e+00,3.352378129959106445e+00,1.286446928977966309e+00,1.249824762344360352e+00,1.222460985183715820e+00,1.210227966308593750e+00,1.206720709800720215e+00,1.203233718872070312e+00,1.200765013694763184e+00,1.234027028083801270e+00,2.669878244400024414e+00,2.610819578170776367e+00,2.554317235946655273e+00,1.188297390937805176e+00,1.155689597129821777e+00,1.124823927879333496e+00,1.104964137077331543e+00,1.088709354400634766e+00,1.075252532958984375e+00,1.062124371528625488e+00,1.050767898559570312e+00,1.051762938499450684e+00,1.052760004997253418e+00,1.053758740425109863e+00,2.027718782424926758e+00,1.993471026420593262e+00,1.960361003875732422e+00,1.928332686424255371e+00,1.897333979606628418e+00,1.867316365242004395e+00
5.000000000000000000e+00,5.000000000000000000e+00,5.000000000000000000e+00,5.000000000000000000e+00,5.000000000000000000e+00,5.000000000000000000e+00,5.000000000000000000e+00,5.000000000000000000e+00,5.000000000000000000e+00,5.000000000000000000e+00,5.000000000000000000e+00,5.000000000000000000e+00,5.000000000000000000e+00,5.000000000000000000e+00,5.000000000000000000e+00,5.000000000000000000e+00,5.000000000000000000e+00,5.000000000000000000e+00,5.000000000000000000e+00,5.000000000000000000e+00,5.000000000000000000e+00,5.000000000000000000e+00,5.000000000000000000e+00,5.000000000000000000e+00,5.000000000000000000e+00,5.000000000000000000e+00,5.000000000000000000e+00,5.000000000000000000e+00,5.000000000000000000e+00,5.000000000000000000e+00,5.000000000000000000e+00,5.000000000000000000e+00,5.000000000000000000e+00,5.000000000000000000e+00,5.000000000000000000e+00,5.000000000000000000e+00,5.000000000000000000e+00,5.000000000000000000e+00,5.000000000000000000e+00,5.000000000000000000e+00,4.875875473022460938e+00,4.682438373565673828e+00,4.503763675689697266e+00,4.338223457336425781e+00,4.184421062469482422e+00,4.041151046752929688e+00,3.907366991043090820e+00,3.782156705856323242e+00,3.664722204208374023e+00,3.554360389709472656e+00,3.450451612472534180e+00,3.352445363998413086e+00,1.292709589004516602e+00,1.255739092826843262e+00,1.228126049041748047e+00,1.215829968452453613e+00,1.212532520294189453e+00,1.209012031555175781e+00,1.213751316070556641e+00,1.244815826416015625e+00,2.669920921325683594e+00,2.610860586166381836e+00,2.554356336593627930e+00,2.500246047973632812e+00,1.161309599876403809e+00,1.129067063331604004e+00,1.102382540702819824e+00,1.086659073829650879e+00,1.073252677917480469e+00,1.060173034667968750e+00,1.047425985336303711e+00,1.043552756309509277e+00,1.045287370681762695e+00,1.046756148338317871e+00,2.027743577957153320e+00,1.993494987487792969e+00,1.960384130477905273e+00,1.928354859352111816e+00,1.897355675697326660e+00,1.867337346076965332e+00
5.000000000000000000e+00,5.000000000000000000e+00,5.000000000000000000e+00,5.000000000000000000e+00,5.000000000000000000e+00,5.000000000000000000e+00,5.000000000000000000e+00,5.000000000000000000e+00,5.000000000000000000e+00,5.000000000000000000e+00,5.000000000000000000e+00,5.000000000000000000e+00,5.000000000000000000e+00,5.000000000000000000e+00,5.000000000000000000e+00,5.000000000000000000e+00,5.000000000000000000e+00,5.000000000000000000e+00,5.000000000000000000e+00,5.000000000000000000e+00,5.000000000000000000e+00,5.000000000000000000e+00,5.000000000000000000e+00,5.000000000000000000e+00,5.000000000000000000e+00,5.000000000000000000e+00,5.000000000000000000e+00,5.000000000000000000e+00,5.000000000000000000e+00,5.000000000000000000e+00,5.000000000000000000e+00,5.000000000000000000e+00,5.000000000000000000e+00,5.000000000000000000e+00,5.000000000000000000e+00,5.000000000000000000e+00,5.000000000000000000e+00,5.000000000000000000e+00,5.000000000000000000e+00,5.000000000000000000e+00,4.876018524169921875e+00,4.682570457458496094e+00,4.503885269165039062e+00,4.338336467742919922e+00,4.184526443481445312e+00,4.041248798370361328e+00,3.907458543777465820e+00,3.782242774963378906e+00,3.664802789688110352e+00,3.554436445236206055e+00,3.450523138046264648e+00,3.352513074874877930e+00,1.300715565681457520e+00,1.262265205383300781e+00,1.234367609024047852e+00,1.219725131988525391e+00,1.216561317443847656e+00,1.213413834571838379e+00,1.224293112754821777e+00,1.255824923515319824e+00,2.669963836669921875e+00,2.610901355743408203e+00,2.554395437240600586e+00,2.500283479690551758e+00,1.173408865928649902e+00,1.137927412986755371e+00,1.104528784751892090e+00,1.084451198577880859e+00,1.070736885070800781e+00,1.057963371276855469e+00,1.045897960662841797e+00,1.036039710044860840e+00,1.038218259811401367e+00,1.040405988693237305e+00,2.027768135070800781e+00,1.993518948554992676e+00,1.960407018661499023e+00,1.928377270698547363e+00,1.897377371788024902e+00,1.867358446121215820e+00
5.000000000000000000e+00,5.000000000000000000e+00,5.000000000000000000e+00,5.000000000000000000e+00,5.000000000000000000e+00,5.000000000000000000e+00,5.000000000000000000e+00,5.000000000000000000e+00,5.000000000000000000e+00,5.000000000000000000e+00,5.000000000000000000e+00,5.000000000000000000e+00,5.000000000000000000e+00,5.000000000000000000e+00,5.000000000000000000e+00,5.000000000000000000e+00,5.000000000000000000e+00,5.000000000000000000e+00,5.000000000000000000e+00,5.000000000000000000e+00,5.000000000000000000e+00,5.000000000000000000e+00,5.000000000000000000e+00,5.000000000000000000e+00,5.000000000000000000e+00,5.000000000000000000e+00,5.000000000000000000e+00,5.000000000000000000e+00,5.000000000000000000e+00,5.000000000000000000e+00,5.000000000000000000e+00,5.000000000000000000e+00,5.000000000000000000e+00,5.000000000000000000e+00,5.000000000000000000e+00,5.000000000000000000e+00,5.000000000000000000e+00,5.000000000000000000e+00,5.000000000000000000e+00,5.000000000000000000e+00,4.876161575317382812e+00,4.682702064514160156e+00,4.504007339477539062e+00,4.338449954986572266e+00,4.184631347656250000e+00,4.041347026824951172e+00,3.907550334930419922e+00,3.782328605651855469e+00,3.664883613586425781e+00,3.554512262344360352e+00,3.450594663619995117e+00,3.352580308914184570e+00,1.308821439743041992e+00,1.268859386444091797e+00,1.240456461906433105e+00,1.223837733268737793e+00,1.220461130142211914e+00,1.217293500900268555e+00,1.235137701034545898e+00,2.731805086135864258e+00,2.670006513595581055e+00,2.610942363739013672e+00,2.554434537887573242e+00,2.500321149826049805e+00,2.448452711105346680e+00,1.149541854858398438e+00,1.115468144416809082e+00,1.081483840942382812e+00,1.069052100181579590e+00,1.057595252990722656e+00,1.046069979667663574e+00,1.036667108535766602e+00,1.038283109664916992e+00,1.040539622306823730e+00,2.027792930603027344e+00,1.993542790412902832e+00,1.960430145263671875e+00,1.928399682044982910e+00,1.897399067878723145e+00,1.867379188537597656e+00
5.000000000000000000e+00,5.000000000000000000e+00,5.000000000000000000e+00,5.000000000000000000e+00,5.000000000000000000e+00,5.000000000000000000e+00,5.000000000000000000e+00,5.000000000000000000e+00,5.000000000000000000e+00,5.000000000000000000e+00,5.000000000000000000e+00,5.000000000000000000e+00,5.000000000000000000e+00,5.000000000000000000e+00,5.000000000000000000e+00,5.000000000000000000e+00,5.000000000000000000e+00,5.000000000000000000e+00,5.000000000000000000e+00,5.000000000000000000e+00,5.000000000000000000e+00,5.000000000000000000e+00,5.000000000000000000e+00,5.000000000000000000e+00,5.000000000000000000e+00,5.000000000000000000e+00,5.000000000000000000e+00,5.000000000000000000e+00,5.000000000000000000e+00,5.000000000000000000e+00,5.000000000000000000e+00,5.000000000000000000e+00,5.000000000000000000e+00,5.000000000000000000e+00,5.000000000000000000e+00,5.000000000000000000e+00,5.000000000000000000e+00,5.000000000000000000e+00,5.000000000000000000e+00,5.000000000000000000e+00,4.876304149627685547e+00,4.682833671569824219e+00,4.504129409790039062e+00,4.338562965393066406e+00,4.184736728668212891e+00,4.041445255279541016e+00,3.907641887664794922e+00,3.782414674758911133e+00,3.664963960647583008e+00,3.554588317871093750e+00,3.450665950775146484e+00,3.352648019790649414e+00,1.314895272254943848e+00,1.275523066520690918e+00,1.246155023574829102e+00,1.229462265968322754e+00,1.224385976791381836e+00,1.221197962760925293e+00,1.246176123619079590e+00,2.731850147247314453e+00,2.670049428939819336e+00,2.610983371734619141e+00,2.554473876953125000e+00,2.500358581542968750e+00,2.448488712310791016e+00,2.398726940155029297e+00,1.124768972396850586e+00,1.082778096199035645e+00,1.071006894111633301e+00,1.058705210685729980e+00,1.046714544296264648e+00,1.039477705955505371e+00,1.041020989418029785e+00,1.042569041252136230e+00,2.027817726135253906e+00,1.993566513061523438e+00,1.960453271865844727e+00,1.928422093391418457e+00,1.897420525550842285e+00,1.867400169372558594e+00
5.000000000000000000e+00,5.000000000000000000e+00,5.000000000000000000e+00,5.000000000000000000e+00,5.000000000000000000e+00,5.000000000000000000e+00,5.000000000000000000e+00,5.000000000000000000e+00,5.000000000000000000e+00,5.000000000000000000e+00,5.000000000000000000e+00,5.000000000000000000e+00,5.000000000000000000e+00,5.000000000000000000e+00,5.000000000000000000e+00,5.000000000000000000e+00,5.000000000000000000e+00,5.000000000000000000e+00,5.000000000000000000e+00,5.000000000000000000e+00,5.000000000000000000e+00,5.000000000000000000e+00,5.000000000000000000e+00,5.000000000000000000e+00,5.000000000000000000e+00,5.000000000000000000e+00,5.000000000000000000e+00,5.000000000000000000e+00,5.000000000000000000e+00,5.000000000000000000e+00,5.000000000000000000e+00,5.000000000000000000e+00,5.000000000000000000e+00,5.000000000000000000e+00,5.000000000000000000e+00,5.000000000000000000e+00,5.000000000000000000e+00,5.000000000000000000e+00,5.000000000000000000e+00,5.000000000000000000e+00,4.876447200775146484e+00,4.682965278625488281e+00,4.504251003265380859e+00,4.338675975799560547e+00,4.184842109680175781e+00,4.041543483734130859e+00,3.907733678817749023e+00,3.782500743865966797e+00,3.665045022964477539e+00,3.554663896560668945e+00,3.450737714767456055e+00,3.352715492248535156e+00,1.320789337158203125e+00,1.282256960868835449e+00,1.251906275749206543e+00,1.235138654708862305e+00,1.228336215019226074e+00,1.225802898406982422e+00,1.254244565963745117e+00,2.731894731521606445e+00,2.670092344284057617e+00,2.611024379730224609e+00,2.554513216018676758e+00,2.500396251678466797e+00,2.448524713516235352e+00,2.398761510848999023e+00,1.131272196769714355e+00,1.085513949394226074e+00,1.073578357696533203e+00,1.061902523040771484e+00,1.049960017204284668e+00,1.044359207153320312e+00,1.045917153358459473e+00,1.047479748725891113e+00,2.027842283248901367e+00,1.993590474128723145e+00,1.960476398468017578e+00,1.928444385528564453e+00,1.897442221641540527e+00,1.867421150207519531e+00
5.000000000000000000e+00,5.000000000000000000e+00,5.000000000000000000e+00,5.000000000000000000e+00,5.000000000000000000e+00,5.000000000000000000e+00,5.000000000000000000e+00,5.000000000000000000e+00,5.000000000000000000e+00,5.000000000000000000e+00,5.000000000000000000e+00,5.000000000000000000e+00,5.000000000000000000e+00,5.000000000000000000e+00,5.000000000000000000e+00,5.000000000000000000e+00,5.000000000000000000e+00,5.000000000000000000e+00,5.000000000000000000e+00,5.000000000000000000e+00,5.000000000000000000e+00,5.000000000000000000e+00,5.000000000000000000e+00,5.000000000000000000e+00,5.000000000000000000e+00,5.000000000000000000e+00,5.000000000000000000e+00,5.000000000000000000e+00,5.000000000000000000e+00,5.000000000000000000e+00,5.000000000000000000e+00,5.000000000000000000e+00,5.000000000000000000e+00,5.000000000000000000e+00,5.000000000000000000e+00,5.000000000000000000e+00,5.000000000000000000e+00,5.000000000000000000e+00,5.000000000000000000e+00,5.000000000000000000e+00,4.876589775085449219e+00,4.683096885681152344e+00,4.504373073577880859e+00,4.338788986206054688e+00,4.184947490692138672e+00,4.041641712188720703e+00,3.907825708389282227e+00,3.782586574554443359e+00,3.665125846862792969e+00,3.554739952087402344e+00,3.450809001922607422e+00,3.352782964706420898e+00,1.326736569404602051e+00,1.289379000663757324e+00,1.257710933685302734e+00,1.240867853164672852e+00,1.232312083244323730e+00,1.236674427986145020e+00,1.261274695396423340e+00,2.731939792633056641e+00,2.670135259628295898e+00,2.611065387725830078e+00,2.554552316665649414e+00,2.500433921813964844e+00,2.448560714721679688e+00,2.398796319961547852e+00,1.129437446594238281e+00,1.089561939239501953e+00,1.077537775039672852e+00,1.065775990486145020e+00,1.053550720214843750e+00,1.049524426460266113e+00,1.050859570503234863e+00,1.052436947822570801e+00,2.027867078781127930e+00,1.993614315986633301e+00,1.960499525070190430e+00,1.928466558456420898e+00,1.897463798522949219e+00,1.867442131042480469e+00
5.000000000000000000e+00,5.000000000000000000e+00,5.000000000000000000e+00,5.000000000000000000e+00,5.000000000000000000e+00,5.000000000000000000e+00,5.000000000000000000e+00,5.000000000000000000e+00,5.000000000000000000e+00,5.000000000000000000e+00,5.000000000000000000e+00,5.000000000000000000e+00,5.000000000000000000e+00,5.000000000000000000e+00,5.000000000000000000e+00,5.000000000000000000e+00,5.000000000000000000e+00,5.000000000000000000e+00,5.000000000000000000e+00,5.000000000000000000e+00,5.000000000000000000e+00,5.000000000000000000e+00,5.000000000000000000e+00,5.000000000000000000e+00,5.000000000000000000e+00,5.000000000000000000e+00,5.000000000000000000e+00,5.000000000000000000e+00,5.000000000000000000e+00,5.000000000000000000e+00,5.000000000000000000e+00,5.000000000000000000e+00,5.000000000000000000e+00,5.000000000000000000e+00,5.000000000000000000e+00,5.000000000000000000e+00,5.000000000000000000e+00,5.000000000000000000e+00,5.000000000000000000e+00,5.000000000000000000e+00,4.876732826232910156e+00,4.683228492736816406e+00,4.504494667053222656e+00,4.338901996612548828e+00,4.185052394866943359e+00,4.041739463806152344e+00,3.907917261123657227e+00,3.782672643661499023e+00,3.665206193923950195e+00,3.554816007614135742e+00,3.450880765914916992e+00,3.352850675582885742e+00,1.333220720291137695e+00,1.296900033950805664e+00,1.263569593429565430e+00,1.246650218963623047e+00,1.237612009048461914e+00,1.245471835136413574e+00,1.268383979797363281e+00,2.731984376907348633e+00,2.670178174972534180e+00,2.611106157302856445e+00,2.554591655731201172e+00,2.500471353530883789e+00,2.448596954345703125e+00,2.398830652236938477e+00,1.124037265777587891e+00,1.093640327453613281e+00,1.081526398658752441e+00,1.067544341087341309e+00,1.059448361396789551e+00,1.055377006530761719e+00,1.055848836898803711e+00,2.063343048095703125e+00,2.027891874313354492e+00,1.993638277053833008e+00,1.960522413253784180e+00,1.928488969802856445e+00,1.897485494613647461e+00,1.867463111877441406e+00
5.000000000000000000e+00,5.000000000000000000e+00,5.000000000000000000e+00,5.000000000000000000e+00,5.000000000000000000e+00,5.000000000000000000e+00,5.000000000000000000e+00,5.000000000000000000e+00,5.000000000000000000e+00,5.000000000000000000e+00,5.000000000000000000e+00,5.000000000000000000e+00,5.000000000000000000e+00,5.000000000000000000e+00,5.000000000000000000e+00,5.000000000000000000e+00,5.000000000000000000e+00,5.000000000000000000e+00,5.000000000000000000e+00,5.000000000000000000e+00,5.000000000000000000e+00,5.000000000000000000e+00,5.000000000000000000e+00,5.000000000000000000e+00,5.000000000000000000e+00,5.000000000000000000e+00,5.000000000000000000e+00,5.000000000000000000e+00,5.000000000000000000e+00,5.000000000000000000e+00,5.000000000000000000e+00,5.000000000000000000e+00,5.000000000000000000e+00,5.000000000000000000e+00,5.000000000000000000e+00,5.000000000000000000e+00,5.000000000000000000e+00,5.000000000000000000e+00,5.000000000000000000e+00,5.000000000000000000e+00,4.876875400543212891e+00,4.683360576629638672e+00,4.504616737365722656e+00,4.339015007019042969e+00,4.185157775878906250e+00,4.041837692260742188e+00,3.908009052276611328e+00,3.782758235931396484e+00,3.665287017822265625e+00,3.554891824722290039e+00,3.450952529907226562e+00,3.352918148040771484e+00,1.337874770164489746e+00,1.303649783134460449e+00,1.270065546035766602e+00,1.252374768257141113e+00,1.243292093276977539e+00,1.254948973655700684e+00,2.796766757965087891e+00,2.732029438018798828e+00,2.670220851898193359e+00,2.611147165298461914e+00,2.554630756378173828e+00,2.500509023666381836e+00,2.448632717132568359e+00,2.398865461349487305e+00,1.118688583374023438e+00,1.097749233245849609e+00,1.084107637405395508e+00,1.069561839103698730e+00,1.065412521362304688e+00,1.061295270919799805e+00,1.060885667800903320e+00,2.063368558883666992e+00,2.027916431427001953e+00,1.993661999702453613e+00,1.960545539855957031e+00,1.928511381149291992e+00,1.897507190704345703e+00,1.867483973503112793e+00
5.000000000000000000e+00,5.000000000000000000e+00,5.000000000000000000e+00,5.000000000000000000e+00,5.000000000000000000e+00,5.000000000000000000e+00,5.000000000000000000e+00,5.000000000000000000e+00,5.000000000000000000e+00,5.000000000000000000e+00,5.000000000000000000e+00,5.000000000000000000e+00,5.000000000000000000e+00,5.000000000000000000e+00,5.000000000000000000e+00,5.000000000000000000e+00,5.000000000000000000e+00,5.000000000000000000e+00,5.000000000000000000e+00,5.000000000000000000e+00,5.000000000000000000e+00,5.000000000000000000e+00,5.000000000000000000e+00,5.000000000000000000e+00,5.000000000000000000e+00,5.000000000000000000e+00,5.000000000000000000e+00,5.000000000000000000e+00,5.000000000000000000e+00,5.000000000000000000e+00,5.000000000000000000e+00,5.000000000000000000e+00,5.000000000000000000e+00,5.000000000000000000e+00,5.000000000000000000e+00,5.000000000000000000e+00,5.000000000000000000e+00,5.000000000000000000e+00,5.000000000000000000e+00,5.000000000000000000e+00,4.877018451690673828e+00,4.683492183685302734e+00,4.504738330841064453e+00,4.339128017425537109e+00,4.185262680053710938e+00,4.041935920715332031e+00,3.908100605010986328e+00,3.782844543457031250e+00,3.665367603302001953e+00,3.554967880249023438e+00,3.451023817062377930e+00,1.368743181228637695e+00,1.335201501846313477e+00,1.304453611373901367e+00,1.275917291641235352e+00,1.260603547096252441e+00,1.248909473419189453e+00,1.268611550331115723e+00,2.796813964843750000e+00,2.732074022293090820e+00,2.670263767242431641e+00,2.611188173294067383e+00,2.554669857025146484e+00,2.500546455383300781e+00,2.448668956756591797e+00,1.166063189506530762e+00,1.114466309547424316e+00,1.101193070411682129e+00,1.085727691650390625e+00,1.075640678405761719e+00,1.071444153785705566e+00,1.067280292510986328e+00,1.065970897674560547e+00,2.063394308090209961e+00,2.027941226959228516e+00,1.993685960769653320e+00,1.960568785667419434e+00,1.928533792495727539e+00,1.897528648376464844e+00,1.867504954338073730e+00
5.000000000000000000e+00,5.000000000000000000e+00,5.000000000000000000e+00,5.000000000000000000e+00,5.000000000000000000e+00,5.000000000000000000e+00,5.000000000000000000e+00,5.000000000000000000e+00,5.000000000000000000e+00,5.000000000000000000e+00,5.000000000000000000e+00,5.000000000000000000e+00,5.000000000000000000e+00,5.000000000000000000e+00,5.000000000000000000e+00,5.000000000000000000e+00,5.000000000000000000e+00,5.000000000000000000e+00,5.000000000000000000e+00,5.000000000000000000e+00,5.000000000000000000e+00,5.000000000000000000e+00,5.000000000000000000e+00,5.000000000000000000e+00,5.000000000000000000e+00,5.000000000000000000e+00,5.000000000000000000e+00,5.000000000000000000e+00,5.000000000000000000e+00,5.000000000000000000e+00,5.000000000000000000e+00,5.000000000000000000e+00,5.000000000000000000e+00,5.000000000000000000e+00,5.000000000000000000e+00,5.000000000000000000e+00,5.000000000000000000e+00,5.000000000000000000e+00,5.000000000000000000e+00,5.000000000000000000e+00,4.877161502838134766e+00,4.683623790740966797e+00,4.504860401153564453e+00,4.339241504669189453e+00,4.185368061065673828e+00,4.042034149169921875e+00,3.908192396163940430e+00,3.782930135726928711e+00,3.665448427200317383e+00,3.555043697357177734e+00,1.410430550575256348e+00,1.364304065704345703e+00,1.334067940711975098e+00,1.308571934700012207e+00,1.287297487258911133e+00,1.270670890808105469e+00,1.271103143692016602e+00,1.296828269958496094e+00,2.796860694885253906e+00,2.732119083404541016e+00,2.670306444168090820e+00,2.611229181289672852e+00,2.554708957672119141e+00,2.500584125518798828e+00,2.448704719543457031e+00,1.160117745399475098e+00,1.118733525276184082e+00,1.102864623069763184e+00,1.087020635604858398e+00,1.080914258956909180e+00,1.077259302139282227e+00,1.073333144187927246e+00,1.102971673011779785e+00,2.063419818878173828e+00,2.027966022491455078e+00,1.993709802627563477e+00,1.960591912269592285e+00,1.928555965423583984e+00,1.897550344467163086e+00,1.867525935173034668e+00
5.000000000000000000e+00,5.000000000000000000e+00,5.000000000000000000e+00,5.000000000000000000e+00,5.000000000000000000e+00,5.000000000000000000e+00,5.000000000000000000e+00,5.000000000000000000e+00,5.000000000000000000e+00,5.000000000000000000e+00,5.000000000000000000e+00,5.000000000000000000e+00,5.000000000000000000e+00,5.000000000000000000e+00,5.000000000000000000e+00,5.000000000000000000e+00,5.000000000000000000e+00,5.000000000000000000e+00,5.000000000000000000e+00,5.000000000000000000e+00,5.000000000000000000e+00,5.000000000000000000e+00,5.000000000000000000e+00,5.000000000000000000e+00,5.000000000000000000e+00,5.000000000000000000e+00,5.000000000000000000e+00,5.000000000000000000e+00,5.000000000000000000e+00,5.000000000000000000e+00,5.000000000000000000e+00,5.000000000000000000e+00,5.000000000000000000e+00,5.000000000000000000e+00,5.000000000000000000e+00,5.000000000000000000e+00,5.000000000000000000e+00,5.000000000000000000e+00,5.000000000000000000e+00,5.000000000000000000e+00,4.877304077148437500e+00,4.683755874633789062e+00,4.504982471466064453e+00,4.339354515075683594e+00,4.185473442077636719e+00,4.042131900787353516e+00,3.908283948898315430e+00,3.783016443252563477e+00,3.665529012680053711e+00,3.555119752883911133e+00,1.394703745841979980e+00,1.364394426345825195e+00,1.340785145759582520e+00,1.322052001953125000e+00,1.305559039115905762e+00,1.287020325660705566e+00,1.320647597312927246e+00,2.864795207977294922e+00,2.796907901763916016e+00,2.732163906097412109e+00,2.670349359512329102e+00,2.611269950866699219e+00,2.554748296737670898e+00,2.500621557235717773e+00,2.448740959167480469e+00,1.156462192535400391e+00,1.119067668914794922e+00,1.102436065673828125e+00,1.086424946784973145e+00,1.080207109451293945e+00,1.076556921005249023e+00,1.072931289672851562e+00,2.100162029266357422e+00,2.063445329666137695e+00,2.027990579605102539e+00,1.993733763694763184e+00,1.960614800453186035e+00,1.928578376770019531e+00,1.897572040557861328e+00,1.867546916007995605e+00
5.000000000000000000e+00,5.000000000000000000e+00,5.000000000000000000e+00,5.000000000000000000e+00,5.000000000000000000e+00,5.000000000000000000e+00,5.000000000000000000e+00,5.000000000000000000e+00,5.000000000000000000e+00,5.000000000000000000e+00,5.000000000000000000e+00,5.000000000000000000e+00,5.000000000000000000e+00,5.000000000000000000e+00,5.000000000000000000e+00,5.000000000000000000e+00,5.000000000000000000e+00,5.000000000000000000e+00,5.000000000000000000e+00,5.000000000000000000e+00,5.000000000000000000e+00,5.000000000000000000e+00,5.000000000000000000e+00,5.000000000000000000e+00,5.000000000000000000e+00,5.000000000000000000e+00,5.000000000000000000e+00,5.000000000000000000e+00,5.000000000000000000e+00,5.000000000000000000e+00,5.000000000000000000e+00,5.000000000000000000e+00,5.000000000000000000e+00,5.000000000000000000e+00,5.000000000000000000e+00,5.000000000000000000e+00,5.000000000000000000e+00,5.000000000000000000e+00,5.000000000000000000e+00,5.000000000000000000e+00,4.877447128295898438e+00,4.683887481689453125e+00,4.505104541778564453e+00,4.339467525482177734e+00,4.185578823089599609e+00,4.042230129241943359e+00,3.908375978469848633e+00,3.783102035522460938e+00,3.665609836578369141e+00,1.461765527725219727e+00,1.400589823722839355e+00,1.376196026802062988e+00,1.354584574699401855e+00,1.344193339347839355e+00,1.325021982192993164e+00,3.011014699935913086e+00,2.936111688613891602e+00,2.864844322204589844e+00,2.796955108642578125e+00,2.732208728790283203e+00,2.670392274856567383e+00,2.611310958862304688e+00,2.554787397384643555e+00,2.500658988952636719e+00,2.448776721954345703e+00,1.158996462821960449e+00,1.118294954299926758e+00,1.101686239242553711e+00,1.085998654365539551e+00,1.079136133193969727e+00,1.075855493545532227e+00,1.072234511375427246e+00,2.100188255310058594e+00,2.063471078872680664e+00,2.028015375137329102e+00,1.993757724761962891e+00,1.960637927055358887e+00,1.928600668907165527e+00,1.897593736648559570e+00,1.867567658424377441e+00
5.000000000000000000e+00,5.000000000000000000e+00,5.000000000000000000e+00,5.000000000000000000e+00,5.000000000000000000e+00,5.000000000000000000e+00,5.000000000000000000e+00,5.000000000000000000e+00,5.000000000000000000e+00,5.000000000000000000e+00,5.000000000000000000e+00,5.000000000000000000e+00,5.000000000000000000e+00,5.000000000000000000e+00,5.000000000000000000e+00,5.000000000000000000e+00,5.000000000000000000e+00,5.000000000000000000e+00,5.000000000000000000e+00,5.000000000000000000e+00,5.000000000000000000e+00,5.000000000000000000e+00,5.000000000000000000e+00,5.000000000000000000e+00,5.000000000000000000e+00,5.000000000000000000e+00,5.000000000000000000e+00,5.000000000000000000e+00,5.000000000000000000e+00,5.000000000000000000e+00,5.000000000000000000e+00,5.000000000000000000e+00,5.000000000000000000e+00,5.000000000000000000e+00,5.000000000000000000e+00,5.000000000000000000e+00,5.000000000000000000e+00,5.000000000000000000e+00,5.000000000000000000e+00,5.000000000000000000e+00,4.877590179443359375e+00,4.684019565582275391e+00,4.505226135253906250e+00,4.339581012725830078e+00,4.185683727264404297e+00,4.042328834533691406e+00,3.908468008041381836e+00,3.783188343048095703e+00,3.665690422058105469e+00,1.445288538932800293e+00,1.412858247756958008e+00,1.388453602790832520e+00,1.377838492393493652e+00,1.367088675498962402e+00,3.089897155761718750e+00,3.011069297790527344e+00,2.936163187026977539e+00,2.864893674850463867e+00,2.797001838684082031e+00,2.732253551483154297e+00,2.670434951782226562e+00,2.611351966857910156e+00,2.554826736450195312e+00,2.500696659088134766e+00,2.448812961578369141e+00,1.161598920822143555e+00,1.117523431777954102e+00,1.100937366485595703e+00,1.085572838783264160e+00,1.077903985977172852e+00,1.075154900550842285e+00,1.071538686752319336e+00,1.087660551071166992e+00,2.063496589660644531e+00,2.028040170669555664e+00,1.993781447410583496e+00,1.960661053657531738e+00,1.928623080253601074e+00,1.897615313529968262e+00,1.867588758468627930e+00
5.000000000000000000e+00,5.000000000000000000e+00,5.000000000000000000e+00,5.000000000000000000e+00,5.000000000000000000e+00,5.000000000000000000e+00,5.000000000000000000e+00,5.000000000000000000e+00,5.000000000000000000e+00,5.000000000000000000e+00,5.000000000000000000e+00,5.000000000000000000e+00,5.000000000000000000e+00,5.000000000000000000e+00,5.000000000000000000e+00,5.000000000000000000e+00,5.000000000000000000e+00,5.000000000000000000e+00,5.000000000000000000e+00,5.000000000000000000e+00,5.000000000000000000e+00,5.000000000000000000e+00,5.000000000000000000e+00,5.000000000000000000e+00,5.000000000000000000e+00,5.000000000000000000e+00,5.000000000000000000e+00,5.000000000000000000e+00,5.000000000000000000e+00,5.000000000000000000e+00,5.000000000000000000e+00,5.000000000000000000e+00,5.000000000000000000e+00,5.000000000000000000e+00,5.000000000000000000e+00,5.000000000000000000e+00,5.000000000000000000e+00,5.000000000000000000e+00,5.000000000000000000e+00,5.000000000000000000e+00,4.877730846405029297e+00,4.684151172637939453e+00,4.505348205566406250e+00,4.339694023132324219e+00,4.185789108276367188e+00,4.042426586151123047e+00,3.908559560775756836e+00,3.783274412155151367e+00,3.665771245956420898e+00,1.451095819473266602e+00,1.425363779067993164e+00,1.402940869331359863e+00,1.393963336944580078e+00,1.412293434143066406e+00,3.089954614639282227e+00,3.011123657226562500e+00,2.936215162277221680e+00,2.864943027496337891e+00,2.797049045562744141e+00,2.732298374176025391e+00,2.670477867126464844e+00,2.611392974853515625e+00,2.554866075515747070e+00,2.500734329223632812e+00,2.448848962783813477e+00,1.164224743843078613e+00,1.117943882942199707e+00,1.100189566612243652e+00,1.085147142410278320e+00,1.076674580574035645e+00,1.074030876159667969e+00,1.070843696594238281e+00,1.076310873031616211e+00,2.063522100448608398e+00,2.028064727783203125e+00,1.993805289268493652e+00,1.960684180259704590e+00,1.928645491600036621e+00,1.897636771202087402e+00,1.867609739303588867e+00
5.000000000000000000e+00,5.000000000000000000e+00,5.000000000000000000e+00,5.000000000000000000e+00,5.000000000000000000e+00,5.000000000000000000e+00,5.000000000000000000e+00,5.000000000000000000e+00,5.000000000000000000e+00,5.000000000000000000e+00,5.000000000000000000e+00,5.000000000000000000e+00,5.000000000000000000e+00,5.000000000000000000e+00,5.000000000000000000e+00,5.000000000000000000e+00,5.000000000000000000e+00,5.000000000000000000e+00,5.000000000000000000e+00,5.000000000000000000e+00,5.000000000000000000e+00,5.000000000000000000e+00,5.000000000000000000e+00,5.000000000000000000e+00,5.000000000000000000e+00,5.000000000000000000e+00,5.000000000000000000e+00,5.000000000000000000e+00,5.000000000000000000e+00,5.000000000000000000e+00,5.000000000000000000e+00,5.000000000000000000e+00,5.000000000000000000e+00,5.000000000000000000e+00,5.000000000000000000e+00,5.000000000000000000e+00,5.000000000000000000e+00,5.000000000000000000e+00,5.000000000000000000e+00,5.000000000000000000e+00,4.877871036529541016e+00,4.684281826019287109e+00,4.505470275878906250e+00,4.339807033538818359e+00,4.185894489288330078e+00,4.042524814605712891e+00,3.908651351928710938e+00,3.783360242843627930e+00,1.516717076301574707e+00,1.464290022850036621e+00,1.438574790954589844e+00,1.419103860855102539e+00,1.410196781158447266e+00,3.173084497451782227e+00,3.090011835098266602e+00,3.011178255081176758e+00,2.936266899108886719e+00,2.864992380142211914e+00,2.797095775604248047e+00,2.732343196868896484e+00,2.670520544052124023e+00,2.611433982849121094e+00,2.554905176162719727e+00,2.500771760940551758e+00,2.448884963989257812e+00,2.399107456207275391e+00,1.120311975479125977e+00,1.099645614624023438e+00,1.084721922874450684e+00,1.075447916984558105e+00,1.072810292243957520e+00,1.070149660110473633e+00,1.066566944122314453e+00,2.063547611236572266e+00,2.028089523315429688e+00,1.993829250335693359e+00,1.960707306861877441e+00,1.928667664527893066e+00,1.897658467292785645e+00,1.867630720138549805e+00
5.000000000000000000e+00,5.000000000000000000e+00,5.000000000000000000e+00,5.000000000000000000e+00,5.000000000000000000e+00,5.000000000000000000e+00,5.000000000000000000e+00,5.000000000000000000e+00,5.000000000000000000e+00,5.000000000000000000e+00,5.000000000000000000e+00,5.000000000000000000e+00,5.000000000000000000e+00,5.000000000000000000e+00,5.000000000000000000e+00,5.000000000000000000e+00,5.000000000000000000e+00,5.000000000000000000e+00,5.000000000000000000e+00,5.000000000000000000e+00,5.000000000000000000e+00,5.000000000000000000e+00,5.000000000000000000e+00,5.000000000000000000e+00,5.000000000000000000e+00,5.000000000000000000e+00,5.000000000000000000e+00,5.000000000000000000e+00,5.000000000000000000e+00,5.000000000000000000e+00,5.000000000000000000e+00,5.000000000000000000e+00,5.000000000000000000e+00,5.000000000000000000e+00,5.000000000000000000e+00,5.000000000000000000e+00,5.000000000000000000e+00,5.000000000000000000e+00,5.000000000000000000e+00,5.000000000000000000e+00,4.878011703491210938e+00,4.684411525726318359e+00,4.505591869354248047e+00,4.339920043945312500e+00,4.185999393463134766e+00,4.042623043060302734e+00,3.908742904663085938e+00,3.783446311950683594e+00,1.508474826812744141e+00,1.478235960006713867e+00,1.452033042907714844e+00,1.435643434524536133e+00,1.454100847244262695e+00,3.173144817352294922e+00,3.090069293975830078e+00,3.011232614517211914e+00,2.936318635940551758e+00,2.865041494369506836e+00,2.797142982482910156e+00,2.732388019561767578e+00,2.670563697814941406e+00,2.611474752426147461e+00,2.554944515228271484e+00,2.500809431076049805e+00,2.448920965194702148e+00,2.399141788482666016e+00,1.122718811035156250e+00,1.099208950996398926e+00,1.084297060966491699e+00,1.074224114418029785e+00,1.071592569351196289e+00,1.068973779678344727e+00,1.065878391265869141e+00,2.063573360443115234e+00,2.028114080429077148e+00,1.993853211402893066e+00,1.960730314254760742e+00,1.928690075874328613e+00,1.897680163383483887e+00,1.867651700973510742e+00
5.000000000000000000e+00,5.000000000000000000e+00,5.000000000000000000e+00,5.000000000000000000e+00,5.000000000000000000e+00,5.000000000000000000e+00,5.000000000000000000e+00,5.000000000000000000e+00,5.000000000000000000e+00,5.000000000000000000e+00,5.000000000000000000e+00,5.000000000000000000e+00,5.000000000000000000e+00,5.000000000000000000e+00,5.000000000000000000e+00,5.000000000000000000e+00,5.000000000000000000e+00,5.000000000000000000e+00,5.000000000000000000e+00,5.000000000000000000e+00,5.000000000000000000e+00,5.000000000000000000e+00,5.000000000000000000e+00,5.000000000000000000e+00,5.000000000000000000e+00,5.000000000000000000e+00,5.000000000000000000e+00,5.000000000000000000e+00,5.000000000000000000e+00,5.000000000000000000e+00,5.000000000000000000e+00,5.000000000000000000e+00,5.000000000000000000e+00,5.000000000000000000e+00,5.000000000000000000e+00,5.000000000000000000e+00,5.000000000000000000e+00,5.000000000000000000e+00,5.000000000000000000e+00,5.000000000000000000e+00,4.878151893615722656e+00,4.684540748596191406e+00,4.505711555480957031e+00,4.340033054351806641e+00,4.186104774475097656e+00,4.042721271514892578e+00,3.908834934234619141e+00,3.783532142639160156e+00,1.521699428558349609e+00,1.493237257003784180e+00,1.467693686485290527e+00,1.452652812004089355e+00,3.260874986648559570e+00,3.173205375671386719e+00,3.090126752853393555e+00,3.011287212371826172e+00,2.936370372772216797e+00,2.865090847015380859e+00,2.797189712524414062e+00,2.732432842254638672e+00,2.670606374740600586e+00,2.611515760421752930e+00,2.554983615875244141e+00,2.500846862792968750e+00,2.448956966400146484e+00,2.399176597595214844e+00,1.125178575515747070e+00,1.099066734313964844e+00,1.084150195121765137e+00,1.073093414306640625e+00,1.070397377014160156e+00,1.067764639854431152e+00,1.065164446830749512e+00,2.063598871231079102e+00,2.028138875961303711e+00,1.993876934051513672e+00,1.960753440856933594e+00,1.928712487220764160e+00,1.897701859474182129e+00,1.867672443389892578e+00
5.000000000000000000e+00,5.000000000000000000e+00,5.000000000000000000e+00,5.000000000000000000e+00,5.000000000000000000e+00,5.000000000000000000e+00,5.000000000000000000e+00,5.000000000000000000e+00,5.000000000000000000e+00,5.000000000000000000e+00,5.000000000000000000e+00,5.000000000000000000e+00,5.000000000000000000e+00,5.000000000000000000e+00,5.000000000000000000e+00,5.000000000000000000e+00,5.000000000000000000e+00,5.000000000000000000e+00,5.000000000000000000e+00,5.000000000000000000e+00,5.000000000000000000e+00,5.000000000000000000e+00,5.000000000000000000e+00,5.000000000000000000e+00,5.000000000000000000e+00,5.000000000000000000e+00,5.000000000000000000e+00,5.000000000000000000e+00,5.000000000000000000e+00,5.000000000000000000e+00,5.000000000000000000e+00,5.000000000000000000e+00,5.000000000000000000e+00,5.000000000000000000e+00,5.000000000000000000e+00,5.000000000000000000e+00,5.000000000000000000e+00,5.000000000000000000e+00,5.000000000000000000e+00,5.000000000000000000e+00,4.878292560577392578e+00,4.684670448303222656e+00,4.505831718444824219e+00,4.340145111083984375e+00,4.186210155487060547e+00,4.042819499969482422e+00,3.908926486968994141e+00,1.595780253410339355e+00,1.538141727447509766e+00,1.509287118911743164e+00,1.492057204246520996e+00,1.500119924545288086e+00,3.260938644409179688e+00,3.173265933990478516e+00,3.090183973312377930e+00,3.011341810226440430e+00,2.936422348022460938e+00,2.865140199661254883e+00,2.797236919403076172e+00,2.732477664947509766e+00,2.670649290084838867e+00,2.611556768417358398e+00,2.555022716522216797e+00,2.500884532928466797e+00,2.448992967605590820e+00,2.399210929870605469e+00,1.128244400024414062e+00,1.099931836128234863e+00,1.084992051124572754e+00,1.072400689125061035e+00,1.069708108901977539e+00,1.067029118537902832e+00,1.064363360404968262e+00,2.063624382019042969e+00,2.028163433074951172e+00,1.993900775909423828e+00,1.960776567459106445e+00,1.928734898567199707e+00,1.897723317146301270e+00,1.867693543434143066e+00
5.000000000000000000e+00,5.000000000000000000e+00,5.000000000000000000e+00,5.000000000000000000e+00,5.000000000000000000e+00,5.000000000000000000e+00,5.000000000000000000e+00,5.000000000000000000e+00,5.000000000000000000e+00,5.000000000000000000e+00,5.000000000000000000e+00,5.000000000000000000e+00,5.000000000000000000e+00,5.000000000000000000e+00,5.000000000000000000e+00,5.000000000000000000e+00,5.000000000000000000e+00,5.000000000000000000e+00,5.000000000000000000e+00,5.000000000000000000e+00,5.000000000000000000e+00,5.000000000000000000e+00,5.000000000000000000e+00,5.000000000000000000e+00,5.000000000000000000e+00,5.000000000000000000e+00,5.000000000000000000e+00,5.000000000000000000e+00,5.000000000000000000e+00,5.000000000000000000e+00,5.000000000000000000e+00,5.000000000000000000e+00,5.000000000000000000e+00,5.000000000000000000e+00,5.000000000000000000e+00,5.000000000000000000e+00,5.000000000000000000e+00,5.000000000000000000e+00,5.000000000000000000e+00,5.000000000000000000e+00,4.878433227539062500e+00,4.684800148010253906e+00,4.505951404571533203e+00,4.340256214141845703e+00,4.186314582824707031e+00,4.042917251586914062e+00,3.909018516540527344e+00,1.591988086700439453e+00,1.555286288261413574e+00,1.526077747344970703e+00,1.517243027687072754e+00,3.353661060333251953e+00,3.261002540588378906e+00,3.173326253890991211e+00,3.090241432189941406e+00,3.011395931243896484e+00,2.936474084854125977e+00,2.865189552307128906e+00,2.797283887863159180e+00,2.732522487640380859e+00,2.670691967010498047e+00,2.611597776412963867e+00,2.555061817169189453e+00,2.500922203063964844e+00,2.449028968811035156e+00,2.399245738983154297e+00,1.131326913833618164e+00,1.100798130035400391e+00,1.085835099220275879e+00,1.072413682937622070e+00,1.069019675254821777e+00,1.066344141960144043e+00,2.100373744964599609e+00,2.063650131225585938e+00,2.028188228607177734e+00,1.993924736976623535e+00,1.960799694061279297e+00,1.928757071495056152e+00,1.897745013236999512e+00,1.867714524269104004e+00
4.872445106506347656e+00,4.871225833892822266e+00,4.870007514953613281e+00,4.868789196014404297e+00,4.867571830749511719e+00,4.866355419158935547e+00,4.865139007568359375e+00,4.863923549652099609e+00,4.862708091735839844e+00,4.861494064331054688e+00,4.860280036926269531e+00,4.859066963195800781e+00,4.857854366302490234e+00,4.856642723083496094e+00,4.855431079864501953e+00,4.854220390319824219e+00,4.853010177612304688e+00,4.851800918579101562e+00,4.850592136383056641e+00,4.849383354187011719e+00,4.848176002502441406e+00,4.846968650817871094e+00,4.845762252807617188e+00,4.844556331634521484e+00,4.843350887298583984e+00,4.842145919799804688e+00,4.840941905975341797e+00,4.839738368988037109e+00,4.838535308837890625e+00,4.837333202362060547e+00,4.836131095886230469e+00,4.834929943084716797e+00,4.833729267120361328e+00,4.832529544830322266e+00,4.831330299377441406e+00,4.830131530761718750e+00,4.828933238983154297e+00,4.827735900878906250e+00,4.826538562774658203e+00,4.825342655181884766e+00,4.824146270751953125e+00,4.684929370880126953e+00,4.506071090698242188e+00,4.340367317199707031e+00,4.186418056488037109e+00,4.043015480041503906e+00,3.909110069274902344e+00,1.628828644752502441e+00,1.573122024536132812e+00,1.548978328704833984e+00,1.554170608520507812e+00,3.353728771209716797e+00,3.261066198348999023e+00,3.173387050628662109e+00,3.090298652648925781e+00,3.011450529098510742e+00,2.936525821685791016e+00,2.865238904953002930e+00,2.797330856323242188e+00,2.732567548751831055e+00,2.670734882354736328e+00,2.611638545989990234e+00,2.555101156234741211e+00,2.500959634780883789e+00,2.449065208435058594e+00,2.399280071258544922e+00,1.134426474571228027e+00,1.101665973663330078e+00,1.086673140525817871e+00,1.072488665580749512e+00,1.068332195281982422e+00,1.065660119056701660e+00,2.100400447845458984e+00,2.063675642013549805e+00,2.028213024139404297e+00,1.993948698043823242e+00,1.960822820663452148e+00,1.928779363632202148e+00,1.897766709327697754e+00,1.867735505104064941e+00
3.776934385299682617e+00,3.776201963424682617e+00,3.775469303131103516e+00,3.774737119674682617e+00,3.774005651473999023e+00,3.773273944854736328e+00,3.772542715072631836e+00,3.771811962127685547e+00,3.771081209182739258e+00,3.770350694656372070e+00,3.769620418548583984e+00,3.768890857696533203e+00,3.768161296844482422e+00,3.767431735992431641e+00,3.766703128814697266e+00,3.765974283218383789e+00,3.765245676040649414e+00,3.764517784118652344e+00,3.763789892196655273e+00,3.763062238693237305e+00,3.762335300445556641e+00,3.761608123779296875e+00,3.760881185531616211e+00,3.760154962539672852e+00,3.759428739547729492e+00,3.758702754974365234e+00,3.757977008819580078e+00,3.757251977920532227e+00,3.756526708602905273e+00,3.755801916122436523e+00,3.755077600479125977e+00,3.754353284835815430e+00,3.753629207611083984e+00,3.752905845642089844e+00,3.752182483673095703e+00,3.751459121704101562e+00,3.750736713409423828e+00,3.750014066696166992e+00,3.749291658401489258e+00,3.748569965362548828e+00,3.747848033905029297e+00,3.747126579284667969e+00,3.746405363082885742e+00,3.745684623718261719e+00,3.744963884353637695e+00,3.744243621826171875e+00,3.743523836135864258e+00,1.624400019645690918e+00,1.601221799850463867e+00,1.590764522552490234e+00,3.451882600784301758e+00,3.353796005249023438e+00,3.261130332946777344e+00,3.173447370529174805e+00,3.090356111526489258e+00,3.011504888534545898e+00,2.936577796936035156e+00,2.865288019180297852e+00,2.797378063201904297e+00,2.732612133026123047e+00,2.670777797698974609e+00,2.611679792404174805e+00,2.555140495300292969e+00,2.500997304916381836e+00,2.449100971221923828e+00,2.399314880371093750e+00,1.138550400733947754e+00,1.102535247802734375e+00,1.087450265884399414e+00,1.072563648223876953e+00,1.067645668983459473e+00,1.064976930618286133e+00,2.100426912307739258e+00,2.063701152801513672e+00,2.028237581253051758e+00,1.993972659111022949e+00,1.960845828056335449e+00,1.928801774978637695e+00,1.897788405418395996e+00,1.867756247520446777e+00
3.083619594573974609e+00,3.083131313323974609e+00,3.082642793655395508e+00,3.082154989242553711e+00,3.081666946411132812e+00,3.081179141998291016e+00,3.080691814422607422e+00,3.080204248428344727e+00,3.079716920852661133e+00,3.079229831695556641e+00,3.078742742538452148e+00,3.078255891799926758e+00,3.077769041061401367e+00,3.077282667160034180e+00,3.076796293258666992e+00,3.076309919357299805e+00,3.075824022293090820e+00,3.075338125228881836e+00,3.074852228164672852e+00,3.074366807937622070e+00,3.073881149291992188e+00,3.073395729064941406e+00,3.072910785675048828e+00,3.072425842285156250e+00,3.071940898895263672e+00,3.071456432342529297e+00,3.070971727371215820e+00,3.070487260818481445e+00,3.070002794265747070e+00,3.069519042968750000e+00,3.069035053253173828e+00,3.068551063537597656e+00,3.068067789077758789e+00,3.067584037780761719e+00,3.067100763320922852e+00,3.066617727279663086e+00,3.066134691238403320e+00,3.065651893615722656e+00,3.065169334411621094e+00,3.064686775207519531e+00,3.064204216003417969e+00,3.063722133636474609e+00,3.063239812850952148e+00,3.062757968902587891e+00,3.062275886535644531e+00,3.061794519424438477e+00,3.061312913894653320e+00,1.620833635330200195e+00,1.596866250038146973e+00,1.591621041297912598e+00,3.059388399124145508e+00,3.058907747268676758e+00,3.058427095413208008e+00,3.057946681976318359e+00,3.057466506958007812e+00,3.011559486389160156e+00,2.936629533767700195e+00,2.865337610244750977e+00,2.797424793243408203e+00,2.732657194137573242e+00,2.670820474624633789e+00,2.611720800399780273e+00,2.555179595947265625e+00,2.501034975051879883e+00,2.449137210845947266e+00,2.399349212646484375e+00,1.144507765769958496e+00,1.103405833244323730e+00,1.088228464126586914e+00,1.073294043540954590e+00,1.066959977149963379e+00,1.064294576644897461e+00,2.100453376770019531e+00,2.063726663589477539e+00,2.028262376785278320e+00,1.993996381759643555e+00,1.960868954658508301e+00,1.928824186325073242e+00,1.897810101509094238e+00,1.867777228355407715e+00
2.605364561080932617e+00,2.605015754699707031e+00,2.604667425155639648e+00,2.604318857192993164e+00,2.603970527648925781e+00,2.603622198104858398e+00,2.603274106979370117e+00,2.602925777435302734e+00,2.602577924728393555e+00,2.602230072021484375e+00,2.601882219314575195e+00,2.601534605026245117e+00,2.601186990737915039e+00,2.600839376449584961e+00,2.600491762161254883e+00,2.600144624710083008e+00,2.599797248840332031e+00,2.599450111389160156e+00,2.599103212356567383e+00,2.598756074905395508e+00,2.598409175872802734e+00,2.598062515258789062e+00,2.597715616226196289e+00,2.597368955612182617e+00,2.597022771835327148e+00,2.596676111221313477e+00,2.596329927444458008e+00,2.595983743667602539e+00,2.595637559890747070e+00,2.595291376113891602e+00,2.594945430755615234e+00,2.594599723815917969e+00,2.594253778457641602e+00,2.593908071517944336e+00,2.593562602996826172e+00,2.593217134475708008e+00,2.592871665954589844e+00,2.592526435852050781e+00,2.592181205749511719e+00,2.591835975646972656e+00,2.591490983963012695e+00,2.591145992279052734e+00,2.590801000595092773e+00,2.590456485748291016e+00,2.590111732482910156e+00,2.589767217636108398e+00,2.589422464370727539e+00,1.608920931816101074e+00,1.591828227043151855e+00,1.584825634956359863e+00,2.588045597076416016e+00,2.587701559066772461e+00,2.587357521057128906e+00,2.587013959884643555e+00,2.586670160293579102e+00,2.586326360702514648e+00,2.585983037948608398e+00,2.585639476776123047e+00,2.585295915603637695e+00,2.584952831268310547e+00,2.584609508514404297e+00,2.584266424179077148e+00,2.555218935012817383e+00,2.501072406768798828e+00,2.449173212051391602e+00,2.399384021759033203e+00,1.150527834892272949e+00,1.104277729988098145e+00,1.089007973670959473e+00,1.074052214622497559e+00,1.066975831985473633e+00,1.063613176345825195e+00,2.100479841232299805e+00,2.063752412796020508e+00,2.028287172317504883e+00,1.994020223617553711e+00,1.960892081260681152e+00,1.928846597671508789e+00,1.897831559181213379e+00,1.867798328399658203e+00
2.255527496337890625e+00,2.255267858505249023e+00,2.255007982254028320e+00,2.254748582839965820e+00,2.254488945007324219e+00,2.254229545593261719e+00,2.253970146179199219e+00,2.253710746765136719e+00,2.253451347351074219e+00,2.253190994262695312e+00,2.252930402755737305e+00,2.252669572830200195e+00,2.252408981323242188e+00,2.252148389816284180e+00,2.251887798309326172e+00,2.251627445220947266e+00,2.251366853713989258e+00,2.251106739044189453e+00,2.250846385955810547e+00,2.250586032867431641e+00,2.250325918197631836e+00,2.250065803527832031e+00,2.249805688858032227e+00,2.249545812606811523e+00,2.249285936355590820e+00,2.249026060104370117e+00,2.248766183853149414e+00,2.248506546020507812e+00,2.248246669769287109e+00,2.247987270355224609e+00,2.247727632522583008e+00,2.247467994689941406e+00,2.247208595275878906e+00,2.246949195861816406e+00,2.246690034866333008e+00,2.246430635452270508e+00,2.246171474456787109e+00,2.245912313461303711e+00,2.245653152465820312e+00,2.245394229888916016e+00,2.245135307312011719e+00,2.244876146316528320e+00,2.244617462158203125e+00,2.244358777999877930e+00,2.244099855422973633e+00,2.243841409683227539e+00,2.243582725524902344e+00,1.597950577735900879e+00,1.581821084022521973e+00,1.577270984649658203e+00,1.580844521522521973e+00,2.242290496826171875e+00,2.242032289505004883e+00,2.241774082183837891e+00,2.241515874862670898e+00,2.241257905960083008e+00,2.240999937057495117e+00,2.240741968154907227e+00,2.240483999252319336e+00,2.240226268768310547e+00,2.239968299865722656e+00,2.239710807800292969e+00,2.239453077316284180e+00,2.239195346832275391e+00,2.238937854766845703e+00,2.238680362701416016e+00,1.156611561775207520e+00,1.105151057243347168e+00,1.089788436889648438e+00,1.074811458587646484e+00,1.067049980163574219e+00,1.069659352302551270e+00,2.100506305694580078e+00,2.063777923583984375e+00,2.028311967849731445e+00,1.994044184684753418e+00,1.960915207862854004e+00,1.928868770599365234e+00,1.897853255271911621e+00,1.867819309234619141e+00
1.988434791564941406e+00,1.988233089447021484e+00,1.988031148910522461e+00,1.987829566001892090e+00,1.987627744674682617e+00,1.987425923347473145e+00,1.987224459648132324e+00,1.987022757530212402e+00,1.986821293830871582e+00,1.986619710922241211e+00,1.986418128013610840e+00,1.986216783523559570e+00,1.986015319824218750e+00,1.985814094543457031e+00,1.985612750053405762e+00,1.985411286354064941e+00,1.985210180282592773e+00,1.985008955001831055e+00,1.984807968139648438e+00,1.984606742858886719e+00,1.984405517578125000e+00,1.984204649925231934e+00,1.984003543853759766e+00,1.983802676200866699e+00,1.983601689338684082e+00,1.983400821685791016e+00,1.983200073242187500e+00,1.982999205589294434e+00,1.982798576354980469e+00,1.982597827911376953e+00,1.982396960258483887e+00,1.982196569442749023e+00,1.981995820999145508e+00,1.981795430183410645e+00,1.981594800949096680e+00,1.981394290924072266e+00,1.981194019317626953e+00,1.980993509292602539e+00,1.980793237686157227e+00,1.980592966079711914e+00,1.980392575263977051e+00,1.980192422866821289e+00,1.979992151260375977e+00,1.979792118072509766e+00,1.979591965675354004e+00,1.979391813278198242e+00,1.979191899299621582e+00,1.978991866111755371e+00,1.569187521934509277e+00,1.569505929946899414e+00,1.575363755226135254e+00,1.978192448616027832e+00,1.977992534637451172e+00,1.977792978286743164e+00,1.977593183517456055e+00,1.977393388748168945e+00,1.977193951606750488e+00,1.976994276046752930e+00,1.976794838905334473e+00,1.976595282554626465e+00,1.976395726203918457e+00,1.976196408271789551e+00,1.975996971130371094e+00,1.975797772407531738e+00,1.975598335266113281e+00,1.975399017333984375e+00,1.975199937820434570e+00,1.125939965248107910e+00,1.099203944206237793e+00,1.087360262870788574e+00,1.078038334846496582e+00,1.974204421043395996e+00,1.974005341529846191e+00,1.973806619644165039e+00,1.973607540130615234e+00,1.973408579826354980e+00,1.960938096046447754e+00,1.928891181945800781e+00,1.897874832153320312e+00,1.867840290069580078e+00
1.777901411056518555e+00,1.777739882469177246e+00,1.777578473091125488e+00,1.777417302131652832e+00,1.777255892753601074e+00,1.777094841003417969e+00,1.776933431625366211e+00,1.776772260665893555e+00,1.776611208915710449e+00,1.776449918746948242e+00,1.776288986206054688e+00,1.776127815246582031e+00,1.775966644287109375e+00,1.775805711746215820e+00,1.775644659996032715e+00,1.775483846664428711e+00,1.775322794914245605e+00,1.775161862373352051e+00,1.775001049041748047e+00,1.774840116500854492e+00,1.774679422378540039e+00,1.774518609046936035e+00,1.774357795715332031e+00,1.774197101593017578e+00,1.774036407470703125e+00,1.773875832557678223e+00,1.773715138435363770e+00,1.773554444313049316e+00,1.773393869400024414e+00,1.773233294486999512e+00,1.773072838783264160e+00,1.772912263870239258e+00,1.772751688957214355e+00,1.772591352462768555e+00,1.772430896759033203e+00,1.772270679473876953e+00,1.772110223770141602e+00,1.771949768066406250e+00,1.771789669990539551e+00,1.771629333496093750e+00,1.771469116210937500e+00,1.771308898925781250e+00,1.771148562431335449e+00,1.770988583564758301e+00,1.770828366279602051e+00,1.770668387413024902e+00,1.770508289337158203e+00,1.770348191261291504e+00,1.561995387077331543e+00,1.554041385650634766e+00,1.549322724342346191e+00,1.550713419914245605e+00,1.769548416137695312e+00,1.769388675689697266e+00,1.769228696823120117e+00,1.769069075584411621e+00,1.768909215927124023e+00,1.768749356269836426e+00,1.768589735031127930e+00,1.768429994583129883e+00,1.768270492553710938e+00,1.768110752105712891e+00,1.767951011657714844e+00,1.767791628837585449e+00,1.767632007598876953e+00,1.767472624778747559e+00,1.767313003540039062e+00,1.119130492210388184e+00,1.095607876777648926e+00,1.082576632499694824e+00,1.073017477989196777e+00,1.766515970230102539e+00,1.766356587409973145e+00,1.766197443008422852e+00,1.766038179397583008e+00,1.765879034996032715e+00,1.765719771385192871e+00,1.765560507774353027e+00,1.765401482582092285e+00,1.765242338180541992e+00
1.607681512832641602e+00,1.607549548149108887e+00,1.607417702674865723e+00,1.607285737991333008e+00,1.607153892517089844e+00,1.607021927833557129e+00,1.606890082359313965e+00,1.606758356094360352e+00,1.606626510620117188e+00,1.606494784355163574e+00,1.606362938880920410e+00,1.606231212615966797e+00,1.606099486351013184e+00,1.605967760086059570e+00,1.605836153030395508e+00,1.605704545974731445e+00,1.605572819709777832e+00,1.605441331863403320e+00,1.605309605598449707e+00,1.605178117752075195e+00,1.605046510696411133e+00,1.604915022850036621e+00,1.604783535003662109e+00,1.604652047157287598e+00,1.604520678520202637e+00,1.604389190673828125e+00,1.604257702827453613e+00,1.604126334190368652e+00,1.603994965553283691e+00,1.603863716125488281e+00,1.603732347488403320e+00,1.603600978851318359e+00,1.603469729423522949e+00,1.603338479995727539e+00,1.603207111358642578e+00,1.603075981140136719e+00,1.602944731712341309e+00,1.602813601493835449e+00,1.602682471275329590e+00,1.602551221847534180e+00,1.602420210838317871e+00,1.602289080619812012e+00,1.602158069610595703e+00,1.602026939392089844e+00,1.601895928382873535e+00,1.601764917373657227e+00,1.601633906364440918e+00,1.601503014564514160e+00,1.601372003555297852e+00,1.601241111755371094e+00,1.601110219955444336e+00,1.600979328155517578e+00,1.600848555564880371e+00,1.600717663764953613e+00,1.600586771965026855e+00,1.600456118583679199e+00,1.600325226783752441e+00,1.600194573402404785e+00,1.600063800811767578e+00,1.599933028221130371e+00,1.599802374839782715e+00,1.599671721458435059e+00,1.599541187286376953e+00,1.599410533905029297e+00,1.599279761314392090e+00,1.599149346351623535e+00,1.599018692970275879e+00,1.122457385063171387e+00,1.090016245841979980e+00,1.076401948928833008e+00,1.063429236412048340e+00,1.064218640327453613e+00,1.598235964775085449e+00,1.598105430603027344e+00,1.597975015640258789e+00,1.597844719886779785e+00,1.597714304924011230e+00,1.597584128379821777e+00,1.597453713417053223e+00,1.597323417663574219e+00
1.467208027839660645e+00,1.467098236083984375e+00,1.466988325119018555e+00,1.466878414154052734e+00,1.466768622398376465e+00,1.466658711433410645e+00,1.466549038887023926e+00,1.466439127922058105e+00,1.466329336166381836e+00,1.466219544410705566e+00,1.466109752655029297e+00,1.466000080108642578e+00,1.465890288352966309e+00,1.465780615806579590e+00,1.465670943260192871e+00,1.465561270713806152e+00,1.465451717376708984e+00,1.465341925621032715e+00,1.465232253074645996e+00,1.465122818946838379e+00,1.465013146400451660e+00,1.464903593063354492e+00,1.464794039726257324e+00,1.464684367179870605e+00,1.464574933052062988e+00,1.464465379714965820e+00,1.464355945587158203e+00,1.464246511459350586e+00,1.464136958122253418e+00,1.464027643203735352e+00,1.463918089866638184e+00,1.463808774948120117e+00,1.463699340820312500e+00,1.463589906692504883e+00,1.463480591773986816e+00,1.463371157646179199e+00,1.463261961936950684e+00,1.463152647018432617e+00,1.463043212890625000e+00,1.462934017181396484e+00,1.462824702262878418e+00,1.462715625762939453e+00,1.462606310844421387e+00,1.462496995925903320e+00,1.462387919425964355e+00,1.462278723716735840e+00,1.462169647216796875e+00,1.462060332298278809e+00,1.461951255798339844e+00,1.461842179298400879e+00,1.461732983589172363e+00,1.461624026298522949e+00,1.461514949798583984e+00,1.461405754089355469e+00,1.461296796798706055e+00,1.461187720298767090e+00,1.461078763008117676e+00,1.460969805717468262e+00,1.460860729217529297e+00,1.460751891136169434e+00,1.460642933845520020e+00,1.460533976554870605e+00,1.460425138473510742e+00,1.460316181182861328e+00,1.460207343101501465e+00,1.460098505020141602e+00,1.152296423912048340e+00,1.119010925292968750e+00,1.088893175125122070e+00,1.068327069282531738e+00,1.049826741218566895e+00,1.039439916610717773e+00,1.040771842002868652e+00,1.459228157997131348e+00,1.459119558334350586e+00,1.459010839462280273e+00,1.458902120590209961e+00,1.458793520927429199e+00,1.458684802055358887e+00,1.458576202392578125e+00
1.349310159683227539e+00,1.349217295646667480e+00,1.349124312400817871e+00,1.349031448364257812e+00,1.348938465118408203e+00,1.348845481872558594e+00,1.348752737045288086e+00,1.348659753799438477e+00,1.348567008972167969e+00,1.348474144935607910e+00,1.348381280899047852e+00,1.348288416862487793e+00,1.348195672035217285e+00,1.348102927207946777e+00,1.348010063171386719e+00,1.347917199134826660e+00,1.347824573516845703e+00,1.347731709480285645e+00,1.347639083862304688e+00,1.347546339035034180e+00,1.347453594207763672e+00,1.347360968589782715e+00,1.347268223762512207e+00,1.347175717353820801e+00,1.347082972526550293e+00,1.346990227699279785e+00,1.346897721290588379e+00,1.346805095672607422e+00,1.346712470054626465e+00,1.346619844436645508e+00,1.346527218818664551e+00,1.346434712409973145e+00,1.346342206001281738e+00,1.346249699592590332e+00,1.346157073974609375e+00,1.346064567565917969e+00,1.345972061157226562e+00,1.345879554748535156e+00,1.345787167549133301e+00,1.345694661140441895e+00,1.345602154731750488e+00,1.345509767532348633e+00,1.345417261123657227e+00,1.345324993133544922e+00,1.345232486724853516e+00,1.345140099525451660e+00,1.345047712326049805e+00,1.344955325126647949e+00,1.344863057136535645e+00,1.344770669937133789e+00,1.344678282737731934e+00,1.344586014747619629e+00,1.344493746757507324e+00,1.344401478767395020e+00,1.344309210777282715e+00,1.344216823577880859e+00,1.344124674797058105e+00,1.344032406806945801e+00,1.343940258026123047e+00,1.343847990036010742e+00,1.343755722045898438e+00,1.343663573265075684e+00,1.343571424484252930e+00,1.343479275703430176e+00,1.343387126922607422e+00,1.343294978141784668e+00,1.148403882980346680e+00,1.117730617523193359e+00,1.093285441398620605e+00,1.066612124443054199e+00,1.042047858238220215e+00,1.024707078933715820e+00,1.014446139335632324e+00,1.019342184066772461e+00,1.342466354370117188e+00,1.342374205589294434e+00,1.342282295227050781e+00,1.342190265655517578e+00,1.342098355293273926e+00,1.342006325721740723e+00
1.248950481414794922e+00,1.248870849609375000e+00,1.248791098594665527e+00,1.248711585998535156e+00,1.248631954193115234e+00,1.248552441596984863e+00,1.248472809791564941e+00,1.248393177986145020e+00,1.248313665390014648e+00,1.248234033584594727e+00,1.248154640197753906e+00,1.248075008392333984e+00,1.247995495796203613e+00,1.247915983200073242e+00,1.247836470603942871e+00,1.247757077217102051e+00,1.247677445411682129e+00,1.247597932815551758e+00,1.247518539428710938e+00,1.247439026832580566e+00,1.247359633445739746e+00,1.247280240058898926e+00,1.247200727462768555e+00,1.247121334075927734e+00,1.247041940689086914e+00,1.246962666511535645e+00,1.246883153915405273e+00,1.246803760528564453e+00,1.246724486351013184e+00,1.246645092964172363e+00,1.246565818786621094e+00,1.246486425399780273e+00,1.246407032012939453e+00,1.246327757835388184e+00,1.246248483657836914e+00,1.246169209480285645e+00,1.246089935302734375e+00,1.246010541915893555e+00,1.245931386947631836e+00,1.245852112770080566e+00,1.245772838592529297e+00,1.245693564414978027e+00,1.245614409446716309e+00,1.245535254478454590e+00,1.245455980300903320e+00,1.245376825332641602e+00,1.245297551155090332e+00,1.245218396186828613e+00,1.245139241218566895e+00,1.245060086250305176e+00,1.244981050491333008e+00,1.244901895523071289e+00,1.244822621345520020e+00,1.244743585586547852e+00,1.244664430618286133e+00,1.244585394859313965e+00,1.244506359100341797e+00,1.244427204132080078e+00,1.244348168373107910e+00,1.244269132614135742e+00,1.244190096855163574e+00,1.244111061096191406e+00,1.244032025337219238e+00,1.243953108787536621e+00,1.243874073028564453e+00,1.243795037269592285e+00,1.243716001510620117e+00,1.120072364807128906e+00,1.097553372383117676e+00,1.072779893875122070e+00,1.047241449356079102e+00,1.011682748794555664e+00,9.966711997985839844e-01,9.872894883155822754e-01,9.957944154739379883e-01,1.243005752563476562e+00,1.242926836013793945e+00,1.242847919464111328e+00,1.242769122123718262e+00,1.242690205574035645e+00
1.162486433982849121e+00,1.162417411804199219e+00,1.162348508834838867e+00,1.162279486656188965e+00,1.162210583686828613e+00,1.162141561508178711e+00,1.162072658538818359e+00,1.162003755569458008e+00,1.161934733390808105e+00,1.161865830421447754e+00,1.161796927452087402e+00,1.161728024482727051e+00,1.161659121513366699e+00,1.161590218544006348e+00,1.161521315574645996e+00,1.161452412605285645e+00,1.161383509635925293e+00,1.161314725875854492e+00,1.161245822906494141e+00,1.161177039146423340e+00,1.161108136177062988e+00,1.161039233207702637e+00,1.160970568656921387e+00,1.160901665687561035e+00,1.160832881927490234e+00,1.160764098167419434e+00,1.160695314407348633e+00,1.160626530647277832e+00,1.160557746887207031e+00,1.160488963127136230e+00,1.160420179367065430e+00,1.160351395606994629e+00,1.160282731056213379e+00,1.160213947296142578e+00,1.160145163536071777e+00,1.160076498985290527e+00,1.160007834434509277e+00,1.159939169883728027e+00,1.159870386123657227e+00,1.159801721572875977e+00,1.159733057022094727e+00,1.159664392471313477e+00,1.159595727920532227e+00,1.159527063369750977e+00,1.159458398818969727e+00,1.159389853477478027e+00,1.159321188926696777e+00,1.159252643585205078e+00,1.159183979034423828e+00,1.159115314483642578e+00,1.159046769142150879e+00,1.158978104591369629e+00,1.158909559249877930e+00,1.158841013908386230e+00,1.158772468566894531e+00,1.158703923225402832e+00,1.158635377883911133e+00,1.158566832542419434e+00,1.158498287200927734e+00,1.158429741859436035e+00,1.158361315727233887e+00,1.158292770385742188e+00,1.158224344253540039e+00,1.158155798912048340e+00,1.158087253570556641e+00,1.158018827438354492e+00,1.157950401306152344e+00,1.157881975173950195e+00,1.157813429832458496e+00,1.157745003700256348e+00,1.157676577568054199e+00,1.009711980819702148e+00,9.878704547882080078e-01,9.729362726211547852e-01,9.562748074531555176e-01,9.447942972183227539e-01,9.534797072410583496e-01,1.157197833061218262e+00,1.157129406929016113e+00,1.157060980796813965e+00
1.087218999862670898e+00,1.087158679962158203e+00,1.087098240852355957e+00,1.087037920951843262e+00,1.086977601051330566e+00,1.086917281150817871e+00,1.086856961250305176e+00,1.086796641349792480e+00,1.086736321449279785e+00,1.086676120758056641e+00,1.086615800857543945e+00,1.086555480957031250e+00,1.086495280265808105e+00,1.086434960365295410e+00,1.086374759674072266e+00,1.086314439773559570e+00,1.086254239082336426e+00,1.086193919181823730e+00,1.086133718490600586e+00,1.086073517799377441e+00,1.086013317108154297e+00,1.085953116416931152e+00,1.085892915725708008e+00,1.085832595825195312e+00,1.085772514343261719e+00,1.085712313652038574e+00,1.085652112960815430e+00,1.085591912269592285e+00,1.085531711578369141e+00,1.085471630096435547e+00,1.085411429405212402e+00,1.085351347923278809e+00,1.085291147232055664e+00,1.085230946540832520e+00,1.085170865058898926e+00,1.085110783576965332e+00,1.085050702095031738e+00,1.084990501403808594e+00,1.084930419921875000e+00,1.084870338439941406e+00,1.084810256958007812e+00,1.084750175476074219e+00,1.084690093994140625e+00,1.084630012512207031e+00,1.084569931030273438e+00,1.084509849548339844e+00,1.084449887275695801e+00,1.084389805793762207e+00,1.084329724311828613e+00,1.084269762039184570e+00,1.084209680557250977e+00,1.084149718284606934e+00,1.084089756011962891e+00,1.084029674530029297e+00,1.083969712257385254e+00,1.083909749984741211e+00,1.083849668502807617e+00,1.083789825439453125e+00,1.083729743957519531e+00,1.083669900894165039e+00,1.083609938621520996e+00,1.083549857139587402e+00,1.083490014076232910e+00,1.083430051803588867e+00,1.083370208740234375e+00,1.083310246467590332e+00,1.083250284194946289e+00,1.083190441131591797e+00,1.083130478858947754e+00,1.083070635795593262e+00,1.083010673522949219e+00,1.082950830459594727e+00,9.861302375793457031e-01,9.704257845878601074e-01,9.500315785408020020e-01,9.329844713211059570e-01,9.220763444900512695e-01,9.243176579475402832e-01,1.082531809806823730e+00,1.082471966743469238e+00
1.021105408668518066e+00,1.021052241325378418e+00,1.020998954772949219e+00,1.020945787429809570e+00,1.020892620086669922e+00,1.020839333534240723e+00,1.020786166191101074e+00,1.020732998847961426e+00,1.020679831504821777e+00,1.020626544952392578e+00,1.020573377609252930e+00,1.020520210266113281e+00,1.020467042922973633e+00,1.020413875579833984e+00,1.020360708236694336e+00,1.020307540893554688e+00,1.020254492759704590e+00,1.020201325416564941e+00,1.020148158073425293e+00,1.020094990730285645e+00,1.020041823387145996e+00,1.019988775253295898e+00,1.019935607910156250e+00,1.019882559776306152e+00,1.019829392433166504e+00,1.019776344299316406e+00,1.019723296165466309e+00,1.019670128822326660e+00,1.019617080688476562e+00,1.019564032554626465e+00,1.019510865211486816e+00,1.019457817077636719e+00,1.019404768943786621e+00,1.019351720809936523e+00,1.019298672676086426e+00,1.019245624542236328e+00,1.019192576408386230e+00,1.019139528274536133e+00,1.019086599349975586e+00,1.019033551216125488e+00,1.018980503082275391e+00,1.018927574157714844e+00,1.018874526023864746e+00,1.018821477890014648e+00,1.018768548965454102e+00,1.018715500831604004e+00,1.018662571907043457e+00,1.018609523773193359e+00,1.018556594848632812e+00,1.018503665924072266e+00,1.018450617790222168e+00,1.018397688865661621e+00,1.018344759941101074e+00,1.018291831016540527e+00,1.018238902091979980e+00,1.018185853958129883e+00,1.018133044242858887e+00,1.018080115318298340e+00,1.018027186393737793e+00,1.017974257469177246e+00,1.017921328544616699e+00,1.017868399620056152e+00,1.017815589904785156e+00,1.017762660980224609e+00,1.017709732055664062e+00,1.017656922340393066e+00,1.017603993415832520e+00,1.017551183700561523e+00,1.017498373985290527e+00,1.017445445060729980e+00,1.017392516136169434e+00,1.017339706420898438e+00,1.017286896705627441e+00,1.017234086990356445e+00,1.017181277275085449e+00,1.017128348350524902e+00,1.017075657844543457e+00,1.017022728919982910e+00,1.016970038414001465e+00,1.016917228698730469e+00
9.625717997550964355e-01,9.625245332717895508e-01,9.624771475791931152e-01,9.624298810958862305e-01,9.623826146125793457e-01,9.623353481292724609e-01,9.622880220413208008e-01,9.622407555580139160e-01,9.621934890747070312e-01,9.621461629867553711e-01,9.620989561080932617e-01,9.620517492294311523e-01,9.620043635368347168e-01,9.619571566581726074e-01,9.619099497795104980e-01,9.618627429008483887e-01,9.618154764175415039e-01,9.617682695388793945e-01,9.617210626602172852e-01,9.616737365722656250e-01,9.616265892982482910e-01,9.615793824195861816e-01,9.615321159362792969e-01,9.614849686622619629e-01,9.614377617835998535e-01,9.613906145095825195e-01,9.613433480262756348e-01,9.612962007522583008e-01,9.612490534782409668e-01,9.612018465995788574e-01,9.611546993255615234e-01,9.611075520515441895e-01,9.610602855682373047e-01,9.610131978988647461e-01,9.609660506248474121e-01,9.609189629554748535e-01,9.608717560768127441e-01,9.608246088027954102e-01,9.607775211334228516e-01,9.607303142547607422e-01,9.606832265853881836e-01,9.606361389160156250e-01,9.605889916419982910e-01,9.605419039726257324e-01,9.604948163032531738e-01,9.604477286338806152e-01,9.604005813598632812e-01,9.603534936904907227e-01,9.603064656257629395e-01,9.602593183517456055e-01,9.602122306823730469e-01,9.601652026176452637e-01,9.601180553436279297e-01,9.600710272789001465e-01,9.600239992141723633e-01,9.599769711494445801e-01,9.599298834800720215e-01,9.598828554153442383e-01,9.598358273506164551e-01,9.597887396812438965e-01,9.597417116165161133e-01,9.596947431564331055e-01,9.596476554870605469e-01,9.596006274223327637e-01,9.595536589622497559e-01,9.595066905021667480e-01,9.594596028327941895e-01,9.594126343727111816e-01,9.593656659126281738e-01,9.593186378479003906e-01,9.592716693878173828e-01,9.592247009277343750e-01,9.591776728630065918e-01,9.591307044029235840e-01,9.590837955474853516e-01,9.590368270874023438e-01,9.589897990226745605e-01,9.589428901672363281e-01,9.588959813117980957e-01,9.588489532470703125e-01
9.103850126266479492e-01,9.103426337242126465e-01,9.103003740310668945e-01,9.102580547332763672e-01,9.102157950401306152e-01,9.101734161376953125e-01,9.101311564445495605e-01,9.100888967514038086e-01,9.100465774536132812e-01,9.100043177604675293e-01,9.099620580673217773e-01,9.099196791648864746e-01,9.098774790763854980e-01,9.098352193832397461e-01,9.097930192947387695e-01,9.097506403923034668e-01,9.097084403038024902e-01,9.096662402153015137e-01,9.096239209175109863e-01,9.095816612243652344e-01,9.095394611358642578e-01,9.094971418380737305e-01,9.094549417495727539e-01,9.094127416610717773e-01,9.093706011772155762e-01,9.093282818794250488e-01,9.092860817909240723e-01,9.092439413070678711e-01,9.092016220092773438e-01,9.091594815254211426e-01,9.091172814369201660e-01,9.090750217437744141e-01,9.090328812599182129e-01,9.089906811714172363e-01,9.089484214782714844e-01,9.089062809944152832e-01,9.088641405105590820e-01,9.088220000267028809e-01,9.087797999382019043e-01,9.087376594543457031e-01,9.086955189704895020e-01,9.086532592773437500e-01,9.086111783981323242e-01,9.085690379142761230e-01,9.085268378257751465e-01,9.084846973419189453e-01,9.084426164627075195e-01,9.084004759788513184e-01,9.083582758903503418e-01,9.083161950111389160e-01,9.082741141319274902e-01,9.082319140434265137e-01,9.081898331642150879e-01,9.081477522850036621e-01,9.081056118011474609e-01,9.080635309219360352e-01,9.080214500427246094e-01,9.079793691635131836e-01,9.079372286796569824e-01,9.078951478004455566e-01,9.078531265258789062e-01,9.078109860420227051e-01,9.077689051628112793e-01,9.077268838882446289e-01,9.076847434043884277e-01,9.076427221298217773e-01,9.076006412506103516e-01,9.075586199760437012e-01,9.075165390968322754e-01,9.074745178222656250e-01,9.074324965476989746e-01,9.073903560638427734e-01,9.073483943939208984e-01,9.073063731193542480e-01,9.072642922401428223e-01,9.072222709655761719e-01,9.071803092956542969e-01,9.071382880210876465e-01,9.070962071418762207e-01,9.070542454719543457e-01
8.635658621788024902e-01,8.635278344154357910e-01,8.634897470474243164e-01,8.634516596794128418e-01,8.634135723114013672e-01,8.633755445480346680e-01,8.633375167846679688e-01,8.632994294166564941e-01,8.632614016532897949e-01,8.632233738899230957e-01,8.631852865219116211e-01,8.631472587585449219e-01,8.631092309951782227e-01,8.630711436271667480e-01,8.630331754684448242e-01,8.629951477050781250e-01,8.629571795463562012e-01,8.629190921783447266e-01,8.628810644149780273e-01,8.628430962562561035e-01,8.628050088882446289e-01,8.627670407295227051e-01,8.627290725708007812e-01,8.626909852027893066e-01,8.626530170440673828e-01,8.626150488853454590e-01,8.625770807266235352e-01,8.625390529632568359e-01,8.625010848045349121e-01,8.624631166458129883e-01,8.624250888824462891e-01,8.623871207237243652e-01,8.623492121696472168e-01,8.623111844062805176e-01,8.622732162475585938e-01,8.622353076934814453e-01,8.621973991394042969e-01,8.621593713760375977e-01,8.621214628219604492e-01,8.620834946632385254e-01,8.620455265045166016e-01,8.620076179504394531e-01,8.619697093963623047e-01,8.619316816329956055e-01,8.618937730789184570e-01,8.618558645248413086e-01,8.618180155754089355e-01,8.617799878120422363e-01,8.617421388626098633e-01,8.617042303085327148e-01,8.616662621498107910e-01,8.616283535957336426e-01,8.615905046463012695e-01,8.615525364875793457e-01,8.615146875381469727e-01,8.614767789840698242e-01,8.614388704299926758e-01,8.614009618759155273e-01,8.613631129264831543e-01,8.613252639770507812e-01,8.612873554229736328e-01,8.612495064735412598e-01,8.612116575241088867e-01,8.611736893653869629e-01,8.611359000205993652e-01,8.610980510711669922e-01,8.610601425170898438e-01,8.610222935676574707e-01,8.609845042228698730e-01,8.609466552734375000e-01,8.609087467193603516e-01,8.608709573745727539e-01,8.608331084251403809e-01,8.607952594757080078e-01,8.607574105262756348e-01,8.607196211814880371e-01,8.606817722320556641e-01,8.606439232826232910e-01,8.606061339378356934e-01,8.605683445930480957e-01
8.213268518447875977e-01,8.212924599647521973e-01,8.212579488754272461e-01,8.212235569953918457e-01,8.211891055107116699e-01,8.211546540260314941e-01,8.211202621459960938e-01,8.210858702659606934e-01,8.210514783859252930e-01,8.210169672966003418e-01,8.209825754165649414e-01,8.209481835365295410e-01,8.209137320518493652e-01,8.208793401718139648e-01,8.208449482917785645e-01,8.208104968070983887e-01,8.207761645317077637e-01,8.207417726516723633e-01,8.207074403762817383e-01,8.206729888916015625e-01,8.206385970115661621e-01,8.206042647361755371e-01,8.205698132514953613e-01,8.205354809761047363e-01,8.205010890960693359e-01,8.204666972160339355e-01,8.204323649406433105e-01,8.203980326652526855e-01,8.203636407852172852e-01,8.203292489051818848e-01,8.202949166297912598e-01,8.202605843544006348e-01,8.202261924743652344e-01,8.201918601989746094e-01,8.201575279235839844e-01,8.201231360435485840e-01,8.200888037681579590e-01,8.200545310974121094e-01,8.200201988220214844e-01,8.199858069419860840e-01,8.199514746665954590e-01,8.199172019958496094e-01,8.198828101158142090e-01,8.198485374450683594e-01,8.198142647743225098e-01,8.197798728942871094e-01,8.197456002235412598e-01,8.197112679481506348e-01,8.196769952774047852e-01,8.196426630020141602e-01,8.196083903312683105e-01,8.195741176605224609e-01,8.195397853851318359e-01,8.195055127143859863e-01,8.194712400436401367e-01,8.194369077682495117e-01,8.194026350975036621e-01,8.193683624267578125e-01,8.193340897560119629e-01,8.192998170852661133e-01,8.192655444145202637e-01,8.192312717437744141e-01,8.191969990730285645e-01,8.191627264022827148e-01,8.191285133361816406e-01,8.190941810607910156e-01,8.190599679946899414e-01,8.190257549285888672e-01,8.189914822578430176e-01,8.189572095870971680e-01,8.189229965209960938e-01,8.188887834548950195e-01,8.188544511795043945e-01,8.188202977180480957e-01,8.187860846519470215e-01,8.187517523765563965e-01,8.187175989151000977e-01,8.186833858489990234e-01,8.186491727828979492e-01,8.186149001121520996e-01
7.830272316932678223e-01,7.829958796501159668e-01,7.829645872116088867e-01,7.829332947731018066e-01,7.829019427299499512e-01,7.828707098960876465e-01,7.828394174575805664e-01,7.828080654144287109e-01,7.827768325805664062e-01,7.827455401420593262e-01,7.827143073081970215e-01,7.826829552650451660e-01,7.826517224311828613e-01,7.826204299926757812e-01,7.825891375541687012e-01,7.825579047203063965e-01,7.825266122817993164e-01,7.824953198432922363e-01,7.824640870094299316e-01,7.824328541755676270e-01,7.824016213417053223e-01,7.823703289031982422e-01,7.823390960693359375e-01,7.823078632354736328e-01,7.822765707969665527e-01,7.822453379631042480e-01,7.822141051292419434e-01,7.821828126907348633e-01,7.821515798568725586e-01,7.821204066276550293e-01,7.820891737937927246e-01,7.820578813552856445e-01,7.820267081260681152e-01,7.819954752922058105e-01,7.819642424583435059e-01,7.819330096244812012e-01,7.819018363952636719e-01,7.818705439567565918e-01,7.818393707275390625e-01,7.818081974983215332e-01,7.817770242691040039e-01,7.817457318305969238e-01,7.817145586013793945e-01,7.816833853721618652e-01,7.816521525382995605e-01,7.816209793090820312e-01,7.815898060798645020e-01,7.815585732460021973e-01,7.815274000167846680e-01,7.814962267875671387e-01,7.814650535583496094e-01,7.814338207244873047e-01,7.814027070999145508e-01,7.813715338706970215e-01,7.813403010368347168e-01,7.813091874122619629e-01,7.812780141830444336e-01,7.812467813491821289e-01,7.812156677246093750e-01,7.811845541000366211e-01,7.811533808708190918e-01,7.811222076416015625e-01,7.810910344123840332e-01,7.810599207878112793e-01,7.810287475585937500e-01,7.809976339340209961e-01,7.809665203094482422e-01,7.809352874755859375e-01,7.809041738510131836e-01,7.808730602264404297e-01,7.808419466018676758e-01,7.808107733726501465e-01,7.807796597480773926e-01,7.807486057281494141e-01,7.807174324989318848e-01,7.806863188743591309e-01,7.806552052497863770e-01,7.806240320205688477e-01,7.805929780006408691e-01,7.805618643760681152e-01
7.481402754783630371e-01,7.481117248535156250e-01,7.480831742286682129e-01,7.480545639991760254e-01,7.480260133743286133e-01,7.479974627494812012e-01,7.479688525199890137e-01,7.479403018951416016e-01,7.479117512702941895e-01,7.478832006454467773e-01,7.478545904159545898e-01,7.478260993957519531e-01,7.477975487709045410e-01,7.477689385414123535e-01,7.477403879165649414e-01,7.477118968963623047e-01,7.476832866668701172e-01,7.476547956466674805e-01,7.476262450218200684e-01,7.475977540016174316e-01,7.475691437721252441e-01,7.475406527519226074e-01,7.475121617317199707e-01,7.474835515022277832e-01,7.474550604820251465e-01,7.474265694618225098e-01,7.473979592323303223e-01,7.473694682121276855e-01,7.473409771919250488e-01,7.473124861717224121e-01,7.472839355468750000e-01,7.472554445266723633e-01,7.472269535064697266e-01,7.471984028816223145e-01,7.471699118614196777e-01,7.471414208412170410e-01,7.471128702163696289e-01,7.470843791961669922e-01,7.470559477806091309e-01,7.470273971557617188e-01,7.469989061355590820e-01,7.469704151153564453e-01,7.469419836997985840e-01,7.469134330749511719e-01,7.468850016593933105e-01,7.468565106391906738e-01,7.468280196189880371e-01,7.467995285987854004e-01,7.467710971832275391e-01,7.467425465583801270e-01,7.467141151428222656e-01,7.466856837272644043e-01,7.466572523117065430e-01,7.466287016868591309e-01,7.466002702713012695e-01,7.465718388557434082e-01,7.465433478355407715e-01,7.465149164199829102e-01,7.464864850044250488e-01,7.464579343795776367e-01,7.464295625686645508e-01,7.464011311531066895e-01,7.463726997375488281e-01,7.463442087173461914e-01,7.463157773017883301e-01,7.462873458862304688e-01,7.462588548660278320e-01,7.462304830551147461e-01,7.462020516395568848e-01,7.461735606193542480e-01,7.461451888084411621e-01,7.461167573928833008e-01,7.460883855819702148e-01,7.460598945617675781e-01,7.460315227508544922e-01,7.460030913352966309e-01,7.459746599197387695e-01,7.459462285041809082e-01,7.459178566932678223e-01,7.458894252777099609e-01
7.162294983863830566e-01,7.162033319473266602e-01,7.161771059036254883e-01,7.161509394645690918e-01,7.161247730255126953e-01,7.160985469818115234e-01,7.160723805427551270e-01,7.160462141036987305e-01,7.160199880599975586e-01,7.159938216209411621e-01,7.159676551818847656e-01,7.159415483474731445e-01,7.159153223037719727e-01,7.158891558647155762e-01,7.158629894256591797e-01,7.158368229866027832e-01,7.158106565475463867e-01,7.157845497131347656e-01,7.157583236694335938e-01,7.157321572303771973e-01,7.157060503959655762e-01,7.156798839569091797e-01,7.156537175178527832e-01,7.156276106834411621e-01,7.156014442443847656e-01,7.155752778053283691e-01,7.155491709709167480e-01,7.155230045318603516e-01,7.154968380928039551e-01,7.154707312583923340e-01,7.154446244239807129e-01,7.154185175895690918e-01,7.153922915458679199e-01,7.153661847114562988e-01,7.153400778770446777e-01,7.153139114379882812e-01,7.152878046035766602e-01,7.152616977691650391e-01,7.152355909347534180e-01,7.152094841003417969e-01,7.151833772659301758e-01,7.151572704315185547e-01,7.151311039924621582e-01,7.151049971580505371e-01,7.150789499282836914e-01,7.150527834892272949e-01,7.150266766548156738e-01,7.150006294250488281e-01,7.149744629859924316e-01,7.149484157562255859e-01,7.149223089218139648e-01,7.148962616920471191e-01,7.148700952529907227e-01,7.148440480232238770e-01,7.148179411888122559e-01,7.147918343544006348e-01,7.147657871246337891e-01,7.147396802902221680e-01,7.147135734558105469e-01,7.146875262260437012e-01,7.146614193916320801e-01,7.146353125572204590e-01,7.146092653274536133e-01,7.145832180976867676e-01,7.145571708679199219e-01,7.145310640335083008e-01,7.145050168037414551e-01,7.144789695739746094e-01,7.144528627395629883e-01,7.144268155097961426e-01,7.144007682800292969e-01,7.143746614456176758e-01,7.143486142158508301e-01,7.143226265907287598e-01,7.142965793609619141e-01,7.142704725265502930e-01,7.142444252967834473e-01,7.142184376716613770e-01,7.141923308372497559e-01,7.141662836074829102e-01
6.869295239448547363e-01,6.869054436683654785e-01,6.868813633918762207e-01,6.868572831153869629e-01,6.868332028388977051e-01,6.868091225624084473e-01,6.867850422859191895e-01,6.867609024047851562e-01,6.867368817329406738e-01,6.867128014564514160e-01,6.866886615753173828e-01,6.866646409034729004e-01,6.866405606269836426e-01,6.866164803504943848e-01,6.865924000740051270e-01,6.865683197975158691e-01,6.865442991256713867e-01,6.865202188491821289e-01,6.864961385726928711e-01,6.864721179008483887e-01,6.864479780197143555e-01,6.864239573478698730e-01,6.863999366760253906e-01,6.863759160041809082e-01,6.863517761230468750e-01,6.863277554512023926e-01,6.863037347793579102e-01,6.862796545028686523e-01,6.862556338310241699e-01,6.862316131591796875e-01,6.862074732780456543e-01,6.861834526062011719e-01,6.861594319343566895e-01,6.861354112625122070e-01,6.861113309860229492e-01,6.860873699188232422e-01,6.860633492469787598e-01,6.860392689704895020e-01,6.860152482986450195e-01,6.859912276268005371e-01,6.859671473503112793e-01,6.859431862831115723e-01,6.859191656112670898e-01,6.858951449394226074e-01,6.858710646629333496e-01,6.858471035957336426e-01,6.858230829238891602e-01,6.857990622520446777e-01,6.857750415802001953e-01,6.857510209083557129e-01,6.857270002365112305e-01,6.857029795646667480e-01,6.856790184974670410e-01,6.856550574302673340e-01,6.856309771537780762e-01,6.856070160865783691e-01,6.855829954147338867e-01,6.855589747428894043e-01,6.855350136756896973e-01,6.855110526084899902e-01,6.854869723320007324e-01,6.854630112648010254e-01,6.854390501976013184e-01,6.854150891304016113e-01,6.853910684585571289e-01,6.853671073913574219e-01,6.853431463241577148e-01,6.853191256523132324e-01,6.852951645851135254e-01,6.852712035179138184e-01,6.852471828460693359e-01,6.852232217788696289e-01,6.851992607116699219e-01,6.851752996444702148e-01,6.851512789726257324e-01,6.851273179054260254e-01,6.851034164428710938e-01,6.850793957710266113e-01,6.850554347038269043e-01,6.850315332412719727e-01
6.599326133728027344e-01,6.599103808403015137e-01,6.598881483078002930e-01,6.598659157752990723e-01,6.598436832427978516e-01,6.598215103149414062e-01,6.597992181777954102e-01,6.597769856452941895e-01,6.597548127174377441e-01,6.597325205802917480e-01,6.597103476524353027e-01,6.596881151199340820e-01,6.596658825874328613e-01,6.596436500549316406e-01,6.596214771270751953e-01,6.595993041992187500e-01,6.595770120620727539e-01,6.595548391342163086e-01,6.595326662063598633e-01,6.595103740692138672e-01,6.594882011413574219e-01,6.594660282135009766e-01,6.594437956809997559e-01,6.594215631484985352e-01,6.593993902206420898e-01,6.593772172927856445e-01,6.593549847602844238e-01,6.593328118324279785e-01,6.593106389045715332e-01,6.592884063720703125e-01,6.592662334442138672e-01,6.592440605163574219e-01,6.592218279838562012e-01,6.591996550559997559e-01,6.591774821281433105e-01,6.591553092002868652e-01,6.591330766677856445e-01,6.591109037399291992e-01,6.590887904167175293e-01,6.590665578842163086e-01,6.590443849563598633e-01,6.590222120285034180e-01,6.590000391006469727e-01,6.589778661727905273e-01,6.589556932449340820e-01,6.589335799217224121e-01,6.589113473892211914e-01,6.588891744613647461e-01,6.588670611381530762e-01,6.588448286056518555e-01,6.588227152824401855e-01,6.588005423545837402e-01,6.587783694267272949e-01,6.587561964988708496e-01,6.587340831756591797e-01,6.587119102478027344e-01,6.586897373199462891e-01,6.586676239967346191e-01,6.586454510688781738e-01,6.586232781410217285e-01,6.586011648178100586e-01,6.585790514945983887e-01,6.585568785667419434e-01,6.585347056388854980e-01,6.585125923156738281e-01,6.584904789924621582e-01,6.584683060646057129e-01,6.584461927413940430e-01,6.584240794181823730e-01,6.584019064903259277e-01,6.583797931671142578e-01,6.583576798439025879e-01,6.583355069160461426e-01,6.583133935928344727e-01,6.582912802696228027e-01,6.582691669464111328e-01,6.582469940185546875e-01,6.582248806953430176e-01,6.582027673721313477e-01,6.581806540489196777e-01
6.349774599075317383e-01,6.349568367004394531e-01,6.349362730979919434e-01,6.349157094955444336e-01,6.348951458930969238e-01,6.348745226860046387e-01,6.348539590835571289e-01,6.348333954811096191e-01,6.348127722740173340e-01,6.347922086715698242e-01,6.347716450691223145e-01,6.347510814666748047e-01,6.347305178642272949e-01,6.347099542617797852e-01,6.346893906593322754e-01,6.346688270568847656e-01,6.346482634544372559e-01,6.346276998519897461e-01,6.346070766448974609e-01,6.345865726470947266e-01,6.345660090446472168e-01,6.345454454421997070e-01,6.345248818397521973e-01,6.345043182373046875e-01,6.344838142395019531e-01,6.344631910324096680e-01,6.344426870346069336e-01,6.344221234321594238e-01,6.344015598297119141e-01,6.343809962272644043e-01,6.343604922294616699e-01,6.343399286270141602e-01,6.343193650245666504e-01,6.342988610267639160e-01,6.342782974243164062e-01,6.342577338218688965e-01,6.342372298240661621e-01,6.342167258262634277e-01,6.341961026191711426e-01,6.341755986213684082e-01,6.341550946235656738e-01,6.341345310211181641e-01,6.341140270233154297e-01,6.340935230255126953e-01,6.340729594230651855e-01,6.340523958206176758e-01,6.340318918228149414e-01,6.340113878250122070e-01,6.339908242225646973e-01,6.339703202247619629e-01,6.339498162269592285e-01,6.339292526245117188e-01,6.339087486267089844e-01,6.338883042335510254e-01,6.338677406311035156e-01,6.338472366333007812e-01,6.338267326354980469e-01,6.338062286376953125e-01,6.337856650352478027e-01,6.337652206420898438e-01,6.337447166442871094e-01,6.337241530418395996e-01,6.337036490440368652e-01,6.336832046508789062e-01,6.336626410484313965e-01,6.336421370506286621e-01,6.336216926574707031e-01,6.336011886596679688e-01,6.335806846618652344e-01,6.335601806640625000e-01,6.335396766662597656e-01,6.335191726684570312e-01,6.334986686706542969e-01,6.334782242774963379e-01,6.334577202796936035e-01,6.334372162818908691e-01,6.334167718887329102e-01,6.333962678909301758e-01,6.333757638931274414e-01,6.333553194999694824e-01
6.118409037590026855e-01,6.118217706680297852e-01,6.118026971817016602e-01,6.117835640907287598e-01,6.117644309997558594e-01,6.117453575134277344e-01,6.117262244224548340e-01,6.117070913314819336e-01,6.116880178451538086e-01,6.116689443588256836e-01,6.116498112678527832e-01,6.116307377815246582e-01,6.116116046905517578e-01,6.115924715995788574e-01,6.115733981132507324e-01,6.115543246269226074e-01,6.115352511405944824e-01,6.115161180496215820e-01,6.114970445632934570e-01,6.114779710769653320e-01,6.114588379859924316e-01,6.114397644996643066e-01,6.114206910133361816e-01,6.114015579223632812e-01,6.113824844360351562e-01,6.113634109497070312e-01,6.113443374633789062e-01,6.113252639770507812e-01,6.113061904907226562e-01,6.112871170043945312e-01,6.112679839134216309e-01,6.112489700317382812e-01,6.112298965454101562e-01,6.112107634544372559e-01,6.111916899681091309e-01,6.111726760864257812e-01,6.111536026000976562e-01,6.111345291137695312e-01,6.111154556274414062e-01,6.110963821411132812e-01,6.110773086547851562e-01,6.110582351684570312e-01,6.110392212867736816e-01,6.110200881958007812e-01,6.110010743141174316e-01,6.109820008277893066e-01,6.109629869461059570e-01,6.109438538551330566e-01,6.109248399734497070e-01,6.109057664871215820e-01,6.108866930007934570e-01,6.108676791191101074e-01,6.108486056327819824e-01,6.108295321464538574e-01,6.108105182647705078e-01,6.107914447784423828e-01,6.107723712921142578e-01,6.107533574104309082e-01,6.107343435287475586e-01,6.107152700424194336e-01,6.106961965560913086e-01,6.106771826744079590e-01,6.106581687927246094e-01,6.106390953063964844e-01,6.106200814247131348e-01,6.106010675430297852e-01,6.105819940567016602e-01,6.105629801750183105e-01,6.105439066886901855e-01,6.105248928070068359e-01,6.105058789253234863e-01,6.104868650436401367e-01,6.104678511619567871e-01,6.104487776756286621e-01,6.104297637939453125e-01,6.104107499122619629e-01,6.103916764259338379e-01,6.103726625442504883e-01,6.103536486625671387e-01,6.103346347808837891e-01
5.903310775756835938e-01,5.903132557868957520e-01,5.902954339981079102e-01,5.902776718139648438e-01,5.902599096298217773e-01,5.902420878410339355e-01,5.902243256568908691e-01,5.902065634727478027e-01,5.901888012886047363e-01,5.901709794998168945e-01,5.901532173156738281e-01,5.901353955268859863e-01,5.901176333427429199e-01,5.900998711585998535e-01,5.900820493698120117e-01,5.900642871856689453e-01,5.900465250015258789e-01,5.900287628173828125e-01,5.900110006332397461e-01,5.899931788444519043e-01,5.899754166603088379e-01,5.899576544761657715e-01,5.899398922920227051e-01,5.899221301078796387e-01,5.899043679237365723e-01,5.898865461349487305e-01,5.898687839508056641e-01,5.898510813713073730e-01,5.898333191871643066e-01,5.898154973983764648e-01,5.897977948188781738e-01,5.897800326347351074e-01,5.897622704505920410e-01,5.897445082664489746e-01,5.897267460823059082e-01,5.897089838981628418e-01,5.896912217140197754e-01,5.896734595298767090e-01,5.896557569503784180e-01,5.896379351615905762e-01,5.896202325820922852e-01,5.896024703979492188e-01,5.895847082138061523e-01,5.895669460296630859e-01,5.895492434501647949e-01,5.895314812660217285e-01,5.895137190818786621e-01,5.894960165023803711e-01,5.894782543182373047e-01,5.894604921340942383e-01,5.894427895545959473e-01,5.894250273704528809e-01,5.894072651863098145e-01,5.893895626068115234e-01,5.893718600273132324e-01,5.893540978431701660e-01,5.893363356590270996e-01,5.893186330795288086e-01,5.893009305000305176e-01,5.892831683158874512e-01,5.892654061317443848e-01,5.892477035522460938e-01,5.892299413681030273e-01,5.892122387886047363e-01,5.891945362091064453e-01,5.891767740249633789e-01,5.891590714454650879e-01,5.891413688659667969e-01,5.891236662864685059e-01,5.891059041023254395e-01,5.890882015228271484e-01,5.890704989433288574e-01,5.890527367591857910e-01,5.890350341796875000e-01,5.890173316001892090e-01,5.889996290206909180e-01,5.889819264411926270e-01,5.889642238616943359e-01,5.889465212821960449e-01,5.889287590980529785e-01
