5.000000000000000000e+00,5.000000000000000000e+00,5.000000000000000000e+00,5.000000000000000000e+00,5.000000000000000000e+00,5.000000000000000000e+00,5.000000000000000000e+00,5.000000000000000000e+00,5.000000000000000000e+00,5.000000000000000000e+00,5.000000000000000000e+00,5.000000000000000000e+00,5.000000000000000000e+00,5.000000000000000000e+00,5.000000000000000000e+00,5.000000000000000000e+00,5.000000000000000000e+00,5.000000000000000000e+00,5.000000000000000000e+00,5.000000000000000000e+00,5.000000000000000000e+00,5.000000000000000000e+00,5.000000000000000000e+00,5.000000000000000000e+00,5.000000000000000000e+00,5.000000000000000000e+00,5.000000000000000000e+00,5.000000000000000000e+00,5.000000000000000000e+00,5.000000000000000000e+00,5.000000000000000000e+00,5.000000000000000000e+00,5.000000000000000000e+00,5.000000000000000000e+00,5.000000000000000000e+00,5.000000000000000000e+00,5.000000000000000000e+00,5.000000000000000000e+00,5.000000000000000000e+00,4.862760066986083984e+00,4.671742916107177734e+00,4.495164871215820312e+00,4.331449031829833984e+00,4.179239273071289062e+00,4.037364006042480469e+00,3.904805183410644531e+00,3.780674219131469727e+00,1.278115987777709961e+00,1.249479532241821289e+00,1.248284101486206055e+00,1.241429686546325684e+00,3.262164592742919922e+00,3.175073623657226562e+00,3.092512130737304688e+00,1.174394488334655762e+00,1.145817995071411133e+00,1.122309923171997070e+00,1.101515054702758789e+00,1.079706668853759766e+00,1.070724964141845703e+00,1.062873244285583496e+00,1.058561325073242188e+00,1.079415202140808105e+00,2.454316854476928711e+00,2.404691457748413086e+00,2.357033252716064453e+00,2.311227560043334961e+00,2.267168045043945312e+00,2.224756956100463867e+00,2.183903694152832031e+00,2.144523620605468750e+00,2.106538772583007812e+00,2.069875717163085938e+00,2.034467458724975586e+00,2.000250101089477539e+00,1.967164874076843262e+00,1.935156106948852539e+00,1.904172301292419434e+00,1.874165058135986328e+00,1.845088958740234375e+00
5.000000000000000000e+00,5.000000000000000000e+00,5.000000000000000000e+00,5.000000000000000000e+00,5.000000000000000000e+00,5.000000000000000000e+00,5.000000000000000000e+00,5.000000000000000000e+00,5.000000000000000000e+00,5.000000000000000000e+00,5.000000000000000000e+00,5.000000000000000000e+00,5.000000000000000000e+00,5.000000000000000000e+00,5.000000000000000000e+00,5.000000000000000000e+00,5.000000000000000000e+00,5.000000000000000000e+00,5.000000000000000000e+00,5.000000000000000000e+00,5.000000000000000000e+00,5.000000000000000000e+00,5.000000000000000000e+00,5.000000000000000000e+00,5.000000000000000000e+00,5.000000000000000000e+00,5.000000000000000000e+00,5.000000000000000000e+00,5.000000000000000000e+00,5.000000000000000000e+00,5.000000000000000000e+00,5.000000000000000000e+00,5.000000000000000000e+00,5.000000000000000000e+00,5.000000000000000000e+00,5.000000000000000000e+00,5.000000000000000000e+00,5.000000000000000000e+00,5.000000000000000000e+00,4.862900733947753906e+00,4.671872138977050781e+00,4.495285034179687500e+00,4.331560134887695312e+00,4.179342746734619141e+00,4.037460327148437500e+00,3.904895544052124023e+00,3.780758857727050781e+00,1.284066915512084961e+00,1.262526154518127441e+00,1.238888502120971680e+00,1.238641977310180664e+00,3.262227296829223633e+00,3.175133466720581055e+00,3.092568874359130859e+00,1.182068467140197754e+00,1.153168797492980957e+00,1.125960588455200195e+00,1.105031490325927734e+00,1.083510160446166992e+00,1.068100810050964355e+00,1.059793829917907715e+00,1.051714777946472168e+00,1.058701992034912109e+00,1.088624000549316406e+00,2.404725551605224609e+00,2.357066392898559570e+00,2.311259031295776367e+00,2.267198562622070312e+00,2.224786281585693359e+00,2.183932065963745117e+00,2.144550800323486328e+00,2.106564998626708984e+00,2.069901227951049805e+00,2.034492015838623047e+00,2.000273704528808594e+00,1.967187762260437012e+00,1.935178160667419434e+00,1.904193758964538574e+00,1.874185800552368164e+00,1.845108985900878906e+00
5.000000000000000000e+00,5.000000000000000000e+00,5.000000000000000000e+00,5.000000000000000000e+00,5.000000000000000000e+00,5.000000000000000000e+00,5.000000000000000000e+00,5.000000000000000000e+00,5.000000000000000000e+00,5.000000000000000000e+00,5.000000000000000000e+00,5.000000000000000000e+00,5.000000000000000000e+00,5.000000000000000000e+00,5.000000000000000000e+00,5.000000000000000000e+00,5.000000000000000000e+00,5.000000000000000000e+00,5.000000000000000000e+00,5.000000000000000000e+00,5.000000000000000000e+00,5.000000000000000000e+00,5.000000000000000000e+00,5.000000000000000000e+00,5.000000000000000000e+00,5.000000000000000000e+00,5.000000000000000000e+00,5.000000000000000000e+00,5.000000000000000000e+00,5.000000000000000000e+00,5.000000000000000000e+00,5.000000000000000000e+00,5.000000000000000000e+00,5.000000000000000000e+00,5.000000000000000000e+00,5.000000000000000000e+00,5.000000000000000000e+00,5.000000000000000000e+00,5.000000000000000000e+00,4.863040447235107422e+00,4.672001361846923828e+00,4.495404243469238281e+00,4.331671237945556641e+00,4.179446220397949219e+00,4.037557125091552734e+00,3.904986143112182617e+00,3.780843734741210938e+00,1.282371401786804199e+00,1.258741497993469238e+00,1.228553175926208496e+00,3.354300737380981445e+00,3.262290477752685547e+00,3.175193309783935547e+00,3.092625617980957031e+00,1.411229848861694336e+00,1.160614728927612305e+00,1.132742404937744141e+00,1.108570456504821777e+00,1.087340474128723145e+00,1.065754890441894531e+00,1.057222723960876465e+00,1.049083471298217773e+00,1.041048407554626465e+00,1.067482829093933105e+00,2.404759883880615234e+00,2.357099056243896484e+00,2.311290740966796875e+00,2.267228841781616211e+00,2.224815845489501953e+00,2.183960199356079102e+00,2.144578218460083008e+00,2.106591224670410156e+00,2.069926500320434570e+00,2.034516572952270508e+00,2.000297546386718750e+00,1.967210769653320312e+00,1.935200572013854980e+00,1.904215335845947266e+00,1.874206781387329102e+00,1.845129132270812988e+00
5.000000000000000000e+00,5.000000000000000000e+00,5.000000000000000000e+00,5.000000000000000000e+00,5.000000000000000000e+00,5.000000000000000000e+00,5.000000000000000000e+00,5.000000000000000000e+00,5.000000000000000000e+00,5.000000000000000000e+00,5.000000000000000000e+00,5.000000000000000000e+00,5.000000000000000000e+00,5.000000000000000000e+00,5.000000000000000000e+00,5.000000000000000000e+00,5.000000000000000000e+00,5.000000000000000000e+00,5.000000000000000000e+00,5.000000000000000000e+00,5.000000000000000000e+00,5.000000000000000000e+00,5.000000000000000000e+00,5.000000000000000000e+00,5.000000000000000000e+00,5.000000000000000000e+00,5.000000000000000000e+00,5.000000000000000000e+00,5.000000000000000000e+00,5.000000000000000000e+00,5.000000000000000000e+00,5.000000000000000000e+00,5.000000000000000000e+00,5.000000000000000000e+00,5.000000000000000000e+00,5.000000000000000000e+00,5.000000000000000000e+00,5.000000000000000000e+00,5.000000000000000000e+00,4.863180637359619141e+00,4.672130584716796875e+00,4.495524406433105469e+00,4.331782817840576172e+00,4.179549694061279297e+00,4.037653923034667969e+00,3.905076026916503906e+00,3.780928134918212891e+00,1.278551578521728516e+00,1.254337191581726074e+00,1.222156405448913574e+00,3.354367494583129883e+00,3.262353658676147461e+00,3.175252914428710938e+00,3.092682361602783203e+00,1.411005139350891113e+00,1.164892792701721191e+00,1.139328956604003906e+00,1.113026738166809082e+00,1.091198086738586426e+00,1.069460630416870117e+00,1.054338335990905762e+00,1.045970559120178223e+00,1.037734627723693848e+00,1.053965926170349121e+00,2.404793977737426758e+00,2.357131958007812500e+00,2.311322450637817383e+00,2.267259359359741211e+00,2.224845170974731445e+00,2.183988571166992188e+00,2.144605398178100586e+00,2.106617689132690430e+00,2.069952011108398438e+00,2.034541130065917969e+00,2.000321149826049805e+00,1.967233657836914062e+00,1.935222625732421875e+00,1.904236793518066406e+00,1.874227523803710938e+00,1.845149397850036621e+00
5.000000000000000000e+00,5.000000000000000000e+00,5.000000000000000000e+00,5.000000000000000000e+00,5.000000000000000000e+00,5.000000000000000000e+00,5.000000000000000000e+00,5.000000000000000000e+00,5.000000000000000000e+00,5.000000000000000000e+00,5.000000000000000000e+00,5.000000000000000000e+00,5.000000000000000000e+00,5.000000000000000000e+00,5.000000000000000000e+00,5.000000000000000000e+00,5.000000000000000000e+00,5.000000000000000000e+00,5.000000000000000000e+00,5.000000000000000000e+00,5.000000000000000000e+00,5.000000000000000000e+00,5.000000000000000000e+00,5.000000000000000000e+00,5.000000000000000000e+00,5.000000000000000000e+00,5.000000000000000000e+00,5.000000000000000000e+00,5.000000000000000000e+00,5.000000000000000000e+00,5.000000000000000000e+00,5.000000000000000000e+00,5.000000000000000000e+00,5.000000000000000000e+00,5.000000000000000000e+00,5.000000000000000000e+00,5.000000000000000000e+00,5.000000000000000000e+00,5.000000000000000000e+00,4.863320827484130859e+00,4.672260284423828125e+00,4.495644092559814453e+00,4.331893920898437500e+00,4.179653167724609375e+00,4.037750244140625000e+00,3.905166387557983398e+00,3.781012773513793945e+00,1.274177432060241699e+00,1.250977873802185059e+00,3.451793193817138672e+00,3.354434251785278320e+00,3.262416601181030273e+00,3.175312757492065430e+00,3.092739105224609375e+00,1.409771442413330078e+00,1.359485507011413574e+00,1.143424391746520996e+00,1.118784070014953613e+00,1.095083117485046387e+00,1.073517799377441406e+00,1.054992079734802246e+00,1.045277595520019531e+00,1.035773277282714844e+00,1.043478727340698242e+00,1.064127445220947266e+00,2.357165098190307617e+00,2.311354160308837891e+00,2.267289876937866211e+00,2.224874496459960938e+00,2.184016942977905273e+00,2.144632816314697266e+00,2.106643915176391602e+00,2.069977283477783203e+00,2.034565687179565430e+00,2.000344753265380859e+00,1.967256426811218262e+00,1.935244679450988770e+00,1.904258131980895996e+00,1.874248147010803223e+00,1.845169425010681152e+00
5.000000000000000000e+00,5.000000000000000000e+00,5.000000000000000000e+00,5.000000000000000000e+00,5.000000000000000000e+00,5.000000000000000000e+00,5.000000000000000000e+00,5.000000000000000000e+00,5.000000000000000000e+00,5.000000000000000000e+00,5.000000000000000000e+00,5.000000000000000000e+00,5.000000000000000000e+00,5.000000000000000000e+00,5.000000000000000000e+00,5.000000000000000000e+00,5.000000000000000000e+00,5.000000000000000000e+00,5.000000000000000000e+00,5.000000000000000000e+00,5.000000000000000000e+00,5.000000000000000000e+00,5.000000000000000000e+00,5.000000000000000000e+00,5.000000000000000000e+00,5.000000000000000000e+00,5.000000000000000000e+00,5.000000000000000000e+00,5.000000000000000000e+00,5.000000000000000000e+00,5.000000000000000000e+00,5.000000000000000000e+00,5.000000000000000000e+00,5.000000000000000000e+00,5.000000000000000000e+00,5.000000000000000000e+00,5.000000000000000000e+00,5.000000000000000000e+00,5.000000000000000000e+00,4.863461017608642578e+00,4.672389507293701172e+00,4.495763778686523438e+00,4.332005023956298828e+00,4.179757118225097656e+00,4.037847042083740234e+00,3.905256986618041992e+00,3.781097650527954102e+00,3.664589881896972656e+00,3.555047273635864258e+00,3.451863765716552734e+00,3.354501008987426758e+00,3.262479782104492188e+00,3.175372600555419922e+00,3.092795848846435547e+00,1.407108664512634277e+00,1.359901905059814453e+00,1.147549510002136230e+00,1.122732996940612793e+00,1.099429488182067871e+00,1.077778458595275879e+00,1.056632876396179199e+00,1.046329975128173828e+00,1.036996722221374512e+00,1.046580314636230469e+00,1.065797328948974609e+00,2.357197999954223633e+00,2.311385869979858398e+00,2.267320394515991211e+00,2.224903821945190430e+00,2.184045076370239258e+00,2.144659996032714844e+00,2.106670379638671875e+00,2.070002794265747070e+00,2.034590005874633789e+00,2.000368595123291016e+00,1.967279553413391113e+00,1.935267090797424316e+00,1.904279828071594238e+00,1.874269127845764160e+00,1.845189809799194336e+00
5.000000000000000000e+00,5.000000000000000000e+00,5.000000000000000000e+00,5.000000000000000000e+00,5.000000000000000000e+00,5.000000000000000000e+00,5.000000000000000000e+00,5.000000000000000000e+00,5.000000000000000000e+00,5.000000000000000000e+00,5.000000000000000000e+00,5.000000000000000000e+00,5.000000000000000000e+00,5.000000000000000000e+00,5.000000000000000000e+00,5.000000000000000000e+00,5.000000000000000000e+00,5.000000000000000000e+00,5.000000000000000000e+00,5.000000000000000000e+00,5.000000000000000000e+00,5.000000000000000000e+00,5.000000000000000000e+00,5.000000000000000000e+00,5.000000000000000000e+00,5.000000000000000000e+00,5.000000000000000000e+00,5.000000000000000000e+00,5.000000000000000000e+00,5.000000000000000000e+00,5.000000000000000000e+00,5.000000000000000000e+00,5.000000000000000000e+00,5.000000000000000000e+00,5.000000000000000000e+00,5.000000000000000000e+00,5.000000000000000000e+00,5.000000000000000000e+00,5.000000000000000000e+00,4.863601207733154297e+00,4.672518730163574219e+00,4.495883464813232422e+00,4.332116127014160156e+00,4.179860591888427734e+00,4.037943840026855469e+00,3.905347347259521484e+00,3.781182527542114258e+00,3.664669513702392578e+00,3.555122375488281250e+00,3.451934337615966797e+00,3.354567527770996094e+00,3.262542963027954102e+00,3.175432443618774414e+00,3.092852354049682617e+00,1.410999536514282227e+00,1.360318779945373535e+00,1.338647961616516113e+00,1.127816081047058105e+00,1.104273796081542969e+00,1.076956272125244141e+00,1.059432506561279297e+00,1.049311041831970215e+00,1.039782524108886719e+00,1.052191495895385742e+00,1.071400523185729980e+00,2.357230901718139648e+00,2.311417341232299805e+00,2.267350912094116211e+00,2.224933147430419922e+00,2.184073209762573242e+00,2.144687175750732422e+00,2.106696367263793945e+00,2.070028066635131836e+00,2.034614562988281250e+00,2.000392436981201172e+00,1.967302322387695312e+00,1.935289144515991211e+00,1.904301166534423828e+00,1.874289870262145996e+00,1.845209836959838867e+00
5.000000000000000000e+00,5.000000000000000000e+00,5.000000000000000000e+00,5.000000000000000000e+00,5.000000000000000000e+00,5.000000000000000000e+00,5.000000000000000000e+00,5.000000000000000000e+00,5.000000000000000000e+00,5.000000000000000000e+00,5.000000000000000000e+00,5.000000000000000000e+00,5.000000000000000000e+00,5.000000000000000000e+00,5.000000000000000000e+00,5.000000000000000000e+00,5.000000000000000000e+00,5.000000000000000000e+00,5.000000000000000000e+00,5.000000000000000000e+00,5.000000000000000000e+00,5.000000000000000000e+00,5.000000000000000000e+00,5.000000000000000000e+00,5.000000000000000000e+00,5.000000000000000000e+00,5.000000000000000000e+00,5.000000000000000000e+00,5.000000000000000000e+00,5.000000000000000000e+00,5.000000000000000000e+00,5.000000000000000000e+00,5.000000000000000000e+00,5.000000000000000000e+00,5.000000000000000000e+00,5.000000000000000000e+00,5.000000000000000000e+00,5.000000000000000000e+00,5.000000000000000000e+00,4.863741397857666016e+00,4.672648429870605469e+00,4.496003150939941406e+00,4.332227706909179688e+00,4.179964065551757812e+00,4.038040161132812500e+00,3.905437707901000977e+00,3.781267166137695312e+00,3.664749145507812500e+00,3.555197238922119141e+00,3.452005147933959961e+00,3.354634284973144531e+00,3.262605667114257812e+00,3.175491809844970703e+00,3.092909097671508789e+00,1.415875434875488281e+00,1.360735654830932617e+00,1.342054367065429688e+00,1.129019379615783691e+00,1.099963903427124023e+00,1.078187823295593262e+00,1.063112974166870117e+00,1.054778695106506348e+00,1.045151114463806152e+00,1.060552835464477539e+00,2.404931306838989258e+00,2.357263803482055664e+00,2.311449050903320312e+00,2.267381191253662109e+00,2.224962472915649414e+00,2.184101581573486328e+00,2.144714355468750000e+00,2.106722831726074219e+00,2.070053577423095703e+00,2.034639120101928711e+00,2.000416040420532227e+00,1.967325448989868164e+00,1.935311436653137207e+00,1.904322743415832520e+00,1.874310851097106934e+00,1.845230102539062500e+00
5.000000000000000000e+00,5.000000000000000000e+00,5.000000000000000000e+00,5.000000000000000000e+00,5.000000000000000000e+00,5.000000000000000000e+00,5.000000000000000000e+00,5.000000000000000000e+00,5.000000000000000000e+00,5.000000000000000000e+00,5.000000000000000000e+00,5.000000000000000000e+00,5.000000000000000000e+00,5.000000000000000000e+00,5.000000000000000000e+00,5.000000000000000000e+00,5.000000000000000000e+00,5.000000000000000000e+00,5.000000000000000000e+00,5.000000000000000000e+00,5.000000000000000000e+00,5.000000000000000000e+00,5.000000000000000000e+00,5.000000000000000000e+00,5.000000000000000000e+00,5.000000000000000000e+00,5.000000000000000000e+00,5.000000000000000000e+00,5.000000000000000000e+00,5.000000000000000000e+00,5.000000000000000000e+00,5.000000000000000000e+00,5.000000000000000000e+00,5.000000000000000000e+00,5.000000000000000000e+00,5.000000000000000000e+00,5.000000000000000000e+00,5.000000000000000000e+00,5.000000000000000000e+00,4.863881587982177734e+00,4.672777652740478516e+00,4.496122837066650391e+00,4.332338809967041016e+00,4.180067539215087891e+00,4.038136959075927734e+00,3.905528306961059570e+00,3.781352043151855469e+00,3.664828777313232422e+00,3.555271863937377930e+00,3.452075481414794922e+00,3.354700803756713867e+00,3.262668848037719727e+00,3.175551652908325195e+00,3.092965841293334961e+00,1.420784831047058105e+00,1.364109158515930176e+00,1.345478296279907227e+00,1.126731991767883301e+00,1.097024559974670410e+00,1.077522397041320801e+00,1.066884398460388184e+00,1.060303568840026855e+00,1.050575256347656250e+00,1.069048047065734863e+00,2.404965400695800781e+00,2.357296705245971680e+00,2.311480760574340820e+00,2.267411708831787109e+00,2.224991798400878906e+00,2.184129953384399414e+00,2.144741773605346680e+00,2.106749057769775391e+00,2.070078849792480469e+00,2.034663677215576172e+00,2.000439882278442383e+00,1.967348217964172363e+00,1.935333609580993652e+00,1.904344201087951660e+00,1.874331593513488770e+00,1.845250248908996582e+00
5.000000000000000000e+00,5.000000000000000000e+00,5.000000000000000000e+00,5.000000000000000000e+00,5.000000000000000000e+00,5.000000000000000000e+00,5.000000000000000000e+00,5.000000000000000000e+00,5.000000000000000000e+00,5.000000000000000000e+00,5.000000000000000000e+00,5.000000000000000000e+00,5.000000000000000000e+00,5.000000000000000000e+00,5.000000000000000000e+00,5.000000000000000000e+00,5.000000000000000000e+00,5.000000000000000000e+00,5.000000000000000000e+00,5.000000000000000000e+00,5.000000000000000000e+00,5.000000000000000000e+00,5.000000000000000000e+00,5.000000000000000000e+00,5.000000000000000000e+00,5.000000000000000000e+00,5.000000000000000000e+00,5.000000000000000000e+00,5.000000000000000000e+00,5.000000000000000000e+00,5.000000000000000000e+00,5.000000000000000000e+00,5.000000000000000000e+00,5.000000000000000000e+00,5.000000000000000000e+00,5.000000000000000000e+00,5.000000000000000000e+00,5.000000000000000000e+00,5.000000000000000000e+00,4.864021778106689453e+00,4.672906875610351562e+00,4.496243000030517578e+00,4.332449913024902344e+00,4.180171012878417969e+00,4.038233757019042969e+00,3.905618667602539062e+00,3.781436443328857422e+00,3.664907932281494141e+00,3.555346727371215820e+00,3.452146053314208984e+00,3.354767560958862305e+00,3.262732028961181641e+00,3.175611495971679688e+00,3.093022584915161133e+00,1.413557171821594238e+00,1.366961956024169922e+00,1.348617792129516602e+00,1.123075246810913086e+00,1.096335649490356445e+00,1.079807281494140625e+00,1.070682764053344727e+00,1.065886616706848145e+00,1.058247685432434082e+00,1.085697650909423828e+00,2.404999732971191406e+00,2.357329607009887695e+00,2.311512231826782227e+00,2.267442226409912109e+00,2.225021123886108398e+00,2.184158086776733398e+00,2.144768953323364258e+00,2.106775522232055664e+00,2.070104360580444336e+00,2.034688234329223633e+00,2.000463485717773438e+00,1.967371344566345215e+00,1.935355901718139648e+00,1.904365777969360352e+00,1.874352216720581055e+00,1.845270395278930664e+00
5.000000000000000000e+00,5.000000000000000000e+00,5.000000000000000000e+00,5.000000000000000000e+00,5.000000000000000000e+00,5.000000000000000000e+00,5.000000000000000000e+00,5.000000000000000000e+00,5.000000000000000000e+00,5.000000000000000000e+00,5.000000000000000000e+00,5.000000000000000000e+00,5.000000000000000000e+00,5.000000000000000000e+00,5.000000000000000000e+00,5.000000000000000000e+00,5.000000000000000000e+00,5.000000000000000000e+00,5.000000000000000000e+00,5.000000000000000000e+00,5.000000000000000000e+00,5.000000000000000000e+00,5.000000000000000000e+00,5.000000000000000000e+00,5.000000000000000000e+00,5.000000000000000000e+00,5.000000000000000000e+00,5.000000000000000000e+00,5.000000000000000000e+00,5.000000000000000000e+00,5.000000000000000000e+00,5.000000000000000000e+00,5.000000000000000000e+00,5.000000000000000000e+00,5.000000000000000000e+00,5.000000000000000000e+00,5.000000000000000000e+00,5.000000000000000000e+00,5.000000000000000000e+00,4.864161968231201172e+00,4.673036575317382812e+00,4.496362686157226562e+00,4.332561492919921875e+00,4.180274486541748047e+00,4.038330078125000000e+00,3.905708789825439453e+00,3.781521081924438477e+00,3.664987564086914062e+00,3.555421829223632812e+00,3.452216863632202148e+00,3.354834318161010742e+00,3.262795209884643555e+00,3.175671339035034180e+00,1.478130817413330078e+00,1.395271539688110352e+00,1.373224377632141113e+00,1.353096842765808105e+00,1.119441986083984375e+00,1.095788359642028809e+00,1.082273602485656738e+00,1.074508190155029297e+00,1.070757269859313965e+00,1.066705822944641113e+00,2.454673528671264648e+00,2.405034065246582031e+00,2.357362508773803711e+00,2.311543941497802734e+00,2.267472743988037109e+00,2.225050449371337891e+00,2.184186458587646484e+00,2.144796371459960938e+00,2.106801748275756836e+00,2.070129871368408203e+00,2.034712791442871094e+00,2.000487327575683594e+00,1.967394113540649414e+00,1.935377955436706543e+00,1.904387235641479492e+00,1.874373197555541992e+00,1.845290660858154297e+00
5.000000000000000000e+00,5.000000000000000000e+00,5.000000000000000000e+00,5.000000000000000000e+00,5.000000000000000000e+00,5.000000000000000000e+00,5.000000000000000000e+00,5.000000000000000000e+00,5.000000000000000000e+00,5.000000000000000000e+00,5.000000000000000000e+00,5.000000000000000000e+00,5.000000000000000000e+00,5.000000000000000000e+00,5.000000000000000000e+00,5.000000000000000000e+00,5.000000000000000000e+00,5.000000000000000000e+00,5.000000000000000000e+00,5.000000000000000000e+00,5.000000000000000000e+00,5.000000000000000000e+00,5.000000000000000000e+00,5.000000000000000000e+00,5.000000000000000000e+00,5.000000000000000000e+00,5.000000000000000000e+00,5.000000000000000000e+00,5.000000000000000000e+00,5.000000000000000000e+00,5.000000000000000000e+00,5.000000000000000000e+00,5.000000000000000000e+00,5.000000000000000000e+00,5.000000000000000000e+00,5.000000000000000000e+00,5.000000000000000000e+00,5.000000000000000000e+00,5.000000000000000000e+00,4.864302158355712891e+00,4.673165798187255859e+00,4.496482372283935547e+00,4.332672119140625000e+00,4.180377960205078125e+00,4.038426876068115234e+00,3.905799150466918945e+00,3.781605958938598633e+00,3.665067434310913086e+00,3.555496692657470703e+00,3.452287435531616211e+00,3.354901075363159180e+00,3.262858390808105469e+00,3.175731182098388672e+00,1.437209606170654297e+00,1.408824324607849121e+00,1.382303833961486816e+00,1.360510826110839844e+00,1.115832209587097168e+00,1.098328351974487305e+00,1.084751367568969727e+00,1.078361153602600098e+00,1.074583292007446289e+00,1.076385498046875000e+00,2.454709291458129883e+00,2.405068397521972656e+00,2.357395410537719727e+00,2.311575651168823242e+00,2.267503261566162109e+00,2.225079774856567383e+00,2.184214830398559570e+00,2.144823551177978516e+00,2.106828212738037109e+00,2.070155143737792969e+00,2.034737348556518555e+00,2.000510931015014648e+00,1.967417001724243164e+00,1.935400128364562988e+00,1.904408574104309082e+00,1.874393939971923828e+00,1.845310688018798828e+00
5.000000000000000000e+00,5.000000000000000000e+00,5.000000000000000000e+00,5.000000000000000000e+00,5.000000000000000000e+00,5.000000000000000000e+00,5.000000000000000000e+00,5.000000000000000000e+00,5.000000000000000000e+00,5.000000000000000000e+00,5.000000000000000000e+00,5.000000000000000000e+00,5.000000000000000000e+00,5.000000000000000000e+00,5.000000000000000000e+00,5.000000000000000000e+00,5.000000000000000000e+00,5.000000000000000000e+00,5.000000000000000000e+00,5.000000000000000000e+00,5.000000000000000000e+00,5.000000000000000000e+00,5.000000000000000000e+00,5.000000000000000000e+00,5.000000000000000000e+00,5.000000000000000000e+00,5.000000000000000000e+00,5.000000000000000000e+00,5.000000000000000000e+00,5.000000000000000000e+00,5.000000000000000000e+00,5.000000000000000000e+00,5.000000000000000000e+00,5.000000000000000000e+00,5.000000000000000000e+00,5.000000000000000000e+00,5.000000000000000000e+00,5.000000000000000000e+00,5.000000000000000000e+00,4.864442348480224609e+00,4.673295021057128906e+00,4.496602058410644531e+00,4.332783699035644531e+00,4.180481910705566406e+00,4.038523674011230469e+00,3.905889749526977539e+00,3.781690835952758789e+00,3.665147066116333008e+00,3.555571794509887695e+00,3.452358245849609375e+00,3.354967832565307617e+00,3.262921333312988281e+00,1.491123437881469727e+00,1.452223181724548340e+00,1.423672318458557129e+00,1.394742369651794434e+00,1.159965157508850098e+00,1.114866852760314941e+00,1.100880265235900879e+00,1.087240338325500488e+00,1.082073688507080078e+00,1.077830195426940918e+00,1.092806220054626465e+00,2.454744815826416016e+00,2.405102729797363281e+00,2.357428550720214844e+00,2.311607360839843750e+00,2.267533779144287109e+00,2.225109100341796875e+00,2.184242963790893555e+00,2.144850730895996094e+00,2.106854200363159180e+00,2.070180416107177734e+00,2.034761905670166016e+00,2.000534534454345703e+00,1.967440128326416016e+00,1.935422420501708984e+00,1.904430270195007324e+00,1.874414920806884766e+00,1.845331072807312012e+00
5.000000000000000000e+00,5.000000000000000000e+00,5.000000000000000000e+00,5.000000000000000000e+00,5.000000000000000000e+00,5.000000000000000000e+00,5.000000000000000000e+00,5.000000000000000000e+00,5.000000000000000000e+00,5.000000000000000000e+00,5.000000000000000000e+00,5.000000000000000000e+00,5.000000000000000000e+00,5.000000000000000000e+00,5.000000000000000000e+00,5.000000000000000000e+00,5.000000000000000000e+00,5.000000000000000000e+00,5.000000000000000000e+00,5.000000000000000000e+00,5.000000000000000000e+00,5.000000000000000000e+00,5.000000000000000000e+00,5.000000000000000000e+00,5.000000000000000000e+00,5.000000000000000000e+00,5.000000000000000000e+00,5.000000000000000000e+00,5.000000000000000000e+00,5.000000000000000000e+00,5.000000000000000000e+00,5.000000000000000000e+00,5.000000000000000000e+00,5.000000000000000000e+00,5.000000000000000000e+00,5.000000000000000000e+00,5.000000000000000000e+00,5.000000000000000000e+00,5.000000000000000000e+00,4.864582538604736328e+00,4.673424720764160156e+00,4.496722221374511719e+00,4.332894802093505859e+00,4.180585384368896484e+00,4.038619995117187500e+00,3.905980110168457031e+00,3.781775712966918945e+00,3.665226697921752930e+00,3.555646657943725586e+00,3.452428817749023438e+00,3.355034589767456055e+00,1.563841342926025391e+00,1.492580056190490723e+00,1.461781263351440430e+00,1.435594797134399414e+00,1.420287728309631348e+00,1.162407517433166504e+00,1.117300271987915039e+00,1.103149652481079102e+00,1.089387655258178711e+00,1.081861138343811035e+00,1.077619314193725586e+00,1.088957309722900391e+00,2.454780578613281250e+00,2.405136823654174805e+00,2.357461452484130859e+00,2.311639070510864258e+00,2.267564058303833008e+00,2.225138425827026367e+00,2.184271097183227539e+00,2.144877910614013672e+00,2.106880664825439453e+00,2.070205926895141602e+00,2.034786462783813477e+00,2.000558376312255859e+00,1.967462897300720215e+00,1.935444474220275879e+00,1.904451608657836914e+00,1.874435663223266602e+00,1.845351099967956543e+00
5.000000000000000000e+00,5.000000000000000000e+00,5.000000000000000000e+00,5.000000000000000000e+00,5.000000000000000000e+00,5.000000000000000000e+00,5.000000000000000000e+00,5.000000000000000000e+00,5.000000000000000000e+00,5.000000000000000000e+00,5.000000000000000000e+00,5.000000000000000000e+00,5.000000000000000000e+00,5.000000000000000000e+00,5.000000000000000000e+00,5.000000000000000000e+00,5.000000000000000000e+00,5.000000000000000000e+00,5.000000000000000000e+00,5.000000000000000000e+00,5.000000000000000000e+00,5.000000000000000000e+00,5.000000000000000000e+00,5.000000000000000000e+00,5.000000000000000000e+00,5.000000000000000000e+00,5.000000000000000000e+00,5.000000000000000000e+00,5.000000000000000000e+00,5.000000000000000000e+00,5.000000000000000000e+00,5.000000000000000000e+00,5.000000000000000000e+00,5.000000000000000000e+00,5.000000000000000000e+00,5.000000000000000000e+00,5.000000000000000000e+00,5.000000000000000000e+00,5.000000000000000000e+00,4.864723205566406250e+00,4.673554420471191406e+00,4.496841907501220703e+00,4.333005905151367188e+00,4.180688858032226562e+00,4.038716793060302734e+00,3.906070709228515625e+00,3.781860351562500000e+00,3.665306329727172852e+00,3.555721759796142578e+00,3.452499151229858398e+00,3.355100870132446289e+00,1.534295082092285156e+00,1.496774673461914062e+00,1.473428130149841309e+00,1.464753746986389160e+00,1.448822021484375000e+00,1.168858289718627930e+00,1.119494676589965820e+00,1.105288743972778320e+00,1.091562747955322266e+00,1.081648588180541992e+00,1.077408552169799805e+00,1.085135579109191895e+00,2.454816341400146484e+00,2.405171155929565430e+00,2.357494115829467773e+00,2.311670541763305664e+00,2.267594575881958008e+00,2.225167751312255859e+00,2.184299468994140625e+00,2.144905328750610352e+00,2.106906890869140625e+00,2.070231199264526367e+00,2.034811019897460938e+00,2.000581979751586914e+00,1.967486023902893066e+00,1.935466885566711426e+00,1.904473185539245605e+00,1.874456524848937988e+00,1.845371365547180176e+00
5.000000000000000000e+00,5.000000000000000000e+00,5.000000000000000000e+00,5.000000000000000000e+00,5.000000000000000000e+00,5.000000000000000000e+00,5.000000000000000000e+00,5.000000000000000000e+00,5.000000000000000000e+00,5.000000000000000000e+00,5.000000000000000000e+00,5.000000000000000000e+00,5.000000000000000000e+00,5.000000000000000000e+00,5.000000000000000000e+00,5.000000000000000000e+00,5.000000000000000000e+00,5.000000000000000000e+00,5.000000000000000000e+00,5.000000000000000000e+00,5.000000000000000000e+00,5.000000000000000000e+00,5.000000000000000000e+00,5.000000000000000000e+00,5.000000000000000000e+00,5.000000000000000000e+00,5.000000000000000000e+00,5.000000000000000000e+00,5.000000000000000000e+00,5.000000000000000000e+00,5.000000000000000000e+00,5.000000000000000000e+00,5.000000000000000000e+00,5.000000000000000000e+00,5.000000000000000000e+00,5.000000000000000000e+00,5.000000000000000000e+00,5.000000000000000000e+00,5.000000000000000000e+00,4.864861011505126953e+00,4.673683643341064453e+00,4.496961593627929688e+00,4.333117485046386719e+00,4.180792331695556641e+00,4.038813591003417969e+00,3.906161069869995117e+00,3.781944751739501953e+00,3.665385723114013672e+00,3.555796384811401367e+00,3.452569961547851562e+00,3.355167388916015625e+00,1.531358957290649414e+00,1.501788735389709473e+00,1.488973259925842285e+00,1.480685472488403320e+00,1.484079957008361816e+00,2.869457483291625977e+00,1.121697783470153809e+00,1.107436180114746094e+00,1.093746423721313477e+00,1.082584261894226074e+00,1.077197790145874023e+00,1.081340551376342773e+00,2.454851865768432617e+00,2.405205488204956055e+00,2.357527256011962891e+00,2.311702251434326172e+00,2.267625093460083008e+00,2.225197076797485352e+00,2.184327840805053711e+00,2.144932508468627930e+00,2.106933355331420898e+00,2.070256710052490234e+00,2.034835577011108398e+00,2.000605821609497070e+00,1.967508792877197266e+00,1.935488939285278320e+00,1.904494643211364746e+00,1.874477267265319824e+00,1.845391511917114258e+00
5.000000000000000000e+00,5.000000000000000000e+00,5.000000000000000000e+00,5.000000000000000000e+00,5.000000000000000000e+00,5.000000000000000000e+00,5.000000000000000000e+00,5.000000000000000000e+00,5.000000000000000000e+00,5.000000000000000000e+00,5.000000000000000000e+00,5.000000000000000000e+00,5.000000000000000000e+00,5.000000000000000000e+00,5.000000000000000000e+00,5.000000000000000000e+00,5.000000000000000000e+00,5.000000000000000000e+00,5.000000000000000000e+00,5.000000000000000000e+00,5.000000000000000000e+00,5.000000000000000000e+00,5.000000000000000000e+00,5.000000000000000000e+00,5.000000000000000000e+00,5.000000000000000000e+00,5.000000000000000000e+00,5.000000000000000000e+00,5.000000000000000000e+00,5.000000000000000000e+00,5.000000000000000000e+00,5.000000000000000000e+00,5.000000000000000000e+00,5.000000000000000000e+00,5.000000000000000000e+00,5.000000000000000000e+00,5.000000000000000000e+00,5.000000000000000000e+00,5.000000000000000000e+00,4.864998817443847656e+00,4.673811435699462891e+00,4.497081756591796875e+00,4.333228588104248047e+00,4.180896282196044922e+00,4.038909912109375000e+00,3.906251192092895508e+00,3.782029628753662109e+00,3.665465354919433594e+00,3.555871248245239258e+00,3.452640295028686523e+00,1.593138813972473145e+00,1.536570668220520020e+00,1.511451244354248047e+00,1.504849910736083984e+00,1.496418476104736328e+00,2.940453290939331055e+00,2.869506359100341797e+00,1.125419139862060547e+00,1.109591841697692871e+00,1.095938801765441895e+00,1.083614230155944824e+00,1.076987147331237793e+00,1.077571868896484375e+00,2.454887628555297852e+00,2.405239582061767578e+00,2.357560157775878906e+00,2.311733961105346680e+00,2.267655611038208008e+00,2.225226402282714844e+00,2.184356212615966797e+00,2.144959926605224609e+00,2.106959581375122070e+00,2.070282220840454102e+00,2.034860134124755859e+00,2.000629425048828125e+00,1.967531919479370117e+00,1.935511112213134766e+00,1.904516100883483887e+00,1.874498009681701660e+00,1.845411658287048340e+00
5.000000000000000000e+00,5.000000000000000000e+00,5.000000000000000000e+00,5.000000000000000000e+00,5.000000000000000000e+00,5.000000000000000000e+00,5.000000000000000000e+00,5.000000000000000000e+00,5.000000000000000000e+00,5.000000000000000000e+00,5.000000000000000000e+00,5.000000000000000000e+00,5.000000000000000000e+00,5.000000000000000000e+00,5.000000000000000000e+00,5.000000000000000000e+00,5.000000000000000000e+00,5.000000000000000000e+00,5.000000000000000000e+00,5.000000000000000000e+00,5.000000000000000000e+00,5.000000000000000000e+00,5.000000000000000000e+00,5.000000000000000000e+00,5.000000000000000000e+00,5.000000000000000000e+00,5.000000000000000000e+00,5.000000000000000000e+00,5.000000000000000000e+00,5.000000000000000000e+00,5.000000000000000000e+00,5.000000000000000000e+00,5.000000000000000000e+00,5.000000000000000000e+00,5.000000000000000000e+00,5.000000000000000000e+00,5.000000000000000000e+00,5.000000000000000000e+00,5.000000000000000000e+00,4.865137100219726562e+00,4.673938751220703125e+00,4.497201442718505859e+00,4.333339691162109375e+00,4.180999755859375000e+00,4.039006710052490234e+00,3.906341791152954102e+00,3.782114505767822266e+00,3.665544986724853516e+00,3.555946111679077148e+00,3.452711105346679688e+00,1.574575066566467285e+00,1.542743325233459473e+00,1.527813434600830078e+00,1.521068692207336426e+00,1.525301218032836914e+00,2.940504550933837891e+00,2.869555234909057617e+00,1.134118556976318359e+00,1.111756086349487305e+00,1.098140001296997070e+00,1.084895968437194824e+00,1.077572822570800781e+00,1.073829412460327148e+00,2.454923391342163086e+00,2.405273914337158203e+00,2.357593059539794922e+00,2.311765670776367188e+00,2.267686128616333008e+00,2.225255966186523438e+00,2.184384346008300781e+00,2.144987106323242188e+00,2.106985807418823242e+00,2.070307493209838867e+00,2.034884452819824219e+00,2.000653266906738281e+00,1.967554688453674316e+00,1.935533404350280762e+00,1.904537677764892578e+00,1.874518990516662598e+00,1.845431923866271973e+00
5.000000000000000000e+00,5.000000000000000000e+00,5.000000000000000000e+00,5.000000000000000000e+00,5.000000000000000000e+00,5.000000000000000000e+00,5.000000000000000000e+00,5.000000000000000000e+00,5.000000000000000000e+00,5.000000000000000000e+00,5.000000000000000000e+00,5.000000000000000000e+00,5.000000000000000000e+00,5.000000000000000000e+00,5.000000000000000000e+00,5.000000000000000000e+00,5.000000000000000000e+00,5.000000000000000000e+00,5.000000000000000000e+00,5.000000000000000000e+00,5.000000000000000000e+00,5.000000000000000000e+00,5.000000000000000000e+00,5.000000000000000000e+00,5.000000000000000000e+00,5.000000000000000000e+00,5.000000000000000000e+00,5.000000000000000000e+00,5.000000000000000000e+00,5.000000000000000000e+00,5.000000000000000000e+00,5.000000000000000000e+00,5.000000000000000000e+00,5.000000000000000000e+00,5.000000000000000000e+00,5.000000000000000000e+00,5.000000000000000000e+00,5.000000000000000000e+00,5.000000000000000000e+00,4.865274906158447266e+00,4.674066543579101562e+00,4.497318744659423828e+00,4.333451271057128906e+00,4.181103229522705078e+00,4.039103507995605469e+00,3.906432151794433594e+00,3.782199382781982422e+00,3.665624380111694336e+00,3.556020975112915039e+00,3.452781677246093750e+00,1.583427786827087402e+00,1.552047848701477051e+00,1.544547677040100098e+00,1.537641048431396484e+00,3.015105009078979492e+00,2.940555572509765625e+00,2.869603872299194336e+00,1.140982270240783691e+00,1.113976716995239258e+00,1.100350260734558105e+00,1.087053060531616211e+00,1.078593254089355469e+00,1.072365760803222656e+00,1.115121126174926758e+00,2.405308246612548828e+00,2.357625961303710938e+00,2.311797380447387695e+00,2.267716407775878906e+00,2.225285291671752930e+00,2.184412717819213867e+00,2.145014524459838867e+00,2.107012033462524414e+00,2.070332765579223633e+00,2.034909009933471680e+00,2.000676870346069336e+00,1.967577576637268066e+00,1.935555458068847656e+00,1.904559135437011719e+00,1.874539732933044434e+00,1.845452070236206055e+00
5.000000000000000000e+00,5.000000000000000000e+00,5.000000000000000000e+00,5.000000000000000000e+00,5.000000000000000000e+00,5.000000000000000000e+00,5.000000000000000000e+00,5.000000000000000000e+00,5.000000000000000000e+00,5.000000000000000000e+00,5.000000000000000000e+00,5.000000000000000000e+00,5.000000000000000000e+00,5.000000000000000000e+00,5.000000000000000000e+00,5.000000000000000000e+00,5.000000000000000000e+00,5.000000000000000000e+00,5.000000000000000000e+00,5.000000000000000000e+00,5.000000000000000000e+00,5.000000000000000000e+00,5.000000000000000000e+00,5.000000000000000000e+00,5.000000000000000000e+00,5.000000000000000000e+00,5.000000000000000000e+00,5.000000000000000000e+00,5.000000000000000000e+00,5.000000000000000000e+00,5.000000000000000000e+00,5.000000000000000000e+00,5.000000000000000000e+00,5.000000000000000000e+00,5.000000000000000000e+00,5.000000000000000000e+00,5.000000000000000000e+00,5.000000000000000000e+00,5.000000000000000000e+00,4.865413188934326172e+00,4.674193859100341797e+00,4.497436523437500000e+00,4.333560943603515625e+00,4.181207180023193359e+00,4.039199829101562500e+00,3.906522750854492188e+00,3.782284021377563477e+00,3.665704011917114258e+00,3.556096076965332031e+00,1.630153059959411621e+00,1.592240571975708008e+00,1.570293903350830078e+00,1.562637090682983398e+00,3.093589305877685547e+00,3.015158653259277344e+00,2.940606832504272461e+00,2.869652748107910156e+00,1.146173477172851562e+00,1.116251111030578613e+00,1.102569222450256348e+00,1.089218735694885254e+00,1.079833507537841797e+00,1.073009610176086426e+00,1.111979246139526367e+00,2.405342578887939453e+00,2.357659101486206055e+00,2.311829090118408203e+00,2.267746925354003906e+00,2.225314378738403320e+00,2.184440851211547852e+00,2.145041465759277344e+00,2.107038497924804688e+00,2.070358276367187500e+00,2.034933567047119141e+00,2.000700712203979492e+00,1.967600703239440918e+00,1.935577869415283203e+00,1.904580712318420410e+00,1.874560594558715820e+00,1.845472335815429688e+00
5.000000000000000000e+00,5.000000000000000000e+00,5.000000000000000000e+00,5.000000000000000000e+00,5.000000000000000000e+00,5.000000000000000000e+00,5.000000000000000000e+00,5.000000000000000000e+00,5.000000000000000000e+00,5.000000000000000000e+00,5.000000000000000000e+00,5.000000000000000000e+00,5.000000000000000000e+00,5.000000000000000000e+00,5.000000000000000000e+00,5.000000000000000000e+00,5.000000000000000000e+00,5.000000000000000000e+00,5.000000000000000000e+00,5.000000000000000000e+00,5.000000000000000000e+00,5.000000000000000000e+00,5.000000000000000000e+00,5.000000000000000000e+00,5.000000000000000000e+00,5.000000000000000000e+00,5.000000000000000000e+00,5.000000000000000000e+00,5.000000000000000000e+00,5.000000000000000000e+00,5.000000000000000000e+00,5.000000000000000000e+00,5.000000000000000000e+00,5.000000000000000000e+00,5.000000000000000000e+00,5.000000000000000000e+00,5.000000000000000000e+00,5.000000000000000000e+00,5.000000000000000000e+00,4.865550994873046875e+00,4.674321174621582031e+00,4.497554779052734375e+00,4.333670139312744141e+00,4.181309223175048828e+00,4.039296627044677734e+00,3.906612873077392578e+00,3.782368898391723633e+00,3.665783882141113281e+00,3.556170940399169922e+00,1.636659026145935059e+00,1.600752115249633789e+00,1.588995218276977539e+00,1.608880043029785156e+00,3.093646049499511719e+00,3.015212535858154297e+00,2.940658092498779297e+00,2.869701385498046875e+00,1.153339147567749023e+00,1.118769168853759766e+00,1.105181932449340820e+00,1.091920733451843262e+00,1.083590745925903320e+00,1.076719522476196289e+00,1.109385251998901367e+00,2.405376911163330078e+00,2.357692003250122070e+00,2.311860561370849609e+00,2.267777442932128906e+00,2.225343704223632812e+00,2.184469223022460938e+00,2.145068883895874023e+00,2.107064723968505859e+00,2.070383787155151367e+00,2.034958124160766602e+00,2.000724315643310547e+00,1.967623472213745117e+00,1.935599923133850098e+00,1.904602050781250000e+00,1.874581336975097656e+00,1.845492362976074219e+00
4.875000953674316406e+00,4.873790264129638672e+00,4.872579574584960938e+00,4.871369838714599609e+00,4.870160579681396484e+00,4.868951797485351562e+00,4.867743968963623047e+00,4.866536140441894531e+00,4.865329742431640625e+00,4.864123344421386719e+00,4.862917900085449219e+00,4.861712455749511719e+00,4.860508441925048828e+00,4.859304428100585938e+00,4.858100891113281250e+00,4.856898307800292969e+00,4.855696201324462891e+00,4.854495048522949219e+00,4.853293895721435547e+00,4.852094173431396484e+00,4.850893974304199219e+00,4.849695205688476562e+00,4.848496437072753906e+00,4.847299098968505859e+00,4.846101284027099609e+00,4.844904899597167969e+00,4.843708515167236328e+00,4.842513084411621094e+00,4.841318130493164062e+00,4.840123653411865234e+00,4.838930130004882812e+00,4.837736606597900391e+00,4.836544036865234375e+00,4.835351943969726562e+00,4.834160804748535156e+00,4.832969665527343750e+00,4.831779956817626953e+00,4.830589771270751953e+00,4.829401016235351562e+00,4.828212261199951172e+00,4.674448490142822266e+00,4.497672557830810547e+00,4.333779811859130859e+00,4.181411266326904297e+00,4.039393424987792969e+00,3.906703472137451172e+00,3.782453775405883789e+00,3.665863037109375000e+00,1.731624484062194824e+00,1.658914685249328613e+00,1.618305087089538574e+00,1.622289776802062988e+00,3.176328659057617188e+00,3.093702793121337891e+00,3.015266656875610352e+00,2.940709352493286133e+00,2.869750261306762695e+00,1.161779284477233887e+00,1.121662616729736328e+00,1.108005285263061523e+00,1.094712376594543457e+00,1.086073756217956543e+00,1.080455064773559570e+00,1.106803297996520996e+00,2.405411005020141602e+00,2.357724905014038086e+00,2.311892271041870117e+00,2.267807960510253906e+00,2.225373268127441406e+00,2.184497356414794922e+00,2.145096063613891602e+00,2.107090950012207031e+00,2.070409059524536133e+00,2.034982681274414062e+00,2.000748157501220703e+00,1.967646598815917969e+00,1.935622215270996094e+00,1.904623746871948242e+00,1.874602317810058594e+00,1.845512509346008301e+00
3.777785539627075195e+00,3.777058362960815430e+00,3.776331663131713867e+00,3.775604486465454102e+00,3.774878263473510742e+00,3.774152040481567383e+00,3.773426294326782227e+00,3.772700309753417969e+00,3.771975278854370117e+00,3.771250247955322266e+00,3.770525217056274414e+00,3.769800901412963867e+00,3.769076585769653320e+00,3.768352985382080078e+00,3.767628908157348633e+00,3.766905546188354492e+00,3.766182661056518555e+00,3.765460014343261719e+00,3.764737129211425781e+00,3.764014959335327148e+00,3.763293027877807617e+00,3.762571334838867188e+00,3.761849641799926758e+00,3.761128664016723633e+00,3.760407924652099609e+00,3.759686946868896484e+00,3.758966684341430664e+00,3.758246898651123047e+00,3.757527112960815430e+00,3.756807327270507812e+00,3.756088256835937500e+00,3.755369424819946289e+00,3.754650831222534180e+00,3.753931999206542969e+00,3.753214120864868164e+00,3.752496242523193359e+00,3.751778364181518555e+00,3.751061201095581055e+00,3.750344276428222656e+00,3.749627590179443359e+00,3.748910903930664062e+00,3.748194694519042969e+00,3.747478961944580078e+00,3.746763467788696289e+00,3.746047735214233398e+00,3.745332717895507812e+00,3.744617938995361328e+00,3.665942907333374023e+00,1.696135640144348145e+00,1.661454916000366211e+00,1.659070372581481934e+00,3.263552188873291016e+00,3.176388263702392578e+00,3.093759536743164062e+00,3.015320539474487305e+00,2.940760612487792969e+00,2.869799137115478516e+00,2.802181482315063477e+00,1.124570965766906738e+00,1.110843181610107422e+00,1.097569227218627930e+00,1.086466908454895020e+00,1.084216713905334473e+00,1.104233384132385254e+00,2.405445337295532227e+00,2.357757806777954102e+00,2.311923980712890625e+00,2.267838478088378906e+00,2.225402593612670898e+00,2.184525728225708008e+00,2.145123481750488281e+00,2.107117414474487305e+00,2.070434570312500000e+00,2.035007238388061523e+00,2.000771760940551758e+00,1.967669486999511719e+00,1.935644388198852539e+00,1.904645085334777832e+00,1.874623060226440430e+00,1.845532774925231934e+00
3.083731174468994141e+00,3.083246469497680664e+00,3.082761764526367188e+00,3.082277536392211914e+00,3.081793546676635742e+00,3.081309556961059570e+00,3.080825567245483398e+00,3.080341815948486328e+00,3.079858541488647461e+00,3.079375028610229492e+00,3.078891754150390625e+00,3.078408718109130859e+00,3.077925682067871094e+00,3.077443122863769531e+00,3.076960086822509766e+00,3.076477766036987305e+00,3.075995445251464844e+00,3.075513124465942383e+00,3.075031042098999023e+00,3.074549436569213867e+00,3.074067592620849609e+00,3.073585748672485352e+00,3.073104381561279297e+00,3.072623252868652344e+00,3.072142124176025391e+00,3.071660995483398438e+00,3.071180343627929688e+00,3.070699691772460938e+00,3.070218801498413086e+00,3.069738626480102539e+00,3.069258451461791992e+00,3.068778514862060547e+00,3.068298339843750000e+00,3.067818641662597656e+00,3.067339181900024414e+00,3.066859722137451172e+00,3.066380023956298828e+00,3.065901041030883789e+00,3.065422058105468750e+00,3.064943313598632812e+00,3.064464330673217773e+00,3.063985824584960938e+00,3.063507556915283203e+00,3.063029050827026367e+00,3.062551021575927734e+00,3.062072992324829102e+00,3.061595439910888672e+00,3.061117410659790039e+00,1.686384677886962891e+00,1.653381466865539551e+00,1.668192744255065918e+00,3.059208154678344727e+00,3.058731317520141602e+00,3.058254718780517578e+00,3.015374422073364258e+00,2.940812110900878906e+00,2.869848012924194336e+00,2.802228212356567383e+00,1.129517793655395508e+00,1.113695621490478516e+00,1.100441217422485352e+00,1.087631225585937500e+00,1.088004708290100098e+00,1.101675271987915039e+00,2.405479669570922852e+00,2.357790708541870117e+00,2.311955690383911133e+00,2.267868757247924805e+00,2.225431919097900391e+00,2.184554100036621094e+00,2.145150661468505859e+00,2.107143640518188477e+00,2.070459842681884766e+00,2.035031795501708984e+00,2.000795364379882812e+00,1.967692255973815918e+00,1.935666441917419434e+00,1.904666543006896973e+00,1.874643802642822266e+00,1.845552921295166016e+00
2.605118751525878906e+00,2.604772806167602539e+00,2.604427099227905273e+00,2.604081392288208008e+00,2.603735923767089844e+00,2.603390455245971680e+00,2.603044748306274414e+00,2.602699518203735352e+00,2.602354288101196289e+00,2.602009057998657227e+00,2.601664066314697266e+00,2.601319313049316406e+00,2.600974321365356445e+00,2.600629568099975586e+00,2.600284814834594727e+00,2.599940299987792969e+00,2.599595785140991211e+00,2.599251270294189453e+00,2.598906993865966797e+00,2.598562955856323242e+00,2.598218679428100586e+00,2.597874641418457031e+00,2.597530603408813477e+00,2.597186803817749023e+00,2.596843004226684570e+00,2.596499443054199219e+00,2.596155881881713867e+00,2.595812320709228516e+00,2.595468759536743164e+00,2.595125675201416016e+00,2.594782352447509766e+00,2.594439268112182617e+00,2.594096183776855469e+00,2.593753337860107422e+00,2.593410491943359375e+00,2.593067646026611328e+00,2.592725038528442383e+00,2.592382431030273438e+00,2.592040061950683594e+00,2.591697454452514648e+00,2.591355085372924805e+00,2.591012954711914062e+00,2.590670824050903320e+00,2.590328693389892578e+00,2.589986801147460938e+00,2.589644908905029297e+00,2.589303255081176758e+00,2.588961362838745117e+00,2.588619947433471680e+00,1.639326691627502441e+00,1.656395435333251953e+00,2.587595701217651367e+00,2.587254524230957031e+00,2.586913347244262695e+00,2.586572170257568359e+00,2.586231231689453125e+00,2.585890531539916992e+00,2.585549831390380859e+00,1.138027548789978027e+00,1.116562724113464355e+00,1.103328227996826172e+00,1.090451359748840332e+00,1.089851737022399902e+00,1.099129080772399902e+00,2.405514001846313477e+00,2.357823610305786133e+00,2.311987400054931641e+00,2.267899274826049805e+00,2.225461244583129883e+00,2.184582471847534180e+00,2.145178079605102539e+00,2.107170104980468750e+00,2.070485353469848633e+00,2.035056352615356445e+00,2.000819206237792969e+00,1.967715382575988770e+00,1.935688853263854980e+00,1.904688119888305664e+00,1.874664783477783203e+00,1.845573186874389648e+00
2.255148172378540039e+00,2.254887580871582031e+00,2.254626750946044922e+00,2.254366159439086914e+00,2.254105567932128906e+00,2.253845214843750000e+00,2.253584623336791992e+00,2.253324031829833984e+00,2.253063917160034180e+00,2.252803564071655273e+00,2.252543210983276367e+00,2.252283334732055664e+00,2.252023220062255859e+00,2.251763105392456055e+00,2.251502990722656250e+00,2.251243114471435547e+00,2.250983238220214844e+00,2.250723361968994141e+00,2.250463724136352539e+00,2.250204086303710938e+00,2.249944448471069336e+00,2.249684810638427734e+00,2.249425411224365234e+00,2.249166727066040039e+00,2.248908758163452148e+00,2.248651027679443359e+00,2.248393297195434570e+00,2.248135805130004883e+00,2.247878074645996094e+00,2.247620582580566406e+00,2.247363090515136719e+00,2.247105598449707031e+00,2.246848344802856445e+00,2.246591091156005859e+00,2.246333837509155273e+00,2.246076583862304688e+00,2.245819568634033203e+00,2.245562553405761719e+00,2.245305538177490234e+00,2.245048522949218750e+00,2.244791746139526367e+00,2.244534969329833984e+00,2.244277954101562500e+00,2.244021415710449219e+00,2.243764877319335938e+00,2.243508338928222656e+00,2.243251562118530273e+00,2.242995262145996094e+00,1.642661809921264648e+00,1.622868537902832031e+00,1.641204476356506348e+00,2.241970062255859375e+00,2.241713762283325195e+00,2.241457700729370117e+00,2.241201639175415039e+00,2.240945577621459961e+00,2.240689754486083984e+00,2.240433692932128906e+00,1.144902706146240234e+00,1.119484782218933105e+00,1.106230258941650391e+00,1.093286037445068359e+00,1.090247631072998047e+00,1.096594691276550293e+00,2.238644361495971680e+00,2.238389015197753906e+00,2.238133668899536133e+00,2.237878322601318359e+00,2.225490570068359375e+00,2.184610605239868164e+00,2.145205259323120117e+00,2.107196331024169922e+00,2.070510625839233398e+00,2.035080909729003906e+00,2.000843048095703125e+00,1.967738151550292969e+00,1.935710906982421875e+00,1.904709577560424805e+00,1.874685525894165039e+00,1.845593333244323730e+00
1.988141417503356934e+00,1.987938880920410156e+00,1.987736225128173828e+00,1.987533569335937500e+00,1.987331032752990723e+00,1.987128615379333496e+00,1.986925959587097168e+00,1.986723661422729492e+00,1.986521363258361816e+00,1.986318826675415039e+00,1.986116647720336914e+00,1.985914468765258789e+00,1.985712051391601562e+00,1.985509991645812988e+00,1.985307693481445312e+00,1.985105752944946289e+00,1.984903693199157715e+00,1.984701633453369141e+00,1.984499692916870117e+00,1.984297752380371094e+00,1.984095692634582520e+00,1.983893990516662598e+00,1.983692288398742676e+00,1.983490347862243652e+00,1.983288645744323730e+00,1.983087062835693359e+00,1.982885241508483887e+00,1.982683777809143066e+00,1.982482075691223145e+00,1.982280611991882324e+00,1.982079267501831055e+00,1.981877565383911133e+00,1.981676340103149414e+00,1.981474995613098145e+00,1.981273531913757324e+00,1.981072306632995605e+00,1.980871200561523438e+00,1.980669856071472168e+00,1.980468750000000000e+00,1.980267763137817383e+00,1.980066537857055664e+00,1.979865550994873047e+00,1.979664444923400879e+00,1.979463458061218262e+00,1.979262709617614746e+00,1.979061603546142578e+00,1.978860855102539062e+00,1.978660225868225098e+00,1.630894660949707031e+00,1.601887583732604980e+00,1.627027988433837891e+00,1.977857351303100586e+00,1.977656841278076172e+00,1.977456331253051758e+00,1.977255702018737793e+00,1.977055311203002930e+00,1.976854681968688965e+00,1.976654410362243652e+00,1.976454138755798340e+00,1.122472643852233887e+00,1.109147787094116211e+00,1.096135497093200684e+00,1.090643763542175293e+00,1.094399571418762207e+00,1.975252985954284668e+00,1.975052714347839355e+00,1.974852800369262695e+00,1.974652886390686035e+00,1.974452733993530273e+00,1.974252939224243164e+00,1.974053025245666504e+00,1.973853230476379395e+00,1.973653554916381836e+00,1.973453640937805176e+00,1.973254084587097168e+00,1.967761278152465820e+00,1.935733199119567871e+00,1.904731154441833496e+00,1.874706387519836426e+00,1.845613598823547363e+00
1.777667760848999023e+00,1.777505755424499512e+00,1.777343869209289551e+00,1.777181744575500488e+00,1.777019858360290527e+00,1.776857972145080566e+00,1.776695966720581055e+00,1.776534199714660645e+00,1.776372432708740234e+00,1.776210546493530273e+00,1.776048779487609863e+00,1.775887131690979004e+00,1.775725364685058594e+00,1.775563716888427734e+00,1.775401949882507324e+00,1.775240421295166016e+00,1.775078892707824707e+00,1.774917125701904297e+00,1.774755716323852539e+00,1.774594187736511230e+00,1.774432659149169922e+00,1.774271249771118164e+00,1.774109840393066406e+00,1.773948431015014648e+00,1.773787140846252441e+00,1.773625850677490234e+00,1.773464441299438477e+00,1.773303151130676270e+00,1.773141860961914062e+00,1.772980690002441406e+00,1.772819519042968750e+00,1.772658228874206543e+00,1.772497177124023438e+00,1.772336125373840332e+00,1.772174954414367676e+00,1.772014021873474121e+00,1.771853089332580566e+00,1.771691918373107910e+00,1.771531105041503906e+00,1.771370172500610352e+00,1.771209239959716797e+00,1.771048426628112793e+00,1.770887494087219238e+00,1.770726680755615234e+00,1.770565986633300781e+00,1.770405173301696777e+00,1.770244479179382324e+00,1.770083904266357422e+00,1.769923090934753418e+00,1.573233008384704590e+00,1.587744593620300293e+00,1.630650520324707031e+00,1.769280791282653809e+00,1.769120335578918457e+00,1.768959760665893555e+00,1.768799304962158203e+00,1.768638730049133301e+00,1.768478512763977051e+00,1.768318176269531250e+00,1.144611954689025879e+00,1.117854475975036621e+00,1.108905553817749023e+00,1.102657318115234375e+00,1.767516732215881348e+00,1.767356634140014648e+00,1.767196297645568848e+00,1.767036199569702148e+00,1.766876220703125000e+00,1.766716003417968750e+00,1.766556024551391602e+00,1.766395807266235352e+00,1.766235947608947754e+00,1.766076087951660156e+00,1.765915989875793457e+00,1.765756130218505859e+00,1.765596389770507812e+00,1.765436410903930664e+00,1.765276670455932617e+00,1.765116930007934570e+00,1.764957070350646973e+00
1.607491493225097656e+00,1.607359051704406738e+00,1.607226610183715820e+00,1.607094049453735352e+00,1.606961607933044434e+00,1.606829285621643066e+00,1.606696844100952148e+00,1.606564521789550781e+00,1.606432199478149414e+00,1.606299757957458496e+00,1.606167554855346680e+00,1.606035232543945312e+00,1.605902910232543945e+00,1.605770707130432129e+00,1.605638384819030762e+00,1.605506300926208496e+00,1.605374097824096680e+00,1.605241894721984863e+00,1.605109810829162598e+00,1.604977726936340332e+00,1.604845643043518066e+00,1.604713559150695801e+00,1.604581594467163086e+00,1.604449510574340820e+00,1.604317545890808105e+00,1.604185581207275391e+00,1.604053497314453125e+00,1.603921651840209961e+00,1.603789687156677246e+00,1.603657841682434082e+00,1.603525996208190918e+00,1.603394031524658203e+00,1.603262305259704590e+00,1.603130578994750977e+00,1.602998614311218262e+00,1.602866888046264648e+00,1.602735280990600586e+00,1.602603435516357422e+00,1.602471828460693359e+00,1.602340221405029297e+00,1.602208375930786133e+00,1.602076888084411621e+00,1.601945161819458008e+00,1.601813554763793945e+00,1.601682066917419434e+00,1.601550459861755371e+00,1.601418972015380859e+00,1.601287484169006348e+00,1.601155996322631836e+00,1.601024508476257324e+00,1.600893139839172363e+00,1.600761651992797852e+00,1.600630283355712891e+00,1.600499033927917480e+00,1.600367546081542969e+00,1.600236296653747559e+00,1.600104928016662598e+00,1.599973559379577637e+00,1.599842429161071777e+00,1.146931409835815430e+00,1.119338512420654297e+00,1.108269810676574707e+00,1.099687576293945312e+00,1.098181366920471191e+00,1.599055290222167969e+00,1.598924040794372559e+00,1.598793029785156250e+00,1.598662018775939941e+00,1.598530888557434082e+00,1.598399877548217773e+00,1.598268747329711914e+00,1.598137855529785156e+00,1.598006963729858398e+00,1.597875952720642090e+00,1.597745060920715332e+00,1.597614169120788574e+00,1.597483277320861816e+00,1.597352385520935059e+00,1.597221612930297852e+00,1.597090721130371094e+00
1.467050552368164062e+00,1.466940164566040039e+00,1.466829895973205566e+00,1.466719508171081543e+00,1.466609239578247070e+00,1.466498970985412598e+00,1.466388583183288574e+00,1.466278433799743652e+00,1.466168165206909180e+00,1.466057896614074707e+00,1.465947747230529785e+00,1.465837597846984863e+00,1.465727329254150391e+00,1.465617179870605469e+00,1.465506911277770996e+00,1.465396881103515625e+00,1.465286850929260254e+00,1.465176582336425781e+00,1.465066552162170410e+00,1.464956521987915039e+00,1.464846491813659668e+00,1.464736461639404297e+00,1.464626550674438477e+00,1.464516401290893555e+00,1.464406490325927734e+00,1.464296579360961914e+00,1.464186549186706543e+00,1.464076638221740723e+00,1.463966608047485352e+00,1.463856816291809082e+00,1.463746905326843262e+00,1.463636994361877441e+00,1.463527202606201172e+00,1.463417410850524902e+00,1.463307499885559082e+00,1.463197827339172363e+00,1.463088035583496094e+00,1.462978243827819824e+00,1.462868452072143555e+00,1.462758779525756836e+00,1.462648987770080566e+00,1.462539315223693848e+00,1.462429642677307129e+00,1.462319970130920410e+00,1.462210416793823242e+00,1.462100625038146973e+00,1.461991071701049805e+00,1.461881518363952637e+00,1.461771845817565918e+00,1.461662292480468750e+00,1.461552858352661133e+00,1.461443185806274414e+00,1.461333751678466797e+00,1.461224317550659180e+00,1.461114764213562012e+00,1.461005330085754395e+00,1.460895776748657227e+00,1.460786342620849609e+00,1.460677027702331543e+00,1.148540377616882324e+00,1.118685603141784668e+00,1.101744294166564941e+00,1.089030385017395020e+00,1.079482316970825195e+00,1.079519152641296387e+00,1.459911465644836426e+00,1.459802269935607910e+00,1.459692955017089844e+00,1.459583640098571777e+00,1.459474444389343262e+00,1.459365129470825195e+00,1.459255933761596680e+00,1.459146857261657715e+00,1.459037542343139648e+00,1.458928465843200684e+00,1.458819389343261719e+00,1.458710193634033203e+00,1.458601117134094238e+00,1.458492040634155273e+00,1.458382844924926758e+00
1.349177598953247070e+00,1.349084258079528809e+00,1.348990917205810547e+00,1.348897576332092285e+00,1.348804354667663574e+00,1.348711013793945312e+00,1.348617672920227051e+00,1.348524451255798340e+00,1.348431348800659180e+00,1.348338007926940918e+00,1.348244786262512207e+00,1.348151683807373047e+00,1.348058342933654785e+00,1.347965240478515625e+00,1.347872018814086914e+00,1.347778916358947754e+00,1.347685813903808594e+00,1.347592592239379883e+00,1.347499489784240723e+00,1.347406387329101562e+00,1.347313284873962402e+00,1.347220182418823242e+00,1.347127199172973633e+00,1.347034096717834473e+00,1.346941113471984863e+00,1.346848130226135254e+00,1.346755027770996094e+00,1.346662044525146484e+00,1.346568942070007324e+00,1.346476078033447266e+00,1.346383094787597656e+00,1.346290111541748047e+00,1.346197128295898438e+00,1.346104264259338379e+00,1.346011281013488770e+00,1.345918416976928711e+00,1.345825552940368652e+00,1.345732688903808594e+00,1.345639824867248535e+00,1.345546960830688477e+00,1.345454096794128418e+00,1.345361351966857910e+00,1.345268368721008301e+00,1.345175623893737793e+00,1.345082879066467285e+00,1.344990015029907227e+00,1.344897389411926270e+00,1.344804644584655762e+00,1.344711780548095703e+00,1.344619154930114746e+00,1.344526529312133789e+00,1.344433665275573730e+00,1.344341039657592773e+00,1.344248414039611816e+00,1.344155669212341309e+00,1.344063043594360352e+00,1.343970417976379395e+00,1.343877792358398438e+00,1.343785285949707031e+00,1.149559140205383301e+00,1.117989182472229004e+00,1.095028042793273926e+00,1.079339146614074707e+00,1.068372249603271484e+00,1.061405539512634277e+00,1.059951782226562500e+00,1.343044757843017578e+00,1.342952370643615723e+00,1.342859745025634766e+00,1.342767357826232910e+00,1.342674851417541504e+00,1.342582464218139648e+00,1.342490077018737793e+00,1.342397570610046387e+00,1.342305183410644531e+00,1.342212796211242676e+00,1.342120409011840820e+00,1.342028021812438965e+00,1.341935753822326660e+00,1.341843366622924805e+00
1.248837351799011230e+00,1.248757481575012207e+00,1.248677492141723633e+00,1.248597502708435059e+00,1.248517632484436035e+00,1.248437643051147461e+00,1.248357653617858887e+00,1.248277783393859863e+00,1.248197913169860840e+00,1.248118042945861816e+00,1.248038172721862793e+00,1.247958302497863770e+00,1.247878432273864746e+00,1.247798562049865723e+00,1.247718691825866699e+00,1.247638940811157227e+00,1.247559070587158203e+00,1.247479200363159180e+00,1.247399449348449707e+00,1.247319698333740234e+00,1.247239828109741211e+00,1.247160196304321289e+00,1.247080445289611816e+00,1.247000575065612793e+00,1.246920943260192871e+00,1.246841192245483398e+00,1.246761441230773926e+00,1.246681809425354004e+00,1.246602058410644531e+00,1.246522307395935059e+00,1.246442675590515137e+00,1.246362924575805664e+00,1.246283292770385742e+00,1.246203780174255371e+00,1.246124029159545898e+00,1.246044397354125977e+00,1.245964884757995605e+00,1.245885252952575684e+00,1.245805621147155762e+00,1.245726108551025391e+00,1.245646476745605469e+00,1.245566964149475098e+00,1.245487332344055176e+00,1.245407819747924805e+00,1.245328307151794434e+00,1.245248675346374512e+00,1.245169281959533691e+00,1.245089769363403320e+00,1.245010256767272949e+00,1.244930744171142578e+00,1.244851350784301758e+00,1.244771838188171387e+00,1.244692325592041016e+00,1.244612932205200195e+00,1.244533419609069824e+00,1.244454026222229004e+00,1.244374632835388184e+00,1.244295239448547363e+00,1.244215846061706543e+00,1.153214812278747559e+00,1.115488648414611816e+00,1.086391568183898926e+00,1.069215059280395508e+00,1.056330084800720215e+00,1.047921538352966309e+00,1.041129350662231445e+00,1.039694905281066895e+00,1.039822578430175781e+00,1.243422508239746094e+00,1.243343234062194824e+00,1.243263959884643555e+00,1.243184685707092285e+00,1.243105411529541016e+00,1.243026137351989746e+00,1.242946982383728027e+00,1.242867827415466309e+00,1.242788553237915039e+00,1.242709398269653320e+00,1.242630243301391602e+00,1.242550969123840332e+00
1.162388920783996582e+00,1.162319660186767578e+00,1.162250399589538574e+00,1.162181138992309570e+00,1.162111878395080566e+00,1.162042617797851562e+00,1.161973357200622559e+00,1.161904215812683105e+00,1.161834955215454102e+00,1.161765694618225098e+00,1.161696553230285645e+00,1.161627292633056641e+00,1.161558151245117188e+00,1.161488890647888184e+00,1.161419749259948730e+00,1.161350607872009277e+00,1.161281466484069824e+00,1.161212205886840820e+00,1.161143064498901367e+00,1.161074042320251465e+00,1.161004781723022461e+00,1.160935759544372559e+00,1.160866618156433105e+00,1.160797476768493652e+00,1.160728454589843750e+00,1.160659313201904297e+00,1.160590291023254395e+00,1.160521149635314941e+00,1.160452127456665039e+00,1.160383105278015137e+00,1.160314083099365234e+00,1.160244941711425781e+00,1.160175919532775879e+00,1.160106897354125977e+00,1.160037875175476074e+00,1.159968852996826172e+00,1.159899950027465820e+00,1.159830927848815918e+00,1.159761905670166016e+00,1.159693002700805664e+00,1.159623980522155762e+00,1.159555077552795410e+00,1.159486055374145508e+00,1.159417152404785156e+00,1.159348249435424805e+00,1.159279227256774902e+00,1.159210324287414551e+00,1.159141540527343750e+00,1.159072518348693848e+00,1.159003734588623047e+00,1.158934831619262695e+00,1.158865928649902344e+00,1.158797025680541992e+00,1.158728241920471191e+00,1.158659338951110840e+00,1.158590555191040039e+00,1.158521652221679688e+00,1.158452868461608887e+00,1.158384084701538086e+00,1.158315181732177734e+00,1.158246397972106934e+00,1.096324086189270020e+00,1.055785417556762695e+00,1.039759278297424316e+00,1.030567884445190430e+00,1.024310231208801270e+00,1.020167827606201172e+00,1.015756368637084961e+00,1.016372084617614746e+00,1.006871342658996582e+00,1.157558917999267578e+00,1.157490134239196777e+00,1.157421469688415527e+00,1.157352805137634277e+00,1.157284140586853027e+00,1.157215476036071777e+00,1.157146692276000977e+00,1.157078146934509277e+00,1.157009482383728027e+00,1.156940817832946777e+00
1.087134122848510742e+00,1.087073445320129395e+00,1.087012887001037598e+00,1.086952328681945801e+00,1.086891770362854004e+00,1.086831212043762207e+00,1.086770534515380859e+00,1.086709976196289062e+00,1.086649537086486816e+00,1.086588859558105469e+00,1.086528420448303223e+00,1.086467862129211426e+00,1.086407303810119629e+00,1.086346745491027832e+00,1.086286187171936035e+00,1.086225748062133789e+00,1.086165308952331543e+00,1.086104750633239746e+00,1.086044311523437500e+00,1.085983753204345703e+00,1.085923314094543457e+00,1.085862874984741211e+00,1.085802435874938965e+00,1.085741877555847168e+00,1.085681438446044922e+00,1.085621118545532227e+00,1.085560560226440430e+00,1.085500240325927734e+00,1.085439682006835938e+00,1.085379362106323242e+00,1.085318922996520996e+00,1.085258483886718750e+00,1.085198163986206055e+00,1.085137724876403809e+00,1.085077404975891113e+00,1.085016965866088867e+00,1.084956645965576172e+00,1.084896206855773926e+00,1.084835886955261230e+00,1.084775567054748535e+00,1.084715247154235840e+00,1.084654927253723145e+00,1.084594488143920898e+00,1.084534168243408203e+00,1.084473967552185059e+00,1.084413528442382812e+00,1.084353327751159668e+00,1.084293007850646973e+00,1.084232687950134277e+00,1.084172487258911133e+00,1.084112167358398438e+00,1.084051847457885742e+00,1.083991646766662598e+00,1.083931446075439453e+00,1.083871126174926758e+00,1.083810925483703613e+00,1.083750605583190918e+00,1.083690404891967773e+00,1.083630204200744629e+00,1.083570003509521484e+00,1.083509802818298340e+00,1.083449602127075195e+00,1.083389401435852051e+00,1.032201290130615234e+00,1.017661213874816895e+00,1.004270672798156738e+00,9.977488517761230469e-01,9.944328665733337402e-01,9.937688112258911133e-01,9.879567027091979980e-01,9.807581901550292969e-01,1.082847952842712402e+00,1.082787871360778809e+00,1.082727670669555664e+00,1.082667589187622070e+00,1.082607507705688477e+00,1.082547426223754883e+00,1.082487344741821289e+00,1.082427263259887695e+00,1.082367062568664551e+00
1.021030902862548828e+00,1.020977497100830078e+00,1.020924091339111328e+00,1.020870566368103027e+00,1.020817160606384277e+00,1.020763754844665527e+00,1.020710349082946777e+00,1.020656943321228027e+00,1.020603537559509277e+00,1.020550012588500977e+00,1.020496606826782227e+00,1.020443320274353027e+00,1.020389795303344727e+00,1.020336508750915527e+00,1.020283102989196777e+00,1.020229697227478027e+00,1.020176291465759277e+00,1.020122885704040527e+00,1.020069599151611328e+00,1.020016193389892578e+00,1.019962906837463379e+00,1.019909501075744629e+00,1.019856214523315430e+00,1.019802808761596680e+00,1.019749522209167480e+00,1.019696235656738281e+00,1.019642829895019531e+00,1.019589543342590332e+00,1.019536256790161133e+00,1.019482970237731934e+00,1.019429683685302734e+00,1.019376397132873535e+00,1.019323110580444336e+00,1.019269824028015137e+00,1.019216537475585938e+00,1.019163250923156738e+00,1.019110083580017090e+00,1.019056797027587891e+00,1.019003510475158691e+00,1.018950343132019043e+00,1.018897056579589844e+00,1.018843770027160645e+00,1.018790483474731445e+00,1.018737316131591797e+00,1.018684148788452148e+00,1.018630862236022949e+00,1.018577694892883301e+00,1.018524527549743652e+00,1.018471240997314453e+00,1.018418073654174805e+00,1.018364906311035156e+00,1.018311738967895508e+00,1.018258571624755859e+00,1.018205404281616211e+00,1.018152236938476562e+00,1.018099069595336914e+00,1.018045902252197266e+00,1.017992734909057617e+00,1.017939686775207520e+00,1.017886519432067871e+00,1.017833352088928223e+00,1.017780303955078125e+00,1.017727136611938477e+00,1.017674088478088379e+00,1.017620921134948730e+00,1.017567753791809082e+00,9.902552962303161621e-01,9.871296286582946777e-01,9.819746613502502441e-01,1.017355442047119141e+00,1.017302393913269043e+00,1.017249345779418945e+00,1.017196297645568848e+00,1.017143130302429199e+00,1.017090201377868652e+00,1.017037153244018555e+00,1.016984105110168457e+00,1.016931056976318359e+00,1.016878008842468262e+00,1.016824960708618164e+00
9.625058770179748535e-01,9.624583721160888672e-01,9.624108672142028809e-01,9.623634219169616699e-01,9.623159170150756836e-01,9.622684717178344727e-01,9.622209072113037109e-01,9.621734023094177246e-01,9.621259570121765137e-01,9.620785117149353027e-01,9.620310664176940918e-01,9.619836211204528809e-01,9.619361162185668945e-01,9.618886709213256836e-01,9.618412256240844727e-01,9.617938399314880371e-01,9.617463946342468262e-01,9.616988897323608398e-01,9.616515040397644043e-01,9.616041183471679688e-01,9.615566730499267578e-01,9.615092873573303223e-01,9.614619016647338867e-01,9.614144563674926758e-01,9.613670706748962402e-01,9.613196849822998047e-01,9.612722992897033691e-01,9.612249732017517090e-01,9.611774682998657227e-01,9.611301422119140625e-01,9.610827565193176270e-01,9.610354304313659668e-01,9.609881043434143066e-01,9.609407186508178711e-01,9.608933329582214355e-01,9.608460068702697754e-01,9.607986807823181152e-01,9.607513546943664551e-01,9.607040286064147949e-01,9.606567025184631348e-01,9.606093168258666992e-01,9.605619907379150391e-01,9.605147242546081543e-01,9.604673981666564941e-01,9.604201316833496094e-01,9.603727459907531738e-01,9.603254795074462891e-01,9.602782130241394043e-01,9.602309465408325195e-01,9.601836800575256348e-01,9.601364135742187500e-01,9.600890278816223145e-01,9.600418210029602051e-01,9.599945545196533203e-01,9.599473476409912109e-01,9.599000811576843262e-01,9.598527550697326660e-01,9.598055481910705566e-01,9.597582817077636719e-01,9.597110748291015625e-01,9.596638679504394531e-01,9.596166610717773438e-01,9.595693349838256836e-01,9.595221877098083496e-01,9.594749808311462402e-01,9.594277739524841309e-01,9.593806266784667969e-01,9.593334197998046875e-01,9.592861533164978027e-01,9.592389464378356934e-01,9.591917991638183594e-01,9.591446518898010254e-01,9.590975046157836914e-01,9.590502381324768066e-01,9.590030908584594727e-01,9.589559435844421387e-01,9.589087963104248047e-01,9.588616490364074707e-01,9.588145613670349121e-01,9.587672948837280273e-01
9.103263616561889648e-01,9.102838635444641113e-01,9.102413654327392578e-01,9.101988077163696289e-01,9.101563692092895508e-01,9.101138710975646973e-01,9.100714325904846191e-01,9.100289940834045410e-01,9.099865555763244629e-01,9.099439978599548340e-01,9.099015593528747559e-01,9.098591208457946777e-01,9.098166823387145996e-01,9.097742438316345215e-01,9.097317457199096680e-01,9.096893072128295898e-01,9.096468687057495117e-01,9.096044898033142090e-01,9.095620512962341309e-01,9.095196723937988281e-01,9.094771742820739746e-01,9.094347357749938965e-01,9.093923568725585938e-01,9.093499779701232910e-01,9.093075990676879883e-01,9.092652201652526855e-01,9.092227220535278320e-01,9.091803431510925293e-01,9.091379642486572266e-01,9.090956449508666992e-01,9.090532660484313965e-01,9.090107679367065430e-01,9.089684486389160156e-01,9.089260697364807129e-01,9.088837504386901855e-01,9.088414311408996582e-01,9.087990522384643555e-01,9.087566137313842773e-01,9.087142944335937500e-01,9.086719751358032227e-01,9.086296558380126953e-01,9.085873365402221680e-01,9.085448980331420898e-01,9.085026383399963379e-01,9.084603190422058105e-01,9.084179997444152832e-01,9.083756804466247559e-01,9.083334207534790039e-01,9.082910418510437012e-01,9.082487225532531738e-01,9.082064628601074219e-01,9.081642031669616699e-01,9.081218838691711426e-01,9.080796241760253906e-01,9.080372452735900879e-01,9.079949855804443359e-01,9.079527258872985840e-01,9.079104661941528320e-01,9.078682661056518555e-01,9.078258872032165527e-01,9.077836275100708008e-01,9.077414274215698242e-01,9.076991677284240723e-01,9.076569080352783203e-01,9.076147079467773438e-01,9.075723886489868164e-01,9.075301885604858398e-01,9.074879288673400879e-01,9.074457287788391113e-01,9.074035286903381348e-01,9.073612093925476074e-01,9.073190093040466309e-01,9.072768092155456543e-01,9.072346687316894531e-01,9.071924686431884766e-01,9.071502685546875000e-01,9.071080088615417480e-01,9.070658087730407715e-01,9.070236682891845703e-01,9.069814682006835938e-01
8.635133504867553711e-01,8.634750843048095703e-01,8.634368777275085449e-01,8.633986711502075195e-01,8.633604645729064941e-01,8.633222579956054688e-01,8.632839918136596680e-01,8.632457852363586426e-01,8.632075786590576172e-01,8.631693720817565918e-01,8.631311655044555664e-01,8.630930185317993164e-01,8.630547523498535156e-01,8.630165457725524902e-01,8.629783391952514648e-01,8.629401922225952148e-01,8.629020452499389648e-01,8.628637790679931641e-01,8.628256320953369141e-01,8.627874255180358887e-01,8.627492785453796387e-01,8.627111315727233887e-01,8.626729846000671387e-01,8.626347780227661133e-01,8.625966310501098633e-01,8.625584840774536133e-01,8.625203371047973633e-01,8.624821901321411133e-01,8.624439835548400879e-01,8.624058365821838379e-01,8.623677492141723633e-01,8.623296022415161133e-01,8.622915148735046387e-01,8.622533679008483887e-01,8.622151613235473633e-01,8.621770739555358887e-01,8.621389865875244141e-01,8.621008992195129395e-01,8.620628118515014648e-01,8.620246648788452148e-01,8.619865179061889648e-01,8.619484305381774902e-01,8.619103431701660156e-01,8.618722558021545410e-01,8.618341684341430664e-01,8.617960214614868164e-01,8.617579340934753418e-01,8.617199063301086426e-01,8.616818189620971680e-01,8.616437911987304688e-01,8.616057038307189941e-01,8.615675568580627441e-01,8.615295290946960449e-01,8.614915013313293457e-01,8.614534735679626465e-01,8.614153861999511719e-01,8.613772988319396973e-01,8.613392710685729980e-01,8.613012433052062988e-01,8.612632155418395996e-01,8.612251877784729004e-01,8.611871600151062012e-01,8.611490726470947266e-01,8.611110448837280273e-01,8.610730171203613281e-01,8.610350489616394043e-01,8.609970211982727051e-01,8.609590530395507812e-01,8.609209656715393066e-01,8.608829379081726074e-01,8.608449697494506836e-01,8.608070015907287598e-01,8.607689738273620605e-01,8.607309460639953613e-01,8.606929779052734375e-01,8.606550097465515137e-01,8.606170415878295898e-01,8.605790734291076660e-01,8.605411052703857422e-01,8.605030775070190430e-01
8.212795853614807129e-01,8.212450146675109863e-01,8.212104439735412598e-01,8.211758136749267578e-01,8.211412429809570312e-01,8.211066722869873047e-01,8.210721015930175781e-01,8.210375308990478516e-01,8.210030198097229004e-01,8.209683895111083984e-01,8.209338188171386719e-01,8.208992481231689453e-01,8.208647370338439941e-01,8.208302259445190430e-01,8.207955956459045410e-01,8.207610249519348145e-01,8.207265138626098633e-01,8.206920027732849121e-01,8.206574916839599609e-01,8.206229805946350098e-01,8.205883502960205078e-01,8.205538392066955566e-01,8.205193281173706055e-01,8.204848170280456543e-01,8.204503059387207031e-01,8.204157948493957520e-01,8.203812241554260254e-01,8.203467130661010742e-01,8.203122615814208984e-01,8.202777504920959473e-01,8.202432394027709961e-01,8.202086687088012695e-01,8.201742172241210938e-01,8.201397061347961426e-01,8.201052546501159668e-01,8.200708031654357910e-01,8.200362920761108398e-01,8.200017809867858887e-01,8.199672698974609375e-01,8.199328184127807617e-01,8.198983669281005859e-01,8.198639154434204102e-01,8.198294043540954590e-01,8.197949528694152832e-01,8.197605013847351074e-01,8.197260499000549316e-01,8.196915984153747559e-01,8.196571469306945801e-01,8.196226358413696289e-01,8.195881843566894531e-01,8.195537924766540527e-01,8.195193409919738770e-01,8.194848895072937012e-01,8.194504976272583008e-01,8.194159865379333496e-01,8.193815946578979492e-01,8.193471431732177734e-01,8.193127512931823730e-01,8.192783594131469727e-01,8.192438483238220215e-01,8.192094564437866211e-01,8.191750645637512207e-01,8.191406726837158203e-01,8.191062808036804199e-01,8.190718889236450195e-01,8.190373778343200684e-01,8.190030455589294434e-01,8.189686536788940430e-01,8.189342617988586426e-01,8.188998699188232422e-01,8.188654184341430664e-01,8.188310861587524414e-01,8.187966942787170410e-01,8.187623023986816406e-01,8.187279701232910156e-01,8.186935782432556152e-01,8.186591863632202148e-01,8.186247944831848145e-01,8.185904622077941895e-01,8.185561299324035645e-01
7.829843759536743164e-01,7.829529643058776855e-01,7.829215526580810547e-01,7.828901410102844238e-01,7.828587293624877930e-01,7.828273177146911621e-01,7.827957868576049805e-01,7.827643752098083496e-01,7.827329635620117188e-01,7.827016115188598633e-01,7.826701998710632324e-01,7.826387882232666016e-01,7.826073169708251953e-01,7.825759053230285645e-01,7.825445532798767090e-01,7.825131416320800781e-01,7.824817299842834473e-01,7.824503183364868164e-01,7.824189066886901855e-01,7.823875546455383301e-01,7.823561429977416992e-01,7.823247909545898438e-01,7.822933793067932129e-01,7.822619676589965820e-01,7.822306156158447266e-01,7.821992039680480957e-01,7.821678519248962402e-01,7.821364998817443848e-01,7.821050882339477539e-01,7.820737361907958984e-01,7.820423841476440430e-01,7.820110321044921875e-01,7.819796800613403320e-01,7.819483280181884766e-01,7.819169163703918457e-01,7.818855643272399902e-01,7.818542718887329102e-01,7.818229198455810547e-01,7.817915678024291992e-01,7.817602753639221191e-01,7.817288637161254883e-01,7.816975116729736328e-01,7.816662192344665527e-01,7.816348671913146973e-01,7.816035747528076172e-01,7.815721631050109863e-01,7.815408706665039062e-01,7.815095782279968262e-01,7.814782261848449707e-01,7.814469337463378906e-01,7.814156413078308105e-01,7.813842892646789551e-01,7.813529968261718750e-01,7.813217043876647949e-01,7.812904119491577148e-01,7.812591195106506348e-01,7.812277674674987793e-01,7.811964750289916992e-01,7.811651825904846191e-01,7.811338901519775391e-01,7.811025977134704590e-01,7.810713648796081543e-01,7.810400128364562988e-01,7.810087203979492188e-01,7.809774875640869141e-01,7.809461951255798340e-01,7.809149622917175293e-01,7.808836698532104492e-01,7.808523774147033691e-01,7.808210849761962891e-01,7.807898521423339844e-01,7.807586193084716797e-01,7.807273864746093750e-01,7.806960344314575195e-01,7.806648015975952148e-01,7.806335687637329102e-01,7.806023359298706055e-01,7.805711030960083008e-01,7.805398702621459961e-01,7.805085778236389160e-01
7.481014728546142578e-01,7.480727434158325195e-01,7.480440735816955566e-01,7.480153441429138184e-01,7.479866743087768555e-01,7.479579448699951172e-01,7.479292750358581543e-01,7.479006052017211914e-01,7.478719353675842285e-01,7.478432059288024902e-01,7.478145360946655273e-01,7.477858662605285645e-01,7.477571964263916016e-01,7.477285265922546387e-01,7.476998567581176758e-01,7.476711869239807129e-01,7.476425170898437500e-01,7.476138472557067871e-01,7.475852370262145996e-01,7.475565671920776367e-01,7.475278377532958984e-01,7.474992275238037109e-01,7.474705576896667480e-01,7.474419474601745605e-01,7.474132776260375977e-01,7.473846673965454102e-01,7.473559379577636719e-01,7.473273277282714844e-01,7.472987174987792969e-01,7.472701072692871094e-01,7.472414374351501465e-01,7.472127676010131836e-01,7.471841573715209961e-01,7.471555471420288086e-01,7.471269369125366211e-01,7.470983266830444336e-01,7.470697164535522461e-01,7.470410466194152832e-01,7.470124363899230957e-01,7.469838261604309082e-01,7.469552159309387207e-01,7.469266057014465332e-01,7.468979358673095703e-01,7.468693256378173828e-01,7.468407750129699707e-01,7.468121647834777832e-01,7.467835545539855957e-01,7.467550039291381836e-01,7.467263340950012207e-01,7.466977834701538086e-01,7.466691732406616211e-01,7.466406226158142090e-01,7.466120123863220215e-01,7.465834617614746094e-01,7.465548515319824219e-01,7.465262413024902344e-01,7.464976906776428223e-01,7.464691400527954102e-01,7.464405894279479980e-01,7.464119195938110352e-01,7.463833689689636230e-01,7.463548183441162109e-01,7.463262677192687988e-01,7.462977170944213867e-01,7.462691664695739746e-01,7.462405562400817871e-01,7.462120056152343750e-01,7.461834549903869629e-01,7.461549043655395508e-01,7.461264133453369141e-01,7.460978031158447266e-01,7.460692524909973145e-01,7.460407018661499023e-01,7.460122108459472656e-01,7.459836602210998535e-01,7.459551692008972168e-01,7.459265589714050293e-01,7.458980083465576172e-01,7.458695173263549805e-01,7.458410263061523438e-01
7.161940336227416992e-01,7.161677479743957520e-01,7.161414623260498047e-01,7.161151766777038574e-01,7.160888910293579102e-01,7.160626053810119629e-01,7.160362601280212402e-01,7.160099744796752930e-01,7.159836888313293457e-01,7.159574031829833984e-01,7.159311175346374512e-01,7.159048318862915039e-01,7.158785462379455566e-01,7.158522605895996094e-01,7.158259749412536621e-01,7.157997488975524902e-01,7.157734632492065430e-01,7.157471179962158203e-01,7.157208919525146484e-01,7.156946063041687012e-01,7.156683802604675293e-01,7.156420946121215820e-01,7.156158685684204102e-01,7.155895829200744629e-01,7.155632972717285156e-01,7.155370712280273438e-01,7.155108451843261719e-01,7.154845595359802246e-01,7.154582738876342773e-01,7.154320478439331055e-01,7.154058218002319336e-01,7.153795957565307617e-01,7.153533101081848145e-01,7.153270840644836426e-01,7.153007984161376953e-01,7.152745723724365234e-01,7.152483463287353516e-01,7.152221202850341797e-01,7.151959538459777832e-01,7.151697278022766113e-01,7.151434421539306641e-01,7.151172161102294922e-01,7.150909900665283203e-01,7.150647640228271484e-01,7.150385975837707520e-01,7.150123119354248047e-01,7.149860858917236328e-01,7.149599194526672363e-01,7.149336934089660645e-01,7.149075269699096680e-01,7.148813009262084961e-01,7.148550748825073242e-01,7.148288488388061523e-01,7.148026823997497559e-01,7.147764563560485840e-01,7.147502899169921875e-01,7.147240638732910156e-01,7.146978378295898438e-01,7.146716713905334473e-01,7.146455049514770508e-01,7.146193385124206543e-01,7.145931124687194824e-01,7.145668864250183105e-01,7.145407199859619141e-01,7.145145535469055176e-01,7.144883871078491211e-01,7.144622206687927246e-01,7.144360542297363281e-01,7.144098281860351562e-01,7.143836617469787598e-01,7.143574953079223633e-01,7.143313884735107422e-01,7.143052220344543457e-01,7.142789959907531738e-01,7.142528295516967773e-01,7.142266631126403809e-01,7.142005562782287598e-01,7.141743898391723633e-01,7.141482234001159668e-01,7.141220569610595703e-01
6.868970990180969238e-01,6.868729591369628906e-01,6.868487596511840820e-01,6.868245005607604980e-01,6.868003606796264648e-01,6.867761611938476562e-01,6.867519617080688477e-01,6.867278218269348145e-01,6.867036223411560059e-01,6.866794228553771973e-01,6.866552233695983887e-01,6.866310834884643555e-01,6.866068840026855469e-01,6.865827441215515137e-01,6.865585446357727051e-01,6.865343451499938965e-01,6.865102052688598633e-01,6.864860653877258301e-01,6.864618659019470215e-01,6.864377260208129883e-01,6.864135265350341797e-01,6.863893866539001465e-01,6.863651871681213379e-01,6.863410472869873047e-01,6.863169074058532715e-01,6.862927675247192383e-01,6.862685680389404297e-01,6.862444281578063965e-01,6.862202882766723633e-01,6.861961483955383301e-01,6.861720085144042969e-01,6.861478090286254883e-01,6.861237287521362305e-01,6.860995888710021973e-01,6.860754489898681641e-01,6.860513091087341309e-01,6.860271692276000977e-01,6.860030293464660645e-01,6.859788894653320312e-01,6.859547495841979980e-01,6.859306693077087402e-01,6.859065294265747070e-01,6.858823895454406738e-01,6.858582496643066406e-01,6.858341097831726074e-01,6.858100295066833496e-01,6.857858896255493164e-01,6.857618093490600586e-01,6.857376694679260254e-01,6.857135295867919922e-01,6.856894493103027344e-01,6.856653690338134766e-01,6.856412291526794434e-01,6.856171488761901855e-01,6.855930089950561523e-01,6.855689287185668945e-01,6.855447888374328613e-01,6.855207085609436035e-01,6.854966282844543457e-01,6.854724884033203125e-01,6.854484081268310547e-01,6.854243278503417969e-01,6.854002475738525391e-01,6.853761672973632812e-01,6.853520870208740234e-01,6.853279471397399902e-01,6.853038668632507324e-01,6.852797865867614746e-01,6.852557063102722168e-01,6.852316856384277344e-01,6.852075457572937012e-01,6.851834654808044434e-01,6.851593852043151855e-01,6.851353645324707031e-01,6.851112842559814453e-01,6.850872039794921875e-01,6.850631237030029297e-01,6.850390434265136719e-01,6.850150227546691895e-01,6.849909424781799316e-01
6.599028110504150391e-01,6.598805189132690430e-01,6.598581671714782715e-01,6.598358750343322754e-01,6.598135232925415039e-01,6.597912311553955078e-01,6.597688794136047363e-01,6.597465276718139648e-01,6.597242355346679688e-01,6.597019433975219727e-01,6.596796512603759766e-01,6.596572995185852051e-01,6.596349477767944336e-01,6.596126556396484375e-01,6.595903635025024414e-01,6.595680713653564453e-01,6.595457792282104492e-01,6.595234274864196777e-01,6.595011353492736816e-01,6.594788432121276855e-01,6.594565510749816895e-01,6.594342589378356934e-01,6.594119668006896973e-01,6.593896150588989258e-01,6.593673229217529297e-01,6.593450307846069336e-01,6.593227386474609375e-01,6.593004465103149414e-01,6.592781543731689453e-01,6.592558622360229492e-01,6.592335700988769531e-01,6.592112779617309570e-01,6.591890454292297363e-01,6.591667532920837402e-01,6.591444611549377441e-01,6.591221690177917480e-01,6.590998768806457520e-01,6.590776443481445312e-01,6.590553522109985352e-01,6.590331196784973145e-01,6.590107679367065430e-01,6.589885354042053223e-01,6.589662432670593262e-01,6.589440107345581055e-01,6.589217782020568848e-01,6.588994264602661133e-01,6.588771939277648926e-01,6.588549613952636719e-01,6.588326692581176758e-01,6.588104367256164551e-01,6.587882041931152344e-01,6.587659120559692383e-01,6.587436199188232422e-01,6.587213873863220215e-01,6.586991548538208008e-01,6.586769223213195801e-01,6.586546301841735840e-01,6.586323976516723633e-01,6.586101651191711426e-01,6.585879325866699219e-01,6.585657000541687012e-01,6.585434675216674805e-01,6.585211753845214844e-01,6.584989428520202637e-01,6.584767103195190430e-01,6.584544777870178223e-01,6.584322452545166016e-01,6.584100723266601562e-01,6.583877801895141602e-01,6.583655476570129395e-01,6.583433151245117188e-01,6.583211421966552734e-01,6.582989096641540527e-01,6.582766175270080566e-01,6.582544445991516113e-01,6.582322120666503906e-01,6.582100391387939453e-01,6.581878066062927246e-01,6.581655740737915039e-01,6.581433415412902832e-01
6.349500417709350586e-01,6.349293589591979980e-01,6.349086761474609375e-01,6.348879933357238770e-01,6.348673105239868164e-01,6.348466873168945312e-01,6.348260045051574707e-01,6.348053216934204102e-01,6.347846984863281250e-01,6.347640156745910645e-01,6.347433328628540039e-01,6.347227096557617188e-01,6.347020268440246582e-01,6.346814036369323730e-01,6.346606612205505371e-01,6.346400380134582520e-01,6.346194148063659668e-01,6.345987319946289062e-01,6.345781087875366211e-01,6.345574855804443359e-01,6.345368027687072754e-01,6.345161199569702148e-01,6.344954967498779297e-01,6.344748735427856445e-01,6.344542503356933594e-01,6.344336271286010742e-01,6.344129443168640137e-01,6.343923211097717285e-01,6.343716382980346680e-01,6.343510150909423828e-01,6.343303918838500977e-01,6.343097090721130371e-01,6.342890858650207520e-01,6.342684626579284668e-01,6.342478990554809570e-01,6.342272758483886719e-01,6.342066526412963867e-01,6.341859698295593262e-01,6.341653466224670410e-01,6.341447234153747559e-01,6.341241002082824707e-01,6.341035366058349609e-01,6.340828537940979004e-01,6.340622305870056152e-01,6.340416669845581055e-01,6.340210437774658203e-01,6.340004205703735352e-01,6.339797973632812500e-01,6.339591741561889648e-01,6.339385509490966797e-01,6.339179873466491699e-01,6.338973641395568848e-01,6.338768005371093750e-01,6.338561773300170898e-01,6.338355541229248047e-01,6.338149309158325195e-01,6.337943673133850098e-01,6.337737441062927246e-01,6.337531805038452148e-01,6.337325572967529297e-01,6.337119340896606445e-01,6.336913704872131348e-01,6.336708068847656250e-01,6.336501836776733398e-01,6.336296200752258301e-01,6.336089968681335449e-01,6.335884332656860352e-01,6.335678100585937500e-01,6.335472464561462402e-01,6.335266828536987305e-01,6.335060596466064453e-01,6.334854960441589355e-01,6.334649324417114258e-01,6.334443688392639160e-01,6.334238052368164062e-01,6.334032416343688965e-01,6.333826184272766113e-01,6.333620548248291016e-01,6.333414912223815918e-01,6.333209276199340820e-01
6.118155121803283691e-01,6.117963194847106934e-01,6.117771267890930176e-01,6.117579936981201172e-01,6.117388010025024414e-01,6.117196083068847656e-01,6.117003560066223145e-01,6.116812229156494141e-01,6.116620302200317383e-01,6.116428375244140625e-01,6.116236448287963867e-01,6.116045117378234863e-01,6.115852594375610352e-01,6.115661263465881348e-01,6.115469336509704590e-01,6.115277409553527832e-01,6.115086078643798828e-01,6.114893555641174316e-01,6.114702224731445312e-01,6.114510297775268555e-01,6.114318966865539551e-01,6.114127039909362793e-01,6.113935708999633789e-01,6.113743782043457031e-01,6.113551855087280273e-01,6.113360524177551270e-01,6.113168597221374512e-01,6.112977266311645508e-01,6.112785339355468750e-01,6.112593412399291992e-01,6.112402081489562988e-01,6.112210750579833984e-01,6.112019419670104980e-01,6.111827492713928223e-01,6.111635565757751465e-01,6.111444234848022461e-01,6.111252903938293457e-01,6.111061573028564453e-01,6.110870242118835449e-01,6.110678315162658691e-01,6.110486984252929688e-01,6.110295057296752930e-01,6.110103726387023926e-01,6.109912395477294922e-01,6.109721064567565918e-01,6.109529733657836914e-01,6.109338402748107910e-01,6.109147071838378906e-01,6.108955740928649902e-01,6.108764410018920898e-01,6.108573079109191895e-01,6.108381152153015137e-01,6.108189821243286133e-01,6.107998490333557129e-01,6.107807159423828125e-01,6.107616424560546875e-01,6.107424497604370117e-01,6.107233166694641113e-01,6.107042431831359863e-01,6.106851100921630859e-01,6.106659770011901855e-01,6.106468439102172852e-01,6.106277108192443848e-01,6.106085777282714844e-01,6.105895042419433594e-01,6.105703711509704590e-01,6.105512976646423340e-01,6.105321645736694336e-01,6.105130314826965332e-01,6.104938983917236328e-01,6.104748249053955078e-01,6.104556918144226074e-01,6.104366183280944824e-01,6.104174256324768066e-01,6.103983521461486816e-01,6.103792786598205566e-01,6.103601455688476562e-01,6.103410720825195312e-01,6.103219389915466309e-01,6.103028059005737305e-01
5.903075933456420898e-01,5.902897119522094727e-01,5.902718901634216309e-01,5.902539491653442383e-01,5.902361273765563965e-01,5.902182459831237793e-01,5.902004241943359375e-01,5.901825428009033203e-01,5.901646614074707031e-01,5.901467800140380859e-01,5.901289582252502441e-01,5.901110768318176270e-01,5.900932550430297852e-01,5.900753736495971680e-01,5.900574922561645508e-01,5.900396704673767090e-01,5.900217890739440918e-01,5.900039672851562500e-01,5.899861454963684082e-01,5.899682641029357910e-01,5.899503827095031738e-01,5.899325609207153320e-01,5.899147391319274902e-01,5.898968577384948730e-01,5.898790359497070312e-01,5.898612141609191895e-01,5.898433327674865723e-01,5.898255109786987305e-01,5.898076891899108887e-01,5.897898674011230469e-01,5.897720456123352051e-01,5.897541642189025879e-01,5.897363424301147461e-01,5.897185206413269043e-01,5.897006988525390625e-01,5.896828770637512207e-01,5.896650552749633789e-01,5.896471738815307617e-01,5.896293520927429199e-01,5.896115303039550781e-01,5.895937085151672363e-01,5.895758867263793945e-01,5.895580053329467773e-01,5.895401835441589355e-01,5.895224213600158691e-01,5.895045995712280273e-01,5.894867777824401855e-01,5.894689559936523438e-01,5.894510746002197266e-01,5.894333124160766602e-01,5.894154906272888184e-01,5.893976688385009766e-01,5.893798470497131348e-01,5.893620848655700684e-01,5.893442034721374512e-01,5.893264412879943848e-01,5.893086194992065430e-01,5.892907977104187012e-01,5.892730355262756348e-01,5.892551541328430176e-01,5.892373919486999512e-01,5.892195701599121094e-01,5.892018079757690430e-01,5.891839861869812012e-01,5.891661643981933594e-01,5.891483426094055176e-01,5.891305804252624512e-01,5.891127586364746094e-01,5.890949964523315430e-01,5.890771746635437012e-01,5.890593528747558594e-01,5.890415906906127930e-01,5.890237689018249512e-01,5.890060067176818848e-01,5.889882445335388184e-01,5.889704227447509766e-01,5.889526009559631348e-01,5.889348387718200684e-01,5.889170765876770020e-01,5.888993144035339355e-01
