5.000000000000000000e+00,5.000000000000000000e+00,5.000000000000000000e+00,5.000000000000000000e+00,5.000000000000000000e+00,5.000000000000000000e+00,5.000000000000000000e+00,5.000000000000000000e+00,5.000000000000000000e+00,5.000000000000000000e+00,5.000000000000000000e+00,5.000000000000000000e+00,5.000000000000000000e+00,5.000000000000000000e+00,5.000000000000000000e+00,5.000000000000000000e+00,5.000000000000000000e+00,5.000000000000000000e+00,5.000000000000000000e+00,5.000000000000000000e+00,5.000000000000000000e+00,5.000000000000000000e+00,5.000000000000000000e+00,5.000000000000000000e+00,5.000000000000000000e+00,5.000000000000000000e+00,5.000000000000000000e+00,5.000000000000000000e+00,5.000000000000000000e+00,2.456806659698486328e+00,2.364964008331298828e+00,2.344283819198608398e+00,2.376341581344604492e+00,2.472723722457885742e+00,5.000000000000000000e+00,5.000000000000000000e+00,5.000000000000000000e+00,5.000000000000000000e+00,5.000000000000000000e+00,5.000000000000000000e+00,5.000000000000000000e+00,5.000000000000000000e+00,5.000000000000000000e+00,4.180088520050048828e+00,4.038142204284667969e+00,3.905519723892211914e+00,3.781331539154052734e+00,3.664798021316528320e+00,3.555232286453247070e+00,3.452027797698974609e+00,3.354646205902099609e+00,3.262608051300048828e+00,3.175484895706176758e+00,3.092894315719604492e+00,3.014490604400634766e+00,2.939964056015014648e+00,2.869033336639404297e+00,2.801444768905639648e+00,2.736966848373413086e+00,2.675390720367431641e+00,2.616524219512939453e+00,2.560192346572875977e+00,2.506235122680664062e+00,2.454505205154418945e+00,2.404867410659790039e+00,2.357197523117065430e+00,2.311380624771118164e+00,2.267311096191406250e+00,2.224890708923339844e+00,2.184028387069702148e+00,2.144639730453491211e+00,2.106646776199340820e+00,2.069976568222045898e+00,2.034561157226562500e+00,2.000337123870849609e+00,1.967245697975158691e+00,1.935230970382690430e+00,1.904241681098937988e+00,1.874229311943054199e+00,1.845148086547851562e+00
5.000000000000000000e+00,5.000000000000000000e+00,5.000000000000000000e+00,5.000000000000000000e+00,5.000000000000000000e+00,5.000000000000000000e+00,5.000000000000000000e+00,5.000000000000000000e+00,5.000000000000000000e+00,5.000000000000000000e+00,5.000000000000000000e+00,5.000000000000000000e+00,5.000000000000000000e+00,5.000000000000000000e+00,5.000000000000000000e+00,5.000000000000000000e+00,5.000000000000000000e+00,5.000000000000000000e+00,5.000000000000000000e+00,5.000000000000000000e+00,5.000000000000000000e+00,5.000000000000000000e+00,5.000000000000000000e+00,5.000000000000000000e+00,5.000000000000000000e+00,5.000000000000000000e+00,5.000000000000000000e+00,5.000000000000000000e+00,5.000000000000000000e+00,5.000000000000000000e+00,2.381057977676391602e+00,2.363440990447998047e+00,2.391819000244140625e+00,5.000000000000000000e+00,5.000000000000000000e+00,5.000000000000000000e+00,5.000000000000000000e+00,5.000000000000000000e+00,5.000000000000000000e+00,5.000000000000000000e+00,5.000000000000000000e+00,5.000000000000000000e+00,4.332487583160400391e+00,4.180191040039062500e+00,4.038238048553466797e+00,3.905609607696533203e+00,3.781415939331054688e+00,3.664877176284790039e+00,3.555306434631347656e+00,3.452097892761230469e+00,3.354712247848510742e+00,3.262670516967773438e+00,3.175544500350952148e+00,3.092950582504272461e+00,3.014544010162353516e+00,2.940014839172363281e+00,2.869081735610961914e+00,2.801490783691406250e+00,2.737011194229125977e+00,2.675432920455932617e+00,2.616564750671386719e+00,2.560230970382690430e+00,2.506271839141845703e+00,2.454540491104125977e+00,2.404901266098022461e+00,2.357230424880981445e+00,2.311412334442138672e+00,2.267341375350952148e+00,2.224919795989990234e+00,2.184056282043457031e+00,2.144666910171508789e+00,2.106673002243041992e+00,2.070001840591430664e+00,2.034585714340209961e+00,2.000360727310180664e+00,1.967268347740173340e+00,1.935253143310546875e+00,1.904263019561767578e+00,1.874250054359436035e+00,1.845168232917785645e+00
5.000000000000000000e+00,5.000000000000000000e+00,5.000000000000000000e+00,5.000000000000000000e+00,5.000000000000000000e+00,5.000000000000000000e+00,5.000000000000000000e+00,5.000000000000000000e+00,5.000000000000000000e+00,5.000000000000000000e+00,5.000000000000000000e+00,5.000000000000000000e+00,5.000000000000000000e+00,5.000000000000000000e+00,5.000000000000000000e+00,5.000000000000000000e+00,5.000000000000000000e+00,5.000000000000000000e+00,5.000000000000000000e+00,5.000000000000000000e+00,5.000000000000000000e+00,5.000000000000000000e+00,5.000000000000000000e+00,5.000000000000000000e+00,5.000000000000000000e+00,5.000000000000000000e+00,5.000000000000000000e+00,5.000000000000000000e+00,5.000000000000000000e+00,5.000000000000000000e+00,2.429907321929931641e+00,2.377638816833496094e+00,2.425515174865722656e+00,5.000000000000000000e+00,5.000000000000000000e+00,5.000000000000000000e+00,5.000000000000000000e+00,5.000000000000000000e+00,5.000000000000000000e+00,5.000000000000000000e+00,5.000000000000000000e+00,4.496419906616210938e+00,4.332598209381103516e+00,4.180294036865234375e+00,4.038333892822265625e+00,3.905699253082275391e+00,3.781499862670898438e+00,3.664956092834472656e+00,3.555381059646606445e+00,3.452168226242065430e+00,3.354778528213500977e+00,3.262732982635498047e+00,3.175603628158569336e+00,3.093006849288940430e+00,3.014597654342651367e+00,2.940065860748291016e+00,2.869130134582519531e+00,2.801536798477172852e+00,2.737055063247680664e+00,2.675475120544433594e+00,2.616604804992675781e+00,2.560269594192504883e+00,2.506309032440185547e+00,2.454575777053833008e+00,2.404935359954833984e+00,2.357262849807739258e+00,2.311443567276000977e+00,2.267371654510498047e+00,2.224948883056640625e+00,2.184084415435791016e+00,2.144693851470947266e+00,2.106698989868164062e+00,2.070026874542236328e+00,2.034610033035278320e+00,2.000384330749511719e+00,1.967291116714477539e+00,1.935274958610534668e+00,1.904284477233886719e+00,1.874270558357238770e+00,1.845188260078430176e+00
5.000000000000000000e+00,5.000000000000000000e+00,5.000000000000000000e+00,5.000000000000000000e+00,5.000000000000000000e+00,5.000000000000000000e+00,5.000000000000000000e+00,5.000000000000000000e+00,5.000000000000000000e+00,5.000000000000000000e+00,5.000000000000000000e+00,5.000000000000000000e+00,5.000000000000000000e+00,5.000000000000000000e+00,5.000000000000000000e+00,5.000000000000000000e+00,5.000000000000000000e+00,5.000000000000000000e+00,5.000000000000000000e+00,5.000000000000000000e+00,5.000000000000000000e+00,5.000000000000000000e+00,5.000000000000000000e+00,5.000000000000000000e+00,5.000000000000000000e+00,5.000000000000000000e+00,5.000000000000000000e+00,5.000000000000000000e+00,5.000000000000000000e+00,5.000000000000000000e+00,2.461328744888305664e+00,2.436594724655151367e+00,2.459754705429077148e+00,5.000000000000000000e+00,5.000000000000000000e+00,5.000000000000000000e+00,5.000000000000000000e+00,5.000000000000000000e+00,5.000000000000000000e+00,5.000000000000000000e+00,4.673245906829833984e+00,4.496539115905761719e+00,4.332708835601806641e+00,4.180397033691406250e+00,4.038429737091064453e+00,3.905789136886596680e+00,3.781584262847900391e+00,3.665035009384155273e+00,3.555455207824707031e+00,3.452238082885742188e+00,3.354844570159912109e+00,3.262795686721801758e+00,3.175663232803344727e+00,3.093063116073608398e+00,3.014651060104370117e+00,2.940116405487060547e+00,2.869178533554077148e+00,2.801583051681518555e+00,2.737099409103393555e+00,2.675517320632934570e+00,2.616645097732543945e+00,2.560307979583740234e+00,2.506345987319946289e+00,2.454611301422119141e+00,2.404969453811645508e+00,2.357295751571655273e+00,2.311475038528442383e+00,2.267401933670043945e+00,2.224977970123291016e+00,2.184112548828125000e+00,2.144721031188964844e+00,2.106725215911865234e+00,2.070052146911621094e+00,2.034634113311767578e+00,2.000407934188842773e+00,1.967314004898071289e+00,1.935297012329101562e+00,1.904305815696716309e+00,1.874291300773620605e+00,1.845208168029785156e+00
5.000000000000000000e+00,5.000000000000000000e+00,5.000000000000000000e+00,5.000000000000000000e+00,5.000000000000000000e+00,5.000000000000000000e+00,5.000000000000000000e+00,5.000000000000000000e+00,5.000000000000000000e+00,5.000000000000000000e+00,5.000000000000000000e+00,5.000000000000000000e+00,5.000000000000000000e+00,5.000000000000000000e+00,5.000000000000000000e+00,5.000000000000000000e+00,5.000000000000000000e+00,5.000000000000000000e+00,5.000000000000000000e+00,5.000000000000000000e+00,5.000000000000000000e+00,5.000000000000000000e+00,5.000000000000000000e+00,5.000000000000000000e+00,5.000000000000000000e+00,5.000000000000000000e+00,2.392616748809814453e+00,2.398016929626464844e+00,2.405944347381591797e+00,2.384593486785888672e+00,2.389633178710937500e+00,2.411578893661499023e+00,2.373922824859619141e+00,2.429386615753173828e+00,2.445875406265258789e+00,2.451388597488403320e+00,5.000000000000000000e+00,5.000000000000000000e+00,5.000000000000000000e+00,4.864548683166503906e+00,4.673374176025390625e+00,4.496657848358154297e+00,4.332818984985351562e+00,4.180499553680419922e+00,4.038526058197021484e+00,3.905878782272338867e+00,3.781668186187744141e+00,3.665114164352416992e+00,3.555529832839965820e+00,3.452307939529418945e+00,3.354910850524902344e+00,3.262858390808105469e+00,3.175722360610961914e+00,3.093119382858276367e+00,3.014704704284667969e+00,2.940167427062988281e+00,2.869226932525634766e+00,2.801629304885864258e+00,2.737143278121948242e+00,2.675559282302856445e+00,2.616685390472412109e+00,2.560346841812133789e+00,2.506382703781127930e+00,2.454646825790405273e+00,2.405003309249877930e+00,2.357328414916992188e+00,2.311506509780883789e+00,2.267432212829589844e+00,2.225007057189941406e+00,2.184140443801879883e+00,2.144747972488403320e+00,2.106751441955566406e+00,2.070077419281005859e+00,2.034658670425415039e+00,2.000431537628173828e+00,1.967336654663085938e+00,1.935319185256958008e+00,1.904327034950256348e+00,1.874311923980712891e+00,1.845228195190429688e+00
5.000000000000000000e+00,5.000000000000000000e+00,5.000000000000000000e+00,5.000000000000000000e+00,5.000000000000000000e+00,5.000000000000000000e+00,5.000000000000000000e+00,5.000000000000000000e+00,5.000000000000000000e+00,5.000000000000000000e+00,5.000000000000000000e+00,5.000000000000000000e+00,5.000000000000000000e+00,5.000000000000000000e+00,5.000000000000000000e+00,5.000000000000000000e+00,5.000000000000000000e+00,5.000000000000000000e+00,5.000000000000000000e+00,5.000000000000000000e+00,5.000000000000000000e+00,5.000000000000000000e+00,5.000000000000000000e+00,5.000000000000000000e+00,5.000000000000000000e+00,2.388131141662597656e+00,2.380444765090942383e+00,2.368432998657226562e+00,2.359878540039062500e+00,2.356367111206054688e+00,2.356086015701293945e+00,2.361844301223754883e+00,2.372354269027709961e+00,2.385771989822387695e+00,2.402627229690551758e+00,2.433782100677490234e+00,2.444122552871704102e+00,5.000000000000000000e+00,5.000000000000000000e+00,4.864687919616699219e+00,4.673502922058105469e+00,4.496777057647705078e+00,4.332929611206054688e+00,4.180602550506591797e+00,4.038621902465820312e+00,3.905968904495239258e+00,3.781752109527587891e+00,3.665193080902099609e+00,3.555604219436645508e+00,3.452378273010253906e+00,3.354977130889892578e+00,3.262921094894409180e+00,3.175781726837158203e+00,3.093175649642944336e+00,3.014758110046386719e+00,2.940218210220336914e+00,2.869275569915771484e+00,2.801675558090209961e+00,2.737187385559082031e+00,2.675601243972778320e+00,2.616725683212280273e+00,2.560385227203369141e+00,2.506419897079467773e+00,2.454682350158691406e+00,2.405037641525268555e+00,2.357361078262329102e+00,2.311537981033325195e+00,2.267462253570556641e+00,2.225036144256591797e+00,2.184168577194213867e+00,2.144775152206420898e+00,2.106777429580688477e+00,2.070102453231811523e+00,2.034682989120483398e+00,2.000454902648925781e+00,1.967359423637390137e+00,1.935341238975524902e+00,1.904348373413085938e+00,1.874332547187805176e+00,1.845248341560363770e+00
5.000000000000000000e+00,5.000000000000000000e+00,5.000000000000000000e+00,5.000000000000000000e+00,5.000000000000000000e+00,5.000000000000000000e+00,5.000000000000000000e+00,5.000000000000000000e+00,5.000000000000000000e+00,5.000000000000000000e+00,5.000000000000000000e+00,5.000000000000000000e+00,5.000000000000000000e+00,5.000000000000000000e+00,5.000000000000000000e+00,5.000000000000000000e+00,5.000000000000000000e+00,5.000000000000000000e+00,5.000000000000000000e+00,5.000000000000000000e+00,5.000000000000000000e+00,5.000000000000000000e+00,5.000000000000000000e+00,5.000000000000000000e+00,5.000000000000000000e+00,2.398050546646118164e+00,2.388081550598144531e+00,2.376880168914794922e+00,2.344819068908691406e+00,2.332740783691406250e+00,2.332983970642089844e+00,2.339014768600463867e+00,2.345844030380249023e+00,2.361864566802978516e+00,2.394573926925659180e+00,2.446475744247436523e+00,2.455098390579223633e+00,5.000000000000000000e+00,5.000000000000000000e+00,4.864827156066894531e+00,4.673631191253662109e+00,4.496896266937255859e+00,4.333039760589599609e+00,4.180705070495605469e+00,4.038717746734619141e+00,3.906058311462402344e+00,3.781836509704589844e+00,3.665272235870361328e+00,3.555678367614746094e+00,3.452448368072509766e+00,3.355043172836303711e+00,3.262983560562133789e+00,3.175841093063354492e+00,3.093232154846191406e+00,3.014811754226684570e+00,2.940268993377685547e+00,2.869323730468750000e+00,2.801721572875976562e+00,2.737231492996215820e+00,2.675643682479858398e+00,2.616765975952148438e+00,2.560423612594604492e+00,2.506456613540649414e+00,2.454717636108398438e+00,2.405071496963500977e+00,2.357393741607666016e+00,2.311569452285766602e+00,2.267492771148681641e+00,2.225065231323242188e+00,2.184196710586547852e+00,2.144802093505859375e+00,2.106803655624389648e+00,2.070127725601196289e+00,2.034707307815551758e+00,2.000478506088256836e+00,1.967382311820983887e+00,1.935363173484802246e+00,1.904369831085205078e+00,1.874353170394897461e+00,1.845268487930297852e+00
5.000000000000000000e+00,5.000000000000000000e+00,5.000000000000000000e+00,5.000000000000000000e+00,5.000000000000000000e+00,5.000000000000000000e+00,5.000000000000000000e+00,5.000000000000000000e+00,5.000000000000000000e+00,5.000000000000000000e+00,5.000000000000000000e+00,5.000000000000000000e+00,5.000000000000000000e+00,5.000000000000000000e+00,5.000000000000000000e+00,5.000000000000000000e+00,5.000000000000000000e+00,5.000000000000000000e+00,5.000000000000000000e+00,5.000000000000000000e+00,5.000000000000000000e+00,5.000000000000000000e+00,5.000000000000000000e+00,5.000000000000000000e+00,5.000000000000000000e+00,2.412214994430541992e+00,2.394408464431762695e+00,2.387086391448974609e+00,2.346848726272583008e+00,2.337304830551147461e+00,2.334041357040405273e+00,2.339929103851318359e+00,2.344315528869628906e+00,2.363005876541137695e+00,2.392474174499511719e+00,2.461277723312377930e+00,2.470783472061157227e+00,5.000000000000000000e+00,5.000000000000000000e+00,4.864966392517089844e+00,4.673759937286376953e+00,4.497014999389648438e+00,4.333150386810302734e+00,4.180808067321777344e+00,4.038814067840576172e+00,3.906147956848144531e+00,3.781920671463012695e+00,3.665351152420043945e+00,3.555752992630004883e+00,3.452518701553344727e+00,3.355109691619873047e+00,3.263046026229858398e+00,3.175900459289550781e+00,3.093288183212280273e+00,3.014864921569824219e+00,2.940320014953613281e+00,2.869372367858886719e+00,2.801767587661743164e+00,2.737275362014770508e+00,2.675685644149780273e+00,2.616806268692016602e+00,2.560462474822998047e+00,2.506493806838989258e+00,2.454753160476684570e+00,2.405105352401733398e+00,2.357426404953002930e+00,2.311600685119628906e+00,2.267522811889648438e+00,2.225094556808471680e+00,2.184224843978881836e+00,2.144829034805297852e+00,2.106829643249511719e+00,2.070152997970581055e+00,2.034731626510620117e+00,2.000502109527587891e+00,1.967405080795288086e+00,1.935385227203369141e+00,1.904391050338745117e+00,1.874373912811279297e+00,1.845288276672363281e+00
5.000000000000000000e+00,5.000000000000000000e+00,5.000000000000000000e+00,5.000000000000000000e+00,5.000000000000000000e+00,5.000000000000000000e+00,5.000000000000000000e+00,5.000000000000000000e+00,5.000000000000000000e+00,5.000000000000000000e+00,5.000000000000000000e+00,5.000000000000000000e+00,5.000000000000000000e+00,5.000000000000000000e+00,5.000000000000000000e+00,5.000000000000000000e+00,5.000000000000000000e+00,5.000000000000000000e+00,5.000000000000000000e+00,5.000000000000000000e+00,5.000000000000000000e+00,5.000000000000000000e+00,5.000000000000000000e+00,5.000000000000000000e+00,5.000000000000000000e+00,5.000000000000000000e+00,2.393949270248413086e+00,2.402346849441528320e+00,2.362177133560180664e+00,2.345458269119262695e+00,2.329097270965576172e+00,2.335744142532348633e+00,2.342766523361206055e+00,2.373252630233764648e+00,2.397391796112060547e+00,2.474261283874511719e+00,2.476046085357666016e+00,5.000000000000000000e+00,5.000000000000000000e+00,4.865105628967285156e+00,4.673888683319091797e+00,4.497133731842041016e+00,4.333261013031005859e+00,4.180911064147949219e+00,4.038909912109375000e+00,3.906238079071044922e+00,3.782005071640014648e+00,3.665430068969726562e+00,3.555827140808105469e+00,3.452588796615600586e+00,3.355175733566284180e+00,3.263108968734741211e+00,3.175959825515747070e+00,3.093344688415527344e+00,3.014918327331542969e+00,2.940370798110961914e+00,2.869420766830444336e+00,2.801814079284667969e+00,2.737319707870483398e+00,2.675727844238281250e+00,2.616846561431884766e+00,2.560500860214233398e+00,2.506530761718750000e+00,2.454788684844970703e+00,2.405139684677124023e+00,2.357459068298339844e+00,2.311632156372070312e+00,2.267553091049194336e+00,2.225123643875122070e+00,2.184252738952636719e+00,2.144856214523315430e+00,2.106855869293212891e+00,2.070178270339965820e+00,2.034755945205688477e+00,2.000525474548339844e+00,1.967427730560302734e+00,1.935407400131225586e+00,1.904412388801574707e+00,1.874394655227661133e+00,1.845308423042297363e+00
5.000000000000000000e+00,5.000000000000000000e+00,5.000000000000000000e+00,5.000000000000000000e+00,5.000000000000000000e+00,5.000000000000000000e+00,5.000000000000000000e+00,5.000000000000000000e+00,5.000000000000000000e+00,5.000000000000000000e+00,5.000000000000000000e+00,5.000000000000000000e+00,5.000000000000000000e+00,5.000000000000000000e+00,5.000000000000000000e+00,5.000000000000000000e+00,5.000000000000000000e+00,5.000000000000000000e+00,5.000000000000000000e+00,5.000000000000000000e+00,5.000000000000000000e+00,5.000000000000000000e+00,5.000000000000000000e+00,5.000000000000000000e+00,5.000000000000000000e+00,5.000000000000000000e+00,2.393467187881469727e+00,2.395932435989379883e+00,2.369519472122192383e+00,2.343531370162963867e+00,2.332750797271728516e+00,2.334728479385375977e+00,2.345360040664672852e+00,2.368231534957885742e+00,2.406151771545410156e+00,2.473952770233154297e+00,2.482430934906005859e+00,5.000000000000000000e+00,5.000000000000000000e+00,4.865244865417480469e+00,4.674016952514648438e+00,4.497252941131591797e+00,4.333371639251708984e+00,4.181013584136962891e+00,4.039005756378173828e+00,3.906327486038208008e+00,3.782088994979858398e+00,3.665509462356567383e+00,3.555901765823364258e+00,3.452659130096435547e+00,3.355241775512695312e+00,3.263171434402465820e+00,3.176019191741943359e+00,3.093400955200195312e+00,3.014971971511840820e+00,2.940421819686889648e+00,2.869469165802001953e+00,2.801860094070434570e+00,2.737363576889038086e+00,2.675769805908203125e+00,2.616886854171752930e+00,2.560539484024047852e+00,2.506567716598510742e+00,2.454823970794677734e+00,2.405173540115356445e+00,2.357491731643676758e+00,2.311663627624511719e+00,2.267583370208740234e+00,2.225152730941772461e+00,2.184280872344970703e+00,2.144883394241333008e+00,2.106881856918334961e+00,2.070203542709350586e+00,2.034780502319335938e+00,2.000549077987670898e+00,1.967450618743896484e+00,1.935429215431213379e+00,1.904433846473693848e+00,1.874415159225463867e+00,1.845328569412231445e+00
5.000000000000000000e+00,5.000000000000000000e+00,5.000000000000000000e+00,5.000000000000000000e+00,5.000000000000000000e+00,5.000000000000000000e+00,5.000000000000000000e+00,5.000000000000000000e+00,5.000000000000000000e+00,5.000000000000000000e+00,5.000000000000000000e+00,5.000000000000000000e+00,5.000000000000000000e+00,5.000000000000000000e+00,5.000000000000000000e+00,5.000000000000000000e+00,5.000000000000000000e+00,5.000000000000000000e+00,5.000000000000000000e+00,5.000000000000000000e+00,5.000000000000000000e+00,5.000000000000000000e+00,5.000000000000000000e+00,5.000000000000000000e+00,5.000000000000000000e+00,2.445812702178955078e+00,2.389404535293579102e+00,2.395054817199707031e+00,2.386626482009887695e+00,2.346094846725463867e+00,2.335927486419677734e+00,2.337541818618774414e+00,2.347213506698608398e+00,2.368874549865722656e+00,2.418498516082763672e+00,2.476908922195434570e+00,2.486070156097412109e+00,5.000000000000000000e+00,5.000000000000000000e+00,4.865384101867675781e+00,4.674145221710205078e+00,4.497371673583984375e+00,4.333481788635253906e+00,4.181116580963134766e+00,4.039101600646972656e+00,3.906417608261108398e+00,3.782172918319702148e+00,3.665588140487670898e+00,3.555976152420043945e+00,3.452728986740112305e+00,3.355308294296264648e+00,3.263234376907348633e+00,3.176078557968139648e+00,3.093456983566284180e+00,3.015025377273559570e+00,2.940472602844238281e+00,2.869517564773559570e+00,2.801906347274780273e+00,2.737407922744750977e+00,2.675812005996704102e+00,2.616927146911621094e+00,2.560578107833862305e+00,2.506604671478271484e+00,2.454859495162963867e+00,2.405207633972167969e+00,2.357524394989013672e+00,2.311695098876953125e+00,2.267613649368286133e+00,2.225181818008422852e+00,2.184309005737304688e+00,2.144910573959350586e+00,2.106908082962036133e+00,2.070228576660156250e+00,2.034804821014404297e+00,2.000572681427001953e+00,1.967473387718200684e+00,1.935451388359069824e+00,1.904455184936523438e+00,1.874435901641845703e+00,1.845348358154296875e+00
5.000000000000000000e+00,5.000000000000000000e+00,5.000000000000000000e+00,5.000000000000000000e+00,5.000000000000000000e+00,5.000000000000000000e+00,5.000000000000000000e+00,5.000000000000000000e+00,5.000000000000000000e+00,5.000000000000000000e+00,5.000000000000000000e+00,5.000000000000000000e+00,5.000000000000000000e+00,5.000000000000000000e+00,5.000000000000000000e+00,5.000000000000000000e+00,5.000000000000000000e+00,5.000000000000000000e+00,5.000000000000000000e+00,5.000000000000000000e+00,5.000000000000000000e+00,5.000000000000000000e+00,5.000000000000000000e+00,5.000000000000000000e+00,5.000000000000000000e+00,5.000000000000000000e+00,2.389915227890014648e+00,2.404838562011718750e+00,2.377316713333129883e+00,2.336913824081420898e+00,2.333020448684692383e+00,2.344013214111328125e+00,2.344492197036743164e+00,2.364623069763183594e+00,2.430270195007324219e+00,2.493164062500000000e+00,2.494162797927856445e+00,5.000000000000000000e+00,5.000000000000000000e+00,4.865523338317871094e+00,4.674273967742919922e+00,4.497490882873535156e+00,4.333592414855957031e+00,4.181219577789306641e+00,4.039197921752929688e+00,3.906507253646850586e+00,3.782257318496704102e+00,3.665667533874511719e+00,3.556050777435302734e+00,3.452799081802368164e+00,3.355374336242675781e+00,3.263296842575073242e+00,3.176137924194335938e+00,3.093513488769531250e+00,3.015079021453857422e+00,2.940523386001586914e+00,2.869565963745117188e+00,2.801952600479125977e+00,2.737451791763305664e+00,2.675854206085205078e+00,2.616967439651489258e+00,2.560616731643676758e+00,2.506641626358032227e+00,2.454895019531250000e+00,2.405241727828979492e+00,2.357557296752929688e+00,2.311726570129394531e+00,2.267643928527832031e+00,2.225210905075073242e+00,2.184336900711059570e+00,2.144937515258789062e+00,2.106934070587158203e+00,2.070253849029541016e+00,2.034829139709472656e+00,2.000596046447753906e+00,1.967496037483215332e+00,1.935473442077636719e+00,1.904476404190063477e+00,1.874456644058227539e+00,1.845368504524230957e+00
5.000000000000000000e+00,5.000000000000000000e+00,5.000000000000000000e+00,5.000000000000000000e+00,5.000000000000000000e+00,5.000000000000000000e+00,5.000000000000000000e+00,5.000000000000000000e+00,5.000000000000000000e+00,5.000000000000000000e+00,5.000000000000000000e+00,5.000000000000000000e+00,5.000000000000000000e+00,5.000000000000000000e+00,5.000000000000000000e+00,5.000000000000000000e+00,5.000000000000000000e+00,5.000000000000000000e+00,5.000000000000000000e+00,5.000000000000000000e+00,5.000000000000000000e+00,5.000000000000000000e+00,5.000000000000000000e+00,5.000000000000000000e+00,5.000000000000000000e+00,5.000000000000000000e+00,2.396039247512817383e+00,2.414171934127807617e+00,2.360126495361328125e+00,2.329785108566284180e+00,2.328366756439208984e+00,2.333709716796875000e+00,2.339710950851440430e+00,2.357760190963745117e+00,2.410388708114624023e+00,2.509144783020019531e+00,2.504472970962524414e+00,5.000000000000000000e+00,5.000000000000000000e+00,4.865662574768066406e+00,4.674402713775634766e+00,4.497610092163085938e+00,4.333703041076660156e+00,4.181322574615478516e+00,4.039293766021728516e+00,3.906596899032592773e+00,3.782341241836547852e+00,3.665746450424194336e+00,3.556124925613403320e+00,3.452869415283203125e+00,3.355440855026245117e+00,3.263359308242797852e+00,3.176197052001953125e+00,3.093569755554199219e+00,3.015132427215576172e+00,2.940574407577514648e+00,2.869614601135253906e+00,2.801998853683471680e+00,2.737495899200439453e+00,2.675896167755126953e+00,2.617007732391357422e+00,2.560655355453491211e+00,2.506678581237792969e+00,2.454930543899536133e+00,2.405275583267211914e+00,2.357589960098266602e+00,2.311758041381835938e+00,2.267674207687377930e+00,2.225240230560302734e+00,2.184365272521972656e+00,2.144964694976806641e+00,2.106960296630859375e+00,2.070279121398925781e+00,2.034853458404541016e+00,2.000619649887084961e+00,1.967518806457519531e+00,1.935495615005493164e+00,1.904497742652893066e+00,1.874477148056030273e+00,1.845388650894165039e+00
5.000000000000000000e+00,5.000000000000000000e+00,5.000000000000000000e+00,5.000000000000000000e+00,5.000000000000000000e+00,5.000000000000000000e+00,5.000000000000000000e+00,5.000000000000000000e+00,5.000000000000000000e+00,5.000000000000000000e+00,5.000000000000000000e+00,5.000000000000000000e+00,5.000000000000000000e+00,5.000000000000000000e+00,5.000000000000000000e+00,5.000000000000000000e+00,5.000000000000000000e+00,5.000000000000000000e+00,5.000000000000000000e+00,5.000000000000000000e+00,5.000000000000000000e+00,5.000000000000000000e+00,5.000000000000000000e+00,5.000000000000000000e+00,5.000000000000000000e+00,2.387643814086914062e+00,2.369677543640136719e+00,2.406095504760742188e+00,2.368882656097412109e+00,2.342109203338623047e+00,2.337239265441894531e+00,2.338231563568115234e+00,2.351363897323608398e+00,2.376890420913696289e+00,2.412372827529907227e+00,2.513592004776000977e+00,2.504992246627807617e+00,5.000000000000000000e+00,5.000000000000000000e+00,4.865801811218261719e+00,4.674530982971191406e+00,4.497728824615478516e+00,4.333813190460205078e+00,4.181425094604492188e+00,4.039389610290527344e+00,3.906686782836914062e+00,3.782425642013549805e+00,3.665825605392456055e+00,3.556199073791503906e+00,3.452939271926879883e+00,3.355506896972656250e+00,3.263422250747680664e+00,3.176256656646728516e+00,3.093626260757446289e+00,3.015185832977294922e+00,2.940625190734863281e+00,2.869663000106811523e+00,2.802044868469238281e+00,2.737540006637573242e+00,2.675938367843627930e+00,2.617047786712646484e+00,2.560693740844726562e+00,2.506715536117553711e+00,2.454965829849243164e+00,2.405309677124023438e+00,2.357622623443603516e+00,2.311789512634277344e+00,2.267704248428344727e+00,2.225269317626953125e+00,2.184393167495727539e+00,2.144991636276245117e+00,2.106986522674560547e+00,2.070304393768310547e+00,2.034877777099609375e+00,2.000643253326416016e+00,1.967541694641113281e+00,1.935517430305480957e+00,1.904519200325012207e+00,1.874497890472412109e+00,1.845408678054809570e+00
5.000000000000000000e+00,5.000000000000000000e+00,5.000000000000000000e+00,5.000000000000000000e+00,5.000000000000000000e+00,5.000000000000000000e+00,5.000000000000000000e+00,5.000000000000000000e+00,5.000000000000000000e+00,5.000000000000000000e+00,5.000000000000000000e+00,5.000000000000000000e+00,5.000000000000000000e+00,5.000000000000000000e+00,5.000000000000000000e+00,5.000000000000000000e+00,5.000000000000000000e+00,5.000000000000000000e+00,5.000000000000000000e+00,5.000000000000000000e+00,5.000000000000000000e+00,5.000000000000000000e+00,5.000000000000000000e+00,5.000000000000000000e+00,5.000000000000000000e+00,2.348404645919799805e+00,2.342375278472900391e+00,2.382268905639648438e+00,2.364751577377319336e+00,2.347555160522460938e+00,2.339696884155273438e+00,2.345518589019775391e+00,2.362915515899658203e+00,2.385122776031494141e+00,2.424587011337280273e+00,2.503726243972778320e+00,2.493218183517456055e+00,5.000000000000000000e+00,5.000000000000000000e+00,4.865941524505615234e+00,4.674659729003906250e+00,4.497848033905029297e+00,4.333923816680908203e+00,4.181528091430664062e+00,4.039485454559326172e+00,3.906776428222656250e+00,3.782509803771972656e+00,3.665904521942138672e+00,3.556273698806762695e+00,3.453009605407714844e+00,3.355572938919067383e+00,3.263484716415405273e+00,3.176315784454345703e+00,3.093682289123535156e+00,3.015239477157592773e+00,2.940676212310791016e+00,2.869711637496948242e+00,2.802091121673583984e+00,2.737584114074707031e+00,2.675980567932128906e+00,2.617088317871093750e+00,2.560732364654541016e+00,2.506752490997314453e+00,2.455001354217529297e+00,2.405343770980834961e+00,2.357655286788940430e+00,2.311820983886718750e+00,2.267734766006469727e+00,2.225298404693603516e+00,2.184421300888061523e+00,2.145018577575683594e+00,2.107012510299682617e+00,2.070329427719116211e+00,2.034902334213256836e+00,2.000666856765747070e+00,1.967564582824707031e+00,1.935539484024047852e+00,1.904540419578552246e+00,1.874518632888793945e+00,1.845428586006164551e+00
5.000000000000000000e+00,5.000000000000000000e+00,5.000000000000000000e+00,5.000000000000000000e+00,5.000000000000000000e+00,5.000000000000000000e+00,5.000000000000000000e+00,5.000000000000000000e+00,5.000000000000000000e+00,5.000000000000000000e+00,5.000000000000000000e+00,5.000000000000000000e+00,5.000000000000000000e+00,5.000000000000000000e+00,5.000000000000000000e+00,5.000000000000000000e+00,5.000000000000000000e+00,5.000000000000000000e+00,5.000000000000000000e+00,5.000000000000000000e+00,5.000000000000000000e+00,5.000000000000000000e+00,5.000000000000000000e+00,5.000000000000000000e+00,5.000000000000000000e+00,2.313944101333618164e+00,2.314990520477294922e+00,2.412350416183471680e+00,2.364681720733642578e+00,2.362051248550415039e+00,2.365804672241210938e+00,2.368731260299682617e+00,2.367345571517944336e+00,2.359660625457763672e+00,2.388072967529296875e+00,2.502210378646850586e+00,2.484871149063110352e+00,5.000000000000000000e+00,5.000000000000000000e+00,4.866080760955810547e+00,4.674787998199462891e+00,4.497966766357421875e+00,4.334034442901611328e+00,4.181630611419677734e+00,4.039581775665283203e+00,3.906866550445556641e+00,3.782593727111816406e+00,3.665983438491821289e+00,3.556348085403442383e+00,3.453079700469970703e+00,3.355639457702636719e+00,3.263547658920288086e+00,3.176375389099121094e+00,3.093738555908203125e+00,3.015292882919311523e+00,2.940726995468139648e+00,2.869759798049926758e+00,2.802137374877929688e+00,2.737628221511840820e+00,2.676022529602050781e+00,2.617128610610961914e+00,2.560770988464355469e+00,2.506789445877075195e+00,2.455036878585815430e+00,2.405377864837646484e+00,2.357688188552856445e+00,2.311852216720581055e+00,2.267764806747436523e+00,2.225327491760253906e+00,2.184449434280395508e+00,2.145045757293701172e+00,2.107038736343383789e+00,2.070354700088500977e+00,2.034926652908325195e+00,2.000690460205078125e+00,1.967587113380432129e+00,1.935561656951904297e+00,1.904561758041381836e+00,1.874539256095886230e+00,1.845448732376098633e+00
5.000000000000000000e+00,5.000000000000000000e+00,5.000000000000000000e+00,5.000000000000000000e+00,5.000000000000000000e+00,5.000000000000000000e+00,5.000000000000000000e+00,5.000000000000000000e+00,5.000000000000000000e+00,5.000000000000000000e+00,5.000000000000000000e+00,5.000000000000000000e+00,5.000000000000000000e+00,5.000000000000000000e+00,5.000000000000000000e+00,5.000000000000000000e+00,5.000000000000000000e+00,5.000000000000000000e+00,5.000000000000000000e+00,5.000000000000000000e+00,5.000000000000000000e+00,5.000000000000000000e+00,5.000000000000000000e+00,5.000000000000000000e+00,5.000000000000000000e+00,2.283741474151611328e+00,2.303984165191650391e+00,2.425486087799072266e+00,2.366501331329345703e+00,2.360077142715454102e+00,2.385680437088012695e+00,2.345237970352172852e+00,2.303936243057250977e+00,2.304392814636230469e+00,2.335541248321533203e+00,5.000000000000000000e+00,2.471089363098144531e+00,5.000000000000000000e+00,5.000000000000000000e+00,4.866219997406005859e+00,4.674916744232177734e+00,4.498085975646972656e+00,4.334145069122314453e+00,4.181733608245849609e+00,4.039677619934082031e+00,3.906956195831298828e+00,3.782678127288818359e+00,3.666062831878662109e+00,3.556422710418701172e+00,3.453149795532226562e+00,3.355705499649047852e+00,3.263610124588012695e+00,3.176434516906738281e+00,3.093795061111450195e+00,3.015346527099609375e+00,2.940778017044067383e+00,2.869808197021484375e+00,2.802183389663696289e+00,2.737672328948974609e+00,2.676064729690551758e+00,2.617168903350830078e+00,2.560809612274169922e+00,2.506826400756835938e+00,2.455072164535522461e+00,2.405411958694458008e+00,2.357720851898193359e+00,2.311883926391601562e+00,2.267795324325561523e+00,2.225356578826904297e+00,2.184477329254150391e+00,2.145072698593139648e+00,2.107064723968505859e+00,2.070379972457885742e+00,2.034950971603393555e+00,2.000714063644409180e+00,1.967610001564025879e+00,1.935583591461181641e+00,1.904583215713500977e+00,1.874559879302978516e+00,1.845468759536743164e+00
5.000000000000000000e+00,5.000000000000000000e+00,5.000000000000000000e+00,5.000000000000000000e+00,5.000000000000000000e+00,5.000000000000000000e+00,5.000000000000000000e+00,5.000000000000000000e+00,5.000000000000000000e+00,5.000000000000000000e+00,5.000000000000000000e+00,5.000000000000000000e+00,5.000000000000000000e+00,5.000000000000000000e+00,5.000000000000000000e+00,5.000000000000000000e+00,5.000000000000000000e+00,5.000000000000000000e+00,5.000000000000000000e+00,5.000000000000000000e+00,5.000000000000000000e+00,5.000000000000000000e+00,5.000000000000000000e+00,5.000000000000000000e+00,5.000000000000000000e+00,2.257818222045898438e+00,5.000000000000000000e+00,2.420179367065429688e+00,2.363492727279663086e+00,2.353559970855712891e+00,2.380560159683227539e+00,2.318101644515991211e+00,2.282796621322631836e+00,2.279929161071777344e+00,2.309638977050781250e+00,5.000000000000000000e+00,2.463471174240112305e+00,5.000000000000000000e+00,5.000000000000000000e+00,4.866359233856201172e+00,4.675045490264892578e+00,4.498205184936523438e+00,4.334255218505859375e+00,4.181836605072021484e+00,4.039773941040039062e+00,3.907045841217041016e+00,3.782762289047241211e+00,3.666141748428344727e+00,3.556496858596801758e+00,3.453220129013061523e+00,3.355772018432617188e+00,3.263673067092895508e+00,3.176493883132934570e+00,3.093851327896118164e+00,3.015399932861328125e+00,2.940828800201416016e+00,2.869856834411621094e+00,2.802229881286621094e+00,2.737716436386108398e+00,2.676106929779052734e+00,2.617209196090698242e+00,2.560848236083984375e+00,2.506863355636596680e+00,2.455107688903808594e+00,2.405446052551269531e+00,2.357753276824951172e+00,2.311915159225463867e+00,2.267825365066528320e+00,2.225385904312133789e+00,2.184505462646484375e+00,2.145099878311157227e+00,2.107090711593627930e+00,2.070405244827270508e+00,2.034975290298461914e+00,2.000737428665161133e+00,1.967632889747619629e+00,1.935605645179748535e+00,1.904604434967041016e+00,1.874580621719360352e+00,1.845488667488098145e+00
5.000000000000000000e+00,5.000000000000000000e+00,5.000000000000000000e+00,5.000000000000000000e+00,5.000000000000000000e+00,5.000000000000000000e+00,5.000000000000000000e+00,5.000000000000000000e+00,5.000000000000000000e+00,5.000000000000000000e+00,5.000000000000000000e+00,5.000000000000000000e+00,5.000000000000000000e+00,5.000000000000000000e+00,5.000000000000000000e+00,5.000000000000000000e+00,5.000000000000000000e+00,5.000000000000000000e+00,5.000000000000000000e+00,5.000000000000000000e+00,5.000000000000000000e+00,5.000000000000000000e+00,5.000000000000000000e+00,5.000000000000000000e+00,5.000000000000000000e+00,2.222475767135620117e+00,2.223649978637695312e+00,2.434589147567749023e+00,2.369319915771484375e+00,2.354718208312988281e+00,2.378386259078979492e+00,2.315425634384155273e+00,2.265644788742065430e+00,2.257232427597045898e+00,2.288339853286743164e+00,5.000000000000000000e+00,2.458552360534667969e+00,5.000000000000000000e+00,5.000000000000000000e+00,4.866498470306396484e+00,4.675174236297607422e+00,4.498324394226074219e+00,4.334365844726562500e+00,4.181939601898193359e+00,4.039869785308837891e+00,3.907135963439941406e+00,3.782846689224243164e+00,3.666221141815185547e+00,3.556571245193481445e+00,3.453289985656738281e+00,3.355838060379028320e+00,3.263735532760620117e+00,3.176553487777709961e+00,3.093907833099365234e+00,3.015453338623046875e+00,2.940879583358764648e+00,2.869905233383178711e+00,2.802275896072387695e+00,2.737760543823242188e+00,2.676149129867553711e+00,2.617249488830566406e+00,2.560886621475219727e+00,2.506900310516357422e+00,2.455143213272094727e+00,2.405479907989501953e+00,2.357786178588867188e+00,2.311946630477905273e+00,2.267855644226074219e+00,2.225414991378784180e+00,2.184533596038818359e+00,2.145127058029174805e+00,2.107116937637329102e+00,2.070430517196655273e+00,2.034999608993530273e+00,2.000761032104492188e+00,1.967655420303344727e+00,1.935627698898315430e+00,1.904625773429870605e+00,1.874601364135742188e+00,1.845508813858032227e+00
5.000000000000000000e+00,5.000000000000000000e+00,5.000000000000000000e+00,5.000000000000000000e+00,5.000000000000000000e+00,5.000000000000000000e+00,5.000000000000000000e+00,5.000000000000000000e+00,5.000000000000000000e+00,5.000000000000000000e+00,5.000000000000000000e+00,5.000000000000000000e+00,5.000000000000000000e+00,5.000000000000000000e+00,5.000000000000000000e+00,5.000000000000000000e+00,5.000000000000000000e+00,5.000000000000000000e+00,5.000000000000000000e+00,5.000000000000000000e+00,5.000000000000000000e+00,5.000000000000000000e+00,5.000000000000000000e+00,5.000000000000000000e+00,2.252905130386352539e+00,2.200724601745605469e+00,5.000000000000000000e+00,5.000000000000000000e+00,2.378699541091918945e+00,2.363144874572753906e+00,2.384202480316162109e+00,2.310297966003417969e+00,2.244713783264160156e+00,2.234585762023925781e+00,2.268177986145019531e+00,5.000000000000000000e+00,2.446846961975097656e+00,2.488637208938598633e+00,5.000000000000000000e+00,4.866638183593750000e+00,4.675302505493164062e+00,4.498443126678466797e+00,4.334476470947265625e+00,4.182042598724365234e+00,4.039965629577636719e+00,3.907225370407104492e+00,3.782930612564086914e+00,3.666300058364868164e+00,3.556645870208740234e+00,3.453360557556152344e+00,3.355904579162597656e+00,3.263797998428344727e+00,3.176612615585327148e+00,3.093963861465454102e+00,3.015506982803344727e+00,2.940930604934692383e+00,2.869953870773315430e+00,2.802321910858154297e+00,2.737804651260375977e+00,2.676191091537475586e+00,2.617289781570434570e+00,2.560925245285034180e+00,2.506937503814697266e+00,2.455178499221801758e+00,2.405514001846313477e+00,2.357818841934204102e+00,2.311978101730346680e+00,2.267885923385620117e+00,2.225444078445434570e+00,2.184561729431152344e+00,2.145153999328613281e+00,2.107142925262451172e+00,2.070455551147460938e+00,2.035023927688598633e+00,2.000784635543823242e+00,1.967678308486938477e+00,1.935649633407592773e+00,1.904647231101989746e+00,1.874621868133544922e+00,1.845528841018676758e+00
5.000000000000000000e+00,5.000000000000000000e+00,5.000000000000000000e+00,5.000000000000000000e+00,5.000000000000000000e+00,5.000000000000000000e+00,5.000000000000000000e+00,5.000000000000000000e+00,5.000000000000000000e+00,5.000000000000000000e+00,5.000000000000000000e+00,5.000000000000000000e+00,5.000000000000000000e+00,5.000000000000000000e+00,5.000000000000000000e+00,5.000000000000000000e+00,5.000000000000000000e+00,5.000000000000000000e+00,5.000000000000000000e+00,5.000000000000000000e+00,5.000000000000000000e+00,5.000000000000000000e+00,5.000000000000000000e+00,5.000000000000000000e+00,2.194398403167724609e+00,5.000000000000000000e+00,5.000000000000000000e+00,5.000000000000000000e+00,2.390300273895263672e+00,2.373995065689086914e+00,2.393140792846679688e+00,2.305004119873046875e+00,2.226046800613403320e+00,2.208987951278686523e+00,2.241545915603637695e+00,5.000000000000000000e+00,5.000000000000000000e+00,2.479965686798095703e+00,5.000000000000000000e+00,4.866777420043945312e+00,4.675431251525878906e+00,4.498562335968017578e+00,4.334587097167968750e+00,4.182145595550537109e+00,4.040061950683593750e+00,3.907315492630004883e+00,3.783015012741088867e+00,3.666378974914550781e+00,3.556720018386840820e+00,3.453430414199829102e+00,3.355970859527587891e+00,3.263860940933227539e+00,3.176672220230102539e+00,3.094020128250122070e+00,3.015560388565063477e+00,2.940981388092041016e+00,2.870002269744873047e+00,2.802368402481079102e+00,2.737848758697509766e+00,2.676233530044555664e+00,2.617330074310302734e+00,2.560963869094848633e+00,2.506974220275878906e+00,2.455214262008666992e+00,2.405548095703125000e+00,2.357851743698120117e+00,2.312009572982788086e+00,2.267916202545166016e+00,2.225473165512084961e+00,2.184589624404907227e+00,2.145181179046630859e+00,2.107169151306152344e+00,2.070480823516845703e+00,2.035048246383666992e+00,2.000808000564575195e+00,1.967701196670532227e+00,1.935671687126159668e+00,1.904668569564819336e+00,1.874642610549926758e+00,1.845548748970031738e+00
5.000000000000000000e+00,5.000000000000000000e+00,5.000000000000000000e+00,5.000000000000000000e+00,5.000000000000000000e+00,5.000000000000000000e+00,5.000000000000000000e+00,5.000000000000000000e+00,5.000000000000000000e+00,5.000000000000000000e+00,5.000000000000000000e+00,5.000000000000000000e+00,5.000000000000000000e+00,5.000000000000000000e+00,5.000000000000000000e+00,5.000000000000000000e+00,5.000000000000000000e+00,5.000000000000000000e+00,5.000000000000000000e+00,5.000000000000000000e+00,5.000000000000000000e+00,5.000000000000000000e+00,5.000000000000000000e+00,5.000000000000000000e+00,5.000000000000000000e+00,5.000000000000000000e+00,5.000000000000000000e+00,5.000000000000000000e+00,2.403312683105468750e+00,2.384945392608642578e+00,2.400659084320068359e+00,2.289093971252441406e+00,2.202766418457031250e+00,2.191051959991455078e+00,2.223273515701293945e+00,5.000000000000000000e+00,5.000000000000000000e+00,2.449379205703735352e+00,5.000000000000000000e+00,4.866916656494140625e+00,4.675559520721435547e+00,4.498681068420410156e+00,4.334697723388671875e+00,4.182248115539550781e+00,4.040157794952392578e+00,3.907405138015747070e+00,3.783099174499511719e+00,3.666458129882812500e+00,3.556794881820678711e+00,3.453500509262084961e+00,3.356036901473999023e+00,3.263923406600952148e+00,3.176731348037719727e+00,3.094076633453369141e+00,3.015614032745361328e+00,2.941032409667968750e+00,2.870050430297851562e+00,2.802414417266845703e+00,2.737892866134643555e+00,2.676275491714477539e+00,2.617370367050170898e+00,2.561002492904663086e+00,2.507011175155639648e+00,2.455249547958374023e+00,2.405581951141357422e+00,2.357884168624877930e+00,2.312041044235229492e+00,2.267946481704711914e+00,2.225502490997314453e+00,2.184617757797241211e+00,2.145208120346069336e+00,2.107195377349853516e+00,2.070506095886230469e+00,2.035072803497314453e+00,2.000831842422485352e+00,1.967723727226257324e+00,1.935693860054016113e+00,1.904689788818359375e+00,1.874663352966308594e+00,1.845568895339965820e+00
5.000000000000000000e+00,5.000000000000000000e+00,5.000000000000000000e+00,5.000000000000000000e+00,5.000000000000000000e+00,5.000000000000000000e+00,5.000000000000000000e+00,5.000000000000000000e+00,5.000000000000000000e+00,5.000000000000000000e+00,5.000000000000000000e+00,5.000000000000000000e+00,5.000000000000000000e+00,5.000000000000000000e+00,5.000000000000000000e+00,5.000000000000000000e+00,5.000000000000000000e+00,5.000000000000000000e+00,5.000000000000000000e+00,5.000000000000000000e+00,5.000000000000000000e+00,5.000000000000000000e+00,5.000000000000000000e+00,5.000000000000000000e+00,5.000000000000000000e+00,5.000000000000000000e+00,5.000000000000000000e+00,5.000000000000000000e+00,2.415333271026611328e+00,2.395375728607177734e+00,2.407981872558593750e+00,2.464831590652465820e+00,2.181883335113525391e+00,2.173828125000000000e+00,2.206828355789184570e+00,5.000000000000000000e+00,5.000000000000000000e+00,5.000000000000000000e+00,5.000000000000000000e+00,4.867055892944335938e+00,4.675688266754150391e+00,4.498800277709960938e+00,4.334808349609375000e+00,4.182351112365722656e+00,4.040254116058349609e+00,3.907495260238647461e+00,3.783183097839355469e+00,3.666537046432495117e+00,3.556869029998779297e+00,3.453570842742919922e+00,3.356103420257568359e+00,3.263986349105834961e+00,3.176790714263916016e+00,3.094132900238037109e+00,3.015667438507080078e+00,2.941083192825317383e+00,2.870099067687988281e+00,2.802460908889770508e+00,2.737936973571777344e+00,2.676317453384399414e+00,2.617410659790039062e+00,2.561041116714477539e+00,2.507048368453979492e+00,2.455285072326660156e+00,2.405616283416748047e+00,2.357916831970214844e+00,2.312072515487670898e+00,2.267976760864257812e+00,2.225531578063964844e+00,2.184645891189575195e+00,2.145235300064086914e+00,2.107221364974975586e+00,2.070531129837036133e+00,2.035097122192382812e+00,2.000855207443237305e+00,1.967746615409851074e+00,1.935715913772583008e+00,1.904711246490478516e+00,1.874683976173400879e+00,1.845588922500610352e+00
5.000000000000000000e+00,5.000000000000000000e+00,5.000000000000000000e+00,5.000000000000000000e+00,5.000000000000000000e+00,5.000000000000000000e+00,5.000000000000000000e+00,5.000000000000000000e+00,5.000000000000000000e+00,5.000000000000000000e+00,5.000000000000000000e+00,5.000000000000000000e+00,5.000000000000000000e+00,5.000000000000000000e+00,5.000000000000000000e+00,5.000000000000000000e+00,5.000000000000000000e+00,5.000000000000000000e+00,5.000000000000000000e+00,5.000000000000000000e+00,5.000000000000000000e+00,5.000000000000000000e+00,5.000000000000000000e+00,5.000000000000000000e+00,5.000000000000000000e+00,5.000000000000000000e+00,5.000000000000000000e+00,5.000000000000000000e+00,5.000000000000000000e+00,2.403075456619262695e+00,2.415650129318237305e+00,2.460459947586059570e+00,2.173997402191162109e+00,2.168301105499267578e+00,2.204643249511718750e+00,5.000000000000000000e+00,5.000000000000000000e+00,5.000000000000000000e+00,5.000000000000000000e+00,4.867195129394531250e+00,4.675817012786865234e+00,4.498919486999511719e+00,4.334918498992919922e+00,4.182454109191894531e+00,4.040349960327148438e+00,3.907584905624389648e+00,3.783267498016357422e+00,3.666616439819335938e+00,3.556943416595458984e+00,3.453640937805175781e+00,3.356169462203979492e+00,3.264048814773559570e+00,3.176850318908691406e+00,3.094189405441284180e+00,3.015721082687377930e+00,2.941133975982666016e+00,2.870147466659545898e+00,2.802506923675537109e+00,2.737981081008911133e+00,2.676359891891479492e+00,2.617451190948486328e+00,2.561079502105712891e+00,2.507085323333740234e+00,2.455320596694946289e+00,2.405650138854980469e+00,2.357949733734130859e+00,2.312103986740112305e+00,2.268007040023803711e+00,2.225560665130615234e+00,2.184674024581909180e+00,2.145262241363525391e+00,2.107247591018676758e+00,2.070556640625000000e+00,2.035121440887451172e+00,2.000878810882568359e+00,1.967769503593444824e+00,1.935737848281860352e+00,1.904732584953308105e+00,1.874704718589782715e+00,1.845609068870544434e+00
5.000000000000000000e+00,5.000000000000000000e+00,5.000000000000000000e+00,5.000000000000000000e+00,5.000000000000000000e+00,5.000000000000000000e+00,5.000000000000000000e+00,5.000000000000000000e+00,5.000000000000000000e+00,5.000000000000000000e+00,5.000000000000000000e+00,5.000000000000000000e+00,5.000000000000000000e+00,5.000000000000000000e+00,5.000000000000000000e+00,5.000000000000000000e+00,5.000000000000000000e+00,5.000000000000000000e+00,5.000000000000000000e+00,5.000000000000000000e+00,5.000000000000000000e+00,5.000000000000000000e+00,5.000000000000000000e+00,5.000000000000000000e+00,5.000000000000000000e+00,5.000000000000000000e+00,5.000000000000000000e+00,5.000000000000000000e+00,5.000000000000000000e+00,2.410856723785400391e+00,2.420912027359008789e+00,2.468135833740234375e+00,2.184053182601928711e+00,2.176356315612792969e+00,2.207217454910278320e+00,5.000000000000000000e+00,5.000000000000000000e+00,5.000000000000000000e+00,5.000000000000000000e+00,4.867334842681884766e+00,4.675945758819580078e+00,4.499038219451904297e+00,4.335029125213623047e+00,4.182557106018066406e+00,4.040446281433105469e+00,3.907674551010131836e+00,3.783351659774780273e+00,3.666695356369018555e+00,3.557018041610717773e+00,3.453711271286010742e+00,3.356235980987548828e+00,3.264111280441284180e+00,3.176909446716308594e+00,3.094245672225952148e+00,3.015774488449096680e+00,2.941184997558593750e+00,2.870196104049682617e+00,2.802552938461303711e+00,2.738025188446044922e+00,2.676401853561401367e+00,2.617491245269775391e+00,2.561118364334106445e+00,2.507122278213500977e+00,2.455356121063232422e+00,2.405684232711791992e+00,2.357982397079467773e+00,2.312135457992553711e+00,2.268037319183349609e+00,2.225589752197265625e+00,2.184702157974243164e+00,2.145289421081542969e+00,2.107273578643798828e+00,2.070581674575805664e+00,2.035145759582519531e+00,2.000902414321899414e+00,1.967792272567749023e+00,1.935759902000427246e+00,1.904753804206848145e+00,1.874725461006164551e+00,1.845628976821899414e+00
5.000000000000000000e+00,5.000000000000000000e+00,5.000000000000000000e+00,5.000000000000000000e+00,5.000000000000000000e+00,5.000000000000000000e+00,5.000000000000000000e+00,5.000000000000000000e+00,5.000000000000000000e+00,5.000000000000000000e+00,5.000000000000000000e+00,5.000000000000000000e+00,5.000000000000000000e+00,5.000000000000000000e+00,5.000000000000000000e+00,5.000000000000000000e+00,5.000000000000000000e+00,5.000000000000000000e+00,5.000000000000000000e+00,5.000000000000000000e+00,5.000000000000000000e+00,5.000000000000000000e+00,5.000000000000000000e+00,5.000000000000000000e+00,5.000000000000000000e+00,5.000000000000000000e+00,5.000000000000000000e+00,5.000000000000000000e+00,5.000000000000000000e+00,2.426383495330810547e+00,2.428335189819335938e+00,2.474135160446166992e+00,2.202499151229858398e+00,2.187257289886474609e+00,2.214292764663696289e+00,5.000000000000000000e+00,5.000000000000000000e+00,5.000000000000000000e+00,5.000000000000000000e+00,4.867474079132080078e+00,4.676074504852294922e+00,4.499157428741455078e+00,4.335139751434326172e+00,4.182660102844238281e+00,4.040542125701904297e+00,3.907764673233032227e+00,3.783436059951782227e+00,3.666774272918701172e+00,3.557092189788818359e+00,3.453781366348266602e+00,3.356302022933959961e+00,3.264174222946166992e+00,3.176969051361083984e+00,3.094302177429199219e+00,3.015827894210815430e+00,2.941235780715942383e+00,2.870244503021240234e+00,2.802599430084228516e+00,2.738069295883178711e+00,2.676444053649902344e+00,2.617531538009643555e+00,2.561156749725341797e+00,2.507159233093261719e+00,2.455391407012939453e+00,2.405718326568603516e+00,2.358015060424804688e+00,2.312166690826416016e+00,2.268067359924316406e+00,2.225618839263916016e+00,2.184730052947998047e+00,2.145316600799560547e+00,2.107299804687500000e+00,2.070606946945190430e+00,2.035170078277587891e+00,2.000925779342651367e+00,1.967814922332763672e+00,1.935782074928283691e+00,1.904775261878967285e+00,1.874746203422546387e+00,1.845649003982543945e+00
5.000000000000000000e+00,5.000000000000000000e+00,5.000000000000000000e+00,5.000000000000000000e+00,5.000000000000000000e+00,5.000000000000000000e+00,5.000000000000000000e+00,5.000000000000000000e+00,5.000000000000000000e+00,5.000000000000000000e+00,5.000000000000000000e+00,5.000000000000000000e+00,5.000000000000000000e+00,5.000000000000000000e+00,5.000000000000000000e+00,5.000000000000000000e+00,5.000000000000000000e+00,5.000000000000000000e+00,5.000000000000000000e+00,5.000000000000000000e+00,5.000000000000000000e+00,5.000000000000000000e+00,5.000000000000000000e+00,5.000000000000000000e+00,5.000000000000000000e+00,5.000000000000000000e+00,5.000000000000000000e+00,5.000000000000000000e+00,5.000000000000000000e+00,2.466497182846069336e+00,2.452215909957885742e+00,2.505288839340209961e+00,2.221259355545043945e+00,2.199483871459960938e+00,2.221413373947143555e+00,5.000000000000000000e+00,5.000000000000000000e+00,5.000000000000000000e+00,5.000000000000000000e+00,4.867613792419433594e+00,4.676202774047851562e+00,4.499276638031005859e+00,4.335250377655029297e+00,4.182763099670410156e+00,4.040637969970703125e+00,3.907854318618774414e+00,3.783520221710205078e+00,3.666853666305541992e+00,3.557166814804077148e+00,3.453851699829101562e+00,3.356368303298950195e+00,3.264236927032470703e+00,3.177028417587280273e+00,3.094358205795288086e+00,3.015881538391113281e+00,2.941286802291870117e+00,2.870292901992797852e+00,2.802645444869995117e+00,2.738113403320312500e+00,2.676486253738403320e+00,2.617572069168090820e+00,2.561195373535156250e+00,2.507196426391601562e+00,2.455426931381225586e+00,2.405752182006835938e+00,2.358047723770141602e+00,2.312198400497436523e+00,2.268097877502441406e+00,2.225648164749145508e+00,2.184758186340332031e+00,2.145343542098999023e+00,2.107326030731201172e+00,2.070632219314575195e+00,2.035194635391235352e+00,2.000949382781982422e+00,1.967837810516357422e+00,1.935804009437561035e+00,1.904796600341796875e+00,1.874766707420349121e+00,1.845669150352478027e+00
5.000000000000000000e+00,5.000000000000000000e+00,5.000000000000000000e+00,5.000000000000000000e+00,5.000000000000000000e+00,5.000000000000000000e+00,5.000000000000000000e+00,5.000000000000000000e+00,5.000000000000000000e+00,5.000000000000000000e+00,5.000000000000000000e+00,5.000000000000000000e+00,5.000000000000000000e+00,5.000000000000000000e+00,5.000000000000000000e+00,5.000000000000000000e+00,5.000000000000000000e+00,5.000000000000000000e+00,5.000000000000000000e+00,5.000000000000000000e+00,5.000000000000000000e+00,5.000000000000000000e+00,5.000000000000000000e+00,5.000000000000000000e+00,5.000000000000000000e+00,5.000000000000000000e+00,5.000000000000000000e+00,5.000000000000000000e+00,5.000000000000000000e+00,2.503661394119262695e+00,2.484544277191162109e+00,2.534208774566650391e+00,2.224775791168212891e+00,2.204798221588134766e+00,2.221172094345092773e+00,5.000000000000000000e+00,5.000000000000000000e+00,5.000000000000000000e+00,5.000000000000000000e+00,4.867752075195312500e+00,4.676331520080566406e+00,4.499395847320556641e+00,4.335361003875732422e+00,4.182865619659423828e+00,4.040734291076660156e+00,3.907944440841674805e+00,3.783604145050048828e+00,3.666932582855224609e+00,3.557241201400756836e+00,3.453921794891357422e+00,3.356434583663940430e+00,3.264299631118774414e+00,3.177087783813476562e+00,3.094414472579956055e+00,3.015934944152832031e+00,2.941337585449218750e+00,2.870341539382934570e+00,2.802691936492919922e+00,2.738157749176025391e+00,2.676528215408325195e+00,2.617612123489379883e+00,2.561233997344970703e+00,2.507233142852783203e+00,2.455462455749511719e+00,2.405786514282226562e+00,2.358080387115478516e+00,2.312229633331298828e+00,2.268128156661987305e+00,2.225677251815795898e+00,2.184786319732666016e+00,2.145370721817016602e+00,2.107352018356323242e+00,2.070657253265380859e+00,2.035218954086303711e+00,2.000972986221313477e+00,1.967860698699951172e+00,1.935826063156127930e+00,1.904818058013916016e+00,1.874787449836730957e+00,1.845689058303833008e+00
5.000000000000000000e+00,5.000000000000000000e+00,5.000000000000000000e+00,5.000000000000000000e+00,5.000000000000000000e+00,5.000000000000000000e+00,5.000000000000000000e+00,5.000000000000000000e+00,5.000000000000000000e+00,5.000000000000000000e+00,5.000000000000000000e+00,5.000000000000000000e+00,5.000000000000000000e+00,5.000000000000000000e+00,5.000000000000000000e+00,5.000000000000000000e+00,5.000000000000000000e+00,5.000000000000000000e+00,5.000000000000000000e+00,5.000000000000000000e+00,5.000000000000000000e+00,5.000000000000000000e+00,5.000000000000000000e+00,5.000000000000000000e+00,5.000000000000000000e+00,5.000000000000000000e+00,5.000000000000000000e+00,5.000000000000000000e+00,5.000000000000000000e+00,2.542645215988159180e+00,2.517150640487670898e+00,2.551550865173339844e+00,2.225122928619384766e+00,2.204632997512817383e+00,2.219150066375732422e+00,5.000000000000000000e+00,5.000000000000000000e+00,5.000000000000000000e+00,5.000000000000000000e+00,4.867890834808349609e+00,4.676459312438964844e+00,4.499515056610107422e+00,4.335471153259277344e+00,4.182968616485595703e+00,4.040830135345458984e+00,3.908034086227416992e+00,3.783688783645629883e+00,3.667011976242065430e+00,3.557315826416015625e+00,3.453991889953613281e+00,3.356500864028930664e+00,3.264362335205078125e+00,3.177147150039672852e+00,3.094470977783203125e+00,3.015988588333129883e+00,2.941388368606567383e+00,2.870389699935913086e+00,2.802737951278686523e+00,2.738201618194580078e+00,2.676570415496826172e+00,2.617652654647827148e+00,2.561272621154785156e+00,2.507270097732543945e+00,2.455497741699218750e+00,2.405820369720458984e+00,2.358113288879394531e+00,2.312261343002319336e+00,2.268158435821533203e+00,2.225706338882446289e+00,2.184814214706420898e+00,2.145397663116455078e+00,2.107378244400024414e+00,2.070682525634765625e+00,2.035243272781372070e+00,2.000996589660644531e+00,1.967883229255676270e+00,1.935848236083984375e+00,1.904839277267456055e+00,1.874808192253112793e+00,1.845709204673767090e+00
5.000000000000000000e+00,5.000000000000000000e+00,5.000000000000000000e+00,5.000000000000000000e+00,5.000000000000000000e+00,5.000000000000000000e+00,5.000000000000000000e+00,5.000000000000000000e+00,5.000000000000000000e+00,5.000000000000000000e+00,5.000000000000000000e+00,5.000000000000000000e+00,5.000000000000000000e+00,5.000000000000000000e+00,5.000000000000000000e+00,5.000000000000000000e+00,5.000000000000000000e+00,5.000000000000000000e+00,5.000000000000000000e+00,5.000000000000000000e+00,5.000000000000000000e+00,5.000000000000000000e+00,5.000000000000000000e+00,5.000000000000000000e+00,5.000000000000000000e+00,5.000000000000000000e+00,5.000000000000000000e+00,5.000000000000000000e+00,5.000000000000000000e+00,2.582894563674926758e+00,2.530204534530639648e+00,2.564135313034057617e+00,2.229877948760986328e+00,2.204007148742675781e+00,2.218152046203613281e+00,5.000000000000000000e+00,5.000000000000000000e+00,5.000000000000000000e+00,5.000000000000000000e+00,4.868030071258544922e+00,4.676587581634521484e+00,4.499634265899658203e+00,4.335582256317138672e+00,4.183071613311767578e+00,4.040926456451416016e+00,3.908123731613159180e+00,3.783772706985473633e+00,3.667090892791748047e+00,3.557390213012695312e+00,3.454062223434448242e+00,3.356567382812500000e+00,3.264424800872802734e+00,3.177206516265869141e+00,3.094527244567871094e+00,3.016041994094848633e+00,2.941439390182495117e+00,2.870438337326049805e+00,2.802784204483032227e+00,2.738245725631713867e+00,2.676612615585327148e+00,2.617692947387695312e+00,2.561311244964599609e+00,2.507307291030883789e+00,2.455533504486083984e+00,2.405854463577270508e+00,2.358145952224731445e+00,2.312292575836181641e+00,2.268188714981079102e+00,2.225735425949096680e+00,2.184842586517333984e+00,2.145424842834472656e+00,2.107404232025146484e+00,2.070707798004150391e+00,2.035267591476440430e+00,2.001020193099975586e+00,1.967906117439270020e+00,1.935870289802551270e+00,1.904860615730285645e+00,1.874828696250915527e+00,1.845729231834411621e+00
5.000000000000000000e+00,5.000000000000000000e+00,5.000000000000000000e+00,5.000000000000000000e+00,5.000000000000000000e+00,5.000000000000000000e+00,5.000000000000000000e+00,5.000000000000000000e+00,5.000000000000000000e+00,5.000000000000000000e+00,5.000000000000000000e+00,5.000000000000000000e+00,5.000000000000000000e+00,5.000000000000000000e+00,5.000000000000000000e+00,5.000000000000000000e+00,5.000000000000000000e+00,5.000000000000000000e+00,5.000000000000000000e+00,5.000000000000000000e+00,5.000000000000000000e+00,5.000000000000000000e+00,5.000000000000000000e+00,5.000000000000000000e+00,5.000000000000000000e+00,5.000000000000000000e+00,5.000000000000000000e+00,5.000000000000000000e+00,5.000000000000000000e+00,5.000000000000000000e+00,2.548636198043823242e+00,2.576844930648803711e+00,2.238195896148681641e+00,2.202823638916015625e+00,2.218728780746459961e+00,5.000000000000000000e+00,5.000000000000000000e+00,5.000000000000000000e+00,5.000000000000000000e+00,4.868168830871582031e+00,4.676715850830078125e+00,4.499752521514892578e+00,4.335692882537841797e+00,4.183174610137939453e+00,4.041022300720214844e+00,3.908213853836059570e+00,3.783857107162475586e+00,3.667170286178588867e+00,3.557464361190795898e+00,3.454132318496704102e+00,3.356633424758911133e+00,3.264487743377685547e+00,3.177265882492065430e+00,3.094583749771118164e+00,3.016095399856567383e+00,2.941490173339843750e+00,2.870486736297607422e+00,2.802830457687377930e+00,2.738289833068847656e+00,2.676654815673828125e+00,2.617733001708984375e+00,2.561349630355834961e+00,2.507344245910644531e+00,2.455568790435791016e+00,2.405888557434082031e+00,2.358178615570068359e+00,2.312324285507202148e+00,2.268218755722045898e+00,2.225764513015747070e+00,2.184870481491088867e+00,2.145451784133911133e+00,2.107430458068847656e+00,2.070733070373535156e+00,2.035291910171508789e+00,2.001043558120727539e+00,1.967929005622863770e+00,1.935892224311828613e+00,1.904882073402404785e+00,1.874849438667297363e+00,1.845749378204345703e+00
5.000000000000000000e+00,5.000000000000000000e+00,5.000000000000000000e+00,5.000000000000000000e+00,5.000000000000000000e+00,5.000000000000000000e+00,5.000000000000000000e+00,5.000000000000000000e+00,5.000000000000000000e+00,5.000000000000000000e+00,5.000000000000000000e+00,5.000000000000000000e+00,5.000000000000000000e+00,5.000000000000000000e+00,5.000000000000000000e+00,5.000000000000000000e+00,5.000000000000000000e+00,5.000000000000000000e+00,5.000000000000000000e+00,5.000000000000000000e+00,5.000000000000000000e+00,5.000000000000000000e+00,5.000000000000000000e+00,5.000000000000000000e+00,5.000000000000000000e+00,5.000000000000000000e+00,5.000000000000000000e+00,5.000000000000000000e+00,5.000000000000000000e+00,5.000000000000000000e+00,2.576435804367065430e+00,2.590993642807006836e+00,2.252621889114379883e+00,2.202594280242919922e+00,2.222333192825317383e+00,5.000000000000000000e+00,5.000000000000000000e+00,5.000000000000000000e+00,5.000000000000000000e+00,4.868307590484619141e+00,4.676844120025634766e+00,4.499870777130126953e+00,4.335802555084228516e+00,4.183277606964111328e+00,4.041118144989013672e+00,3.908303499221801758e+00,3.783941268920898438e+00,3.667249202728271484e+00,3.557539224624633789e+00,3.454202651977539062e+00,3.356699705123901367e+00,3.264550209045410156e+00,3.177325248718261719e+00,3.094640016555786133e+00,3.016149044036865234e+00,2.941541194915771484e+00,2.870535373687744141e+00,2.802876472473144531e+00,2.738333940505981445e+00,2.676697015762329102e+00,2.617773532867431641e+00,2.561388492584228516e+00,2.507381200790405273e+00,2.455604314804077148e+00,2.405922651290893555e+00,2.358211278915405273e+00,2.312355518341064453e+00,2.268249273300170898e+00,2.225793838500976562e+00,2.184898614883422852e+00,2.145478963851928711e+00,2.107456445693969727e+00,2.070758342742919922e+00,2.035316467285156250e+00,2.001067161560058594e+00,1.967951774597167969e+00,1.935914278030395508e+00,1.904903292655944824e+00,1.874870181083679199e+00,1.845769286155700684e+00
5.000000000000000000e+00,5.000000000000000000e+00,5.000000000000000000e+00,5.000000000000000000e+00,5.000000000000000000e+00,5.000000000000000000e+00,5.000000000000000000e+00,5.000000000000000000e+00,5.000000000000000000e+00,5.000000000000000000e+00,5.000000000000000000e+00,5.000000000000000000e+00,5.000000000000000000e+00,5.000000000000000000e+00,5.000000000000000000e+00,5.000000000000000000e+00,5.000000000000000000e+00,5.000000000000000000e+00,5.000000000000000000e+00,5.000000000000000000e+00,5.000000000000000000e+00,5.000000000000000000e+00,5.000000000000000000e+00,5.000000000000000000e+00,5.000000000000000000e+00,5.000000000000000000e+00,5.000000000000000000e+00,5.000000000000000000e+00,5.000000000000000000e+00,5.000000000000000000e+00,2.605599641799926758e+00,2.605918169021606445e+00,5.000000000000000000e+00,2.202364683151245117e+00,2.225949525833129883e+00,5.000000000000000000e+00,5.000000000000000000e+00,5.000000000000000000e+00,5.000000000000000000e+00,4.868446350097656250e+00,4.676972389221191406e+00,4.499989509582519531e+00,4.335912704467773438e+00,4.183380126953125000e+00,4.041214466094970703e+00,3.908393621444702148e+00,3.784025669097900391e+00,3.667328119277954102e+00,3.557613372802734375e+00,3.454272747039794922e+00,3.356766223907470703e+00,3.264613151550292969e+00,3.177384853363037109e+00,3.094696283340454102e+00,3.016202449798583984e+00,2.941592216491699219e+00,2.870583772659301758e+00,2.802922964096069336e+00,2.738378286361694336e+00,2.676738977432250977e+00,2.617813825607299805e+00,2.561426877975463867e+00,2.507418155670166016e+00,2.455639839172363281e+00,2.405956745147705078e+00,2.358244180679321289e+00,2.312386989593505859e+00,2.268279314041137695e+00,2.225822925567626953e+00,2.184926748275756836e+00,2.145506143569946289e+00,2.107482671737670898e+00,2.070783376693725586e+00,2.035340785980224609e+00,2.001090764999389648e+00,1.967974424362182617e+00,1.935936450958251953e+00,1.904924631118774414e+00,1.874890923500061035e+00,1.845789313316345215e+00
4.875583171844482422e+00,4.874371528625488281e+00,4.873160839080810547e+00,4.871951103210449219e+00,4.870741844177246094e+00,4.869533061981201172e+00,4.868324279785156250e+00,4.867116928100585938e+00,4.865910053253173828e+00,4.864703655242919922e+00,4.863497734069824219e+00,4.862292289733886719e+00,4.861087799072265625e+00,4.859883785247802734e+00,4.858680725097656250e+00,4.857477664947509766e+00,4.856275558471679688e+00,4.855073928833007812e+00,4.853872776031494141e+00,4.852672576904296875e+00,4.851472377777099609e+00,4.850273132324218750e+00,4.849074840545654297e+00,4.847876548767089844e+00,4.846679210662841797e+00,4.845482349395751953e+00,4.844285964965820312e+00,4.843090057373046875e+00,4.841895103454589844e+00,4.840700626373291016e+00,2.652305603027343750e+00,2.621015787124633789e+00,4.837120532989501953e+00,2.202135324478149414e+00,2.229578018188476562e+00,4.833545684814453125e+00,4.832355022430419922e+00,4.831165313720703125e+00,4.829976081848144531e+00,4.828787326812744141e+00,4.677100181579589844e+00,4.500108242034912109e+00,4.336022853851318359e+00,4.183482646942138672e+00,4.041310787200927734e+00,3.908483505249023438e+00,3.784109830856323242e+00,3.667407512664794922e+00,3.557688236236572266e+00,3.454342842102050781e+00,3.356832265853881836e+00,3.264675855636596680e+00,3.177443981170654297e+00,3.094752788543701172e+00,3.016256093978881836e+00,2.941643238067626953e+00,2.870632171630859375e+00,2.802968978881835938e+00,2.738422155380249023e+00,2.676781177520751953e+00,2.617854118347167969e+00,2.561465740203857422e+00,2.507455110549926758e+00,2.455675125122070312e+00,2.405990600585937500e+00,2.358276844024658203e+00,2.312418460845947266e+00,2.268309831619262695e+00,2.225852012634277344e+00,2.184954643249511719e+00,2.145533084869384766e+00,2.107508897781372070e+00,2.070808887481689453e+00,2.035365343093872070e+00,2.001114368438720703e+00,1.967997312545776367e+00,1.935958266258239746e+00,1.904946088790893555e+00,1.874911427497863770e+00,1.845809459686279297e+00
3.778384923934936523e+00,3.777657747268676758e+00,3.776930570602416992e+00,3.776203632354736328e+00,3.775477170944213867e+00,3.774750709533691406e+00,3.774024248123168945e+00,3.773298501968383789e+00,3.772573232650756836e+00,3.771847963333129883e+00,3.771123170852661133e+00,3.770398378372192383e+00,3.769674062728881836e+00,3.768950223922729492e+00,3.768226385116577148e+00,3.767502546310424805e+00,3.766779184341430664e+00,3.766056299209594727e+00,3.765333652496337891e+00,3.764611244201660156e+00,3.763889074325561523e+00,3.763167142868041992e+00,3.762445688247680664e+00,3.761724472045898438e+00,3.761003494262695312e+00,3.760282278060913086e+00,3.759561777114868164e+00,3.758841753005981445e+00,3.758121728897094727e+00,3.757402181625366211e+00,3.756682872772216797e+00,2.642343044281005859e+00,3.755244970321655273e+00,2.214131355285644531e+00,2.246963024139404297e+00,3.753089904785156250e+00,3.752372026443481445e+00,3.751654624938964844e+00,3.750937461853027344e+00,3.750220537185668945e+00,3.749504089355468750e+00,3.748787641525268555e+00,3.748071670532226562e+00,3.747355937957763672e+00,3.746639966964721680e+00,3.745924711227416992e+00,3.745209693908691406e+00,3.667486429214477539e+00,3.557762384414672852e+00,3.454413175582885742e+00,3.356898784637451172e+00,3.264738559722900391e+00,3.177503347396850586e+00,3.094808816909790039e+00,3.016309499740600586e+00,2.941694021224975586e+00,2.870680809020996094e+00,2.803015470504760742e+00,2.738466262817382812e+00,2.676823377609252930e+00,2.617894411087036133e+00,2.561504125595092773e+00,2.507492065429687500e+00,2.455710887908935547e+00,2.406024932861328125e+00,2.358309507369995117e+00,2.312449932098388672e+00,2.268339872360229492e+00,2.225881338119506836e+00,2.184983015060424805e+00,2.145560264587402344e+00,2.107534885406494141e+00,2.070833921432495117e+00,2.035389661788940430e+00,2.001137971878051758e+00,1.968020200729370117e+00,1.935980439186096191e+00,1.904967308044433594e+00,1.874932169914245605e+00,1.845829367637634277e+00
3.084297180175781250e+00,3.083811998367309570e+00,3.083327531814575195e+00,3.082843065261840820e+00,3.082358837127685547e+00,3.081874847412109375e+00,3.081390857696533203e+00,3.080907106399536133e+00,3.080423355102539062e+00,3.079939842224121094e+00,3.079456567764282227e+00,3.078973054885864258e+00,3.078490018844604492e+00,3.078006982803344727e+00,3.077524423599243164e+00,3.077041625976562500e+00,3.076559305191040039e+00,3.076076984405517578e+00,3.075594902038574219e+00,3.075112819671630859e+00,3.074630737304687500e+00,3.074149131774902344e+00,3.073667526245117188e+00,3.073186159133911133e+00,3.072704792022705078e+00,3.072223901748657227e+00,3.071742773056030273e+00,3.071262121200561523e+00,3.070781469345092773e+00,3.070301055908203125e+00,3.069820404052734375e+00,2.592514038085937500e+00,3.068860054016113281e+00,2.160699367523193359e+00,2.187284231185913086e+00,3.067420959472656250e+00,3.066941499710083008e+00,3.066462278366088867e+00,3.065983057022094727e+00,3.065503835678100586e+00,3.065025091171264648e+00,3.064546346664428711e+00,3.064067840576171875e+00,3.063589572906494141e+00,3.063111305236816406e+00,3.062633275985717773e+00,3.062155246734619141e+00,3.061677455902099609e+00,3.061199903488159180e+00,3.060722112655639648e+00,3.060244798660278320e+00,3.059767484664916992e+00,3.059290409088134766e+00,3.058813571929931641e+00,3.016362905502319336e+00,2.941744804382324219e+00,2.870729207992553711e+00,2.803061485290527344e+00,2.738510608673095703e+00,2.676865577697753906e+00,2.617934942245483398e+00,2.561542749404907227e+00,2.507529020309448242e+00,2.455746173858642578e+00,2.406058788299560547e+00,2.358342409133911133e+00,2.312481403350830078e+00,2.268370151519775391e+00,2.225910425186157227e+00,2.185010910034179688e+00,2.145587205886840820e+00,2.107561111450195312e+00,2.070859193801879883e+00,2.035413980484008789e+00,2.001161336898803711e+00,1.968042731285095215e+00,1.936002492904663086e+00,1.904988646507263184e+00,1.874952912330627441e+00,1.845849514007568359e+00
2.605641365051269531e+00,2.605295419692993164e+00,2.604949712753295898e+00,2.604604005813598633e+00,2.604258298873901367e+00,2.603912591934204102e+00,2.603566884994506836e+00,2.603221416473388672e+00,2.602876186370849609e+00,2.602530956268310547e+00,2.602185964584350586e+00,2.601840734481811523e+00,2.601495981216430664e+00,2.601150989532470703e+00,2.600806236267089844e+00,2.600461483001708984e+00,2.600116729736328125e+00,2.599772214889526367e+00,2.599427938461303711e+00,2.599083662033081055e+00,2.598739385604858398e+00,2.598395347595214844e+00,2.598051309585571289e+00,2.597707271575927734e+00,2.597363471984863281e+00,2.597019433975219727e+00,2.596675872802734375e+00,2.596332311630249023e+00,2.595988750457763672e+00,2.595645427703857422e+00,2.561452388763427734e+00,2.530606031417846680e+00,2.594615697860717773e+00,2.056763410568237305e+00,2.078582525253295898e+00,2.593586683273315430e+00,2.593243837356567383e+00,2.592901229858398438e+00,2.592558622360229492e+00,2.592216253280639648e+00,2.591873884201049805e+00,2.591531515121459961e+00,2.591189146041870117e+00,2.590847015380859375e+00,2.590504884719848633e+00,2.590162992477416992e+00,2.589821100234985352e+00,2.589479207992553711e+00,2.589137554168701172e+00,2.588796138763427734e+00,2.588454484939575195e+00,2.588113069534301758e+00,2.587771892547607422e+00,2.587430715560913086e+00,2.587089300155639648e+00,2.586748361587524414e+00,2.586407423019409180e+00,2.586066484451293945e+00,2.585725784301757812e+00,2.585385084152221680e+00,2.585044384002685547e+00,2.561581373214721680e+00,2.507566213607788086e+00,2.455781698226928711e+00,2.406092882156372070e+00,2.358375072479248047e+00,2.312512874603271484e+00,2.268400430679321289e+00,2.225939512252807617e+00,2.185039043426513672e+00,2.145614385604858398e+00,2.107587099075317383e+00,2.070884466171264648e+00,2.035438299179077148e+00,2.001184940338134766e+00,1.968065619468688965e+00,1.936024427413940430e+00,1.905010104179382324e+00,1.874973535537719727e+00,1.845869541168212891e+00
2.255602359771728516e+00,2.255342483520507812e+00,2.255082845687866211e+00,2.254823446273803711e+00,2.254564046859741211e+00,2.254304409027099609e+00,2.254045009613037109e+00,2.253785848617553711e+00,2.253526687622070312e+00,2.253267288208007812e+00,2.253008365631103516e+00,2.252749204635620117e+00,2.252490282058715820e+00,2.252231359481811523e+00,2.251972436904907227e+00,2.251713514328002930e+00,2.251454830169677734e+00,2.251196146011352539e+00,2.250937461853027344e+00,2.250678777694702148e+00,2.250420331954956055e+00,2.250161886215209961e+00,2.249903440475463867e+00,2.249645471572875977e+00,2.249387502670288086e+00,2.249129772186279297e+00,2.248872041702270508e+00,2.248614311218261719e+00,2.248356580734252930e+00,2.248099088668823242e+00,2.247841358184814453e+00,2.247583866119384766e+00,2.247326374053955078e+00,2.247069120407104492e+00,2.246811866760253906e+00,2.246554613113403320e+00,2.246297359466552734e+00,2.246040344238281250e+00,2.245783090591430664e+00,2.245526075363159180e+00,2.245269060134887695e+00,2.245012283325195312e+00,2.244755268096923828e+00,2.244498491287231445e+00,2.244241952896118164e+00,2.243985176086425781e+00,2.243728637695312500e+00,2.243472099304199219e+00,2.243215560913085938e+00,2.242959022521972656e+00,2.242702722549438477e+00,2.242446422576904297e+00,2.242190122604370117e+00,2.241934061050415039e+00,2.241677999496459961e+00,2.241421937942504883e+00,2.241165876388549805e+00,2.240909814834594727e+00,2.240653991699218750e+00,2.240397930145263672e+00,2.240142345428466797e+00,2.239886522293090820e+00,2.239630937576293945e+00,2.239375352859497070e+00,2.239119768142700195e+00,2.238864421844482422e+00,2.238608837127685547e+00,2.238353490829467773e+00,2.225968599319458008e+00,2.185067176818847656e+00,2.145641565322875977e+00,2.107613325119018555e+00,2.070909500122070312e+00,2.035462617874145508e+00,2.001208543777465820e+00,1.968088507652282715e+00,1.936046600341796875e+00,1.905031561851501465e+00,1.874994277954101562e+00,1.845889449119567871e+00
1.988490581512451172e+00,1.988288879394531250e+00,1.988087058067321777e+00,1.987885355949401855e+00,1.987683534622192383e+00,1.987481951713562012e+00,1.987280488014221191e+00,1.987078785896301270e+00,1.986877322196960449e+00,1.986675858497619629e+00,1.986474275588989258e+00,1.986273050308227539e+00,1.986071467399597168e+00,1.985870242118835449e+00,1.985669136047363281e+00,1.985467672348022461e+00,1.985266566276550293e+00,1.985065579414367676e+00,1.984864354133605957e+00,1.984663367271423340e+00,1.984462141990661621e+00,1.984261155128479004e+00,1.984060287475585938e+00,1.983859300613403320e+00,1.983658432960510254e+00,1.983457684516906738e+00,1.983256816864013672e+00,1.983056187629699707e+00,1.982855558395385742e+00,1.982654690742492676e+00,1.982454180717468262e+00,1.982253432273864746e+00,1.982052922248840332e+00,1.981852531433105469e+00,1.981651902198791504e+00,1.981451630592346191e+00,1.981251358985900879e+00,1.981050848960876465e+00,1.980850577354431152e+00,1.980650186538696289e+00,1.980450034141540527e+00,1.980250000953674316e+00,1.980049729347229004e+00,1.979849696159362793e+00,1.979649662971496582e+00,1.979449510574340820e+00,1.979249596595764160e+00,1.979049563407897949e+00,1.978849649429321289e+00,1.978649973869323730e+00,1.978449940681457520e+00,1.978250265121459961e+00,1.978050589561462402e+00,1.977850794792175293e+00,1.977651238441467285e+00,1.977451682090759277e+00,1.977251887321472168e+00,1.977052450180053711e+00,1.976852774620056152e+00,1.976653456687927246e+00,1.976454138755798340e+00,1.976254582405090332e+00,1.976055383682250977e+00,1.975856184959411621e+00,1.975656747817993164e+00,1.975457668304443359e+00,1.975258231163024902e+00,1.975059270858764648e+00,1.974860191345214844e+00,1.974660992622375488e+00,1.974462032318115234e+00,1.974263191223144531e+00,1.974064111709594727e+00,1.973865270614624023e+00,1.973666310310363770e+00,1.968111157417297363e+00,1.936068654060363770e+00,1.905052661895751953e+00,1.875015020370483398e+00,1.845909595489501953e+00
1.777943968772888184e+00,1.777782678604125977e+00,1.777621269226074219e+00,1.777459979057312012e+00,1.777298808097839355e+00,1.777137517929077148e+00,1.776976346969604492e+00,1.776815295219421387e+00,1.776654005050659180e+00,1.776493072509765625e+00,1.776331782341003418e+00,1.776170849800109863e+00,1.776009917259216309e+00,1.775848865509033203e+00,1.775687932968139648e+00,1.775527119636535645e+00,1.775366067886352539e+00,1.775205254554748535e+00,1.775044322013854980e+00,1.774883508682250977e+00,1.774722814559936523e+00,1.774562001228332520e+00,1.774401307106018066e+00,1.774240612983703613e+00,1.774079918861389160e+00,1.773919343948364258e+00,1.773758530616760254e+00,1.773598074913024902e+00,1.773437619209289551e+00,1.773276925086975098e+00,1.773116469383239746e+00,1.772956132888793945e+00,1.772795557975769043e+00,1.772635221481323242e+00,1.772474765777587891e+00,1.772314429283142090e+00,1.772154211997985840e+00,1.771993756294250488e+00,1.771833658218383789e+00,1.771673440933227539e+00,1.771513104438781738e+00,1.771353006362915039e+00,1.771192908287048340e+00,1.771032691001892090e+00,1.770872712135314941e+00,1.770712494850158691e+00,1.770552515983581543e+00,1.770392656326293945e+00,1.770232558250427246e+00,1.770072698593139648e+00,1.769912838935852051e+00,1.769752740859985352e+00,1.769593000411987305e+00,1.769433021545410156e+00,1.769273281097412109e+00,1.769113659858703613e+00,1.768953800201416016e+00,1.768794059753417969e+00,1.768634557723999023e+00,1.768474698066711426e+00,1.768315196037292480e+00,1.768155455589294434e+00,1.767995953559875488e+00,1.767836451530456543e+00,1.767676830291748047e+00,1.767517447471618652e+00,1.767358064651489258e+00,1.767198562622070312e+00,1.767039179801940918e+00,1.766879677772521973e+00,1.766720414161682129e+00,1.766561269760131836e+00,1.766401767730712891e+00,1.766242623329162598e+00,1.766083478927612305e+00,1.765924215316772461e+00,1.765765070915222168e+00,1.765606045722961426e+00,1.765446782112121582e+00,1.765287876129150391e+00
1.607714772224426270e+00,1.607582926750183105e+00,1.607451081275939941e+00,1.607319116592407227e+00,1.607187271118164062e+00,1.607055425643920898e+00,1.606923580169677734e+00,1.606791853904724121e+00,1.606660008430480957e+00,1.606528282165527344e+00,1.606396675109863281e+00,1.606264829635620117e+00,1.606133222579956055e+00,1.606001496315002441e+00,1.605869889259338379e+00,1.605738282203674316e+00,1.605606555938720703e+00,1.605475068092346191e+00,1.605343580245971680e+00,1.605211973190307617e+00,1.605080485343933105e+00,1.604948878288269043e+00,1.604817509651184082e+00,1.604686141014099121e+00,1.604554533958435059e+00,1.604423284530639648e+00,1.604291915893554688e+00,1.604160428047180176e+00,1.604029178619384766e+00,1.603897929191589355e+00,1.603766441345214844e+00,1.603635311126708984e+00,1.603503942489624023e+00,1.603372693061828613e+00,1.603241562843322754e+00,1.603110313415527344e+00,1.602979183197021484e+00,1.602848052978515625e+00,1.602716922760009766e+00,1.602585792541503906e+00,1.602454662322998047e+00,1.602323651313781738e+00,1.602192640304565430e+00,1.602061510086059570e+00,1.601930618286132812e+00,1.601799726486206055e+00,1.601668596267700195e+00,1.601537704467773438e+00,1.601406812667846680e+00,1.601275920867919922e+00,1.601145148277282715e+00,1.601014137268066406e+00,1.600883364677429199e+00,1.600752592086791992e+00,1.600621819496154785e+00,1.600491046905517578e+00,1.600360274314880371e+00,1.600229620933532715e+00,1.600098967552185059e+00,1.599968075752258301e+00,1.599837541580200195e+00,1.599706888198852539e+00,1.599576234817504883e+00,1.599445700645446777e+00,1.599315166473388672e+00,1.599184513092041016e+00,1.599054098129272461e+00,1.598923444747924805e+00,1.598793029785156250e+00,1.598662614822387695e+00,1.598532080650329590e+00,1.598401784896850586e+00,1.598271369934082031e+00,1.598140954971313477e+00,1.598010659217834473e+00,1.597880244255065918e+00,1.597749948501586914e+00,1.597619652748107910e+00,1.597489356994628906e+00,1.597359180450439453e+00
1.467234492301940918e+00,1.467124700546264648e+00,1.467014908790588379e+00,1.466904997825622559e+00,1.466795206069946289e+00,1.466685414314270020e+00,1.466575503349304199e+00,1.466465830802917480e+00,1.466355919837951660e+00,1.466246247291564941e+00,1.466136574745178223e+00,1.466026782989501953e+00,1.465917110443115234e+00,1.465807437896728516e+00,1.465697765350341797e+00,1.465588092803955078e+00,1.465478539466857910e+00,1.465368866920471191e+00,1.465259313583374023e+00,1.465149641036987305e+00,1.465040087699890137e+00,1.464930653572082520e+00,1.464820981025695801e+00,1.464711546897888184e+00,1.464602112770080566e+00,1.464492559432983398e+00,1.464383125305175781e+00,1.464273571968078613e+00,1.464164137840270996e+00,1.464054822921752930e+00,1.463945269584655762e+00,1.463835954666137695e+00,1.463726639747619629e+00,1.463617205619812012e+00,1.463507890701293945e+00,1.463398575782775879e+00,1.463289260864257812e+00,1.463180065155029297e+00,1.463070631027221680e+00,1.462961435317993164e+00,1.462852239608764648e+00,1.462743043899536133e+00,1.462633848190307617e+00,1.462524652481079102e+00,1.462415456771850586e+00,1.462306380271911621e+00,1.462197065353393555e+00,1.462087988853454590e+00,1.461979031562805176e+00,1.461869835853576660e+00,1.461760759353637695e+00,1.461651802062988281e+00,1.461542606353759766e+00,1.461433649063110352e+00,1.461324572563171387e+00,1.461215615272521973e+00,1.461106657981872559e+00,1.460997700691223145e+00,1.460888743400573730e+00,1.460779905319213867e+00,1.460670948028564453e+00,1.460561990737915039e+00,1.460453033447265625e+00,1.460344314575195312e+00,1.460235476493835449e+00,1.460126519203186035e+00,1.460017800331115723e+00,1.459909081459045410e+00,1.459800124168395996e+00,1.459691405296325684e+00,1.459582686424255371e+00,1.459473967552185059e+00,1.459365248680114746e+00,1.459256529808044434e+00,1.459147810935974121e+00,1.459039211273193359e+00,1.458930492401123047e+00,1.458821892738342285e+00,1.458713293075561523e+00,1.458604693412780762e+00
1.349331498146057129e+00,1.349238514900207520e+00,1.349145650863647461e+00,1.349052786827087402e+00,1.348959803581237793e+00,1.348867058753967285e+00,1.348774075508117676e+00,1.348681211471557617e+00,1.348588466644287109e+00,1.348495602607727051e+00,1.348402738571166992e+00,1.348309993743896484e+00,1.348217129707336426e+00,1.348124384880065918e+00,1.348031640052795410e+00,1.347938895225524902e+00,1.347846150398254395e+00,1.347753405570983887e+00,1.347660779953002930e+00,1.347568035125732422e+00,1.347475290298461914e+00,1.347382664680480957e+00,1.347290039062500000e+00,1.347197413444519043e+00,1.347104787826538086e+00,1.347012162208557129e+00,1.346919536590576172e+00,1.346827030181884766e+00,1.346734404563903809e+00,1.346641778945922852e+00,1.346549272537231445e+00,1.346456646919250488e+00,1.346364140510559082e+00,1.346271634101867676e+00,1.346179127693176270e+00,1.346086740493774414e+00,1.345994114875793457e+00,1.345901727676391602e+00,1.345809340476989746e+00,1.345716834068298340e+00,1.345624327659606934e+00,1.345531940460205078e+00,1.345439553260803223e+00,1.345347166061401367e+00,1.345254778861999512e+00,1.345162391662597656e+00,1.345070123672485352e+00,1.344977617263793945e+00,1.344885349273681641e+00,1.344792962074279785e+00,1.344700694084167480e+00,1.344608426094055176e+00,1.344516158103942871e+00,1.344423890113830566e+00,1.344331741333007812e+00,1.344239354133605957e+00,1.344147205352783203e+00,1.344055056571960449e+00,1.343962788581848145e+00,1.343870639801025391e+00,1.343778371810913086e+00,1.343686223030090332e+00,1.343594074249267578e+00,1.343501925468444824e+00,1.343409776687622070e+00,1.343317747116088867e+00,1.343225598335266113e+00,1.343133449554443359e+00,1.343041300773620605e+00,1.342949390411376953e+00,1.342857360839843750e+00,1.342765212059020996e+00,1.342673182487487793e+00,1.342581272125244141e+00,1.342489123344421387e+00,1.342397212982177734e+00,1.342305183410644531e+00,1.342213273048400879e+00,1.342121362686157227e+00,1.342029333114624023e+00
1.248967766761779785e+00,1.248888134956359863e+00,1.248808503150939941e+00,1.248728990554809570e+00,1.248649358749389648e+00,1.248569846153259277e+00,1.248490333557128906e+00,1.248410701751708984e+00,1.248331189155578613e+00,1.248251676559448242e+00,1.248172044754028320e+00,1.248092532157897949e+00,1.248013019561767578e+00,1.247933506965637207e+00,1.247854113578796387e+00,1.247774600982666016e+00,1.247695088386535645e+00,1.247615694999694824e+00,1.247536182403564453e+00,1.247456789016723633e+00,1.247377276420593262e+00,1.247297883033752441e+00,1.247218608856201172e+00,1.247139096260070801e+00,1.247059702873229980e+00,1.246980428695678711e+00,1.246901035308837891e+00,1.246821641921997070e+00,1.246742248535156250e+00,1.246662974357604980e+00,1.246583700180053711e+00,1.246504306793212891e+00,1.246425032615661621e+00,1.246345758438110352e+00,1.246266365051269531e+00,1.246187210083007812e+00,1.246107816696166992e+00,1.246028661727905273e+00,1.245949387550354004e+00,1.245870113372802734e+00,1.245790958404541016e+00,1.245711803436279297e+00,1.245632529258728027e+00,1.245553374290466309e+00,1.245474219322204590e+00,1.245394945144653320e+00,1.245315790176391602e+00,1.245236635208129883e+00,1.245157480239868164e+00,1.245078444480895996e+00,1.244999170303344727e+00,1.244920134544372559e+00,1.244841098785400391e+00,1.244761943817138672e+00,1.244682908058166504e+00,1.244603753089904785e+00,1.244524717330932617e+00,1.244445681571960449e+00,1.244366526603698730e+00,1.244287610054016113e+00,1.244208574295043945e+00,1.244129538536071777e+00,1.244050502777099609e+00,1.243971467018127441e+00,1.243892550468444824e+00,1.243813633918762207e+00,1.243734598159790039e+00,1.243655681610107422e+00,1.243576765060424805e+00,1.243497729301452637e+00,1.243418931961059570e+00,1.243339896202087402e+00,1.243261098861694336e+00,1.243182182312011719e+00,1.243103265762329102e+00,1.243024468421936035e+00,1.242945551872253418e+00,1.242866635322570801e+00,1.242787837982177734e+00,1.242709040641784668e+00
1.162500619888305664e+00,1.162431716918945312e+00,1.162362694740295410e+00,1.162293791770935059e+00,1.162224888801574707e+00,1.162155866622924805e+00,1.162086963653564453e+00,1.162017941474914551e+00,1.161949038505554199e+00,1.161880135536193848e+00,1.161811232566833496e+00,1.161742329597473145e+00,1.161673545837402344e+00,1.161604523658752441e+00,1.161535739898681641e+00,1.161466836929321289e+00,1.161398053169250488e+00,1.161329150199890137e+00,1.161260247230529785e+00,1.161191463470458984e+00,1.161122679710388184e+00,1.161053776741027832e+00,1.160985112190246582e+00,1.160916328430175781e+00,1.160847425460815430e+00,1.160778641700744629e+00,1.160709857940673828e+00,1.160641193389892578e+00,1.160572409629821777e+00,1.160503625869750977e+00,1.160434961318969727e+00,1.160366177558898926e+00,1.160297393798828125e+00,1.160228729248046875e+00,1.160159945487976074e+00,1.160091280937194824e+00,1.160022616386413574e+00,1.159953951835632324e+00,1.159885287284851074e+00,1.159816622734069824e+00,1.159747958183288574e+00,1.159679293632507324e+00,1.159610629081726074e+00,1.159541964530944824e+00,1.159473419189453125e+00,1.159404754638671875e+00,1.159336090087890625e+00,1.159267544746398926e+00,1.159198880195617676e+00,1.159130334854125977e+00,1.159061789512634277e+00,1.158993244171142578e+00,1.158924698829650879e+00,1.158856034278869629e+00,1.158787488937377930e+00,1.158719062805175781e+00,1.158650398254394531e+00,1.158581972122192383e+00,1.158513426780700684e+00,1.158444881439208984e+00,1.158376455307006836e+00,1.158307909965515137e+00,1.158239483833312988e+00,1.158171057701110840e+00,1.158102512359619141e+00,1.158034086227416992e+00,1.157965660095214844e+00,1.157897233963012695e+00,1.157828807830810547e+00,1.157760381698608398e+00,1.157691955566406250e+00,1.157623529434204102e+00,1.157555103302001953e+00,1.157486796379089355e+00,1.157418370246887207e+00,1.157349944114685059e+00,1.157281637191772461e+00,1.157213211059570312e+00,1.157144904136657715e+00,1.157076597213745117e+00
1.087230682373046875e+00,1.087170362472534180e+00,1.087109923362731934e+00,1.087049722671508789e+00,1.086989402770996094e+00,1.086929082870483398e+00,1.086868762969970703e+00,1.086808443069458008e+00,1.086748123168945312e+00,1.086687922477722168e+00,1.086627721786499023e+00,1.086567401885986328e+00,1.086507081985473633e+00,1.086446881294250488e+00,1.086386561393737793e+00,1.086326360702514648e+00,1.086266160011291504e+00,1.086205959320068359e+00,1.086145758628845215e+00,1.086085438728332520e+00,1.086025238037109375e+00,1.085965037345886230e+00,1.085904836654663086e+00,1.085844755172729492e+00,1.085784435272216797e+00,1.085724353790283203e+00,1.085664153099060059e+00,1.085603952407836914e+00,1.085543870925903320e+00,1.085483670234680176e+00,1.085423588752746582e+00,1.085363507270812988e+00,1.085303306579589844e+00,1.085243225097656250e+00,1.085183143615722656e+00,1.085122942924499512e+00,1.085062861442565918e+00,1.085002779960632324e+00,1.084942698478698730e+00,1.084882616996765137e+00,1.084822535514831543e+00,1.084762454032897949e+00,1.084702372550964355e+00,1.084642291069030762e+00,1.084582328796386719e+00,1.084522247314453125e+00,1.084462285041809082e+00,1.084402203559875488e+00,1.084342122077941895e+00,1.084282159805297852e+00,1.084222197532653809e+00,1.084162116050720215e+00,1.084102153778076172e+00,1.084042191505432129e+00,1.083982229232788086e+00,1.083922266960144043e+00,1.083862304687500000e+00,1.083802342414855957e+00,1.083742380142211914e+00,1.083682417869567871e+00,1.083622455596923828e+00,1.083562612533569336e+00,1.083502650260925293e+00,1.083442687988281250e+00,1.083382725715637207e+00,1.083322882652282715e+00,1.083263039588928223e+00,1.083203077316284180e+00,1.083143234252929688e+00,1.083083391189575195e+00,1.083023428916931152e+00,1.082963585853576660e+00,1.082903623580932617e+00,1.082843780517578125e+00,1.082784056663513184e+00,1.082724094390869141e+00,1.082664370536804199e+00,1.082604527473449707e+00,1.082544684410095215e+00,1.082484841346740723e+00
1.021115183830261230e+00,1.021061897277832031e+00,1.021008729934692383e+00,1.020955562591552734e+00,1.020902395248413086e+00,1.020849108695983887e+00,1.020795941352844238e+00,1.020742774009704590e+00,1.020689606666564941e+00,1.020636439323425293e+00,1.020583271980285645e+00,1.020530104637145996e+00,1.020476937294006348e+00,1.020423769950866699e+00,1.020370602607727051e+00,1.020317435264587402e+00,1.020264267921447754e+00,1.020211219787597656e+00,1.020158052444458008e+00,1.020104885101318359e+00,1.020051836967468262e+00,1.019998788833618164e+00,1.019945621490478516e+00,1.019892573356628418e+00,1.019839406013488770e+00,1.019786357879638672e+00,1.019733309745788574e+00,1.019680142402648926e+00,1.019627094268798828e+00,1.019574046134948730e+00,1.019520998001098633e+00,1.019467949867248535e+00,1.019414901733398438e+00,1.019361853599548340e+00,1.019308805465698242e+00,1.019255757331848145e+00,1.019202828407287598e+00,1.019149780273437500e+00,1.019096732139587402e+00,1.019043803215026855e+00,1.018990755081176758e+00,1.018937706947326660e+00,1.018884778022766113e+00,1.018831729888916016e+00,1.018778800964355469e+00,1.018725872039794922e+00,1.018672823905944824e+00,1.018619894981384277e+00,1.018566966056823730e+00,1.018513917922973633e+00,1.018460988998413086e+00,1.018408060073852539e+00,1.018355131149291992e+00,1.018302202224731445e+00,1.018249273300170898e+00,1.018196344375610352e+00,1.018143415451049805e+00,1.018090486526489258e+00,1.018037676811218262e+00,1.017984747886657715e+00,1.017931818962097168e+00,1.017879009246826172e+00,1.017826080322265625e+00,1.017773151397705078e+00,1.017720341682434082e+00,1.017667412757873535e+00,1.017614603042602539e+00,1.017561793327331543e+00,1.017508864402770996e+00,1.017456054687500000e+00,1.017403125762939453e+00,1.017350316047668457e+00,1.017297506332397461e+00,1.017244696617126465e+00,1.017191886901855469e+00,1.017139077186584473e+00,1.017086267471313477e+00,1.017033457756042480e+00,1.016980648040771484e+00,1.016927838325500488e+00
