5.000000000000000000e+00,5.000000000000000000e+00,5.000000000000000000e+00,5.000000000000000000e+00,5.000000000000000000e+00,5.000000000000000000e+00,5.000000000000000000e+00,5.000000000000000000e+00,5.000000000000000000e+00,5.000000000000000000e+00,5.000000000000000000e+00,5.000000000000000000e+00,5.000000000000000000e+00,5.000000000000000000e+00,5.000000000000000000e+00,5.000000000000000000e+00,5.000000000000000000e+00,5.000000000000000000e+00,5.000000000000000000e+00,5.000000000000000000e+00,5.000000000000000000e+00,5.000000000000000000e+00,5.000000000000000000e+00,5.000000000000000000e+00,5.000000000000000000e+00,5.000000000000000000e+00,5.000000000000000000e+00,5.000000000000000000e+00,5.000000000000000000e+00,5.000000000000000000e+00,5.000000000000000000e+00,5.000000000000000000e+00,5.000000000000000000e+00,5.000000000000000000e+00,5.000000000000000000e+00,5.000000000000000000e+00,5.000000000000000000e+00,5.000000000000000000e+00,5.000000000000000000e+00,4.862470149993896484e+00,4.671468257904052734e+00,4.494904518127441406e+00,4.331201553344726562e+00,4.179003238677978516e+00,4.037138938903808594e+00,3.904589891433715820e+00,3.780467987060546875e+00,3.663994312286376953e+00,3.554482936859130859e+00,3.451328039169311523e+00,3.353991508483886719e+00,3.261994600296020508e+00,3.174909830093383789e+00,3.092354059219360352e+00,3.013982534408569336e+00,2.939485549926757812e+00,2.868582248687744141e+00,2.801018714904785156e+00,2.736564874649047852e+00,2.675010442733764648e+00,2.616164445877075195e+00,2.559851646423339844e+00,2.505911827087402344e+00,2.454198360443115234e+00,2.404576301574707031e+00,2.356920957565307617e+00,2.311117887496948242e+00,2.267061233520507812e+00,2.224652528762817383e+00,2.183801651000976562e+00,2.144423723220825195e+00,2.106440782546997070e+00,2.069779872894287109e+00,2.034373521804809570e+00,2.000158071517944336e+00,1.967074632644653320e+00,1.935067653656005859e+00,1.904085516929626465e+00,1.874079823493957520e+00,1.845005273818969727e+00
5.000000000000000000e+00,5.000000000000000000e+00,5.000000000000000000e+00,5.000000000000000000e+00,5.000000000000000000e+00,5.000000000000000000e+00,5.000000000000000000e+00,5.000000000000000000e+00,5.000000000000000000e+00,5.000000000000000000e+00,5.000000000000000000e+00,5.000000000000000000e+00,5.000000000000000000e+00,5.000000000000000000e+00,5.000000000000000000e+00,5.000000000000000000e+00,5.000000000000000000e+00,5.000000000000000000e+00,5.000000000000000000e+00,5.000000000000000000e+00,5.000000000000000000e+00,5.000000000000000000e+00,5.000000000000000000e+00,5.000000000000000000e+00,5.000000000000000000e+00,5.000000000000000000e+00,5.000000000000000000e+00,5.000000000000000000e+00,5.000000000000000000e+00,5.000000000000000000e+00,5.000000000000000000e+00,5.000000000000000000e+00,5.000000000000000000e+00,5.000000000000000000e+00,5.000000000000000000e+00,5.000000000000000000e+00,5.000000000000000000e+00,5.000000000000000000e+00,5.000000000000000000e+00,4.862608909606933594e+00,4.671596527099609375e+00,4.495023250579833984e+00,4.331311702728271484e+00,4.179106235504150391e+00,4.037234783172607422e+00,3.904679298400878906e+00,3.780551910400390625e+00,3.664073228836059570e+00,3.554557085037231445e+00,3.451397895812988281e+00,3.354057550430297852e+00,3.262057065963745117e+00,3.174969196319580078e+00,3.092410326004028320e+00,3.014035701751708984e+00,2.939536333084106445e+00,2.868630647659301758e+00,2.801064968109130859e+00,2.736608982086181641e+00,2.675052642822265625e+00,2.616204500198364258e+00,2.559890031814575195e+00,2.505948781967163086e+00,2.454233884811401367e+00,2.404610157012939453e+00,2.356953859329223633e+00,2.311149358749389648e+00,2.267091274261474609e+00,2.224681854248046875e+00,2.183829545974731445e+00,2.144450664520263672e+00,2.106466770172119141e+00,2.069804906845092773e+00,2.034397840499877930e+00,2.000181436538696289e+00,1.967097282409667969e+00,1.935089588165283203e+00,1.904106855392456055e+00,1.874100565910339355e+00,1.845025420188903809e+00
5.000000000000000000e+00,5.000000000000000000e+00,5.000000000000000000e+00,5.000000000000000000e+00,5.000000000000000000e+00,5.000000000000000000e+00,5.000000000000000000e+00,5.000000000000000000e+00,5.000000000000000000e+00,5.000000000000000000e+00,5.000000000000000000e+00,5.000000000000000000e+00,5.000000000000000000e+00,5.000000000000000000e+00,5.000000000000000000e+00,5.000000000000000000e+00,5.000000000000000000e+00,5.000000000000000000e+00,5.000000000000000000e+00,5.000000000000000000e+00,5.000000000000000000e+00,5.000000000000000000e+00,5.000000000000000000e+00,5.000000000000000000e+00,5.000000000000000000e+00,5.000000000000000000e+00,5.000000000000000000e+00,5.000000000000000000e+00,5.000000000000000000e+00,5.000000000000000000e+00,5.000000000000000000e+00,5.000000000000000000e+00,5.000000000000000000e+00,5.000000000000000000e+00,5.000000000000000000e+00,5.000000000000000000e+00,5.000000000000000000e+00,5.000000000000000000e+00,5.000000000000000000e+00,4.862748146057128906e+00,4.671724319458007812e+00,4.495141983032226562e+00,4.331421852111816406e+00,4.179208755493164062e+00,4.037330150604248047e+00,3.904769182205200195e+00,3.780635833740234375e+00,3.664151906967163086e+00,3.554631710052490234e+00,3.451467752456665039e+00,3.354123592376708984e+00,3.262119770050048828e+00,3.175028324127197266e+00,3.092466354370117188e+00,3.014089107513427734e+00,2.939586877822875977e+00,2.868678808212280273e+00,2.801110982894897461e+00,2.736652851104736328e+00,2.675094604492187500e+00,2.616244792938232422e+00,2.559928417205810547e+00,2.505985736846923828e+00,2.454269170761108398e+00,2.404644250869750977e+00,2.356986284255981445e+00,2.311180591583251953e+00,2.267121553421020508e+00,2.224710702896118164e+00,2.183857440948486328e+00,2.144477605819702148e+00,2.106492996215820312e+00,2.069830179214477539e+00,2.034422159194946289e+00,2.000205039978027344e+00,1.967120170593261719e+00,1.935111641883850098e+00,1.904128313064575195e+00,1.874121069908142090e+00,1.845045328140258789e+00
5.000000000000000000e+00,5.000000000000000000e+00,5.000000000000000000e+00,5.000000000000000000e+00,5.000000000000000000e+00,5.000000000000000000e+00,5.000000000000000000e+00,5.000000000000000000e+00,5.000000000000000000e+00,5.000000000000000000e+00,5.000000000000000000e+00,5.000000000000000000e+00,5.000000000000000000e+00,5.000000000000000000e+00,5.000000000000000000e+00,5.000000000000000000e+00,5.000000000000000000e+00,5.000000000000000000e+00,5.000000000000000000e+00,5.000000000000000000e+00,5.000000000000000000e+00,5.000000000000000000e+00,5.000000000000000000e+00,5.000000000000000000e+00,5.000000000000000000e+00,5.000000000000000000e+00,5.000000000000000000e+00,5.000000000000000000e+00,5.000000000000000000e+00,5.000000000000000000e+00,5.000000000000000000e+00,5.000000000000000000e+00,5.000000000000000000e+00,5.000000000000000000e+00,5.000000000000000000e+00,5.000000000000000000e+00,5.000000000000000000e+00,5.000000000000000000e+00,5.000000000000000000e+00,4.862886905670166016e+00,4.671852588653564453e+00,4.495260715484619141e+00,4.331532001495361328e+00,4.179311275482177734e+00,4.037425994873046875e+00,3.904858827590942383e+00,3.780719757080078125e+00,3.664230823516845703e+00,3.554705858230590820e+00,3.451537847518920898e+00,3.354189634323120117e+00,3.262182235717773438e+00,3.175087451934814453e+00,3.092522382736206055e+00,3.014142751693725586e+00,2.939637660980224609e+00,2.868727207183837891e+00,2.801157236099243164e+00,2.736696720123291016e+00,2.675136804580688477e+00,2.616285085678100586e+00,2.559967041015625000e+00,2.506022691726684570e+00,2.454304695129394531e+00,2.404678106307983398e+00,2.357018947601318359e+00,2.311212062835693359e+00,2.267151594161987305e+00,2.224739551544189453e+00,2.183885335922241211e+00,2.144504547119140625e+00,2.106518983840942383e+00,2.069855213165283203e+00,2.034446477890014648e+00,2.000228643417358398e+00,1.967142701148986816e+00,1.935133576393127441e+00,1.904149413108825684e+00,1.874141812324523926e+00,1.845065355300903320e+00
5.000000000000000000e+00,5.000000000000000000e+00,5.000000000000000000e+00,5.000000000000000000e+00,5.000000000000000000e+00,5.000000000000000000e+00,5.000000000000000000e+00,5.000000000000000000e+00,5.000000000000000000e+00,5.000000000000000000e+00,5.000000000000000000e+00,5.000000000000000000e+00,5.000000000000000000e+00,5.000000000000000000e+00,5.000000000000000000e+00,5.000000000000000000e+00,5.000000000000000000e+00,5.000000000000000000e+00,5.000000000000000000e+00,5.000000000000000000e+00,5.000000000000000000e+00,5.000000000000000000e+00,5.000000000000000000e+00,5.000000000000000000e+00,5.000000000000000000e+00,5.000000000000000000e+00,5.000000000000000000e+00,5.000000000000000000e+00,5.000000000000000000e+00,5.000000000000000000e+00,5.000000000000000000e+00,5.000000000000000000e+00,5.000000000000000000e+00,5.000000000000000000e+00,5.000000000000000000e+00,5.000000000000000000e+00,5.000000000000000000e+00,5.000000000000000000e+00,5.000000000000000000e+00,4.863025665283203125e+00,4.671981334686279297e+00,4.495379447937011719e+00,4.331642150878906250e+00,4.179413795471191406e+00,4.037521839141845703e+00,3.904948234558105469e+00,3.780804157257080078e+00,3.664309740066528320e+00,3.554780006408691406e+00,3.451607704162597656e+00,3.354255676269531250e+00,3.262244701385498047e+00,3.175146579742431641e+00,3.092578649520874023e+00,3.014196157455444336e+00,2.939688444137573242e+00,2.868775606155395508e+00,2.801203250885009766e+00,2.736740827560424805e+00,2.675178766250610352e+00,2.616325378417968750e+00,2.560005426406860352e+00,2.506059408187866211e+00,2.454339981079101562e+00,2.404712200164794922e+00,2.357051610946655273e+00,2.311243534088134766e+00,2.267181634902954102e+00,2.224768638610839844e+00,2.183913469314575195e+00,2.144531488418579102e+00,2.106544971466064453e+00,2.069880723953247070e+00,2.034470796585083008e+00,2.000252008438110352e+00,1.967165589332580566e+00,1.935155630111694336e+00,1.904170870780944824e+00,1.874162554740905762e+00,1.845085263252258301e+00
5.000000000000000000e+00,5.000000000000000000e+00,5.000000000000000000e+00,5.000000000000000000e+00,5.000000000000000000e+00,5.000000000000000000e+00,5.000000000000000000e+00,5.000000000000000000e+00,5.000000000000000000e+00,5.000000000000000000e+00,5.000000000000000000e+00,5.000000000000000000e+00,5.000000000000000000e+00,5.000000000000000000e+00,5.000000000000000000e+00,5.000000000000000000e+00,5.000000000000000000e+00,5.000000000000000000e+00,5.000000000000000000e+00,5.000000000000000000e+00,5.000000000000000000e+00,5.000000000000000000e+00,5.000000000000000000e+00,5.000000000000000000e+00,5.000000000000000000e+00,5.000000000000000000e+00,3.963725566864013672e+00,5.000000000000000000e+00,5.000000000000000000e+00,5.000000000000000000e+00,5.000000000000000000e+00,5.000000000000000000e+00,5.000000000000000000e+00,5.000000000000000000e+00,5.000000000000000000e+00,5.000000000000000000e+00,5.000000000000000000e+00,5.000000000000000000e+00,5.000000000000000000e+00,4.863164901733398438e+00,4.672109127044677734e+00,4.495498180389404297e+00,4.331752777099609375e+00,4.179516792297363281e+00,4.037617683410644531e+00,3.905037879943847656e+00,3.780888080596923828e+00,3.664388418197631836e+00,3.554854154586791992e+00,3.451678037643432617e+00,3.354321718215942383e+00,3.262307167053222656e+00,3.175206184387207031e+00,3.092634677886962891e+00,3.014249324798583984e+00,2.939739465713500977e+00,2.868823766708374023e+00,2.801249265670776367e+00,2.736784934997558594e+00,2.675220727920532227e+00,2.616365432739257812e+00,2.560044050216674805e+00,2.506096363067626953e+00,2.454375505447387695e+00,2.404746055603027344e+00,2.357084274291992188e+00,2.311274528503417969e+00,2.267211675643920898e+00,2.224797725677490234e+00,2.183941602706909180e+00,2.144558668136596680e+00,2.106571197509765625e+00,2.069905757904052734e+00,2.034495115280151367e+00,2.000275611877441406e+00,1.967188358306884766e+00,1.935177564620971680e+00,1.904191970825195312e+00,1.874183058738708496e+00,1.845105409622192383e+00
5.000000000000000000e+00,5.000000000000000000e+00,5.000000000000000000e+00,5.000000000000000000e+00,5.000000000000000000e+00,5.000000000000000000e+00,5.000000000000000000e+00,5.000000000000000000e+00,5.000000000000000000e+00,5.000000000000000000e+00,5.000000000000000000e+00,5.000000000000000000e+00,5.000000000000000000e+00,5.000000000000000000e+00,5.000000000000000000e+00,5.000000000000000000e+00,5.000000000000000000e+00,5.000000000000000000e+00,5.000000000000000000e+00,5.000000000000000000e+00,5.000000000000000000e+00,5.000000000000000000e+00,5.000000000000000000e+00,5.000000000000000000e+00,5.000000000000000000e+00,3.967091798782348633e+00,3.928183078765869141e+00,5.000000000000000000e+00,5.000000000000000000e+00,5.000000000000000000e+00,5.000000000000000000e+00,5.000000000000000000e+00,5.000000000000000000e+00,5.000000000000000000e+00,5.000000000000000000e+00,5.000000000000000000e+00,5.000000000000000000e+00,5.000000000000000000e+00,5.000000000000000000e+00,4.863303661346435547e+00,4.672237396240234375e+00,4.495616912841796875e+00,4.331862926483154297e+00,4.179619312286376953e+00,4.037713527679443359e+00,3.905127286911010742e+00,3.780972003936767578e+00,3.664467334747314453e+00,3.554928302764892578e+00,3.451747894287109375e+00,3.354387998580932617e+00,3.262369871139526367e+00,3.175265312194824219e+00,3.092690944671630859e+00,3.014302730560302734e+00,2.939790248870849609e+00,2.868872165679931641e+00,2.801295518875122070e+00,2.736829042434692383e+00,2.675262689590454102e+00,2.616405725479125977e+00,2.560082674026489258e+00,2.506133317947387695e+00,2.454410791397094727e+00,2.404780149459838867e+00,2.357116699218750000e+00,2.311305999755859375e+00,2.267242193222045898e+00,2.224826812744140625e+00,2.183969497680664062e+00,2.144585847854614258e+00,2.106597185134887695e+00,2.069931030273437500e+00,2.034519433975219727e+00,2.000298976898193359e+00,1.967211008071899414e+00,1.935199618339538574e+00,1.904213428497314453e+00,1.874203801155090332e+00,1.845125198364257812e+00
5.000000000000000000e+00,5.000000000000000000e+00,5.000000000000000000e+00,5.000000000000000000e+00,5.000000000000000000e+00,5.000000000000000000e+00,5.000000000000000000e+00,5.000000000000000000e+00,5.000000000000000000e+00,5.000000000000000000e+00,5.000000000000000000e+00,5.000000000000000000e+00,5.000000000000000000e+00,5.000000000000000000e+00,5.000000000000000000e+00,5.000000000000000000e+00,5.000000000000000000e+00,5.000000000000000000e+00,5.000000000000000000e+00,5.000000000000000000e+00,5.000000000000000000e+00,5.000000000000000000e+00,5.000000000000000000e+00,5.000000000000000000e+00,5.000000000000000000e+00,3.995473146438598633e+00,3.944266796112060547e+00,5.000000000000000000e+00,5.000000000000000000e+00,5.000000000000000000e+00,5.000000000000000000e+00,5.000000000000000000e+00,5.000000000000000000e+00,5.000000000000000000e+00,5.000000000000000000e+00,5.000000000000000000e+00,5.000000000000000000e+00,5.000000000000000000e+00,5.000000000000000000e+00,4.863442420959472656e+00,4.672366142272949219e+00,4.495735645294189453e+00,4.331973075866699219e+00,4.179722309112548828e+00,4.037809371948242188e+00,3.905216932296752930e+00,3.781055927276611328e+00,3.664546489715576172e+00,3.555002450942993164e+00,3.451817989349365234e+00,3.354454278945922852e+00,3.262432336807250977e+00,3.175324440002441406e+00,3.092747449874877930e+00,3.014356136322021484e+00,2.939840793609619141e+00,2.868920803070068359e+00,2.801341533660888672e+00,2.736872911453247070e+00,2.675305128097534180e+00,2.616446018218994141e+00,2.560121059417724609e+00,2.506170034408569336e+00,2.454446077346801758e+00,2.404814004898071289e+00,2.357149362564086914e+00,2.311337471008300781e+00,2.267272233963012695e+00,2.224855899810791016e+00,2.183997631072998047e+00,2.144612789154052734e+00,2.106623172760009766e+00,2.069956064224243164e+00,2.034543752670288086e+00,2.000322580337524414e+00,1.967233777046203613e+00,1.935221672058105469e+00,1.904234647750854492e+00,1.874224305152893066e+00,1.845145344734191895e+00
5.000000000000000000e+00,5.000000000000000000e+00,5.000000000000000000e+00,5.000000000000000000e+00,5.000000000000000000e+00,5.000000000000000000e+00,5.000000000000000000e+00,5.000000000000000000e+00,5.000000000000000000e+00,5.000000000000000000e+00,5.000000000000000000e+00,5.000000000000000000e+00,5.000000000000000000e+00,5.000000000000000000e+00,5.000000000000000000e+00,5.000000000000000000e+00,5.000000000000000000e+00,5.000000000000000000e+00,5.000000000000000000e+00,5.000000000000000000e+00,5.000000000000000000e+00,5.000000000000000000e+00,5.000000000000000000e+00,5.000000000000000000e+00,5.000000000000000000e+00,4.034377098083496094e+00,3.968248844146728516e+00,5.000000000000000000e+00,5.000000000000000000e+00,5.000000000000000000e+00,5.000000000000000000e+00,5.000000000000000000e+00,5.000000000000000000e+00,5.000000000000000000e+00,5.000000000000000000e+00,5.000000000000000000e+00,5.000000000000000000e+00,5.000000000000000000e+00,5.000000000000000000e+00,4.863581657409667969e+00,4.672493934631347656e+00,4.495854377746582031e+00,4.332083225250244141e+00,4.179824829101562500e+00,4.037905216217041016e+00,3.905306577682495117e+00,3.781139850616455078e+00,3.664625406265258789e+00,3.555076837539672852e+00,3.451887845993041992e+00,3.354520320892333984e+00,3.262494802474975586e+00,3.175383806228637695e+00,3.092803478240966797e+00,3.014409542083740234e+00,2.939891576766967773e+00,2.868968963623046875e+00,2.801387548446655273e+00,2.736917018890380859e+00,2.675347089767456055e+00,2.616486072540283203e+00,2.560159683227539062e+00,2.506207227706909180e+00,2.454481363296508789e+00,2.404847860336303711e+00,2.357182025909423828e+00,2.311368703842163086e+00,2.267302513122558594e+00,2.224884986877441406e+00,2.184025526046752930e+00,2.144639730453491211e+00,2.106649398803710938e+00,2.069981336593627930e+00,2.034568071365356445e+00,2.000345945358276367e+00,1.967256426811218262e+00,1.935243606567382812e+00,1.904255986213684082e+00,1.874245047569274902e+00,1.845165371894836426e+00
5.000000000000000000e+00,5.000000000000000000e+00,5.000000000000000000e+00,5.000000000000000000e+00,5.000000000000000000e+00,5.000000000000000000e+00,5.000000000000000000e+00,5.000000000000000000e+00,5.000000000000000000e+00,5.000000000000000000e+00,5.000000000000000000e+00,5.000000000000000000e+00,5.000000000000000000e+00,5.000000000000000000e+00,5.000000000000000000e+00,5.000000000000000000e+00,5.000000000000000000e+00,5.000000000000000000e+00,5.000000000000000000e+00,5.000000000000000000e+00,5.000000000000000000e+00,5.000000000000000000e+00,5.000000000000000000e+00,3.896432876586914062e+00,3.934070825576782227e+00,3.930560827255249023e+00,4.012522697448730469e+00,4.012261390686035156e+00,4.103326320648193359e+00,5.000000000000000000e+00,5.000000000000000000e+00,5.000000000000000000e+00,5.000000000000000000e+00,5.000000000000000000e+00,5.000000000000000000e+00,5.000000000000000000e+00,5.000000000000000000e+00,5.000000000000000000e+00,5.000000000000000000e+00,4.863720893859863281e+00,4.672622203826904297e+00,4.495973110198974609e+00,4.332193851470947266e+00,4.179927349090576172e+00,4.038000583648681641e+00,3.905396461486816406e+00,3.781223773956298828e+00,3.664704322814941406e+00,3.555151224136352539e+00,3.451957941055297852e+00,3.354586362838745117e+00,3.262557506561279297e+00,3.175442934036254883e+00,3.092859745025634766e+00,3.014463186264038086e+00,2.939942359924316406e+00,2.869017362594604492e+00,2.801433563232421875e+00,2.736960887908935547e+00,2.675389051437377930e+00,2.616526365280151367e+00,2.560198068618774414e+00,2.506243705749511719e+00,2.454516649246215820e+00,2.404881715774536133e+00,2.357214689254760742e+00,2.311400175094604492e+00,2.267332553863525391e+00,2.224914073944091797e+00,2.184053659439086914e+00,2.144666671752929688e+00,2.106675386428833008e+00,2.070006370544433594e+00,2.034592390060424805e+00,2.000369548797607422e+00,1.967279314994812012e+00,1.935265660285949707e+00,1.904277443885803223e+00,1.874265551567077637e+00,1.845185279846191406e+00
5.000000000000000000e+00,5.000000000000000000e+00,5.000000000000000000e+00,5.000000000000000000e+00,5.000000000000000000e+00,5.000000000000000000e+00,5.000000000000000000e+00,5.000000000000000000e+00,5.000000000000000000e+00,5.000000000000000000e+00,5.000000000000000000e+00,5.000000000000000000e+00,5.000000000000000000e+00,5.000000000000000000e+00,5.000000000000000000e+00,5.000000000000000000e+00,5.000000000000000000e+00,5.000000000000000000e+00,5.000000000000000000e+00,5.000000000000000000e+00,5.000000000000000000e+00,5.000000000000000000e+00,3.947284698486328125e+00,3.890486240386962891e+00,3.901688337326049805e+00,3.901448249816894531e+00,3.938396930694580078e+00,3.983304738998413086e+00,4.045809268951416016e+00,4.122249126434326172e+00,5.000000000000000000e+00,5.000000000000000000e+00,5.000000000000000000e+00,5.000000000000000000e+00,5.000000000000000000e+00,5.000000000000000000e+00,5.000000000000000000e+00,5.000000000000000000e+00,5.000000000000000000e+00,4.863859653472900391e+00,4.672750473022460938e+00,4.496091842651367188e+00,4.332304000854492188e+00,4.180029869079589844e+00,4.038096904754638672e+00,3.905486106872558594e+00,3.781307697296142578e+00,3.664783239364624023e+00,3.555225610733032227e+00,3.452027797698974609e+00,3.354652404785156250e+00,3.262619972229003906e+00,3.175502061843872070e+00,3.092915773391723633e+00,3.014516353607177734e+00,2.939993143081665039e+00,2.869065761566162109e+00,2.801480054855346680e+00,2.737004756927490234e+00,2.675431013107299805e+00,2.616566658020019531e+00,2.560236454010009766e+00,2.506280660629272461e+00,2.454552173614501953e+00,2.404915809631347656e+00,2.357247352600097656e+00,2.311431646347045898e+00,2.267362833023071289e+00,2.224943161010742188e+00,2.184081792831420898e+00,2.144693851470947266e+00,2.106701612472534180e+00,2.070031642913818359e+00,2.034616708755493164e+00,2.000393152236938477e+00,1.967301845550537109e+00,1.935287594795227051e+00,1.904298543930053711e+00,1.874286293983459473e+00,1.845205426216125488e+00
5.000000000000000000e+00,5.000000000000000000e+00,5.000000000000000000e+00,5.000000000000000000e+00,5.000000000000000000e+00,5.000000000000000000e+00,5.000000000000000000e+00,5.000000000000000000e+00,5.000000000000000000e+00,5.000000000000000000e+00,5.000000000000000000e+00,5.000000000000000000e+00,5.000000000000000000e+00,5.000000000000000000e+00,5.000000000000000000e+00,5.000000000000000000e+00,5.000000000000000000e+00,5.000000000000000000e+00,5.000000000000000000e+00,5.000000000000000000e+00,5.000000000000000000e+00,5.000000000000000000e+00,5.000000000000000000e+00,3.918755531311035156e+00,3.913492679595947266e+00,3.899176836013793945e+00,3.919293403625488281e+00,3.963143825531005859e+00,4.037833213806152344e+00,4.135279178619384766e+00,5.000000000000000000e+00,5.000000000000000000e+00,5.000000000000000000e+00,5.000000000000000000e+00,5.000000000000000000e+00,5.000000000000000000e+00,5.000000000000000000e+00,5.000000000000000000e+00,5.000000000000000000e+00,4.863998413085937500e+00,4.672879219055175781e+00,4.496210575103759766e+00,4.332414150238037109e+00,4.180132865905761719e+00,4.038192272186279297e+00,3.905575513839721680e+00,3.781392097473144531e+00,3.664861917495727539e+00,3.555299758911132812e+00,3.452098131179809570e+00,3.354718446731567383e+00,3.262682437896728516e+00,3.175561428070068359e+00,3.092972040176391602e+00,3.014569759368896484e+00,2.940043926239013672e+00,2.869113922119140625e+00,2.801526069641113281e+00,2.737048864364624023e+00,2.675473213195800781e+00,2.616606712341308594e+00,2.560274839401245117e+00,2.506317615509033203e+00,2.454587697982788086e+00,2.404949665069580078e+00,2.357280015945434570e+00,2.311462879180908203e+00,2.267393112182617188e+00,2.224972248077392578e+00,2.184109687805175781e+00,2.144720792770385742e+00,2.106727600097656250e+00,2.070056915283203125e+00,2.034641027450561523e+00,2.000416755676269531e+00,1.967324733734130859e+00,1.935309648513793945e+00,1.904320001602172852e+00,1.874307036399841309e+00,1.845225334167480469e+00
5.000000000000000000e+00,5.000000000000000000e+00,5.000000000000000000e+00,5.000000000000000000e+00,5.000000000000000000e+00,5.000000000000000000e+00,5.000000000000000000e+00,5.000000000000000000e+00,5.000000000000000000e+00,5.000000000000000000e+00,5.000000000000000000e+00,5.000000000000000000e+00,5.000000000000000000e+00,5.000000000000000000e+00,5.000000000000000000e+00,5.000000000000000000e+00,5.000000000000000000e+00,5.000000000000000000e+00,5.000000000000000000e+00,5.000000000000000000e+00,5.000000000000000000e+00,5.000000000000000000e+00,5.000000000000000000e+00,3.932654380798339844e+00,3.936800479888916016e+00,3.905013561248779297e+00,3.915352821350097656e+00,3.953482866287231445e+00,4.055419921875000000e+00,4.133105754852294922e+00,5.000000000000000000e+00,5.000000000000000000e+00,5.000000000000000000e+00,5.000000000000000000e+00,5.000000000000000000e+00,5.000000000000000000e+00,5.000000000000000000e+00,5.000000000000000000e+00,5.000000000000000000e+00,4.864137649536132812e+00,4.673007011413574219e+00,4.496329307556152344e+00,4.332524776458740234e+00,4.180235385894775391e+00,4.038288116455078125e+00,3.905665159225463867e+00,3.781476020812988281e+00,3.664940834045410156e+00,3.555373907089233398e+00,3.452168226242065430e+00,3.354784727096557617e+00,3.262745141983032227e+00,3.175620794296264648e+00,3.093028306961059570e+00,3.014623165130615234e+00,2.940094947814941406e+00,2.869162321090698242e+00,2.801572084426879883e+00,2.737092971801757812e+00,2.675515174865722656e+00,2.616646766662597656e+00,2.560313463211059570e+00,2.506354331970214844e+00,2.454622983932495117e+00,2.404983758926391602e+00,2.357312440872192383e+00,2.311494350433349609e+00,2.267423152923583984e+00,2.225001335144042969e+00,2.184137821197509766e+00,2.144747734069824219e+00,2.106753587722778320e+00,2.070081949234008789e+00,2.034665346145629883e+00,2.000440120697021484e+00,1.967347502708435059e+00,1.935331583023071289e+00,1.904341220855712891e+00,1.874327540397644043e+00,1.845245361328125000e+00
5.000000000000000000e+00,5.000000000000000000e+00,5.000000000000000000e+00,5.000000000000000000e+00,5.000000000000000000e+00,5.000000000000000000e+00,5.000000000000000000e+00,5.000000000000000000e+00,5.000000000000000000e+00,5.000000000000000000e+00,5.000000000000000000e+00,5.000000000000000000e+00,5.000000000000000000e+00,5.000000000000000000e+00,5.000000000000000000e+00,5.000000000000000000e+00,5.000000000000000000e+00,5.000000000000000000e+00,5.000000000000000000e+00,5.000000000000000000e+00,5.000000000000000000e+00,5.000000000000000000e+00,5.000000000000000000e+00,3.947394609451293945e+00,3.950053453445434570e+00,3.901146411895751953e+00,3.917981863021850586e+00,3.959370851516723633e+00,5.000000000000000000e+00,4.126807689666748047e+00,5.000000000000000000e+00,5.000000000000000000e+00,5.000000000000000000e+00,5.000000000000000000e+00,5.000000000000000000e+00,5.000000000000000000e+00,5.000000000000000000e+00,5.000000000000000000e+00,5.000000000000000000e+00,4.864276409149169922e+00,4.673135280609130859e+00,4.496448516845703125e+00,4.332634925842285156e+00,4.180337905883789062e+00,4.038384437561035156e+00,3.905754566192626953e+00,3.781559944152832031e+00,3.665019989013671875e+00,3.555448055267333984e+00,3.452238082885742188e+00,3.354850769042968750e+00,3.262807607650756836e+00,3.175680160522460938e+00,3.093084335327148438e+00,3.014676570892333984e+00,2.940145730972290039e+00,2.869210720062255859e+00,2.801618337631225586e+00,2.737136840820312500e+00,2.675556898117065430e+00,2.616687059402465820e+00,2.560351848602294922e+00,2.506391286849975586e+00,2.454658269882202148e+00,2.405017852783203125e+00,2.357345104217529297e+00,2.311525821685791016e+00,2.267453432083129883e+00,2.225030422210693359e+00,2.184165716171264648e+00,2.144774913787841797e+00,2.106779575347900391e+00,2.070107221603393555e+00,2.034689664840698242e+00,2.000463724136352539e+00,1.967370152473449707e+00,1.935353636741638184e+00,1.904362559318542480e+00,1.874348282814025879e+00,1.845265507698059082e+00
5.000000000000000000e+00,5.000000000000000000e+00,5.000000000000000000e+00,5.000000000000000000e+00,5.000000000000000000e+00,5.000000000000000000e+00,5.000000000000000000e+00,5.000000000000000000e+00,5.000000000000000000e+00,5.000000000000000000e+00,5.000000000000000000e+00,5.000000000000000000e+00,5.000000000000000000e+00,5.000000000000000000e+00,5.000000000000000000e+00,5.000000000000000000e+00,5.000000000000000000e+00,5.000000000000000000e+00,5.000000000000000000e+00,5.000000000000000000e+00,5.000000000000000000e+00,5.000000000000000000e+00,5.000000000000000000e+00,3.963814496994018555e+00,3.924088478088378906e+00,3.891129970550537109e+00,3.906029224395751953e+00,3.948515892028808594e+00,5.000000000000000000e+00,4.139054775238037109e+00,5.000000000000000000e+00,5.000000000000000000e+00,5.000000000000000000e+00,5.000000000000000000e+00,5.000000000000000000e+00,5.000000000000000000e+00,5.000000000000000000e+00,5.000000000000000000e+00,5.000000000000000000e+00,4.864415645599365234e+00,4.673264026641845703e+00,4.496567249298095703e+00,4.332745075225830078e+00,4.180440902709960938e+00,4.038479804992675781e+00,3.905844211578369141e+00,3.781643867492675781e+00,3.665098905563354492e+00,3.555522441864013672e+00,3.452307939529418945e+00,3.354917049407958984e+00,3.262870073318481445e+00,3.175739288330078125e+00,3.093140840530395508e+00,3.014729976654052734e+00,2.940196275711059570e+00,2.869259357452392578e+00,2.801664352416992188e+00,2.737180709838867188e+00,2.675599098205566406e+00,2.616727352142333984e+00,2.560390472412109375e+00,2.506428241729736328e+00,2.454693794250488281e+00,2.405051708221435547e+00,2.357377767562866211e+00,2.311557054519653320e+00,2.267483711242675781e+00,2.225059509277343750e+00,2.184193611145019531e+00,2.144801855087280273e+00,2.106805801391601562e+00,2.070132255554199219e+00,2.034713983535766602e+00,2.000487089157104492e+00,1.967393040657043457e+00,1.935375809669494629e+00,1.904383778572082520e+00,1.874368786811828613e+00,1.845285296440124512e+00
5.000000000000000000e+00,5.000000000000000000e+00,5.000000000000000000e+00,5.000000000000000000e+00,5.000000000000000000e+00,5.000000000000000000e+00,5.000000000000000000e+00,5.000000000000000000e+00,5.000000000000000000e+00,5.000000000000000000e+00,5.000000000000000000e+00,5.000000000000000000e+00,5.000000000000000000e+00,5.000000000000000000e+00,5.000000000000000000e+00,5.000000000000000000e+00,5.000000000000000000e+00,5.000000000000000000e+00,5.000000000000000000e+00,5.000000000000000000e+00,5.000000000000000000e+00,5.000000000000000000e+00,5.000000000000000000e+00,3.944605350494384766e+00,3.936480045318603516e+00,3.910450935363769531e+00,3.922691106796264648e+00,3.958558559417724609e+00,4.048528671264648438e+00,4.117362976074218750e+00,4.136987209320068359e+00,5.000000000000000000e+00,5.000000000000000000e+00,5.000000000000000000e+00,5.000000000000000000e+00,5.000000000000000000e+00,5.000000000000000000e+00,5.000000000000000000e+00,5.000000000000000000e+00,4.864554882049560547e+00,4.673392295837402344e+00,4.496685504913330078e+00,4.332855701446533203e+00,4.180543422698974609e+00,4.038575649261474609e+00,3.905933856964111328e+00,3.781727790832519531e+00,3.665177822113037109e+00,3.555596590042114258e+00,3.452378034591674805e+00,3.354983091354370117e+00,3.262932538986206055e+00,3.175798416137695312e+00,3.093197107315063477e+00,3.014783143997192383e+00,2.940247058868408203e+00,2.869307518005371094e+00,2.801710128784179688e+00,2.737224817276000977e+00,2.675641298294067383e+00,2.616767406463623047e+00,2.560428857803344727e+00,2.506465196609497070e+00,2.454729080200195312e+00,2.405085802078247070e+00,2.357410669326782227e+00,2.311588525772094727e+00,2.267513990402221680e+00,2.225088596343994141e+00,2.184221744537353516e+00,2.144828796386718750e+00,2.106832027435302734e+00,2.070157527923583984e+00,2.034738302230834961e+00,2.000510692596435547e+00,1.967415571212768555e+00,1.935397624969482422e+00,1.904405117034912109e+00,1.874389529228210449e+00,1.845305442810058594e+00
5.000000000000000000e+00,5.000000000000000000e+00,5.000000000000000000e+00,5.000000000000000000e+00,5.000000000000000000e+00,5.000000000000000000e+00,5.000000000000000000e+00,5.000000000000000000e+00,5.000000000000000000e+00,5.000000000000000000e+00,5.000000000000000000e+00,5.000000000000000000e+00,5.000000000000000000e+00,5.000000000000000000e+00,5.000000000000000000e+00,5.000000000000000000e+00,5.000000000000000000e+00,5.000000000000000000e+00,5.000000000000000000e+00,5.000000000000000000e+00,5.000000000000000000e+00,5.000000000000000000e+00,5.000000000000000000e+00,3.935329914093017578e+00,3.907852411270141602e+00,3.849222660064697266e+00,3.915864706039428711e+00,3.992903232574462891e+00,4.037028312683105469e+00,5.000000000000000000e+00,4.082902431488037109e+00,5.000000000000000000e+00,5.000000000000000000e+00,5.000000000000000000e+00,5.000000000000000000e+00,5.000000000000000000e+00,5.000000000000000000e+00,5.000000000000000000e+00,5.000000000000000000e+00,4.864693641662597656e+00,4.673520565032958984e+00,4.496804714202880859e+00,4.332965850830078125e+00,4.180645942687988281e+00,4.038671493530273438e+00,3.906023740768432617e+00,3.781811952590942383e+00,3.665256738662719727e+00,3.555671215057373047e+00,3.452447891235351562e+00,3.355049371719360352e+00,3.262995481491088867e+00,3.175857782363891602e+00,3.093253135681152344e+00,3.014836788177490234e+00,2.940297842025756836e+00,2.869355678558349609e+00,2.801756381988525391e+00,2.737268686294555664e+00,2.675683259963989258e+00,2.616807699203491211e+00,2.560467481613159180e+00,2.506502151489257812e+00,2.454764604568481445e+00,2.405119657516479492e+00,2.357443094253540039e+00,2.311619758605957031e+00,2.267544031143188477e+00,2.225117683410644531e+00,2.184249639511108398e+00,2.144855976104736328e+00,2.106858015060424805e+00,2.070182561874389648e+00,2.034762620925903320e+00,2.000534296035766602e+00,1.967438459396362305e+00,1.935419797897338867e+00,1.904426574707031250e+00,1.874410033226013184e+00,1.845325350761413574e+00
5.000000000000000000e+00,5.000000000000000000e+00,5.000000000000000000e+00,5.000000000000000000e+00,5.000000000000000000e+00,5.000000000000000000e+00,5.000000000000000000e+00,5.000000000000000000e+00,5.000000000000000000e+00,5.000000000000000000e+00,5.000000000000000000e+00,5.000000000000000000e+00,5.000000000000000000e+00,5.000000000000000000e+00,5.000000000000000000e+00,5.000000000000000000e+00,5.000000000000000000e+00,5.000000000000000000e+00,5.000000000000000000e+00,5.000000000000000000e+00,5.000000000000000000e+00,5.000000000000000000e+00,5.000000000000000000e+00,3.918211221694946289e+00,3.872301816940307617e+00,3.816711902618408203e+00,3.833500623703002930e+00,3.984934568405151367e+00,4.020835399627685547e+00,5.000000000000000000e+00,4.050441265106201172e+00,5.000000000000000000e+00,5.000000000000000000e+00,5.000000000000000000e+00,5.000000000000000000e+00,5.000000000000000000e+00,5.000000000000000000e+00,5.000000000000000000e+00,5.000000000000000000e+00,4.864832878112792969e+00,4.673648834228515625e+00,4.496923446655273438e+00,4.333076000213623047e+00,4.180748462677001953e+00,4.038767337799072266e+00,3.906113386154174805e+00,3.781895875930786133e+00,3.665335655212402344e+00,3.555745601654052734e+00,3.452517986297607422e+00,3.355115413665771484e+00,3.263057947158813477e+00,3.175916910171508789e+00,3.093309402465820312e+00,3.014890193939208984e+00,2.940348386764526367e+00,2.869404077529907227e+00,2.801802635192871094e+00,2.737312793731689453e+00,2.675725221633911133e+00,2.616847991943359375e+00,2.560505867004394531e+00,2.506539106369018555e+00,2.454800128936767578e+00,2.405153751373291016e+00,2.357475757598876953e+00,2.311651468276977539e+00,2.267574310302734375e+00,2.225146770477294922e+00,2.184278011322021484e+00,2.144882917404174805e+00,2.106884002685546875e+00,2.070207834243774414e+00,2.034786939620971680e+00,2.000557661056518555e+00,1.967461109161376953e+00,1.935441613197326660e+00,1.904447674751281738e+00,1.874430775642395020e+00,1.845345497131347656e+00
5.000000000000000000e+00,5.000000000000000000e+00,5.000000000000000000e+00,5.000000000000000000e+00,5.000000000000000000e+00,5.000000000000000000e+00,5.000000000000000000e+00,5.000000000000000000e+00,5.000000000000000000e+00,5.000000000000000000e+00,5.000000000000000000e+00,5.000000000000000000e+00,5.000000000000000000e+00,5.000000000000000000e+00,5.000000000000000000e+00,5.000000000000000000e+00,5.000000000000000000e+00,5.000000000000000000e+00,5.000000000000000000e+00,5.000000000000000000e+00,5.000000000000000000e+00,5.000000000000000000e+00,5.000000000000000000e+00,3.907301425933837891e+00,3.910125732421875000e+00,3.791144609451293945e+00,3.793578624725341797e+00,3.982577800750732422e+00,4.025029182434082031e+00,5.000000000000000000e+00,5.000000000000000000e+00,4.059082031250000000e+00,5.000000000000000000e+00,5.000000000000000000e+00,5.000000000000000000e+00,5.000000000000000000e+00,5.000000000000000000e+00,5.000000000000000000e+00,5.000000000000000000e+00,4.864971637725830078e+00,4.673777103424072266e+00,4.497042179107666016e+00,4.333186149597167969e+00,4.180851459503173828e+00,4.038863182067871094e+00,3.906203031539916992e+00,3.781980276107788086e+00,3.665414333343505859e+00,3.555819749832153320e+00,3.452588319778442383e+00,3.355181455612182617e+00,3.263120412826538086e+00,3.175976514816284180e+00,3.093365430831909180e+00,3.014943361282348633e+00,2.940399169921875000e+00,2.869452476501464844e+00,2.801848649978637695e+00,2.737356662750244141e+00,2.675767183303833008e+00,2.616888284683227539e+00,2.560544490814208984e+00,2.506576061248779297e+00,2.454835414886474609e+00,2.405187606811523438e+00,2.357508420944213867e+00,2.311682701110839844e+00,2.267604589462280273e+00,2.225175857543945312e+00,2.184305906295776367e+00,2.144909858703613281e+00,2.106910228729248047e+00,2.070233106613159180e+00,2.034811258316040039e+00,2.000581264495849609e+00,1.967483878135681152e+00,1.935463786125183105e+00,1.904469132423400879e+00,1.874451518058776855e+00,1.845365285873413086e+00
5.000000000000000000e+00,5.000000000000000000e+00,5.000000000000000000e+00,5.000000000000000000e+00,5.000000000000000000e+00,5.000000000000000000e+00,5.000000000000000000e+00,5.000000000000000000e+00,5.000000000000000000e+00,5.000000000000000000e+00,5.000000000000000000e+00,5.000000000000000000e+00,5.000000000000000000e+00,5.000000000000000000e+00,5.000000000000000000e+00,5.000000000000000000e+00,5.000000000000000000e+00,5.000000000000000000e+00,5.000000000000000000e+00,5.000000000000000000e+00,5.000000000000000000e+00,5.000000000000000000e+00,5.000000000000000000e+00,3.903806686401367188e+00,3.883371353149414062e+00,3.783932447433471680e+00,3.752223730087280273e+00,3.989359140396118164e+00,4.040928840637207031e+00,5.000000000000000000e+00,5.000000000000000000e+00,5.000000000000000000e+00,5.000000000000000000e+00,5.000000000000000000e+00,5.000000000000000000e+00,5.000000000000000000e+00,5.000000000000000000e+00,5.000000000000000000e+00,5.000000000000000000e+00,4.865110874176025391e+00,4.673905372619628906e+00,4.497160911560058594e+00,4.333296775817871094e+00,4.180953979492187500e+00,4.038959026336669922e+00,3.906292676925659180e+00,3.782064199447631836e+00,3.665493249893188477e+00,3.555893898010253906e+00,3.452658414840698242e+00,3.355247497558593750e+00,3.263182878494262695e+00,3.176035642623901367e+00,3.093421459197998047e+00,3.014996767044067383e+00,2.940450191497802734e+00,2.869500637054443359e+00,2.801894664764404297e+00,2.737401008605957031e+00,2.675809383392333984e+00,2.616928577423095703e+00,2.560583114624023438e+00,2.506612777709960938e+00,2.454870939254760742e+00,2.405221700668334961e+00,2.357541084289550781e+00,2.311714172363281250e+00,2.267634868621826172e+00,2.225204944610595703e+00,2.184333801269531250e+00,2.144937038421630859e+00,2.106936216354370117e+00,2.070258140563964844e+00,2.034835577011108398e+00,2.000604629516601562e+00,1.967506766319274902e+00,1.935485601425170898e+00,1.904490351676940918e+00,1.874472022056579590e+00,1.845385432243347168e+00
5.000000000000000000e+00,5.000000000000000000e+00,5.000000000000000000e+00,5.000000000000000000e+00,5.000000000000000000e+00,5.000000000000000000e+00,5.000000000000000000e+00,5.000000000000000000e+00,5.000000000000000000e+00,5.000000000000000000e+00,5.000000000000000000e+00,5.000000000000000000e+00,5.000000000000000000e+00,5.000000000000000000e+00,5.000000000000000000e+00,5.000000000000000000e+00,5.000000000000000000e+00,5.000000000000000000e+00,5.000000000000000000e+00,5.000000000000000000e+00,5.000000000000000000e+00,5.000000000000000000e+00,5.000000000000000000e+00,3.888261079788208008e+00,5.000000000000000000e+00,3.810809850692749023e+00,3.724313259124755859e+00,3.833642959594726562e+00,4.056085586547851562e+00,5.000000000000000000e+00,5.000000000000000000e+00,5.000000000000000000e+00,5.000000000000000000e+00,5.000000000000000000e+00,5.000000000000000000e+00,5.000000000000000000e+00,5.000000000000000000e+00,5.000000000000000000e+00,5.000000000000000000e+00,4.865250110626220703e+00,4.674033641815185547e+00,4.497280120849609375e+00,4.333406925201416016e+00,4.181056499481201172e+00,4.039054870605468750e+00,3.906382083892822266e+00,3.782148122787475586e+00,3.665572643280029297e+00,3.555968046188354492e+00,3.452728271484375000e+00,3.355313777923583984e+00,3.263245344161987305e+00,3.176094532012939453e+00,3.093477725982666016e+00,3.015050172805786133e+00,2.940500974655151367e+00,2.869549036026000977e+00,2.801940917968750000e+00,2.737444877624511719e+00,2.675851345062255859e+00,2.616968631744384766e+00,2.560621500015258789e+00,2.506649732589721680e+00,2.454906225204467773e+00,2.405255794525146484e+00,2.357573747634887695e+00,2.311745405197143555e+00,2.267664909362792969e+00,2.225234031677246094e+00,2.184361934661865234e+00,2.144964218139648438e+00,2.106962203979492188e+00,2.070283412933349609e+00,2.034860134124755859e+00,2.000628232955932617e+00,1.967529416084289551e+00,1.935507655143737793e+00,1.904511690139770508e+00,1.874492764472961426e+00,1.845405578613281250e+00
5.000000000000000000e+00,5.000000000000000000e+00,5.000000000000000000e+00,5.000000000000000000e+00,5.000000000000000000e+00,5.000000000000000000e+00,5.000000000000000000e+00,5.000000000000000000e+00,5.000000000000000000e+00,5.000000000000000000e+00,5.000000000000000000e+00,5.000000000000000000e+00,5.000000000000000000e+00,5.000000000000000000e+00,5.000000000000000000e+00,5.000000000000000000e+00,5.000000000000000000e+00,5.000000000000000000e+00,5.000000000000000000e+00,5.000000000000000000e+00,5.000000000000000000e+00,5.000000000000000000e+00,5.000000000000000000e+00,5.000000000000000000e+00,5.000000000000000000e+00,5.000000000000000000e+00,3.723639965057373047e+00,3.791085720062255859e+00,5.000000000000000000e+00,5.000000000000000000e+00,5.000000000000000000e+00,5.000000000000000000e+00,5.000000000000000000e+00,5.000000000000000000e+00,5.000000000000000000e+00,5.000000000000000000e+00,5.000000000000000000e+00,5.000000000000000000e+00,5.000000000000000000e+00,4.865388870239257812e+00,4.674162387847900391e+00,4.497398853302001953e+00,4.333517074584960938e+00,4.181159496307373047e+00,4.039150714874267578e+00,3.906471729278564453e+00,3.782232284545898438e+00,3.665651559829711914e+00,3.556042432785034180e+00,3.452798366546630859e+00,3.355380058288574219e+00,3.263307809829711914e+00,3.176153898239135742e+00,3.093534231185913086e+00,3.015103340148925781e+00,2.940551757812500000e+00,2.869597673416137695e+00,2.801986932754516602e+00,2.737488985061645508e+00,2.675893545150756836e+00,2.617008924484252930e+00,2.560660123825073242e+00,2.506686687469482422e+00,2.454941511154174805e+00,2.405289649963378906e+00,2.357606410980224609e+00,2.311776876449584961e+00,2.267695188522338867e+00,2.225263118743896484e+00,2.184389829635620117e+00,2.144991159439086914e+00,2.106988191604614258e+00,2.070308685302734375e+00,2.034884452819824219e+00,2.000651836395263672e+00,1.967552185058593750e+00,1.935529828071594238e+00,1.904532909393310547e+00,1.874513268470764160e+00,1.845425367355346680e+00
5.000000000000000000e+00,5.000000000000000000e+00,5.000000000000000000e+00,5.000000000000000000e+00,5.000000000000000000e+00,5.000000000000000000e+00,5.000000000000000000e+00,5.000000000000000000e+00,5.000000000000000000e+00,5.000000000000000000e+00,5.000000000000000000e+00,5.000000000000000000e+00,5.000000000000000000e+00,5.000000000000000000e+00,5.000000000000000000e+00,5.000000000000000000e+00,5.000000000000000000e+00,5.000000000000000000e+00,5.000000000000000000e+00,5.000000000000000000e+00,5.000000000000000000e+00,5.000000000000000000e+00,5.000000000000000000e+00,5.000000000000000000e+00,5.000000000000000000e+00,5.000000000000000000e+00,3.750303268432617188e+00,4.008182048797607422e+00,5.000000000000000000e+00,5.000000000000000000e+00,5.000000000000000000e+00,5.000000000000000000e+00,5.000000000000000000e+00,5.000000000000000000e+00,5.000000000000000000e+00,5.000000000000000000e+00,5.000000000000000000e+00,5.000000000000000000e+00,5.000000000000000000e+00,4.865526676177978516e+00,4.674290657043457031e+00,4.497517585754394531e+00,4.333627700805664062e+00,4.181262016296386719e+00,4.039246559143066406e+00,3.906561851501464844e+00,3.782316207885742188e+00,3.665730476379394531e+00,3.556116580963134766e+00,3.452868223190307617e+00,3.355445861816406250e+00,3.263370275497436523e+00,3.176213026046752930e+00,3.093590259552001953e+00,3.015156745910644531e+00,2.940602540969848633e+00,2.869646072387695312e+00,2.802032947540283203e+00,2.737532854080200195e+00,2.675935745239257812e+00,2.617048978805541992e+00,2.560698509216308594e+00,2.506723642349243164e+00,2.454977035522460938e+00,2.405323743820190430e+00,2.357639074325561523e+00,2.311808347702026367e+00,2.267725467681884766e+00,2.225292205810546875e+00,2.184417963027954102e+00,2.145018100738525391e+00,2.107014417648315430e+00,2.070333719253540039e+00,2.034908533096313477e+00,2.000675439834594727e+00,1.967574834823608398e+00,1.935551762580871582e+00,1.904554367065429688e+00,1.874534010887145996e+00,1.845445513725280762e+00
5.000000000000000000e+00,5.000000000000000000e+00,5.000000000000000000e+00,5.000000000000000000e+00,5.000000000000000000e+00,5.000000000000000000e+00,5.000000000000000000e+00,5.000000000000000000e+00,5.000000000000000000e+00,5.000000000000000000e+00,5.000000000000000000e+00,5.000000000000000000e+00,5.000000000000000000e+00,5.000000000000000000e+00,5.000000000000000000e+00,5.000000000000000000e+00,5.000000000000000000e+00,5.000000000000000000e+00,5.000000000000000000e+00,5.000000000000000000e+00,5.000000000000000000e+00,5.000000000000000000e+00,5.000000000000000000e+00,5.000000000000000000e+00,5.000000000000000000e+00,5.000000000000000000e+00,3.761037111282348633e+00,4.058500766754150391e+00,5.000000000000000000e+00,5.000000000000000000e+00,5.000000000000000000e+00,5.000000000000000000e+00,5.000000000000000000e+00,5.000000000000000000e+00,5.000000000000000000e+00,5.000000000000000000e+00,5.000000000000000000e+00,5.000000000000000000e+00,5.000000000000000000e+00,4.865665435791015625e+00,4.674417972564697266e+00,4.497636318206787109e+00,4.333737850189208984e+00,4.181365013122558594e+00,4.039342880249023438e+00,3.906651496887207031e+00,3.782400131225585938e+00,3.665809392929077148e+00,3.556191205978393555e+00,3.452938079833984375e+00,3.355512142181396484e+00,3.263432979583740234e+00,3.176272392272949219e+00,3.093646526336669922e+00,3.015210390090942383e+00,2.940653324127197266e+00,2.869694471359252930e+00,2.802079439163208008e+00,2.737576961517333984e+00,2.675977706909179688e+00,2.617089509963989258e+00,2.560737133026123047e+00,2.506760597229003906e+00,2.455012321472167969e+00,2.405357599258422852e+00,2.357671737670898438e+00,2.311839580535888672e+00,2.267755508422851562e+00,2.225321292877197266e+00,2.184445858001708984e+00,2.145045042037963867e+00,2.107040405273437500e+00,2.070358991622924805e+00,2.034932851791381836e+00,2.000698804855346680e+00,1.967597603797912598e+00,1.935573816299438477e+00,1.904575705528259277e+00,1.874554634094238281e+00,1.845465421676635742e+00
5.000000000000000000e+00,5.000000000000000000e+00,5.000000000000000000e+00,5.000000000000000000e+00,5.000000000000000000e+00,5.000000000000000000e+00,5.000000000000000000e+00,5.000000000000000000e+00,5.000000000000000000e+00,5.000000000000000000e+00,5.000000000000000000e+00,5.000000000000000000e+00,5.000000000000000000e+00,5.000000000000000000e+00,5.000000000000000000e+00,5.000000000000000000e+00,5.000000000000000000e+00,5.000000000000000000e+00,5.000000000000000000e+00,5.000000000000000000e+00,5.000000000000000000e+00,5.000000000000000000e+00,5.000000000000000000e+00,5.000000000000000000e+00,5.000000000000000000e+00,5.000000000000000000e+00,3.762704849243164062e+00,5.000000000000000000e+00,5.000000000000000000e+00,5.000000000000000000e+00,5.000000000000000000e+00,5.000000000000000000e+00,5.000000000000000000e+00,5.000000000000000000e+00,5.000000000000000000e+00,5.000000000000000000e+00,5.000000000000000000e+00,5.000000000000000000e+00,5.000000000000000000e+00,4.865804195404052734e+00,4.674545764923095703e+00,4.497755527496337891e+00,4.333848476409912109e+00,4.181467533111572266e+00,4.039438247680664062e+00,3.906740903854370117e+00,3.782484054565429688e+00,3.665888309478759766e+00,3.556265354156494141e+00,3.453007936477661133e+00,3.355578184127807617e+00,3.263495683670043945e+00,3.176331520080566406e+00,3.093702793121337891e+00,3.015263795852661133e+00,2.940704107284545898e+00,2.869742631912231445e+00,2.802125453948974609e+00,2.737620830535888672e+00,2.676019668579101562e+00,2.617129802703857422e+00,2.560775518417358398e+00,2.506797552108764648e+00,2.455047845840454102e+00,2.405391693115234375e+00,2.357704401016235352e+00,2.311871051788330078e+00,2.267785787582397461e+00,2.225350379943847656e+00,2.184474229812622070e+00,2.145072221755981445e+00,2.107066631317138672e+00,2.070384263992309570e+00,2.034957170486450195e+00,2.000722408294677734e+00,1.967620253562927246e+00,1.935595750808715820e+00,1.904596924781799316e+00,1.874575257301330566e+00,1.845485448837280273e+00
5.000000000000000000e+00,5.000000000000000000e+00,5.000000000000000000e+00,5.000000000000000000e+00,5.000000000000000000e+00,5.000000000000000000e+00,5.000000000000000000e+00,5.000000000000000000e+00,5.000000000000000000e+00,5.000000000000000000e+00,5.000000000000000000e+00,5.000000000000000000e+00,5.000000000000000000e+00,5.000000000000000000e+00,5.000000000000000000e+00,5.000000000000000000e+00,5.000000000000000000e+00,5.000000000000000000e+00,5.000000000000000000e+00,5.000000000000000000e+00,5.000000000000000000e+00,5.000000000000000000e+00,5.000000000000000000e+00,5.000000000000000000e+00,5.000000000000000000e+00,5.000000000000000000e+00,3.773119926452636719e+00,5.000000000000000000e+00,5.000000000000000000e+00,5.000000000000000000e+00,5.000000000000000000e+00,5.000000000000000000e+00,5.000000000000000000e+00,5.000000000000000000e+00,5.000000000000000000e+00,5.000000000000000000e+00,5.000000000000000000e+00,5.000000000000000000e+00,5.000000000000000000e+00,4.865943431854248047e+00,4.674674034118652344e+00,4.497872829437255859e+00,4.333958625793457031e+00,4.181570529937744141e+00,4.039534091949462891e+00,3.906830549240112305e+00,3.782568693161010742e+00,3.665966749191284180e+00,3.556339502334594727e+00,3.453078508377075195e+00,3.355644226074218750e+00,3.263558149337768555e+00,3.176391124725341797e+00,3.093758821487426758e+00,3.015317201614379883e+00,2.940755128860473633e+00,2.869791030883789062e+00,2.802171468734741211e+00,2.737664937973022461e+00,2.676061868667602539e+00,2.617169857025146484e+00,2.560814142227172852e+00,2.506834268569946289e+00,2.455083370208740234e+00,2.405425548553466797e+00,2.357737064361572266e+00,2.311902523040771484e+00,2.267816066741943359e+00,2.225379467010498047e+00,2.184502124786376953e+00,2.145099163055419922e+00,2.107092618942260742e+00,2.070409297943115234e+00,2.034981489181518555e+00,2.000745773315429688e+00,1.967643141746520996e+00,1.935617804527282715e+00,1.904618263244628906e+00,1.874595999717712402e+00,1.845505356788635254e+00
5.000000000000000000e+00,5.000000000000000000e+00,5.000000000000000000e+00,5.000000000000000000e+00,5.000000000000000000e+00,5.000000000000000000e+00,5.000000000000000000e+00,5.000000000000000000e+00,5.000000000000000000e+00,5.000000000000000000e+00,5.000000000000000000e+00,5.000000000000000000e+00,5.000000000000000000e+00,5.000000000000000000e+00,5.000000000000000000e+00,5.000000000000000000e+00,5.000000000000000000e+00,5.000000000000000000e+00,5.000000000000000000e+00,5.000000000000000000e+00,5.000000000000000000e+00,5.000000000000000000e+00,5.000000000000000000e+00,5.000000000000000000e+00,5.000000000000000000e+00,4.150974273681640625e+00,3.780261993408203125e+00,5.000000000000000000e+00,5.000000000000000000e+00,5.000000000000000000e+00,5.000000000000000000e+00,5.000000000000000000e+00,5.000000000000000000e+00,5.000000000000000000e+00,5.000000000000000000e+00,5.000000000000000000e+00,5.000000000000000000e+00,5.000000000000000000e+00,5.000000000000000000e+00,4.866082191467285156e+00,4.674802303314208984e+00,4.497991561889648438e+00,4.334067821502685547e+00,4.181673049926757812e+00,4.039629936218261719e+00,3.906920194625854492e+00,3.782652378082275391e+00,3.666045665740966797e+00,3.556413888931274414e+00,3.453148365020751953e+00,3.355710506439208984e+00,3.263620615005493164e+00,3.176450252532958984e+00,3.093815088272094727e+00,3.015370607376098633e+00,2.940805912017822266e+00,2.869839429855346680e+00,2.802217721939086914e+00,2.737709283828735352e+00,2.676103830337524414e+00,2.617210149765014648e+00,2.560852766036987305e+00,2.506871223449707031e+00,2.455118656158447266e+00,2.405459642410278320e+00,2.357769727706909180e+00,2.311933994293212891e+00,2.267846345901489258e+00,2.225408554077148438e+00,2.184530258178710938e+00,2.145126342773437500e+00,2.107118606567382812e+00,2.070434570312500000e+00,2.035005807876586914e+00,2.000769376754760742e+00,1.967665910720825195e+00,1.935639739036560059e+00,1.904639482498168945e+00,1.874616622924804688e+00,1.845525503158569336e+00
5.000000000000000000e+00,5.000000000000000000e+00,5.000000000000000000e+00,5.000000000000000000e+00,5.000000000000000000e+00,5.000000000000000000e+00,5.000000000000000000e+00,5.000000000000000000e+00,5.000000000000000000e+00,5.000000000000000000e+00,5.000000000000000000e+00,5.000000000000000000e+00,5.000000000000000000e+00,5.000000000000000000e+00,5.000000000000000000e+00,5.000000000000000000e+00,5.000000000000000000e+00,5.000000000000000000e+00,5.000000000000000000e+00,5.000000000000000000e+00,5.000000000000000000e+00,5.000000000000000000e+00,5.000000000000000000e+00,5.000000000000000000e+00,5.000000000000000000e+00,4.173392295837402344e+00,3.806098937988281250e+00,5.000000000000000000e+00,5.000000000000000000e+00,5.000000000000000000e+00,5.000000000000000000e+00,5.000000000000000000e+00,5.000000000000000000e+00,5.000000000000000000e+00,5.000000000000000000e+00,5.000000000000000000e+00,5.000000000000000000e+00,5.000000000000000000e+00,5.000000000000000000e+00,4.866220951080322266e+00,4.674930095672607422e+00,4.498109817504882812e+00,4.334177970886230469e+00,4.181774616241455078e+00,4.039726257324218750e+00,3.907009601593017578e+00,3.782736301422119141e+00,3.666125059127807617e+00,3.556488037109375000e+00,3.453218460083007812e+00,3.355776786804199219e+00,3.263683319091796875e+00,3.176509618759155273e+00,3.093871355056762695e+00,3.015424013137817383e+00,2.940856695175170898e+00,2.869887828826904297e+00,2.802263736724853516e+00,2.737753152847290039e+00,2.676145792007446289e+00,2.617250442504882812e+00,2.560891389846801758e+00,2.506908178329467773e+00,2.455154180526733398e+00,2.405493736267089844e+00,2.357802391052246094e+00,2.311965227127075195e+00,2.267876625061035156e+00,2.225437641143798828e+00,2.184558153152465820e+00,2.145153284072875977e+00,2.107144832611083984e+00,2.070459604263305664e+00,2.035030364990234375e+00,2.000792741775512695e+00,1.967688560485839844e+00,1.935661792755126953e+00,1.904660940170288086e+00,1.874637365341186523e+00,1.845545649528503418e+00
4.875823497772216797e+00,4.874612331390380859e+00,4.873401641845703125e+00,4.872191905975341797e+00,4.870982646942138672e+00,4.869773387908935547e+00,4.868565559387207031e+00,4.867358207702636719e+00,4.866150856018066406e+00,4.864944934844970703e+00,4.863739013671875000e+00,4.862533569335937500e+00,4.861329078674316406e+00,4.860125541687011719e+00,4.858922004699707031e+00,4.857719421386718750e+00,4.856517314910888672e+00,4.855315685272216797e+00,4.854114532470703125e+00,4.852914333343505859e+00,4.851714611053466797e+00,4.850515365600585938e+00,4.849316596984863281e+00,4.848118782043457031e+00,4.846920967102050781e+00,4.103219509124755859e+00,3.749871015548706055e+00,3.735657215118408203e+00,4.842137813568115234e+00,4.840942859649658203e+00,4.839748859405517578e+00,4.838555812835693359e+00,4.837363243103027344e+00,4.836171150207519531e+00,4.834979534149169922e+00,4.833788394927978516e+00,4.832598209381103516e+00,4.831408500671386719e+00,4.830219268798828125e+00,4.829030513763427734e+00,4.675058841705322266e+00,4.498228549957275391e+00,4.334288120269775391e+00,4.181877613067626953e+00,4.039822101593017578e+00,3.907099246978759766e+00,3.782820463180541992e+00,3.666203975677490234e+00,3.556562423706054688e+00,3.453288555145263672e+00,3.355843067169189453e+00,3.263745784759521484e+00,3.176568746566772461e+00,3.093927860260009766e+00,3.015477418899536133e+00,2.940907478332519531e+00,2.869936466217041016e+00,2.802309751510620117e+00,2.737797260284423828e+00,2.676188230514526367e+00,2.617290496826171875e+00,2.560929775238037109e+00,2.506945133209228516e+00,2.455189466476440430e+00,2.405527591705322266e+00,2.357835054397583008e+00,2.311996698379516602e+00,2.267906665802001953e+00,2.225466728210449219e+00,2.184586286544799805e+00,2.145180463790893555e+00,2.107170820236206055e+00,2.070484876632690430e+00,2.035054683685302734e+00,2.000816345214843750e+00,1.967711448669433594e+00,1.935683965682983398e+00,1.904682040214538574e+00,1.874657869338989258e+00,1.845565438270568848e+00
3.778636455535888672e+00,3.777909040451049805e+00,3.777181863784790039e+00,3.776454925537109375e+00,3.775728464126586914e+00,3.775002241134643555e+00,3.774276018142700195e+00,3.773550271987915039e+00,3.772824764251708984e+00,3.772099494934082031e+00,3.771374940872192383e+00,3.770650148391723633e+00,3.769925832748413086e+00,3.769201517105102539e+00,3.768477678298950195e+00,3.767754077911376953e+00,3.767031192779541016e+00,3.766308307647705078e+00,3.765585422515869141e+00,3.764863014221191406e+00,3.764140844345092773e+00,3.763418912887573242e+00,3.762697219848632812e+00,3.761976242065429688e+00,3.761255025863647461e+00,3.760534286499023438e+00,3.759813785552978516e+00,3.759093523025512695e+00,3.758373498916625977e+00,3.757654190063476562e+00,3.756934881210327148e+00,3.756215572357177734e+00,3.755496740341186523e+00,3.754778146743774414e+00,3.754059791564941406e+00,3.753342151641845703e+00,3.752624273300170898e+00,3.751906871795654297e+00,3.751189470291137695e+00,3.750472545623779297e+00,3.749755859375000000e+00,3.749039888381958008e+00,3.748323678970336914e+00,3.747607707977294922e+00,3.746892213821411133e+00,3.746176958084106445e+00,3.745461940765380859e+00,3.666282892227172852e+00,3.556637048721313477e+00,3.453358411788940430e+00,3.355909109115600586e+00,3.263808250427246094e+00,3.176628112792968750e+00,3.093983888626098633e+00,3.015530824661254883e+00,2.940958261489868164e+00,2.869984626770019531e+00,2.802356004714965820e+00,2.737841129302978516e+00,2.676230192184448242e+00,2.617330789566040039e+00,2.560968399047851562e+00,2.506982088088989258e+00,2.455224752426147461e+00,2.405561685562133789e+00,2.357867717742919922e+00,2.312028169631958008e+00,2.267936944961547852e+00,2.225496053695678711e+00,2.184614181518554688e+00,2.145207405090332031e+00,2.107197046279907227e+00,2.070510149002075195e+00,2.035079002380371094e+00,2.000839948654174805e+00,1.967734098434448242e+00,1.935705780982971191e+00,1.904703497886657715e+00,1.874678611755371094e+00,1.845585584640502930e+00
3.084535837173461914e+00,3.084051132202148438e+00,3.083566427230834961e+00,3.083081960678100586e+00,3.082597494125366211e+00,3.082113742828369141e+00,3.081629753112792969e+00,3.081145763397216797e+00,3.080662012100219727e+00,3.080178499221801758e+00,3.079694986343383789e+00,3.079211950302124023e+00,3.078728914260864258e+00,3.078245878219604492e+00,3.077763080596923828e+00,3.077280521392822266e+00,3.076797962188720703e+00,3.076315879821777344e+00,3.075833559036254883e+00,3.075351476669311523e+00,3.074869632720947266e+00,3.074387788772583008e+00,3.073906183242797852e+00,3.073425054550170898e+00,3.072943687438964844e+00,3.072462558746337891e+00,3.071981668472290039e+00,3.071500778198242188e+00,3.071020126342773438e+00,3.070539712905883789e+00,3.070059299468994141e+00,3.069579124450683594e+00,3.069098949432373047e+00,3.068619012832641602e+00,3.068139314651489258e+00,3.067659616470336914e+00,3.067180395126342773e+00,3.066700935363769531e+00,3.066221714019775391e+00,3.065742731094360352e+00,3.065263986587524414e+00,3.064785242080688477e+00,3.064306974411010742e+00,3.063828468322753906e+00,3.063350200653076172e+00,3.062871932983398438e+00,3.062393903732299805e+00,3.061916112899780273e+00,3.061438560485839844e+00,3.060961008071899414e+00,3.060483694076538086e+00,3.060006380081176758e+00,3.059529304504394531e+00,3.059052228927612305e+00,3.015584468841552734e+00,2.941009044647216797e+00,2.870033025741577148e+00,2.802402257919311523e+00,2.737885236740112305e+00,2.676272153854370117e+00,2.617371320724487305e+00,2.561006784439086914e+00,2.507019042968750000e+00,2.455260276794433594e+00,2.405595541000366211e+00,2.357900381088256836e+00,2.312059402465820312e+00,2.267967224121093750e+00,2.225525140762329102e+00,2.184642314910888672e+00,2.145234346389770508e+00,2.107223033905029297e+00,2.070535182952880859e+00,2.035103321075439453e+00,2.000863552093505859e+00,1.967756867408752441e+00,1.935727834701538086e+00,1.904724955558776855e+00,1.874699115753173828e+00,1.845605492591857910e+00
2.605862855911254883e+00,2.605516910552978516e+00,2.605170965194702148e+00,2.604825019836425781e+00,2.604479312896728516e+00,2.604133844375610352e+00,2.603788375854492188e+00,2.603442907333374023e+00,2.603097438812255859e+00,2.602752208709716797e+00,2.602406978607177734e+00,2.602061986923217773e+00,2.601717233657836914e+00,2.601372241973876953e+00,2.601027488708496094e+00,2.600682735443115234e+00,2.600337982177734375e+00,2.599993467330932617e+00,2.599649190902709961e+00,2.599304914474487305e+00,2.598960638046264648e+00,2.598616361618041992e+00,2.598272323608398438e+00,2.597928285598754883e+00,2.597584486007690430e+00,2.597240686416625977e+00,2.596897125244140625e+00,2.596553325653076172e+00,2.596209764480590820e+00,2.595866441726684570e+00,2.595523357391357422e+00,2.595180034637451172e+00,2.594836711883544922e+00,2.594493627548217773e+00,2.594150781631469727e+00,2.593807697296142578e+00,2.593465089797973633e+00,2.593122482299804688e+00,2.592779874801635742e+00,2.592437267303466797e+00,2.592094898223876953e+00,2.591752529144287109e+00,2.591410160064697266e+00,2.591068267822265625e+00,2.590726137161254883e+00,2.590384006500244141e+00,2.590042114257812500e+00,2.589700460433959961e+00,2.589358568191528320e+00,2.589017152786254883e+00,2.588675737380981445e+00,2.588334083557128906e+00,2.587992906570434570e+00,2.587651491165161133e+00,2.587310314178466797e+00,2.586969375610351562e+00,2.586628437042236328e+00,2.586287498474121094e+00,2.585946559906005859e+00,2.585605859756469727e+00,2.585265398025512695e+00,2.561045408248901367e+00,2.507055997848510742e+00,2.455295801162719727e+00,2.405629634857177734e+00,2.357933044433593750e+00,2.312091112136840820e+00,2.267997264862060547e+00,2.225554227828979492e+00,2.184670448303222656e+00,2.145261526107788086e+00,2.107249259948730469e+00,2.070560455322265625e+00,2.035127639770507812e+00,2.000886917114257812e+00,1.967779755592346191e+00,1.935749769210815430e+00,1.904746055603027344e+00,1.874719858169555664e+00,1.845625638961791992e+00
2.255795001983642578e+00,2.255535840988159180e+00,2.255276679992675781e+00,2.255017757415771484e+00,2.254758834838867188e+00,2.254499912261962891e+00,2.254240989685058594e+00,2.253982067108154297e+00,2.253723382949829102e+00,2.253464698791503906e+00,2.253206014633178711e+00,2.252947568893432617e+00,2.252689123153686523e+00,2.252430677413940430e+00,2.252172231674194336e+00,2.251913785934448242e+00,2.251655578613281250e+00,2.251397371292114258e+00,2.251139163970947266e+00,2.250881195068359375e+00,2.250623226165771484e+00,2.250365257263183594e+00,2.250107049942016602e+00,2.249849081039428711e+00,2.249591350555419922e+00,2.249333620071411133e+00,2.249075651168823242e+00,2.248817920684814453e+00,2.248560190200805664e+00,2.248302698135375977e+00,2.248044967651367188e+00,2.247787714004516602e+00,2.247530221939086914e+00,2.247272729873657227e+00,2.247015476226806641e+00,2.246758222579956055e+00,2.246500968933105469e+00,2.246243953704833984e+00,2.245986938476562500e+00,2.245729923248291016e+00,2.245472908020019531e+00,2.245215892791748047e+00,2.244959115982055664e+00,2.244702100753784180e+00,2.244445562362670898e+00,2.244189023971557617e+00,2.243932247161865234e+00,2.243675708770751953e+00,2.243419170379638672e+00,2.243162631988525391e+00,2.242906570434570312e+00,2.242650032043457031e+00,2.242393732070922852e+00,2.242137670516967773e+00,2.241881370544433594e+00,2.241625308990478516e+00,2.241369485855102539e+00,2.241113424301147461e+00,2.240857601165771484e+00,2.240601539611816406e+00,2.240345954895019531e+00,2.240090131759643555e+00,2.239834547042846680e+00,2.239578962326049805e+00,2.239323377609252930e+00,2.239067792892456055e+00,2.238812208175659180e+00,2.238556861877441406e+00,2.225583314895629883e+00,2.184698343276977539e+00,2.145288467407226562e+00,2.107275247573852539e+00,2.070585727691650391e+00,2.035151958465576172e+00,2.000910520553588867e+00,1.967802405357360840e+00,1.935771942138671875e+00,1.904767513275146484e+00,1.874740600585937500e+00,1.845645427703857422e+00
1.988638877868652344e+00,1.988437414169311523e+00,1.988235950469970703e+00,1.988034725189208984e+00,1.987833261489868164e+00,1.987632155418395996e+00,1.987430930137634277e+00,1.987229824066162109e+00,1.987028598785400391e+00,1.986827611923217773e+00,1.986626505851745605e+00,1.986425399780273438e+00,1.986224532127380371e+00,1.986023545265197754e+00,1.985822796821594238e+00,1.985621809959411621e+00,1.985421180725097656e+00,1.985220313072204590e+00,1.985019564628601074e+00,1.984818935394287109e+00,1.984618186950683594e+00,1.984417676925659180e+00,1.984217047691345215e+00,1.984016656875610352e+00,1.983816146850585938e+00,1.983615756034851074e+00,1.983415246009826660e+00,1.983214855194091797e+00,1.983014702796936035e+00,1.982814311981201172e+00,1.982614159584045410e+00,1.982413887977600098e+00,1.982213854789733887e+00,1.982013583183288574e+00,1.981813430786132812e+00,1.981613516807556152e+00,1.981413483619689941e+00,1.981213688850402832e+00,1.981013655662536621e+00,1.980813860893249512e+00,1.980613946914672852e+00,1.980414032936096191e+00,1.980214476585388184e+00,1.980014562606811523e+00,1.979815125465393066e+00,1.979615330696105957e+00,1.979415893554687500e+00,1.979216217994689941e+00,1.979016780853271484e+00,1.978817224502563477e+00,1.978617787361145020e+00,1.978418469429016113e+00,1.978219032287597656e+00,1.978019833564758301e+00,1.977820396423339844e+00,1.977621316909790039e+00,1.977422118186950684e+00,1.977222800254821777e+00,1.977023839950561523e+00,1.976824641227722168e+00,1.976625800132751465e+00,1.976426601409912109e+00,1.976227879524230957e+00,1.976028800010681152e+00,1.975830078125000000e+00,1.975631117820739746e+00,1.975432276725769043e+00,1.975233674049377441e+00,1.975034832954406738e+00,1.974836230278015137e+00,1.974637508392333984e+00,1.974439144134521484e+00,1.974240422248840332e+00,1.974041819572448730e+00,1.973843455314636230e+00,1.967825174331665039e+00,1.935793757438659668e+00,1.904788732528686523e+00,1.874761104583740234e+00,1.845665574073791504e+00
1.778061151504516602e+00,1.777900099754333496e+00,1.777739167213439941e+00,1.777578115463256836e+00,1.777417302131652832e+00,1.777256250381469727e+00,1.777095317840576172e+00,1.776934623718261719e+00,1.776773691177368164e+00,1.776612997055053711e+00,1.776452183723449707e+00,1.776291608810424805e+00,1.776130795478820801e+00,1.775970220565795898e+00,1.775809526443481445e+00,1.775648832321166992e+00,1.775488376617431641e+00,1.775327682495117188e+00,1.775167346000671387e+00,1.775006771087646484e+00,1.774846315383911133e+00,1.774685859680175781e+00,1.774525403976440430e+00,1.774365067481994629e+00,1.774204611778259277e+00,1.774044394493103027e+00,1.773884057998657227e+00,1.773723840713500977e+00,1.773563623428344727e+00,1.773403286933898926e+00,1.773243188858032227e+00,1.773082971572875977e+00,1.772922992706298828e+00,1.772762775421142578e+00,1.772602796554565430e+00,1.772442698478698730e+00,1.772282838821411133e+00,1.772122740745544434e+00,1.771962761878967285e+00,1.771802902221679688e+00,1.771642923355102539e+00,1.771483182907104492e+00,1.771323323249816895e+00,1.771163582801818848e+00,1.771003723144531250e+00,1.770843863487243652e+00,1.770684242248535156e+00,1.770524501800537109e+00,1.770364999771118164e+00,1.770205259323120117e+00,1.770045757293701172e+00,1.769886136054992676e+00,1.769726634025573730e+00,1.769567012786865234e+00,1.769407510757446289e+00,1.769248127937316895e+00,1.769088625907897949e+00,1.768929362297058105e+00,1.768769860267639160e+00,1.768610596656799316e+00,1.768451213836669922e+00,1.768291831016540527e+00,1.768132686614990234e+00,1.767973423004150391e+00,1.767814278602600098e+00,1.767655014991760254e+00,1.767495989799499512e+00,1.767336845397949219e+00,1.767177820205688477e+00,1.767018675804138184e+00,1.766859650611877441e+00,1.766700744628906250e+00,1.766541719436645508e+00,1.766382813453674316e+00,1.766223907470703125e+00,1.766065120697021484e+00,1.765906095504760742e+00,1.765747189521789551e+00,1.765588521957397461e+00,1.765429735183715820e+00
1.607809543609619141e+00,1.607677936553955078e+00,1.607546329498291016e+00,1.607414603233337402e+00,1.607283115386962891e+00,1.607151389122009277e+00,1.607020020484924316e+00,1.606888413429260254e+00,1.606756925582885742e+00,1.606625437736511230e+00,1.606493830680847168e+00,1.606362462043762207e+00,1.606230974197387695e+00,1.606099724769592285e+00,1.605968236923217773e+00,1.605836987495422363e+00,1.605705618858337402e+00,1.605574369430541992e+00,1.605443000793457031e+00,1.605311632156372070e+00,1.605180501937866211e+00,1.605049133300781250e+00,1.604918003082275391e+00,1.604786753654479980e+00,1.604655742645263672e+00,1.604524493217468262e+00,1.604393362998962402e+00,1.604262351989746094e+00,1.604131102561950684e+00,1.604000210762023926e+00,1.603869080543518066e+00,1.603738188743591309e+00,1.603607058525085449e+00,1.603476047515869141e+00,1.603345155715942383e+00,1.603214144706726074e+00,1.603083372116088867e+00,1.602952361106872559e+00,1.602821588516235352e+00,1.602690696716308594e+00,1.602559924125671387e+00,1.602429032325744629e+00,1.602298259735107422e+00,1.602167606353759766e+00,1.602036714553833008e+00,1.601906180381774902e+00,1.601775407791137695e+00,1.601644754409790039e+00,1.601514101028442383e+00,1.601383328437805176e+00,1.601252794265747070e+00,1.601122140884399414e+00,1.600991725921630859e+00,1.600861072540283203e+00,1.600730657577514648e+00,1.600600123405456543e+00,1.600469708442687988e+00,1.600339174270629883e+00,1.600208640098571777e+00,1.600078344345092773e+00,1.599947810173034668e+00,1.599817514419555664e+00,1.599687099456787109e+00,1.599556803703308105e+00,1.599426507949829102e+00,1.599296092987060547e+00,1.599165916442871094e+00,1.599035620689392090e+00,1.598905444145202637e+00,1.598775267601013184e+00,1.598645091056823730e+00,1.598514914512634277e+00,1.598384857177734375e+00,1.598254680633544922e+00,1.598124504089355469e+00,1.597994446754455566e+00,1.597864389419555664e+00,1.597734451293945312e+00,1.597604274749755859e+00,1.597474455833435059e+00
1.467312574386596680e+00,1.467202901840209961e+00,1.467093229293823242e+00,1.466983675956726074e+00,1.466874003410339355e+00,1.466764569282531738e+00,1.466654896736145020e+00,1.466545224189758301e+00,1.466435790061950684e+00,1.466326236724853516e+00,1.466216802597045898e+00,1.466107249259948730e+00,1.465997815132141113e+00,1.465888261795043945e+00,1.465778827667236328e+00,1.465669393539428711e+00,1.465559959411621094e+00,1.465450644493103027e+00,1.465341210365295410e+00,1.465231895446777344e+00,1.465122461318969727e+00,1.465013265609741211e+00,1.464903831481933594e+00,1.464794516563415527e+00,1.464685320854187012e+00,1.464576005935668945e+00,1.464466810226440430e+00,1.464357495307922363e+00,1.464248418807983398e+00,1.464139103889465332e+00,1.464029908180236816e+00,1.463920831680297852e+00,1.463811635971069336e+00,1.463702559471130371e+00,1.463593363761901855e+00,1.463484287261962891e+00,1.463375210762023926e+00,1.463266015052795410e+00,1.463157057762145996e+00,1.463047981262207031e+00,1.462939023971557617e+00,1.462829947471618652e+00,1.462721109390258789e+00,1.462612032890319824e+00,1.462503194808959961e+00,1.462394118309020996e+00,1.462285161018371582e+00,1.462176322937011719e+00,1.462067365646362305e+00,1.461958646774291992e+00,1.461849689483642578e+00,1.461740970611572266e+00,1.461632013320922852e+00,1.461523175239562988e+00,1.461414456367492676e+00,1.461305618286132812e+00,1.461196899414062500e+00,1.461088180541992188e+00,1.460979461669921875e+00,1.460870742797851562e+00,1.460762143135070801e+00,1.460653305053710938e+00,1.460544586181640625e+00,1.460436105728149414e+00,1.460327386856079102e+00,1.460218787193298340e+00,1.460110187530517578e+00,1.460001707077026367e+00,1.459892988204956055e+00,1.459784388542175293e+00,1.459675908088684082e+00,1.459567427635192871e+00,1.459458947181701660e+00,1.459350466728210449e+00,1.459241986274719238e+00,1.459133505821228027e+00,1.459025025367736816e+00,1.458916664123535156e+00,1.458808183670043945e+00,1.458699822425842285e+00
1.349396705627441406e+00,1.349303960800170898e+00,1.349211215972900391e+00,1.349118590354919434e+00,1.349025845527648926e+00,1.348933100700378418e+00,1.348840475082397461e+00,1.348747849464416504e+00,1.348655104637145996e+00,1.348562598228454590e+00,1.348469853401184082e+00,1.348377227783203125e+00,1.348284721374511719e+00,1.348192095756530762e+00,1.348099470138549805e+00,1.348006963729858398e+00,1.347914457321166992e+00,1.347821831703186035e+00,1.347729325294494629e+00,1.347636818885803223e+00,1.347544312477111816e+00,1.347451806068420410e+00,1.347359418869018555e+00,1.347266912460327148e+00,1.347174525260925293e+00,1.347082138061523438e+00,1.346989631652832031e+00,1.346897125244140625e+00,1.346804857254028320e+00,1.346712350845336914e+00,1.346620082855224609e+00,1.346527695655822754e+00,1.346435427665710449e+00,1.346343040466308594e+00,1.346250653266906738e+00,1.346158385276794434e+00,1.346065998077392578e+00,1.345973849296569824e+00,1.345881462097167969e+00,1.345789313316345215e+00,1.345697045326232910e+00,1.345604777336120605e+00,1.345512628555297852e+00,1.345420360565185547e+00,1.345328211784362793e+00,1.345235943794250488e+00,1.345143795013427734e+00,1.345051646232604980e+00,1.344959616661071777e+00,1.344867348670959473e+00,1.344775199890136719e+00,1.344683170318603516e+00,1.344591021537780762e+00,1.344498991966247559e+00,1.344406843185424805e+00,1.344314932823181152e+00,1.344222784042358398e+00,1.344130754470825195e+00,1.344038724899291992e+00,1.343946695327758789e+00,1.343854784965515137e+00,1.343762755393981934e+00,1.343670845031738281e+00,1.343578815460205078e+00,1.343486905097961426e+00,1.343394994735717773e+00,1.343302965164184570e+00,1.343211174011230469e+00,1.343119144439697266e+00,1.343027353286743164e+00,1.342935442924499512e+00,1.342843651771545410e+00,1.342751741409301758e+00,1.342659950256347656e+00,1.342568159103393555e+00,1.342476248741149902e+00,1.342384576797485352e+00,1.342292666435241699e+00,1.342200994491577148e+00,1.342109203338623047e+00
1.249022960662841797e+00,1.248943567276000977e+00,1.248864173889160156e+00,1.248784661293029785e+00,1.248705267906188965e+00,1.248625874519348145e+00,1.248546361923217773e+00,1.248467087745666504e+00,1.248387575149536133e+00,1.248308300971984863e+00,1.248228907585144043e+00,1.248149633407592773e+00,1.248070240020751953e+00,1.247990965843200684e+00,1.247911572456359863e+00,1.247832179069519043e+00,1.247752904891967773e+00,1.247673630714416504e+00,1.247594356536865234e+00,1.247515082359313965e+00,1.247435808181762695e+00,1.247356534004211426e+00,1.247277259826660156e+00,1.247198104858398438e+00,1.247118830680847168e+00,1.247039675712585449e+00,1.246960401535034180e+00,1.246881246566772461e+00,1.246801972389221191e+00,1.246722817420959473e+00,1.246643662452697754e+00,1.246564507484436035e+00,1.246485352516174316e+00,1.246406197547912598e+00,1.246327161788940430e+00,1.246248006820678711e+00,1.246168971061706543e+00,1.246089816093444824e+00,1.246010661125183105e+00,1.245931625366210938e+00,1.245852589607238770e+00,1.245773553848266602e+00,1.245694398880004883e+00,1.245615482330322266e+00,1.245536446571350098e+00,1.245457291603088379e+00,1.245378375053405762e+00,1.245299339294433594e+00,1.245220422744750977e+00,1.245141386985778809e+00,1.245062470436096191e+00,1.244983553886413574e+00,1.244904637336730957e+00,1.244825601577758789e+00,1.244746685028076172e+00,1.244667768478393555e+00,1.244588851928710938e+00,1.244510054588317871e+00,1.244431138038635254e+00,1.244352221488952637e+00,1.244273424148559570e+00,1.244194507598876953e+00,1.244115710258483887e+00,1.244036793708801270e+00,1.243957996368408203e+00,1.243879199028015137e+00,1.243800401687622070e+00,1.243721604347229004e+00,1.243642807006835938e+00,1.243564009666442871e+00,1.243485212326049805e+00,1.243406534194946289e+00,1.243327736854553223e+00,1.243249058723449707e+00,1.243170261383056641e+00,1.243091702461242676e+00,1.243012905120849609e+00,1.242934226989746094e+00,1.242855548858642578e+00,1.242776870727539062e+00
1.162547945976257324e+00,1.162479162216186523e+00,1.162410259246826172e+00,1.162341475486755371e+00,1.162272691726684570e+00,1.162203788757324219e+00,1.162135124206542969e+00,1.162066221237182617e+00,1.161997556686401367e+00,1.161928653717041016e+00,1.161859869956970215e+00,1.161791205406188965e+00,1.161722421646118164e+00,1.161653757095336914e+00,1.161584973335266113e+00,1.161516308784484863e+00,1.161447525024414062e+00,1.161378860473632812e+00,1.161310076713562012e+00,1.161241412162780762e+00,1.161172747611999512e+00,1.161104083061218262e+00,1.161035418510437012e+00,1.160966753959655762e+00,1.160898089408874512e+00,1.160829424858093262e+00,1.160760760307312012e+00,1.160692214965820312e+00,1.160623550415039062e+00,1.160555005073547363e+00,1.160486340522766113e+00,1.160417795181274414e+00,1.160349130630493164e+00,1.160280585289001465e+00,1.160212039947509766e+00,1.160143494606018066e+00,1.160074949264526367e+00,1.160006403923034668e+00,1.159937858581542969e+00,1.159869313240051270e+00,1.159800887107849121e+00,1.159732222557067871e+00,1.159663796424865723e+00,1.159595251083374023e+00,1.159526705741882324e+00,1.159458279609680176e+00,1.159389853477478027e+00,1.159321427345275879e+00,1.159252882003784180e+00,1.159184455871582031e+00,1.159116029739379883e+00,1.159047603607177734e+00,1.158979177474975586e+00,1.158910751342773438e+00,1.158842325210571289e+00,1.158773899078369141e+00,1.158705592155456543e+00,1.158637166023254395e+00,1.158568739891052246e+00,1.158500432968139648e+00,1.158432006835937500e+00,1.158363819122314453e+00,1.158295392990112305e+00,1.158227086067199707e+00,1.158158779144287109e+00,1.158090353012084961e+00,1.158022165298461914e+00,1.157953739166259766e+00,1.157885551452636719e+00,1.157817244529724121e+00,1.157748937606811523e+00,1.157680630683898926e+00,1.157612442970275879e+00,1.157544136047363281e+00,1.157475948333740234e+00,1.157407760620117188e+00,1.157339453697204590e+00,1.157271265983581543e+00,1.157202959060668945e+00,1.157134890556335449e+00
1.087271571159362793e+00,1.087211370468139648e+00,1.087151169776916504e+00,1.087090969085693359e+00,1.087030768394470215e+00,1.086970567703247070e+00,1.086910367012023926e+00,1.086850166320800781e+00,1.086790084838867188e+00,1.086729884147644043e+00,1.086669802665710449e+00,1.086609601974487305e+00,1.086549520492553711e+00,1.086489319801330566e+00,1.086429119110107422e+00,1.086369037628173828e+00,1.086308956146240234e+00,1.086248874664306641e+00,1.086188793182373047e+00,1.086128711700439453e+00,1.086068630218505859e+00,1.086008548736572266e+00,1.085948467254638672e+00,1.085888385772705078e+00,1.085828304290771484e+00,1.085768222808837891e+00,1.085708260536193848e+00,1.085648179054260254e+00,1.085588216781616211e+00,1.085528135299682617e+00,1.085468053817749023e+00,1.085408091545104980e+00,1.085348129272460938e+00,1.085288166999816895e+00,1.085228085517883301e+00,1.085168123245239258e+00,1.085108160972595215e+00,1.085048198699951172e+00,1.084988236427307129e+00,1.084928274154663086e+00,1.084868311882019043e+00,1.084808349609375000e+00,1.084748506546020508e+00,1.084688425064086914e+00,1.084628582000732422e+00,1.084568619728088379e+00,1.084508657455444336e+00,1.084448814392089844e+00,1.084388852119445801e+00,1.084329009056091309e+00,1.084269165992736816e+00,1.084209322929382324e+00,1.084149360656738281e+00,1.084089517593383789e+00,1.084029674530029297e+00,1.083969831466674805e+00,1.083909988403320312e+00,1.083850145339965820e+00,1.083790302276611328e+00,1.083730459213256836e+00,1.083670735359191895e+00,1.083610892295837402e+00,1.083551049232482910e+00,1.083491206169128418e+00,1.083431482315063477e+00,1.083371639251708984e+00,1.083311915397644043e+00,1.083252191543579102e+00,1.083192348480224609e+00,1.083132505416870117e+00,1.083072900772094727e+00,1.083013057708740234e+00,1.082953333854675293e+00,1.082893610000610352e+00,1.082833886146545410e+00,1.082774162292480469e+00,1.082714438438415527e+00,1.082654714584350586e+00,1.082594990730285645e+00,1.082535386085510254e+00
1.021150827407836914e+00,1.021097660064697266e+00,1.021044611930847168e+00,1.020991444587707520e+00,1.020938396453857422e+00,1.020885348320007324e+00,1.020832180976867676e+00,1.020779132843017578e+00,1.020726084709167480e+00,1.020673036575317383e+00,1.020619988441467285e+00,1.020566821098327637e+00,1.020513892173767090e+00,1.020460724830627441e+00,1.020407795906066895e+00,1.020354747772216797e+00,1.020301699638366699e+00,1.020248651504516602e+00,1.020195603370666504e+00,1.020142674446105957e+00,1.020089626312255859e+00,1.020036697387695312e+00,1.019983649253845215e+00,1.019930720329284668e+00,1.019877672195434570e+00,1.019824743270874023e+00,1.019771695137023926e+00,1.019718766212463379e+00,1.019665837287902832e+00,1.019612789154052734e+00,1.019559860229492188e+00,1.019506931304931641e+00,1.019454002380371094e+00,1.019401073455810547e+00,1.019348144531250000e+00,1.019295215606689453e+00,1.019242286682128906e+00,1.019189357757568359e+00,1.019136428833007812e+00,1.019083619117736816e+00,1.019030690193176270e+00,1.018977761268615723e+00,1.018924951553344727e+00,1.018872022628784180e+00,1.018819212913513184e+00,1.018766283988952637e+00,1.018713474273681641e+00,1.018660545349121094e+00,1.018607735633850098e+00,1.018554925918579102e+00,1.018501996994018555e+00,1.018449187278747559e+00,1.018396377563476562e+00,1.018343567848205566e+00,1.018290758132934570e+00,1.018237948417663574e+00,1.018185138702392578e+00,1.018132328987121582e+00,1.018079519271850586e+00,1.018026709556579590e+00,1.017973899841308594e+00,1.017921090126037598e+00,1.017868399620056152e+00,1.017815589904785156e+00,1.017762899398803711e+00,1.017710089683532715e+00,1.017657279968261719e+00,1.017604589462280273e+00,1.017551779747009277e+00,1.017499089241027832e+00,1.017446398735046387e+00,1.017393708229064941e+00,1.017340898513793945e+00,1.017288208007812500e+00,1.017235517501831055e+00,1.017182826995849609e+00,1.017130136489868164e+00,1.017077445983886719e+00,1.017024755477905273e+00,1.016972064971923828e+00
9.626111388206481934e-01,9.625639319419860840e-01,9.625167846679687500e-01,9.624695181846618652e-01,9.624223709106445312e-01,9.623752236366271973e-01,9.623279571533203125e-01,9.622808098793029785e-01,9.622336626052856445e-01,9.621865749359130859e-01,9.621393084526062012e-01,9.620922207832336426e-01,9.620450735092163086e-01,9.619979858398437500e-01,9.619507789611816406e-01,9.619036912918090820e-01,9.618566036224365234e-01,9.618093967437744141e-01,9.617623090744018555e-01,9.617152214050292969e-01,9.616681337356567383e-01,9.616209864616394043e-01,9.615738987922668457e-01,9.615268111228942871e-01,9.614796638488769531e-01,9.614326357841491699e-01,9.613855481147766113e-01,9.613385200500488281e-01,9.612913727760314941e-01,9.612443447113037109e-01,9.611973166465759277e-01,9.611501693725585938e-01,9.611031413078308105e-01,9.610561132431030273e-01,9.610090851783752441e-01,9.609619975090026855e-01,9.609149694442749023e-01,9.608680009841918945e-01,9.608209133148193359e-01,9.607738852500915527e-01,9.607269167900085449e-01,9.606799483299255371e-01,9.606328606605529785e-01,9.605858922004699707e-01,9.605389237403869629e-01,9.604918360710144043e-01,9.604448676109313965e-01,9.603979587554931641e-01,9.603509902954101562e-01,9.603039026260375977e-01,9.602569937705993652e-01,9.602100253105163574e-01,9.601631164550781250e-01,9.601160883903503418e-01,9.600691795349121094e-01,9.600222706794738770e-01,9.599752426147460938e-01,9.599283337593078613e-01,9.598814249038696289e-01,9.598345160484313965e-01,9.597875475883483887e-01,9.597406387329101562e-01,9.596937298774719238e-01,9.596467614173889160e-01,9.595998525619506836e-01,9.595530033111572266e-01,9.595061540603637695e-01,9.594591856002807617e-01,9.594123363494873047e-01,9.593654870986938477e-01,9.593185186386108398e-01,9.592716693878173828e-01,9.592248201370239258e-01,9.591779708862304688e-01,9.591310620307922363e-01,9.590842127799987793e-01,9.590374231338500977e-01,9.589904546737670898e-01,9.589436650276184082e-01,9.588968753814697266e-01
9.104192852973937988e-01,9.103771448135375977e-01,9.103349447250366211e-01,9.102926254272460938e-01,9.102504849433898926e-01,9.102082848548889160e-01,9.101661443710327148e-01,9.101238846778869629e-01,9.100816845893859863e-01,9.100395441055297852e-01,9.099972844123840332e-01,9.099551439285278320e-01,9.099130034446716309e-01,9.098708629608154297e-01,9.098286032676696777e-01,9.097864627838134766e-01,9.097443222999572754e-01,9.097022414207458496e-01,9.096599817276000977e-01,9.096179008483886719e-01,9.095757603645324707e-01,9.095335602760314941e-01,9.094914197921752930e-01,9.094493389129638672e-01,9.094072580337524414e-01,9.093650579452514648e-01,9.093229770660400391e-01,9.092808961868286133e-01,9.092386960983276367e-01,9.091966152191162109e-01,9.091545343399047852e-01,9.091124534606933594e-01,9.090703129768371582e-01,9.090282320976257324e-01,9.089861512184143066e-01,9.089440107345581055e-01,9.089019894599914551e-01,9.088599085807800293e-01,9.088178873062133789e-01,9.087757468223571777e-01,9.087337255477905273e-01,9.086916446685791016e-01,9.086495637893676758e-01,9.086074829101562500e-01,9.085655212402343750e-01,9.085234999656677246e-01,9.084813594818115234e-01,9.084393382072448730e-01,9.083973765373229980e-01,9.083552360534667969e-01,9.083132743835449219e-01,9.082712531089782715e-01,9.082292914390563965e-01,9.081872105598449707e-01,9.081451892852783203e-01,9.081032276153564453e-01,9.080612659454345703e-01,9.080191850662231445e-01,9.079772233963012695e-01,9.079352617263793945e-01,9.078931808471679688e-01,9.078512191772460938e-01,9.078093171119689941e-01,9.077673554420471191e-01,9.077252745628356934e-01,9.076833724975585938e-01,9.076414108276367188e-01,9.075993895530700684e-01,9.075574874877929688e-01,9.075155258178710938e-01,9.074736237525939941e-01,9.074316024780273438e-01,9.073897004127502441e-01,9.073477983474731445e-01,9.073057770729064941e-01,9.072638750076293945e-01,9.072219729423522949e-01,9.071800708770751953e-01,9.071381092071533203e-01,9.070962071418762207e-01
8.635960221290588379e-01,8.635580539703369141e-01,8.635200858116149902e-01,8.634821176528930664e-01,8.634440898895263672e-01,8.634061217308044434e-01,8.633682131767272949e-01,8.633301854133605957e-01,8.632922172546386719e-01,8.632543087005615234e-01,8.632163405418395996e-01,8.631783723831176758e-01,8.631404042243957520e-01,8.631024956703186035e-01,8.630644679069519043e-01,8.630265593528747559e-01,8.629886507987976074e-01,8.629507422447204590e-01,8.629127740859985352e-01,8.628748655319213867e-01,8.628369569778442383e-01,8.627990484237670898e-01,8.627610802650451660e-01,8.627232313156127930e-01,8.626853227615356445e-01,8.626473546028137207e-01,8.626094460487365723e-01,8.625715970993041992e-01,8.625337481498718262e-01,8.624957799911499023e-01,8.624579310417175293e-01,8.624200224876403809e-01,8.623821139335632324e-01,8.623442649841308594e-01,8.623064160346984863e-01,8.622685670852661133e-01,8.622305989265441895e-01,8.621927499771118164e-01,8.621549010276794434e-01,8.621169924736022949e-01,8.620791435241699219e-01,8.620413541793823242e-01,8.620035052299499512e-01,8.619655966758728027e-01,8.619278073310852051e-01,8.618899583816528320e-01,8.618521094322204590e-01,8.618142604827880859e-01,8.617764711380004883e-01,8.617386817932128906e-01,8.617007732391357422e-01,8.616629838943481445e-01,8.616251945495605469e-01,8.615872859954833984e-01,8.615495562553405762e-01,8.615117669105529785e-01,8.614739775657653809e-01,8.614361286163330078e-01,8.613983392715454102e-01,8.613605499267578125e-01,8.613228201866149902e-01,8.612849712371826172e-01,8.612471818923950195e-01,8.612094521522521973e-01,8.611716032028198242e-01,8.611338734626770020e-01,8.610960841178894043e-01,8.610583543777465820e-01,8.610205650329589844e-01,8.609827756881713867e-01,8.609450459480285645e-01,8.609072566032409668e-01,8.608695268630981445e-01,8.608317971229553223e-01,8.607940673828125000e-01,8.607562780380249023e-01,8.607185482978820801e-01,8.606808781623840332e-01,8.606430888175964355e-01,8.606053590774536133e-01
8.213534951210021973e-01,8.213190436363220215e-01,8.212847113609313965e-01,8.212503790855407715e-01,8.212159872055053711e-01,8.211816549301147461e-01,8.211473226547241211e-01,8.211129903793334961e-01,8.210785984992980957e-01,8.210443258285522461e-01,8.210099935531616211e-01,8.209756016731262207e-01,8.209412693977355957e-01,8.209069967269897461e-01,8.208726644515991211e-01,8.208383321762084961e-01,8.208039999008178711e-01,8.207697272300720215e-01,8.207353353500366211e-01,8.207010626792907715e-01,8.206667900085449219e-01,8.206325173377990723e-01,8.205981254577636719e-01,8.205638527870178223e-01,8.205295801162719727e-01,8.204953670501708984e-01,8.204609751701354980e-01,8.204267024993896484e-01,8.203924894332885742e-01,8.203581571578979492e-01,8.203238844871520996e-01,8.202896118164062500e-01,8.202553987503051758e-01,8.202210664749145508e-01,8.201867938041687012e-01,8.201525807380676270e-01,8.201182484626770020e-01,8.200840353965759277e-01,8.200497627258300781e-01,8.200155496597290039e-01,8.199812173843383789e-01,8.199470043182373047e-01,8.199127912521362305e-01,8.198785185813903809e-01,8.198443055152893066e-01,8.198100924491882324e-01,8.197758793830871582e-01,8.197415471076965332e-01,8.197073936462402344e-01,8.196731805801391602e-01,8.196389079093933105e-01,8.196046948432922363e-01,8.195704817771911621e-01,8.195363283157348633e-01,8.195020556449890137e-01,8.194678425788879395e-01,8.194336891174316406e-01,8.193994164466857910e-01,8.193652629852294922e-01,8.193310499191284180e-01,8.192968964576721191e-01,8.192626833915710449e-01,8.192284703254699707e-01,8.191943168640136719e-01,8.191601634025573730e-01,8.191259503364562988e-01,8.190917968750000000e-01,8.190576434135437012e-01,8.190234303474426270e-01,8.189892768859863281e-01,8.189551234245300293e-01,8.189209699630737305e-01,8.188867568969726562e-01,8.188526630401611328e-01,8.188185095787048340e-01,8.187842965126037598e-01,8.187502026557922363e-01,8.187160491943359375e-01,8.186819553375244141e-01,8.186477422714233398e-01
7.830507755279541016e-01,7.830194830894470215e-01,7.829882502555847168e-01,7.829570770263671875e-01,7.829258441925048828e-01,7.828945517539978027e-01,7.828633785247802734e-01,7.828322052955627441e-01,7.828009128570556641e-01,7.827697396278381348e-01,7.827385663986206055e-01,7.827073335647583008e-01,7.826761007308959961e-01,7.826449275016784668e-01,7.826137542724609375e-01,7.825824618339538574e-01,7.825512886047363281e-01,7.825201153755187988e-01,7.824890017509460449e-01,7.824577093124389648e-01,7.824265956878662109e-01,7.823954224586486816e-01,7.823641896247863770e-01,7.823330163955688477e-01,7.823018431663513184e-01,7.822707295417785645e-01,7.822394967079162598e-01,7.822083234786987305e-01,7.821772098541259766e-01,7.821459770202636719e-01,7.821148633956909180e-01,7.820836901664733887e-01,7.820525765419006348e-01,7.820214033126831055e-01,7.819902300834655762e-01,7.819591164588928223e-01,7.819280028343200684e-01,7.818968296051025391e-01,7.818656563758850098e-01,7.818345427513122559e-01,7.818033695220947266e-01,7.817722558975219727e-01,7.817411422729492188e-01,7.817100286483764648e-01,7.816788554191589355e-01,7.816478013992309570e-01,7.816166877746582031e-01,7.815855145454406738e-01,7.815544009208679199e-01,7.815233469009399414e-01,7.814922332763671875e-01,7.814610600471496582e-01,7.814300060272216797e-01,7.813988924026489258e-01,7.813677787780761719e-01,7.813366651535034180e-01,7.813056111335754395e-01,7.812745571136474609e-01,7.812433838844299316e-01,7.812123298645019531e-01,7.811812758445739746e-01,7.811501026153564453e-01,7.811190485954284668e-01,7.810879945755004883e-01,7.810569405555725098e-01,7.810258269309997559e-01,7.809947729110717773e-01,7.809637188911437988e-01,7.809326648712158203e-01,7.809015512466430664e-01,7.808705568313598633e-01,7.808395028114318848e-01,7.808083891868591309e-01,7.807773351669311523e-01,7.807463407516479492e-01,7.807152867317199707e-01,7.806841731071472168e-01,7.806531786918640137e-01,7.806221842765808105e-01,7.805910706520080566e-01
