5.000000000000000000e+00,5.000000000000000000e+00,5.000000000000000000e+00,5.000000000000000000e+00,5.000000000000000000e+00,5.000000000000000000e+00,5.000000000000000000e+00,5.000000000000000000e+00,5.000000000000000000e+00,5.000000000000000000e+00,5.000000000000000000e+00,5.000000000000000000e+00,5.000000000000000000e+00,5.000000000000000000e+00,5.000000000000000000e+00,5.000000000000000000e+00,5.000000000000000000e+00,5.000000000000000000e+00,5.000000000000000000e+00,5.000000000000000000e+00,5.000000000000000000e+00,5.000000000000000000e+00,5.000000000000000000e+00,5.000000000000000000e+00,5.000000000000000000e+00,5.000000000000000000e+00,3.333241224288940430e+00,3.362255573272705078e+00,5.000000000000000000e+00,5.000000000000000000e+00,5.000000000000000000e+00,5.000000000000000000e+00,5.000000000000000000e+00,5.000000000000000000e+00,5.000000000000000000e+00,5.000000000000000000e+00,5.000000000000000000e+00,5.000000000000000000e+00,5.000000000000000000e+00,4.852347373962402344e+00,4.662199020385742188e+00,4.486392021179199219e+00,4.323361873626708984e+00,4.171764850616455078e+00,4.030438899993896484e+00,3.898375034332275391e+00,3.774690866470336914e+00,3.658613920211791992e+00,3.549462556838989258e+00,3.446635723114013672e+00,3.349598407745361328e+00,3.257876157760620117e+00,3.171042919158935547e+00,3.088718175888061523e+00,3.010560035705566406e+00,2.936259984970092773e+00,2.865538358688354492e+00,2.798143863677978516e+00,2.733846664428710938e+00,2.672437667846679688e+00,2.613727092742919922e+00,2.557540655136108398e+00,2.503718852996826172e+00,2.452115774154663086e+00,2.402596950531005859e+00,2.355038404464721680e+00,2.309326171875000000e+00,2.265354871749877930e+00,2.223026514053344727e+00,2.182251214981079102e+00,2.142944812774658203e+00,2.105029106140136719e+00,2.068431854248046875e+00,2.033085584640502930e+00,1.998926758766174316e+00,1.965896964073181152e+00,1.933940887451171875e+00,1.903007030487060547e+00,1.873047232627868652e+00,1.844016194343566895e+00
5.000000000000000000e+00,5.000000000000000000e+00,5.000000000000000000e+00,5.000000000000000000e+00,5.000000000000000000e+00,5.000000000000000000e+00,5.000000000000000000e+00,5.000000000000000000e+00,5.000000000000000000e+00,5.000000000000000000e+00,5.000000000000000000e+00,5.000000000000000000e+00,5.000000000000000000e+00,5.000000000000000000e+00,5.000000000000000000e+00,5.000000000000000000e+00,5.000000000000000000e+00,5.000000000000000000e+00,5.000000000000000000e+00,5.000000000000000000e+00,5.000000000000000000e+00,5.000000000000000000e+00,5.000000000000000000e+00,5.000000000000000000e+00,5.000000000000000000e+00,3.330459117889404297e+00,3.397077322006225586e+00,3.334993839263916016e+00,3.385098934173583984e+00,5.000000000000000000e+00,5.000000000000000000e+00,5.000000000000000000e+00,5.000000000000000000e+00,5.000000000000000000e+00,5.000000000000000000e+00,5.000000000000000000e+00,5.000000000000000000e+00,5.000000000000000000e+00,5.000000000000000000e+00,4.852485179901123047e+00,4.662326812744140625e+00,4.486509799957275391e+00,4.323471069335937500e+00,4.171866416931152344e+00,4.030534267425537109e+00,3.898464202880859375e+00,3.774774074554443359e+00,3.658692121505737305e+00,3.549536466598510742e+00,3.446705102920532227e+00,3.349664211273193359e+00,3.257938385009765625e+00,3.171101570129394531e+00,3.088774204254150391e+00,3.010613203048706055e+00,2.936310291290283203e+00,2.865586757659912109e+00,2.798189878463745117e+00,2.733890295028686523e+00,2.672479629516601562e+00,2.613767147064208984e+00,2.557578802108764648e+00,2.503755569458007812e+00,2.452151060104370117e+00,2.402630805969238281e+00,2.355071067810058594e+00,2.309357643127441406e+00,2.265384912490844727e+00,2.223055601119995117e+00,2.182279109954833984e+00,2.142971515655517578e+00,2.105055093765258789e+00,2.068456888198852539e+00,2.033109664916992188e+00,1.998950004577636719e+00,1.965919494628906250e+00,1.933962821960449219e+00,1.903028368949890137e+00,1.873067736625671387e+00,1.844036102294921875e+00
5.000000000000000000e+00,5.000000000000000000e+00,5.000000000000000000e+00,5.000000000000000000e+00,5.000000000000000000e+00,5.000000000000000000e+00,5.000000000000000000e+00,5.000000000000000000e+00,5.000000000000000000e+00,5.000000000000000000e+00,5.000000000000000000e+00,5.000000000000000000e+00,5.000000000000000000e+00,5.000000000000000000e+00,5.000000000000000000e+00,5.000000000000000000e+00,5.000000000000000000e+00,5.000000000000000000e+00,5.000000000000000000e+00,5.000000000000000000e+00,5.000000000000000000e+00,5.000000000000000000e+00,3.346220731735229492e+00,3.325458288192749023e+00,3.314946413040161133e+00,3.312637567520141602e+00,3.314874887466430664e+00,3.328222751617431641e+00,3.345527887344360352e+00,3.375047445297241211e+00,3.398532867431640625e+00,5.000000000000000000e+00,5.000000000000000000e+00,5.000000000000000000e+00,5.000000000000000000e+00,5.000000000000000000e+00,5.000000000000000000e+00,5.000000000000000000e+00,5.000000000000000000e+00,4.852622985839843750e+00,4.662454128265380859e+00,4.486627578735351562e+00,4.323580741882324219e+00,4.171968936920166016e+00,4.030629158020019531e+00,3.898552894592285156e+00,3.774857759475708008e+00,3.658770799636840820e+00,3.549610137939453125e+00,3.446774721145629883e+00,3.349730253219604492e+00,3.258000373840332031e+00,3.171160697937011719e+00,3.088830232620239258e+00,3.010666131973266602e+00,2.936360836029052734e+00,2.865634918212890625e+00,2.798235654830932617e+00,2.733934164047241211e+00,2.672521591186523438e+00,2.613807201385498047e+00,2.557617187500000000e+00,2.503792524337768555e+00,2.452186346054077148e+00,2.402664661407470703e+00,2.355103731155395508e+00,2.309388637542724609e+00,2.265414953231811523e+00,2.223084449768066406e+00,2.182307004928588867e+00,2.142998456954956055e+00,2.105081081390380859e+00,2.068481922149658203e+00,2.033133983612060547e+00,1.998973369598388672e+00,1.965942144393920898e+00,1.933984637260437012e+00,1.903049468994140625e+00,1.873088479042053223e+00,1.844056129455566406e+00
5.000000000000000000e+00,5.000000000000000000e+00,5.000000000000000000e+00,5.000000000000000000e+00,5.000000000000000000e+00,5.000000000000000000e+00,5.000000000000000000e+00,5.000000000000000000e+00,5.000000000000000000e+00,5.000000000000000000e+00,5.000000000000000000e+00,5.000000000000000000e+00,5.000000000000000000e+00,5.000000000000000000e+00,5.000000000000000000e+00,5.000000000000000000e+00,5.000000000000000000e+00,5.000000000000000000e+00,5.000000000000000000e+00,5.000000000000000000e+00,5.000000000000000000e+00,5.000000000000000000e+00,3.349265098571777344e+00,3.344004392623901367e+00,3.303065776824951172e+00,3.279979705810546875e+00,3.282122611999511719e+00,3.296291828155517578e+00,3.320423364639282227e+00,3.375483751296997070e+00,3.414227962493896484e+00,5.000000000000000000e+00,5.000000000000000000e+00,5.000000000000000000e+00,5.000000000000000000e+00,5.000000000000000000e+00,5.000000000000000000e+00,5.000000000000000000e+00,5.000000000000000000e+00,4.852761268615722656e+00,4.662581443786621094e+00,4.486745834350585938e+00,4.323690414428710938e+00,4.172070980072021484e+00,4.030724525451660156e+00,3.898642301559448242e+00,3.774941444396972656e+00,3.658849000930786133e+00,3.549684047698974609e+00,3.446844577789306641e+00,3.349795818328857422e+00,3.258062601089477539e+00,3.171219825744628906e+00,3.088886022567749023e+00,3.010719537734985352e+00,2.936411380767822266e+00,2.865682840347290039e+00,2.798281669616699219e+00,2.733978033065795898e+00,2.672563314437866211e+00,2.613847255706787109e+00,2.557655572891235352e+00,2.503829002380371094e+00,2.452221632003784180e+00,2.402698278427124023e+00,2.355135917663574219e+00,2.309420108795166016e+00,2.265444993972778320e+00,2.223113536834716797e+00,2.182334899902343750e+00,2.143025398254394531e+00,2.105107069015502930e+00,2.068506956100463867e+00,2.033158063888549805e+00,1.998996973037719727e+00,1.965964913368225098e+00,1.934006452560424805e+00,1.903070688247680664e+00,1.873108983039855957e+00,1.844076037406921387e+00
5.000000000000000000e+00,5.000000000000000000e+00,5.000000000000000000e+00,5.000000000000000000e+00,5.000000000000000000e+00,5.000000000000000000e+00,5.000000000000000000e+00,5.000000000000000000e+00,5.000000000000000000e+00,5.000000000000000000e+00,5.000000000000000000e+00,5.000000000000000000e+00,5.000000000000000000e+00,5.000000000000000000e+00,5.000000000000000000e+00,5.000000000000000000e+00,5.000000000000000000e+00,5.000000000000000000e+00,5.000000000000000000e+00,5.000000000000000000e+00,5.000000000000000000e+00,5.000000000000000000e+00,5.000000000000000000e+00,3.338510036468505859e+00,3.314700603485107422e+00,3.289441823959350586e+00,3.285378694534301758e+00,3.290839433670043945e+00,3.326515913009643555e+00,3.389391422271728516e+00,3.428689956665039062e+00,5.000000000000000000e+00,5.000000000000000000e+00,5.000000000000000000e+00,5.000000000000000000e+00,5.000000000000000000e+00,5.000000000000000000e+00,5.000000000000000000e+00,5.000000000000000000e+00,4.852899074554443359e+00,4.662708759307861328e+00,4.486863613128662109e+00,4.323799610137939453e+00,4.172172546386718750e+00,4.030819416046142578e+00,3.898731470108032227e+00,3.775024652481079102e+00,3.658927440643310547e+00,3.549757957458496094e+00,3.446913957595825195e+00,3.349861621856689453e+00,3.258125066757202148e+00,3.171278476715087891e+00,3.088941812515258789e+00,3.010772466659545898e+00,2.936461925506591797e+00,2.865731000900268555e+00,2.798327445983886719e+00,2.734021663665771484e+00,2.672605276107788086e+00,2.613887071609497070e+00,2.557693958282470703e+00,2.503865957260131836e+00,2.452256679534912109e+00,2.402732133865356445e+00,2.355168581008911133e+00,2.309451103210449219e+00,2.265475273132324219e+00,2.223142623901367188e+00,2.182362794876098633e+00,2.143052339553833008e+00,2.105133056640625000e+00,2.068531990051269531e+00,2.033182382583618164e+00,1.999020338058471680e+00,1.965987563133239746e+00,1.934028506278991699e+00,1.903092026710510254e+00,1.873129487037658691e+00,1.844095945358276367e+00
5.000000000000000000e+00,5.000000000000000000e+00,5.000000000000000000e+00,5.000000000000000000e+00,5.000000000000000000e+00,5.000000000000000000e+00,5.000000000000000000e+00,5.000000000000000000e+00,5.000000000000000000e+00,5.000000000000000000e+00,5.000000000000000000e+00,5.000000000000000000e+00,5.000000000000000000e+00,5.000000000000000000e+00,5.000000000000000000e+00,5.000000000000000000e+00,5.000000000000000000e+00,5.000000000000000000e+00,5.000000000000000000e+00,5.000000000000000000e+00,5.000000000000000000e+00,5.000000000000000000e+00,5.000000000000000000e+00,3.331810235977172852e+00,3.332986116409301758e+00,3.288521528244018555e+00,3.280312299728393555e+00,3.292323827743530273e+00,3.326631784439086914e+00,3.419609069824218750e+00,3.438040733337402344e+00,5.000000000000000000e+00,5.000000000000000000e+00,5.000000000000000000e+00,5.000000000000000000e+00,5.000000000000000000e+00,5.000000000000000000e+00,5.000000000000000000e+00,5.000000000000000000e+00,4.853037357330322266e+00,4.662836074829101562e+00,4.486981868743896484e+00,4.323909282684326172e+00,4.172274589538574219e+00,4.030914783477783203e+00,3.898820161819458008e+00,3.775108337402343750e+00,3.659005641937255859e+00,3.549831628799438477e+00,3.446983814239501953e+00,3.349927186965942383e+00,3.258187055587768555e+00,3.171337604522705078e+00,3.088997602462768555e+00,3.010825634002685547e+00,2.936512470245361328e+00,2.865778923034667969e+00,2.798373222351074219e+00,2.734065532684326172e+00,2.672646999359130859e+00,2.613927364349365234e+00,2.557732343673706055e+00,2.503902435302734375e+00,2.452291965484619141e+00,2.402766227722167969e+00,2.355201005935668945e+00,2.309482574462890625e+00,2.265505075454711914e+00,2.223171472549438477e+00,2.182390689849853516e+00,2.143079280853271484e+00,2.105158805847167969e+00,2.068557024002075195e+00,2.033206462860107422e+00,1.999043703079223633e+00,1.966010093688964844e+00,1.934050440788269043e+00,1.903113245964050293e+00,1.873150110244750977e+00,1.844115734100341797e+00
5.000000000000000000e+00,5.000000000000000000e+00,5.000000000000000000e+00,5.000000000000000000e+00,5.000000000000000000e+00,5.000000000000000000e+00,5.000000000000000000e+00,5.000000000000000000e+00,5.000000000000000000e+00,5.000000000000000000e+00,5.000000000000000000e+00,5.000000000000000000e+00,5.000000000000000000e+00,5.000000000000000000e+00,5.000000000000000000e+00,5.000000000000000000e+00,5.000000000000000000e+00,5.000000000000000000e+00,5.000000000000000000e+00,5.000000000000000000e+00,5.000000000000000000e+00,5.000000000000000000e+00,5.000000000000000000e+00,3.324594259262084961e+00,5.000000000000000000e+00,3.293010711669921875e+00,3.285083532333374023e+00,3.295583486557006836e+00,3.326924562454223633e+00,5.000000000000000000e+00,3.442871570587158203e+00,5.000000000000000000e+00,5.000000000000000000e+00,5.000000000000000000e+00,5.000000000000000000e+00,5.000000000000000000e+00,5.000000000000000000e+00,5.000000000000000000e+00,5.000000000000000000e+00,4.853175163269042969e+00,4.662963390350341797e+00,4.487099647521972656e+00,4.324018955230712891e+00,4.172376632690429688e+00,4.031010150909423828e+00,3.898909568786621094e+00,3.775191545486450195e+00,3.659084320068359375e+00,3.549905776977539062e+00,3.447053194046020508e+00,3.349992990493774414e+00,3.258249282836914062e+00,3.171396255493164062e+00,3.089053630828857422e+00,3.010878801345825195e+00,2.936562776565551758e+00,2.865827322006225586e+00,2.798419237136840820e+00,2.734109163284301758e+00,2.672688961029052734e+00,2.613967418670654297e+00,2.557770490646362305e+00,2.503939390182495117e+00,2.452327251434326172e+00,2.402799844741821289e+00,2.355233669281005859e+00,2.309513807296752930e+00,2.265535116195678711e+00,2.223200321197509766e+00,2.182418823242187500e+00,2.143106222152709961e+00,2.105185031890869141e+00,2.068582057952880859e+00,2.033230781555175781e+00,1.999067187309265137e+00,1.966032624244689941e+00,1.934072256088256836e+00,1.903134346008300781e+00,1.873170614242553711e+00,1.844135880470275879e+00
5.000000000000000000e+00,5.000000000000000000e+00,5.000000000000000000e+00,5.000000000000000000e+00,5.000000000000000000e+00,5.000000000000000000e+00,5.000000000000000000e+00,5.000000000000000000e+00,5.000000000000000000e+00,5.000000000000000000e+00,5.000000000000000000e+00,5.000000000000000000e+00,5.000000000000000000e+00,5.000000000000000000e+00,5.000000000000000000e+00,5.000000000000000000e+00,5.000000000000000000e+00,5.000000000000000000e+00,5.000000000000000000e+00,5.000000000000000000e+00,5.000000000000000000e+00,5.000000000000000000e+00,5.000000000000000000e+00,3.333867311477661133e+00,3.341773986816406250e+00,3.279845476150512695e+00,3.282536506652832031e+00,3.286804914474487305e+00,3.315327882766723633e+00,5.000000000000000000e+00,3.459083795547485352e+00,5.000000000000000000e+00,5.000000000000000000e+00,5.000000000000000000e+00,5.000000000000000000e+00,5.000000000000000000e+00,5.000000000000000000e+00,5.000000000000000000e+00,5.000000000000000000e+00,4.853312969207763672e+00,4.663090705871582031e+00,4.487217426300048828e+00,4.324128150939941406e+00,4.172478675842285156e+00,4.031105518341064453e+00,3.898998260498046875e+00,3.775275230407714844e+00,3.659162998199462891e+00,3.549979209899902344e+00,3.447122812271118164e+00,3.350059032440185547e+00,3.258311271667480469e+00,3.171455383300781250e+00,3.089109659194946289e+00,3.010931730270385742e+00,2.936613559722900391e+00,2.865875482559204102e+00,2.798465013504028320e+00,2.734153032302856445e+00,2.672730684280395508e+00,2.614007234573364258e+00,2.557808876037597656e+00,2.503975868225097656e+00,2.452362537384033203e+00,2.402833700180053711e+00,2.355265855789184570e+00,2.309545040130615234e+00,2.265565395355224609e+00,2.223229169845581055e+00,2.182446479797363281e+00,2.143133163452148438e+00,2.105210781097412109e+00,2.068607330322265625e+00,2.033255100250244141e+00,1.999090552330017090e+00,1.966055512428283691e+00,1.934094309806823730e+00,1.903155565261840820e+00,1.873191118240356445e+00,1.844155669212341309e+00
5.000000000000000000e+00,5.000000000000000000e+00,5.000000000000000000e+00,5.000000000000000000e+00,5.000000000000000000e+00,5.000000000000000000e+00,5.000000000000000000e+00,5.000000000000000000e+00,5.000000000000000000e+00,5.000000000000000000e+00,5.000000000000000000e+00,5.000000000000000000e+00,5.000000000000000000e+00,5.000000000000000000e+00,5.000000000000000000e+00,5.000000000000000000e+00,5.000000000000000000e+00,5.000000000000000000e+00,5.000000000000000000e+00,5.000000000000000000e+00,5.000000000000000000e+00,5.000000000000000000e+00,3.298875331878662109e+00,3.298531532287597656e+00,3.327211380004882812e+00,3.290225028991699219e+00,3.282354116439819336e+00,3.296683311462402344e+00,3.331688642501831055e+00,3.408314228057861328e+00,3.458273887634277344e+00,5.000000000000000000e+00,5.000000000000000000e+00,5.000000000000000000e+00,5.000000000000000000e+00,5.000000000000000000e+00,5.000000000000000000e+00,5.000000000000000000e+00,5.000000000000000000e+00,4.853450775146484375e+00,4.663218498229980469e+00,4.487335681915283203e+00,4.324237823486328125e+00,4.172580718994140625e+00,4.031200408935546875e+00,3.899087429046630859e+00,3.775358915328979492e+00,3.659241199493408203e+00,3.550053358078002930e+00,3.447192668914794922e+00,3.350124597549438477e+00,3.258373737335205078e+00,3.171514272689819336e+00,3.089165449142456055e+00,3.010985136032104492e+00,2.936663866043090820e+00,2.865923404693603516e+00,2.798511028289794922e+00,2.734196662902832031e+00,2.672772407531738281e+00,2.614047288894653320e+00,2.557847261428833008e+00,2.504012823104858398e+00,2.452397823333740234e+00,2.402867555618286133e+00,2.355298519134521484e+00,2.309576272964477539e+00,2.265595197677612305e+00,2.223258256912231445e+00,2.182474613189697266e+00,2.143159866333007812e+00,2.105236768722534180e+00,2.068632364273071289e+00,2.033279180526733398e+00,1.999113917350769043e+00,1.966078042984008789e+00,1.934116125106811523e+00,1.903176903724670410e+00,1.873211860656738281e+00,1.844175577163696289e+00
5.000000000000000000e+00,5.000000000000000000e+00,5.000000000000000000e+00,5.000000000000000000e+00,5.000000000000000000e+00,5.000000000000000000e+00,5.000000000000000000e+00,5.000000000000000000e+00,5.000000000000000000e+00,5.000000000000000000e+00,5.000000000000000000e+00,5.000000000000000000e+00,5.000000000000000000e+00,5.000000000000000000e+00,5.000000000000000000e+00,5.000000000000000000e+00,5.000000000000000000e+00,5.000000000000000000e+00,5.000000000000000000e+00,5.000000000000000000e+00,5.000000000000000000e+00,5.000000000000000000e+00,3.250894546508789062e+00,3.275706052780151367e+00,3.322667837142944336e+00,3.298686265945434570e+00,3.289707899093627930e+00,3.317239522933959961e+00,3.336736440658569336e+00,5.000000000000000000e+00,3.448329210281372070e+00,5.000000000000000000e+00,5.000000000000000000e+00,5.000000000000000000e+00,5.000000000000000000e+00,5.000000000000000000e+00,5.000000000000000000e+00,5.000000000000000000e+00,5.000000000000000000e+00,4.853589057922363281e+00,4.663345813751220703e+00,4.487453460693359375e+00,4.324347496032714844e+00,4.172682762145996094e+00,4.031295776367187500e+00,3.899176836013793945e+00,3.775442123413085938e+00,3.659319639205932617e+00,3.550126791000366211e+00,3.447262048721313477e+00,3.350190401077270508e+00,3.258435726165771484e+00,3.171573162078857422e+00,3.089221477508544922e+00,3.011038064956665039e+00,2.936714410781860352e+00,2.865971565246582031e+00,2.798556804656982422e+00,2.734240770339965820e+00,2.672814369201660156e+00,2.614087343215942383e+00,2.557885646820068359e+00,2.504049539566040039e+00,2.452432870864868164e+00,2.402901411056518555e+00,2.355331182479858398e+00,2.309607505798339844e+00,2.265625476837158203e+00,2.223287343978881836e+00,2.182502269744873047e+00,2.143186807632446289e+00,2.105262756347656250e+00,2.068657398223876953e+00,2.033303499221801758e+00,1.999137520790100098e+00,1.966100573539733887e+00,1.934138059616088867e+00,1.903198003768920898e+00,1.873232364654541016e+00,1.844195604324340820e+00
5.000000000000000000e+00,5.000000000000000000e+00,5.000000000000000000e+00,5.000000000000000000e+00,5.000000000000000000e+00,5.000000000000000000e+00,5.000000000000000000e+00,5.000000000000000000e+00,5.000000000000000000e+00,5.000000000000000000e+00,5.000000000000000000e+00,5.000000000000000000e+00,5.000000000000000000e+00,5.000000000000000000e+00,5.000000000000000000e+00,5.000000000000000000e+00,5.000000000000000000e+00,5.000000000000000000e+00,5.000000000000000000e+00,5.000000000000000000e+00,5.000000000000000000e+00,5.000000000000000000e+00,3.214009761810302734e+00,3.289855957031250000e+00,3.327991485595703125e+00,3.317270278930664062e+00,3.340866327285766602e+00,3.253603219985961914e+00,3.271733283996582031e+00,3.378749847412109375e+00,3.434712886810302734e+00,5.000000000000000000e+00,5.000000000000000000e+00,5.000000000000000000e+00,5.000000000000000000e+00,5.000000000000000000e+00,5.000000000000000000e+00,5.000000000000000000e+00,5.000000000000000000e+00,4.853727340698242188e+00,4.663473129272460938e+00,4.487571239471435547e+00,4.324457168579101562e+00,4.172784805297851562e+00,4.031390666961669922e+00,3.899265527725219727e+00,3.775525808334350586e+00,3.659397840499877930e+00,3.550200939178466797e+00,3.447331905364990234e+00,3.350255966186523438e+00,3.258497953414916992e+00,3.171632289886474609e+00,3.089277267456054688e+00,3.011091232299804688e+00,2.936765193939208984e+00,2.866019725799560547e+00,2.798602819442749023e+00,2.734284639358520508e+00,2.672856092453002930e+00,2.614127397537231445e+00,2.557924032211303711e+00,2.504086256027221680e+00,2.452468156814575195e+00,2.402935266494750977e+00,2.355363607406616211e+00,2.309638738632202148e+00,2.265655517578125000e+00,2.223316192626953125e+00,2.182530403137207031e+00,2.143213748931884766e+00,2.105288743972778320e+00,2.068682432174682617e+00,2.033327579498291016e+00,1.999160885810852051e+00,1.966123461723327637e+00,1.934159874916076660e+00,1.903219223022460938e+00,1.873252868652343750e+00,1.844215512275695801e+00
5.000000000000000000e+00,5.000000000000000000e+00,5.000000000000000000e+00,5.000000000000000000e+00,5.000000000000000000e+00,5.000000000000000000e+00,5.000000000000000000e+00,5.000000000000000000e+00,5.000000000000000000e+00,5.000000000000000000e+00,5.000000000000000000e+00,5.000000000000000000e+00,5.000000000000000000e+00,5.000000000000000000e+00,5.000000000000000000e+00,5.000000000000000000e+00,5.000000000000000000e+00,5.000000000000000000e+00,5.000000000000000000e+00,5.000000000000000000e+00,5.000000000000000000e+00,5.000000000000000000e+00,3.158671140670776367e+00,5.000000000000000000e+00,3.330077409744262695e+00,3.317637205123901367e+00,3.353182077407836914e+00,3.222676277160644531e+00,3.241003036499023438e+00,3.318286180496215820e+00,3.441742181777954102e+00,5.000000000000000000e+00,5.000000000000000000e+00,5.000000000000000000e+00,5.000000000000000000e+00,5.000000000000000000e+00,5.000000000000000000e+00,5.000000000000000000e+00,5.000000000000000000e+00,4.853865146636962891e+00,4.663600444793701172e+00,4.487689495086669922e+00,4.324566841125488281e+00,4.172886848449707031e+00,4.031486034393310547e+00,3.899354934692382812e+00,3.775609254837036133e+00,3.659476518630981445e+00,3.550274848937988281e+00,3.447401285171508789e+00,3.350321769714355469e+00,3.258560419082641602e+00,3.171690940856933594e+00,3.089333295822143555e+00,3.011144399642944336e+00,2.936815500259399414e+00,2.866067886352539062e+00,2.798648834228515625e+00,2.734328269958496094e+00,2.672898054122924805e+00,2.614167451858520508e+00,2.557962179183959961e+00,2.504122972488403320e+00,2.452503442764282227e+00,2.402968883514404297e+00,2.355396032333374023e+00,2.309669971466064453e+00,2.265685558319091797e+00,2.223345279693603516e+00,2.182558059692382812e+00,2.143240690231323242e+00,2.105314731597900391e+00,2.068707466125488281e+00,2.033351898193359375e+00,1.999184131622314453e+00,1.966145992279052734e+00,1.934181928634643555e+00,1.903240561485290527e+00,1.873273372650146484e+00,1.844235420227050781e+00
5.000000000000000000e+00,5.000000000000000000e+00,5.000000000000000000e+00,5.000000000000000000e+00,5.000000000000000000e+00,5.000000000000000000e+00,5.000000000000000000e+00,5.000000000000000000e+00,5.000000000000000000e+00,5.000000000000000000e+00,5.000000000000000000e+00,5.000000000000000000e+00,5.000000000000000000e+00,5.000000000000000000e+00,5.000000000000000000e+00,5.000000000000000000e+00,5.000000000000000000e+00,5.000000000000000000e+00,5.000000000000000000e+00,5.000000000000000000e+00,5.000000000000000000e+00,5.000000000000000000e+00,5.000000000000000000e+00,5.000000000000000000e+00,3.347911119461059570e+00,3.325980424880981445e+00,3.361338615417480469e+00,3.197400569915771484e+00,3.215296030044555664e+00,3.354611635208129883e+00,3.415091753005981445e+00,5.000000000000000000e+00,5.000000000000000000e+00,5.000000000000000000e+00,5.000000000000000000e+00,5.000000000000000000e+00,5.000000000000000000e+00,5.000000000000000000e+00,5.000000000000000000e+00,4.854002952575683594e+00,4.663728237152099609e+00,4.487807750701904297e+00,4.324676036834716797e+00,4.172988414764404297e+00,4.031581401824951172e+00,3.899443626403808594e+00,3.775692939758300781e+00,3.659555196762084961e+00,3.550348520278930664e+00,3.447470903396606445e+00,3.350387811660766602e+00,3.258622407913208008e+00,3.171750068664550781e+00,3.089389324188232422e+00,3.011197328567504883e+00,2.936866044998168945e+00,2.866116046905517578e+00,2.798694372177124023e+00,2.734372138977050781e+00,2.672939777374267578e+00,2.614207506179809570e+00,2.558000564575195312e+00,2.504159688949584961e+00,2.452538728713989258e+00,2.403002977371215820e+00,2.355428457260131836e+00,2.309701204299926758e+00,2.265715599060058594e+00,2.223374128341674805e+00,2.182586193084716797e+00,2.143267631530761719e+00,2.105340719223022461e+00,2.068732500076293945e+00,2.033376216888427734e+00,1.999207496643066406e+00,1.966168642044067383e+00,1.934203743934631348e+00,1.903261780738830566e+00,1.873293995857238770e+00,1.844255447387695312e+00
5.000000000000000000e+00,5.000000000000000000e+00,5.000000000000000000e+00,5.000000000000000000e+00,5.000000000000000000e+00,5.000000000000000000e+00,5.000000000000000000e+00,5.000000000000000000e+00,5.000000000000000000e+00,5.000000000000000000e+00,5.000000000000000000e+00,5.000000000000000000e+00,5.000000000000000000e+00,5.000000000000000000e+00,5.000000000000000000e+00,5.000000000000000000e+00,5.000000000000000000e+00,5.000000000000000000e+00,5.000000000000000000e+00,5.000000000000000000e+00,5.000000000000000000e+00,3.126129865646362305e+00,5.000000000000000000e+00,5.000000000000000000e+00,3.372829198837280273e+00,3.347544670104980469e+00,3.378158807754516602e+00,3.169853210449218750e+00,3.184741735458374023e+00,5.000000000000000000e+00,5.000000000000000000e+00,5.000000000000000000e+00,5.000000000000000000e+00,5.000000000000000000e+00,5.000000000000000000e+00,5.000000000000000000e+00,5.000000000000000000e+00,5.000000000000000000e+00,5.000000000000000000e+00,4.854141235351562500e+00,4.663855552673339844e+00,4.487925529479980469e+00,4.324785709381103516e+00,4.173090934753417969e+00,4.031676769256591797e+00,3.899533033370971680e+00,3.775776624679565430e+00,3.659633398056030273e+00,3.550422430038452148e+00,3.447540760040283203e+00,3.350453376770019531e+00,3.258684635162353516e+00,3.171808719635009766e+00,3.089445114135742188e+00,3.011250734329223633e+00,2.936916589736938477e+00,2.866163969039916992e+00,2.798740386962890625e+00,2.734415769577026367e+00,2.672981739044189453e+00,2.614247560501098633e+00,2.558038949966430664e+00,2.504196405410766602e+00,2.452574014663696289e+00,2.403036594390869141e+00,2.355461120605468750e+00,2.309732437133789062e+00,2.265745639801025391e+00,2.223403215408325195e+00,2.182614088058471680e+00,2.143294572830200195e+00,2.105366706848144531e+00,2.068757772445678711e+00,2.033400297164916992e+00,1.999231100082397461e+00,1.966191411018371582e+00,1.934225678443908691e+00,1.903282880783081055e+00,1.873314499855041504e+00,1.844275355339050293e+00
5.000000000000000000e+00,5.000000000000000000e+00,5.000000000000000000e+00,5.000000000000000000e+00,5.000000000000000000e+00,5.000000000000000000e+00,5.000000000000000000e+00,5.000000000000000000e+00,5.000000000000000000e+00,5.000000000000000000e+00,5.000000000000000000e+00,5.000000000000000000e+00,5.000000000000000000e+00,5.000000000000000000e+00,5.000000000000000000e+00,5.000000000000000000e+00,5.000000000000000000e+00,5.000000000000000000e+00,5.000000000000000000e+00,5.000000000000000000e+00,5.000000000000000000e+00,5.000000000000000000e+00,5.000000000000000000e+00,5.000000000000000000e+00,5.000000000000000000e+00,3.370731830596923828e+00,3.394675493240356445e+00,3.140256881713867188e+00,3.162271261215209961e+00,5.000000000000000000e+00,5.000000000000000000e+00,5.000000000000000000e+00,5.000000000000000000e+00,5.000000000000000000e+00,5.000000000000000000e+00,5.000000000000000000e+00,5.000000000000000000e+00,5.000000000000000000e+00,5.000000000000000000e+00,4.854279518127441406e+00,4.663982868194580078e+00,4.488043308258056641e+00,4.324895381927490234e+00,4.173192977905273438e+00,4.031771659851074219e+00,3.899621725082397461e+00,3.775859832763671875e+00,3.659712076187133789e+00,3.550496101379394531e+00,3.447610139846801758e+00,3.350519180297851562e+00,3.258746862411499023e+00,3.171867847442626953e+00,3.089501142501831055e+00,3.011303663253784180e+00,2.936967134475708008e+00,2.866212368011474609e+00,2.798786163330078125e+00,2.734459638595581055e+00,2.673023700714111328e+00,2.614287614822387695e+00,2.558077335357666016e+00,2.504233360290527344e+00,2.452609062194824219e+00,2.403070449829101562e+00,2.355493545532226562e+00,2.309763669967651367e+00,2.265775918960571289e+00,2.223432064056396484e+00,2.182641983032226562e+00,2.143321514129638672e+00,2.105392694473266602e+00,2.068782806396484375e+00,2.033424615859985352e+00,1.999254465103149414e+00,1.966214060783386230e+00,1.934247732162475586e+00,1.903304100036621094e+00,1.873335003852844238e+00,1.844295144081115723e+00
5.000000000000000000e+00,5.000000000000000000e+00,5.000000000000000000e+00,5.000000000000000000e+00,5.000000000000000000e+00,5.000000000000000000e+00,5.000000000000000000e+00,5.000000000000000000e+00,5.000000000000000000e+00,5.000000000000000000e+00,5.000000000000000000e+00,5.000000000000000000e+00,5.000000000000000000e+00,5.000000000000000000e+00,5.000000000000000000e+00,5.000000000000000000e+00,5.000000000000000000e+00,5.000000000000000000e+00,5.000000000000000000e+00,5.000000000000000000e+00,5.000000000000000000e+00,5.000000000000000000e+00,5.000000000000000000e+00,5.000000000000000000e+00,5.000000000000000000e+00,3.390739202499389648e+00,3.411072969436645508e+00,3.120340824127197266e+00,3.149304866790771484e+00,5.000000000000000000e+00,5.000000000000000000e+00,5.000000000000000000e+00,5.000000000000000000e+00,5.000000000000000000e+00,5.000000000000000000e+00,5.000000000000000000e+00,5.000000000000000000e+00,5.000000000000000000e+00,5.000000000000000000e+00,4.854417324066162109e+00,4.664110183715820312e+00,4.488161563873291016e+00,4.325005054473876953e+00,4.173295021057128906e+00,4.031867027282714844e+00,3.899711132049560547e+00,3.775943517684936523e+00,3.659790277481079102e+00,3.550570249557495117e+00,3.447679996490478516e+00,3.350584745407104492e+00,3.258809089660644531e+00,3.171926975250244141e+00,3.089556932449340820e+00,3.011356830596923828e+00,2.937017917633056641e+00,2.866260290145874023e+00,2.798832178115844727e+00,2.734503507614135742e+00,2.673065423965454102e+00,2.614327669143676758e+00,2.558115720748901367e+00,2.504269838333129883e+00,2.452644348144531250e+00,2.403104543685913086e+00,2.355525970458984375e+00,2.309795141220092773e+00,2.265805959701538086e+00,2.223460912704467773e+00,2.182669878005981445e+00,2.143348217010498047e+00,2.105418682098388672e+00,2.068807840347290039e+00,2.033448696136474609e+00,1.999277830123901367e+00,1.966236591339111328e+00,1.934269547462463379e+00,1.903325438499450684e+00,1.873355746269226074e+00,1.844315052032470703e+00
5.000000000000000000e+00,5.000000000000000000e+00,5.000000000000000000e+00,5.000000000000000000e+00,5.000000000000000000e+00,5.000000000000000000e+00,5.000000000000000000e+00,5.000000000000000000e+00,5.000000000000000000e+00,5.000000000000000000e+00,5.000000000000000000e+00,5.000000000000000000e+00,5.000000000000000000e+00,5.000000000000000000e+00,5.000000000000000000e+00,5.000000000000000000e+00,5.000000000000000000e+00,5.000000000000000000e+00,5.000000000000000000e+00,5.000000000000000000e+00,5.000000000000000000e+00,5.000000000000000000e+00,5.000000000000000000e+00,5.000000000000000000e+00,5.000000000000000000e+00,3.412529706954956055e+00,3.424652814865112305e+00,3.127307653427124023e+00,3.151776075363159180e+00,5.000000000000000000e+00,5.000000000000000000e+00,5.000000000000000000e+00,5.000000000000000000e+00,5.000000000000000000e+00,5.000000000000000000e+00,5.000000000000000000e+00,5.000000000000000000e+00,5.000000000000000000e+00,5.000000000000000000e+00,4.854555606842041016e+00,4.664237499237060547e+00,4.488279819488525391e+00,4.325114727020263672e+00,4.173397064208984375e+00,4.031962394714355469e+00,3.899800300598144531e+00,3.776026964187622070e+00,3.659868955612182617e+00,3.550644159317016602e+00,3.447749376296997070e+00,3.350650787353515625e+00,3.258871555328369141e+00,3.171985626220703125e+00,3.089612960815429688e+00,3.011409997940063477e+00,2.937068223953247070e+00,2.866308450698852539e+00,2.798878192901611328e+00,2.734547376632690430e+00,2.673107385635375977e+00,2.614367723464965820e+00,2.558153867721557617e+00,2.504306793212890625e+00,2.452679634094238281e+00,2.403138160705566406e+00,2.355558633804321289e+00,2.309826135635375977e+00,2.265836000442504883e+00,2.223489999771118164e+00,2.182697772979736328e+00,2.143375158309936523e+00,2.105444669723510742e+00,2.068832874298095703e+00,2.033473014831542969e+00,1.999301433563232422e+00,1.966259121894836426e+00,1.934291481971740723e+00,1.903346538543701172e+00,1.873376250267028809e+00,1.844335079193115234e+00
5.000000000000000000e+00,5.000000000000000000e+00,5.000000000000000000e+00,5.000000000000000000e+00,5.000000000000000000e+00,5.000000000000000000e+00,5.000000000000000000e+00,5.000000000000000000e+00,5.000000000000000000e+00,5.000000000000000000e+00,5.000000000000000000e+00,5.000000000000000000e+00,5.000000000000000000e+00,5.000000000000000000e+00,5.000000000000000000e+00,5.000000000000000000e+00,5.000000000000000000e+00,5.000000000000000000e+00,5.000000000000000000e+00,5.000000000000000000e+00,5.000000000000000000e+00,5.000000000000000000e+00,5.000000000000000000e+00,5.000000000000000000e+00,5.000000000000000000e+00,3.465450525283813477e+00,3.452466726303100586e+00,3.142350673675537109e+00,3.154449939727783203e+00,5.000000000000000000e+00,5.000000000000000000e+00,5.000000000000000000e+00,5.000000000000000000e+00,5.000000000000000000e+00,5.000000000000000000e+00,5.000000000000000000e+00,5.000000000000000000e+00,5.000000000000000000e+00,5.000000000000000000e+00,4.854692935943603516e+00,4.664364814758300781e+00,4.488397598266601562e+00,4.325224399566650391e+00,4.173498630523681641e+00,4.032057762145996094e+00,3.899889230728149414e+00,3.776110649108886719e+00,3.659947633743286133e+00,3.550717830657958984e+00,3.447819232940673828e+00,3.350716590881347656e+00,3.258933544158935547e+00,3.172044754028320312e+00,3.089668989181518555e+00,3.011463165283203125e+00,2.937118768692016602e+00,2.866356611251831055e+00,2.798923969268798828e+00,2.734591245651245117e+00,2.673149108886718750e+00,2.614407777786254883e+00,2.558192253112792969e+00,2.504343271255493164e+00,2.452714920043945312e+00,2.403172016143798828e+00,2.355591058731079102e+00,2.309857606887817383e+00,2.265866041183471680e+00,2.223518848419189453e+00,2.182725667953491211e+00,2.143402338027954102e+00,2.105470418930053711e+00,2.068857908248901367e+00,2.033497333526611328e+00,1.999324798583984375e+00,1.966282010078430176e+00,1.934313535690307617e+00,1.903367757797241211e+00,1.873396754264831543e+00,1.844354987144470215e+00
5.000000000000000000e+00,5.000000000000000000e+00,5.000000000000000000e+00,5.000000000000000000e+00,5.000000000000000000e+00,5.000000000000000000e+00,5.000000000000000000e+00,5.000000000000000000e+00,5.000000000000000000e+00,5.000000000000000000e+00,5.000000000000000000e+00,5.000000000000000000e+00,5.000000000000000000e+00,5.000000000000000000e+00,5.000000000000000000e+00,5.000000000000000000e+00,5.000000000000000000e+00,5.000000000000000000e+00,5.000000000000000000e+00,5.000000000000000000e+00,5.000000000000000000e+00,5.000000000000000000e+00,5.000000000000000000e+00,5.000000000000000000e+00,5.000000000000000000e+00,3.550968885421752930e+00,3.509912014007568359e+00,3.143956422805786133e+00,3.148501157760620117e+00,5.000000000000000000e+00,5.000000000000000000e+00,5.000000000000000000e+00,5.000000000000000000e+00,5.000000000000000000e+00,5.000000000000000000e+00,5.000000000000000000e+00,5.000000000000000000e+00,5.000000000000000000e+00,5.000000000000000000e+00,4.854830741882324219e+00,4.664492607116699219e+00,4.488515377044677734e+00,4.325333595275878906e+00,4.173601150512695312e+00,4.032152652740478516e+00,3.899978399276733398e+00,3.776194334030151367e+00,3.660025835037231445e+00,3.550791740417480469e+00,3.447888612747192383e+00,3.350782155990600586e+00,3.258995771408081055e+00,3.172103643417358398e+00,3.089724779129028320e+00,3.011516332626342773e+00,2.937169313430786133e+00,2.866404771804809570e+00,2.798969984054565430e+00,2.734634876251220703e+00,2.673191070556640625e+00,2.614447832107543945e+00,2.558230638504028320e+00,2.504380226135253906e+00,2.452750205993652344e+00,2.403205871582031250e+00,2.355623722076416016e+00,2.309888839721679688e+00,2.265896081924438477e+00,2.223547935485839844e+00,2.182753562927246094e+00,2.143429040908813477e+00,2.105496644973754883e+00,2.068883180618286133e+00,2.033521413803100586e+00,1.999348044395446777e+00,1.966304540634155273e+00,1.934335350990295410e+00,1.903389096260070801e+00,1.873417496681213379e+00,1.844374895095825195e+00
5.000000000000000000e+00,5.000000000000000000e+00,5.000000000000000000e+00,5.000000000000000000e+00,5.000000000000000000e+00,5.000000000000000000e+00,5.000000000000000000e+00,5.000000000000000000e+00,5.000000000000000000e+00,5.000000000000000000e+00,5.000000000000000000e+00,5.000000000000000000e+00,5.000000000000000000e+00,5.000000000000000000e+00,5.000000000000000000e+00,5.000000000000000000e+00,5.000000000000000000e+00,5.000000000000000000e+00,5.000000000000000000e+00,5.000000000000000000e+00,5.000000000000000000e+00,5.000000000000000000e+00,5.000000000000000000e+00,5.000000000000000000e+00,5.000000000000000000e+00,5.000000000000000000e+00,3.548699855804443359e+00,3.133576154708862305e+00,3.140557289123535156e+00,5.000000000000000000e+00,5.000000000000000000e+00,5.000000000000000000e+00,5.000000000000000000e+00,5.000000000000000000e+00,5.000000000000000000e+00,5.000000000000000000e+00,5.000000000000000000e+00,5.000000000000000000e+00,5.000000000000000000e+00,4.854968547821044922e+00,4.664618968963623047e+00,4.488633632659912109e+00,4.325443267822265625e+00,4.173703193664550781e+00,4.032248020172119141e+00,3.900067329406738281e+00,3.776277542114257812e+00,3.660104513168334961e+00,3.550865411758422852e+00,3.447958469390869141e+00,3.350848197937011719e+00,3.259057998657226562e+00,3.172162532806396484e+00,3.089780807495117188e+00,3.011569261550903320e+00,2.937219858169555664e+00,2.866452932357788086e+00,2.799015760421752930e+00,2.734678745269775391e+00,2.673233032226562500e+00,2.614487648010253906e+00,2.558269023895263672e+00,2.504416942596435547e+00,2.452785253524780273e+00,2.403239727020263672e+00,2.355656147003173828e+00,2.309920072555541992e+00,2.265926122665405273e+00,2.223577022552490234e+00,2.182781457901000977e+00,2.143455982208251953e+00,2.105522632598876953e+00,2.068908214569091797e+00,2.033545732498168945e+00,1.999371409416198730e+00,1.966327190399169922e+00,1.934357166290283203e+00,1.903410315513610840e+00,1.873438000679016113e+00,1.844394922256469727e+00
5.000000000000000000e+00,5.000000000000000000e+00,5.000000000000000000e+00,5.000000000000000000e+00,5.000000000000000000e+00,5.000000000000000000e+00,5.000000000000000000e+00,5.000000000000000000e+00,5.000000000000000000e+00,5.000000000000000000e+00,5.000000000000000000e+00,5.000000000000000000e+00,5.000000000000000000e+00,5.000000000000000000e+00,5.000000000000000000e+00,5.000000000000000000e+00,5.000000000000000000e+00,5.000000000000000000e+00,5.000000000000000000e+00,5.000000000000000000e+00,5.000000000000000000e+00,5.000000000000000000e+00,5.000000000000000000e+00,5.000000000000000000e+00,5.000000000000000000e+00,5.000000000000000000e+00,3.573500394821166992e+00,3.122980117797851562e+00,3.136408090591430664e+00,5.000000000000000000e+00,5.000000000000000000e+00,5.000000000000000000e+00,5.000000000000000000e+00,5.000000000000000000e+00,5.000000000000000000e+00,5.000000000000000000e+00,5.000000000000000000e+00,5.000000000000000000e+00,5.000000000000000000e+00,4.855106353759765625e+00,4.664746761322021484e+00,4.488750934600830078e+00,4.325552940368652344e+00,4.173805236816406250e+00,4.032343387603759766e+00,3.900156736373901367e+00,3.776361227035522461e+00,3.660182714462280273e+00,3.550939559936523438e+00,3.448028326034545898e+00,3.350913763046264648e+00,3.259120225906372070e+00,3.172221660614013672e+00,3.089836597442626953e+00,3.011622428894042969e+00,2.937270641326904297e+00,2.866501092910766602e+00,2.799061775207519531e+00,2.734722614288330078e+00,2.673274755477905273e+00,2.614527940750122070e+00,2.558307409286499023e+00,2.504453659057617188e+00,2.452820777893066406e+00,2.403273582458496094e+00,2.355688571929931641e+00,2.309951305389404297e+00,2.265956163406372070e+00,2.223605871200561523e+00,2.182809352874755859e+00,2.143482923507690430e+00,2.105548381805419922e+00,2.068933248519897461e+00,2.033569812774658203e+00,1.999395012855529785e+00,1.966349959373474121e+00,1.934379100799560547e+00,1.903431415557861328e+00,1.873458504676818848e+00,1.844414830207824707e+00
5.000000000000000000e+00,5.000000000000000000e+00,5.000000000000000000e+00,5.000000000000000000e+00,5.000000000000000000e+00,5.000000000000000000e+00,5.000000000000000000e+00,5.000000000000000000e+00,5.000000000000000000e+00,5.000000000000000000e+00,5.000000000000000000e+00,5.000000000000000000e+00,5.000000000000000000e+00,5.000000000000000000e+00,5.000000000000000000e+00,5.000000000000000000e+00,5.000000000000000000e+00,5.000000000000000000e+00,5.000000000000000000e+00,5.000000000000000000e+00,5.000000000000000000e+00,5.000000000000000000e+00,5.000000000000000000e+00,5.000000000000000000e+00,5.000000000000000000e+00,5.000000000000000000e+00,3.624509096145629883e+00,3.113955020904541016e+00,3.134682655334472656e+00,5.000000000000000000e+00,5.000000000000000000e+00,5.000000000000000000e+00,5.000000000000000000e+00,5.000000000000000000e+00,5.000000000000000000e+00,5.000000000000000000e+00,5.000000000000000000e+00,5.000000000000000000e+00,5.000000000000000000e+00,4.855244159698486328e+00,4.664873600006103516e+00,4.488868713378906250e+00,4.325662136077880859e+00,4.173907279968261719e+00,4.032438755035400391e+00,3.900245904922485352e+00,3.776444673538208008e+00,3.660261392593383789e+00,3.551013469696044922e+00,3.448097705841064453e+00,3.350979566574096680e+00,3.259182691574096680e+00,3.172280550003051758e+00,3.089892625808715820e+00,3.011675834655761719e+00,2.937320947647094727e+00,2.866549253463745117e+00,2.799107551574707031e+00,2.734766244888305664e+00,2.673316717147827148e+00,2.614567756652832031e+00,2.558345556259155273e+00,2.504490375518798828e+00,2.452855825424194336e+00,2.403307437896728516e+00,2.355721235275268555e+00,2.309982538223266602e+00,2.265986442565917969e+00,2.223634958267211914e+00,2.182837247848510742e+00,2.143509864807128906e+00,2.105574369430541992e+00,2.068958282470703125e+00,2.033594131469726562e+00,1.999418377876281738e+00,1.966372609138488770e+00,1.934401154518127441e+00,1.903452873229980469e+00,1.873479008674621582e+00,1.844434618949890137e+00
5.000000000000000000e+00,5.000000000000000000e+00,5.000000000000000000e+00,5.000000000000000000e+00,5.000000000000000000e+00,5.000000000000000000e+00,5.000000000000000000e+00,5.000000000000000000e+00,5.000000000000000000e+00,5.000000000000000000e+00,5.000000000000000000e+00,5.000000000000000000e+00,5.000000000000000000e+00,5.000000000000000000e+00,5.000000000000000000e+00,5.000000000000000000e+00,5.000000000000000000e+00,5.000000000000000000e+00,5.000000000000000000e+00,5.000000000000000000e+00,5.000000000000000000e+00,5.000000000000000000e+00,5.000000000000000000e+00,5.000000000000000000e+00,5.000000000000000000e+00,5.000000000000000000e+00,5.000000000000000000e+00,3.106074333190917969e+00,3.133049011230468750e+00,5.000000000000000000e+00,5.000000000000000000e+00,5.000000000000000000e+00,5.000000000000000000e+00,5.000000000000000000e+00,5.000000000000000000e+00,5.000000000000000000e+00,5.000000000000000000e+00,5.000000000000000000e+00,5.000000000000000000e+00,4.855381965637207031e+00,4.665000915527343750e+00,4.488986492156982422e+00,4.325771331787109375e+00,4.174009323120117188e+00,4.032534122467041016e+00,3.900334835052490234e+00,3.776528358459472656e+00,3.660340070724487305e+00,3.551087141036987305e+00,3.448167562484741211e+00,3.351045608520507812e+00,3.259244680404663086e+00,3.172339677810668945e+00,3.089948415756225586e+00,3.011728763580322266e+00,2.937371492385864258e+00,2.866597175598144531e+00,2.799153566360473633e+00,2.734810352325439453e+00,2.673358440399169922e+00,2.614608049392700195e+00,2.558384180068969727e+00,2.504527091979980469e+00,2.452891111373901367e+00,2.403341293334960938e+00,2.355753660202026367e+00,2.310013771057128906e+00,2.266016483306884766e+00,2.223663806915283203e+00,2.182865381240844727e+00,2.143536806106567383e+00,2.105600357055664062e+00,2.068983316421508789e+00,2.033618450164794922e+00,1.999441742897033691e+00,1.966395139694213867e+00,1.934422969818115234e+00,1.903473973274230957e+00,1.873499631881713867e+00,1.844454765319824219e+00
4.875299453735351562e+00,4.874088764190673828e+00,4.872879028320312500e+00,4.871669292449951172e+00,4.870460510253906250e+00,4.869252204895019531e+00,4.868044853210449219e+00,4.866837501525878906e+00,4.865631103515625000e+00,4.864425659179687500e+00,4.863220214843750000e+00,4.862015724182128906e+00,4.860811233520507812e+00,4.859608173370361328e+00,4.858405590057373047e+00,4.857203483581542969e+00,4.856001853942871094e+00,4.854800701141357422e+00,4.853600025177001953e+00,4.852400302886962891e+00,4.851201057434082031e+00,4.850002288818359375e+00,4.848803997039794922e+00,4.847606658935546875e+00,4.846409797668457031e+00,4.845213413238525391e+00,4.844017505645751953e+00,3.100886583328247070e+00,3.152030706405639648e+00,4.840434551239013672e+00,4.839241027832031250e+00,4.838047981262207031e+00,4.836855888366699219e+00,4.835664272308349609e+00,4.834473133087158203e+00,4.833282947540283203e+00,4.832092761993408203e+00,4.830903530120849609e+00,4.829714775085449219e+00,4.828526973724365234e+00,4.665128231048583984e+00,4.489104270935058594e+00,4.325881004333496094e+00,4.174110889434814453e+00,4.032629013061523438e+00,3.900424242019653320e+00,3.776611566543579102e+00,3.660418272018432617e+00,3.551161289215087891e+00,3.448236942291259766e+00,3.351111173629760742e+00,3.259307146072387695e+00,3.172398328781127930e+00,3.090004444122314453e+00,3.011781930923461914e+00,2.937422037124633789e+00,2.866645574569702148e+00,2.799199581146240234e+00,2.734853982925415039e+00,2.673400402069091797e+00,2.614648103713989258e+00,2.558422327041625977e+00,2.504564046859741211e+00,2.452926397323608398e+00,2.403374910354614258e+00,2.355786085128784180e+00,2.310045242309570312e+00,2.266046524047851562e+00,2.223692893981933594e+00,2.182893276214599609e+00,2.143563747406005859e+00,2.105626344680786133e+00,2.069008588790893555e+00,2.033642530441284180e+00,1.999465346336364746e+00,1.966417670249938965e+00,1.934444904327392578e+00,1.903495192527770996e+00,1.873520135879516602e+00,1.844474673271179199e+00
3.778141736984252930e+00,3.777414798736572266e+00,3.776687860488891602e+00,3.775961399078369141e+00,3.775234937667846680e+00,3.774509191513061523e+00,3.773783683776855469e+00,3.773057937622070312e+00,3.772333145141601562e+00,3.771608114242553711e+00,3.770883560180664062e+00,3.770159244537353516e+00,3.769435405731201172e+00,3.768711328506469727e+00,3.767988204956054688e+00,3.767264842987060547e+00,3.766541957855224609e+00,3.765819072723388672e+00,3.765097141265869141e+00,3.764375209808349609e+00,3.763653039932250977e+00,3.762931823730468750e+00,3.762210369110107422e+00,3.761489629745483398e+00,3.760768651962280273e+00,3.760048389434814453e+00,3.611387968063354492e+00,2.986453533172607422e+00,2.986047506332397461e+00,3.757169485092163086e+00,3.756450176239013672e+00,3.755731821060180664e+00,3.755012989044189453e+00,3.754294872283935547e+00,3.753577232360839844e+00,3.752859354019165039e+00,3.752142190933227539e+00,3.751424789428710938e+00,3.750708103179931641e+00,3.749991416931152344e+00,3.749275207519531250e+00,3.748558998107910156e+00,3.747843503952026367e+00,3.747127771377563477e+00,3.746412754058837891e+00,3.745697736740112305e+00,3.744983196258544922e+00,3.660496950149536133e+00,3.551234960556030273e+00,3.448306798934936523e+00,3.351177215576171875e+00,3.259369134902954102e+00,3.172457456588745117e+00,3.090060472488403320e+00,3.011835098266601562e+00,2.937472581863403320e+00,2.866693735122680664e+00,2.799245357513427734e+00,2.734897851943969727e+00,2.673442363739013672e+00,2.614687919616699219e+00,2.558460712432861328e+00,2.504600763320922852e+00,2.452961683273315430e+00,2.403409004211425781e+00,2.355818748474121094e+00,2.310076236724853516e+00,2.266076564788818359e+00,2.223721742630004883e+00,2.182921171188354492e+00,2.143590688705444336e+00,2.105652332305908203e+00,2.069033384323120117e+00,2.033666849136352539e+00,1.999488711357116699e+00,1.966440558433532715e+00,1.934466958045959473e+00,1.903516292572021484e+00,1.873540639877319336e+00,1.844494462013244629e+00
3.084086179733276367e+00,3.083601951599121094e+00,3.083117246627807617e+00,3.082633256912231445e+00,3.082149028778076172e+00,3.081665277481079102e+00,3.081181526184082031e+00,3.080698013305664062e+00,3.080214500427246094e+00,3.079731225967407227e+00,3.079247951507568359e+00,3.078765153884887695e+00,3.078282117843627930e+00,3.077799558639526367e+00,3.077317237854003906e+00,3.076834678649902344e+00,3.076352596282958984e+00,3.075870275497436523e+00,3.075388431549072266e+00,3.074906587600708008e+00,3.074424982070922852e+00,3.073943376541137695e+00,3.073462247848510742e+00,3.072980880737304688e+00,3.072499990463256836e+00,3.072019100189208984e+00,3.071538448333740234e+00,3.071058034896850586e+00,3.070577383041381836e+00,3.070097208023071289e+00,3.069617033004760742e+00,3.069137096405029297e+00,3.068657159805297852e+00,3.068177700042724609e+00,3.067698001861572266e+00,3.067218780517578125e+00,3.066739320755004883e+00,3.066260576248168945e+00,3.065781593322753906e+00,3.065302848815917969e+00,3.064824104309082031e+00,3.064345836639404297e+00,3.063867568969726562e+00,3.063389301300048828e+00,3.062911272048950195e+00,3.062433242797851562e+00,3.061955690383911133e+00,3.061477899551391602e+00,3.061000823974609375e+00,3.060523271560668945e+00,3.060046195983886719e+00,3.059569120407104492e+00,3.059092521667480469e+00,3.058615684509277344e+00,3.011888265609741211e+00,2.937523365020751953e+00,2.866741657257080078e+00,2.799291133880615234e+00,2.734941720962524414e+00,2.673484325408935547e+00,2.614728212356567383e+00,2.558498859405517578e+00,2.504637479782104492e+00,2.452996969223022461e+00,2.403442621231079102e+00,2.355851173400878906e+00,2.310107707977294922e+00,2.266106605529785156e+00,2.223750591278076172e+00,2.182949066162109375e+00,2.143617391586303711e+00,2.105678319931030273e+00,2.069058656692504883e+00,2.033690929412841797e+00,1.999512076377868652e+00,1.966463088989257812e+00,1.934488773345947266e+00,1.903537750244140625e+00,1.873561382293701172e+00,1.844514369964599609e+00
2.605456352233886719e+00,2.605110406875610352e+00,2.604764938354492188e+00,2.604419231414794922e+00,2.604073762893676758e+00,2.603728294372558594e+00,2.603382825851440430e+00,2.603037834167480469e+00,2.602692604064941406e+00,2.602347612380981445e+00,2.602002382278442383e+00,2.601657629013061523e+00,2.601312637329101562e+00,2.600968122482299805e+00,2.600623369216918945e+00,2.600279092788696289e+00,2.599934577941894531e+00,2.599590301513671875e+00,2.599245786666870117e+00,2.598901748657226562e+00,2.598557949066162109e+00,2.598213672637939453e+00,2.597869873046875000e+00,2.597526073455810547e+00,2.597182512283325195e+00,2.596838712692260742e+00,2.596495389938354492e+00,2.596151828765869141e+00,2.595808506011962891e+00,2.595465183258056641e+00,2.595122098922729492e+00,2.594779014587402344e+00,2.594436168670654297e+00,2.594093322753906250e+00,2.593750476837158203e+00,2.593407869338989258e+00,2.593065261840820312e+00,2.592722654342651367e+00,2.592380285263061523e+00,2.592037916183471680e+00,2.591695547103881836e+00,2.591353654861450195e+00,2.591011285781860352e+00,2.590669393539428711e+00,2.590327501296997070e+00,2.589985847473144531e+00,2.589643955230712891e+00,2.589302539825439453e+00,2.588961124420166016e+00,2.588619470596313477e+00,2.588278293609619141e+00,2.587936878204345703e+00,2.587595939636230469e+00,2.587254762649536133e+00,2.586913824081420898e+00,2.586572885513305664e+00,2.586232185363769531e+00,2.585891246795654297e+00,2.585550785064697266e+00,2.585210084915161133e+00,2.584869861602783203e+00,2.558537483215332031e+00,2.504674196243286133e+00,2.453032016754150391e+00,2.403476476669311523e+00,2.355883836746215820e+00,2.310138940811157227e+00,2.266136884689331055e+00,2.223779678344726562e+00,2.182976961135864258e+00,2.143644571304321289e+00,2.105704307556152344e+00,2.069083690643310547e+00,2.033715248107910156e+00,1.999535679817199707e+00,1.966485738754272461e+00,1.934510707855224609e+00,1.903558850288391113e+00,1.873581886291503906e+00,1.844534397125244141e+00
2.255445957183837891e+00,2.255186080932617188e+00,2.254926443099975586e+00,2.254666566848754883e+00,2.254406929016113281e+00,2.254147291183471680e+00,2.253887653350830078e+00,2.253628253936767578e+00,2.253368616104125977e+00,2.253109216690063477e+00,2.252850055694580078e+00,2.252590656280517578e+00,2.252331495285034180e+00,2.252072334289550781e+00,2.251813173294067383e+00,2.251554250717163086e+00,2.251295328140258789e+00,2.251036167144775391e+00,2.250777482986450195e+00,2.250518560409545898e+00,2.250259876251220703e+00,2.250001192092895508e+00,2.249742507934570312e+00,2.249484062194824219e+00,2.249225854873657227e+00,2.248968124389648438e+00,2.248710393905639648e+00,2.248452901840209961e+00,2.248195648193359375e+00,2.247937917709350586e+00,2.247680664062500000e+00,2.247423171997070312e+00,2.247165918350219727e+00,2.246908664703369141e+00,2.246651649475097656e+00,2.246394395828247070e+00,2.246137380599975586e+00,2.245880365371704102e+00,2.245623350143432617e+00,2.245366334915161133e+00,2.245109558105468750e+00,2.244853019714355469e+00,2.244596242904663086e+00,2.244339704513549805e+00,2.244082927703857422e+00,2.243826389312744141e+00,2.243569850921630859e+00,2.243313550949096680e+00,2.243057250976562500e+00,2.242800951004028320e+00,2.242544651031494141e+00,2.242288589477539062e+00,2.242032289505004883e+00,2.241776227951049805e+00,2.241520166397094727e+00,2.241264343261718750e+00,2.241008520126342773e+00,2.240752696990966797e+00,2.240496873855590820e+00,2.240241050720214844e+00,2.239985466003417969e+00,2.239729881286621094e+00,2.239474296569824219e+00,2.239218950271606445e+00,2.238963603973388672e+00,2.238708019256591797e+00,2.238452911376953125e+00,2.238197565078735352e+00,2.223808526992797852e+00,2.183004856109619141e+00,2.143671512603759766e+00,2.105730295181274414e+00,2.069108724594116211e+00,2.033739566802978516e+00,1.999558925628662109e+00,1.966508507728576660e+00,1.934532761573791504e+00,1.903580069541931152e+00,1.873602390289306641e+00,1.844554305076599121e+00
1.988370180130004883e+00,1.988168239593505859e+00,1.987966418266296387e+00,1.987764358520507812e+00,1.987562537193298340e+00,1.987360715866088867e+00,1.987159013748168945e+00,1.986957311630249023e+00,1.986755371093750000e+00,1.986553788185119629e+00,1.986352324485778809e+00,1.986150741577148438e+00,1.985949277877807617e+00,1.985747814178466797e+00,1.985546231269836426e+00,1.985344886779785156e+00,1.985143542289733887e+00,1.984942317008972168e+00,1.984740972518920898e+00,1.984539628028869629e+00,1.984338402748107910e+00,1.984137296676635742e+00,1.983936190605163574e+00,1.983735203742980957e+00,1.983534216880798340e+00,1.983332991600036621e+00,1.983132123947143555e+00,1.982931256294250488e+00,1.982730388641357422e+00,1.982529640197753906e+00,1.982328891754150391e+00,1.982127904891967773e+00,1.981927275657653809e+00,1.981726646423339844e+00,1.981526017189025879e+00,1.981325507164001465e+00,1.981124758720397949e+00,1.980924248695373535e+00,1.980723857879638672e+00,1.980523467063903809e+00,1.980323076248168945e+00,1.980122804641723633e+00,1.979922294616699219e+00,1.979722142219543457e+00,1.979521870613098145e+00,1.979321718215942383e+00,1.979121685028076172e+00,1.978921413421630859e+00,1.978721380233764648e+00,1.978521347045898438e+00,1.978321433067321777e+00,1.978121519088745117e+00,1.977921605110168457e+00,1.977721571922302246e+00,1.977521777153015137e+00,1.977322101593017578e+00,1.977122426033020020e+00,1.976922750473022461e+00,1.976722836494445801e+00,1.976523280143737793e+00,1.976323723793029785e+00,1.976124286651611328e+00,1.975924849510192871e+00,1.975725412368774414e+00,1.975525736808776855e+00,1.975326418876647949e+00,1.975127100944519043e+00,1.974927902221679688e+00,1.974728703498840332e+00,1.974529266357421875e+00,1.974330067634582520e+00,1.974130988121032715e+00,1.973931908607482910e+00,1.973732948303222656e+00,1.973533987998962402e+00,1.966531157493591309e+00,1.934554576873779297e+00,1.903601408004760742e+00,1.873622894287109375e+00,1.844574213027954102e+00
1.777848482131958008e+00,1.777686953544616699e+00,1.777525544166564941e+00,1.777364134788513184e+00,1.777202844619750977e+00,1.777041554450988770e+00,1.776880025863647461e+00,1.776718735694885254e+00,1.776557564735412598e+00,1.776396393775939941e+00,1.776235222816467285e+00,1.776073813438415527e+00,1.775912761688232422e+00,1.775751590728759766e+00,1.775590538978576660e+00,1.775429606437683105e+00,1.775268554687500000e+00,1.775107383728027344e+00,1.774946451187133789e+00,1.774785518646240234e+00,1.774624705314636230e+00,1.774463772773742676e+00,1.774302721023559570e+00,1.774142026901245117e+00,1.773981213569641113e+00,1.773820519447326660e+00,1.773659706115722656e+00,1.773499131202697754e+00,1.773338198661804199e+00,1.773177623748779297e+00,1.773017048835754395e+00,1.772856473922729492e+00,1.772695899009704590e+00,1.772535204887390137e+00,1.772374749183654785e+00,1.772214293479919434e+00,1.772053837776184082e+00,1.771893501281738281e+00,1.771733164787292480e+00,1.771572589874267578e+00,1.771412253379821777e+00,1.771252036094665527e+00,1.771091818809509277e+00,1.770931601524353027e+00,1.770771145820617676e+00,1.770611047744750977e+00,1.770450949668884277e+00,1.770290732383728027e+00,1.770130753517150879e+00,1.769970655441284180e+00,1.769810438156127930e+00,1.769650459289550781e+00,1.769490480422973633e+00,1.769330620765686035e+00,1.769170761108398438e+00,1.769010782241821289e+00,1.768850803375244141e+00,1.768690943717956543e+00,1.768531203269958496e+00,1.768371462821960449e+00,1.768211722373962402e+00,1.768051862716674805e+00,1.767892241477966309e+00,1.767732501029968262e+00,1.767572999000549316e+00,1.767413377761840820e+00,1.767253756523132324e+00,1.767094135284423828e+00,1.766934633255004883e+00,1.766775131225585938e+00,1.766615748405456543e+00,1.766456365585327148e+00,1.766296744346618652e+00,1.766137361526489258e+00,1.765978097915649414e+00,1.765818834304809570e+00,1.765659570693969727e+00,1.765500307083129883e+00,1.765340924263000488e+00,1.765181779861450195e+00
1.607637524604797363e+00,1.607505440711975098e+00,1.607373476028442383e+00,1.607241392135620117e+00,1.607109427452087402e+00,1.606977462768554688e+00,1.606845617294311523e+00,1.606713771820068359e+00,1.606581687927246094e+00,1.606449842453002930e+00,1.606318116188049316e+00,1.606186270713806152e+00,1.606054544448852539e+00,1.605922698974609375e+00,1.605790853500366211e+00,1.605659127235412598e+00,1.605527520179748535e+00,1.605395793914794922e+00,1.605264186859130859e+00,1.605132460594177246e+00,1.605000853538513184e+00,1.604869246482849121e+00,1.604737639427185059e+00,1.604606151580810547e+00,1.604474663734436035e+00,1.604342937469482422e+00,1.604211568832397461e+00,1.604080080986022949e+00,1.603948593139648438e+00,1.603817224502563477e+00,1.603685855865478516e+00,1.603554368019104004e+00,1.603422999382019043e+00,1.603291749954223633e+00,1.603160381317138672e+00,1.603029131889343262e+00,1.602897763252258301e+00,1.602766513824462891e+00,1.602635264396667480e+00,1.602504134178161621e+00,1.602372884750366211e+00,1.602241754531860352e+00,1.602110505104064941e+00,1.601979374885559082e+00,1.601848363876342773e+00,1.601717233657836914e+00,1.601586222648620605e+00,1.601455092430114746e+00,1.601324081420898438e+00,1.601193070411682129e+00,1.601062178611755371e+00,1.600931167602539062e+00,1.600800275802612305e+00,1.600669264793395996e+00,1.600538372993469238e+00,1.600407600402832031e+00,1.600276708602905273e+00,1.600145936012268066e+00,1.600015044212341309e+00,1.599884152412414551e+00,1.599753499031066895e+00,1.599622726440429688e+00,1.599492073059082031e+00,1.599361419677734375e+00,1.599230527877807617e+00,1.599099993705749512e+00,1.598969340324401855e+00,1.598838806152343750e+00,1.598708152770996094e+00,1.598577499389648438e+00,1.598446965217590332e+00,1.598316431045532227e+00,1.598186016082763672e+00,1.598055481910705566e+00,1.597925066947937012e+00,1.597794532775878906e+00,1.597664117813110352e+00,1.597533702850341797e+00,1.597403407096862793e+00,1.597272992134094238e+00
1.467170596122741699e+00,1.467060685157775879e+00,1.466950774192810059e+00,1.466840863227844238e+00,1.466730952262878418e+00,1.466621041297912598e+00,1.466511011123657227e+00,1.466401219367980957e+00,1.466291308403015137e+00,1.466181516647338867e+00,1.466071724891662598e+00,1.465961813926696777e+00,1.465852022171020508e+00,1.465742349624633789e+00,1.465632557868957520e+00,1.465522885322570801e+00,1.465413093566894531e+00,1.465303301811218262e+00,1.465193629264831543e+00,1.465083956718444824e+00,1.464974403381347656e+00,1.464864730834960938e+00,1.464755058288574219e+00,1.464645385742187500e+00,1.464535832405090332e+00,1.464426279067993164e+00,1.464316725730895996e+00,1.464207291603088379e+00,1.464097619056701660e+00,1.463988065719604492e+00,1.463878631591796875e+00,1.463769197463989258e+00,1.463659763336181641e+00,1.463550209999084473e+00,1.463440775871276855e+00,1.463331341743469238e+00,1.463222026824951172e+00,1.463112711906433105e+00,1.463003277778625488e+00,1.462893843650817871e+00,1.462784528732299805e+00,1.462675213813781738e+00,1.462566018104553223e+00,1.462456703186035156e+00,1.462347388267517090e+00,1.462238192558288574e+00,1.462128996849060059e+00,1.462019801139831543e+00,1.461910605430603027e+00,1.461801409721374512e+00,1.461692094802856445e+00,1.461583018302917480e+00,1.461473941802978516e+00,1.461364865303039551e+00,1.461255669593811035e+00,1.461146712303161621e+00,1.461037516593933105e+00,1.460928440093994141e+00,1.460819482803344727e+00,1.460710406303405762e+00,1.460601449012756348e+00,1.460492372512817383e+00,1.460383415222167969e+00,1.460274457931518555e+00,1.460165619850158691e+00,1.460056662559509277e+00,1.459947824478149414e+00,1.459838747978210449e+00,1.459729909896850586e+00,1.459621071815490723e+00,1.459512233734130859e+00,1.459403514862060547e+00,1.459294557571411133e+00,1.459185838699340820e+00,1.459077000617980957e+00,1.458968281745910645e+00,1.458859562873840332e+00,1.458750844001770020e+00,1.458642005920410156e+00,1.458533406257629395e+00
1.349277973175048828e+00,1.349184989929199219e+00,1.349092006683349609e+00,1.348998904228210449e+00,1.348905920982360840e+00,1.348812937736511230e+00,1.348720073699951172e+00,1.348627209663391113e+00,1.348534107208251953e+00,1.348441243171691895e+00,1.348348379135131836e+00,1.348255515098571777e+00,1.348162651062011719e+00,1.348069906234741211e+00,1.347976922988891602e+00,1.347884058952331543e+00,1.347791314125061035e+00,1.347698569297790527e+00,1.347605705261230469e+00,1.347512841224670410e+00,1.347420096397399902e+00,1.347327470779418945e+00,1.347234725952148438e+00,1.347141981124877930e+00,1.347049355506896973e+00,1.346956491470336914e+00,1.346863865852355957e+00,1.346771240234375000e+00,1.346678614616394043e+00,1.346585988998413086e+00,1.346493363380432129e+00,1.346400618553161621e+00,1.346307992935180664e+00,1.346215486526489258e+00,1.346122860908508301e+00,1.346030354499816895e+00,1.345937609672546387e+00,1.345845103263854980e+00,1.345752596855163574e+00,1.345660090446472168e+00,1.345567584037780762e+00,1.345475196838378906e+00,1.345382571220397949e+00,1.345290064811706543e+00,1.345197677612304688e+00,1.345105290412902832e+00,1.345012784004211426e+00,1.344920277595520020e+00,1.344827890396118164e+00,1.344735503196716309e+00,1.344643235206604004e+00,1.344550848007202148e+00,1.344458460807800293e+00,1.344366073608398438e+00,1.344273686408996582e+00,1.344181418418884277e+00,1.344089150428771973e+00,1.343996882438659668e+00,1.343904495239257812e+00,1.343812227249145508e+00,1.343719959259033203e+00,1.343627810478210449e+00,1.343535542488098145e+00,1.343443393707275391e+00,1.343351125717163086e+00,1.343258857727050781e+00,1.343166708946228027e+00,1.343074560165405273e+00,1.342982411384582520e+00,1.342890262603759766e+00,1.342798113822937012e+00,1.342705965042114258e+00,1.342613935470581055e+00,1.342521786689758301e+00,1.342429757118225098e+00,1.342337608337402344e+00,1.342245578765869141e+00,1.342153549194335938e+00,1.342061519622802734e+00,1.341969490051269531e+00
1.248922228813171387e+00,1.248842597007751465e+00,1.248762965202331543e+00,1.248683333396911621e+00,1.248603582382202148e+00,1.248523950576782227e+00,1.248444318771362305e+00,1.248364686965942383e+00,1.248285055160522461e+00,1.248205542564392090e+00,1.248125910758972168e+00,1.248046278953552246e+00,1.247966647148132324e+00,1.247887134552001953e+00,1.247807621955871582e+00,1.247728109359741211e+00,1.247648596763610840e+00,1.247568964958190918e+00,1.247489452362060547e+00,1.247409939765930176e+00,1.247330427169799805e+00,1.247251033782958984e+00,1.247171401977539062e+00,1.247092008590698242e+00,1.247012615203857422e+00,1.246933102607727051e+00,1.246853709220886230e+00,1.246774315834045410e+00,1.246694803237915039e+00,1.246615409851074219e+00,1.246536016464233398e+00,1.246456742286682129e+00,1.246377348899841309e+00,1.246297836303710938e+00,1.246218562126159668e+00,1.246139168739318848e+00,1.246059894561767578e+00,1.245980620384216309e+00,1.245901346206665039e+00,1.245821952819824219e+00,1.245742678642272949e+00,1.245663404464721680e+00,1.245584130287170410e+00,1.245504856109619141e+00,1.245425581932067871e+00,1.245346307754516602e+00,1.245267152786254883e+00,1.245187878608703613e+00,1.245108723640441895e+00,1.245029568672180176e+00,1.244950294494628906e+00,1.244871020317077637e+00,1.244791865348815918e+00,1.244712829589843750e+00,1.244633674621582031e+00,1.244554519653320312e+00,1.244475364685058594e+00,1.244396209716796875e+00,1.244317054748535156e+00,1.244238018989562988e+00,1.244158983230590820e+00,1.244079828262329102e+00,1.244000792503356934e+00,1.243921637535095215e+00,1.243842601776123047e+00,1.243763685226440430e+00,1.243684649467468262e+00,1.243605494499206543e+00,1.243526577949523926e+00,1.243447542190551758e+00,1.243368625640869141e+00,1.243289589881896973e+00,1.243210554122924805e+00,1.243131637573242188e+00,1.243052721023559570e+00,1.242973804473876953e+00,1.242894887924194336e+00,1.242815971374511719e+00,1.242736935615539551e+00,1.242658138275146484e+00
1.162461638450622559e+00,1.162392616271972656e+00,1.162323594093322754e+00,1.162254452705383301e+00,1.162185430526733398e+00,1.162116527557373047e+00,1.162047505378723145e+00,1.161978483200073242e+00,1.161909461021423340e+00,1.161840558052062988e+00,1.161771535873413086e+00,1.161702632904052734e+00,1.161633729934692383e+00,1.161564826965332031e+00,1.161495804786682129e+00,1.161426901817321777e+00,1.161357998847961426e+00,1.161289095878601074e+00,1.161220192909240723e+00,1.161151170730590820e+00,1.161082386970520020e+00,1.161013484001159668e+00,1.160944700241088867e+00,1.160875797271728516e+00,1.160807013511657715e+00,1.160738110542297363e+00,1.160669207572937012e+00,1.160600423812866211e+00,1.160531640052795410e+00,1.160462856292724609e+00,1.160394072532653809e+00,1.160325169563293457e+00,1.160256385803222656e+00,1.160187602043151855e+00,1.160118937492370605e+00,1.160050153732299805e+00,1.159981369972229004e+00,1.159912586212158203e+00,1.159843921661376953e+00,1.159775137901306152e+00,1.159706473350524902e+00,1.159637808799743652e+00,1.159569025039672852e+00,1.159500360488891602e+00,1.159431695938110352e+00,1.159363031387329102e+00,1.159294366836547852e+00,1.159225583076477051e+00,1.159156918525695801e+00,1.159088373184204102e+00,1.159019708633422852e+00,1.158951044082641602e+00,1.158882498741149902e+00,1.158813834190368652e+00,1.158745169639587402e+00,1.158676624298095703e+00,1.158608078956604004e+00,1.158539414405822754e+00,1.158470869064331055e+00,1.158402323722839355e+00,1.158333778381347656e+00,1.158265233039855957e+00,1.158196687698364258e+00,1.158128142356872559e+00,1.158059597015380859e+00,1.157991051673889160e+00,1.157922625541687012e+00,1.157854080200195312e+00,1.157785654067993164e+00,1.157717108726501465e+00,1.157648682594299316e+00,1.157580256462097168e+00,1.157511711120605469e+00,1.157443284988403320e+00,1.157374858856201172e+00,1.157306432723999023e+00,1.157238006591796875e+00,1.157169580459594727e+00,1.157101154327392578e+00,1.157032847404479980e+00
1.087196707725524902e+00,1.087136387825012207e+00,1.087076067924499512e+00,1.087015628814697266e+00,1.086955308914184570e+00,1.086894989013671875e+00,1.086834549903869629e+00,1.086774230003356934e+00,1.086713910102844238e+00,1.086653590202331543e+00,1.086593270301818848e+00,1.086532831192016602e+00,1.086472630500793457e+00,1.086412310600280762e+00,1.086351990699768066e+00,1.086291670799255371e+00,1.086231470108032227e+00,1.086171150207519531e+00,1.086110830307006836e+00,1.086050629615783691e+00,1.085990309715270996e+00,1.085930109024047852e+00,1.085869789123535156e+00,1.085809588432312012e+00,1.085749387741088867e+00,1.085689187049865723e+00,1.085628986358642578e+00,1.085568785667419434e+00,1.085508465766906738e+00,1.085448265075683594e+00,1.085388064384460449e+00,1.085327982902526855e+00,1.085267782211303711e+00,1.085207581520080566e+00,1.085147380828857422e+00,1.085087299346923828e+00,1.085027098655700684e+00,1.084967017173767090e+00,1.084906816482543945e+00,1.084846615791320801e+00,1.084786534309387207e+00,1.084726452827453613e+00,1.084666371345520020e+00,1.084606170654296875e+00,1.084546089172363281e+00,1.084486007690429688e+00,1.084425926208496094e+00,1.084365844726562500e+00,1.084305763244628906e+00,1.084245681762695312e+00,1.084185600280761719e+00,1.084125638008117676e+00,1.084065556526184082e+00,1.084005475044250488e+00,1.083945512771606445e+00,1.083885431289672852e+00,1.083825469017028809e+00,1.083765387535095215e+00,1.083705425262451172e+00,1.083645462989807129e+00,1.083585500717163086e+00,1.083525419235229492e+00,1.083465456962585449e+00,1.083405494689941406e+00,1.083345532417297363e+00,1.083285570144653320e+00,1.083225607872009277e+00,1.083165645599365234e+00,1.083105683326721191e+00,1.083045840263366699e+00,1.082985877990722656e+00,1.082925915718078613e+00,1.082865953445434570e+00,1.082806110382080078e+00,1.082746267318725586e+00,1.082686305046081543e+00,1.082626461982727051e+00,1.082566618919372559e+00,1.082506656646728516e+00,1.082446813583374023e+00
1.021085619926452637e+00,1.021032333374023438e+00,1.020979046821594238e+00,1.020925760269165039e+00,1.020872473716735840e+00,1.020819306373596191e+00,1.020766019821166992e+00,1.020712852478027344e+00,1.020659565925598145e+00,1.020606398582458496e+00,1.020553112030029297e+00,1.020499944686889648e+00,1.020446777343750000e+00,1.020393610000610352e+00,1.020340323448181152e+00,1.020287156105041504e+00,1.020233988761901855e+00,1.020180821418762207e+00,1.020127654075622559e+00,1.020074367523193359e+00,1.020021319389343262e+00,1.019968152046203613e+00,1.019914984703063965e+00,1.019861817359924316e+00,1.019808769226074219e+00,1.019755601882934570e+00,1.019702434539794922e+00,1.019649267196655273e+00,1.019596219062805176e+00,1.019543170928955078e+00,1.019490003585815430e+00,1.019436836242675781e+00,1.019383788108825684e+00,1.019330739974975586e+00,1.019277691841125488e+00,1.019224524497985840e+00,1.019171476364135742e+00,1.019118428230285645e+00,1.019065380096435547e+00,1.019012331962585449e+00,1.018959283828735352e+00,1.018906235694885254e+00,1.018853187561035156e+00,1.018800139427185059e+00,1.018747091293334961e+00,1.018694043159484863e+00,1.018641114234924316e+00,1.018588066101074219e+00,1.018535017967224121e+00,1.018482089042663574e+00,1.018429040908813477e+00,1.018376111984252930e+00,1.018323063850402832e+00,1.018270134925842285e+00,1.018217086791992188e+00,1.018164157867431641e+00,1.018111228942871094e+00,1.018058300018310547e+00,1.018005251884460449e+00,1.017952322959899902e+00,1.017899394035339355e+00,1.017846465110778809e+00,1.017793536186218262e+00,1.017740607261657715e+00,1.017687678337097168e+00,1.017634749412536621e+00,1.017581820487976074e+00,1.017529010772705078e+00,1.017476081848144531e+00,1.017423152923583984e+00,1.017370343208312988e+00,1.017317414283752441e+00,1.017264604568481445e+00,1.017211675643920898e+00,1.017158865928649902e+00,1.017105937004089355e+00,1.017053127288818359e+00,1.017000317573547363e+00,1.016947388648986816e+00,1.016894578933715820e+00
9.625537991523742676e-01,9.625064134597778320e-01,9.624591469764709473e-01,9.624117612838745117e-01,9.623644948005676270e-01,9.623171687126159668e-01,9.622697830200195312e-01,9.622225165367126465e-01,9.621751904487609863e-01,9.621279835700988770e-01,9.620806574821472168e-01,9.620332717895507812e-01,9.619860649108886719e-01,9.619387388229370117e-01,9.618915319442749023e-01,9.618442058563232422e-01,9.617970585823059082e-01,9.617497324943542480e-01,9.617024064064025879e-01,9.616552591323852539e-01,9.616079330444335938e-01,9.615607857704162598e-01,9.615135192871093750e-01,9.614661931991577148e-01,9.614190459251403809e-01,9.613717794418334961e-01,9.613246321678161621e-01,9.612773656845092773e-01,9.612300992012023926e-01,9.611830115318298340e-01,9.611357450485229492e-01,9.610885977745056152e-01,9.610413908958435059e-01,9.609941244125366211e-01,9.609470367431640625e-01,9.608998298645019531e-01,9.608526825904846191e-01,9.608054757118225098e-01,9.607583880424499512e-01,9.607111811637878418e-01,9.606639742851257324e-01,9.606168866157531738e-01,9.605697393417358398e-01,9.605226516723632812e-01,9.604754447937011719e-01,9.604282975196838379e-01,9.603812098503112793e-01,9.603340625762939453e-01,9.602869749069213867e-01,9.602398276329040527e-01,9.601926803588867188e-01,9.601456522941589355e-01,9.600985050201416016e-01,9.600514769554138184e-01,9.600043296813964844e-01,9.599573016166687012e-01,9.599102139472961426e-01,9.598630666732788086e-01,9.598160982131958008e-01,9.597689509391784668e-01,9.597219824790954590e-01,9.596748352050781250e-01,9.596277475357055664e-01,9.595807790756225586e-01,9.595336914062500000e-01,9.594867229461669922e-01,9.594396352767944336e-01,9.593925476074218750e-01,9.593455791473388672e-01,9.592985510826110840e-01,9.592515826225280762e-01,9.592045545578002930e-01,9.591574668884277344e-01,9.591105580329895020e-01,9.590634703636169434e-01,9.590165615081787109e-01,9.589695334434509277e-01,9.589226245880126953e-01,9.588755965232849121e-01,9.588285684585571289e-01
9.103686213493347168e-01,9.103262424468994141e-01,9.102839827537536621e-01,9.102416038513183594e-01,9.101992249488830566e-01,9.101569652557373047e-01,9.101145863533020020e-01,9.100723266601562500e-01,9.100299477577209473e-01,9.099876284599304199e-01,9.099453687667846680e-01,9.099030494689941406e-01,9.098607897758483887e-01,9.098184704780578613e-01,9.097760915756225586e-01,9.097338914871215820e-01,9.096915721893310547e-01,9.096493721008300781e-01,9.096070528030395508e-01,9.095647335052490234e-01,9.095225334167480469e-01,9.094802141189575195e-01,9.094380140304565430e-01,9.093956947326660156e-01,9.093534946441650391e-01,9.093112349510192871e-01,9.092689752578735352e-01,9.092267751693725586e-01,9.091845154762268066e-01,9.091423153877258301e-01,9.091000556945800781e-01,9.090577960014343262e-01,9.090155959129333496e-01,9.089733958244323730e-01,9.089311957359313965e-01,9.088889956474304199e-01,9.088467359542846680e-01,9.088045954704284668e-01,9.087623357772827148e-01,9.087201952934265137e-01,9.086779952049255371e-01,9.086358547210693359e-01,9.085936546325683594e-01,9.085513949394226074e-01,9.085093140602111816e-01,9.084671139717102051e-01,9.084249734878540039e-01,9.083827733993530273e-01,9.083405733108520508e-01,9.082984924316406250e-01,9.082562923431396484e-01,9.082142114639282227e-01,9.081720709800720215e-01,9.081298708915710449e-01,9.080877900123596191e-01,9.080456495285034180e-01,9.080035686492919922e-01,9.079613685607910156e-01,9.079192280769348145e-01,9.078772068023681641e-01,9.078350067138671875e-01,9.077929854393005371e-01,9.077508449554443359e-01,9.077087640762329102e-01,9.076666831970214844e-01,9.076245427131652832e-01,9.075825214385986328e-01,9.075403809547424316e-01,9.074983596801757812e-01,9.074562191963195801e-01,9.074141383171081543e-01,9.073721170425415039e-01,9.073300361633300781e-01,9.072880148887634277e-01,9.072459340095520020e-01,9.072038531303405762e-01,9.071618318557739258e-01,9.071197509765625000e-01,9.070777893066406250e-01,9.070357084274291992e-01
8.635508418083190918e-01,8.635128140449523926e-01,8.634746670722961426e-01,8.634366393089294434e-01,8.633984923362731934e-01,8.633604645729064941e-01,8.633223176002502441e-01,8.632842302322387695e-01,8.632462024688720703e-01,8.632081151008605957e-01,8.631700873374938965e-01,8.631319999694824219e-01,8.630939126014709473e-01,8.630558848381042480e-01,8.630177974700927734e-01,8.629797697067260742e-01,8.629416823387145996e-01,8.629035949707031250e-01,8.628656268119812012e-01,8.628275394439697266e-01,8.627895712852478027e-01,8.627514839172363281e-01,8.627134561538696289e-01,8.626754879951477051e-01,8.626374006271362305e-01,8.625994324684143066e-01,8.625614047050476074e-01,8.625234365463256836e-01,8.624854087829589844e-01,8.624473810195922852e-01,8.624094128608703613e-01,8.623713850975036621e-01,8.623334169387817383e-01,8.622953891754150391e-01,8.622573614120483398e-01,8.622194528579711914e-01,8.621814250946044922e-01,8.621435165405273438e-01,8.621054887771606445e-01,8.620674610137939453e-01,8.620295524597167969e-01,8.619915843009948730e-01,8.619536757469177246e-01,8.619156479835510254e-01,8.618776798248291016e-01,8.618397712707519531e-01,8.618018031120300293e-01,8.617638945579528809e-01,8.617259263992309570e-01,8.616880178451538086e-01,8.616500496864318848e-01,8.616120815277099609e-01,8.615742325782775879e-01,8.615362644195556641e-01,8.614984154701232910e-01,8.614604473114013672e-01,8.614224791526794434e-01,8.613846302032470703e-01,8.613466620445251465e-01,8.613088130950927734e-01,8.612709045410156250e-01,8.612329363822937012e-01,8.611950874328613281e-01,8.611571788787841797e-01,8.611193299293518066e-01,8.610814213752746582e-01,8.610436320304870605e-01,8.610056638717651367e-01,8.609677553176879883e-01,8.609299659729003906e-01,8.608920574188232422e-01,8.608542680740356445e-01,8.608163595199584961e-01,8.607784509658813477e-01,8.607406616210937500e-01,8.607027530670166016e-01,8.606649637222290039e-01,8.606271147727966309e-01,8.605892062187194824e-01,8.605514168739318848e-01
8.213130235671997070e-01,8.212786316871643066e-01,8.212441205978393555e-01,8.212096095085144043e-01,8.211752176284790039e-01,8.211407661437988281e-01,8.211063146591186523e-01,8.210718631744384766e-01,8.210374116897583008e-01,8.210030198097229004e-01,8.209685087203979492e-01,8.209341168403625488e-01,8.208996653556823730e-01,8.208652734756469727e-01,8.208308219909667969e-01,8.207963705062866211e-01,8.207620382308959961e-01,8.207275867462158203e-01,8.206931948661804199e-01,8.206587433815002441e-01,8.206242918968200684e-01,8.205899596214294434e-01,8.205555081367492676e-01,8.205211758613586426e-01,8.204867243766784668e-01,8.204523324966430664e-01,8.204180002212524414e-01,8.203835487365722656e-01,8.203492164611816406e-01,8.203148245811462402e-01,8.202804923057556152e-01,8.202460408210754395e-01,8.202116489410400391e-01,8.201773166656494141e-01,8.201429247856140137e-01,8.201085925102233887e-01,8.200742006301879883e-01,8.200398087501525879e-01,8.200055360794067383e-01,8.199711441993713379e-01,8.199368119239807129e-01,8.199024796485900879e-01,8.198680877685546875e-01,8.198338150978088379e-01,8.197994232177734375e-01,8.197651505470275879e-01,8.197307586669921875e-01,8.196963667869567871e-01,8.196620941162109375e-01,8.196277618408203125e-01,8.195934891700744629e-01,8.195591568946838379e-01,8.195248842239379883e-01,8.194904923439025879e-01,8.194561600685119629e-01,8.194218873977661133e-01,8.193875551223754883e-01,8.193533420562744141e-01,8.193190097808837891e-01,8.192846775054931641e-01,8.192504048347473145e-01,8.192160725593566895e-01,8.191818594932556152e-01,8.191475272178649902e-01,8.191131949424743652e-01,8.190789818763732910e-01,8.190447092056274414e-01,8.190104365348815918e-01,8.189761638641357422e-01,8.189418315887451172e-01,8.189076185226440430e-01,8.188733458518981934e-01,8.188391327857971191e-01,8.188048601150512695e-01,8.187706470489501953e-01,8.187363743782043457e-01,8.187021017074584961e-01,8.186678886413574219e-01,8.186336159706115723e-01,8.185994029045104980e-01
7.830144166946411133e-01,7.829830646514892578e-01,7.829517722129821777e-01,7.829204201698303223e-01,7.828891873359680176e-01,7.828578352928161621e-01,7.828264832496643066e-01,7.827951908111572266e-01,7.827638983726501465e-01,7.827326059341430664e-01,7.827013134956359863e-01,7.826699614524841309e-01,7.826387286186218262e-01,7.826073765754699707e-01,7.825761437416076660e-01,7.825447916984558105e-01,7.825135588645935059e-01,7.824822664260864258e-01,7.824509739875793457e-01,7.824196815490722656e-01,7.823883891105651855e-01,7.823571562767028809e-01,7.823258638381958008e-01,7.822945713996887207e-01,7.822633385658264160e-01,7.822320461273193359e-01,7.822008132934570312e-01,7.821695208549499512e-01,7.821382880210876465e-01,7.821070551872253418e-01,7.820757627487182617e-01,7.820445895195007324e-01,7.820132970809936523e-01,7.819820046424865723e-01,7.819508314132690430e-01,7.819195389747619629e-01,7.818883657455444336e-01,7.818570733070373535e-01,7.818259000778198242e-01,7.817946076393127441e-01,7.817633748054504395e-01,7.817322015762329102e-01,7.817009687423706055e-01,7.816697955131530762e-01,7.816385030746459961e-01,7.816072702407836914e-01,7.815760970115661621e-01,7.815448641777038574e-01,7.815136909484863281e-01,7.814824581146240234e-01,7.814512252807617188e-01,7.814201116561889648e-01,7.813888788223266602e-01,7.813577055931091309e-01,7.813264727592468262e-01,7.812953591346740723e-01,7.812641263008117676e-01,7.812328934669494629e-01,7.812017798423767090e-01,7.811705470085144043e-01,7.811394333839416504e-01,7.811082005500793457e-01,7.810770273208618164e-01,7.810459136962890625e-01,7.810146808624267578e-01,7.809835672378540039e-01,7.809523940086364746e-01,7.809212207794189453e-01,7.808901071548461914e-01,7.808588743209838867e-01,7.808278203010559082e-01,7.807965874671936035e-01,7.807654142379760742e-01,7.807343602180480957e-01,7.807031869888305664e-01,7.806720733642578125e-01,7.806409001350402832e-01,7.806097865104675293e-01,7.805786728858947754e-01,7.805474996566772461e-01
7.481284737586975098e-01,7.480998635292053223e-01,7.480713129043579102e-01,7.480426430702209473e-01,7.480140328407287598e-01,7.479854822158813477e-01,7.479568719863891602e-01,7.479283809661865234e-01,7.478997707366943359e-01,7.478711605072021484e-01,7.478426098823547363e-01,7.478139996528625488e-01,7.477854490280151367e-01,7.477568984031677246e-01,7.477282881736755371e-01,7.476997375488281250e-01,7.476711869239807129e-01,7.476426362991333008e-01,7.476140856742858887e-01,7.475854754447937012e-01,7.475569844245910645e-01,7.475283741950988770e-01,7.474998831748962402e-01,7.474713325500488281e-01,7.474427819252014160e-01,7.474142313003540039e-01,7.473856806755065918e-01,7.473571896553039551e-01,7.473285794258117676e-01,7.473000884056091309e-01,7.472715377807617188e-01,7.472429871559143066e-01,7.472144961357116699e-01,7.471859455108642578e-01,7.471574544906616211e-01,7.471289038658142090e-01,7.471003532409667969e-01,7.470719218254089355e-01,7.470433712005615234e-01,7.470148801803588867e-01,7.469863295555114746e-01,7.469578981399536133e-01,7.469293475151062012e-01,7.469007968902587891e-01,7.468723654747009277e-01,7.468438148498535156e-01,7.468153834342956543e-01,7.467868328094482422e-01,7.467583417892456055e-01,7.467298507690429688e-01,7.467013597488403320e-01,7.466729283332824707e-01,7.466443777084350586e-01,7.466158866882324219e-01,7.465874552726745605e-01,7.465589642524719238e-01,7.465305328369140625e-01,7.465019822120666504e-01,7.464734911918640137e-01,7.464450597763061523e-01,7.464165687561035156e-01,7.463881373405456543e-01,7.463596463203430176e-01,7.463312745094299316e-01,7.463027834892272949e-01,7.462742924690246582e-01,7.462458610534667969e-01,7.462173700332641602e-01,7.461889982223510742e-01,7.461605072021484375e-01,7.461320161819458008e-01,7.461036443710327148e-01,7.460751533508300781e-01,7.460467815399169922e-01,7.460182905197143555e-01,7.459898591041564941e-01,7.459614276885986328e-01,7.459329962730407715e-01,7.459046244621276855e-01,7.458761334419250488e-01
7.162184119224548340e-01,7.161922454833984375e-01,7.161660194396972656e-01,7.161398530006408691e-01,7.161136269569396973e-01,7.160874605178833008e-01,7.160612344741821289e-01,7.160350084304809570e-01,7.160088419914245605e-01,7.159826159477233887e-01,7.159565091133117676e-01,7.159302830696105957e-01,7.159040570259094238e-01,7.158778905868530273e-01,7.158517241477966309e-01,7.158255577087402344e-01,7.157993912696838379e-01,7.157731652259826660e-01,7.157469987869262695e-01,7.157208323478698730e-01,7.156946659088134766e-01,7.156684994697570801e-01,7.156422734260559082e-01,7.156161665916442871e-01,7.155900001525878906e-01,7.155638337135314941e-01,7.155376672744750977e-01,7.155115604400634766e-01,7.154853940010070801e-01,7.154591679573059082e-01,7.154330611228942871e-01,7.154068946838378906e-01,7.153807878494262695e-01,7.153546214103698730e-01,7.153284549713134766e-01,7.153023481369018555e-01,7.152761816978454590e-01,7.152500748634338379e-01,7.152239084243774414e-01,7.151977419853210449e-01,7.151716351509094238e-01,7.151455283164978027e-01,7.151194214820861816e-01,7.150932550430297852e-01,7.150670886039733887e-01,7.150410413742065430e-01,7.150148749351501465e-01,7.149887681007385254e-01,7.149626612663269043e-01,7.149365544319152832e-01,7.149104475975036621e-01,7.148842811584472656e-01,7.148582339286804199e-01,7.148320674896240234e-01,7.148060202598571777e-01,7.147799134254455566e-01,7.147537469863891602e-01,7.147276997566223145e-01,7.147015929222106934e-01,7.146754860877990723e-01,7.146493792533874512e-01,7.146232724189758301e-01,7.145972251892089844e-01,7.145711183547973633e-01,7.145450711250305176e-01,7.145189642906188965e-01,7.144929170608520508e-01,7.144668102264404297e-01,7.144407033920288086e-01,7.144146561622619629e-01,7.143885493278503418e-01,7.143625020980834961e-01,7.143363952636718750e-01,7.143102884292602539e-01,7.142843008041381836e-01,7.142581939697265625e-01,7.142321467399597168e-01,7.142060995101928711e-01,7.141799926757812500e-01,7.141539454460144043e-01
6.869192123413085938e-01,6.868951320648193359e-01,6.868710517883300781e-01,6.868469119071960449e-01,6.868228316307067871e-01,6.867986917495727539e-01,6.867746114730834961e-01,6.867505311965942383e-01,6.867263913154602051e-01,6.867023110389709473e-01,6.866782307624816895e-01,6.866541504859924316e-01,6.866300702095031738e-01,6.866059899330139160e-01,6.865819096565246582e-01,6.865577697753906250e-01,6.865337491035461426e-01,6.865096092224121094e-01,6.864855885505676270e-01,6.864615082740783691e-01,6.864373683929443359e-01,6.864133477210998535e-01,6.863892674446105957e-01,6.863651871681213379e-01,6.863411068916320801e-01,6.863170266151428223e-01,6.862930059432983398e-01,6.862689256668090820e-01,6.862449049949645996e-01,6.862208247184753418e-01,6.861968040466308594e-01,6.861727237701416016e-01,6.861486434936523438e-01,6.861246228218078613e-01,6.861005425453186035e-01,6.860765218734741211e-01,6.860524415969848633e-01,6.860283613204956055e-01,6.860043406486511230e-01,6.859803199768066406e-01,6.859562993049621582e-01,6.859322190284729004e-01,6.859081387519836426e-01,6.858841776847839355e-01,6.858600974082946777e-01,6.858360767364501953e-01,6.858120560646057129e-01,6.857879757881164551e-01,6.857640147209167480e-01,6.857399344444274902e-01,6.857159733772277832e-01,6.856918931007385254e-01,6.856679320335388184e-01,6.856438517570495605e-01,6.856198310852050781e-01,6.855958700180053711e-01,6.855717897415161133e-01,6.855478286743164062e-01,6.855238080024719238e-01,6.854997873306274414e-01,6.854758262634277344e-01,6.854517459869384766e-01,6.854277849197387695e-01,6.854037642478942871e-01,6.853797435760498047e-01,6.853557825088500977e-01,6.853317618370056152e-01,6.853078007698059082e-01,6.852837800979614258e-01,6.852597594261169434e-01,6.852357983589172363e-01,6.852117776870727539e-01,6.851878166198730469e-01,6.851638555526733398e-01,6.851398944854736328e-01,6.851158738136291504e-01,6.850918531417846680e-01,6.850679516792297363e-01,6.850439310073852539e-01,6.850199699401855469e-01
6.599229574203491211e-01,6.599006652832031250e-01,6.598784923553466797e-01,6.598562002182006836e-01,6.598339676856994629e-01,6.598117351531982422e-01,6.597894430160522461e-01,6.597672700881958008e-01,6.597449779510498047e-01,6.597228050231933594e-01,6.597005128860473633e-01,6.596782803535461426e-01,6.596560478210449219e-01,6.596338152885437012e-01,6.596116423606872559e-01,6.595893502235412598e-01,6.595671772956848145e-01,6.595449447631835938e-01,6.595227122306823730e-01,6.595004796981811523e-01,6.594782471656799316e-01,6.594560742378234863e-01,6.594338417053222656e-01,6.594116091728210449e-01,6.593893766403198242e-01,6.593671441078186035e-01,6.593449711799621582e-01,6.593227386474609375e-01,6.593005061149597168e-01,6.592783331871032715e-01,6.592561006546020508e-01,6.592339277267456055e-01,6.592116951942443848e-01,6.591895222663879395e-01,6.591673493385314941e-01,6.591451168060302734e-01,6.591229438781738281e-01,6.591007113456726074e-01,6.590785384178161621e-01,6.590563654899597168e-01,6.590341329574584961e-01,6.590119600296020508e-01,6.589897871017456055e-01,6.589676141738891602e-01,6.589453816413879395e-01,6.589232087135314941e-01,6.589010357856750488e-01,6.588788628578186035e-01,6.588566899299621582e-01,6.588345170021057129e-01,6.588122844696044922e-01,6.587901711463928223e-01,6.587679386138916016e-01,6.587458252906799316e-01,6.587236523628234863e-01,6.587014794349670410e-01,6.586793065071105957e-01,6.586571335792541504e-01,6.586349606513977051e-01,6.586127877235412598e-01,6.585906744003295898e-01,6.585685014724731445e-01,6.585463285446166992e-01,6.585241556167602539e-01,6.585019826889038086e-01,6.584798693656921387e-01,6.584576964378356934e-01,6.584355235099792480e-01,6.584134101867675781e-01,6.583912372589111328e-01,6.583691239356994629e-01,6.583469510078430176e-01,6.583247780799865723e-01,6.583026647567749023e-01,6.582804918289184570e-01,6.582584381103515625e-01,6.582362651824951172e-01,6.582141518592834473e-01,6.581919789314270020e-01,6.581698060035705566e-01
6.349684000015258789e-01,6.349477767944335938e-01,6.349272131919860840e-01,6.349065899848937988e-01,6.348859667778015137e-01,6.348654031753540039e-01,6.348447799682617188e-01,6.348242163658142090e-01,6.348035931587219238e-01,6.347830295562744141e-01,6.347624659538269043e-01,6.347418427467346191e-01,6.347212791442871094e-01,6.347007155418395996e-01,6.346800923347473145e-01,6.346595287322998047e-01,6.346389651298522949e-01,6.346184015274047852e-01,6.345977783203125000e-01,6.345772147178649902e-01,6.345566511154174805e-01,6.345360875129699707e-01,6.345155239105224609e-01,6.344949007034301758e-01,6.344743967056274414e-01,6.344537734985351562e-01,6.344332098960876465e-01,6.344127058982849121e-01,6.343920826911926270e-01,6.343715786933898926e-01,6.343510150909423828e-01,6.343303918838500977e-01,6.343098878860473633e-01,6.342893242835998535e-01,6.342687606811523438e-01,6.342481970787048340e-01,6.342276334762573242e-01,6.342071294784545898e-01,6.341865658760070801e-01,6.341660022735595703e-01,6.341454386711120605e-01,6.341249346733093262e-01,6.341043710708618164e-01,6.340838074684143066e-01,6.340633034706115723e-01,6.340427398681640625e-01,6.340222358703613281e-01,6.340016722679138184e-01,6.339811086654663086e-01,6.339606046676635742e-01,6.339400410652160645e-01,6.339195370674133301e-01,6.338990330696105957e-01,6.338784694671630859e-01,6.338579654693603516e-01,6.338374018669128418e-01,6.338168978691101074e-01,6.337963938713073730e-01,6.337758302688598633e-01,6.337553262710571289e-01,6.337348222732543945e-01,6.337143182754516602e-01,6.336937546730041504e-01,6.336733102798461914e-01,6.336527466773986816e-01,6.336321830749511719e-01,6.336117386817932129e-01,6.335911750793457031e-01,6.335707306861877441e-01,6.335501670837402344e-01,6.335296630859375000e-01,6.335091590881347656e-01,6.334886550903320312e-01,6.334681510925292969e-01,6.334476470947265625e-01,6.334271430969238281e-01,6.334066390991210938e-01,6.333861351013183594e-01,6.333656907081604004e-01,6.333451867103576660e-01
