3.801830291748046875e+00,3.847038507461547852e+00,5.000000000000000000e+00,5.000000000000000000e+00,5.000000000000000000e+00,5.000000000000000000e+00,5.000000000000000000e+00,5.000000000000000000e+00,5.000000000000000000e+00,5.000000000000000000e+00,5.000000000000000000e+00,5.000000000000000000e+00,5.000000000000000000e+00,5.000000000000000000e+00,5.000000000000000000e+00,5.000000000000000000e+00,5.000000000000000000e+00,5.000000000000000000e+00,5.000000000000000000e+00,5.000000000000000000e+00,5.000000000000000000e+00,5.000000000000000000e+00,5.000000000000000000e+00,5.000000000000000000e+00,5.000000000000000000e+00,5.000000000000000000e+00,5.000000000000000000e+00,5.000000000000000000e+00,5.000000000000000000e+00,5.000000000000000000e+00,5.000000000000000000e+00,5.000000000000000000e+00,5.000000000000000000e+00,5.000000000000000000e+00,5.000000000000000000e+00,5.000000000000000000e+00,5.000000000000000000e+00,5.000000000000000000e+00,5.000000000000000000e+00,4.851892471313476562e+00,4.661784648895263672e+00,4.486013412475585938e+00,4.323014736175537109e+00,1.322553515434265137e+00,1.313152551651000977e+00,1.305501699447631836e+00,3.774440765380859375e+00,1.288133502006530762e+00,1.239957094192504883e+00,1.208964109420776367e+00,1.182095408439636230e+00,1.173773407936096191e+00,1.167877078056335449e+00,1.162039637565612793e+00,1.186450481414794922e+00,1.301616311073303223e+00,1.298264265060424805e+00,1.294027805328369141e+00,1.326268911361694336e+00,2.672335863113403320e+00,2.613631486892700195e+00,2.557450532913208008e+00,2.503634214401245117e+00,2.452036380767822266e+00,2.402522087097167969e+00,2.354967832565307617e+00,2.309259653091430664e+00,2.265292167663574219e+00,2.222967386245727539e+00,2.182195425033569336e+00,2.142892122268676758e+00,2.104979515075683594e+00,2.068384885787963867e+00,2.033041238784790039e+00,1.998884797096252441e+00,1.965857625007629395e+00,1.933903694152832031e+00,1.902971982955932617e+00,1.873014211654663086e+00,1.843985080718994141e+00
3.866554737091064453e+00,3.903703212738037109e+00,5.000000000000000000e+00,5.000000000000000000e+00,5.000000000000000000e+00,5.000000000000000000e+00,5.000000000000000000e+00,5.000000000000000000e+00,5.000000000000000000e+00,5.000000000000000000e+00,5.000000000000000000e+00,5.000000000000000000e+00,5.000000000000000000e+00,5.000000000000000000e+00,5.000000000000000000e+00,5.000000000000000000e+00,5.000000000000000000e+00,5.000000000000000000e+00,5.000000000000000000e+00,5.000000000000000000e+00,5.000000000000000000e+00,5.000000000000000000e+00,5.000000000000000000e+00,5.000000000000000000e+00,5.000000000000000000e+00,5.000000000000000000e+00,5.000000000000000000e+00,5.000000000000000000e+00,5.000000000000000000e+00,5.000000000000000000e+00,5.000000000000000000e+00,5.000000000000000000e+00,5.000000000000000000e+00,5.000000000000000000e+00,5.000000000000000000e+00,5.000000000000000000e+00,5.000000000000000000e+00,5.000000000000000000e+00,5.000000000000000000e+00,4.852029800415039062e+00,4.661911964416503906e+00,4.486130714416503906e+00,4.323123931884765625e+00,1.328171968460083008e+00,1.304528951644897461e+00,1.302102684974670410e+00,3.774523973464965820e+00,3.658460378646850586e+00,1.250948667526245117e+00,1.215163946151733398e+00,1.183969140052795410e+00,1.170151710510253906e+00,1.162931203842163086e+00,1.157142996788024902e+00,1.177392601966857910e+00,1.198232173919677734e+00,1.300746560096740723e+00,1.296788692474365234e+00,1.332381725311279297e+00,2.672377586364746094e+00,2.613671302795410156e+00,2.557488918304443359e+00,2.503670930862426758e+00,2.452071428298950195e+00,2.402555704116821289e+00,2.355000257492065430e+00,2.309290885925292969e+00,2.265321969985961914e+00,2.222996234893798828e+00,2.182223320007324219e+00,2.142918825149536133e+00,2.105005264282226562e+00,2.068409919738769531e+00,2.033065319061279297e+00,1.998908162117004395e+00,1.965880155563354492e+00,1.933925509452819824e+00,1.902993202209472656e+00,1.873034715652465820e+00,1.844004869461059570e+00
3.817048311233520508e+00,3.847400426864624023e+00,3.898413419723510742e+00,3.943935871124267578e+00,3.999601364135742188e+00,5.000000000000000000e+00,5.000000000000000000e+00,5.000000000000000000e+00,5.000000000000000000e+00,5.000000000000000000e+00,5.000000000000000000e+00,5.000000000000000000e+00,5.000000000000000000e+00,5.000000000000000000e+00,5.000000000000000000e+00,5.000000000000000000e+00,5.000000000000000000e+00,5.000000000000000000e+00,5.000000000000000000e+00,5.000000000000000000e+00,5.000000000000000000e+00,5.000000000000000000e+00,5.000000000000000000e+00,5.000000000000000000e+00,5.000000000000000000e+00,5.000000000000000000e+00,5.000000000000000000e+00,5.000000000000000000e+00,5.000000000000000000e+00,5.000000000000000000e+00,5.000000000000000000e+00,5.000000000000000000e+00,5.000000000000000000e+00,5.000000000000000000e+00,5.000000000000000000e+00,5.000000000000000000e+00,5.000000000000000000e+00,5.000000000000000000e+00,5.000000000000000000e+00,4.852167129516601562e+00,4.662038803100585938e+00,4.486248493194580078e+00,4.323233127593994141e+00,1.322439432144165039e+00,1.294570684432983398e+00,3.898282051086425781e+00,3.774607181549072266e+00,3.658538579940795898e+00,1.263212203979492188e+00,1.221427917480468750e+00,1.190538048744201660e+00,1.169247627258300781e+00,1.158446788787841797e+00,1.152287364006042480e+00,1.168314576148986816e+00,1.187168717384338379e+00,1.302347064018249512e+00,1.299561500549316406e+00,1.338551163673400879e+00,2.672419309616088867e+00,2.613711118698120117e+00,2.557527065277099609e+00,2.503707647323608398e+00,2.452106475830078125e+00,2.402589321136474609e+00,2.355032682418823242e+00,2.309321880340576172e+00,2.265352010726928711e+00,2.223025083541870117e+00,2.182251214981079102e+00,2.142945766448974609e+00,2.105031251907348633e+00,2.068434715270996094e+00,2.033089399337768555e+00,1.998931527137756348e+00,1.965902686119079590e+00,1.933947443962097168e+00,1.903014302253723145e+00,1.873055219650268555e+00,1.844024777412414551e+00
3.772972106933593750e+00,3.804737091064453125e+00,3.855528354644775391e+00,3.931354045867919922e+00,3.978177547454833984e+00,5.000000000000000000e+00,5.000000000000000000e+00,5.000000000000000000e+00,5.000000000000000000e+00,5.000000000000000000e+00,5.000000000000000000e+00,5.000000000000000000e+00,5.000000000000000000e+00,5.000000000000000000e+00,5.000000000000000000e+00,5.000000000000000000e+00,5.000000000000000000e+00,5.000000000000000000e+00,5.000000000000000000e+00,5.000000000000000000e+00,5.000000000000000000e+00,5.000000000000000000e+00,5.000000000000000000e+00,5.000000000000000000e+00,5.000000000000000000e+00,5.000000000000000000e+00,5.000000000000000000e+00,5.000000000000000000e+00,5.000000000000000000e+00,5.000000000000000000e+00,5.000000000000000000e+00,5.000000000000000000e+00,5.000000000000000000e+00,5.000000000000000000e+00,5.000000000000000000e+00,5.000000000000000000e+00,5.000000000000000000e+00,5.000000000000000000e+00,5.000000000000000000e+00,4.852304935455322266e+00,4.662165641784667969e+00,4.486365795135498047e+00,4.323342323303222656e+00,1.317974448204040527e+00,1.288796186447143555e+00,3.898370981216430664e+00,3.774690389633178711e+00,3.658616781234741211e+00,1.273337483406066895e+00,1.230342745780944824e+00,1.197180271148681641e+00,1.168344974517822266e+00,1.157560825347900391e+00,1.147472381591796875e+00,1.157794237136840820e+00,1.176307678222656250e+00,1.304553508758544922e+00,1.302191734313964844e+00,1.341627240180969238e+00,2.672461032867431641e+00,2.613751173019409180e+00,2.557565212249755859e+00,2.503744363784790039e+00,2.452141761779785156e+00,2.402623176574707031e+00,2.355065107345581055e+00,2.309353113174438477e+00,2.265382051467895508e+00,2.223053932189941406e+00,2.182278871536254883e+00,2.142972469329833984e+00,2.105057001113891602e+00,2.068459749221801758e+00,2.033113479614257812e+00,1.998954772949218750e+00,1.965925335884094238e+00,1.933969259262084961e+00,1.903035521507263184e+00,1.873075723648071289e+00,1.844044566154479980e+00
3.775013208389282227e+00,3.804343938827514648e+00,3.854084968566894531e+00,3.938702106475830078e+00,3.996874332427978516e+00,5.000000000000000000e+00,5.000000000000000000e+00,5.000000000000000000e+00,5.000000000000000000e+00,5.000000000000000000e+00,5.000000000000000000e+00,5.000000000000000000e+00,5.000000000000000000e+00,5.000000000000000000e+00,5.000000000000000000e+00,5.000000000000000000e+00,5.000000000000000000e+00,5.000000000000000000e+00,5.000000000000000000e+00,5.000000000000000000e+00,5.000000000000000000e+00,5.000000000000000000e+00,5.000000000000000000e+00,5.000000000000000000e+00,5.000000000000000000e+00,5.000000000000000000e+00,5.000000000000000000e+00,5.000000000000000000e+00,5.000000000000000000e+00,5.000000000000000000e+00,5.000000000000000000e+00,5.000000000000000000e+00,5.000000000000000000e+00,5.000000000000000000e+00,5.000000000000000000e+00,5.000000000000000000e+00,5.000000000000000000e+00,5.000000000000000000e+00,5.000000000000000000e+00,4.852442264556884766e+00,4.662292480468750000e+00,4.486483573913574219e+00,4.323451519012451172e+00,1.313174128532409668e+00,4.030525207519531250e+00,3.898459672927856445e+00,3.774773597717285156e+00,3.658694982528686523e+00,3.549542188644409180e+00,1.241549491882324219e+00,1.203454256057739258e+00,1.170552015304565430e+00,1.156676173210144043e+00,1.145969152450561523e+00,1.148422956466674805e+00,1.165643453598022461e+00,1.307155966758728027e+00,1.304784774780273438e+00,1.342914342880249023e+00,2.672502756118774414e+00,2.613790988922119141e+00,2.557603359222412109e+00,2.503780841827392578e+00,2.452176809310913086e+00,2.402656793594360352e+00,2.355097532272338867e+00,2.309384346008300781e+00,2.265412092208862305e+00,2.223082780838012695e+00,2.182306766510009766e+00,2.142999410629272461e+00,2.105082988739013672e+00,2.068484783172607422e+00,2.033137798309326172e+00,1.998978137969970703e+00,1.965947866439819336e+00,1.933991074562072754e+00,1.903056621551513672e+00,1.873096227645874023e+00,1.844064474105834961e+00
3.770272731781005859e+00,3.803747177124023438e+00,3.857982158660888672e+00,3.979637384414672852e+00,4.006260871887207031e+00,5.000000000000000000e+00,5.000000000000000000e+00,5.000000000000000000e+00,5.000000000000000000e+00,5.000000000000000000e+00,5.000000000000000000e+00,5.000000000000000000e+00,5.000000000000000000e+00,5.000000000000000000e+00,5.000000000000000000e+00,5.000000000000000000e+00,5.000000000000000000e+00,5.000000000000000000e+00,5.000000000000000000e+00,5.000000000000000000e+00,5.000000000000000000e+00,5.000000000000000000e+00,5.000000000000000000e+00,5.000000000000000000e+00,5.000000000000000000e+00,5.000000000000000000e+00,5.000000000000000000e+00,5.000000000000000000e+00,5.000000000000000000e+00,5.000000000000000000e+00,5.000000000000000000e+00,5.000000000000000000e+00,5.000000000000000000e+00,5.000000000000000000e+00,5.000000000000000000e+00,5.000000000000000000e+00,5.000000000000000000e+00,5.000000000000000000e+00,5.000000000000000000e+00,4.852580070495605469e+00,4.662419795989990234e+00,4.486600875854492188e+00,4.323560714721679688e+00,4.171954631805419922e+00,4.030620098114013672e+00,3.898548364639282227e+00,3.774857044219970703e+00,3.658773183822631836e+00,3.549615859985351562e+00,1.248552203178405762e+00,1.210404753684997559e+00,1.177134156227111816e+00,1.156180620193481445e+00,1.143985748291015625e+00,1.144328474998474121e+00,1.159970402717590332e+00,1.309768915176391602e+00,1.307388186454772949e+00,2.733956336975097656e+00,2.672544479370117188e+00,2.613831043243408203e+00,2.557641744613647461e+00,2.503817558288574219e+00,2.452211856842041016e+00,2.402690649032592773e+00,2.355129957199096680e+00,2.309415340423583984e+00,2.265441894531250000e+00,2.223111629486083984e+00,2.182334661483764648e+00,2.143026113510131836e+00,2.105108737945556641e+00,2.068509817123413086e+00,2.033161878585815430e+00,1.999001502990722656e+00,1.965970516204833984e+00,1.934012889862060547e+00,1.903077840805053711e+00,1.873116612434387207e+00,1.844084382057189941e+00
3.776318073272705078e+00,3.805685520172119141e+00,3.856934070587158203e+00,3.993793249130249023e+00,4.014538288116455078e+00,5.000000000000000000e+00,5.000000000000000000e+00,5.000000000000000000e+00,5.000000000000000000e+00,5.000000000000000000e+00,5.000000000000000000e+00,5.000000000000000000e+00,5.000000000000000000e+00,5.000000000000000000e+00,5.000000000000000000e+00,5.000000000000000000e+00,5.000000000000000000e+00,5.000000000000000000e+00,5.000000000000000000e+00,5.000000000000000000e+00,5.000000000000000000e+00,5.000000000000000000e+00,5.000000000000000000e+00,5.000000000000000000e+00,5.000000000000000000e+00,5.000000000000000000e+00,5.000000000000000000e+00,5.000000000000000000e+00,5.000000000000000000e+00,5.000000000000000000e+00,5.000000000000000000e+00,5.000000000000000000e+00,5.000000000000000000e+00,5.000000000000000000e+00,5.000000000000000000e+00,5.000000000000000000e+00,5.000000000000000000e+00,5.000000000000000000e+00,5.000000000000000000e+00,4.852717399597167969e+00,4.662546634674072266e+00,4.486718654632568359e+00,4.323669910430908203e+00,4.172056198120117188e+00,4.030714988708496094e+00,3.898637294769287109e+00,3.774940252304077148e+00,3.658851385116577148e+00,3.549689292907714844e+00,1.255634307861328125e+00,1.218169569969177246e+00,1.184314012527465820e+00,1.158751249313354492e+00,1.145922064781188965e+00,1.144442439079284668e+00,1.158626079559326172e+00,1.312392115592956543e+00,1.310002088546752930e+00,2.733999967575073242e+00,2.672586202621459961e+00,2.613870859146118164e+00,2.557679891586303711e+00,2.503854036331176758e+00,2.452247142791748047e+00,2.402724266052246094e+00,2.355162382125854492e+00,2.309446573257446289e+00,2.265471935272216797e+00,2.223140716552734375e+00,2.182362318038940430e+00,2.143053054809570312e+00,2.105134725570678711e+00,2.068534851074218750e+00,2.033185958862304688e+00,1.999024868011474609e+00,1.965993046760559082e+00,1.934034824371337891e+00,1.903098940849304199e+00,1.873137116432189941e+00,1.844104170799255371e+00
3.767187356948852539e+00,3.797297954559326172e+00,3.845569610595703125e+00,4.014898777008056641e+00,4.030158519744873047e+00,5.000000000000000000e+00,5.000000000000000000e+00,5.000000000000000000e+00,5.000000000000000000e+00,5.000000000000000000e+00,5.000000000000000000e+00,5.000000000000000000e+00,5.000000000000000000e+00,5.000000000000000000e+00,5.000000000000000000e+00,5.000000000000000000e+00,5.000000000000000000e+00,5.000000000000000000e+00,5.000000000000000000e+00,5.000000000000000000e+00,5.000000000000000000e+00,5.000000000000000000e+00,5.000000000000000000e+00,5.000000000000000000e+00,5.000000000000000000e+00,5.000000000000000000e+00,5.000000000000000000e+00,5.000000000000000000e+00,5.000000000000000000e+00,5.000000000000000000e+00,5.000000000000000000e+00,5.000000000000000000e+00,5.000000000000000000e+00,5.000000000000000000e+00,5.000000000000000000e+00,5.000000000000000000e+00,5.000000000000000000e+00,5.000000000000000000e+00,5.000000000000000000e+00,4.852855205535888672e+00,4.662673473358154297e+00,4.486836433410644531e+00,4.323779106140136719e+00,4.172157764434814453e+00,4.030809879302978516e+00,3.898725986480712891e+00,3.775023460388183594e+00,3.658929586410522461e+00,3.549762964248657227e+00,3.446922063827514648e+00,1.226574063301086426e+00,1.186789155006408691e+00,1.163508892059326172e+00,1.149441599845886230e+00,1.150331616401672363e+00,1.165621638298034668e+00,1.313661694526672363e+00,1.312626242637634277e+00,2.734043598175048828e+00,2.672627925872802734e+00,2.613910675048828125e+00,2.557718038558959961e+00,2.503890752792358398e+00,2.452282190322875977e+00,2.402758121490478516e+00,2.355194807052612305e+00,2.309477806091308594e+00,2.265501737594604492e+00,2.223169565200805664e+00,2.182390213012695312e+00,2.143079757690429688e+00,2.105160713195800781e+00,2.068559885025024414e+00,2.033210039138793945e+00,1.999048113822937012e+00,1.966015577316284180e+00,1.934056639671325684e+00,1.903120160102844238e+00,1.873157620429992676e+00,1.844124078750610352e+00
3.771132469177246094e+00,3.813802003860473633e+00,3.864670276641845703e+00,3.963843822479248047e+00,4.021495342254638672e+00,5.000000000000000000e+00,5.000000000000000000e+00,5.000000000000000000e+00,5.000000000000000000e+00,5.000000000000000000e+00,5.000000000000000000e+00,5.000000000000000000e+00,5.000000000000000000e+00,5.000000000000000000e+00,5.000000000000000000e+00,5.000000000000000000e+00,5.000000000000000000e+00,5.000000000000000000e+00,5.000000000000000000e+00,5.000000000000000000e+00,5.000000000000000000e+00,5.000000000000000000e+00,5.000000000000000000e+00,5.000000000000000000e+00,5.000000000000000000e+00,5.000000000000000000e+00,5.000000000000000000e+00,5.000000000000000000e+00,5.000000000000000000e+00,5.000000000000000000e+00,5.000000000000000000e+00,5.000000000000000000e+00,5.000000000000000000e+00,5.000000000000000000e+00,5.000000000000000000e+00,5.000000000000000000e+00,5.000000000000000000e+00,5.000000000000000000e+00,5.000000000000000000e+00,4.852992534637451172e+00,4.662800788879394531e+00,4.486953735351562500e+00,4.323888301849365234e+00,4.172259807586669922e+00,4.030904769897460938e+00,3.898814916610717773e+00,3.775106668472290039e+00,3.659007787704467773e+00,3.549836635589599609e+00,3.446991443634033203e+00,1.224160075187683105e+00,1.188926100730895996e+00,1.170803189277648926e+00,1.157107830047607422e+00,1.159760355949401855e+00,1.175351858139038086e+00,1.314546108245849609e+00,1.315261125564575195e+00,2.734087467193603516e+00,2.672669649124145508e+00,2.613950729370117188e+00,2.557756423950195312e+00,2.503927469253540039e+00,2.452317237854003906e+00,2.402791738510131836e+00,2.355226993560791016e+00,2.309508800506591797e+00,2.265531778335571289e+00,2.223198413848876953e+00,2.182418107986450195e+00,2.143106698989868164e+00,2.105186462402343750e+00,2.068584680557250977e+00,2.033234357833862305e+00,1.999071478843688965e+00,1.966038227081298828e+00,1.934078454971313477e+00,1.903141260147094727e+00,1.873178124427795410e+00,1.844143986701965332e+00
3.802481889724731445e+00,3.805657386779785156e+00,3.825459241867065430e+00,5.000000000000000000e+00,4.013803958892822266e+00,5.000000000000000000e+00,5.000000000000000000e+00,5.000000000000000000e+00,5.000000000000000000e+00,5.000000000000000000e+00,5.000000000000000000e+00,5.000000000000000000e+00,5.000000000000000000e+00,5.000000000000000000e+00,5.000000000000000000e+00,5.000000000000000000e+00,5.000000000000000000e+00,5.000000000000000000e+00,5.000000000000000000e+00,5.000000000000000000e+00,5.000000000000000000e+00,5.000000000000000000e+00,5.000000000000000000e+00,5.000000000000000000e+00,5.000000000000000000e+00,5.000000000000000000e+00,5.000000000000000000e+00,5.000000000000000000e+00,5.000000000000000000e+00,5.000000000000000000e+00,5.000000000000000000e+00,5.000000000000000000e+00,5.000000000000000000e+00,5.000000000000000000e+00,5.000000000000000000e+00,5.000000000000000000e+00,5.000000000000000000e+00,5.000000000000000000e+00,5.000000000000000000e+00,4.853130340576171875e+00,4.662927627563476562e+00,4.487071514129638672e+00,4.323997497558593750e+00,4.172361373901367188e+00,4.030999660491943359e+00,3.898903608322143555e+00,3.775189876556396484e+00,3.659085988998413086e+00,3.549910068511962891e+00,3.447060823440551758e+00,1.220143079757690430e+00,1.189691543579101562e+00,1.177998423576354980e+00,1.165398001670837402e+00,1.169546484947204590e+00,1.190744996070861816e+00,1.319207310676574707e+00,1.319910764694213867e+00,2.734131097793579102e+00,2.672711372375488281e+00,2.613990545272827148e+00,2.557794570922851562e+00,2.503963947296142578e+00,2.452352523803710938e+00,2.402825355529785156e+00,2.355259418487548828e+00,2.309540033340454102e+00,2.265561819076538086e+00,2.223227262496948242e+00,2.182445764541625977e+00,2.143133401870727539e+00,2.105212450027465820e+00,2.068609714508056641e+00,2.033258438110351562e+00,1.999094843864440918e+00,1.966060757637023926e+00,1.934100389480590820e+00,1.903162479400634766e+00,1.873198628425598145e+00,1.844163775444030762e+00
3.819815158843994141e+00,3.754932641983032227e+00,3.787971973419189453e+00,3.883453845977783203e+00,3.998544692993164062e+00,5.000000000000000000e+00,5.000000000000000000e+00,5.000000000000000000e+00,5.000000000000000000e+00,5.000000000000000000e+00,5.000000000000000000e+00,5.000000000000000000e+00,5.000000000000000000e+00,5.000000000000000000e+00,5.000000000000000000e+00,5.000000000000000000e+00,5.000000000000000000e+00,5.000000000000000000e+00,5.000000000000000000e+00,5.000000000000000000e+00,5.000000000000000000e+00,5.000000000000000000e+00,5.000000000000000000e+00,5.000000000000000000e+00,5.000000000000000000e+00,5.000000000000000000e+00,5.000000000000000000e+00,5.000000000000000000e+00,5.000000000000000000e+00,5.000000000000000000e+00,5.000000000000000000e+00,5.000000000000000000e+00,5.000000000000000000e+00,5.000000000000000000e+00,5.000000000000000000e+00,5.000000000000000000e+00,5.000000000000000000e+00,5.000000000000000000e+00,5.000000000000000000e+00,4.853267669677734375e+00,4.663054466247558594e+00,4.487189292907714844e+00,4.324106693267822266e+00,4.172462940216064453e+00,4.031094551086425781e+00,3.898992300033569336e+00,3.775273084640502930e+00,3.659164190292358398e+00,3.549983739852905273e+00,3.447130203247070312e+00,1.217615723609924316e+00,1.194229483604431152e+00,1.184004783630371094e+00,1.173807859420776367e+00,1.179499506950378418e+00,1.324704170227050781e+00,1.326294660568237305e+00,1.330568671226501465e+00,2.734174728393554688e+00,2.672753095626831055e+00,2.614030599594116211e+00,2.557832717895507812e+00,2.504000663757324219e+00,2.452387571334838867e+00,2.402859210968017578e+00,2.355291843414306641e+00,2.309571266174316406e+00,2.265591859817504883e+00,2.223256111145019531e+00,2.182473659515380859e+00,2.143160343170166016e+00,2.105238199234008789e+00,2.068634748458862305e+00,2.033282518386840820e+00,1.999118208885192871e+00,1.966083407402038574e+00,1.934122204780578613e+00,1.903183579444885254e+00,1.873219132423400879e+00,1.844183683395385742e+00
3.843045949935913086e+00,3.731767654418945312e+00,3.761731147766113281e+00,5.000000000000000000e+00,3.992295026779174805e+00,5.000000000000000000e+00,5.000000000000000000e+00,5.000000000000000000e+00,5.000000000000000000e+00,5.000000000000000000e+00,5.000000000000000000e+00,5.000000000000000000e+00,5.000000000000000000e+00,5.000000000000000000e+00,5.000000000000000000e+00,5.000000000000000000e+00,5.000000000000000000e+00,5.000000000000000000e+00,5.000000000000000000e+00,5.000000000000000000e+00,5.000000000000000000e+00,5.000000000000000000e+00,5.000000000000000000e+00,5.000000000000000000e+00,5.000000000000000000e+00,5.000000000000000000e+00,5.000000000000000000e+00,5.000000000000000000e+00,5.000000000000000000e+00,5.000000000000000000e+00,5.000000000000000000e+00,5.000000000000000000e+00,5.000000000000000000e+00,5.000000000000000000e+00,5.000000000000000000e+00,5.000000000000000000e+00,5.000000000000000000e+00,5.000000000000000000e+00,5.000000000000000000e+00,4.853405475616455078e+00,4.663181781768798828e+00,4.487306594848632812e+00,4.324215888977050781e+00,4.172564506530761719e+00,4.031189441680908203e+00,3.899081230163574219e+00,3.775356531143188477e+00,3.659242391586303711e+00,3.550057411193847656e+00,1.276981949806213379e+00,1.217820525169372559e+00,1.198802232742309570e+00,1.190072655677795410e+00,1.182340025901794434e+00,1.192629218101501465e+00,1.339714050292968750e+00,1.340014815330505371e+00,2.798531532287597656e+00,2.734218358993530273e+00,2.672794818878173828e+00,2.614070415496826172e+00,2.557870864868164062e+00,2.504037141799926758e+00,2.452422618865966797e+00,2.402892827987670898e+00,2.355324268341064453e+00,2.309602260589599609e+00,2.265621662139892578e+00,2.223285198211669922e+00,2.182501554489135742e+00,2.143187284469604492e+00,2.105264186859130859e+00,2.068659782409667969e+00,2.033306837081909180e+00,1.999141573905944824e+00,1.966105937957763672e+00,1.934144020080566406e+00,1.903204798698425293e+00,1.873239636421203613e+00,1.844203591346740723e+00
3.860827445983886719e+00,3.706294536590576172e+00,3.733082532882690430e+00,5.000000000000000000e+00,3.976930856704711914e+00,5.000000000000000000e+00,5.000000000000000000e+00,5.000000000000000000e+00,5.000000000000000000e+00,5.000000000000000000e+00,5.000000000000000000e+00,5.000000000000000000e+00,5.000000000000000000e+00,5.000000000000000000e+00,5.000000000000000000e+00,5.000000000000000000e+00,5.000000000000000000e+00,5.000000000000000000e+00,5.000000000000000000e+00,5.000000000000000000e+00,5.000000000000000000e+00,5.000000000000000000e+00,5.000000000000000000e+00,5.000000000000000000e+00,5.000000000000000000e+00,5.000000000000000000e+00,5.000000000000000000e+00,5.000000000000000000e+00,5.000000000000000000e+00,5.000000000000000000e+00,5.000000000000000000e+00,5.000000000000000000e+00,5.000000000000000000e+00,5.000000000000000000e+00,5.000000000000000000e+00,5.000000000000000000e+00,5.000000000000000000e+00,5.000000000000000000e+00,5.000000000000000000e+00,4.853542804718017578e+00,4.663308620452880859e+00,4.487424373626708984e+00,4.324325084686279297e+00,4.172666549682617188e+00,4.031284332275390625e+00,3.899169921875000000e+00,3.775439739227294922e+00,3.659320592880249023e+00,3.550131082534790039e+00,1.267096519470214844e+00,1.222534775733947754e+00,1.203410267829895020e+00,1.196202993392944336e+00,1.190316915512084961e+00,1.213519334793090820e+00,1.365144848823547363e+00,1.361327409744262695e+00,2.798577308654785156e+00,2.734261989593505859e+00,2.672836542129516602e+00,2.614110231399536133e+00,2.557909250259399414e+00,2.504073858261108398e+00,2.452457904815673828e+00,2.402926683425903320e+00,2.355356693267822266e+00,2.309633493423461914e+00,2.265651702880859375e+00,2.223314046859741211e+00,2.182529449462890625e+00,2.143213987350463867e+00,2.105289936065673828e+00,2.068684816360473633e+00,2.033330917358398438e+00,1.999164938926696777e+00,1.966128468513488770e+00,1.934165835380554199e+00,1.903225898742675781e+00,1.873260140419006348e+00,1.844223380088806152e+00
3.879150390625000000e+00,3.677042961120605469e+00,3.705726385116577148e+00,5.000000000000000000e+00,5.000000000000000000e+00,5.000000000000000000e+00,5.000000000000000000e+00,5.000000000000000000e+00,5.000000000000000000e+00,5.000000000000000000e+00,5.000000000000000000e+00,5.000000000000000000e+00,5.000000000000000000e+00,5.000000000000000000e+00,5.000000000000000000e+00,5.000000000000000000e+00,5.000000000000000000e+00,5.000000000000000000e+00,5.000000000000000000e+00,5.000000000000000000e+00,5.000000000000000000e+00,5.000000000000000000e+00,5.000000000000000000e+00,5.000000000000000000e+00,5.000000000000000000e+00,5.000000000000000000e+00,5.000000000000000000e+00,5.000000000000000000e+00,5.000000000000000000e+00,5.000000000000000000e+00,5.000000000000000000e+00,5.000000000000000000e+00,5.000000000000000000e+00,5.000000000000000000e+00,5.000000000000000000e+00,5.000000000000000000e+00,5.000000000000000000e+00,5.000000000000000000e+00,5.000000000000000000e+00,4.853680610656738281e+00,4.663435935974121094e+00,4.487542152404785156e+00,4.324434280395507812e+00,4.172768115997314453e+00,4.031379699707031250e+00,3.899258852005004883e+00,3.775522947311401367e+00,3.659398794174194336e+00,3.550204753875732422e+00,1.260360956192016602e+00,1.227220058441162109e+00,1.207861304283142090e+00,1.200221300125122070e+00,1.193906307220458984e+00,1.217681646347045898e+00,2.936782836914062500e+00,2.866039037704467773e+00,2.798623085021972656e+00,2.734305620193481445e+00,2.672878265380859375e+00,2.614150285720825195e+00,2.557947397232055664e+00,2.504110574722290039e+00,2.452492952346801758e+00,2.402960300445556641e+00,2.355389118194580078e+00,2.309664726257324219e+00,2.265681743621826172e+00,2.223342895507812500e+00,2.182557106018066406e+00,2.143240928649902344e+00,2.105315923690795898e+00,2.068709850311279297e+00,2.033354997634887695e+00,1.999188184738159180e+00,1.966151118278503418e+00,1.934187769889831543e+00,1.903246998786926270e+00,1.873280644416809082e+00,1.844243288040161133e+00
3.894470691680908203e+00,3.664168119430541992e+00,3.695803165435791016e+00,5.000000000000000000e+00,5.000000000000000000e+00,5.000000000000000000e+00,5.000000000000000000e+00,5.000000000000000000e+00,5.000000000000000000e+00,5.000000000000000000e+00,5.000000000000000000e+00,5.000000000000000000e+00,5.000000000000000000e+00,5.000000000000000000e+00,5.000000000000000000e+00,5.000000000000000000e+00,5.000000000000000000e+00,5.000000000000000000e+00,5.000000000000000000e+00,5.000000000000000000e+00,5.000000000000000000e+00,5.000000000000000000e+00,5.000000000000000000e+00,5.000000000000000000e+00,5.000000000000000000e+00,5.000000000000000000e+00,5.000000000000000000e+00,5.000000000000000000e+00,5.000000000000000000e+00,5.000000000000000000e+00,5.000000000000000000e+00,5.000000000000000000e+00,5.000000000000000000e+00,5.000000000000000000e+00,5.000000000000000000e+00,5.000000000000000000e+00,5.000000000000000000e+00,5.000000000000000000e+00,5.000000000000000000e+00,4.853818416595458984e+00,4.663562774658203125e+00,4.487659454345703125e+00,4.324543476104736328e+00,4.172869682312011719e+00,4.031474590301513672e+00,3.899347543716430664e+00,3.775606155395507812e+00,3.659476995468139648e+00,3.550278186798095703e+00,1.287410259246826172e+00,1.231425881385803223e+00,1.212042331695556641e+00,1.201613306999206543e+00,1.195283770561218262e+00,1.217848896980285645e+00,2.936833381652832031e+00,2.866086959838867188e+00,2.798668861389160156e+00,2.734349489212036133e+00,2.672919988632202148e+00,2.614190101623535156e+00,2.557985544204711914e+00,2.504147052764892578e+00,2.452527999877929688e+00,2.402994155883789062e+00,2.355421543121337891e+00,2.309695720672607422e+00,2.265711784362792969e+00,2.223371744155883789e+00,2.182585000991821289e+00,2.143267631530761719e+00,2.105341911315917969e+00,2.068734645843505859e+00,2.033379077911376953e+00,1.999211549758911133e+00,1.966173648834228516e+00,1.934209585189819336e+00,1.903268218040466309e+00,1.873301148414611816e+00,1.844263195991516113e+00
3.914710760116577148e+00,3.678453683853149414e+00,3.709799528121948242e+00,5.000000000000000000e+00,5.000000000000000000e+00,5.000000000000000000e+00,5.000000000000000000e+00,5.000000000000000000e+00,5.000000000000000000e+00,5.000000000000000000e+00,5.000000000000000000e+00,5.000000000000000000e+00,5.000000000000000000e+00,5.000000000000000000e+00,5.000000000000000000e+00,5.000000000000000000e+00,5.000000000000000000e+00,5.000000000000000000e+00,5.000000000000000000e+00,5.000000000000000000e+00,5.000000000000000000e+00,5.000000000000000000e+00,5.000000000000000000e+00,5.000000000000000000e+00,5.000000000000000000e+00,5.000000000000000000e+00,5.000000000000000000e+00,5.000000000000000000e+00,5.000000000000000000e+00,5.000000000000000000e+00,5.000000000000000000e+00,5.000000000000000000e+00,5.000000000000000000e+00,5.000000000000000000e+00,5.000000000000000000e+00,5.000000000000000000e+00,5.000000000000000000e+00,5.000000000000000000e+00,5.000000000000000000e+00,4.853955745697021484e+00,4.663689613342285156e+00,4.487777233123779297e+00,4.324652671813964844e+00,4.172971725463867188e+00,4.031569480895996094e+00,3.899436473846435547e+00,3.775689601898193359e+00,3.659555196762084961e+00,3.550351858139038086e+00,1.557659029960632324e+00,1.235660672187805176e+00,1.216252207756042480e+00,1.203008532524108887e+00,1.196664333343505859e+00,1.218016266822814941e+00,2.936883926391601562e+00,2.866134881973266602e+00,2.798714637756347656e+00,2.734393119812011719e+00,2.672961711883544922e+00,2.614230155944824219e+00,2.558023929595947266e+00,2.504183769226074219e+00,2.452563285827636719e+00,2.403027772903442383e+00,2.355453968048095703e+00,2.309726953506469727e+00,2.265741586685180664e+00,2.223400592803955078e+00,2.182612895965576172e+00,2.143294572830200195e+00,2.105367660522460938e+00,2.068759679794311523e+00,2.033403396606445312e+00,1.999234914779663086e+00,1.966196298599243164e+00,1.934231400489807129e+00,1.903289437294006348e+00,1.873321652412414551e+00,1.844282984733581543e+00
3.981036424636840820e+00,3.693553686141967773e+00,3.714076519012451172e+00,5.000000000000000000e+00,5.000000000000000000e+00,5.000000000000000000e+00,5.000000000000000000e+00,5.000000000000000000e+00,5.000000000000000000e+00,5.000000000000000000e+00,5.000000000000000000e+00,5.000000000000000000e+00,5.000000000000000000e+00,5.000000000000000000e+00,5.000000000000000000e+00,5.000000000000000000e+00,5.000000000000000000e+00,5.000000000000000000e+00,5.000000000000000000e+00,5.000000000000000000e+00,5.000000000000000000e+00,5.000000000000000000e+00,5.000000000000000000e+00,5.000000000000000000e+00,5.000000000000000000e+00,5.000000000000000000e+00,5.000000000000000000e+00,5.000000000000000000e+00,5.000000000000000000e+00,5.000000000000000000e+00,5.000000000000000000e+00,5.000000000000000000e+00,5.000000000000000000e+00,5.000000000000000000e+00,5.000000000000000000e+00,5.000000000000000000e+00,5.000000000000000000e+00,5.000000000000000000e+00,5.000000000000000000e+00,4.854093551635742188e+00,4.663816928863525391e+00,4.487895011901855469e+00,4.324761867523193359e+00,4.173073291778564453e+00,4.031664371490478516e+00,3.899525165557861328e+00,3.775772809982299805e+00,3.659633398056030273e+00,3.550425529479980469e+00,1.568639397621154785e+00,1.239924669265747070e+00,1.220491528511047363e+00,1.205583572387695312e+00,1.198048114776611328e+00,1.217626690864562988e+00,2.936934232711791992e+00,2.866183042526245117e+00,2.798760414123535156e+00,2.734436750411987305e+00,2.673003435134887695e+00,2.614269971847534180e+00,2.558062076568603516e+00,2.504220485687255859e+00,2.452598333358764648e+00,2.403061628341674805e+00,2.355486392974853516e+00,2.309758186340332031e+00,2.265771627426147461e+00,2.223429441452026367e+00,2.182640552520751953e+00,2.143321275711059570e+00,2.105393648147583008e+00,2.068784713745117188e+00,2.033427476882934570e+00,1.999258279800415039e+00,1.966218829154968262e+00,1.934253334999084473e+00,1.903310537338256836e+00,1.873342156410217285e+00,1.844302892684936523e+00
4.025398731231689453e+00,3.686260223388671875e+00,3.705396652221679688e+00,5.000000000000000000e+00,5.000000000000000000e+00,5.000000000000000000e+00,5.000000000000000000e+00,5.000000000000000000e+00,5.000000000000000000e+00,5.000000000000000000e+00,5.000000000000000000e+00,5.000000000000000000e+00,5.000000000000000000e+00,5.000000000000000000e+00,5.000000000000000000e+00,5.000000000000000000e+00,5.000000000000000000e+00,5.000000000000000000e+00,5.000000000000000000e+00,5.000000000000000000e+00,5.000000000000000000e+00,5.000000000000000000e+00,5.000000000000000000e+00,5.000000000000000000e+00,5.000000000000000000e+00,5.000000000000000000e+00,5.000000000000000000e+00,5.000000000000000000e+00,5.000000000000000000e+00,5.000000000000000000e+00,5.000000000000000000e+00,5.000000000000000000e+00,5.000000000000000000e+00,5.000000000000000000e+00,5.000000000000000000e+00,5.000000000000000000e+00,5.000000000000000000e+00,5.000000000000000000e+00,5.000000000000000000e+00,4.854231834411621094e+00,4.663943767547607422e+00,4.488012313842773438e+00,4.324871063232421875e+00,4.173174858093261719e+00,4.031759262084960938e+00,3.899614095687866211e+00,3.775856018066406250e+00,3.659711599349975586e+00,1.662117242813110352e+00,1.583112001419067383e+00,1.244218230247497559e+00,1.224760532379150391e+00,1.208381295204162598e+00,1.199434995651245117e+00,1.217084288597106934e+00,2.936984539031982422e+00,2.866230964660644531e+00,2.798805952072143555e+00,2.734480381011962891e+00,2.673045158386230469e+00,2.614310026168823242e+00,2.558100223541259766e+00,2.504256963729858398e+00,2.452633380889892578e+00,2.403095245361328125e+00,2.355518817901611328e+00,2.309789419174194336e+00,2.265801668167114258e+00,2.223458290100097656e+00,2.182668447494506836e+00,2.143348217010498047e+00,2.105419397354125977e+00,2.068809747695922852e+00,2.033451557159423828e+00,1.999281644821166992e+00,1.966241478919982910e+00,1.934275150299072266e+00,1.903331756591796875e+00,1.873362660408020020e+00,1.844322800636291504e+00
4.054679393768310547e+00,3.678677797317504883e+00,3.702933073043823242e+00,5.000000000000000000e+00,5.000000000000000000e+00,5.000000000000000000e+00,5.000000000000000000e+00,5.000000000000000000e+00,5.000000000000000000e+00,5.000000000000000000e+00,5.000000000000000000e+00,5.000000000000000000e+00,5.000000000000000000e+00,5.000000000000000000e+00,5.000000000000000000e+00,5.000000000000000000e+00,5.000000000000000000e+00,5.000000000000000000e+00,5.000000000000000000e+00,5.000000000000000000e+00,5.000000000000000000e+00,5.000000000000000000e+00,5.000000000000000000e+00,5.000000000000000000e+00,5.000000000000000000e+00,5.000000000000000000e+00,5.000000000000000000e+00,5.000000000000000000e+00,5.000000000000000000e+00,5.000000000000000000e+00,5.000000000000000000e+00,5.000000000000000000e+00,5.000000000000000000e+00,5.000000000000000000e+00,5.000000000000000000e+00,5.000000000000000000e+00,5.000000000000000000e+00,5.000000000000000000e+00,5.000000000000000000e+00,4.854369163513183594e+00,4.664071083068847656e+00,4.488130092620849609e+00,4.324980735778808594e+00,4.173276901245117188e+00,4.031854152679443359e+00,3.899703025817871094e+00,3.775939226150512695e+00,3.659789800643920898e+00,1.642219424247741699e+00,1.597434282302856445e+00,1.248541593551635742e+00,1.229059576988220215e+00,1.211192131042480469e+00,1.201203942298889160e+00,1.216542243957519531e+00,2.937035083770751953e+00,2.866278886795043945e+00,2.798851728439331055e+00,2.734524011611938477e+00,2.673087120056152344e+00,2.614349842071533203e+00,2.558138608932495117e+00,2.504293680191040039e+00,2.452668666839599609e+00,2.403129100799560547e+00,2.355551242828369141e+00,2.309820413589477539e+00,2.265831708908081055e+00,2.223487138748168945e+00,2.182696342468261719e+00,2.143374919891357422e+00,2.105445384979248047e+00,2.068834781646728516e+00,2.033475875854492188e+00,1.999305248260498047e+00,1.966264009475708008e+00,1.934296965599060059e+00,1.903352856636047363e+00,1.873383164405822754e+00,1.844342589378356934e+00
4.087211132049560547e+00,3.673073530197143555e+00,3.703331708908081055e+00,5.000000000000000000e+00,5.000000000000000000e+00,5.000000000000000000e+00,5.000000000000000000e+00,5.000000000000000000e+00,5.000000000000000000e+00,5.000000000000000000e+00,5.000000000000000000e+00,5.000000000000000000e+00,5.000000000000000000e+00,5.000000000000000000e+00,5.000000000000000000e+00,5.000000000000000000e+00,5.000000000000000000e+00,5.000000000000000000e+00,5.000000000000000000e+00,5.000000000000000000e+00,5.000000000000000000e+00,5.000000000000000000e+00,5.000000000000000000e+00,5.000000000000000000e+00,5.000000000000000000e+00,5.000000000000000000e+00,5.000000000000000000e+00,5.000000000000000000e+00,5.000000000000000000e+00,5.000000000000000000e+00,5.000000000000000000e+00,5.000000000000000000e+00,5.000000000000000000e+00,5.000000000000000000e+00,5.000000000000000000e+00,5.000000000000000000e+00,5.000000000000000000e+00,5.000000000000000000e+00,5.000000000000000000e+00,4.854507446289062500e+00,4.664198398590087891e+00,4.488248348236083984e+00,4.325089931488037109e+00,4.173378467559814453e+00,4.031949043273925781e+00,3.899791717529296875e+00,3.776022672653198242e+00,3.659868240356445312e+00,1.657662510871887207e+00,1.619051575660705566e+00,1.252970933914184570e+00,1.233388781547546387e+00,1.214538812637329102e+00,1.204616069793701172e+00,1.216699719429016113e+00,2.937085390090942383e+00,2.866326808929443359e+00,2.798897504806518555e+00,2.734567880630493164e+00,2.673128843307495117e+00,2.614389896392822266e+00,2.558176755905151367e+00,2.504330396652221680e+00,2.452703714370727539e+00,2.403162717819213867e+00,2.355583667755126953e+00,2.309851646423339844e+00,2.265861749649047852e+00,2.223516225814819336e+00,2.182724237442016602e+00,2.143401861190795898e+00,2.105471372604370117e+00,2.068859815597534180e+00,2.033499956130981445e+00,1.999328613281250000e+00,1.966286540031433105e+00,1.934318900108337402e+00,1.903373956680297852e+00,1.873403668403625488e+00,1.844362497329711914e+00
4.132997989654541016e+00,3.670249462127685547e+00,3.706767559051513672e+00,5.000000000000000000e+00,5.000000000000000000e+00,5.000000000000000000e+00,5.000000000000000000e+00,5.000000000000000000e+00,5.000000000000000000e+00,5.000000000000000000e+00,5.000000000000000000e+00,5.000000000000000000e+00,5.000000000000000000e+00,5.000000000000000000e+00,5.000000000000000000e+00,5.000000000000000000e+00,5.000000000000000000e+00,5.000000000000000000e+00,5.000000000000000000e+00,5.000000000000000000e+00,5.000000000000000000e+00,5.000000000000000000e+00,5.000000000000000000e+00,5.000000000000000000e+00,5.000000000000000000e+00,5.000000000000000000e+00,5.000000000000000000e+00,5.000000000000000000e+00,5.000000000000000000e+00,5.000000000000000000e+00,5.000000000000000000e+00,5.000000000000000000e+00,5.000000000000000000e+00,5.000000000000000000e+00,5.000000000000000000e+00,5.000000000000000000e+00,5.000000000000000000e+00,5.000000000000000000e+00,5.000000000000000000e+00,4.854645252227783203e+00,4.664325714111328125e+00,4.488366127014160156e+00,4.325199604034423828e+00,4.173480033874511719e+00,4.032043933868408203e+00,3.899880647659301758e+00,3.776105880737304688e+00,1.754885077476501465e+00,1.686841726303100586e+00,1.644753336906433105e+00,1.258039236068725586e+00,1.238482117652893066e+00,1.219645142555236816e+00,1.210799694061279297e+00,1.217580437660217285e+00,2.937135696411132812e+00,2.866374969482421875e+00,2.798943281173706055e+00,2.734611511230468750e+00,2.673170566558837891e+00,2.614429712295532227e+00,2.558214902877807617e+00,2.504366874694824219e+00,2.452739000320434570e+00,2.403196573257446289e+00,2.355616092681884766e+00,2.309882879257202148e+00,2.265891551971435547e+00,2.223545074462890625e+00,2.182751893997192383e+00,2.143428564071655273e+00,2.105497121810913086e+00,2.068884849548339844e+00,2.033524036407470703e+00,1.999351859092712402e+00,1.966309189796447754e+00,1.934340715408325195e+00,1.903395175933837891e+00,1.873424172401428223e+00,1.844382405281066895e+00
4.090252399444580078e+00,3.537535429000854492e+00,3.671951293945312500e+00,4.870514869689941406e+00,4.869319438934326172e+00,4.868124961853027344e+00,4.866930484771728516e+00,4.865736961364746094e+00,4.864543914794921875e+00,4.863351821899414062e+00,4.862159729003906250e+00,4.860968589782714844e+00,4.859777450561523438e+00,4.858587741851806641e+00,4.857398033142089844e+00,4.856209278106689453e+00,4.855020999908447266e+00,4.853833198547363281e+00,4.852645874023437500e+00,4.851459503173828125e+00,4.850273132324218750e+00,4.849088191986083984e+00,4.847902774810791016e+00,4.846718788146972656e+00,4.845534801483154297e+00,4.844351768493652344e+00,4.843169212341308594e+00,4.841987609863281250e+00,4.840806007385253906e+00,4.839625358581542969e+00,4.838444709777832031e+00,4.837265014648437500e+00,4.836085796356201172e+00,4.834907531738281250e+00,4.833729267120361328e+00,4.832551956176757812e+00,4.831375122070312500e+00,4.830199241638183594e+00,4.829023361206054688e+00,4.827848434448242188e+00,4.664453029632568359e+00,4.488483905792236328e+00,4.325308799743652344e+00,4.173582077026367188e+00,4.032139301300048828e+00,3.899969339370727539e+00,3.776189088821411133e+00,1.722556233406066895e+00,1.690563917160034180e+00,1.716254830360412598e+00,1.269728779792785645e+00,1.243674516677856445e+00,1.224794626235961914e+00,1.217046976089477539e+00,1.218462467193603516e+00,2.937186241149902344e+00,2.866422891616821289e+00,2.798989057540893555e+00,2.734655141830444336e+00,2.673212289810180664e+00,2.614469528198242188e+00,2.558253288269042969e+00,2.504403591156005859e+00,2.452774047851562500e+00,2.403230190277099609e+00,2.355648517608642578e+00,2.309913873672485352e+00,2.265921592712402344e+00,2.223573923110961914e+00,2.182779788970947266e+00,2.143455505371093750e+00,2.105523109436035156e+00,2.068909645080566406e+00,2.033548355102539062e+00,1.999375224113464355e+00,1.966331720352172852e+00,1.934362530708312988e+00,1.903416395187377930e+00,1.873444676399230957e+00,1.844402194023132324e+00
3.777140140533447266e+00,3.776421308517456055e+00,3.775702714920043945e+00,3.774984359741210938e+00,3.774266004562377930e+00,3.773548126220703125e+00,3.772830724716186523e+00,3.772113323211669922e+00,3.771396160125732422e+00,3.770679473876953125e+00,3.769963026046752930e+00,3.769246816635131836e+00,3.768530607223510742e+00,3.767815113067626953e+00,3.767099857330322266e+00,3.766384840011596680e+00,3.765669584274291992e+00,3.764955043792724609e+00,3.764240741729736328e+00,3.763526916503906250e+00,3.762812852859497070e+00,3.762099504470825195e+00,3.761386156082153320e+00,3.760673522949218750e+00,3.759960412979125977e+00,3.759248018264770508e+00,3.758536100387573242e+00,3.757824182510375977e+00,3.757112264633178711e+00,3.756401062011718750e+00,3.755690097808837891e+00,3.754979372024536133e+00,3.754268407821655273e+00,3.753558397293090820e+00,3.752848386764526367e+00,3.752138853073120117e+00,3.751429080963134766e+00,3.750719785690307617e+00,3.750010967254638672e+00,3.749302625656127930e+00,3.748593807220458984e+00,3.747885704040527344e+00,3.747178077697753906e+00,3.746470451354980469e+00,3.745762825012207031e+00,3.745055913925170898e+00,3.744349241256713867e+00,1.709011912345886230e+00,1.695594429969787598e+00,1.738105416297912598e+00,1.289269685745239258e+00,1.248910665512084961e+00,1.229987740516662598e+00,1.221797704696655273e+00,1.219345569610595703e+00,2.937236547470092773e+00,2.866470813751220703e+00,2.799034833908081055e+00,2.734698772430419922e+00,2.673254013061523438e+00,2.614509582519531250e+00,2.558291673660278320e+00,2.504440307617187500e+00,2.452809095382690430e+00,2.403264045715332031e+00,2.355680942535400391e+00,2.309945106506347656e+00,2.265951633453369141e+00,2.223602771759033203e+00,2.182807683944702148e+00,2.143482446670532227e+00,2.105549097061157227e+00,2.068934679031372070e+00,2.033572435379028320e+00,1.999398589134216309e+00,1.966354370117187500e+00,1.934384465217590332e+00,1.903437495231628418e+00,1.873465180397033691e+00,1.844422101974487305e+00
3.083229780197143555e+00,3.082750558853149414e+00,3.082271575927734375e+00,3.081793069839477539e+00,3.081314325332641602e+00,3.080835819244384766e+00,3.080357551574707031e+00,3.079879283905029297e+00,3.079401493072509766e+00,3.078923225402832031e+00,3.078445672988891602e+00,3.077968120574951172e+00,3.077490806579589844e+00,3.077013254165649414e+00,3.076536178588867188e+00,3.076059341430664062e+00,3.075582504272460938e+00,3.075105428695678711e+00,3.074629068374633789e+00,3.074152708053588867e+00,3.073676586151123047e+00,3.073200225830078125e+00,3.072724342346191406e+00,3.072248458862304688e+00,3.071773052215576172e+00,3.071297168731689453e+00,3.070822000503540039e+00,3.070346832275390625e+00,3.069871664047241211e+00,3.069396495819091797e+00,3.068921804428100586e+00,3.068447351455688477e+00,3.067972898483276367e+00,3.067498445510864258e+00,3.067024230957031250e+00,3.066550254821777344e+00,3.066076517105102539e+00,3.065602540969848633e+00,3.065129041671752930e+00,3.064655542373657227e+00,3.064182281494140625e+00,3.063709020614624023e+00,3.063235998153686523e+00,3.062763214111328125e+00,3.062290430068969727e+00,3.061817646026611328e+00,3.061345338821411133e+00,1.699708342552185059e+00,1.700121760368347168e+00,1.733952403068542480e+00,1.302416205406188965e+00,1.254191040992736816e+00,1.235225081443786621e+00,1.224114775657653809e+00,1.220230102539062500e+00,2.937287092208862305e+00,2.866518974304199219e+00,2.799080610275268555e+00,2.734742403030395508e+00,2.673295736312866211e+00,2.614549398422241211e+00,2.558329820632934570e+00,2.504476785659790039e+00,2.452844381332397461e+00,2.403297662734985352e+00,2.355713129043579102e+00,2.309976339340209961e+00,2.265981674194335938e+00,2.223631620407104492e+00,2.182835340499877930e+00,2.143509149551391602e+00,2.105574846267700195e+00,2.068959712982177734e+00,2.033596515655517578e+00,1.999421954154968262e+00,1.966376900672912598e+00,1.934406280517578125e+00,1.903458714485168457e+00,1.873485684394836426e+00,1.844442009925842285e+00
2.604710102081298828e+00,2.604367971420288086e+00,2.604026079177856445e+00,2.603684425354003906e+00,2.603343009948730469e+00,2.603001117706298828e+00,2.602659702301025391e+00,2.602318525314331055e+00,2.601977109909057617e+00,2.601635932922363281e+00,2.601294755935668945e+00,2.600953817367553711e+00,2.600612878799438477e+00,2.600271940231323242e+00,2.599931240081787109e+00,2.599590539932250977e+00,2.599250078201293945e+00,2.598909378051757812e+00,2.598569154739379883e+00,2.598228931427001953e+00,2.597888708114624023e+00,2.597548484802246094e+00,2.597208499908447266e+00,2.596868515014648438e+00,2.596528768539428711e+00,2.596188783645629883e+00,2.595849275588989258e+00,2.595509529113769531e+00,2.595170259475708008e+00,2.594830513000488281e+00,2.594491243362426758e+00,2.594152212142944336e+00,2.593812942504882812e+00,2.593473911285400391e+00,2.593134880065917969e+00,2.592796087265014648e+00,2.592457294464111328e+00,2.592118501663208008e+00,2.591779947280883789e+00,2.591441392898559570e+00,2.591103076934814453e+00,2.590764522552490234e+00,2.590426206588745117e+00,2.590088129043579102e+00,2.589750051498413086e+00,2.589411973953247070e+00,1.726785302162170410e+00,1.693711042404174805e+00,1.703730940818786621e+00,1.725377202033996582e+00,2.587723255157470703e+00,1.259572029113769531e+00,1.240507245063781738e+00,1.226440668106079102e+00,1.225866675376892090e+00,2.586036920547485352e+00,2.585700035095214844e+00,2.585362911224365234e+00,2.585026025772094727e+00,2.584689378738403320e+00,2.584352731704711914e+00,2.558367967605590820e+00,2.504513502120971680e+00,2.452879428863525391e+00,2.403331518173217773e+00,2.355745553970336914e+00,2.310007572174072266e+00,2.266011714935302734e+00,2.223660469055175781e+00,2.182863235473632812e+00,2.143536090850830078e+00,2.105600833892822266e+00,2.068984746932983398e+00,2.033620834350585938e+00,1.999445319175720215e+00,1.966399550437927246e+00,1.934428095817565918e+00,1.903479814529418945e+00,1.873506188392639160e+00,1.844461798667907715e+00
2.254817008972167969e+00,2.254558563232421875e+00,2.254300355911254883e+00,2.254042148590087891e+00,2.253784179687500000e+00,2.253525972366333008e+00,2.253268003463745117e+00,2.253010034561157227e+00,2.252752065658569336e+00,2.252494335174560547e+00,2.252236604690551758e+00,2.251978874206542969e+00,2.251721143722534180e+00,2.251463651657104492e+00,2.251205921173095703e+00,2.250948429107666016e+00,2.250691175460815430e+00,2.250433683395385742e+00,2.250176429748535156e+00,2.249919176101684570e+00,2.249661922454833984e+00,2.249404907226562500e+00,2.249147891998291016e+00,2.248890876770019531e+00,2.248635053634643555e+00,2.248380184173583984e+00,2.248125314712524414e+00,2.247870683670043945e+00,2.247616052627563477e+00,2.247361421585083008e+00,2.247106790542602539e+00,2.246852397918701172e+00,2.246598005294799805e+00,2.246343612670898438e+00,2.246089220046997070e+00,2.245835065841674805e+00,2.245580911636352539e+00,2.245326757431030273e+00,2.245072603225708008e+00,2.244818687438964844e+00,2.244564771652221680e+00,2.244310855865478516e+00,2.244056940078735352e+00,2.243803024291992188e+00,2.243549346923828125e+00,2.243295669555664062e+00,2.243041992187500000e+00,1.689750194549560547e+00,1.699873805046081543e+00,2.242281675338745117e+00,2.242027997970581055e+00,1.265064954757690430e+00,1.245834708213806152e+00,1.228775501251220703e+00,1.229998588562011719e+00,2.240761995315551758e+00,2.240509033203125000e+00,2.240256071090698242e+00,2.240003108978271484e+00,2.239750146865844727e+00,2.239497423171997070e+00,2.239244699478149414e+00,2.238991975784301758e+00,2.238739252090454102e+00,2.238486766815185547e+00,2.238234281539916992e+00,2.237981557846069336e+00,2.237729310989379883e+00,2.223689317703247070e+00,2.182891130447387695e+00,2.143562793731689453e+00,2.105626583099365234e+00,2.069009780883789062e+00,2.033644914627075195e+00,1.999468684196472168e+00,1.966422080993652344e+00,1.934450030326843262e+00,1.903501033782958984e+00,1.873526692390441895e+00,1.844481706619262695e+00
1.987885355949401855e+00,1.987684726715087891e+00,1.987483859062194824e+00,1.987283229827880859e+00,1.987082481384277344e+00,1.986881971359252930e+00,1.986681342124938965e+00,1.986480951309204102e+00,1.986280322074890137e+00,1.986079931259155273e+00,1.985879421234130859e+00,1.985679149627685547e+00,1.985478758811950684e+00,1.985278606414794922e+00,1.985078215599060059e+00,1.984878182411193848e+00,1.984677910804748535e+00,1.984477758407592773e+00,1.984277606010437012e+00,1.984077692031860352e+00,1.983877539634704590e+00,1.983677744865417480e+00,1.983477711677551270e+00,1.983277916908264160e+00,1.983077883720397949e+00,1.982878208160400391e+00,1.982678413391113281e+00,1.982478737831115723e+00,1.982278943061828613e+00,1.982079386711120605e+00,1.981879711151123047e+00,1.981680274009704590e+00,1.981480598449707031e+00,1.981281280517578125e+00,1.981081724166870117e+00,1.980882406234741211e+00,1.980682969093322754e+00,1.980483770370483398e+00,1.980284333229064941e+00,1.980085134506225586e+00,1.979885816574096680e+00,1.979686856269836426e+00,1.979487538337707520e+00,1.979288578033447266e+00,1.979089498519897461e+00,1.978890538215637207e+00,1.978691458702087402e+00,1.683815121650695801e+00,1.696988224983215332e+00,1.978094935417175293e+00,1.977895975112915039e+00,1.977697372436523438e+00,1.258443355560302734e+00,1.246130466461181641e+00,1.241373896598815918e+00,1.976902723312377930e+00,1.976704001426696777e+00,1.976505637168884277e+00,1.976307034492492676e+00,1.976108670234680176e+00,1.975910186767578125e+00,1.975711941719055176e+00,1.975513458251953125e+00,1.975315213203430176e+00,1.975116848945617676e+00,1.974918842315673828e+00,1.974720478057861328e+00,1.974522471427917480e+00,1.974324345588684082e+00,1.974126338958740234e+00,1.973928213119506836e+00,1.973730444908142090e+00,1.973532319068908691e+00,1.973334550857543945e+00,1.973136663436889648e+00,1.966444730758666992e+00,1.934471845626831055e+00,1.903522133827209473e+00,1.873547196388244629e+00,1.844501614570617676e+00
1.777464151382446289e+00,1.777303695678710938e+00,1.777143120765686035e+00,1.776982784271240234e+00,1.776822328567504883e+00,1.776661992073059082e+00,1.776501536369323730e+00,1.776341199874877930e+00,1.776180863380432129e+00,1.776020646095275879e+00,1.775860309600830078e+00,1.775700092315673828e+00,1.775539875030517578e+00,1.775379776954650879e+00,1.775219559669494629e+00,1.775059461593627930e+00,1.774899363517761230e+00,1.774739384651184082e+00,1.774579167366027832e+00,1.774419307708740234e+00,1.774259209632873535e+00,1.774099349975585938e+00,1.773939371109008789e+00,1.773779630661010742e+00,1.773619651794433594e+00,1.773459911346435547e+00,1.773300051689147949e+00,1.773140311241149902e+00,1.772980451583862305e+00,1.772820830345153809e+00,1.772661089897155762e+00,1.772501468658447266e+00,1.772341847419738770e+00,1.772182345390319824e+00,1.772022604942321777e+00,1.771863222122192383e+00,1.771703600883483887e+00,1.771544218063354492e+00,1.771384596824645996e+00,1.771225333213806152e+00,1.771065831184387207e+00,1.770906567573547363e+00,1.770747065544128418e+00,1.770587801933288574e+00,1.770428419113159180e+00,1.770269274711608887e+00,1.770110011100769043e+00,1.769950866699218750e+00,1.769791603088378906e+00,1.769632577896118164e+00,1.769473314285278320e+00,1.769314408302307129e+00,1.258684158325195312e+00,1.243705749511718750e+00,1.234536647796630859e+00,1.768678307533264160e+00,1.768519282341003418e+00,1.768360495567321777e+00,1.768201470375061035e+00,1.768042683601379395e+00,1.767883777618408203e+00,1.767725110054016113e+00,1.767566204071044922e+00,1.767407655715942383e+00,1.767248749732971191e+00,1.767090201377868652e+00,1.766931414604187012e+00,1.766772866249084473e+00,1.766614198684692383e+00,1.766455769538879395e+00,1.766297101974487305e+00,1.766138672828674316e+00,1.765980124473571777e+00,1.765821814537048340e+00,1.765663266181945801e+00,1.765504956245422363e+00,1.765346527099609375e+00,1.765188217163085938e+00,1.765029907226562500e+00,1.764871716499328613e+00
1.607325911521911621e+00,1.607194542884826660e+00,1.607063412666320801e+00,1.606932044029235840e+00,1.606800913810729980e+00,1.606669664382934570e+00,1.606538653373718262e+00,1.606407523155212402e+00,1.606276392936706543e+00,1.606145381927490234e+00,1.606014251708984375e+00,1.605883240699768066e+00,1.605752110481262207e+00,1.605621218681335449e+00,1.605490088462829590e+00,1.605359196662902832e+00,1.605228185653686523e+00,1.605097413063049316e+00,1.604966402053833008e+00,1.604835629463195801e+00,1.604704618453979492e+00,1.604573965072631836e+00,1.604443073272705078e+00,1.604312300682067871e+00,1.604181408882141113e+00,1.604050755500793457e+00,1.603919982910156250e+00,1.603789329528808594e+00,1.603658556938171387e+00,1.603528022766113281e+00,1.603397250175476074e+00,1.603266716003417969e+00,1.603136062622070312e+00,1.603005528450012207e+00,1.602874875068664551e+00,1.602744460105895996e+00,1.602613806724548340e+00,1.602483391761779785e+00,1.602352857589721680e+00,1.602222442626953125e+00,1.602092027664184570e+00,1.601961612701416016e+00,1.601831197738647461e+00,1.601700901985168457e+00,1.601570487022399902e+00,1.601440191268920898e+00,1.601309895515441895e+00,1.601179599761962891e+00,1.601049304008483887e+00,1.600919127464294434e+00,1.600788831710815430e+00,1.316074371337890625e+00,1.255083680152893066e+00,1.231894135475158691e+00,1.216937303543090820e+00,1.213486075401306152e+00,1.600008010864257812e+00,1.599877953529357910e+00,1.599747776985168457e+00,1.599617838859558105e+00,1.599487781524658203e+00,1.599357843399047852e+00,1.599227786064147949e+00,1.599097967147827148e+00,1.598967909812927246e+00,1.598838090896606445e+00,1.598708152770996094e+00,1.598578453063964844e+00,1.598448514938354492e+00,1.598318696022033691e+00,1.598188877105712891e+00,1.598059177398681641e+00,1.597929358482360840e+00,1.597799658775329590e+00,1.597669839859008789e+00,1.597540259361267090e+00,1.597410559654235840e+00,1.597280979156494141e+00,1.597151279449462891e+00,1.597021698951721191e+00
1.466913461685180664e+00,1.466804027557373047e+00,1.466694712638854980e+00,1.466585397720336914e+00,1.466476202011108398e+00,1.466366887092590332e+00,1.466257691383361816e+00,1.466148376464843750e+00,1.466039180755615234e+00,1.465929985046386719e+00,1.465820789337158203e+00,1.465711593627929688e+00,1.465602517127990723e+00,1.465493321418762207e+00,1.465384244918823242e+00,1.465275049209594727e+00,1.465165972709655762e+00,1.465056896209716797e+00,1.464947938919067383e+00,1.464838743209838867e+00,1.464729785919189453e+00,1.464620828628540039e+00,1.464511871337890625e+00,1.464402914047241211e+00,1.464293837547302246e+00,1.464184999465942383e+00,1.464076042175292969e+00,1.463967204093933105e+00,1.463858246803283691e+00,1.463749408721923828e+00,1.463640451431274414e+00,1.463531732559204102e+00,1.463422775268554688e+00,1.463314056396484375e+00,1.463205218315124512e+00,1.463096499443054199e+00,1.462987661361694336e+00,1.462878942489624023e+00,1.462770104408264160e+00,1.462661504745483398e+00,1.462552785873413086e+00,1.462444067001342773e+00,1.462335348129272461e+00,1.462226748466491699e+00,1.462118148803710938e+00,1.462009549140930176e+00,1.461900830268859863e+00,1.461792349815368652e+00,1.461683750152587891e+00,1.461575269699096680e+00,1.461466670036315918e+00,1.461358189582824707e+00,1.249608159065246582e+00,1.220691442489624023e+00,1.204821944236755371e+00,1.194673657417297363e+00,1.191801190376281738e+00,1.460707426071166992e+00,1.460598945617675781e+00,1.460490584373474121e+00,1.460382103919982910e+00,1.460273861885070801e+00,1.460165500640869141e+00,1.460057139396667480e+00,1.459948778152465820e+00,1.459840536117553711e+00,1.459732174873352051e+00,1.459624052047729492e+00,1.459515690803527832e+00,1.459407567977905273e+00,1.459299206733703613e+00,1.459191083908081055e+00,1.459082841873168945e+00,1.458974719047546387e+00,1.458866596221923828e+00,1.458758473396301270e+00,1.458650350570678711e+00,1.458542227745056152e+00,1.458434104919433594e+00,1.458326101303100586e+00
1.349062204360961914e+00,1.348969697952270508e+00,1.348877310752868652e+00,1.348784804344177246e+00,1.348692417144775391e+00,1.348599910736083984e+00,1.348507642745971680e+00,1.348415136337280273e+00,1.348322868347167969e+00,1.348230361938476562e+00,1.348138093948364258e+00,1.348045706748962402e+00,1.347953438758850098e+00,1.347861051559448242e+00,1.347768783569335938e+00,1.347676396369934082e+00,1.347584247589111328e+00,1.347491860389709473e+00,1.347399711608886719e+00,1.347307443618774414e+00,1.347215294837951660e+00,1.347123026847839355e+00,1.347030878067016602e+00,1.346938610076904297e+00,1.346846461296081543e+00,1.346754193305969238e+00,1.346662163734436035e+00,1.346569895744323730e+00,1.346477866172790527e+00,1.346385717391967773e+00,1.346293687820434570e+00,1.346201539039611816e+00,1.346109509468078613e+00,1.346017360687255859e+00,1.345925331115722656e+00,1.345833301544189453e+00,1.345741271972656250e+00,1.345649361610412598e+00,1.345557212829589844e+00,1.345465302467346191e+00,1.345373272895812988e+00,1.345281362533569336e+00,1.345189332962036133e+00,1.345097422599792480e+00,1.345005512237548828e+00,1.344913601875305176e+00,1.344821691513061523e+00,1.344729781150817871e+00,1.344637870788574219e+00,1.344546079635620117e+00,1.344454169273376465e+00,1.344362378120422363e+00,1.344270467758178711e+00,1.204246520996093750e+00,1.186987638473510742e+00,1.177261114120483398e+00,1.171074390411376953e+00,1.168736815452575684e+00,1.343719840049743652e+00,1.343628048896789551e+00,1.343536376953125000e+00,1.343444705009460449e+00,1.343352913856506348e+00,1.343261241912841797e+00,1.343169569969177246e+00,1.343077898025512695e+00,1.342986226081848145e+00,1.342894673347473145e+00,1.342802882194519043e+00,1.342711329460144043e+00,1.342619657516479492e+00,1.342528223991394043e+00,1.342436552047729492e+00,1.342344999313354492e+00,1.342253446578979492e+00,1.342161893844604492e+00,1.342070341110229492e+00,1.341978907585144043e+00,1.341887354850769043e+00,1.341795921325683594e+00
1.248739123344421387e+00,1.248659849166870117e+00,1.248580694198608398e+00,1.248501420021057129e+00,1.248422265052795410e+00,1.248342990875244141e+00,1.248263955116271973e+00,1.248184680938720703e+00,1.248105525970458984e+00,1.248026371002197266e+00,1.247947335243225098e+00,1.247868061065673828e+00,1.247789025306701660e+00,1.247709870338439941e+00,1.247630834579467773e+00,1.247551679611206055e+00,1.247472643852233887e+00,1.247393488883972168e+00,1.247314572334289551e+00,1.247235417366027832e+00,1.247156381607055664e+00,1.247077345848083496e+00,1.246998429298400879e+00,1.246919274330139160e+00,1.246840357780456543e+00,1.246761322021484375e+00,1.246682405471801758e+00,1.246603369712829590e+00,1.246524453163146973e+00,1.246445536613464355e+00,1.246366620063781738e+00,1.246287584304809570e+00,1.246208786964416504e+00,1.246129751205444336e+00,1.246050953865051270e+00,1.245972037315368652e+00,1.245893120765686035e+00,1.245814204216003418e+00,1.245735406875610352e+00,1.245656490325927734e+00,1.245577692985534668e+00,1.245498895645141602e+00,1.245420098304748535e+00,1.245341181755065918e+00,1.245262503623962402e+00,1.245183587074279785e+00,1.245104908943176270e+00,1.245026111602783203e+00,1.244947433471679688e+00,1.244868636131286621e+00,1.244789838790893555e+00,1.244711160659790039e+00,1.244632482528686523e+00,1.196754932403564453e+00,1.166327357292175293e+00,1.159752607345581055e+00,1.150100827217102051e+00,1.143496394157409668e+00,1.143033981323242188e+00,1.139913678169250488e+00,1.244003057479858398e+00,1.243924498558044434e+00,1.243845820426940918e+00,1.243767261505126953e+00,1.243688583374023438e+00,1.243610024452209473e+00,1.243531465530395508e+00,1.243452906608581543e+00,1.243374228477478027e+00,1.243295788764953613e+00,1.243217229843139648e+00,1.243138670921325684e+00,1.243060111999511719e+00,1.242981672286987305e+00,1.242903113365173340e+00,1.242824673652648926e+00,1.242746114730834961e+00,1.242667794227600098e+00,1.242589235305786133e+00,1.242510795593261719e+00
1.162304282188415527e+00,1.162235617637634277e+00,1.162167072296142578e+00,1.162098407745361328e+00,1.162029743194580078e+00,1.161961078643798828e+00,1.161892533302307129e+00,1.161823987960815430e+00,1.161755442619323730e+00,1.161686778068542480e+00,1.161618232727050781e+00,1.161549687385559082e+00,1.161481142044067383e+00,1.161412596702575684e+00,1.161344051361083984e+00,1.161275506019592285e+00,1.161206960678100586e+00,1.161138415336608887e+00,1.161069989204406738e+00,1.161001443862915039e+00,1.160933017730712891e+00,1.160864472389221191e+00,1.160796046257019043e+00,1.160727500915527344e+00,1.160659074783325195e+00,1.160590648651123047e+00,1.160522222518920898e+00,1.160453796386718750e+00,1.160385370254516602e+00,1.160316944122314453e+00,1.160248517990112305e+00,1.160180091857910156e+00,1.160111784934997559e+00,1.160043358802795410e+00,1.159975051879882812e+00,1.159906625747680664e+00,1.159838318824768066e+00,1.159769892692565918e+00,1.159701585769653320e+00,1.159633159637451172e+00,1.159564852714538574e+00,1.159496545791625977e+00,1.159428238868713379e+00,1.159359931945800781e+00,1.159291625022888184e+00,1.159223318099975586e+00,1.159155130386352539e+00,1.159086823463439941e+00,1.159018516540527344e+00,1.158950328826904297e+00,1.158882021903991699e+00,1.158813834190368652e+00,1.158745646476745605e+00,1.158677339553833008e+00,1.158609151840209961e+00,1.141578435897827148e+00,1.133690237998962402e+00,1.125195622444152832e+00,1.122564077377319336e+00,1.119409680366516113e+00,1.158200025558471680e+00,1.158131837844848633e+00,1.158063769340515137e+00,1.157995581626892090e+00,1.157927513122558594e+00,1.157859444618225098e+00,1.157791256904602051e+00,1.157723188400268555e+00,1.157655000686645508e+00,1.157586932182312012e+00,1.157518863677978516e+00,1.157450795173645020e+00,1.157382726669311523e+00,1.157314658164978027e+00,1.157246589660644531e+00,1.157178640365600586e+00,1.157110571861267090e+00,1.157042503356933594e+00,1.156974434852600098e+00,1.156906485557556152e+00
1.087060451507568359e+00,1.087000370025634766e+00,1.086940407752990723e+00,1.086880326271057129e+00,1.086820363998413086e+00,1.086760282516479492e+00,1.086700320243835449e+00,1.086640238761901855e+00,1.086580276489257812e+00,1.086520314216613770e+00,1.086460351943969727e+00,1.086400270462036133e+00,1.086340427398681641e+00,1.086280345916748047e+00,1.086220502853393555e+00,1.086160540580749512e+00,1.086100578308105469e+00,1.086040616035461426e+00,1.085980772972106934e+00,1.085920810699462891e+00,1.085860848426818848e+00,1.085800886154174805e+00,1.085741043090820312e+00,1.085681080818176270e+00,1.085621237754821777e+00,1.085561394691467285e+00,1.085501551628112793e+00,1.085441589355468750e+00,1.085381746292114258e+00,1.085321903228759766e+00,1.085262060165405273e+00,1.085202217102050781e+00,1.085142374038696289e+00,1.085082530975341797e+00,1.085022807121276855e+00,1.084962964057922363e+00,1.084903120994567871e+00,1.084843277931213379e+00,1.084783554077148438e+00,1.084723711013793945e+00,1.084663987159729004e+00,1.084604144096374512e+00,1.084544420242309570e+00,1.084484577178955078e+00,1.084424853324890137e+00,1.084365129470825195e+00,1.084305405616760254e+00,1.084245562553405762e+00,1.084185957908630371e+00,1.084126114845275879e+00,1.084066510200500488e+00,1.084006667137145996e+00,1.083947062492370605e+00,1.083887338638305664e+00,1.083827614784240723e+00,1.083767890930175781e+00,1.083708286285400391e+00,1.083648562431335449e+00,1.083588957786560059e+00,1.083529233932495117e+00,1.083469629287719727e+00,1.083409905433654785e+00,1.083350300788879395e+00,1.083290696144104004e+00,1.083231091499328613e+00,1.083171486854553223e+00,1.083111882209777832e+00,1.083052277565002441e+00,1.082992672920227051e+00,1.082933068275451660e+00,1.082873463630676270e+00,1.082813858985900879e+00,1.082754254341125488e+00,1.082694768905639648e+00,1.082635164260864258e+00,1.082575559616088867e+00,1.082516074180603027e+00,1.082456469535827637e+00,1.082396984100341797e+00,1.082337498664855957e+00
1.020966410636901855e+00,1.020913362503051758e+00,1.020860433578491211e+00,1.020807504653930664e+00,1.020754575729370117e+00,1.020701646804809570e+00,1.020648717880249023e+00,1.020595788955688477e+00,1.020542860031127930e+00,1.020489931106567383e+00,1.020437002182006836e+00,1.020384073257446289e+00,1.020331144332885742e+00,1.020278215408325195e+00,1.020225405693054199e+00,1.020172476768493652e+00,1.020119667053222656e+00,1.020066738128662109e+00,1.020013928413391113e+00,1.019960999488830566e+00,1.019908189773559570e+00,1.019855260848999023e+00,1.019802451133728027e+00,1.019749641418457031e+00,1.019696831703186035e+00,1.019643902778625488e+00,1.019591093063354492e+00,1.019538283348083496e+00,1.019485473632812500e+00,1.019432663917541504e+00,1.019379854202270508e+00,1.019327044486999512e+00,1.019274353981018066e+00,1.019221425056457520e+00,1.019168734550476074e+00,1.019115924835205078e+00,1.019063234329223633e+00,1.019010424613952637e+00,1.018957614898681641e+00,1.018904924392700195e+00,1.018852114677429199e+00,1.018799424171447754e+00,1.018746614456176758e+00,1.018693923950195312e+00,1.018641233444213867e+00,1.018588423728942871e+00,1.018535733222961426e+00,1.018483042716979980e+00,1.018430352210998535e+00,1.018377661705017090e+00,1.018324971199035645e+00,1.018272280693054199e+00,1.018219590187072754e+00,1.018166899681091309e+00,1.018114209175109863e+00,1.018061518669128418e+00,1.018008947372436523e+00,1.017956256866455078e+00,1.017903566360473633e+00,1.017850875854492188e+00,1.017798304557800293e+00,1.017745614051818848e+00,1.017693042755126953e+00,1.017640352249145508e+00,1.017587780952453613e+00,1.017535209655761719e+00,1.017482638359069824e+00,1.017429947853088379e+00,1.017377376556396484e+00,1.017324805259704590e+00,1.017272233963012695e+00,1.017219543457031250e+00,1.017167091369628906e+00,1.017114400863647461e+00,1.017061948776245117e+00,1.017009377479553223e+00,1.016956806182861328e+00,1.016904234886169434e+00,1.016851663589477539e+00,1.016799092292785645e+00
9.624488949775695801e-01,9.624016880989074707e-01,9.623546600341796875e-01,9.623076319694519043e-01,9.622606039047241211e-01,9.622135162353515625e-01,9.621664881706237793e-01,9.621194601058959961e-01,9.620724320411682129e-01,9.620253443717956543e-01,9.619783759117126465e-01,9.619313478469848633e-01,9.618843793869018555e-01,9.618372917175292969e-01,9.617903232574462891e-01,9.617433547973632812e-01,9.616963863372802734e-01,9.616492986679077148e-01,9.616023302078247070e-01,9.615553617477416992e-01,9.615084528923034668e-01,9.614613652229309082e-01,9.614144563674926758e-01,9.613674879074096680e-01,9.613205790519714355e-01,9.612735509872436523e-01,9.612265825271606445e-01,9.611796736717224121e-01,9.611327648162841797e-01,9.610857367515563965e-01,9.610388278961181641e-01,9.609919190406799316e-01,9.609450697898864746e-01,9.608980417251586914e-01,9.608511328697204590e-01,9.608042836189270020e-01,9.607573747634887695e-01,9.607104063034057617e-01,9.606635570526123047e-01,9.606166481971740723e-01,9.605697989463806152e-01,9.605228304862976074e-01,9.604759812355041504e-01,9.604291319847106934e-01,9.603823423385620117e-01,9.603353738784790039e-01,9.602885246276855469e-01,9.602417349815368652e-01,9.601948857307434082e-01,9.601479768753051758e-01,9.601011276245117188e-01,9.600543379783630371e-01,9.600075483322143555e-01,9.599606394767761230e-01,9.599138498306274414e-01,9.598670601844787598e-01,9.598202705383300781e-01,9.597733616828918457e-01,9.597265720367431641e-01,9.596797823905944824e-01,9.596330523490905762e-01,9.595861434936523438e-01,9.595394134521484375e-01,9.594926238059997559e-01,9.594458937644958496e-01,9.593990445137023926e-01,9.593523144721984863e-01,9.593055844306945801e-01,9.592587947845458984e-01,9.592120051383972168e-01,9.591652750968933105e-01,9.591185450553894043e-01,9.590718150138854980e-01,9.590250253677368164e-01,9.589782953262329102e-01,9.589316248893737793e-01,9.588848948478698730e-01,9.588381052017211914e-01,9.587914347648620605e-01,9.587447643280029297e-01
9.102755784988403320e-01,9.102334976196289062e-01,9.101912975311279297e-01,9.101492166519165039e-01,9.101071953773498535e-01,9.100651144981384277e-01,9.100229740142822266e-01,9.099808931350708008e-01,9.099388718605041504e-01,9.098967909812927246e-01,9.098547697067260742e-01,9.098126292228698730e-01,9.097706079483032227e-01,9.097285866737365723e-01,9.096865653991699219e-01,9.096444249153137207e-01,9.096024036407470703e-01,9.095603823661804199e-01,9.095183610916137695e-01,9.094762802124023438e-01,9.094342589378356934e-01,9.093922376632690430e-01,9.093502759933471680e-01,9.093081951141357422e-01,9.092661738395690918e-01,9.092242121696472168e-01,9.091822504997253418e-01,9.091401696205139160e-01,9.090982079505920410e-01,9.090561866760253906e-01,9.090142250061035156e-01,9.089722037315368652e-01,9.089302420616149902e-01,9.088882803916931152e-01,9.088463187217712402e-01,9.088042974472045898e-01,9.087623357772827148e-01,9.087204337120056152e-01,9.086784720420837402e-01,9.086364507675170898e-01,9.085945487022399902e-01,9.085525870323181152e-01,9.085106849670410156e-01,9.084686636924743652e-01,9.084267616271972656e-01,9.083848595619201660e-01,9.083429574966430664e-01,9.083009362220764160e-01,9.082590937614440918e-01,9.082171916961669922e-01,9.081752896308898926e-01,9.081333279609680176e-01,9.080914258956909180e-01,9.080495834350585938e-01,9.080076813697814941e-01,9.079657196998596191e-01,9.079238772392272949e-01,9.078819751739501953e-01,9.078401327133178711e-01,9.077981710433959961e-01,9.077563285827636719e-01,9.077144861221313477e-01,9.076726436614990234e-01,9.076307415962219238e-01,9.075888991355895996e-01,9.075470566749572754e-01,9.075052142143249512e-01,9.074633121490478516e-01,9.074214696884155273e-01,9.073796868324279785e-01,9.073378443717956543e-01,9.072959423065185547e-01,9.072541594505310059e-01,9.072123765945434570e-01,9.071705937385559082e-01,9.071286916732788086e-01,9.070869088172912598e-01,9.070451259613037109e-01,9.070033431053161621e-01,9.069614410400390625e-01
8.634679317474365234e-01,8.634300231933593750e-01,8.633921742439270020e-01,8.633543252944946289e-01,8.633164167404174805e-01,8.632785677909851074e-01,8.632407188415527344e-01,8.632028698921203613e-01,8.631649613380432129e-01,8.631271123886108398e-01,8.630892634391784668e-01,8.630514144897460938e-01,8.630135059356689453e-01,8.629757165908813477e-01,8.629378676414489746e-01,8.629000782966613770e-01,8.628621697425842285e-01,8.628243803977966309e-01,8.627865314483642578e-01,8.627487421035766602e-01,8.627108931541442871e-01,8.626731038093566895e-01,8.626352548599243164e-01,8.625975251197814941e-01,8.625597357749938965e-01,8.625218272209167480e-01,8.624840378761291504e-01,8.624463081359863281e-01,8.624085187911987305e-01,8.623706698417663574e-01,8.623328804969787598e-01,8.622951507568359375e-01,8.622573614120483398e-01,8.622195124626159668e-01,8.621817827224731445e-01,8.621440529823303223e-01,8.621062636375427246e-01,8.620684742927551270e-01,8.620307445526123047e-01,8.619929552078247070e-01,8.619552254676818848e-01,8.619174361228942871e-01,8.618797063827514648e-01,8.618419766426086426e-01,8.618042469024658203e-01,8.617664575576782227e-01,8.617287278175354004e-01,8.616910576820373535e-01,8.616533279418945312e-01,8.616155385971069336e-01,8.615778684616088867e-01,8.615401387214660645e-01,8.615024685859680176e-01,8.614646792411804199e-01,8.614270091056823730e-01,8.613893389701843262e-01,8.613516092300415039e-01,8.613138794898986816e-01,8.612762093544006348e-01,8.612385392189025879e-01,8.612008690834045410e-01,8.611630797386169434e-01,8.611254692077636719e-01,8.610877990722656250e-01,8.610501289367675781e-01,8.610123991966247559e-01,8.609747290611267090e-01,8.609371185302734375e-01,8.608994483947753906e-01,8.608617782592773438e-01,8.608241081237792969e-01,8.607864975929260254e-01,8.607488870620727539e-01,8.607111573219299316e-01,8.606735467910766602e-01,8.606359362602233887e-01,8.605983257293701172e-01,8.605605959892272949e-01,8.605229854583740234e-01,8.604853749275207520e-01
8.212387561798095703e-01,8.212044835090637207e-01,8.211701512336730957e-01,8.211359381675720215e-01,8.211016654968261719e-01,8.210674524307250977e-01,8.210331201553344727e-01,8.209989070892333984e-01,8.209646940231323242e-01,8.209304213523864746e-01,8.208961486816406250e-01,8.208619356155395508e-01,8.208277225494384766e-01,8.207935094833374023e-01,8.207591772079467773e-01,8.207250237464904785e-01,8.206908106803894043e-01,8.206565976142883301e-01,8.206223249435424805e-01,8.205881118774414062e-01,8.205538988113403320e-01,8.205197453498840332e-01,8.204854726791381836e-01,8.204512596130371094e-01,8.204171061515808105e-01,8.203828930854797363e-01,8.203486800193786621e-01,8.203144669532775879e-01,8.202803134918212891e-01,8.202461600303649902e-01,8.202118873596191406e-01,8.201777338981628418e-01,8.201435804367065430e-01,8.201094269752502441e-01,8.200752139091491699e-01,8.200410604476928711e-01,8.200069069862365723e-01,8.199727535247802734e-01,8.199386000633239746e-01,8.199043869972229004e-01,8.198702335357666016e-01,8.198361396789550781e-01,8.198019862174987793e-01,8.197677731513977051e-01,8.197336196899414062e-01,8.196995258331298828e-01,8.196653723716735840e-01,8.196312189102172852e-01,8.195970654487609863e-01,8.195629715919494629e-01,8.195288777351379395e-01,8.194946646690368652e-01,8.194605708122253418e-01,8.194264769554138184e-01,8.193923830986022949e-01,8.193582296371459961e-01,8.193241357803344727e-01,8.192900419235229492e-01,8.192559480667114258e-01,8.192217946052551270e-01,8.191877007484436035e-01,8.191536068916320801e-01,8.191195130348205566e-01,8.190854191780090332e-01,8.190513253211975098e-01,8.190172314643859863e-01,8.189831972122192383e-01,8.189490437507629395e-01,8.189150094985961914e-01,8.188809156417846680e-01,8.188468813896179199e-01,8.188127279281616211e-01,8.187786936759948730e-01,8.187446594238281250e-01,8.187106251716613770e-01,8.186765313148498535e-01,8.186424970626831055e-01,8.186084628105163574e-01,8.185744285583496094e-01,8.185402750968933105e-01
7.829474806785583496e-01,7.829163670539855957e-01,7.828851938247680664e-01,7.828540802001953125e-01,7.828229069709777832e-01,7.827917933464050293e-01,7.827606797218322754e-01,7.827295660972595215e-01,7.826983928680419922e-01,7.826672792434692383e-01,7.826361656188964844e-01,7.826050519943237305e-01,7.825738787651062012e-01,7.825427651405334473e-01,7.825116515159606934e-01,7.824805974960327148e-01,7.824494242668151855e-01,7.824183106422424316e-01,7.823872566223144531e-01,7.823561429977416992e-01,7.823249697685241699e-01,7.822939157485961914e-01,7.822628617286682129e-01,7.822317481040954590e-01,7.822006344795227051e-01,7.821695208549499512e-01,7.821384668350219727e-01,7.821074128150939941e-01,7.820762991905212402e-01,7.820452451705932617e-01,7.820141315460205078e-01,7.819830775260925293e-01,7.819519639015197754e-01,7.819209098815917969e-01,7.818898558616638184e-01,7.818588614463806152e-01,7.818277478218078613e-01,7.817966938018798828e-01,7.817656397819519043e-01,7.817345857620239258e-01,7.817034721374511719e-01,7.816724777221679688e-01,7.816414237022399902e-01,7.816104292869567871e-01,7.815793156623840332e-01,7.815483212471008301e-01,7.815172672271728516e-01,7.814862728118896484e-01,7.814551591873168945e-01,7.814241647720336914e-01,7.813931703567504883e-01,7.813621759414672852e-01,7.813311219215393066e-01,7.813000679016113281e-01,7.812690734863281250e-01,7.812380790710449219e-01,7.812070846557617188e-01,7.811760306358337402e-01,7.811450362205505371e-01,7.811140418052673340e-01,7.810830473899841309e-01,7.810519933700561523e-01,7.810209989547729492e-01,7.809900641441345215e-01,7.809590697288513184e-01,7.809280157089233398e-01,7.808970808982849121e-01,7.808660864830017090e-01,7.808351516723632812e-01,7.808040976524353027e-01,7.807731628417968750e-01,7.807421684265136719e-01,7.807112336158752441e-01,7.806801795959472656e-01,7.806492447853088379e-01,7.806183099746704102e-01,7.805873751640319824e-01,7.805563211441040039e-01,7.805253863334655762e-01,7.804944515228271484e-01
7.480679750442504883e-01,7.480395436286926270e-01,7.480110526084899902e-01,7.479826211929321289e-01,7.479542493820190430e-01,7.479258179664611816e-01,7.478973269462585449e-01,7.478689551353454590e-01,7.478405237197875977e-01,7.478121519088745117e-01,7.477836608886718750e-01,7.477552890777587891e-01,7.477268576622009277e-01,7.476984858512878418e-01,7.476700544357299805e-01,7.476416230201721191e-01,7.476132512092590332e-01,7.475848793983459473e-01,7.475564479827880859e-01,7.475280761718750000e-01,7.474997043609619141e-01,7.474713325500488281e-01,7.474428415298461914e-01,7.474144697189331055e-01,7.473861575126647949e-01,7.473577857017517090e-01,7.473293542861938477e-01,7.473009824752807617e-01,7.472726106643676758e-01,7.472442388534545898e-01,7.472158074378967285e-01,7.471874952316284180e-01,7.471591234207153320e-01,7.471307516098022461e-01,7.471023797988891602e-01,7.470740079879760742e-01,7.470456957817077637e-01,7.470173239707946777e-01,7.469889521598815918e-01,7.469605803489685059e-01,7.469322681427001953e-01,7.469039559364318848e-01,7.468755245208740234e-01,7.468472123146057129e-01,7.468189001083374023e-01,7.467905879020690918e-01,7.467621564865112305e-01,7.467338442802429199e-01,7.467055320739746094e-01,7.466772198677062988e-01,7.466488480567932129e-01,7.466205358505249023e-01,7.465922236442565918e-01,7.465639114379882812e-01,7.465355396270751953e-01,7.465072274208068848e-01,7.464789748191833496e-01,7.464506626129150391e-01,7.464222908020019531e-01,7.463939785957336426e-01,7.463657259941101074e-01,7.463374137878417969e-01,7.463090419769287109e-01,7.462807893753051758e-01,7.462524771690368652e-01,7.462242245674133301e-01,7.461959719657897949e-01,7.461676001548767090e-01,7.461393475532531738e-01,7.461110353469848633e-01,7.460827827453613281e-01,7.460544705390930176e-01,7.460262179374694824e-01,7.459979057312011719e-01,7.459696531295776367e-01,7.459413409233093262e-01,7.459130883216857910e-01,7.458848357200622559e-01,7.458565831184387207e-01,7.458282709121704102e-01
7.161635160446166992e-01,7.161374688148498535e-01,7.161114215850830078e-01,7.160853743553161621e-01,7.160592675209045410e-01,7.160332202911376953e-01,7.160072326660156250e-01,7.159811854362487793e-01,7.159550786018371582e-01,7.159290313720703125e-01,7.159030437469482422e-01,7.158769965171813965e-01,7.158508896827697754e-01,7.158249020576477051e-01,7.157988548278808594e-01,7.157728672027587891e-01,7.157467603683471680e-01,7.157207727432250977e-01,7.156947255134582520e-01,7.156687378883361816e-01,7.156426906585693359e-01,7.156166434288024902e-01,7.155906558036804199e-01,7.155646681785583496e-01,7.155385613441467285e-01,7.155125737190246582e-01,7.154865860939025879e-01,7.154605984687805176e-01,7.154345512390136719e-01,7.154085636138916016e-01,7.153825759887695312e-01,7.153565883636474609e-01,7.153305411338806152e-01,7.153045535087585449e-01,7.152785658836364746e-01,7.152525782585144043e-01,7.152265310287475586e-01,7.152005434036254883e-01,7.151745557785034180e-01,7.151486277580261230e-01,7.151225805282592773e-01,7.150965929031372070e-01,7.150706648826599121e-01,7.150446772575378418e-01,7.150186300277709961e-01,7.149927020072937012e-01,7.149667143821716309e-01,7.149407863616943359e-01,7.149147391319274902e-01,7.148888111114501953e-01,7.148628234863281250e-01,7.148368954658508301e-01,7.148109078407287598e-01,7.147849202156066895e-01,7.147589921951293945e-01,7.147330641746520996e-01,7.147070765495300293e-01,7.146810889244079590e-01,7.146551609039306641e-01,7.146292328834533691e-01,7.146032452583312988e-01,7.145773172378540039e-01,7.145513892173767090e-01,7.145254611968994141e-01,7.144994735717773438e-01,7.144735455513000488e-01,7.144476175308227539e-01,7.144216895103454590e-01,7.143957018852233887e-01,7.143698334693908691e-01,7.143439054489135742e-01,7.143179774284362793e-01,7.142919898033142090e-01,7.142661213874816895e-01,7.142401933670043945e-01,7.142142653465270996e-01,7.141883373260498047e-01,7.141624093055725098e-01,7.141365408897399902e-01,7.141106128692626953e-01
6.868692040443420410e-01,6.868452429771423340e-01,6.868212819099426270e-01,6.867973208427429199e-01,6.867733597755432129e-01,6.867493987083435059e-01,6.867253780364990234e-01,6.867014169692993164e-01,6.866775155067443848e-01,6.866535544395446777e-01,6.866295337677001953e-01,6.866056323051452637e-01,6.865816712379455566e-01,6.865577101707458496e-01,6.865337491035461426e-01,6.865097880363464355e-01,6.864858865737915039e-01,6.864619255065917969e-01,6.864379644393920898e-01,6.864140033721923828e-01,6.863901019096374512e-01,6.863662004470825195e-01,6.863421797752380371e-01,6.863182783126831055e-01,6.862943768501281738e-01,6.862704157829284668e-01,6.862464547157287598e-01,6.862225532531738281e-01,6.861986517906188965e-01,6.861747503280639648e-01,6.861507296562194824e-01,6.861268281936645508e-01,6.861029267311096191e-01,6.860790252685546875e-01,6.860550642013549805e-01,6.860311627388000488e-01,6.860072612762451172e-01,6.859833598136901855e-01,6.859593987464904785e-01,6.859355568885803223e-01,6.859116554260253906e-01,6.858877539634704590e-01,6.858637928962707520e-01,6.858398914337158203e-01,6.858160495758056641e-01,6.857921481132507324e-01,6.857681870460510254e-01,6.857443451881408691e-01,6.857204437255859375e-01,6.856965422630310059e-01,6.856726408004760742e-01,6.856487393379211426e-01,6.856248974800109863e-01,6.856009960174560547e-01,6.855770945549011230e-01,6.855531930923461914e-01,6.855293512344360352e-01,6.855055093765258789e-01,6.854815483093261719e-01,6.854577064514160156e-01,6.854338645935058594e-01,6.854099631309509277e-01,6.853860616683959961e-01,6.853622198104858398e-01,6.853383779525756836e-01,6.853145360946655273e-01,6.852906346321105957e-01,6.852667331695556641e-01,6.852428913116455078e-01,6.852190494537353516e-01,6.851951479911804199e-01,6.851713061332702637e-01,6.851474642753601074e-01,6.851236820220947266e-01,6.850997805595397949e-01,6.850759387016296387e-01,6.850520968437194824e-01,6.850282549858093262e-01,6.850043535232543945e-01,6.849805712699890137e-01
6.598772406578063965e-01,6.598551273345947266e-01,6.598330140113830566e-01,6.598109006881713867e-01,6.597887277603149414e-01,6.597666144371032715e-01,6.597445607185363770e-01,6.597224473953247070e-01,6.597002744674682617e-01,6.596781611442565918e-01,6.596560478210449219e-01,6.596339941024780273e-01,6.596118211746215820e-01,6.595897674560546875e-01,6.595676541328430176e-01,6.595455408096313477e-01,6.595234274864196777e-01,6.595013141632080078e-01,6.594792604446411133e-01,6.594571471214294434e-01,6.594350337982177734e-01,6.594129204750061035e-01,6.593908667564392090e-01,6.593687534332275391e-01,6.593466401100158691e-01,6.593245863914489746e-01,6.593024730682373047e-01,6.592804193496704102e-01,6.592583060264587402e-01,6.592362523078918457e-01,6.592141389846801758e-01,6.591920852661132812e-01,6.591699719429016113e-01,6.591479182243347168e-01,6.591258645057678223e-01,6.591037511825561523e-01,6.590816974639892578e-01,6.590595841407775879e-01,6.590375304222106934e-01,6.590154767036437988e-01,6.589933633804321289e-01,6.589713096618652344e-01,6.589493155479431152e-01,6.589272618293762207e-01,6.589051485061645508e-01,6.588830947875976562e-01,6.588610410690307617e-01,6.588389873504638672e-01,6.588169336318969727e-01,6.587948799133300781e-01,6.587728261947631836e-01,6.587507724761962891e-01,6.587287187576293945e-01,6.587066650390625000e-01,6.586846113204956055e-01,6.586626172065734863e-01,6.586405038833618164e-01,6.586185097694396973e-01,6.585964560508728027e-01,6.585744023323059082e-01,6.585523486137390137e-01,6.585303544998168945e-01,6.585083007812500000e-01,6.584863066673278809e-01,6.584641933441162109e-01,6.584421992301940918e-01,6.584202051162719727e-01,6.583981513977050781e-01,6.583760976791381836e-01,6.583541035652160645e-01,6.583320498466491699e-01,6.583100557327270508e-01,6.582880020141601562e-01,6.582660079002380371e-01,6.582440137863159180e-01,6.582220196723937988e-01,6.581999659538269043e-01,6.581779718399047852e-01,6.581559181213378906e-01,6.581339240074157715e-01
6.349264979362487793e-01,6.349059343338012695e-01,6.348854899406433105e-01,6.348649859428405762e-01,6.348445415496826172e-01,6.348240375518798828e-01,6.348035931587219238e-01,6.347830891609191895e-01,6.347626447677612305e-01,6.347422003746032715e-01,6.347216963768005371e-01,6.347011923789978027e-01,6.346807479858398438e-01,6.346603035926818848e-01,6.346397995948791504e-01,6.346193552017211914e-01,6.345989108085632324e-01,6.345784664154052734e-01,6.345579624176025391e-01,6.345375180244445801e-01,6.345170736312866211e-01,6.344966292381286621e-01,6.344761252403259277e-01,6.344556808471679688e-01,6.344352364540100098e-01,6.344147920608520508e-01,6.343942880630493164e-01,6.343738436698913574e-01,6.343534588813781738e-01,6.343330144882202148e-01,6.343125104904174805e-01,6.342920660972595215e-01,6.342716813087463379e-01,6.342512369155883789e-01,6.342307329177856445e-01,6.342103481292724609e-01,6.341899037361145020e-01,6.341694593429565430e-01,6.341490149497985840e-01,6.341285705566406250e-01,6.341081857681274414e-01,6.340877413749694824e-01,6.340672969818115234e-01,6.340468525886535645e-01,6.340264678001403809e-01,6.340060234069824219e-01,6.339855790138244629e-01,6.339651346206665039e-01,6.339447498321533203e-01,6.339243650436401367e-01,6.339039206504821777e-01,6.338834762573242188e-01,6.338630914688110352e-01,6.338427066802978516e-01,6.338222026824951172e-01,6.338018178939819336e-01,6.337814331054687500e-01,6.337610483169555664e-01,6.337406039237976074e-01,6.337202191352844238e-01,6.336997747421264648e-01,6.336793899536132812e-01,6.336589455604553223e-01,6.336385607719421387e-01,6.336181759834289551e-01,6.335977911949157715e-01,6.335773468017578125e-01,6.335569620132446289e-01,6.335365772247314453e-01,6.335161924362182617e-01,6.334958076477050781e-01,6.334754228591918945e-01,6.334550380706787109e-01,6.334346532821655273e-01,6.334142088890075684e-01,6.333938241004943848e-01,6.333734989166259766e-01,6.333531141281127930e-01,6.333326697349548340e-01,6.333123445510864258e-01
6.117938160896301270e-01,6.117748022079467773e-01,6.117557883262634277e-01,6.117367148399353027e-01,6.117177605628967285e-01,6.116987466812133789e-01,6.116797327995300293e-01,6.116606593132019043e-01,6.116417050361633301e-01,6.116226911544799805e-01,6.116036772727966309e-01,6.115846633911132812e-01,6.115656495094299316e-01,6.115466356277465820e-01,6.115276813507080078e-01,6.115086078643798828e-01,6.114896535873413086e-01,6.114706397056579590e-01,6.114516854286193848e-01,6.114326119422912598e-01,6.114136576652526855e-01,6.113946437835693359e-01,6.113756895065307617e-01,6.113567352294921875e-01,6.113376617431640625e-01,6.113187074661254883e-01,6.112997531890869141e-01,6.112807393074035645e-01,6.112617254257202148e-01,6.112427711486816406e-01,6.112237572669982910e-01,6.112048029899597168e-01,6.111857891082763672e-01,6.111668348312377930e-01,6.111478805541992188e-01,6.111288666725158691e-01,6.111098527908325195e-01,6.110908985137939453e-01,6.110719442367553711e-01,6.110529899597167969e-01,6.110339760780334473e-01,6.110150218009948730e-01,6.109960675239562988e-01,6.109771132469177246e-01,6.109580993652343750e-01,6.109391450881958008e-01,6.109201908111572266e-01,6.109012365341186523e-01,6.108822226524353027e-01,6.108632683753967285e-01,6.108443737030029297e-01,6.108254194259643555e-01,6.108064055442810059e-01,6.107874512672424316e-01,6.107684969902038574e-01,6.107496023178100586e-01,6.107305884361267090e-01,6.107116341590881348e-01,6.106926798820495605e-01,6.106737852096557617e-01,6.106547713279724121e-01,6.106358170509338379e-01,6.106169223785400391e-01,6.105979681015014648e-01,6.105790138244628906e-01,6.105600595474243164e-01,6.105411648750305176e-01,6.105222105979919434e-01,6.105032563209533691e-01,6.104843020439147949e-01,6.104654073715209961e-01,6.104464530944824219e-01,6.104274988174438477e-01,6.104085445404052734e-01,6.103896498680114746e-01,6.103706955909729004e-01,6.103517413139343262e-01,6.103328466415405273e-01,6.103139519691467285e-01,6.102949976921081543e-01
5.902875065803527832e-01,5.902697443962097168e-01,5.902520418167114258e-01,5.902343392372131348e-01,5.902166962623596191e-01,5.901989340782165527e-01,5.901812314987182617e-01,5.901635885238647461e-01,5.901458859443664551e-01,5.901281833648681641e-01,5.901104807853698730e-01,5.900927782058715820e-01,5.900750756263732910e-01,5.900573730468750000e-01,5.900396704673767090e-01,5.900220274925231934e-01,5.900043249130249023e-01,5.899866223335266113e-01,5.899689197540283203e-01,5.899512767791748047e-01,5.899335741996765137e-01,5.899158716201782227e-01,5.898982286453247070e-01,5.898805260658264160e-01,5.898628830909729004e-01,5.898451805114746094e-01,5.898275375366210938e-01,5.898098349571228027e-01,5.897921919822692871e-01,5.897744894027709961e-01,5.897567868232727051e-01,5.897391438484191895e-01,5.897215008735656738e-01,5.897037982940673828e-01,5.896861553192138672e-01,5.896684527397155762e-01,5.896508097648620605e-01,5.896331667900085449e-01,5.896154642105102539e-01,5.895978212356567383e-01,5.895801782608032227e-01,5.895624756813049316e-01,5.895448327064514160e-01,5.895271301269531250e-01,5.895094871520996094e-01,5.894918441772460938e-01,5.894742012023925781e-01,5.894564986228942871e-01,5.894388556480407715e-01,5.894212126731872559e-01,5.894035696983337402e-01,5.893859267234802246e-01,5.893682837486267090e-01,5.893506407737731934e-01,5.893329381942749023e-01,5.893152952194213867e-01,5.892977118492126465e-01,5.892800688743591309e-01,5.892623662948608398e-01,5.892447233200073242e-01,5.892270803451538086e-01,5.892094969749450684e-01,5.891917943954467773e-01,5.891741514205932617e-01,5.891565680503845215e-01,5.891389250755310059e-01,5.891212821006774902e-01,5.891036391258239746e-01,5.890859961509704590e-01,5.890684127807617188e-01,5.890507102012634277e-01,5.890331268310546875e-01,5.890154838562011719e-01,5.889978408813476562e-01,5.889801979064941406e-01,5.889626145362854004e-01,5.889449715614318848e-01,5.889273881912231445e-01,5.889096856117248535e-01,5.888921022415161133e-01
