5.000000000000000000e+00,5.000000000000000000e+00,5.000000000000000000e+00,5.000000000000000000e+00,5.000000000000000000e+00,5.000000000000000000e+00,5.000000000000000000e+00,5.000000000000000000e+00,5.000000000000000000e+00,5.000000000000000000e+00,5.000000000000000000e+00,5.000000000000000000e+00,5.000000000000000000e+00,5.000000000000000000e+00,5.000000000000000000e+00,5.000000000000000000e+00,5.000000000000000000e+00,5.000000000000000000e+00,5.000000000000000000e+00,5.000000000000000000e+00,5.000000000000000000e+00,5.000000000000000000e+00,5.000000000000000000e+00,5.000000000000000000e+00,5.000000000000000000e+00,5.000000000000000000e+00,5.000000000000000000e+00,5.000000000000000000e+00,5.000000000000000000e+00,5.000000000000000000e+00,5.000000000000000000e+00,5.000000000000000000e+00,5.000000000000000000e+00,5.000000000000000000e+00,5.000000000000000000e+00,5.000000000000000000e+00,5.000000000000000000e+00,5.000000000000000000e+00,5.000000000000000000e+00,5.000000000000000000e+00,5.000000000000000000e+00,5.000000000000000000e+00,5.000000000000000000e+00,4.178521156311035156e+00,4.036690235137939453e+00,3.904171943664550781e+00,3.780077457427978516e+00,3.663628816604614258e+00,3.554140329360961914e+00,3.451005935668945312e+00,3.353688478469848633e+00,3.261708974838256836e+00,3.174640178680419922e+00,3.092098951339721680e+00,3.013741254806518555e+00,2.939256906509399414e+00,2.868365287780761719e+00,2.800812721252441406e+00,2.736368894577026367e+00,2.674823999404907227e+00,2.615986585617065430e+00,2.559681892395019531e+00,2.505749940872192383e+00,2.454043626785278320e+00,2.404428243637084961e+00,2.356779575347900391e+00,2.310982227325439453e+00,2.266931056976318359e+00,2.224527835845947266e+00,2.183681726455688477e+00,2.144308805465698242e+00,2.106330394744873047e+00,2.069673776626586914e+00,2.034271478652954102e+00,2.000059843063354492e+00,1.966979742050170898e+00,1.934976100921630859e+00,1.903997421264648438e+00,1.873994827270507812e+00,1.844923257827758789e+00
5.000000000000000000e+00,5.000000000000000000e+00,5.000000000000000000e+00,5.000000000000000000e+00,5.000000000000000000e+00,5.000000000000000000e+00,5.000000000000000000e+00,5.000000000000000000e+00,5.000000000000000000e+00,5.000000000000000000e+00,5.000000000000000000e+00,5.000000000000000000e+00,5.000000000000000000e+00,5.000000000000000000e+00,5.000000000000000000e+00,5.000000000000000000e+00,5.000000000000000000e+00,5.000000000000000000e+00,5.000000000000000000e+00,5.000000000000000000e+00,5.000000000000000000e+00,5.000000000000000000e+00,5.000000000000000000e+00,5.000000000000000000e+00,5.000000000000000000e+00,5.000000000000000000e+00,5.000000000000000000e+00,5.000000000000000000e+00,5.000000000000000000e+00,5.000000000000000000e+00,5.000000000000000000e+00,5.000000000000000000e+00,5.000000000000000000e+00,5.000000000000000000e+00,5.000000000000000000e+00,5.000000000000000000e+00,5.000000000000000000e+00,5.000000000000000000e+00,5.000000000000000000e+00,5.000000000000000000e+00,5.000000000000000000e+00,5.000000000000000000e+00,4.330791473388671875e+00,4.178623676300048828e+00,4.036786079406738281e+00,3.904261350631713867e+00,3.780161380767822266e+00,3.663707494735717773e+00,3.554214477539062500e+00,3.451075553894042969e+00,3.353754281997680664e+00,3.261771440505981445e+00,3.174699306488037109e+00,3.092155218124389648e+00,3.013794660568237305e+00,2.939307689666748047e+00,2.868413448333740234e+00,2.800858736038208008e+00,2.736412763595581055e+00,2.674865961074829102e+00,2.616026639938354492e+00,2.559720277786254883e+00,2.505786895751953125e+00,2.454079151153564453e+00,2.404462337493896484e+00,2.356812000274658203e+00,2.311013460159301758e+00,2.266961097717285156e+00,2.224556922912597656e+00,2.183709859848022461e+00,2.144335746765136719e+00,2.106356382369995117e+00,2.069698810577392578e+00,2.034295558929443359e+00,2.000083208084106445e+00,1.967002391815185547e+00,1.934998154640197754e+00,1.904018640518188477e+00,1.874015569686889648e+00,1.844943165779113770e+00
5.000000000000000000e+00,5.000000000000000000e+00,5.000000000000000000e+00,5.000000000000000000e+00,5.000000000000000000e+00,5.000000000000000000e+00,5.000000000000000000e+00,5.000000000000000000e+00,5.000000000000000000e+00,5.000000000000000000e+00,5.000000000000000000e+00,5.000000000000000000e+00,5.000000000000000000e+00,5.000000000000000000e+00,5.000000000000000000e+00,5.000000000000000000e+00,5.000000000000000000e+00,5.000000000000000000e+00,5.000000000000000000e+00,5.000000000000000000e+00,5.000000000000000000e+00,5.000000000000000000e+00,5.000000000000000000e+00,5.000000000000000000e+00,5.000000000000000000e+00,5.000000000000000000e+00,5.000000000000000000e+00,5.000000000000000000e+00,5.000000000000000000e+00,5.000000000000000000e+00,5.000000000000000000e+00,5.000000000000000000e+00,5.000000000000000000e+00,5.000000000000000000e+00,5.000000000000000000e+00,5.000000000000000000e+00,5.000000000000000000e+00,5.000000000000000000e+00,5.000000000000000000e+00,5.000000000000000000e+00,5.000000000000000000e+00,4.494579792022705078e+00,4.330901622772216797e+00,4.178725719451904297e+00,4.036881446838378906e+00,3.904350757598876953e+00,3.780245304107666016e+00,3.663785934448242188e+00,3.554288148880004883e+00,3.451145410537719727e+00,3.353820323944091797e+00,3.261833906173706055e+00,3.174758434295654297e+00,3.092211246490478516e+00,3.013847827911376953e+00,2.939357995986938477e+00,2.868461608886718750e+00,2.800904750823974609e+00,2.736456632614135742e+00,2.674907922744750977e+00,2.616066932678222656e+00,2.559758901596069336e+00,2.505823612213134766e+00,2.454114198684692383e+00,2.404495954513549805e+00,2.356844425201416016e+00,2.311044931411743164e+00,2.266991376876831055e+00,2.224585771560668945e+00,2.183737754821777344e+00,2.144362688064575195e+00,2.106382369995117188e+00,2.069723844528198242e+00,2.034319877624511719e+00,2.000106573104858398e+00,1.967025160789489746e+00,1.935020089149475098e+00,1.904039978981018066e+00,1.874036073684692383e+00,1.844963073730468750e+00
5.000000000000000000e+00,5.000000000000000000e+00,5.000000000000000000e+00,5.000000000000000000e+00,5.000000000000000000e+00,5.000000000000000000e+00,5.000000000000000000e+00,5.000000000000000000e+00,5.000000000000000000e+00,5.000000000000000000e+00,5.000000000000000000e+00,5.000000000000000000e+00,5.000000000000000000e+00,5.000000000000000000e+00,5.000000000000000000e+00,5.000000000000000000e+00,5.000000000000000000e+00,5.000000000000000000e+00,5.000000000000000000e+00,5.000000000000000000e+00,5.000000000000000000e+00,5.000000000000000000e+00,5.000000000000000000e+00,5.000000000000000000e+00,5.000000000000000000e+00,5.000000000000000000e+00,5.000000000000000000e+00,5.000000000000000000e+00,5.000000000000000000e+00,5.000000000000000000e+00,2.912957906723022461e+00,2.916827201843261719e+00,5.000000000000000000e+00,5.000000000000000000e+00,5.000000000000000000e+00,5.000000000000000000e+00,5.000000000000000000e+00,5.000000000000000000e+00,5.000000000000000000e+00,5.000000000000000000e+00,4.671243190765380859e+00,4.494698524475097656e+00,4.331011772155761719e+00,4.178828239440917969e+00,4.036977291107177734e+00,3.904440402984619141e+00,3.780328750610351562e+00,3.663864850997924805e+00,3.554362297058105469e+00,3.451215505599975586e+00,3.353886365890502930e+00,3.261896371841430664e+00,3.174817800521850586e+00,3.092267513275146484e+00,3.013900995254516602e+00,2.939408779144287109e+00,2.868510007858276367e+00,2.800950765609741211e+00,2.736500740051269531e+00,2.674949884414672852e+00,2.616106986999511719e+00,2.559797286987304688e+00,2.505860328674316406e+00,2.454149723052978516e+00,2.404530048370361328e+00,2.356877088546752930e+00,2.311076164245605469e+00,2.267021417617797852e+00,2.224614858627319336e+00,2.183765888214111328e+00,2.144389629364013672e+00,2.106408357620239258e+00,2.069749116897583008e+00,2.034344196319580078e+00,2.000130176544189453e+00,1.967047810554504395e+00,1.935042142868041992e+00,1.904061198234558105e+00,1.874056577682495117e+00,1.844983100891113281e+00
5.000000000000000000e+00,5.000000000000000000e+00,5.000000000000000000e+00,5.000000000000000000e+00,5.000000000000000000e+00,5.000000000000000000e+00,5.000000000000000000e+00,5.000000000000000000e+00,5.000000000000000000e+00,5.000000000000000000e+00,5.000000000000000000e+00,5.000000000000000000e+00,5.000000000000000000e+00,5.000000000000000000e+00,5.000000000000000000e+00,5.000000000000000000e+00,5.000000000000000000e+00,5.000000000000000000e+00,5.000000000000000000e+00,5.000000000000000000e+00,5.000000000000000000e+00,5.000000000000000000e+00,5.000000000000000000e+00,5.000000000000000000e+00,5.000000000000000000e+00,5.000000000000000000e+00,5.000000000000000000e+00,5.000000000000000000e+00,5.000000000000000000e+00,2.963953971862792969e+00,2.898529529571533203e+00,2.900776624679565430e+00,5.000000000000000000e+00,5.000000000000000000e+00,5.000000000000000000e+00,5.000000000000000000e+00,5.000000000000000000e+00,5.000000000000000000e+00,5.000000000000000000e+00,4.862362861633300781e+00,4.671370983123779297e+00,4.494816780090332031e+00,4.331121921539306641e+00,4.178930759429931641e+00,4.037072658538818359e+00,3.904529333114624023e+00,3.780412673950195312e+00,3.663943529129028320e+00,3.554436445236206055e+00,3.451285362243652344e+00,3.353952407836914062e+00,3.261958837509155273e+00,3.174876451492309570e+00,3.092323303222656250e+00,3.013954401016235352e+00,2.939459562301635742e+00,2.868558168411254883e+00,2.800996780395507812e+00,2.736544609069824219e+00,2.674991846084594727e+00,2.616147041320800781e+00,2.559835672378540039e+00,2.505897283554077148e+00,2.454185009002685547e+00,2.404563903808593750e+00,2.356909751892089844e+00,2.311107635498046875e+00,2.267051696777343750e+00,2.224643945693969727e+00,2.183793783187866211e+00,2.144416570663452148e+00,2.106434345245361328e+00,2.069774150848388672e+00,2.034368515014648438e+00,2.000153541564941406e+00,1.967070698738098145e+00,1.935064077377319336e+00,1.904082298278808594e+00,1.874077320098876953e+00,1.845003008842468262e+00
5.000000000000000000e+00,5.000000000000000000e+00,5.000000000000000000e+00,5.000000000000000000e+00,5.000000000000000000e+00,5.000000000000000000e+00,5.000000000000000000e+00,5.000000000000000000e+00,5.000000000000000000e+00,5.000000000000000000e+00,5.000000000000000000e+00,5.000000000000000000e+00,5.000000000000000000e+00,5.000000000000000000e+00,5.000000000000000000e+00,5.000000000000000000e+00,5.000000000000000000e+00,5.000000000000000000e+00,5.000000000000000000e+00,5.000000000000000000e+00,5.000000000000000000e+00,5.000000000000000000e+00,5.000000000000000000e+00,5.000000000000000000e+00,5.000000000000000000e+00,5.000000000000000000e+00,5.000000000000000000e+00,5.000000000000000000e+00,5.000000000000000000e+00,2.958818912506103516e+00,2.906656742095947266e+00,2.908790588378906250e+00,5.000000000000000000e+00,5.000000000000000000e+00,5.000000000000000000e+00,5.000000000000000000e+00,5.000000000000000000e+00,5.000000000000000000e+00,5.000000000000000000e+00,4.862501144409179688e+00,4.671499252319335938e+00,4.494935035705566406e+00,4.331231594085693359e+00,4.179033279418945312e+00,4.037168025970458984e+00,3.904618978500366211e+00,3.780496597290039062e+00,3.664022445678710938e+00,3.554510831832885742e+00,3.451355218887329102e+00,3.354017972946166992e+00,3.262020826339721680e+00,3.174935817718505859e+00,3.092379331588745117e+00,3.014007568359375000e+00,2.939510107040405273e+00,2.868606567382812500e+00,2.801042795181274414e+00,2.736588239669799805e+00,2.675033807754516602e+00,2.616187334060668945e+00,2.559874057769775391e+00,2.505934000015258789e+00,2.454220294952392578e+00,2.404597759246826172e+00,2.356942415237426758e+00,2.311138868331909180e+00,2.267081737518310547e+00,2.224672794342041016e+00,2.183821678161621094e+00,2.144443511962890625e+00,2.106460571289062500e+00,2.069799423217773438e+00,2.034392833709716797e+00,2.000176906585693359e+00,1.967093229293823242e+00,1.935085892677307129e+00,1.904103755950927734e+00,1.874097824096679688e+00,1.845023155212402344e+00
5.000000000000000000e+00,5.000000000000000000e+00,5.000000000000000000e+00,5.000000000000000000e+00,5.000000000000000000e+00,5.000000000000000000e+00,5.000000000000000000e+00,5.000000000000000000e+00,5.000000000000000000e+00,5.000000000000000000e+00,5.000000000000000000e+00,5.000000000000000000e+00,5.000000000000000000e+00,5.000000000000000000e+00,5.000000000000000000e+00,5.000000000000000000e+00,5.000000000000000000e+00,5.000000000000000000e+00,5.000000000000000000e+00,5.000000000000000000e+00,5.000000000000000000e+00,5.000000000000000000e+00,5.000000000000000000e+00,5.000000000000000000e+00,5.000000000000000000e+00,5.000000000000000000e+00,5.000000000000000000e+00,5.000000000000000000e+00,5.000000000000000000e+00,5.000000000000000000e+00,2.928731203079223633e+00,2.918436527252197266e+00,5.000000000000000000e+00,5.000000000000000000e+00,5.000000000000000000e+00,5.000000000000000000e+00,5.000000000000000000e+00,5.000000000000000000e+00,5.000000000000000000e+00,4.862639904022216797e+00,4.671627044677734375e+00,4.495053768157958984e+00,4.331341743469238281e+00,4.179135799407958984e+00,4.037263870239257812e+00,3.904708385467529297e+00,3.780580520629882812e+00,3.664101123809814453e+00,3.554584503173828125e+00,3.451424837112426758e+00,3.354084014892578125e+00,3.262083292007446289e+00,3.174994945526123047e+00,3.092435598373413086e+00,3.014060974121093750e+00,2.939560890197753906e+00,2.868654727935791016e+00,2.801088809967041016e+00,2.736632347106933594e+00,2.675075769424438477e+00,2.616227388381958008e+00,2.559912443161010742e+00,2.505970954895019531e+00,2.454255819320678711e+00,2.404631614685058594e+00,2.356974840164184570e+00,2.311170101165771484e+00,2.267111778259277344e+00,2.224701881408691406e+00,2.183849573135375977e+00,2.144470453262329102e+00,2.106486558914184570e+00,2.069824457168579102e+00,2.034416913986206055e+00,2.000200510025024414e+00,1.967115879058837891e+00,1.935107946395874023e+00,1.904124975204467773e+00,1.874118566513061523e+00,1.845042943954467773e+00
5.000000000000000000e+00,5.000000000000000000e+00,5.000000000000000000e+00,5.000000000000000000e+00,5.000000000000000000e+00,5.000000000000000000e+00,5.000000000000000000e+00,5.000000000000000000e+00,5.000000000000000000e+00,5.000000000000000000e+00,5.000000000000000000e+00,5.000000000000000000e+00,5.000000000000000000e+00,5.000000000000000000e+00,5.000000000000000000e+00,5.000000000000000000e+00,5.000000000000000000e+00,5.000000000000000000e+00,5.000000000000000000e+00,5.000000000000000000e+00,5.000000000000000000e+00,5.000000000000000000e+00,5.000000000000000000e+00,5.000000000000000000e+00,5.000000000000000000e+00,5.000000000000000000e+00,5.000000000000000000e+00,5.000000000000000000e+00,5.000000000000000000e+00,5.000000000000000000e+00,2.976373672485351562e+00,2.944905519485473633e+00,5.000000000000000000e+00,5.000000000000000000e+00,5.000000000000000000e+00,5.000000000000000000e+00,5.000000000000000000e+00,5.000000000000000000e+00,5.000000000000000000e+00,4.862778663635253906e+00,4.671754837036132812e+00,4.495172023773193359e+00,4.331451892852783203e+00,4.179237842559814453e+00,4.037359237670898438e+00,3.904797792434692383e+00,3.780663967132568359e+00,3.664179563522338867e+00,3.554658651351928711e+00,3.451494932174682617e+00,3.354150056838989258e+00,3.262145757675170898e+00,3.175054073333740234e+00,3.092491626739501953e+00,3.014114141464233398e+00,2.939611434936523438e+00,2.868702888488769531e+00,2.801134824752807617e+00,2.736676216125488281e+00,2.675117731094360352e+00,2.616267681121826172e+00,2.559951066970825195e+00,2.506007671356201172e+00,2.454290866851806641e+00,2.404665470123291016e+00,2.357007503509521484e+00,2.311201572418212891e+00,2.267142057418823242e+00,2.224730968475341797e+00,2.183877706527709961e+00,2.144497394561767578e+00,2.106512546539306641e+00,2.069849491119384766e+00,2.034441232681274414e+00,2.000223875045776367e+00,1.967138648033142090e+00,1.935129880905151367e+00,1.904146313667297363e+00,1.874139070510864258e+00,1.845062851905822754e+00
5.000000000000000000e+00,5.000000000000000000e+00,5.000000000000000000e+00,5.000000000000000000e+00,5.000000000000000000e+00,5.000000000000000000e+00,5.000000000000000000e+00,5.000000000000000000e+00,5.000000000000000000e+00,5.000000000000000000e+00,5.000000000000000000e+00,5.000000000000000000e+00,5.000000000000000000e+00,5.000000000000000000e+00,5.000000000000000000e+00,5.000000000000000000e+00,5.000000000000000000e+00,5.000000000000000000e+00,5.000000000000000000e+00,5.000000000000000000e+00,5.000000000000000000e+00,5.000000000000000000e+00,5.000000000000000000e+00,5.000000000000000000e+00,5.000000000000000000e+00,5.000000000000000000e+00,2.853578805923461914e+00,2.858162403106689453e+00,2.893487215042114258e+00,2.910726785659790039e+00,2.897207736968994141e+00,3.011686563491821289e+00,3.002779483795166016e+00,5.000000000000000000e+00,5.000000000000000000e+00,5.000000000000000000e+00,5.000000000000000000e+00,5.000000000000000000e+00,5.000000000000000000e+00,4.862917423248291016e+00,4.671882629394531250e+00,4.495290756225585938e+00,4.331562042236328125e+00,4.179340839385986328e+00,4.037455081939697266e+00,3.904886960983276367e+00,3.780747890472412109e+00,3.664258480072021484e+00,3.554732799530029297e+00,3.451564788818359375e+00,3.354216098785400391e+00,3.262208223342895508e+00,3.175112962722778320e+00,3.092547655105590820e+00,3.014167308807373047e+00,2.939662218093872070e+00,2.868751287460327148e+00,2.801180839538574219e+00,2.736720323562622070e+00,2.675159692764282227e+00,2.616307497024536133e+00,2.559989213943481445e+00,2.506044626235961914e+00,2.454326391220092773e+00,2.404699563980102539e+00,2.357040166854858398e+00,2.311232805252075195e+00,2.267172098159790039e+00,2.224759817123413086e+00,2.183905601501464844e+00,2.144524335861206055e+00,2.106538534164428711e+00,2.069874763488769531e+00,2.034465551376342773e+00,2.000247478485107422e+00,1.967161297798156738e+00,1.935151696205139160e+00,1.904167532920837402e+00,1.874159574508666992e+00,1.845082998275756836e+00
5.000000000000000000e+00,5.000000000000000000e+00,5.000000000000000000e+00,5.000000000000000000e+00,5.000000000000000000e+00,5.000000000000000000e+00,5.000000000000000000e+00,5.000000000000000000e+00,5.000000000000000000e+00,5.000000000000000000e+00,5.000000000000000000e+00,5.000000000000000000e+00,5.000000000000000000e+00,5.000000000000000000e+00,5.000000000000000000e+00,5.000000000000000000e+00,5.000000000000000000e+00,5.000000000000000000e+00,5.000000000000000000e+00,5.000000000000000000e+00,5.000000000000000000e+00,5.000000000000000000e+00,5.000000000000000000e+00,5.000000000000000000e+00,5.000000000000000000e+00,5.000000000000000000e+00,2.842819690704345703e+00,2.857302665710449219e+00,2.857751846313476562e+00,2.869008779525756836e+00,2.892971277236938477e+00,2.925891160964965820e+00,2.968025684356689453e+00,3.040213823318481445e+00,3.081953525543212891e+00,5.000000000000000000e+00,5.000000000000000000e+00,5.000000000000000000e+00,5.000000000000000000e+00,4.863056182861328125e+00,4.672010898590087891e+00,4.495409011840820312e+00,4.331672191619873047e+00,4.179442882537841797e+00,4.037550449371337891e+00,3.904976606369018555e+00,3.780831813812255859e+00,3.664337396621704102e+00,3.554807186126708984e+00,3.451634645462036133e+00,3.354282379150390625e+00,3.262270450592041016e+00,3.175172090530395508e+00,3.092603683471679688e+00,3.014220714569091797e+00,2.939713001251220703e+00,2.868799686431884766e+00,2.801226854324340820e+00,2.736764192581176758e+00,2.675201654434204102e+00,2.616347789764404297e+00,2.560027837753295898e+00,2.506081342697143555e+00,2.454361677169799805e+00,2.404733419418334961e+00,2.357072591781616211e+00,2.311264276504516602e+00,2.267202138900756836e+00,2.224788904190063477e+00,2.183933496475219727e+00,2.144551515579223633e+00,2.106564521789550781e+00,2.069899797439575195e+00,2.034489870071411133e+00,2.000270843505859375e+00,1.967183947563171387e+00,1.935173869132995605e+00,1.904188632965087891e+00,1.874180316925048828e+00,1.845102787017822266e+00
5.000000000000000000e+00,5.000000000000000000e+00,5.000000000000000000e+00,5.000000000000000000e+00,5.000000000000000000e+00,5.000000000000000000e+00,5.000000000000000000e+00,5.000000000000000000e+00,5.000000000000000000e+00,5.000000000000000000e+00,5.000000000000000000e+00,5.000000000000000000e+00,5.000000000000000000e+00,5.000000000000000000e+00,5.000000000000000000e+00,5.000000000000000000e+00,5.000000000000000000e+00,5.000000000000000000e+00,5.000000000000000000e+00,5.000000000000000000e+00,5.000000000000000000e+00,5.000000000000000000e+00,5.000000000000000000e+00,5.000000000000000000e+00,5.000000000000000000e+00,5.000000000000000000e+00,2.860240459442138672e+00,2.862439393997192383e+00,2.864683628082275391e+00,2.853333711624145508e+00,2.862099170684814453e+00,2.886396169662475586e+00,2.918925762176513672e+00,2.979955673217773438e+00,3.092131853103637695e+00,5.000000000000000000e+00,5.000000000000000000e+00,5.000000000000000000e+00,5.000000000000000000e+00,4.863194942474365234e+00,4.672139167785644531e+00,4.495527744293212891e+00,4.331781864166259766e+00,4.179545402526855469e+00,4.037646293640136719e+00,3.905066013336181641e+00,3.780915737152099609e+00,3.664416074752807617e+00,3.554881334304809570e+00,3.451704263687133789e+00,3.354347944259643555e+00,3.262332916259765625e+00,3.175231456756591797e+00,3.092659950256347656e+00,3.014274120330810547e+00,2.939763545989990234e+00,2.868847846984863281e+00,2.801272869110107422e+00,2.736808061599731445e+00,2.675243616104125977e+00,2.616388082504272461e+00,2.560066223144531250e+00,2.506118297576904297e+00,2.454396963119506836e+00,2.404767513275146484e+00,2.357105016708374023e+00,2.311295509338378906e+00,2.267232418060302734e+00,2.224817991256713867e+00,2.183961629867553711e+00,2.144578456878662109e+00,2.106590747833251953e+00,2.069925069808959961e+00,2.034513950347900391e+00,2.000294208526611328e+00,1.967206716537475586e+00,1.935195684432983398e+00,1.904210090637207031e+00,1.874200820922851562e+00,1.845122933387756348e+00
5.000000000000000000e+00,5.000000000000000000e+00,5.000000000000000000e+00,5.000000000000000000e+00,5.000000000000000000e+00,5.000000000000000000e+00,5.000000000000000000e+00,5.000000000000000000e+00,5.000000000000000000e+00,5.000000000000000000e+00,5.000000000000000000e+00,5.000000000000000000e+00,5.000000000000000000e+00,5.000000000000000000e+00,5.000000000000000000e+00,5.000000000000000000e+00,5.000000000000000000e+00,5.000000000000000000e+00,5.000000000000000000e+00,5.000000000000000000e+00,5.000000000000000000e+00,5.000000000000000000e+00,5.000000000000000000e+00,5.000000000000000000e+00,5.000000000000000000e+00,5.000000000000000000e+00,2.877728223800659180e+00,2.873469829559326172e+00,2.877855300903320312e+00,2.861540555953979492e+00,2.868327617645263672e+00,2.887872219085693359e+00,2.919396638870239258e+00,2.974144220352172852e+00,3.096705913543701172e+00,5.000000000000000000e+00,5.000000000000000000e+00,5.000000000000000000e+00,5.000000000000000000e+00,4.863333225250244141e+00,4.672266960144042969e+00,4.495645999908447266e+00,4.331892013549804688e+00,4.179647922515869141e+00,4.037741661071777344e+00,3.905155658721923828e+00,3.780999660491943359e+00,3.664494514465332031e+00,3.554955005645751953e+00,3.451774358749389648e+00,3.354413986206054688e+00,3.262395381927490234e+00,3.175290584564208984e+00,3.092715978622436523e+00,3.014327526092529297e+00,2.939814090728759766e+00,2.868896007537841797e+00,2.801318883895874023e+00,2.736851930618286133e+00,2.675285577774047852e+00,2.616428136825561523e+00,2.560104608535766602e+00,2.506155252456665039e+00,2.454432249069213867e+00,2.404801130294799805e+00,2.357137680053710938e+00,2.311326742172241211e+00,2.267262458801269531e+00,2.224847078323364258e+00,2.183989524841308594e+00,2.144605398178100586e+00,2.106616497039794922e+00,2.069950103759765625e+00,2.034538269042968750e+00,2.000317811965942383e+00,1.967229366302490234e+00,1.935217857360839844e+00,1.904231190681457520e+00,1.874221563339233398e+00,1.845142841339111328e+00
5.000000000000000000e+00,5.000000000000000000e+00,5.000000000000000000e+00,5.000000000000000000e+00,5.000000000000000000e+00,5.000000000000000000e+00,5.000000000000000000e+00,5.000000000000000000e+00,5.000000000000000000e+00,5.000000000000000000e+00,5.000000000000000000e+00,5.000000000000000000e+00,5.000000000000000000e+00,5.000000000000000000e+00,5.000000000000000000e+00,5.000000000000000000e+00,5.000000000000000000e+00,5.000000000000000000e+00,5.000000000000000000e+00,5.000000000000000000e+00,5.000000000000000000e+00,5.000000000000000000e+00,5.000000000000000000e+00,5.000000000000000000e+00,5.000000000000000000e+00,5.000000000000000000e+00,2.886040210723876953e+00,2.876682043075561523e+00,2.894861221313476562e+00,2.867175579071044922e+00,2.865382432937622070e+00,2.878697156906127930e+00,2.910461425781250000e+00,2.996133327484130859e+00,3.109852790832519531e+00,5.000000000000000000e+00,5.000000000000000000e+00,5.000000000000000000e+00,5.000000000000000000e+00,4.863471984863281250e+00,4.672395229339599609e+00,4.495764732360839844e+00,4.332002162933349609e+00,4.179750442504882812e+00,4.037837505340576172e+00,3.905244588851928711e+00,3.781083106994628906e+00,3.664573431015014648e+00,3.555029392242431641e+00,3.451844215393066406e+00,3.354480028152465820e+00,3.262457847595214844e+00,3.175349712371826172e+00,3.092772006988525391e+00,3.014380455017089844e+00,2.939864873886108398e+00,2.868944168090820312e+00,2.801364898681640625e+00,2.736896038055419922e+00,2.675327539443969727e+00,2.616468429565429688e+00,2.560142993927001953e+00,2.506191730499267578e+00,2.454467535018920898e+00,2.404835224151611328e+00,2.357170343399047852e+00,2.311358213424682617e+00,2.267292737960815430e+00,2.224876165390014648e+00,2.184017419815063477e+00,2.144632339477539062e+00,2.106642723083496094e+00,2.069975137710571289e+00,2.034562587738037109e+00,2.000341176986694336e+00,1.967252135276794434e+00,1.935239672660827637e+00,1.904252409934997559e+00,1.874242067337036133e+00,1.845162749290466309e+00
5.000000000000000000e+00,5.000000000000000000e+00,5.000000000000000000e+00,5.000000000000000000e+00,5.000000000000000000e+00,5.000000000000000000e+00,5.000000000000000000e+00,5.000000000000000000e+00,5.000000000000000000e+00,5.000000000000000000e+00,5.000000000000000000e+00,5.000000000000000000e+00,5.000000000000000000e+00,5.000000000000000000e+00,5.000000000000000000e+00,5.000000000000000000e+00,5.000000000000000000e+00,5.000000000000000000e+00,5.000000000000000000e+00,5.000000000000000000e+00,5.000000000000000000e+00,5.000000000000000000e+00,5.000000000000000000e+00,5.000000000000000000e+00,5.000000000000000000e+00,5.000000000000000000e+00,2.900343179702758789e+00,2.876888275146484375e+00,2.902323961257934570e+00,2.871240615844726562e+00,2.865766286849975586e+00,2.881188392639160156e+00,2.912705659866333008e+00,2.984992504119873047e+00,3.115525960922241211e+00,5.000000000000000000e+00,5.000000000000000000e+00,5.000000000000000000e+00,5.000000000000000000e+00,4.863610744476318359e+00,4.672523021697998047e+00,4.495882987976074219e+00,4.332112312316894531e+00,4.179852962493896484e+00,4.037932872772216797e+00,3.905334234237670898e+00,3.781167030334472656e+00,3.664652347564697266e+00,3.555103540420532227e+00,3.451914072036743164e+00,3.354546070098876953e+00,3.262520074844360352e+00,3.175408601760864258e+00,3.092828035354614258e+00,3.014433860778808594e+00,2.939915657043457031e+00,2.868992567062377930e+00,2.801410913467407227e+00,2.736939907073974609e+00,2.675369501113891602e+00,2.616508245468139648e+00,2.560181379318237305e+00,2.506228685379028320e+00,2.454502820968627930e+00,2.404869079589843750e+00,2.357203006744384766e+00,2.311389446258544922e+00,2.267322778701782227e+00,2.224905014038085938e+00,2.184045314788818359e+00,2.144659280776977539e+00,2.106668710708618164e+00,2.070000410079956055e+00,2.034586906433105469e+00,2.000364780426025391e+00,1.967274785041809082e+00,1.935261607170104980e+00,1.904273867607116699e+00,1.874262571334838867e+00,1.845182776451110840e+00
5.000000000000000000e+00,5.000000000000000000e+00,5.000000000000000000e+00,5.000000000000000000e+00,5.000000000000000000e+00,5.000000000000000000e+00,5.000000000000000000e+00,5.000000000000000000e+00,5.000000000000000000e+00,5.000000000000000000e+00,5.000000000000000000e+00,5.000000000000000000e+00,5.000000000000000000e+00,5.000000000000000000e+00,5.000000000000000000e+00,5.000000000000000000e+00,5.000000000000000000e+00,5.000000000000000000e+00,5.000000000000000000e+00,5.000000000000000000e+00,5.000000000000000000e+00,5.000000000000000000e+00,5.000000000000000000e+00,5.000000000000000000e+00,5.000000000000000000e+00,5.000000000000000000e+00,2.925826787948608398e+00,2.882924079895019531e+00,2.898589611053466797e+00,2.858995914459228516e+00,2.854462146759033203e+00,2.880638122558593750e+00,2.910448551177978516e+00,3.034323215484619141e+00,3.122254848480224609e+00,5.000000000000000000e+00,5.000000000000000000e+00,5.000000000000000000e+00,5.000000000000000000e+00,4.863749504089355469e+00,4.672651290893554688e+00,4.496001720428466797e+00,4.332221984863281250e+00,4.179955482482910156e+00,4.038028717041015625e+00,3.905423641204833984e+00,3.781250953674316406e+00,3.664731025695800781e+00,3.555177688598632812e+00,3.451984167098999023e+00,3.354611873626708984e+00,3.262582540512084961e+00,3.175467967987060547e+00,3.092884302139282227e+00,3.014487266540527344e+00,2.939966440200805664e+00,2.869040966033935547e+00,2.801457166671752930e+00,2.736983537673950195e+00,2.675411462783813477e+00,2.616548538208007812e+00,2.560220003128051758e+00,2.506265640258789062e+00,2.454538345336914062e+00,2.404903173446655273e+00,2.357235670089721680e+00,2.311420679092407227e+00,2.267353057861328125e+00,2.224934101104736328e+00,2.184073448181152344e+00,2.144686222076416016e+00,2.106694698333740234e+00,2.070025444030761719e+00,2.034611225128173828e+00,2.000388145446777344e+00,1.967297434806823730e+00,1.935283660888671875e+00,1.904294967651367188e+00,1.874283313751220703e+00,1.845202684402465820e+00
5.000000000000000000e+00,5.000000000000000000e+00,5.000000000000000000e+00,5.000000000000000000e+00,5.000000000000000000e+00,5.000000000000000000e+00,5.000000000000000000e+00,5.000000000000000000e+00,5.000000000000000000e+00,5.000000000000000000e+00,5.000000000000000000e+00,5.000000000000000000e+00,5.000000000000000000e+00,5.000000000000000000e+00,5.000000000000000000e+00,5.000000000000000000e+00,5.000000000000000000e+00,5.000000000000000000e+00,5.000000000000000000e+00,5.000000000000000000e+00,5.000000000000000000e+00,5.000000000000000000e+00,5.000000000000000000e+00,5.000000000000000000e+00,5.000000000000000000e+00,5.000000000000000000e+00,5.000000000000000000e+00,2.888249635696411133e+00,2.887236356735229492e+00,2.854767084121704102e+00,2.859032392501831055e+00,2.868439674377441406e+00,2.898838043212890625e+00,2.953446626663208008e+00,3.139605998992919922e+00,5.000000000000000000e+00,5.000000000000000000e+00,5.000000000000000000e+00,5.000000000000000000e+00,4.863888263702392578e+00,4.672779083251953125e+00,4.496120452880859375e+00,4.332332134246826172e+00,4.180058002471923828e+00,4.038124084472656250e+00,3.905513286590576172e+00,3.781334877014160156e+00,3.664809942245483398e+00,3.555251598358154297e+00,3.452053785324096680e+00,3.354677915573120117e+00,3.262645006179809570e+00,3.175527095794677734e+00,3.092940330505371094e+00,3.014540433883666992e+00,2.940016984939575195e+00,2.869089126586914062e+00,2.801502943038940430e+00,2.737027645111083984e+00,2.675453424453735352e+00,2.616588830947875977e+00,2.560258388519287109e+00,2.506302356719970703e+00,2.454573631286621094e+00,2.404936790466308594e+00,2.357268095016479492e+00,2.311452150344848633e+00,2.267383098602294922e+00,2.224963188171386719e+00,2.184101343154907227e+00,2.144713401794433594e+00,2.106720685958862305e+00,2.070050477981567383e+00,2.034635543823242188e+00,2.000411748886108398e+00,1.967320203781127930e+00,1.935305595397949219e+00,1.904316425323486328e+00,1.874303817749023438e+00,1.845222830772399902e+00
5.000000000000000000e+00,5.000000000000000000e+00,5.000000000000000000e+00,5.000000000000000000e+00,5.000000000000000000e+00,5.000000000000000000e+00,5.000000000000000000e+00,5.000000000000000000e+00,5.000000000000000000e+00,5.000000000000000000e+00,5.000000000000000000e+00,5.000000000000000000e+00,5.000000000000000000e+00,5.000000000000000000e+00,5.000000000000000000e+00,5.000000000000000000e+00,5.000000000000000000e+00,5.000000000000000000e+00,5.000000000000000000e+00,5.000000000000000000e+00,5.000000000000000000e+00,5.000000000000000000e+00,5.000000000000000000e+00,5.000000000000000000e+00,5.000000000000000000e+00,5.000000000000000000e+00,5.000000000000000000e+00,2.854096889495849609e+00,2.892443656921386719e+00,2.865640163421630859e+00,2.861711502075195312e+00,2.878039836883544922e+00,2.909352302551269531e+00,2.970630168914794922e+00,3.140289783477783203e+00,5.000000000000000000e+00,5.000000000000000000e+00,5.000000000000000000e+00,5.000000000000000000e+00,4.864027023315429688e+00,4.672907352447509766e+00,4.496238708496093750e+00,4.332442283630371094e+00,4.180160045623779297e+00,4.038219928741455078e+00,3.905602693557739258e+00,3.781418561935424805e+00,3.664888381958007812e+00,3.555325746536254883e+00,3.452123641967773438e+00,3.354743957519531250e+00,3.262707710266113281e+00,3.175586223602294922e+00,3.092996597290039062e+00,3.014593601226806641e+00,2.940067529678344727e+00,2.869137287139892578e+00,2.801548957824707031e+00,2.737071514129638672e+00,2.675495624542236328e+00,2.616628885269165039e+00,2.560297012329101562e+00,2.506339073181152344e+00,2.454608917236328125e+00,2.404970884323120117e+00,2.357300758361816406e+00,2.311483383178710938e+00,2.267413377761840820e+00,2.224992275238037109e+00,2.184129476547241211e+00,2.144740104675292969e+00,2.106746673583984375e+00,2.070075750350952148e+00,2.034659862518310547e+00,2.000435113906860352e+00,1.967342853546142578e+00,1.935327649116516113e+00,1.904337644577026367e+00,1.874324321746826172e+00,1.845242619514465332e+00
5.000000000000000000e+00,5.000000000000000000e+00,5.000000000000000000e+00,5.000000000000000000e+00,5.000000000000000000e+00,5.000000000000000000e+00,5.000000000000000000e+00,5.000000000000000000e+00,5.000000000000000000e+00,5.000000000000000000e+00,5.000000000000000000e+00,5.000000000000000000e+00,5.000000000000000000e+00,5.000000000000000000e+00,5.000000000000000000e+00,5.000000000000000000e+00,5.000000000000000000e+00,5.000000000000000000e+00,5.000000000000000000e+00,5.000000000000000000e+00,5.000000000000000000e+00,5.000000000000000000e+00,5.000000000000000000e+00,5.000000000000000000e+00,5.000000000000000000e+00,5.000000000000000000e+00,5.000000000000000000e+00,2.837398767471313477e+00,2.863764047622680664e+00,2.853236436843872070e+00,2.866870403289794922e+00,2.894261360168457031e+00,2.926136970520019531e+00,2.956742286682128906e+00,3.125803232192993164e+00,5.000000000000000000e+00,5.000000000000000000e+00,5.000000000000000000e+00,5.000000000000000000e+00,4.864165782928466797e+00,4.673035144805908203e+00,4.496357440948486328e+00,4.332552433013916016e+00,4.180263042449951172e+00,4.038315296173095703e+00,3.905691862106323242e+00,3.781502485275268555e+00,3.664967298507690430e+00,3.555399894714355469e+00,3.452193737030029297e+00,3.354809999465942383e+00,3.262770175933837891e+00,3.175645112991333008e+00,3.093052387237548828e+00,3.014647006988525391e+00,2.940118312835693359e+00,2.869185686111450195e+00,2.801594972610473633e+00,2.737115621566772461e+00,2.675537586212158203e+00,2.616668939590454102e+00,2.560335159301757812e+00,2.506376028060913086e+00,2.454644203186035156e+00,2.405004739761352539e+00,2.357333421707153320e+00,2.311514854431152344e+00,2.267443418502807617e+00,2.225021123886108398e+00,2.184157371520996094e+00,2.144767284393310547e+00,2.106772661209106445e+00,2.070100784301757812e+00,2.034684181213378906e+00,2.000458717346191406e+00,1.967365622520446777e+00,1.935349583625793457e+00,1.904358744621276855e+00,1.874345064163208008e+00,1.845262527465820312e+00
5.000000000000000000e+00,5.000000000000000000e+00,5.000000000000000000e+00,5.000000000000000000e+00,5.000000000000000000e+00,5.000000000000000000e+00,5.000000000000000000e+00,5.000000000000000000e+00,5.000000000000000000e+00,5.000000000000000000e+00,5.000000000000000000e+00,5.000000000000000000e+00,5.000000000000000000e+00,5.000000000000000000e+00,5.000000000000000000e+00,5.000000000000000000e+00,5.000000000000000000e+00,5.000000000000000000e+00,5.000000000000000000e+00,5.000000000000000000e+00,5.000000000000000000e+00,5.000000000000000000e+00,5.000000000000000000e+00,5.000000000000000000e+00,5.000000000000000000e+00,5.000000000000000000e+00,5.000000000000000000e+00,2.816297054290771484e+00,2.833231687545776367e+00,2.815864086151123047e+00,2.820439815521240234e+00,2.932622909545898438e+00,2.928328990936279297e+00,2.930875062942504883e+00,3.115535497665405273e+00,5.000000000000000000e+00,5.000000000000000000e+00,5.000000000000000000e+00,5.000000000000000000e+00,4.864304542541503906e+00,4.673163414001464844e+00,4.496476173400878906e+00,4.332662105560302734e+00,4.180365085601806641e+00,4.038411140441894531e+00,3.905781507492065430e+00,3.781586408615112305e+00,3.665046215057373047e+00,3.555474042892456055e+00,3.452263593673706055e+00,3.354875802993774414e+00,3.262832403182983398e+00,3.175704479217529297e+00,3.093108654022216797e+00,3.014700412750244141e+00,2.940169095993041992e+00,2.869234085083007812e+00,2.801641225814819336e+00,2.737159252166748047e+00,2.675579309463500977e+00,2.616709232330322266e+00,2.560373783111572266e+00,2.506412982940673828e+00,2.454679727554321289e+00,2.405038833618164062e+00,2.357365846633911133e+00,2.311546087265014648e+00,2.267473459243774414e+00,2.225050210952758789e+00,2.184185266494750977e+00,2.144794225692749023e+00,2.106798887252807617e+00,2.070126056671142578e+00,2.034708261489868164e+00,2.000482082366943359e+00,1.967388272285461426e+00,1.935371398925781250e+00,1.904380202293395996e+00,1.874365568161010742e+00,1.845282673835754395e+00
5.000000000000000000e+00,5.000000000000000000e+00,5.000000000000000000e+00,5.000000000000000000e+00,5.000000000000000000e+00,5.000000000000000000e+00,5.000000000000000000e+00,5.000000000000000000e+00,5.000000000000000000e+00,5.000000000000000000e+00,5.000000000000000000e+00,5.000000000000000000e+00,5.000000000000000000e+00,5.000000000000000000e+00,5.000000000000000000e+00,5.000000000000000000e+00,5.000000000000000000e+00,5.000000000000000000e+00,5.000000000000000000e+00,5.000000000000000000e+00,5.000000000000000000e+00,5.000000000000000000e+00,5.000000000000000000e+00,5.000000000000000000e+00,5.000000000000000000e+00,5.000000000000000000e+00,5.000000000000000000e+00,2.806277513504028320e+00,2.822348356246948242e+00,2.801347732543945312e+00,2.797959804534912109e+00,2.856642961502075195e+00,2.901685237884521484e+00,2.907866001129150391e+00,2.977153778076171875e+00,5.000000000000000000e+00,5.000000000000000000e+00,5.000000000000000000e+00,5.000000000000000000e+00,4.864443302154541016e+00,4.673291206359863281e+00,4.496594429016113281e+00,4.332772254943847656e+00,4.180467605590820312e+00,4.038506507873535156e+00,3.905871152877807617e+00,3.781670331954956055e+00,3.665124893188476562e+00,3.555547952651977539e+00,3.452333211898803711e+00,3.354941844940185547e+00,3.262894868850708008e+00,3.175763607025146484e+00,3.093164682388305664e+00,3.014753580093383789e+00,2.940219879150390625e+00,2.869282007217407227e+00,2.801687002182006836e+00,2.737203359603881836e+00,2.675621271133422852e+00,2.616749286651611328e+00,2.560412168502807617e+00,2.506449699401855469e+00,2.454715013504028320e+00,2.405072450637817383e+00,2.357398509979248047e+00,2.311577320098876953e+00,2.267503738403320312e+00,2.225079298019409180e+00,2.184213399887084961e+00,2.144821166992187500e+00,2.106824874877929688e+00,2.070151090621948242e+00,2.034732580184936523e+00,2.000505447387695312e+00,1.967410922050476074e+00,1.935393571853637695e+00,1.904401421546936035e+00,1.874386310577392578e+00,1.845302581787109375e+00
5.000000000000000000e+00,5.000000000000000000e+00,5.000000000000000000e+00,5.000000000000000000e+00,5.000000000000000000e+00,5.000000000000000000e+00,5.000000000000000000e+00,5.000000000000000000e+00,5.000000000000000000e+00,5.000000000000000000e+00,5.000000000000000000e+00,5.000000000000000000e+00,5.000000000000000000e+00,5.000000000000000000e+00,5.000000000000000000e+00,5.000000000000000000e+00,5.000000000000000000e+00,5.000000000000000000e+00,5.000000000000000000e+00,5.000000000000000000e+00,5.000000000000000000e+00,5.000000000000000000e+00,5.000000000000000000e+00,5.000000000000000000e+00,5.000000000000000000e+00,5.000000000000000000e+00,5.000000000000000000e+00,2.782495737075805664e+00,2.776410818099975586e+00,2.790870666503906250e+00,2.787391424179077148e+00,2.840549707412719727e+00,2.893769979476928711e+00,2.900297880172729492e+00,2.963640213012695312e+00,5.000000000000000000e+00,5.000000000000000000e+00,5.000000000000000000e+00,5.000000000000000000e+00,4.864582061767578125e+00,4.673419475555419922e+00,4.496713161468505859e+00,4.332882881164550781e+00,4.180570125579833984e+00,4.038602352142333984e+00,3.905960559844970703e+00,3.781754255294799805e+00,3.665203332901000977e+00,3.555622339248657227e+00,3.452403306961059570e+00,3.355008125305175781e+00,3.262957334518432617e+00,3.175822734832763672e+00,3.093220949172973633e+00,3.014806985855102539e+00,2.940270423889160156e+00,2.869330406188964844e+00,2.801733016967773438e+00,2.737247228622436523e+00,2.675663471221923828e+00,2.616789579391479492e+00,2.560450553894042969e+00,2.506486654281616211e+00,2.454750299453735352e+00,2.405106544494628906e+00,2.357430934906005859e+00,2.311608791351318359e+00,2.267534017562866211e+00,2.225108385086059570e+00,2.184241294860839844e+00,2.144848108291625977e+00,2.106850862503051758e+00,2.070176124572753906e+00,2.034756898880004883e+00,2.000529050827026367e+00,1.967433691024780273e+00,1.935415387153625488e+00,1.904422760009765625e+00,1.874406814575195312e+00,1.845322370529174805e+00
5.000000000000000000e+00,5.000000000000000000e+00,5.000000000000000000e+00,5.000000000000000000e+00,5.000000000000000000e+00,5.000000000000000000e+00,5.000000000000000000e+00,5.000000000000000000e+00,5.000000000000000000e+00,5.000000000000000000e+00,5.000000000000000000e+00,5.000000000000000000e+00,5.000000000000000000e+00,5.000000000000000000e+00,5.000000000000000000e+00,5.000000000000000000e+00,5.000000000000000000e+00,5.000000000000000000e+00,5.000000000000000000e+00,5.000000000000000000e+00,5.000000000000000000e+00,5.000000000000000000e+00,5.000000000000000000e+00,5.000000000000000000e+00,5.000000000000000000e+00,5.000000000000000000e+00,5.000000000000000000e+00,2.772951602935791016e+00,2.728432416915893555e+00,2.782366514205932617e+00,2.776902914047241211e+00,2.825454950332641602e+00,2.888160228729248047e+00,2.895525693893432617e+00,2.957258939743041992e+00,3.108531475067138672e+00,5.000000000000000000e+00,5.000000000000000000e+00,5.000000000000000000e+00,4.864720821380615234e+00,4.673547744750976562e+00,4.496831417083740234e+00,4.332992553710937500e+00,4.180672645568847656e+00,4.038698196411132812e+00,3.906049728393554688e+00,3.781837940216064453e+00,3.665282249450683594e+00,3.555696487426757812e+00,3.452473163604736328e+00,3.355074167251586914e+00,3.263019800186157227e+00,3.175882101058959961e+00,3.093276739120483398e+00,3.014860153198242188e+00,2.940320968627929688e+00,2.869378805160522461e+00,2.801779270172119141e+00,2.737291336059570312e+00,2.675705432891845703e+00,2.616829633712768555e+00,2.560488939285278320e+00,2.506523370742797852e+00,2.454785585403442383e+00,2.405140399932861328e+00,2.357463598251342773e+00,2.311640024185180664e+00,2.267564058303833008e+00,2.225137472152709961e+00,2.184269189834594727e+00,2.144875049591064453e+00,2.106876850128173828e+00,2.070201396942138672e+00,2.034781217575073242e+00,2.000552415847778320e+00,1.967456340789794922e+00,1.935437560081481934e+00,1.904443979263305664e+00,1.874427318572998047e+00,1.845342516899108887e+00
5.000000000000000000e+00,5.000000000000000000e+00,5.000000000000000000e+00,5.000000000000000000e+00,5.000000000000000000e+00,5.000000000000000000e+00,5.000000000000000000e+00,5.000000000000000000e+00,5.000000000000000000e+00,5.000000000000000000e+00,5.000000000000000000e+00,5.000000000000000000e+00,5.000000000000000000e+00,5.000000000000000000e+00,5.000000000000000000e+00,5.000000000000000000e+00,5.000000000000000000e+00,5.000000000000000000e+00,5.000000000000000000e+00,5.000000000000000000e+00,5.000000000000000000e+00,5.000000000000000000e+00,5.000000000000000000e+00,5.000000000000000000e+00,5.000000000000000000e+00,5.000000000000000000e+00,5.000000000000000000e+00,2.757593631744384766e+00,5.000000000000000000e+00,2.772003173828125000e+00,2.766076087951660156e+00,2.811750173568725586e+00,2.884677171707153320e+00,2.888454437255859375e+00,2.950565576553344727e+00,3.084945201873779297e+00,5.000000000000000000e+00,5.000000000000000000e+00,5.000000000000000000e+00,4.864859580993652344e+00,4.673675537109375000e+00,4.496950149536132812e+00,4.333102703094482422e+00,4.180775165557861328e+00,4.038793563842773438e+00,3.906139373779296875e+00,3.781921863555908203e+00,3.665361166000366211e+00,3.555770635604858398e+00,3.452543258666992188e+00,3.355140209197998047e+00,3.263082027435302734e+00,3.175940990447998047e+00,3.093333005905151367e+00,3.014913558959960938e+00,2.940371751785278320e+00,2.869427204132080078e+00,2.801825284957885742e+00,2.737335205078125000e+00,2.675747156143188477e+00,2.616869688034057617e+00,2.560527563095092773e+00,2.506560325622558594e+00,2.454820871353149414e+00,2.405174493789672852e+00,2.357496261596679688e+00,2.311671495437622070e+00,2.267594099044799805e+00,2.225166320800781250e+00,2.184297084808349609e+00,2.144901990890502930e+00,2.106902837753295898e+00,2.070226669311523438e+00,2.034805536270141602e+00,2.000576019287109375e+00,1.967478990554809570e+00,1.935459375381469727e+00,1.904465198516845703e+00,1.874448060989379883e+00,1.845362424850463867e+00
5.000000000000000000e+00,5.000000000000000000e+00,5.000000000000000000e+00,5.000000000000000000e+00,5.000000000000000000e+00,5.000000000000000000e+00,5.000000000000000000e+00,5.000000000000000000e+00,5.000000000000000000e+00,5.000000000000000000e+00,5.000000000000000000e+00,5.000000000000000000e+00,5.000000000000000000e+00,5.000000000000000000e+00,5.000000000000000000e+00,5.000000000000000000e+00,5.000000000000000000e+00,5.000000000000000000e+00,5.000000000000000000e+00,5.000000000000000000e+00,5.000000000000000000e+00,5.000000000000000000e+00,5.000000000000000000e+00,5.000000000000000000e+00,5.000000000000000000e+00,5.000000000000000000e+00,5.000000000000000000e+00,5.000000000000000000e+00,5.000000000000000000e+00,2.765273571014404297e+00,2.754861116409301758e+00,2.796540021896362305e+00,2.880620241165161133e+00,2.882174968719482422e+00,2.943735361099243164e+00,5.000000000000000000e+00,5.000000000000000000e+00,5.000000000000000000e+00,5.000000000000000000e+00,4.864998340606689453e+00,4.673803806304931641e+00,4.497068881988525391e+00,4.333212852478027344e+00,4.180877685546875000e+00,4.038889408111572266e+00,3.906229019165039062e+00,3.782005786895751953e+00,3.665440082550048828e+00,3.555845022201538086e+00,3.452612876892089844e+00,3.355206012725830078e+00,3.263144493103027344e+00,3.176000118255615234e+00,3.093389272689819336e+00,3.014966964721679688e+00,2.940422534942626953e+00,2.869475364685058594e+00,2.801871061325073242e+00,2.737379074096679688e+00,2.675789356231689453e+00,2.616909980773925781e+00,2.560565948486328125e+00,2.506597042083740234e+00,2.454856395721435547e+00,2.405208349227905273e+00,2.357528686523437500e+00,2.311702728271484375e+00,2.267624378204345703e+00,2.225195407867431641e+00,2.184325218200683594e+00,2.144929170608520508e+00,2.106929063796997070e+00,2.070251703262329102e+00,2.034829616546630859e+00,2.000599384307861328e+00,1.967501759529113770e+00,1.935481309890747070e+00,1.904486536979675293e+00,1.874468564987182617e+00,1.845382452011108398e+00
5.000000000000000000e+00,5.000000000000000000e+00,5.000000000000000000e+00,5.000000000000000000e+00,5.000000000000000000e+00,5.000000000000000000e+00,5.000000000000000000e+00,5.000000000000000000e+00,5.000000000000000000e+00,5.000000000000000000e+00,5.000000000000000000e+00,5.000000000000000000e+00,5.000000000000000000e+00,5.000000000000000000e+00,5.000000000000000000e+00,5.000000000000000000e+00,5.000000000000000000e+00,5.000000000000000000e+00,5.000000000000000000e+00,5.000000000000000000e+00,5.000000000000000000e+00,5.000000000000000000e+00,5.000000000000000000e+00,5.000000000000000000e+00,5.000000000000000000e+00,5.000000000000000000e+00,5.000000000000000000e+00,5.000000000000000000e+00,5.000000000000000000e+00,2.779517412185668945e+00,2.743737220764160156e+00,2.781383514404296875e+00,2.877882242202758789e+00,2.871636867523193359e+00,5.000000000000000000e+00,5.000000000000000000e+00,5.000000000000000000e+00,5.000000000000000000e+00,5.000000000000000000e+00,4.865137100219726562e+00,4.673931598663330078e+00,4.497187614440917969e+00,4.333323001861572266e+00,4.180980205535888672e+00,4.038985252380371094e+00,3.906318426132202148e+00,3.782089710235595703e+00,3.665518522262573242e+00,3.555918693542480469e+00,3.452682733535766602e+00,3.355272054672241211e+00,3.263206958770751953e+00,3.176059484481811523e+00,3.093445301055908203e+00,3.015020370483398438e+00,2.940473079681396484e+00,2.869523525238037109e+00,2.801917076110839844e+00,2.737423181533813477e+00,2.675831317901611328e+00,2.616950035095214844e+00,2.560604333877563477e+00,2.506633996963500977e+00,2.454891443252563477e+00,2.405242204666137695e+00,2.357561349868774414e+00,2.311734199523925781e+00,2.267654418945312500e+00,2.225224494934082031e+00,2.184353113174438477e+00,2.144956111907958984e+00,2.106955051422119141e+00,2.070276737213134766e+00,2.034853935241699219e+00,2.000622749328613281e+00,1.967524409294128418e+00,1.935503363609313965e+00,1.904507756233215332e+00,1.874489307403564453e+00,1.845402359962463379e+00
5.000000000000000000e+00,5.000000000000000000e+00,5.000000000000000000e+00,5.000000000000000000e+00,5.000000000000000000e+00,5.000000000000000000e+00,5.000000000000000000e+00,5.000000000000000000e+00,5.000000000000000000e+00,5.000000000000000000e+00,5.000000000000000000e+00,5.000000000000000000e+00,5.000000000000000000e+00,5.000000000000000000e+00,5.000000000000000000e+00,5.000000000000000000e+00,5.000000000000000000e+00,5.000000000000000000e+00,5.000000000000000000e+00,5.000000000000000000e+00,5.000000000000000000e+00,5.000000000000000000e+00,5.000000000000000000e+00,5.000000000000000000e+00,5.000000000000000000e+00,5.000000000000000000e+00,5.000000000000000000e+00,5.000000000000000000e+00,5.000000000000000000e+00,2.800704002380371094e+00,2.744551658630371094e+00,2.778702259063720703e+00,2.877703905105590820e+00,2.868052721023559570e+00,5.000000000000000000e+00,5.000000000000000000e+00,5.000000000000000000e+00,5.000000000000000000e+00,5.000000000000000000e+00,4.865275859832763672e+00,4.674059867858886719e+00,4.497305870056152344e+00,4.333433151245117188e+00,4.181082725524902344e+00,4.039080619812011719e+00,3.906407594680786133e+00,3.782173395156860352e+00,3.665597438812255859e+00,3.555993080139160156e+00,3.452752828598022461e+00,3.355338096618652344e+00,3.263269662857055664e+00,3.176118612289428711e+00,3.093501329421997070e+00,3.015073299407958984e+00,2.940523862838745117e+00,2.869571924209594727e+00,2.801963329315185547e+00,2.737467050552368164e+00,2.675873279571533203e+00,2.616990327835083008e+00,2.560642719268798828e+00,2.506670713424682617e+00,2.454926967620849609e+00,2.405276060104370117e+00,2.357594013214111328e+00,2.311765432357788086e+00,2.267684698104858398e+00,2.225253582000732422e+00,2.184381008148193359e+00,2.144983053207397461e+00,2.106981039047241211e+00,2.070302009582519531e+00,2.034878253936767578e+00,2.000646352767944336e+00,1.967547297477722168e+00,1.935525298118591309e+00,1.904528975486755371e+00,1.874509930610656738e+00,1.845422267913818359e+00
5.000000000000000000e+00,5.000000000000000000e+00,5.000000000000000000e+00,5.000000000000000000e+00,5.000000000000000000e+00,5.000000000000000000e+00,5.000000000000000000e+00,5.000000000000000000e+00,5.000000000000000000e+00,5.000000000000000000e+00,5.000000000000000000e+00,5.000000000000000000e+00,5.000000000000000000e+00,5.000000000000000000e+00,5.000000000000000000e+00,5.000000000000000000e+00,5.000000000000000000e+00,5.000000000000000000e+00,5.000000000000000000e+00,5.000000000000000000e+00,5.000000000000000000e+00,5.000000000000000000e+00,5.000000000000000000e+00,5.000000000000000000e+00,5.000000000000000000e+00,5.000000000000000000e+00,5.000000000000000000e+00,5.000000000000000000e+00,5.000000000000000000e+00,2.800306320190429688e+00,2.767055034637451172e+00,5.000000000000000000e+00,2.891083717346191406e+00,2.889114141464233398e+00,5.000000000000000000e+00,5.000000000000000000e+00,5.000000000000000000e+00,5.000000000000000000e+00,5.000000000000000000e+00,4.865415096282958984e+00,4.674188137054443359e+00,4.497424602508544922e+00,4.333543300628662109e+00,4.181185245513916016e+00,4.039176464080810547e+00,3.906497240066528320e+00,3.782257318496704102e+00,3.665676355361938477e+00,3.556067228317260742e+00,3.452822923660278320e+00,3.355404376983642578e+00,3.263332128524780273e+00,3.176177501678466797e+00,3.093557596206665039e+00,3.015126705169677734e+00,2.940574645996093750e+00,2.869620323181152344e+00,2.802009344100952148e+00,2.737511157989501953e+00,2.675915479660034180e+00,2.617030382156372070e+00,2.560681343078613281e+00,2.506707668304443359e+00,2.454962253570556641e+00,2.405310153961181641e+00,2.357626676559448242e+00,2.311796903610229492e+00,2.267714977264404297e+00,2.225282430648803711e+00,2.184409141540527344e+00,2.145009994506835938e+00,2.107007026672363281e+00,2.070327043533325195e+00,2.034902572631835938e+00,2.000669956207275391e+00,1.967569828033447266e+00,1.935547113418579102e+00,1.904550313949584961e+00,1.874530434608459473e+00,1.845442414283752441e+00
5.000000000000000000e+00,5.000000000000000000e+00,5.000000000000000000e+00,5.000000000000000000e+00,5.000000000000000000e+00,5.000000000000000000e+00,5.000000000000000000e+00,5.000000000000000000e+00,5.000000000000000000e+00,5.000000000000000000e+00,5.000000000000000000e+00,5.000000000000000000e+00,5.000000000000000000e+00,5.000000000000000000e+00,5.000000000000000000e+00,5.000000000000000000e+00,5.000000000000000000e+00,5.000000000000000000e+00,5.000000000000000000e+00,5.000000000000000000e+00,5.000000000000000000e+00,5.000000000000000000e+00,5.000000000000000000e+00,5.000000000000000000e+00,5.000000000000000000e+00,5.000000000000000000e+00,5.000000000000000000e+00,5.000000000000000000e+00,2.913837671279907227e+00,2.858985900878906250e+00,2.898964405059814453e+00,2.945950031280517578e+00,2.911967515945434570e+00,2.926440238952636719e+00,5.000000000000000000e+00,5.000000000000000000e+00,5.000000000000000000e+00,5.000000000000000000e+00,5.000000000000000000e+00,4.865552902221679688e+00,4.674316406250000000e+00,4.497543334960937500e+00,4.333653450012207031e+00,4.181287765502929688e+00,4.039272308349609375e+00,3.906586885452270508e+00,3.782341241836547852e+00,3.665755271911621094e+00,3.556141614913940430e+00,3.452892780303955078e+00,3.355469942092895508e+00,3.263394355773925781e+00,3.176236867904663086e+00,3.093613624572753906e+00,3.015180110931396484e+00,2.940625429153442383e+00,2.869668483734130859e+00,2.802055358886718750e+00,2.737554788589477539e+00,2.675957202911376953e+00,2.617070674896240234e+00,2.560719728469848633e+00,2.506744623184204102e+00,2.454997777938842773e+00,2.405344009399414062e+00,2.357659339904785156e+00,2.311828136444091797e+00,2.267745018005371094e+00,2.225311517715454102e+00,2.184437036514282227e+00,2.145036935806274414e+00,2.107033014297485352e+00,2.070352315902709961e+00,2.034926891326904297e+00,2.000693321228027344e+00,1.967592477798461914e+00,1.935569286346435547e+00,1.904571533203125000e+00,1.874551177024841309e+00,1.845462322235107422e+00
5.000000000000000000e+00,5.000000000000000000e+00,5.000000000000000000e+00,5.000000000000000000e+00,5.000000000000000000e+00,5.000000000000000000e+00,5.000000000000000000e+00,5.000000000000000000e+00,5.000000000000000000e+00,5.000000000000000000e+00,5.000000000000000000e+00,5.000000000000000000e+00,5.000000000000000000e+00,5.000000000000000000e+00,5.000000000000000000e+00,5.000000000000000000e+00,5.000000000000000000e+00,5.000000000000000000e+00,5.000000000000000000e+00,5.000000000000000000e+00,5.000000000000000000e+00,5.000000000000000000e+00,5.000000000000000000e+00,5.000000000000000000e+00,5.000000000000000000e+00,5.000000000000000000e+00,5.000000000000000000e+00,5.000000000000000000e+00,2.953437805175781250e+00,2.907574415206909180e+00,5.000000000000000000e+00,2.946742296218872070e+00,2.925337076187133789e+00,2.959758996963500977e+00,5.000000000000000000e+00,5.000000000000000000e+00,5.000000000000000000e+00,5.000000000000000000e+00,5.000000000000000000e+00,4.865691661834716797e+00,4.674443721771240234e+00,4.497662067413330078e+00,4.333763599395751953e+00,4.181390285491943359e+00,4.039367675781250000e+00,3.906676530838012695e+00,3.782425403594970703e+00,3.665834188461303711e+00,3.556215286254882812e+00,3.452962398529052734e+00,3.355536222457885742e+00,3.263456821441650391e+00,3.176295995712280273e+00,3.093669891357421875e+00,3.015233516693115234e+00,2.940676212310791016e+00,2.869716644287109375e+00,2.802101373672485352e+00,2.737598896026611328e+00,2.675999402999877930e+00,2.617110729217529297e+00,2.560758113861083984e+00,2.506781339645385742e+00,2.455033063888549805e+00,2.405377864837646484e+00,2.357691764831542969e+00,2.311859369277954102e+00,2.267775058746337891e+00,2.225340604782104492e+00,2.184465169906616211e+00,2.145064115524291992e+00,2.107059240341186523e+00,2.070377349853515625e+00,2.034951210021972656e+00,2.000716686248779297e+00,1.967615365982055664e+00,1.935591101646423340e+00,1.904592871665954590e+00,1.874571681022644043e+00,1.845482349395751953e+00
5.000000000000000000e+00,5.000000000000000000e+00,5.000000000000000000e+00,5.000000000000000000e+00,5.000000000000000000e+00,5.000000000000000000e+00,5.000000000000000000e+00,5.000000000000000000e+00,5.000000000000000000e+00,5.000000000000000000e+00,5.000000000000000000e+00,5.000000000000000000e+00,5.000000000000000000e+00,5.000000000000000000e+00,5.000000000000000000e+00,5.000000000000000000e+00,5.000000000000000000e+00,5.000000000000000000e+00,5.000000000000000000e+00,5.000000000000000000e+00,5.000000000000000000e+00,5.000000000000000000e+00,5.000000000000000000e+00,5.000000000000000000e+00,5.000000000000000000e+00,5.000000000000000000e+00,5.000000000000000000e+00,5.000000000000000000e+00,2.997708559036254883e+00,2.993999958038330078e+00,5.000000000000000000e+00,2.945130825042724609e+00,2.931113958358764648e+00,5.000000000000000000e+00,5.000000000000000000e+00,5.000000000000000000e+00,5.000000000000000000e+00,5.000000000000000000e+00,5.000000000000000000e+00,4.865830421447753906e+00,4.674571514129638672e+00,4.497780799865722656e+00,4.333873748779296875e+00,4.181492805480957031e+00,4.039463520050048828e+00,3.906765937805175781e+00,3.782508850097656250e+00,3.665912628173828125e+00,3.556289672851562500e+00,3.453032493591308594e+00,3.355602264404296875e+00,3.263519287109375000e+00,3.176355361938476562e+00,3.093726158142089844e+00,3.015286684036254883e+00,2.940726757049560547e+00,2.869765043258666992e+00,2.802147388458251953e+00,2.737642765045166016e+00,2.676041364669799805e+00,2.617151021957397461e+00,2.560796737670898438e+00,2.506818056106567383e+00,2.455068349838256836e+00,2.405411958694458008e+00,2.357724428176879883e+00,2.311890840530395508e+00,2.267805337905883789e+00,2.225369691848754883e+00,2.184493064880371094e+00,2.145090818405151367e+00,2.107084989547729492e+00,2.070402383804321289e+00,2.034975290298461914e+00,2.000740289688110352e+00,1.967637896537780762e+00,1.935613274574279785e+00,1.904614090919494629e+00,1.874592185020446777e+00,1.845502257347106934e+00
5.000000000000000000e+00,5.000000000000000000e+00,5.000000000000000000e+00,5.000000000000000000e+00,5.000000000000000000e+00,5.000000000000000000e+00,5.000000000000000000e+00,5.000000000000000000e+00,5.000000000000000000e+00,5.000000000000000000e+00,5.000000000000000000e+00,5.000000000000000000e+00,5.000000000000000000e+00,5.000000000000000000e+00,5.000000000000000000e+00,5.000000000000000000e+00,5.000000000000000000e+00,5.000000000000000000e+00,5.000000000000000000e+00,5.000000000000000000e+00,5.000000000000000000e+00,5.000000000000000000e+00,5.000000000000000000e+00,5.000000000000000000e+00,5.000000000000000000e+00,5.000000000000000000e+00,5.000000000000000000e+00,5.000000000000000000e+00,3.053333282470703125e+00,5.000000000000000000e+00,5.000000000000000000e+00,2.946815967559814453e+00,2.936390399932861328e+00,5.000000000000000000e+00,5.000000000000000000e+00,5.000000000000000000e+00,5.000000000000000000e+00,5.000000000000000000e+00,5.000000000000000000e+00,4.865968704223632812e+00,4.674699783325195312e+00,4.497898578643798828e+00,4.333983898162841797e+00,4.181595325469970703e+00,4.039558887481689453e+00,3.906855106353759766e+00,3.782593011856079102e+00,3.665991544723510742e+00,3.556363821029663086e+00,3.453102350234985352e+00,3.355668306350708008e+00,3.263581752777099609e+00,3.176414251327514648e+00,3.093781948089599609e+00,3.015339851379394531e+00,2.940777540206909180e+00,2.869813442230224609e+00,2.802193641662597656e+00,2.737686872482299805e+00,2.676083326339721680e+00,2.617191076278686523e+00,2.560835123062133789e+00,2.506855010986328125e+00,2.455103635787963867e+00,2.405445814132690430e+00,2.357757091522216797e+00,2.311922311782836914e+00,2.267835617065429688e+00,2.225398540496826172e+00,2.184520959854125977e+00,2.145117998123168945e+00,2.107111215591430664e+00,2.070427656173706055e+00,2.034999608993530273e+00,2.000763654708862305e+00,1.967660784721374512e+00,1.935635089874267578e+00,1.904635310173034668e+00,1.874612927436828613e+00,1.845522165298461914e+00
5.000000000000000000e+00,5.000000000000000000e+00,5.000000000000000000e+00,5.000000000000000000e+00,5.000000000000000000e+00,5.000000000000000000e+00,5.000000000000000000e+00,5.000000000000000000e+00,5.000000000000000000e+00,5.000000000000000000e+00,5.000000000000000000e+00,5.000000000000000000e+00,5.000000000000000000e+00,5.000000000000000000e+00,5.000000000000000000e+00,5.000000000000000000e+00,5.000000000000000000e+00,5.000000000000000000e+00,5.000000000000000000e+00,5.000000000000000000e+00,5.000000000000000000e+00,5.000000000000000000e+00,5.000000000000000000e+00,5.000000000000000000e+00,5.000000000000000000e+00,5.000000000000000000e+00,5.000000000000000000e+00,5.000000000000000000e+00,3.107011079788208008e+00,5.000000000000000000e+00,5.000000000000000000e+00,2.951714754104614258e+00,2.943151235580444336e+00,5.000000000000000000e+00,5.000000000000000000e+00,5.000000000000000000e+00,5.000000000000000000e+00,5.000000000000000000e+00,5.000000000000000000e+00,4.866106986999511719e+00,4.674827575683593750e+00,4.498016834259033203e+00,4.334093093872070312e+00,4.181697845458984375e+00,4.039654731750488281e+00,3.906944751739501953e+00,3.782676935195922852e+00,3.666070461273193359e+00,3.556438207626342773e+00,3.453172445297241211e+00,3.355734109878540039e+00,3.263643980026245117e+00,3.176473379135131836e+00,3.093838214874267578e+00,3.015393257141113281e+00,2.940828323364257812e+00,2.869861841201782227e+00,2.802239656448364258e+00,2.737730741500854492e+00,2.676125288009643555e+00,2.617231130599975586e+00,2.560873508453369141e+00,2.506891965866088867e+00,2.455139160156250000e+00,2.405479669570922852e+00,2.357789754867553711e+00,2.311953544616699219e+00,2.267865657806396484e+00,2.225427627563476562e+00,2.184549093246459961e+00,2.145144939422607422e+00,2.107137203216552734e+00,2.070452690124511719e+00,2.035023927688598633e+00,2.000787019729614258e+00,1.967683434486389160e+00,1.935657024383544922e+00,1.904656767845153809e+00,1.874633431434631348e+00,1.845542311668395996e+00
5.000000000000000000e+00,5.000000000000000000e+00,5.000000000000000000e+00,5.000000000000000000e+00,5.000000000000000000e+00,5.000000000000000000e+00,5.000000000000000000e+00,5.000000000000000000e+00,5.000000000000000000e+00,5.000000000000000000e+00,5.000000000000000000e+00,5.000000000000000000e+00,5.000000000000000000e+00,5.000000000000000000e+00,5.000000000000000000e+00,5.000000000000000000e+00,5.000000000000000000e+00,5.000000000000000000e+00,5.000000000000000000e+00,5.000000000000000000e+00,5.000000000000000000e+00,5.000000000000000000e+00,5.000000000000000000e+00,5.000000000000000000e+00,5.000000000000000000e+00,5.000000000000000000e+00,5.000000000000000000e+00,3.112541198730468750e+00,3.109064817428588867e+00,5.000000000000000000e+00,5.000000000000000000e+00,2.956235647201538086e+00,2.965329408645629883e+00,5.000000000000000000e+00,5.000000000000000000e+00,5.000000000000000000e+00,5.000000000000000000e+00,5.000000000000000000e+00,5.000000000000000000e+00,4.866245746612548828e+00,4.674955368041992188e+00,4.498135089874267578e+00,4.334203243255615234e+00,4.181799888610839844e+00,4.039750576019287109e+00,3.907034397125244141e+00,3.782760858535766602e+00,3.666149377822875977e+00,3.556512355804443359e+00,3.453242063522338867e+00,3.355800151824951172e+00,3.263706684112548828e+00,3.176532745361328125e+00,3.093894243240356445e+00,3.015446662902832031e+00,2.940879106521606445e+00,2.869910001754760742e+00,2.802285432815551758e+00,2.737774610519409180e+00,2.676167249679565430e+00,2.617271423339843750e+00,2.560912132263183594e+00,2.506928920745849609e+00,2.455174446105957031e+00,2.405513763427734375e+00,2.357822179794311523e+00,2.311984777450561523e+00,2.267895698547363281e+00,2.225456714630126953e+00,2.184576988220214844e+00,2.145171880722045898e+00,2.107163190841674805e+00,2.070477962493896484e+00,2.035048246383666992e+00,2.000810623168945312e+00,1.967705965042114258e+00,1.935679078102111816e+00,1.904677867889404297e+00,1.874654173851013184e+00,1.845562100410461426e+00
4.875794887542724609e+00,4.874583721160888672e+00,4.873373508453369141e+00,4.872163295745849609e+00,4.870954036712646484e+00,4.869745254516601562e+00,4.868536949157714844e+00,4.867329597473144531e+00,4.866122245788574219e+00,4.864916324615478516e+00,4.863710403442382812e+00,4.862504959106445312e+00,4.861300468444824219e+00,4.860096931457519531e+00,4.858893394470214844e+00,4.857690334320068359e+00,4.856488227844238281e+00,4.855287075042724609e+00,4.854085922241210938e+00,4.852885723114013672e+00,4.851685523986816406e+00,4.850486755371093750e+00,4.849287986755371094e+00,4.848090171813964844e+00,4.846892833709716797e+00,4.845695972442626953e+00,4.844499588012695312e+00,4.843303680419921875e+00,3.098354339599609375e+00,4.840914249420166016e+00,4.839720249176025391e+00,2.971267700195312500e+00,4.837334632873535156e+00,4.836142539978027344e+00,4.834950923919677734e+00,4.833759784698486328e+00,4.832569599151611328e+00,4.831379890441894531e+00,4.830190181732177734e+00,4.829001903533935547e+00,4.675083160400390625e+00,4.498253822326660156e+00,4.334313392639160156e+00,4.181902408599853516e+00,4.039846420288085938e+00,3.907124042510986328e+00,3.782845020294189453e+00,3.666227817535400391e+00,3.556586265563964844e+00,3.453312158584594727e+00,3.355866432189941406e+00,3.263769149780273438e+00,3.176591873168945312e+00,3.093950510025024414e+00,3.015500068664550781e+00,2.940929412841796875e+00,2.869958162307739258e+00,2.802331686019897461e+00,2.737818717956542969e+00,2.676209211349487305e+00,2.617311716079711914e+00,2.560950517654418945e+00,2.506965637207031250e+00,2.455209732055664062e+00,2.405547618865966797e+00,2.357854843139648438e+00,2.312016248703002930e+00,2.267925977706909180e+00,2.225485801696777344e+00,2.184605121612548828e+00,2.145199060440063477e+00,2.107189178466796875e+00,2.070502996444702148e+00,2.035072565078735352e+00,2.000834226608276367e+00,1.967728853225708008e+00,1.935701012611389160e+00,1.904699325561523438e+00,1.874674677848815918e+00,1.845582008361816406e+00
3.778608083724975586e+00,3.777880430221557617e+00,3.777153253555297852e+00,3.776426792144775391e+00,3.775700092315673828e+00,3.774973630905151367e+00,3.774247646331787109e+00,3.773521900177001953e+00,3.772796392440795898e+00,3.772071123123168945e+00,3.771346092224121094e+00,3.770621776580810547e+00,3.769897460937500000e+00,3.769173145294189453e+00,3.768449306488037109e+00,3.767725706100463867e+00,3.767002582550048828e+00,3.766279458999633789e+00,3.765556812286376953e+00,3.764834642410278320e+00,3.764112472534179688e+00,3.763390541076660156e+00,3.762668848037719727e+00,3.761947631835937500e+00,3.761226415634155273e+00,3.760505676269531250e+00,3.759785652160644531e+00,3.759065389633178711e+00,3.758345365524291992e+00,3.757625579833984375e+00,3.756906270980834961e+00,2.921994686126708984e+00,3.755468130111694336e+00,3.754749536514282227e+00,3.754031658172607422e+00,3.753313541412353516e+00,3.752595663070678711e+00,3.751878261566162109e+00,3.751161098480224609e+00,3.750444173812866211e+00,3.749727249145507812e+00,3.749011278152465820e+00,3.748295307159423828e+00,3.747579336166381836e+00,3.746863842010498047e+00,3.746148347854614258e+00,3.745433330535888672e+00,3.666306734085083008e+00,3.556660652160644531e+00,3.453382253646850586e+00,3.355932474136352539e+00,3.263831615447998047e+00,3.176651239395141602e+00,3.094006538391113281e+00,3.015553236007690430e+00,2.940980195999145508e+00,2.870006561279296875e+00,2.802377700805664062e+00,2.737862586975097656e+00,2.676251411437988281e+00,2.617351770401000977e+00,2.560988903045654297e+00,2.507002353668212891e+00,2.455245018005371094e+00,2.405581474304199219e+00,2.357887506484985352e+00,2.312047481536865234e+00,2.267956256866455078e+00,2.225514888763427734e+00,2.184633016586303711e+00,2.145225763320922852e+00,2.107215166091918945e+00,2.070528268814086914e+00,2.035096883773803711e+00,2.000857591629028320e+00,1.967751502990722656e+00,1.935723066329956055e+00,1.904720544815063477e+00,1.874695301055908203e+00,1.845602154731750488e+00
3.084509134292602539e+00,3.084024429321289062e+00,3.083539962768554688e+00,3.083055496215820312e+00,3.082571268081665039e+00,3.082087039947509766e+00,3.081603050231933594e+00,3.081119298934936523e+00,3.080635547637939453e+00,3.080152273178100586e+00,3.079668760299682617e+00,3.079185485839843750e+00,3.078702449798583984e+00,3.078219413757324219e+00,3.077736616134643555e+00,3.077254056930541992e+00,3.076771497726440430e+00,3.076289415359497070e+00,3.075807094573974609e+00,3.075325012207031250e+00,3.074843168258666992e+00,3.074361324310302734e+00,3.073879718780517578e+00,3.073398351669311523e+00,3.072917222976684570e+00,3.072436094284057617e+00,3.071955204010009766e+00,3.071474313735961914e+00,3.070993661880493164e+00,3.070513010025024414e+00,3.070032596588134766e+00,2.878761768341064453e+00,2.849623918533325195e+00,3.068592786788940430e+00,3.068112850189208984e+00,3.067633152008056641e+00,3.067153692245483398e+00,3.066674470901489258e+00,3.066195249557495117e+00,3.065716505050659180e+00,3.065237522125244141e+00,3.064758777618408203e+00,3.064280271530151367e+00,3.063801765441894531e+00,3.063323497772216797e+00,3.062845468521118164e+00,3.062367439270019531e+00,3.061889886856079102e+00,3.061412096023559570e+00,3.060934543609619141e+00,3.060457229614257812e+00,3.059979915618896484e+00,3.059502840042114258e+00,3.059025764465332031e+00,3.015606641769409180e+00,2.941030979156494141e+00,2.870054960250854492e+00,2.802423715591430664e+00,2.737906694412231445e+00,2.676293134689331055e+00,2.617391824722290039e+00,2.561027288436889648e+00,2.507039308547973633e+00,2.455280542373657227e+00,2.405615568161010742e+00,2.357920169830322266e+00,2.312078952789306641e+00,2.267986297607421875e+00,2.225543975830078125e+00,2.184660911560058594e+00,2.145252943038940430e+00,2.107241392135620117e+00,2.070553302764892578e+00,2.035121202468872070e+00,2.000881195068359375e+00,1.967774152755737305e+00,1.935745000839233398e+00,1.904741644859313965e+00,1.874715924263000488e+00,1.845622062683105469e+00
2.605838537216186523e+00,2.605492591857910156e+00,2.605146646499633789e+00,2.604800939559936523e+00,2.604454994201660156e+00,2.604109525680541992e+00,2.603763818740844727e+00,2.603418588638305664e+00,2.603073358535766602e+00,2.602728128433227539e+00,2.602382898330688477e+00,2.602037668228149414e+00,2.601692676544189453e+00,2.601347923278808594e+00,2.601002931594848633e+00,2.600658416748046875e+00,2.600313901901245117e+00,2.599969387054443359e+00,2.599624872207641602e+00,2.599280595779418945e+00,2.598936319351196289e+00,2.598592042922973633e+00,2.598248243331909180e+00,2.597904205322265625e+00,2.597560167312622070e+00,2.597216367721557617e+00,2.596872806549072266e+00,2.596529006958007812e+00,2.596185684204101562e+00,2.595842123031616211e+00,2.595499038696289062e+00,2.595155715942382812e+00,2.594812631607055664e+00,2.594469547271728516e+00,2.594126462936401367e+00,2.593783617019653320e+00,2.593440771102905273e+00,2.593098163604736328e+00,2.592755556106567383e+00,2.592412948608398438e+00,2.592070579528808594e+00,2.591728210449218750e+00,2.591386079788208008e+00,2.591043710708618164e+00,2.590701580047607422e+00,2.590359926223754883e+00,2.590018033981323242e+00,2.589676141738891602e+00,2.589334487915039062e+00,2.588992834091186523e+00,2.588651180267333984e+00,2.588309764862060547e+00,2.587968349456787109e+00,2.587627410888671875e+00,2.587286233901977539e+00,2.586945056915283203e+00,2.586604118347167969e+00,2.586263179779052734e+00,2.585922479629516602e+00,2.585581541061401367e+00,2.585241079330444336e+00,2.561065912246704102e+00,2.507076263427734375e+00,2.455315828323364258e+00,2.405649423599243164e+00,2.357952594757080078e+00,2.312110185623168945e+00,2.268016338348388672e+00,2.225573062896728516e+00,2.184689044952392578e+00,2.145279884338378906e+00,2.107267379760742188e+00,2.070578575134277344e+00,2.035145282745361328e+00,2.000904560089111328e+00,1.967796921730041504e+00,1.935766935348510742e+00,1.904763102531433105e+00,1.874736547470092773e+00,1.845642209053039551e+00
2.255775928497314453e+00,2.255516767501831055e+00,2.255257606506347656e+00,2.254998445510864258e+00,2.254739046096801758e+00,2.254480123519897461e+00,2.254220962524414062e+00,2.253962039947509766e+00,2.253703355789184570e+00,2.253444433212280273e+00,2.253185749053955078e+00,2.252927064895629883e+00,2.252668380737304688e+00,2.252409696578979492e+00,2.252151250839233398e+00,2.251892566680908203e+00,2.251634359359741211e+00,2.251375913619995117e+00,2.251117706298828125e+00,2.250859498977661133e+00,2.250601291656494141e+00,2.250343084335327148e+00,2.250085115432739258e+00,2.249826908111572266e+00,2.249569177627563477e+00,2.249311208724975586e+00,2.249053478240966797e+00,2.248795747756958008e+00,2.248538017272949219e+00,2.248280525207519531e+00,2.248023033142089844e+00,2.247765302658081055e+00,2.247508049011230469e+00,2.247250556945800781e+00,2.246993303298950195e+00,2.246736049652099609e+00,2.246478796005249023e+00,2.246221780776977539e+00,2.245964527130126953e+00,2.245707511901855469e+00,2.245450496673583984e+00,2.245193719863891602e+00,2.244936704635620117e+00,2.244680166244506836e+00,2.244423389434814453e+00,2.244166612625122070e+00,2.243910074234008789e+00,2.243653535842895508e+00,2.243396997451782227e+00,2.243140459060668945e+00,2.242884159088134766e+00,2.242627859115600586e+00,2.242371559143066406e+00,2.242115497589111328e+00,2.241859197616577148e+00,2.241603136062622070e+00,2.241347074508666992e+00,2.241091251373291016e+00,2.240835428237915039e+00,2.240579605102539062e+00,2.240323781967163086e+00,2.240067958831787109e+00,2.239812374114990234e+00,2.239556550979614258e+00,2.239300966262817383e+00,2.239045619964599609e+00,2.238790273666381836e+00,2.238534927368164062e+00,2.225602149963378906e+00,2.184716939926147461e+00,2.145306825637817383e+00,2.107293367385864258e+00,2.070603609085083008e+00,2.035169601440429688e+00,2.000927925109863281e+00,1.967819571495056152e+00,1.935788989067077637e+00,1.904784321784973145e+00,1.874757289886474609e+00,1.845661997795104980e+00
1.988629698753356934e+00,1.988428235054016113e+00,1.988226771354675293e+00,1.988025307655334473e+00,1.987823843955993652e+00,1.987622499465942383e+00,1.987421274185180664e+00,1.987219929695129395e+00,1.987018704414367676e+00,1.986817598342895508e+00,1.986616373062133789e+00,1.986415028572082520e+00,1.986214041709899902e+00,1.986012935638427734e+00,1.985811948776245117e+00,1.985611081123352051e+00,1.985410213470458984e+00,1.985209345817565918e+00,1.985008478164672852e+00,1.984807729721069336e+00,1.984606981277465820e+00,1.984406232833862305e+00,1.984205603599548340e+00,1.984004974365234375e+00,1.983804345130920410e+00,1.983603835105895996e+00,1.983403325080871582e+00,1.983202934265136719e+00,1.983002424240112305e+00,1.982802152633666992e+00,1.982601761817932129e+00,1.982401251792907715e+00,1.982200980186462402e+00,1.982000708580017090e+00,1.981800556182861328e+00,1.981600403785705566e+00,1.981400370597839355e+00,1.981200337409973145e+00,1.981000304222106934e+00,1.980800271034240723e+00,1.980600357055664062e+00,1.980400443077087402e+00,1.980200648307800293e+00,1.980000853538513184e+00,1.979801058769226074e+00,1.979601263999938965e+00,1.979401588439941406e+00,1.979202032089233398e+00,1.979002356529235840e+00,1.978802800178527832e+00,1.978603243827819824e+00,1.978403806686401367e+00,1.978204131126403809e+00,1.978004693984985352e+00,1.977805256843566895e+00,1.977605938911437988e+00,1.977406620979309082e+00,1.977207422256469727e+00,1.977008223533630371e+00,1.976809024810791016e+00,1.976609945297241211e+00,1.976410865783691406e+00,1.976211786270141602e+00,1.976012706756591797e+00,1.975813746452331543e+00,1.975614905357360840e+00,1.975415945053100586e+00,1.975217103958129883e+00,1.975018262863159180e+00,1.974819540977478027e+00,1.974620819091796875e+00,1.974422097206115723e+00,1.974223494529724121e+00,1.974024653434753418e+00,1.973826050758361816e+00,1.967842459678649902e+00,1.935810923576354980e+00,1.904805660247802734e+00,1.874777793884277344e+00,1.845681905746459961e+00
1.778058290481567383e+00,1.777897238731384277e+00,1.777736186981201172e+00,1.777575135231018066e+00,1.777414083480834961e+00,1.777253150939941406e+00,1.777092099189758301e+00,1.776931285858154297e+00,1.776770353317260742e+00,1.776609420776367188e+00,1.776448607444763184e+00,1.776287794113159180e+00,1.776127099990844727e+00,1.775966286659240723e+00,1.775805592536926270e+00,1.775644898414611816e+00,1.775484204292297363e+00,1.775323390960693359e+00,1.775162816047668457e+00,1.775002241134643555e+00,1.774841666221618652e+00,1.774681210517883301e+00,1.774520635604858398e+00,1.774360179901123047e+00,1.774199724197387695e+00,1.774039387702941895e+00,1.773878931999206543e+00,1.773718595504760742e+00,1.773558378219604492e+00,1.773398041725158691e+00,1.773237824440002441e+00,1.773077607154846191e+00,1.772917389869689941e+00,1.772757172584533691e+00,1.772597074508666992e+00,1.772436857223510742e+00,1.772276878356933594e+00,1.772116780281066895e+00,1.771956562995910645e+00,1.771796584129333496e+00,1.771636605262756348e+00,1.771476626396179199e+00,1.771316766738891602e+00,1.771156787872314453e+00,1.770997047424316406e+00,1.770837187767028809e+00,1.770677328109741211e+00,1.770517587661743164e+00,1.770357847213745117e+00,1.770198106765747070e+00,1.770038485527038574e+00,1.769878864288330078e+00,1.769719123840332031e+00,1.769559621810913086e+00,1.769400000572204590e+00,1.769240498542785645e+00,1.769080996513366699e+00,1.768921494483947754e+00,1.768761873245239258e+00,1.768602371215820312e+00,1.768442988395690918e+00,1.768283724784851074e+00,1.768124341964721680e+00,1.767965078353881836e+00,1.767805695533752441e+00,1.767646551132202148e+00,1.767487287521362305e+00,1.767328143119812012e+00,1.767168879508972168e+00,1.767009854316711426e+00,1.766850709915161133e+00,1.766691565513610840e+00,1.766532540321350098e+00,1.766373515129089355e+00,1.766214609146118164e+00,1.766055583953857422e+00,1.765896677970886230e+00,1.765737771987915039e+00,1.765578866004943848e+00,1.765419840812683105e+00
1.607811093330383301e+00,1.607679367065429688e+00,1.607547640800476074e+00,1.607415795326232910e+00,1.607284188270568848e+00,1.607152462005615234e+00,1.607020854949951172e+00,1.606889247894287109e+00,1.606757760047912598e+00,1.606626152992248535e+00,1.606494665145874023e+00,1.606363177299499512e+00,1.606231570243835449e+00,1.606100201606750488e+00,1.605968713760375977e+00,1.605837225914001465e+00,1.605705857276916504e+00,1.605574488639831543e+00,1.605443120002746582e+00,1.605311751365661621e+00,1.605180501937866211e+00,1.605049133300781250e+00,1.604917883872985840e+00,1.604786634445190430e+00,1.604655265808105469e+00,1.604524016380310059e+00,1.604392886161804199e+00,1.604261636734008789e+00,1.604130506515502930e+00,1.603999376296997070e+00,1.603868246078491211e+00,1.603737235069274902e+00,1.603606104850769043e+00,1.603475093841552734e+00,1.603344082832336426e+00,1.603213071823120117e+00,1.603082180023193359e+00,1.602951169013977051e+00,1.602820277214050293e+00,1.602689266204833984e+00,1.602558374404907227e+00,1.602427601814270020e+00,1.602296710014343262e+00,1.602165937423706055e+00,1.602034926414489746e+00,1.601904153823852539e+00,1.601773381233215332e+00,1.601642608642578125e+00,1.601511955261230469e+00,1.601381182670593262e+00,1.601250529289245605e+00,1.601119875907897949e+00,1.600989222526550293e+00,1.600858688354492188e+00,1.600728034973144531e+00,1.600597500801086426e+00,1.600466966629028320e+00,1.600336432456970215e+00,1.600205898284912109e+00,1.600075483322143555e+00,1.599944949150085449e+00,1.599814534187316895e+00,1.599684119224548340e+00,1.599553704261779785e+00,1.599423289299011230e+00,1.599292755126953125e+00,1.599162459373474121e+00,1.599032163619995117e+00,1.598901867866516113e+00,1.598771572113037109e+00,1.598641276359558105e+00,1.598511099815368652e+00,1.598380923271179199e+00,1.598250746726989746e+00,1.598120570182800293e+00,1.597990393638610840e+00,1.597860217094421387e+00,1.597730159759521484e+00,1.597600102424621582e+00,1.597470045089721680e+00
1.467316865921020508e+00,1.467207193374633789e+00,1.467097520828247070e+00,1.466987848281860352e+00,1.466878175735473633e+00,1.466768503189086914e+00,1.466658830642700195e+00,1.466549277305603027e+00,1.466439604759216309e+00,1.466330051422119141e+00,1.466220378875732422e+00,1.466110825538635254e+00,1.466001272201538086e+00,1.465891718864440918e+00,1.465782284736633301e+00,1.465672731399536133e+00,1.465563297271728516e+00,1.465453863143920898e+00,1.465344429016113281e+00,1.465234994888305664e+00,1.465125560760498047e+00,1.465016245841979980e+00,1.464906811714172363e+00,1.464797496795654297e+00,1.464688181877136230e+00,1.464578866958618164e+00,1.464469552040100098e+00,1.464360237121582031e+00,1.464250922203063965e+00,1.464141726493835449e+00,1.464032292366027832e+00,1.463923096656799316e+00,1.463813900947570801e+00,1.463704705238342285e+00,1.463595509529113770e+00,1.463486313819885254e+00,1.463377237319946289e+00,1.463268041610717773e+00,1.463158965110778809e+00,1.463049888610839844e+00,1.462940812110900879e+00,1.462831735610961914e+00,1.462722659111022949e+00,1.462613701820373535e+00,1.462504625320434570e+00,1.462395668029785156e+00,1.462286710739135742e+00,1.462177753448486328e+00,1.462068796157836914e+00,1.461959838867187500e+00,1.461851000785827637e+00,1.461741924285888672e+00,1.461633086204528809e+00,1.461524248123168945e+00,1.461415290832519531e+00,1.461306452751159668e+00,1.461197733879089355e+00,1.461088895797729492e+00,1.460980057716369629e+00,1.460871338844299316e+00,1.460762619972229004e+00,1.460653901100158691e+00,1.460545182228088379e+00,1.460436463356018066e+00,1.460327744483947754e+00,1.460219025611877441e+00,1.460110425949096680e+00,1.460001826286315918e+00,1.459893107414245605e+00,1.459784507751464844e+00,1.459675908088684082e+00,1.459567308425903320e+00,1.459458708763122559e+00,1.459350109100341797e+00,1.459241628646850586e+00,1.459133148193359375e+00,1.459024667739868164e+00,1.458916187286376953e+00,1.458807706832885742e+00,1.458699226379394531e+00
1.349402904510498047e+00,1.349310159683227539e+00,1.349217414855957031e+00,1.349124670028686523e+00,1.349031805992126465e+00,1.348939180374145508e+00,1.348846435546875000e+00,1.348753690719604492e+00,1.348660945892333984e+00,1.348568320274353027e+00,1.348475575447082520e+00,1.348382949829101562e+00,1.348290324211120605e+00,1.348197698593139648e+00,1.348105072975158691e+00,1.348012447357177734e+00,1.347919702529907227e+00,1.347827196121215820e+00,1.347734570503234863e+00,1.347642064094543457e+00,1.347549438476562500e+00,1.347456932067871094e+00,1.347364425659179688e+00,1.347271919250488281e+00,1.347179412841796875e+00,1.347086906433105469e+00,1.346994519233703613e+00,1.346902012825012207e+00,1.346809625625610352e+00,1.346717119216918945e+00,1.346624732017517090e+00,1.346532344818115234e+00,1.346439957618713379e+00,1.346347570419311523e+00,1.346255183219909668e+00,1.346162796020507812e+00,1.346070528030395508e+00,1.345978021621704102e+00,1.345885753631591797e+00,1.345793366432189941e+00,1.345701098442077637e+00,1.345608830451965332e+00,1.345516562461853027e+00,1.345424294471740723e+00,1.345332026481628418e+00,1.345239877700805664e+00,1.345147609710693359e+00,1.345055460929870605e+00,1.344963192939758301e+00,1.344871044158935547e+00,1.344778895378112793e+00,1.344686746597290039e+00,1.344594597816467285e+00,1.344502449035644531e+00,1.344410300254821777e+00,1.344318270683288574e+00,1.344226121902465820e+00,1.344133973121643066e+00,1.344041824340820312e+00,1.343949794769287109e+00,1.343857765197753906e+00,1.343765735626220703e+00,1.343673706054687500e+00,1.343581676483154297e+00,1.343489766120910645e+00,1.343397736549377441e+00,1.343305826187133789e+00,1.343213796615600586e+00,1.343121886253356934e+00,1.343029975891113281e+00,1.342938065528869629e+00,1.342846155166625977e+00,1.342754244804382324e+00,1.342662334442138672e+00,1.342570543289184570e+00,1.342478632926940918e+00,1.342386841773986816e+00,1.342294931411743164e+00,1.342203021049499512e+00,1.342111229896545410e+00
1.249030590057373047e+00,1.248951196670532227e+00,1.248871564865112305e+00,1.248792052268981934e+00,1.248712658882141113e+00,1.248633146286010742e+00,1.248553752899169922e+00,1.248474240303039551e+00,1.248394846916198730e+00,1.248315453529357910e+00,1.248236060142517090e+00,1.248156666755676270e+00,1.248077273368835449e+00,1.247997879981994629e+00,1.247918486595153809e+00,1.247839093208312988e+00,1.247759819030761719e+00,1.247680425643920898e+00,1.247601151466369629e+00,1.247521758079528809e+00,1.247442483901977539e+00,1.247363209724426270e+00,1.247283816337585449e+00,1.247204542160034180e+00,1.247125267982482910e+00,1.247045993804931641e+00,1.246966838836669922e+00,1.246887564659118652e+00,1.246808290481567383e+00,1.246729135513305664e+00,1.246649861335754395e+00,1.246570706367492676e+00,1.246491551399230957e+00,1.246412277221679688e+00,1.246333122253417969e+00,1.246253967285156250e+00,1.246174812316894531e+00,1.246095776557922363e+00,1.246016621589660645e+00,1.245937466621398926e+00,1.245858311653137207e+00,1.245779275894165039e+00,1.245700240135192871e+00,1.245620965957641602e+00,1.245541930198669434e+00,1.245462894439697266e+00,1.245383858680725098e+00,1.245304822921752930e+00,1.245225787162780762e+00,1.245146751403808594e+00,1.245067715644836426e+00,1.244988799095153809e+00,1.244909763336181641e+00,1.244830846786499023e+00,1.244751811027526855e+00,1.244672894477844238e+00,1.244593977928161621e+00,1.244515061378479004e+00,1.244436025619506836e+00,1.244357109069824219e+00,1.244278311729431152e+00,1.244199395179748535e+00,1.244120478630065918e+00,1.244041562080383301e+00,1.243962645530700684e+00,1.243883848190307617e+00,1.243804931640625000e+00,1.243726134300231934e+00,1.243647336959838867e+00,1.243568420410156250e+00,1.243489623069763184e+00,1.243410825729370117e+00,1.243332028388977051e+00,1.243253350257873535e+00,1.243174552917480469e+00,1.243095755577087402e+00,1.243017077445983887e+00,1.242938280105590820e+00,1.242859601974487305e+00,1.242780923843383789e+00
1.162556529045104980e+00,1.162487626075744629e+00,1.162418723106384277e+00,1.162349820137023926e+00,1.162281036376953125e+00,1.162212252616882324e+00,1.162143349647521973e+00,1.162074565887451172e+00,1.162005662918090820e+00,1.161936879158020020e+00,1.161867976188659668e+00,1.161799192428588867e+00,1.161730408668518066e+00,1.161661624908447266e+00,1.161592960357666016e+00,1.161524176597595215e+00,1.161455392837524414e+00,1.161386609077453613e+00,1.161317944526672363e+00,1.161249160766601562e+00,1.161180496215820312e+00,1.161111712455749512e+00,1.161043047904968262e+00,1.160974383354187012e+00,1.160905718803405762e+00,1.160837054252624512e+00,1.160768389701843262e+00,1.160699725151062012e+00,1.160631060600280762e+00,1.160562276840209961e+00,1.160493612289428711e+00,1.160425066947937012e+00,1.160356402397155762e+00,1.160287737846374512e+00,1.160219192504882812e+00,1.160150647163391113e+00,1.160081982612609863e+00,1.160013437271118164e+00,1.159944891929626465e+00,1.159876227378845215e+00,1.159807682037353516e+00,1.159739136695861816e+00,1.159670591354370117e+00,1.159602046012878418e+00,1.159533619880676270e+00,1.159465074539184570e+00,1.159396529197692871e+00,1.159328103065490723e+00,1.159259557723999023e+00,1.159191012382507324e+00,1.159122467041015625e+00,1.159054040908813477e+00,1.158985614776611328e+00,1.158917188644409180e+00,1.158848643302917480e+00,1.158780217170715332e+00,1.158711791038513184e+00,1.158643364906311035e+00,1.158574938774108887e+00,1.158506631851196289e+00,1.158438205718994141e+00,1.158369779586791992e+00,1.158301472663879395e+00,1.158233046531677246e+00,1.158164739608764648e+00,1.158096432685852051e+00,1.158028006553649902e+00,1.157959699630737305e+00,1.157891392707824707e+00,1.157823085784912109e+00,1.157754659652709961e+00,1.157686352729797363e+00,1.157618045806884766e+00,1.157549738883972168e+00,1.157481431961059570e+00,1.157413244247436523e+00,1.157344937324523926e+00,1.157276749610900879e+00,1.157208442687988281e+00,1.157140254974365234e+00
1.087280631065368652e+00,1.087220430374145508e+00,1.087160229682922363e+00,1.087100028991699219e+00,1.087039709091186523e+00,1.086979508399963379e+00,1.086919307708740234e+00,1.086859107017517090e+00,1.086798906326293945e+00,1.086738705635070801e+00,1.086678504943847656e+00,1.086618423461914062e+00,1.086558222770690918e+00,1.086498022079467773e+00,1.086437940597534180e+00,1.086377620697021484e+00,1.086317539215087891e+00,1.086257338523864746e+00,1.086197257041931152e+00,1.086137175559997559e+00,1.086076974868774414e+00,1.086016893386840820e+00,1.085956811904907227e+00,1.085896730422973633e+00,1.085836648941040039e+00,1.085776567459106445e+00,1.085716485977172852e+00,1.085656404495239258e+00,1.085596323013305664e+00,1.085536241531372070e+00,1.085476279258728027e+00,1.085416197776794434e+00,1.085356116294860840e+00,1.085296154022216797e+00,1.085236072540283203e+00,1.085175991058349609e+00,1.085116028785705566e+00,1.085056066513061523e+00,1.084995985031127930e+00,1.084936022758483887e+00,1.084876060485839844e+00,1.084816098213195801e+00,1.084756135940551758e+00,1.084696173667907715e+00,1.084636211395263672e+00,1.084576249122619629e+00,1.084516286849975586e+00,1.084456324577331543e+00,1.084396362304687500e+00,1.084336519241333008e+00,1.084276556968688965e+00,1.084216713905334473e+00,1.084156751632690430e+00,1.084096908569335938e+00,1.084036946296691895e+00,1.083977103233337402e+00,1.083917140960693359e+00,1.083857297897338867e+00,1.083797454833984375e+00,1.083737611770629883e+00,1.083677649497985840e+00,1.083617806434631348e+00,1.083557963371276855e+00,1.083498239517211914e+00,1.083438396453857422e+00,1.083378553390502930e+00,1.083318710327148438e+00,1.083258986473083496e+00,1.083199143409729004e+00,1.083139300346374512e+00,1.083079576492309570e+00,1.083019733428955078e+00,1.082960009574890137e+00,1.082900285720825195e+00,1.082840442657470703e+00,1.082780718803405762e+00,1.082720875740051270e+00,1.082661151885986328e+00,1.082601428031921387e+00,1.082541704177856445e+00
1.021160364151000977e+00,1.021107196807861328e+00,1.021054029464721680e+00,1.021000981330871582e+00,1.020947813987731934e+00,1.020894646644592285e+00,1.020841598510742188e+00,1.020788431167602539e+00,1.020735383033752441e+00,1.020682334899902344e+00,1.020629167556762695e+00,1.020576119422912598e+00,1.020523071289062500e+00,1.020469903945922852e+00,1.020416855812072754e+00,1.020363807678222656e+00,1.020310759544372559e+00,1.020257711410522461e+00,1.020204663276672363e+00,1.020151615142822266e+00,1.020098567008972168e+00,1.020045518875122070e+00,1.019992470741271973e+00,1.019939541816711426e+00,1.019886493682861328e+00,1.019833445549011230e+00,1.019780516624450684e+00,1.019727468490600586e+00,1.019674539566040039e+00,1.019621491432189941e+00,1.019568562507629395e+00,1.019515514373779297e+00,1.019462585449218750e+00,1.019409656524658203e+00,1.019356608390808105e+00,1.019303679466247559e+00,1.019250750541687012e+00,1.019197821617126465e+00,1.019144892692565918e+00,1.019091963768005371e+00,1.019039034843444824e+00,1.018986105918884277e+00,1.018933176994323730e+00,1.018880248069763184e+00,1.018827319145202637e+00,1.018774390220642090e+00,1.018721580505371094e+00,1.018668651580810547e+00,1.018615841865539551e+00,1.018562912940979004e+00,1.018510103225708008e+00,1.018457174301147461e+00,1.018404364585876465e+00,1.018351435661315918e+00,1.018298625946044922e+00,1.018245816230773926e+00,1.018193006515502930e+00,1.018140077590942383e+00,1.018087267875671387e+00,1.018034458160400391e+00,1.017981648445129395e+00,1.017928838729858398e+00,1.017876029014587402e+00,1.017823219299316406e+00,1.017770409584045410e+00,1.017717599868774414e+00,1.017664790153503418e+00,1.017612099647521973e+00,1.017559289932250977e+00,1.017506480216979980e+00,1.017453789710998535e+00,1.017400979995727539e+00,1.017348289489746094e+00,1.017295479774475098e+00,1.017242789268493652e+00,1.017190098762512207e+00,1.017137289047241211e+00,1.017084598541259766e+00,1.017031908035278320e+00,1.016979217529296875e+00
