5.000000000000000000e+00,5.000000000000000000e+00,5.000000000000000000e+00,5.000000000000000000e+00,5.000000000000000000e+00,5.000000000000000000e+00,5.000000000000000000e+00,5.000000000000000000e+00,5.000000000000000000e+00,5.000000000000000000e+00,5.000000000000000000e+00,5.000000000000000000e+00,5.000000000000000000e+00,5.000000000000000000e+00,5.000000000000000000e+00,5.000000000000000000e+00,5.000000000000000000e+00,5.000000000000000000e+00,5.000000000000000000e+00,5.000000000000000000e+00,5.000000000000000000e+00,5.000000000000000000e+00,5.000000000000000000e+00,5.000000000000000000e+00,5.000000000000000000e+00,5.000000000000000000e+00,5.000000000000000000e+00,5.000000000000000000e+00,5.000000000000000000e+00,5.000000000000000000e+00,5.000000000000000000e+00,5.000000000000000000e+00,5.000000000000000000e+00,5.000000000000000000e+00,5.000000000000000000e+00,5.000000000000000000e+00,5.000000000000000000e+00,5.000000000000000000e+00,5.000000000000000000e+00,4.846615791320800781e+00,4.656942367553710938e+00,4.481555938720703125e+00,4.318900108337402344e+00,4.167638301849365234e+00,4.026613235473632812e+00,3.894819974899291992e+00,3.771380424499511719e+00,3.655524969100952148e+00,3.546575307846069336e+00,3.443932294845581055e+00,3.347063064575195312e+00,3.255494356155395508e+00,3.168802261352539062e+00,3.086607933044433594e+00,3.008569717407226562e+00,2.934380054473876953e+00,2.863761186599731445e+00,2.796461820602416992e+00,2.732252597808837891e+00,2.670926094055175781e+00,2.612292051315307617e+00,2.556177139282226562e+00,2.502422094345092773e+00,2.450881481170654297e+00,2.401421070098876953e+00,2.353917598724365234e+00,2.308256864547729492e+00,2.264334201812744141e+00,2.222051382064819336e+00,2.181319236755371094e+00,2.142053127288818359e+00,2.104175806045532227e+00,2.067614793777465820e+00,2.032302856445312500e+00,1.998176574707031250e+00,1.965177416801452637e+00,1.933250546455383301e+00,1.902344584465026855e+00,1.872410893440246582e+00,1.843405008316040039e+00
5.000000000000000000e+00,5.000000000000000000e+00,5.000000000000000000e+00,5.000000000000000000e+00,5.000000000000000000e+00,5.000000000000000000e+00,5.000000000000000000e+00,5.000000000000000000e+00,5.000000000000000000e+00,5.000000000000000000e+00,5.000000000000000000e+00,5.000000000000000000e+00,5.000000000000000000e+00,5.000000000000000000e+00,5.000000000000000000e+00,5.000000000000000000e+00,5.000000000000000000e+00,5.000000000000000000e+00,5.000000000000000000e+00,5.000000000000000000e+00,5.000000000000000000e+00,5.000000000000000000e+00,5.000000000000000000e+00,5.000000000000000000e+00,5.000000000000000000e+00,5.000000000000000000e+00,5.000000000000000000e+00,5.000000000000000000e+00,5.000000000000000000e+00,5.000000000000000000e+00,5.000000000000000000e+00,5.000000000000000000e+00,5.000000000000000000e+00,5.000000000000000000e+00,5.000000000000000000e+00,5.000000000000000000e+00,5.000000000000000000e+00,5.000000000000000000e+00,5.000000000000000000e+00,4.846753120422363281e+00,4.657069206237792969e+00,4.481673240661621094e+00,4.319009304046630859e+00,4.167740345001220703e+00,4.026708126068115234e+00,3.894908666610717773e+00,3.771463394165039062e+00,3.655603408813476562e+00,3.546649217605590820e+00,3.444001436233520508e+00,3.347128629684448242e+00,3.255556583404541016e+00,3.168861150741577148e+00,3.086663484573364258e+00,3.008622407913208008e+00,2.934430599212646484e+00,2.863809347152709961e+00,2.796507358551025391e+00,2.732296228408813477e+00,2.670967817306518555e+00,2.612332105636596680e+00,2.556215286254882812e+00,2.502458572387695312e+00,2.450916767120361328e+00,2.401454925537109375e+00,2.353950023651123047e+00,2.308288097381591797e+00,2.264364242553710938e+00,2.222080469131469727e+00,2.181346893310546875e+00,2.142080068588256836e+00,2.104201793670654297e+00,2.067639827728271484e+00,2.032326936721801758e+00,1.998199820518493652e+00,1.965200185775756836e+00,1.933272361755371094e+00,1.902365684509277344e+00,1.872431397438049316e+00,1.843424797058105469e+00
5.000000000000000000e+00,5.000000000000000000e+00,5.000000000000000000e+00,5.000000000000000000e+00,5.000000000000000000e+00,5.000000000000000000e+00,5.000000000000000000e+00,5.000000000000000000e+00,5.000000000000000000e+00,5.000000000000000000e+00,5.000000000000000000e+00,5.000000000000000000e+00,5.000000000000000000e+00,5.000000000000000000e+00,5.000000000000000000e+00,5.000000000000000000e+00,5.000000000000000000e+00,5.000000000000000000e+00,5.000000000000000000e+00,5.000000000000000000e+00,5.000000000000000000e+00,5.000000000000000000e+00,5.000000000000000000e+00,5.000000000000000000e+00,5.000000000000000000e+00,5.000000000000000000e+00,5.000000000000000000e+00,5.000000000000000000e+00,5.000000000000000000e+00,5.000000000000000000e+00,5.000000000000000000e+00,5.000000000000000000e+00,5.000000000000000000e+00,5.000000000000000000e+00,5.000000000000000000e+00,5.000000000000000000e+00,5.000000000000000000e+00,5.000000000000000000e+00,5.000000000000000000e+00,4.846890449523925781e+00,4.657196044921875000e+00,4.481791019439697266e+00,4.319118976593017578e+00,4.167841434478759766e+00,4.026803016662597656e+00,3.894997358322143555e+00,3.771547079086303711e+00,3.655681371688842773e+00,3.546722650527954102e+00,3.444070816040039062e+00,3.347194433212280273e+00,3.255618572235107422e+00,3.168919801712036133e+00,3.086719274520874023e+00,3.008675575256347656e+00,2.934480905532836914e+00,2.863857269287109375e+00,2.796553134918212891e+00,2.732340097427368164e+00,2.671009540557861328e+00,2.612371921539306641e+00,2.556253433227539062e+00,2.502495288848876953e+00,2.450951814651489258e+00,2.401488542556762695e+00,2.353982448577880859e+00,2.308319330215454102e+00,2.264394044876098633e+00,2.222109317779541016e+00,2.181374788284301758e+00,2.142107009887695312e+00,2.104227781295776367e+00,2.067664861679077148e+00,2.032351016998291016e+00,1.998223185539245605e+00,1.965222716331481934e+00,1.933294177055358887e+00,1.902386784553527832e+00,1.872452139854431152e+00,1.843444705009460449e+00
5.000000000000000000e+00,5.000000000000000000e+00,5.000000000000000000e+00,5.000000000000000000e+00,5.000000000000000000e+00,5.000000000000000000e+00,5.000000000000000000e+00,5.000000000000000000e+00,5.000000000000000000e+00,5.000000000000000000e+00,5.000000000000000000e+00,5.000000000000000000e+00,5.000000000000000000e+00,5.000000000000000000e+00,5.000000000000000000e+00,5.000000000000000000e+00,5.000000000000000000e+00,5.000000000000000000e+00,5.000000000000000000e+00,5.000000000000000000e+00,5.000000000000000000e+00,5.000000000000000000e+00,5.000000000000000000e+00,5.000000000000000000e+00,5.000000000000000000e+00,5.000000000000000000e+00,5.000000000000000000e+00,5.000000000000000000e+00,5.000000000000000000e+00,5.000000000000000000e+00,5.000000000000000000e+00,5.000000000000000000e+00,5.000000000000000000e+00,5.000000000000000000e+00,5.000000000000000000e+00,5.000000000000000000e+00,5.000000000000000000e+00,5.000000000000000000e+00,5.000000000000000000e+00,4.847027778625488281e+00,4.657323360443115234e+00,4.481908321380615234e+00,4.319228172302246094e+00,4.167943477630615234e+00,4.026897907257080078e+00,3.895086288452148438e+00,3.771630048751831055e+00,3.655759572982788086e+00,3.546796560287475586e+00,3.444140434265136719e+00,3.347259759902954102e+00,3.255680322647094727e+00,3.168978929519653320e+00,3.086775302886962891e+00,3.008728504180908203e+00,2.934531211853027344e+00,2.863905429840087891e+00,2.796599149703979492e+00,2.732383728027343750e+00,2.671051263809204102e+00,2.612411975860595703e+00,2.556291818618774414e+00,2.502532005310058594e+00,2.450986862182617188e+00,2.401522397994995117e+00,2.354014873504638672e+00,2.308350563049316406e+00,2.264424085617065430e+00,2.222138404846191406e+00,2.181402683258056641e+00,2.142133712768554688e+00,2.104253530502319336e+00,2.067689895629882812e+00,2.032375335693359375e+00,1.998246550559997559e+00,1.965245246887207031e+00,1.933316230773925781e+00,1.902408003807067871e+00,1.872472524642944336e+00,1.843464493751525879e+00
5.000000000000000000e+00,5.000000000000000000e+00,5.000000000000000000e+00,5.000000000000000000e+00,5.000000000000000000e+00,5.000000000000000000e+00,5.000000000000000000e+00,5.000000000000000000e+00,5.000000000000000000e+00,5.000000000000000000e+00,5.000000000000000000e+00,5.000000000000000000e+00,5.000000000000000000e+00,5.000000000000000000e+00,5.000000000000000000e+00,5.000000000000000000e+00,5.000000000000000000e+00,5.000000000000000000e+00,5.000000000000000000e+00,5.000000000000000000e+00,5.000000000000000000e+00,5.000000000000000000e+00,5.000000000000000000e+00,5.000000000000000000e+00,5.000000000000000000e+00,5.000000000000000000e+00,5.000000000000000000e+00,5.000000000000000000e+00,5.000000000000000000e+00,5.000000000000000000e+00,5.000000000000000000e+00,5.000000000000000000e+00,5.000000000000000000e+00,5.000000000000000000e+00,5.000000000000000000e+00,5.000000000000000000e+00,5.000000000000000000e+00,5.000000000000000000e+00,5.000000000000000000e+00,4.847165584564208984e+00,4.657450199127197266e+00,4.482026100158691406e+00,4.319337368011474609e+00,4.168045043945312500e+00,4.026992797851562500e+00,3.895174980163574219e+00,3.771713495254516602e+00,3.655838012695312500e+00,3.546869993209838867e+00,3.444209814071655273e+00,3.347325563430786133e+00,3.255742788314819336e+00,3.169037580490112305e+00,3.086830854415893555e+00,3.008781671524047852e+00,2.934581756591796875e+00,2.863953351974487305e+00,2.796644687652587891e+00,2.732427597045898438e+00,2.671093225479125977e+00,2.612451791763305664e+00,2.556329965591430664e+00,2.502568721771240234e+00,2.451022148132324219e+00,2.401556015014648438e+00,2.354047298431396484e+00,2.308381795883178711e+00,2.264454126358032227e+00,2.222167015075683594e+00,2.181430578231811523e+00,2.142160654067993164e+00,2.104279518127441406e+00,2.067714929580688477e+00,2.032399415969848633e+00,1.998270034790039062e+00,1.965267896652221680e+00,1.933338046073913574e+00,1.902429103851318359e+00,1.872493028640747070e+00,1.843484520912170410e+00
5.000000000000000000e+00,5.000000000000000000e+00,5.000000000000000000e+00,5.000000000000000000e+00,5.000000000000000000e+00,5.000000000000000000e+00,5.000000000000000000e+00,5.000000000000000000e+00,5.000000000000000000e+00,5.000000000000000000e+00,5.000000000000000000e+00,5.000000000000000000e+00,5.000000000000000000e+00,5.000000000000000000e+00,5.000000000000000000e+00,5.000000000000000000e+00,5.000000000000000000e+00,5.000000000000000000e+00,5.000000000000000000e+00,5.000000000000000000e+00,5.000000000000000000e+00,5.000000000000000000e+00,5.000000000000000000e+00,5.000000000000000000e+00,5.000000000000000000e+00,5.000000000000000000e+00,5.000000000000000000e+00,5.000000000000000000e+00,5.000000000000000000e+00,5.000000000000000000e+00,5.000000000000000000e+00,5.000000000000000000e+00,5.000000000000000000e+00,5.000000000000000000e+00,5.000000000000000000e+00,5.000000000000000000e+00,5.000000000000000000e+00,5.000000000000000000e+00,5.000000000000000000e+00,4.847302913665771484e+00,4.657577037811279297e+00,4.482143878936767578e+00,4.319446086883544922e+00,4.168146610260009766e+00,4.027087688446044922e+00,3.895264148712158203e+00,3.771796703338623047e+00,3.655915975570678711e+00,3.546943426132202148e+00,3.444279432296752930e+00,3.347391128540039062e+00,3.255804538726806641e+00,3.169096231460571289e+00,3.086886882781982422e+00,3.008834600448608398e+00,2.934632062911987305e+00,2.864001274108886719e+00,2.796690702438354492e+00,2.732471227645874023e+00,2.671134948730468750e+00,2.612491607666015625e+00,2.556368350982666016e+00,2.502605438232421875e+00,2.451057195663452148e+00,2.401589870452880859e+00,2.354079961776733398e+00,2.308412790298461914e+00,2.264484167098999023e+00,2.222195863723754883e+00,2.181458473205566406e+00,2.142187595367431641e+00,2.104305505752563477e+00,2.067739963531494141e+00,2.032423734664916992e+00,1.998293399810791016e+00,1.965290427207946777e+00,1.933359980583190918e+00,1.902450442314147949e+00,1.872513532638549805e+00,1.843504428863525391e+00
5.000000000000000000e+00,5.000000000000000000e+00,5.000000000000000000e+00,5.000000000000000000e+00,5.000000000000000000e+00,5.000000000000000000e+00,5.000000000000000000e+00,5.000000000000000000e+00,5.000000000000000000e+00,5.000000000000000000e+00,5.000000000000000000e+00,5.000000000000000000e+00,5.000000000000000000e+00,5.000000000000000000e+00,5.000000000000000000e+00,5.000000000000000000e+00,5.000000000000000000e+00,5.000000000000000000e+00,5.000000000000000000e+00,5.000000000000000000e+00,5.000000000000000000e+00,5.000000000000000000e+00,5.000000000000000000e+00,5.000000000000000000e+00,5.000000000000000000e+00,5.000000000000000000e+00,5.000000000000000000e+00,5.000000000000000000e+00,5.000000000000000000e+00,5.000000000000000000e+00,5.000000000000000000e+00,5.000000000000000000e+00,5.000000000000000000e+00,5.000000000000000000e+00,5.000000000000000000e+00,5.000000000000000000e+00,5.000000000000000000e+00,5.000000000000000000e+00,5.000000000000000000e+00,4.847440719604492188e+00,4.657703876495361328e+00,4.482261180877685547e+00,4.319555282592773438e+00,4.168248653411865234e+00,4.027182579040527344e+00,3.895352602005004883e+00,3.771879673004150391e+00,3.655994415283203125e+00,3.547017335891723633e+00,3.444348812103271484e+00,3.347456455230712891e+00,3.255866765975952148e+00,3.169155120849609375e+00,3.086942434310913086e+00,3.008887529373168945e+00,2.934682607650756836e+00,2.864049434661865234e+00,2.796736240386962891e+00,2.732514858245849609e+00,2.671176671981811523e+00,2.612531661987304688e+00,2.556406497955322266e+00,2.502641916275024414e+00,2.451092481613159180e+00,2.401623725891113281e+00,2.354112148284912109e+00,2.308444023132324219e+00,2.264514207839965820e+00,2.222224950790405273e+00,2.181486368179321289e+00,2.142214298248291016e+00,2.104331493377685547e+00,2.067764997482299805e+00,2.032447814941406250e+00,1.998316764831542969e+00,1.965313196182250977e+00,1.933381795883178711e+00,1.902471542358398438e+00,1.872534036636352539e+00,1.843524217605590820e+00
5.000000000000000000e+00,5.000000000000000000e+00,5.000000000000000000e+00,5.000000000000000000e+00,5.000000000000000000e+00,5.000000000000000000e+00,5.000000000000000000e+00,5.000000000000000000e+00,5.000000000000000000e+00,5.000000000000000000e+00,5.000000000000000000e+00,5.000000000000000000e+00,5.000000000000000000e+00,5.000000000000000000e+00,5.000000000000000000e+00,5.000000000000000000e+00,5.000000000000000000e+00,5.000000000000000000e+00,5.000000000000000000e+00,5.000000000000000000e+00,5.000000000000000000e+00,5.000000000000000000e+00,5.000000000000000000e+00,5.000000000000000000e+00,5.000000000000000000e+00,4.226915359497070312e+00,4.282429218292236328e+00,5.000000000000000000e+00,5.000000000000000000e+00,5.000000000000000000e+00,5.000000000000000000e+00,5.000000000000000000e+00,5.000000000000000000e+00,5.000000000000000000e+00,5.000000000000000000e+00,5.000000000000000000e+00,5.000000000000000000e+00,5.000000000000000000e+00,5.000000000000000000e+00,4.847578048706054688e+00,4.657831192016601562e+00,4.482378482818603516e+00,4.319664955139160156e+00,4.168350219726562500e+00,4.027277469635009766e+00,3.895441293716430664e+00,3.771963357925415039e+00,3.656072616577148438e+00,3.547090768814086914e+00,3.444417953491210938e+00,3.347522258758544922e+00,3.255928754806518555e+00,3.169213771820068359e+00,3.086998224258422852e+00,3.008940458297729492e+00,2.934732913970947266e+00,2.864097356796264648e+00,2.796782016754150391e+00,2.732558727264404297e+00,2.671218395233154297e+00,2.612571716308593750e+00,2.556444644927978516e+00,2.502678632736206055e+00,2.451127529144287109e+00,2.401657342910766602e+00,2.354144573211669922e+00,2.308475255966186523e+00,2.264544248580932617e+00,2.222253799438476562e+00,2.181514024734497070e+00,2.142241239547729492e+00,2.104357481002807617e+00,2.067790031433105469e+00,2.032471895217895508e+00,1.998340010643005371e+00,1.965335726737976074e+00,1.933403611183166504e+00,1.902492761611938477e+00,1.872554659843444824e+00,1.843544125556945801e+00
5.000000000000000000e+00,5.000000000000000000e+00,5.000000000000000000e+00,5.000000000000000000e+00,5.000000000000000000e+00,5.000000000000000000e+00,5.000000000000000000e+00,5.000000000000000000e+00,5.000000000000000000e+00,5.000000000000000000e+00,5.000000000000000000e+00,5.000000000000000000e+00,5.000000000000000000e+00,5.000000000000000000e+00,5.000000000000000000e+00,5.000000000000000000e+00,5.000000000000000000e+00,5.000000000000000000e+00,5.000000000000000000e+00,5.000000000000000000e+00,5.000000000000000000e+00,5.000000000000000000e+00,5.000000000000000000e+00,5.000000000000000000e+00,5.000000000000000000e+00,4.225975990295410156e+00,4.274222850799560547e+00,5.000000000000000000e+00,5.000000000000000000e+00,5.000000000000000000e+00,5.000000000000000000e+00,5.000000000000000000e+00,5.000000000000000000e+00,5.000000000000000000e+00,5.000000000000000000e+00,5.000000000000000000e+00,5.000000000000000000e+00,5.000000000000000000e+00,5.000000000000000000e+00,4.847715377807617188e+00,4.657958030700683594e+00,4.482496261596679688e+00,4.319774150848388672e+00,4.168451786041259766e+00,4.027372360229492188e+00,3.895530462265014648e+00,3.772046327590942383e+00,3.656150579452514648e+00,3.547164678573608398e+00,3.444487571716308594e+00,3.347587823867797852e+00,3.255990743637084961e+00,3.169272899627685547e+00,3.087054014205932617e+00,3.008993387222290039e+00,2.934783220291137695e+00,2.864145517349243164e+00,2.796828031539916992e+00,2.732602357864379883e+00,2.671260118484497070e+00,2.612611770629882812e+00,2.556483030319213867e+00,2.502715349197387695e+00,2.451162815093994141e+00,2.401691198348999023e+00,2.354177236557006836e+00,2.308506488800048828e+00,2.264574050903320312e+00,2.222282886505126953e+00,2.181541919708251953e+00,2.142268180847167969e+00,2.104383230209350586e+00,2.067815065383911133e+00,2.032496213912963867e+00,1.998363375663757324e+00,1.965358376502990723e+00,1.933425664901733398e+00,1.902513861656188965e+00,1.872575163841247559e+00,1.843564033508300781e+00
5.000000000000000000e+00,5.000000000000000000e+00,5.000000000000000000e+00,5.000000000000000000e+00,5.000000000000000000e+00,5.000000000000000000e+00,5.000000000000000000e+00,5.000000000000000000e+00,5.000000000000000000e+00,5.000000000000000000e+00,5.000000000000000000e+00,5.000000000000000000e+00,5.000000000000000000e+00,5.000000000000000000e+00,5.000000000000000000e+00,5.000000000000000000e+00,5.000000000000000000e+00,5.000000000000000000e+00,5.000000000000000000e+00,5.000000000000000000e+00,5.000000000000000000e+00,5.000000000000000000e+00,5.000000000000000000e+00,5.000000000000000000e+00,5.000000000000000000e+00,4.263307094573974609e+00,4.333582878112792969e+00,5.000000000000000000e+00,5.000000000000000000e+00,5.000000000000000000e+00,5.000000000000000000e+00,5.000000000000000000e+00,5.000000000000000000e+00,5.000000000000000000e+00,5.000000000000000000e+00,5.000000000000000000e+00,5.000000000000000000e+00,5.000000000000000000e+00,5.000000000000000000e+00,4.847853183746337891e+00,4.658084869384765625e+00,4.482614040374755859e+00,4.319883346557617188e+00,4.168553352355957031e+00,4.027467727661132812e+00,3.895619153976440430e+00,3.772130012512207031e+00,3.656229019165039062e+00,3.547238111495971680e+00,3.444556951522827148e+00,3.347653627395629883e+00,3.256052970886230469e+00,3.169331550598144531e+00,3.087109804153442383e+00,3.009046554565429688e+00,2.934833765029907227e+00,2.864193439483642578e+00,2.796873569488525391e+00,2.732645988464355469e+00,2.671302080154418945e+00,2.612651586532592773e+00,2.556521177291870117e+00,2.502752065658569336e+00,2.451198101043701172e+00,2.401724815368652344e+00,2.354209423065185547e+00,2.308537721633911133e+00,2.264604330062866211e+00,2.222311735153198242e+00,2.181569814682006836e+00,2.142295122146606445e+00,2.104409217834472656e+00,2.067840099334716797e+00,2.032520294189453125e+00,1.998386979103088379e+00,1.965380907058715820e+00,1.933447480201721191e+00,1.902535080909729004e+00,1.872595667839050293e+00,1.843584060668945312e+00
5.000000000000000000e+00,5.000000000000000000e+00,5.000000000000000000e+00,5.000000000000000000e+00,5.000000000000000000e+00,5.000000000000000000e+00,5.000000000000000000e+00,5.000000000000000000e+00,5.000000000000000000e+00,5.000000000000000000e+00,5.000000000000000000e+00,5.000000000000000000e+00,5.000000000000000000e+00,5.000000000000000000e+00,5.000000000000000000e+00,5.000000000000000000e+00,5.000000000000000000e+00,5.000000000000000000e+00,5.000000000000000000e+00,5.000000000000000000e+00,5.000000000000000000e+00,5.000000000000000000e+00,5.000000000000000000e+00,5.000000000000000000e+00,4.273065567016601562e+00,4.297289848327636719e+00,4.279631614685058594e+00,4.306165218353271484e+00,4.304150104522705078e+00,5.000000000000000000e+00,5.000000000000000000e+00,5.000000000000000000e+00,5.000000000000000000e+00,5.000000000000000000e+00,5.000000000000000000e+00,5.000000000000000000e+00,5.000000000000000000e+00,5.000000000000000000e+00,5.000000000000000000e+00,4.847990989685058594e+00,4.658211708068847656e+00,4.482731819152832031e+00,4.319992542266845703e+00,4.168655395507812500e+00,4.027562141418457031e+00,3.895708084106445312e+00,3.772212982177734375e+00,3.656307220458984375e+00,3.547311544418334961e+00,3.444626569747924805e+00,3.347718954086303711e+00,3.256114721298217773e+00,3.169390201568603516e+00,3.087165594100952148e+00,3.009099483489990234e+00,2.934884071350097656e+00,2.864241361618041992e+00,2.796919584274291992e+00,2.732689619064331055e+00,2.671343564987182617e+00,2.612691402435302734e+00,2.556559562683105469e+00,2.502788543701171875e+00,2.451233148574829102e+00,2.401758670806884766e+00,2.354242086410522461e+00,2.308568716049194336e+00,2.264634132385253906e+00,2.222340583801269531e+00,2.181597709655761719e+00,2.142321825027465820e+00,2.104435205459594727e+00,2.067865133285522461e+00,2.032544612884521484e+00,1.998410224914550781e+00,1.965403437614440918e+00,1.933469295501708984e+00,1.902556419372558594e+00,1.872616171836853027e+00,1.843603849411010742e+00
5.000000000000000000e+00,5.000000000000000000e+00,5.000000000000000000e+00,5.000000000000000000e+00,5.000000000000000000e+00,5.000000000000000000e+00,5.000000000000000000e+00,5.000000000000000000e+00,5.000000000000000000e+00,5.000000000000000000e+00,5.000000000000000000e+00,5.000000000000000000e+00,5.000000000000000000e+00,5.000000000000000000e+00,5.000000000000000000e+00,5.000000000000000000e+00,5.000000000000000000e+00,5.000000000000000000e+00,5.000000000000000000e+00,5.000000000000000000e+00,5.000000000000000000e+00,5.000000000000000000e+00,5.000000000000000000e+00,4.278434753417968750e+00,4.235558986663818359e+00,4.228547096252441406e+00,4.221118450164794922e+00,4.262041568756103516e+00,4.328877925872802734e+00,4.354500293731689453e+00,5.000000000000000000e+00,5.000000000000000000e+00,5.000000000000000000e+00,5.000000000000000000e+00,5.000000000000000000e+00,5.000000000000000000e+00,5.000000000000000000e+00,5.000000000000000000e+00,5.000000000000000000e+00,4.848128318786621094e+00,4.658339023590087891e+00,4.482849597930908203e+00,4.320101737976074219e+00,4.168756961822509766e+00,4.027657508850097656e+00,3.895796775817871094e+00,3.772296190261840820e+00,3.656385660171508789e+00,3.547385454177856445e+00,3.444695949554443359e+00,3.347784519195556641e+00,3.256177186965942383e+00,3.169449090957641602e+00,3.087221384048461914e+00,3.009152412414550781e+00,2.934934616088867188e+00,2.864289522171020508e+00,2.796965360641479492e+00,2.732733249664306641e+00,2.671385526657104492e+00,2.612731456756591797e+00,2.556597709655761719e+00,2.502825260162353516e+00,2.451268434524536133e+00,2.401792526245117188e+00,2.354274511337280273e+00,2.308599948883056641e+00,2.264664411544799805e+00,2.222369432449340820e+00,2.181625604629516602e+00,2.142348766326904297e+00,2.104461193084716797e+00,2.067890167236328125e+00,2.032568693161010742e+00,1.998433589935302734e+00,1.965426206588745117e+00,1.933491110801696777e+00,1.902577519416809082e+00,1.872636675834655762e+00,1.843623757362365723e+00
5.000000000000000000e+00,5.000000000000000000e+00,5.000000000000000000e+00,5.000000000000000000e+00,5.000000000000000000e+00,5.000000000000000000e+00,5.000000000000000000e+00,5.000000000000000000e+00,5.000000000000000000e+00,5.000000000000000000e+00,5.000000000000000000e+00,5.000000000000000000e+00,5.000000000000000000e+00,5.000000000000000000e+00,5.000000000000000000e+00,5.000000000000000000e+00,5.000000000000000000e+00,5.000000000000000000e+00,5.000000000000000000e+00,5.000000000000000000e+00,5.000000000000000000e+00,5.000000000000000000e+00,5.000000000000000000e+00,4.313961982727050781e+00,4.227246284484863281e+00,4.216143608093261719e+00,4.223489761352539062e+00,4.262294769287109375e+00,4.318761348724365234e+00,4.348912715911865234e+00,5.000000000000000000e+00,5.000000000000000000e+00,5.000000000000000000e+00,5.000000000000000000e+00,5.000000000000000000e+00,5.000000000000000000e+00,5.000000000000000000e+00,5.000000000000000000e+00,5.000000000000000000e+00,4.848266124725341797e+00,4.658465862274169922e+00,4.482966899871826172e+00,4.320210933685302734e+00,4.168859004974365234e+00,4.027752399444580078e+00,3.895885944366455078e+00,3.772379636764526367e+00,3.656463861465454102e+00,3.547459125518798828e+00,3.444765567779541016e+00,3.347850322723388672e+00,3.256238937377929688e+00,3.169507741928100586e+00,3.087277412414550781e+00,3.009205579757690430e+00,2.934984922409057617e+00,2.864337444305419922e+00,2.797011137008666992e+00,2.732777118682861328e+00,2.671427249908447266e+00,2.612771272659301758e+00,2.556636095046997070e+00,2.502861976623535156e+00,2.451303482055664062e+00,2.401826143264770508e+00,2.354306936264038086e+00,2.308631181716918945e+00,2.264694213867187500e+00,2.222398281097412109e+00,2.181653499603271484e+00,2.142375707626342773e+00,2.104486942291259766e+00,2.067915201187133789e+00,2.032593011856079102e+00,1.998456954956054688e+00,1.965448856353759766e+00,1.933513045310974121e+00,1.902598738670349121e+00,1.872657299041748047e+00,1.843643546104431152e+00
5.000000000000000000e+00,5.000000000000000000e+00,5.000000000000000000e+00,5.000000000000000000e+00,5.000000000000000000e+00,5.000000000000000000e+00,5.000000000000000000e+00,5.000000000000000000e+00,5.000000000000000000e+00,5.000000000000000000e+00,5.000000000000000000e+00,5.000000000000000000e+00,5.000000000000000000e+00,5.000000000000000000e+00,5.000000000000000000e+00,5.000000000000000000e+00,5.000000000000000000e+00,5.000000000000000000e+00,5.000000000000000000e+00,5.000000000000000000e+00,5.000000000000000000e+00,5.000000000000000000e+00,5.000000000000000000e+00,4.328817844390869141e+00,4.228662490844726562e+00,4.208344936370849609e+00,4.223323345184326172e+00,4.271789073944091797e+00,4.310507774353027344e+00,4.340492248535156250e+00,5.000000000000000000e+00,5.000000000000000000e+00,5.000000000000000000e+00,5.000000000000000000e+00,5.000000000000000000e+00,5.000000000000000000e+00,5.000000000000000000e+00,5.000000000000000000e+00,5.000000000000000000e+00,4.848403453826904297e+00,4.658593177795410156e+00,4.483084678649902344e+00,4.320320129394531250e+00,4.168960571289062500e+00,4.027847290039062500e+00,3.895974636077880859e+00,3.772462844848632812e+00,3.656541824340820312e+00,3.547533035278320312e+00,3.444834947586059570e+00,3.347915649414062500e+00,3.256300926208496094e+00,3.169566869735717773e+00,3.087332963943481445e+00,3.009258508682250977e+00,2.935035228729248047e+00,2.864385604858398438e+00,2.797056913375854492e+00,2.732820749282836914e+00,2.671468973159790039e+00,2.612811565399169922e+00,2.556674242019653320e+00,2.502898693084716797e+00,2.451338529586791992e+00,2.401859998703002930e+00,2.354339361190795898e+00,2.308662414550781250e+00,2.264724254608154297e+00,2.222427368164062500e+00,2.181681394577026367e+00,2.142402410507202148e+00,2.104512929916381836e+00,2.067940235137939453e+00,2.032617092132568359e+00,1.998480319976806641e+00,1.965471386909484863e+00,1.933535099029541016e+00,1.902619838714599609e+00,1.872677803039550781e+00,1.843663454055786133e+00
5.000000000000000000e+00,5.000000000000000000e+00,5.000000000000000000e+00,5.000000000000000000e+00,5.000000000000000000e+00,5.000000000000000000e+00,5.000000000000000000e+00,5.000000000000000000e+00,5.000000000000000000e+00,5.000000000000000000e+00,5.000000000000000000e+00,5.000000000000000000e+00,5.000000000000000000e+00,5.000000000000000000e+00,5.000000000000000000e+00,5.000000000000000000e+00,5.000000000000000000e+00,5.000000000000000000e+00,5.000000000000000000e+00,5.000000000000000000e+00,5.000000000000000000e+00,5.000000000000000000e+00,5.000000000000000000e+00,4.340928077697753906e+00,4.216389656066894531e+00,4.212087154388427734e+00,4.223241806030273438e+00,4.290226459503173828e+00,4.348325729370117188e+00,4.342981338500976562e+00,5.000000000000000000e+00,5.000000000000000000e+00,5.000000000000000000e+00,5.000000000000000000e+00,5.000000000000000000e+00,5.000000000000000000e+00,5.000000000000000000e+00,5.000000000000000000e+00,5.000000000000000000e+00,4.848541259765625000e+00,4.658720016479492188e+00,4.483201980590820312e+00,4.320429325103759766e+00,4.169062137603759766e+00,4.027942180633544922e+00,3.896063327789306641e+00,3.772546529769897461e+00,3.656620264053344727e+00,3.547606468200683594e+00,3.444904327392578125e+00,3.347981452941894531e+00,3.256363153457641602e+00,3.169625520706176758e+00,3.087388753890991211e+00,3.009311676025390625e+00,2.935085773468017578e+00,2.864433526992797852e+00,2.797102689743041992e+00,2.732864618301391602e+00,2.671510934829711914e+00,2.612851381301879883e+00,2.556712388992309570e+00,2.502935409545898438e+00,2.451373815536499023e+00,2.401893854141235352e+00,2.354371786117553711e+00,2.308693647384643555e+00,2.264754295349121094e+00,2.222456216812133789e+00,2.181709051132202148e+00,2.142429351806640625e+00,2.104538917541503906e+00,2.067965269088745117e+00,2.032641172409057617e+00,1.998503804206848145e+00,1.965493917465209961e+00,1.933556914329528809e+00,1.902640938758850098e+00,1.872698307037353516e+00,1.843683481216430664e+00
5.000000000000000000e+00,5.000000000000000000e+00,5.000000000000000000e+00,5.000000000000000000e+00,5.000000000000000000e+00,5.000000000000000000e+00,5.000000000000000000e+00,5.000000000000000000e+00,5.000000000000000000e+00,5.000000000000000000e+00,5.000000000000000000e+00,5.000000000000000000e+00,5.000000000000000000e+00,5.000000000000000000e+00,5.000000000000000000e+00,5.000000000000000000e+00,5.000000000000000000e+00,5.000000000000000000e+00,5.000000000000000000e+00,5.000000000000000000e+00,5.000000000000000000e+00,5.000000000000000000e+00,5.000000000000000000e+00,4.376734256744384766e+00,4.226847171783447266e+00,4.207754611968994141e+00,4.228230953216552734e+00,4.272487163543701172e+00,4.339635372161865234e+00,4.303255081176757812e+00,5.000000000000000000e+00,5.000000000000000000e+00,5.000000000000000000e+00,5.000000000000000000e+00,5.000000000000000000e+00,5.000000000000000000e+00,5.000000000000000000e+00,5.000000000000000000e+00,5.000000000000000000e+00,4.848678588867187500e+00,4.658846855163574219e+00,4.483319759368896484e+00,4.320538520812988281e+00,4.169163703918457031e+00,4.028037071228027344e+00,3.896152496337890625e+00,3.772629499435424805e+00,3.656698465347290039e+00,3.547679901123046875e+00,3.444973945617675781e+00,3.348047018051147461e+00,3.256425142288208008e+00,3.169684171676635742e+00,3.087444543838500977e+00,3.009364604949951172e+00,2.935136079788208008e+00,2.864481449127197266e+00,2.797148466110229492e+00,2.732908248901367188e+00,2.671552419662475586e+00,2.612891197204589844e+00,2.556750774383544922e+00,2.502971887588500977e+00,2.451408863067626953e+00,2.401927471160888672e+00,2.354404211044311523e+00,2.308724880218505859e+00,2.264784336090087891e+00,2.222485065460205078e+00,2.181736946105957031e+00,2.142456293106079102e+00,2.104564666748046875e+00,2.067990064620971680e+00,2.032665491104125977e+00,1.998527169227600098e+00,1.965516448020935059e+00,1.933578729629516602e+00,1.902662277221679688e+00,1.872718811035156250e+00,1.843703389167785645e+00
5.000000000000000000e+00,5.000000000000000000e+00,5.000000000000000000e+00,5.000000000000000000e+00,5.000000000000000000e+00,5.000000000000000000e+00,5.000000000000000000e+00,5.000000000000000000e+00,5.000000000000000000e+00,5.000000000000000000e+00,5.000000000000000000e+00,5.000000000000000000e+00,5.000000000000000000e+00,5.000000000000000000e+00,5.000000000000000000e+00,5.000000000000000000e+00,5.000000000000000000e+00,5.000000000000000000e+00,5.000000000000000000e+00,5.000000000000000000e+00,5.000000000000000000e+00,5.000000000000000000e+00,5.000000000000000000e+00,4.351962566375732422e+00,4.220727920532226562e+00,4.223864078521728516e+00,4.231123447418212891e+00,4.272085666656494141e+00,5.000000000000000000e+00,4.260638236999511719e+00,5.000000000000000000e+00,5.000000000000000000e+00,5.000000000000000000e+00,5.000000000000000000e+00,5.000000000000000000e+00,5.000000000000000000e+00,5.000000000000000000e+00,5.000000000000000000e+00,5.000000000000000000e+00,4.848816394805908203e+00,4.658974170684814453e+00,4.483437538146972656e+00,4.320647716522216797e+00,4.169265747070312500e+00,4.028131961822509766e+00,3.896241188049316406e+00,3.772712707519531250e+00,3.656776905059814453e+00,3.547753810882568359e+00,3.445043325424194336e+00,3.348112583160400391e+00,3.256487369537353516e+00,3.169743061065673828e+00,3.087500333786010742e+00,3.009417533874511719e+00,2.935186862945556641e+00,2.864529609680175781e+00,2.797194242477416992e+00,2.732951879501342773e+00,2.671594381332397461e+00,2.612931251525878906e+00,2.556789159774780273e+00,2.503008604049682617e+00,2.451444149017333984e+00,2.401961326599121094e+00,2.354436635971069336e+00,2.308755874633789062e+00,2.264814376831054688e+00,2.222514152526855469e+00,2.181764841079711914e+00,2.142482995986938477e+00,2.104590654373168945e+00,2.068015336990356445e+00,2.032689571380615234e+00,1.998550534248352051e+00,1.965539336204528809e+00,1.933600544929504395e+00,1.902683496475219727e+00,1.872739315032958984e+00,1.843723177909851074e+00
5.000000000000000000e+00,5.000000000000000000e+00,5.000000000000000000e+00,5.000000000000000000e+00,5.000000000000000000e+00,5.000000000000000000e+00,5.000000000000000000e+00,5.000000000000000000e+00,5.000000000000000000e+00,5.000000000000000000e+00,5.000000000000000000e+00,5.000000000000000000e+00,5.000000000000000000e+00,5.000000000000000000e+00,5.000000000000000000e+00,5.000000000000000000e+00,5.000000000000000000e+00,5.000000000000000000e+00,5.000000000000000000e+00,5.000000000000000000e+00,5.000000000000000000e+00,5.000000000000000000e+00,5.000000000000000000e+00,4.338337898254394531e+00,4.165719509124755859e+00,4.211506843566894531e+00,4.251160144805908203e+00,4.265956401824951172e+00,5.000000000000000000e+00,4.223836421966552734e+00,5.000000000000000000e+00,5.000000000000000000e+00,5.000000000000000000e+00,5.000000000000000000e+00,5.000000000000000000e+00,5.000000000000000000e+00,5.000000000000000000e+00,5.000000000000000000e+00,5.000000000000000000e+00,4.848954200744628906e+00,4.659101009368896484e+00,4.483555316925048828e+00,4.320756912231445312e+00,4.169367313385009766e+00,4.028227329254150391e+00,3.896330118179321289e+00,3.772796392440795898e+00,3.656855106353759766e+00,3.547827482223510742e+00,3.445112943649291992e+00,3.348178386688232422e+00,3.256549358367919922e+00,3.169801712036132812e+00,3.087556362152099609e+00,3.009470701217651367e+00,2.935237169265747070e+00,2.864577531814575195e+00,2.797240257263183594e+00,2.732995748519897461e+00,2.671636104583740234e+00,2.612971067428588867e+00,2.556827306747436523e+00,2.503045320510864258e+00,2.451479434967041016e+00,2.401994943618774414e+00,2.354469299316406250e+00,2.308787345886230469e+00,2.264844417572021484e+00,2.222543001174926758e+00,2.181792736053466797e+00,2.142509937286376953e+00,2.104616641998291016e+00,2.068040370941162109e+00,2.032713890075683594e+00,1.998573780059814453e+00,1.965561866760253906e+00,1.933622479438781738e+00,1.902704596519470215e+00,1.872759938240051270e+00,1.843743085861206055e+00
5.000000000000000000e+00,5.000000000000000000e+00,5.000000000000000000e+00,5.000000000000000000e+00,5.000000000000000000e+00,5.000000000000000000e+00,5.000000000000000000e+00,5.000000000000000000e+00,5.000000000000000000e+00,5.000000000000000000e+00,5.000000000000000000e+00,5.000000000000000000e+00,5.000000000000000000e+00,5.000000000000000000e+00,5.000000000000000000e+00,5.000000000000000000e+00,5.000000000000000000e+00,5.000000000000000000e+00,5.000000000000000000e+00,5.000000000000000000e+00,5.000000000000000000e+00,5.000000000000000000e+00,5.000000000000000000e+00,4.336319923400878906e+00,4.143167018890380859e+00,4.182513713836669922e+00,4.243286609649658203e+00,4.262704849243164062e+00,5.000000000000000000e+00,4.190275669097900391e+00,5.000000000000000000e+00,5.000000000000000000e+00,5.000000000000000000e+00,5.000000000000000000e+00,5.000000000000000000e+00,5.000000000000000000e+00,5.000000000000000000e+00,5.000000000000000000e+00,5.000000000000000000e+00,4.849091529846191406e+00,4.659228324890136719e+00,4.483672618865966797e+00,4.320866107940673828e+00,4.169468879699707031e+00,4.028322219848632812e+00,3.896418809890747070e+00,3.772879362106323242e+00,3.656933307647705078e+00,3.547901391983032227e+00,3.445182323455810547e+00,3.348243713378906250e+00,3.256611347198486328e+00,3.169860839843750000e+00,3.087611913681030273e+00,3.009523391723632812e+00,2.935287475585937500e+00,2.864625692367553711e+00,2.797285795211791992e+00,2.733039379119873047e+00,2.671677827835083008e+00,2.613011360168457031e+00,2.556865692138671875e+00,2.503082036972045898e+00,2.451514482498168945e+00,2.402028799057006836e+00,2.354501485824584961e+00,2.308818340301513672e+00,2.264874458312988281e+00,2.222571849822998047e+00,2.181820631027221680e+00,2.142536640167236328e+00,2.104642391204833984e+00,2.068065404891967773e+00,2.032737970352172852e+00,1.998597145080566406e+00,1.965584397315979004e+00,1.933644533157348633e+00,1.902725815773010254e+00,1.872780442237854004e+00,1.843762993812561035e+00
5.000000000000000000e+00,5.000000000000000000e+00,5.000000000000000000e+00,5.000000000000000000e+00,5.000000000000000000e+00,5.000000000000000000e+00,5.000000000000000000e+00,5.000000000000000000e+00,5.000000000000000000e+00,5.000000000000000000e+00,5.000000000000000000e+00,5.000000000000000000e+00,5.000000000000000000e+00,5.000000000000000000e+00,5.000000000000000000e+00,5.000000000000000000e+00,5.000000000000000000e+00,5.000000000000000000e+00,5.000000000000000000e+00,5.000000000000000000e+00,5.000000000000000000e+00,5.000000000000000000e+00,5.000000000000000000e+00,4.310902595520019531e+00,4.124413967132568359e+00,4.165482044219970703e+00,4.255521297454833984e+00,4.272827625274658203e+00,5.000000000000000000e+00,5.000000000000000000e+00,5.000000000000000000e+00,5.000000000000000000e+00,5.000000000000000000e+00,5.000000000000000000e+00,5.000000000000000000e+00,5.000000000000000000e+00,5.000000000000000000e+00,5.000000000000000000e+00,5.000000000000000000e+00,4.849229335784912109e+00,4.659355640411376953e+00,4.483790397644042969e+00,4.320975780487060547e+00,4.169570922851562500e+00,4.028417110443115234e+00,3.896507501602172852e+00,3.772963047027587891e+00,3.657011747360229492e+00,3.547974824905395508e+00,3.445251464843750000e+00,3.348309516906738281e+00,3.256673574447631836e+00,3.169919490814208984e+00,3.087667703628540039e+00,3.009576559066772461e+00,2.935338020324707031e+00,2.864673614501953125e+00,2.797331571578979492e+00,2.733083248138427734e+00,2.671719789505004883e+00,2.613051176071166992e+00,2.556903839111328125e+00,2.503118753433227539e+00,2.451549768447875977e+00,2.402062654495239258e+00,2.354533910751342773e+00,2.308849573135375977e+00,2.264904499053955078e+00,2.222600698471069336e+00,2.181848526000976562e+00,2.142563819885253906e+00,2.104668378829956055e+00,2.068090438842773438e+00,2.032762050628662109e+00,1.998620748519897461e+00,1.965607047080993652e+00,1.933666348457336426e+00,1.902746915817260742e+00,1.872800946235656738e+00,1.843783020973205566e+00
5.000000000000000000e+00,5.000000000000000000e+00,5.000000000000000000e+00,5.000000000000000000e+00,5.000000000000000000e+00,5.000000000000000000e+00,5.000000000000000000e+00,5.000000000000000000e+00,5.000000000000000000e+00,5.000000000000000000e+00,5.000000000000000000e+00,5.000000000000000000e+00,5.000000000000000000e+00,5.000000000000000000e+00,5.000000000000000000e+00,5.000000000000000000e+00,5.000000000000000000e+00,5.000000000000000000e+00,5.000000000000000000e+00,5.000000000000000000e+00,5.000000000000000000e+00,5.000000000000000000e+00,5.000000000000000000e+00,5.000000000000000000e+00,4.100864887237548828e+00,4.147465229034423828e+00,4.268140792846679688e+00,4.286987304687500000e+00,5.000000000000000000e+00,5.000000000000000000e+00,5.000000000000000000e+00,5.000000000000000000e+00,5.000000000000000000e+00,5.000000000000000000e+00,5.000000000000000000e+00,5.000000000000000000e+00,5.000000000000000000e+00,5.000000000000000000e+00,5.000000000000000000e+00,4.849367141723632812e+00,4.659482479095458984e+00,4.483908176422119141e+00,4.321084976196289062e+00,4.169672489166259766e+00,4.028512001037597656e+00,3.896596670150756836e+00,3.773046255111694336e+00,3.657089710235595703e+00,3.548048734664916992e+00,3.445321321487426758e+00,3.348375082015991211e+00,3.256735563278198242e+00,3.169978618621826172e+00,3.087723731994628906e+00,3.009629487991333008e+00,2.935388326644897461e+00,2.864721775054931641e+00,2.797377586364746094e+00,2.733126878738403320e+00,2.671761512756347656e+00,2.613091230392456055e+00,2.556942224502563477e+00,2.503155231475830078e+00,2.451584815979003906e+00,2.402096509933471680e+00,2.354566574096679688e+00,2.308880805969238281e+00,2.264934539794921875e+00,2.222629785537719727e+00,2.181876420974731445e+00,2.142590522766113281e+00,2.104694366455078125e+00,2.068115472793579102e+00,2.032786369323730469e+00,1.998643994331359863e+00,1.965629577636718750e+00,1.933688163757324219e+00,1.902768254280090332e+00,1.872821450233459473e+00,1.843802809715270996e+00
5.000000000000000000e+00,5.000000000000000000e+00,5.000000000000000000e+00,5.000000000000000000e+00,5.000000000000000000e+00,5.000000000000000000e+00,5.000000000000000000e+00,5.000000000000000000e+00,5.000000000000000000e+00,5.000000000000000000e+00,5.000000000000000000e+00,5.000000000000000000e+00,5.000000000000000000e+00,5.000000000000000000e+00,5.000000000000000000e+00,5.000000000000000000e+00,5.000000000000000000e+00,5.000000000000000000e+00,5.000000000000000000e+00,5.000000000000000000e+00,5.000000000000000000e+00,5.000000000000000000e+00,5.000000000000000000e+00,5.000000000000000000e+00,4.082491874694824219e+00,4.131131649017333984e+00,4.280395507812500000e+00,4.296553134918212891e+00,5.000000000000000000e+00,5.000000000000000000e+00,5.000000000000000000e+00,5.000000000000000000e+00,5.000000000000000000e+00,5.000000000000000000e+00,5.000000000000000000e+00,5.000000000000000000e+00,5.000000000000000000e+00,5.000000000000000000e+00,5.000000000000000000e+00,4.849504470825195312e+00,4.659609317779541016e+00,4.484025955200195312e+00,4.321194171905517578e+00,4.169774532318115234e+00,4.028606891632080078e+00,3.896685361862182617e+00,3.773129224777221680e+00,3.657168388366699219e+00,3.548122167587280273e+00,3.445390701293945312e+00,3.348440647125244141e+00,3.256797790527343750e+00,3.170037269592285156e+00,3.087779283523559570e+00,3.009682416915893555e+00,2.935438871383666992e+00,2.864769697189331055e+00,2.797423124313354492e+00,2.733170509338378906e+00,2.671803236007690430e+00,2.613131046295166016e+00,2.556980371475219727e+00,2.503191947937011719e+00,2.451620101928710938e+00,2.402130126953125000e+00,2.354598999023437500e+00,2.308912038803100586e+00,2.264964580535888672e+00,2.222658634185791016e+00,2.181904077529907227e+00,2.142617225646972656e+00,2.104720354080200195e+00,2.068140506744384766e+00,2.032810449600219727e+00,1.998667359352111816e+00,1.965652346611022949e+00,1.933709979057312012e+00,1.902789473533630371e+00,1.872841954231262207e+00,1.843822717666625977e+00
5.000000000000000000e+00,5.000000000000000000e+00,5.000000000000000000e+00,5.000000000000000000e+00,5.000000000000000000e+00,5.000000000000000000e+00,5.000000000000000000e+00,5.000000000000000000e+00,5.000000000000000000e+00,5.000000000000000000e+00,5.000000000000000000e+00,5.000000000000000000e+00,5.000000000000000000e+00,5.000000000000000000e+00,5.000000000000000000e+00,5.000000000000000000e+00,5.000000000000000000e+00,5.000000000000000000e+00,5.000000000000000000e+00,5.000000000000000000e+00,5.000000000000000000e+00,5.000000000000000000e+00,5.000000000000000000e+00,5.000000000000000000e+00,4.096751689910888672e+00,4.143607139587402344e+00,4.291510581970214844e+00,4.318950653076171875e+00,5.000000000000000000e+00,5.000000000000000000e+00,5.000000000000000000e+00,5.000000000000000000e+00,5.000000000000000000e+00,5.000000000000000000e+00,5.000000000000000000e+00,5.000000000000000000e+00,5.000000000000000000e+00,5.000000000000000000e+00,5.000000000000000000e+00,4.849640846252441406e+00,4.659736633300781250e+00,4.484143733978271484e+00,4.321303367614746094e+00,4.169876098632812500e+00,4.028702259063720703e+00,3.896774530410766602e+00,3.773212909698486328e+00,3.657246589660644531e+00,3.548195838928222656e+00,3.445460319519042969e+00,3.348506450653076172e+00,3.256859779357910156e+00,3.170095920562744141e+00,3.087835311889648438e+00,3.009735584259033203e+00,2.935489177703857422e+00,2.864817619323730469e+00,2.797469139099121094e+00,2.733214378356933594e+00,2.671844959259033203e+00,2.613171100616455078e+00,2.557018756866455078e+00,2.503228664398193359e+00,2.451655149459838867e+00,2.402163982391357422e+00,2.354631423950195312e+00,2.308943271636962891e+00,2.264994621276855469e+00,2.222687482833862305e+00,2.181932210922241211e+00,2.142644166946411133e+00,2.104746341705322266e+00,2.068165540695190430e+00,2.032834768295288086e+00,1.998690724372863770e+00,1.965674996376037598e+00,1.933731794357299805e+00,1.902810573577880859e+00,1.872862577438354492e+00,1.843842625617980957e+00
5.000000000000000000e+00,5.000000000000000000e+00,5.000000000000000000e+00,5.000000000000000000e+00,5.000000000000000000e+00,5.000000000000000000e+00,5.000000000000000000e+00,5.000000000000000000e+00,5.000000000000000000e+00,5.000000000000000000e+00,5.000000000000000000e+00,5.000000000000000000e+00,5.000000000000000000e+00,5.000000000000000000e+00,5.000000000000000000e+00,5.000000000000000000e+00,5.000000000000000000e+00,5.000000000000000000e+00,5.000000000000000000e+00,5.000000000000000000e+00,5.000000000000000000e+00,5.000000000000000000e+00,5.000000000000000000e+00,5.000000000000000000e+00,4.138057708740234375e+00,4.161286830902099609e+00,4.402272224426269531e+00,4.402187824249267578e+00,5.000000000000000000e+00,5.000000000000000000e+00,5.000000000000000000e+00,5.000000000000000000e+00,5.000000000000000000e+00,5.000000000000000000e+00,5.000000000000000000e+00,5.000000000000000000e+00,5.000000000000000000e+00,5.000000000000000000e+00,5.000000000000000000e+00,4.849778175354003906e+00,4.659863471984863281e+00,4.484261512756347656e+00,4.321413040161132812e+00,4.169978141784667969e+00,4.028797149658203125e+00,3.896863222122192383e+00,3.773296117782592773e+00,3.657325029373168945e+00,3.548269748687744141e+00,3.445529699325561523e+00,3.348571777343750000e+00,3.256922006607055664e+00,3.170154809951782227e+00,3.087891101837158203e+00,3.009788513183593750e+00,2.935539960861206055e+00,2.864865779876708984e+00,2.797514915466308594e+00,2.733258008956909180e+00,2.671886920928955078e+00,2.613211154937744141e+00,2.557056903839111328e+00,2.503265380859375000e+00,2.451690435409545898e+00,2.402197837829589844e+00,2.354663848876953125e+00,2.308974504470825195e+00,2.265024662017822266e+00,2.222716569900512695e+00,2.181959867477416992e+00,2.142671108245849609e+00,2.104772329330444336e+00,2.068190574645996094e+00,2.032858848571777344e+00,1.998714089393615723e+00,1.965697526931762695e+00,1.933753967285156250e+00,1.902831792831420898e+00,1.872883081436157227e+00,1.843862652778625488e+00
5.000000000000000000e+00,5.000000000000000000e+00,5.000000000000000000e+00,5.000000000000000000e+00,5.000000000000000000e+00,5.000000000000000000e+00,5.000000000000000000e+00,5.000000000000000000e+00,5.000000000000000000e+00,5.000000000000000000e+00,5.000000000000000000e+00,5.000000000000000000e+00,5.000000000000000000e+00,5.000000000000000000e+00,5.000000000000000000e+00,5.000000000000000000e+00,5.000000000000000000e+00,5.000000000000000000e+00,5.000000000000000000e+00,5.000000000000000000e+00,5.000000000000000000e+00,5.000000000000000000e+00,5.000000000000000000e+00,5.000000000000000000e+00,4.147863388061523438e+00,4.159379482269287109e+00,5.000000000000000000e+00,4.486397266387939453e+00,5.000000000000000000e+00,5.000000000000000000e+00,5.000000000000000000e+00,5.000000000000000000e+00,5.000000000000000000e+00,5.000000000000000000e+00,5.000000000000000000e+00,5.000000000000000000e+00,5.000000000000000000e+00,5.000000000000000000e+00,5.000000000000000000e+00,4.849915027618408203e+00,4.659989356994628906e+00,4.484378814697265625e+00,4.321522235870361328e+00,4.170079708099365234e+00,4.028892040252685547e+00,3.896951913833618164e+00,3.773379564285278320e+00,3.657403230667114258e+00,3.548343181610107422e+00,3.445599079132080078e+00,3.348637819290161133e+00,3.256983995437622070e+00,3.170213699340820312e+00,3.087946653366088867e+00,3.009841680526733398e+00,2.935590267181396484e+00,2.864913702011108398e+00,2.797560691833496094e+00,2.733301877975463867e+00,2.671928644180297852e+00,2.613250970840454102e+00,2.557095050811767578e+00,2.503302097320556641e+00,2.451725721359252930e+00,2.402231454849243164e+00,2.354696273803710938e+00,2.309005737304687500e+00,2.265054702758789062e+00,2.222745418548583984e+00,2.181987762451171875e+00,2.142698049545288086e+00,2.104798078536987305e+00,2.068215608596801758e+00,2.032883167266845703e+00,1.998737573623657227e+00,1.965720057487487793e+00,1.933775782585144043e+00,1.902852892875671387e+00,1.872903585433959961e+00,1.843882441520690918e+00
5.000000000000000000e+00,5.000000000000000000e+00,5.000000000000000000e+00,5.000000000000000000e+00,5.000000000000000000e+00,5.000000000000000000e+00,5.000000000000000000e+00,5.000000000000000000e+00,5.000000000000000000e+00,5.000000000000000000e+00,5.000000000000000000e+00,5.000000000000000000e+00,5.000000000000000000e+00,5.000000000000000000e+00,5.000000000000000000e+00,5.000000000000000000e+00,5.000000000000000000e+00,5.000000000000000000e+00,5.000000000000000000e+00,5.000000000000000000e+00,5.000000000000000000e+00,5.000000000000000000e+00,5.000000000000000000e+00,5.000000000000000000e+00,4.180636882781982422e+00,4.157942771911621094e+00,5.000000000000000000e+00,4.577756404876708984e+00,5.000000000000000000e+00,5.000000000000000000e+00,5.000000000000000000e+00,5.000000000000000000e+00,5.000000000000000000e+00,5.000000000000000000e+00,5.000000000000000000e+00,5.000000000000000000e+00,5.000000000000000000e+00,5.000000000000000000e+00,5.000000000000000000e+00,4.850052356719970703e+00,4.660115718841552734e+00,4.484495639801025391e+00,4.321631431579589844e+00,4.170181751251220703e+00,4.028987407684326172e+00,3.897041082382202148e+00,3.773462772369384766e+00,3.657481431961059570e+00,3.548417091369628906e+00,3.445668697357177734e+00,3.348703145980834961e+00,3.257045984268188477e+00,3.170272588729858398e+00,3.088002681732177734e+00,3.009894609451293945e+00,2.935640573501586914e+00,2.864962100982666016e+00,2.797606468200683594e+00,2.733345508575439453e+00,2.671970367431640625e+00,2.613291025161743164e+00,2.557133436203002930e+00,2.503338813781738281e+00,2.451760768890380859e+00,2.402265310287475586e+00,2.354728698730468750e+00,2.309036731719970703e+00,2.265084505081176758e+00,2.222774267196655273e+00,2.182015657424926758e+00,2.142724752426147461e+00,2.104824066162109375e+00,2.068240642547607422e+00,2.032907247543334961e+00,1.998760938644409180e+00,1.965742588043212891e+00,1.933797597885131836e+00,1.902874231338500977e+00,1.872924089431762695e+00,1.843902349472045898e+00
5.000000000000000000e+00,5.000000000000000000e+00,5.000000000000000000e+00,5.000000000000000000e+00,5.000000000000000000e+00,5.000000000000000000e+00,5.000000000000000000e+00,5.000000000000000000e+00,5.000000000000000000e+00,5.000000000000000000e+00,5.000000000000000000e+00,5.000000000000000000e+00,5.000000000000000000e+00,5.000000000000000000e+00,5.000000000000000000e+00,5.000000000000000000e+00,5.000000000000000000e+00,5.000000000000000000e+00,5.000000000000000000e+00,5.000000000000000000e+00,5.000000000000000000e+00,5.000000000000000000e+00,5.000000000000000000e+00,5.000000000000000000e+00,5.000000000000000000e+00,4.158510208129882812e+00,5.000000000000000000e+00,4.680099487304687500e+00,5.000000000000000000e+00,5.000000000000000000e+00,5.000000000000000000e+00,5.000000000000000000e+00,5.000000000000000000e+00,5.000000000000000000e+00,5.000000000000000000e+00,5.000000000000000000e+00,5.000000000000000000e+00,5.000000000000000000e+00,5.000000000000000000e+00,4.850189685821533203e+00,4.660242557525634766e+00,4.484612464904785156e+00,4.321739673614501953e+00,4.170283317565917969e+00,4.029082298278808594e+00,3.897129774093627930e+00,3.773545980453491211e+00,3.657559871673583984e+00,3.548490762710571289e+00,3.445738077163696289e+00,3.348768711090087891e+00,3.257108211517333984e+00,3.170331239700317383e+00,3.088058471679687500e+00,3.009947538375854492e+00,2.935691118240356445e+00,2.865010023117065430e+00,2.797652244567871094e+00,2.733389139175415039e+00,2.672012329101562500e+00,2.613331079483032227e+00,2.557171821594238281e+00,2.503375291824340820e+00,2.451796054840087891e+00,2.402299165725708008e+00,2.354761123657226562e+00,2.309067964553833008e+00,2.265114784240722656e+00,2.222803115844726562e+00,2.182043552398681641e+00,2.142751693725585938e+00,2.104850053787231445e+00,2.068265676498413086e+00,2.032931566238403320e+00,1.998784303665161133e+00,1.965765476226806641e+00,1.933819413185119629e+00,1.902895450592041016e+00,1.872944593429565430e+00,1.843922257423400879e+00
5.000000000000000000e+00,5.000000000000000000e+00,5.000000000000000000e+00,5.000000000000000000e+00,5.000000000000000000e+00,5.000000000000000000e+00,5.000000000000000000e+00,5.000000000000000000e+00,5.000000000000000000e+00,5.000000000000000000e+00,5.000000000000000000e+00,5.000000000000000000e+00,5.000000000000000000e+00,5.000000000000000000e+00,5.000000000000000000e+00,5.000000000000000000e+00,5.000000000000000000e+00,5.000000000000000000e+00,5.000000000000000000e+00,5.000000000000000000e+00,5.000000000000000000e+00,5.000000000000000000e+00,5.000000000000000000e+00,5.000000000000000000e+00,5.000000000000000000e+00,4.173680782318115234e+00,5.000000000000000000e+00,4.685014247894287109e+00,5.000000000000000000e+00,5.000000000000000000e+00,5.000000000000000000e+00,5.000000000000000000e+00,5.000000000000000000e+00,5.000000000000000000e+00,5.000000000000000000e+00,5.000000000000000000e+00,5.000000000000000000e+00,5.000000000000000000e+00,5.000000000000000000e+00,4.850326538085937500e+00,4.660368919372558594e+00,4.484729766845703125e+00,4.321848869323730469e+00,4.170385360717773438e+00,4.029177188873291016e+00,3.897218942642211914e+00,3.773629665374755859e+00,3.657638072967529297e+00,3.548564195632934570e+00,3.445807695388793945e+00,3.348834514617919922e+00,3.257170200347900391e+00,3.170390129089355469e+00,3.088114261627197266e+00,3.010000705718994141e+00,2.935741424560546875e+00,2.865057945251464844e+00,2.797698259353637695e+00,2.733433008193969727e+00,2.672054052352905273e+00,2.613370895385742188e+00,2.557210206985473633e+00,2.503412246704101562e+00,2.451831102371215820e+00,2.402332782745361328e+00,2.354793787002563477e+00,2.309099197387695312e+00,2.265144586563110352e+00,2.222831964492797852e+00,2.182071447372436523e+00,2.142778635025024414e+00,2.104875802993774414e+00,2.068290710449218750e+00,2.032955646514892578e+00,1.998807668685913086e+00,1.965788006782531738e+00,1.933841347694396973e+00,1.902916550636291504e+00,1.872965335845947266e+00,1.843942046165466309e+00
4.875738620758056641e+00,4.874528408050537109e+00,4.873318672180175781e+00,4.872109889984130859e+00,4.870901584625244141e+00,4.869693756103515625e+00,4.868486404418945312e+00,4.867280006408691406e+00,4.866074085235595703e+00,4.864868640899658203e+00,4.863663673400878906e+00,4.862459182739257812e+00,4.861255645751953125e+00,4.860053062438964844e+00,4.858850479125976562e+00,4.857648849487304688e+00,4.856447696685791016e+00,4.855247020721435547e+00,4.854046821594238281e+00,4.852847576141357422e+00,4.851648807525634766e+00,4.850450515747070312e+00,4.849253177642822266e+00,4.848055839538574219e+00,4.846859455108642578e+00,4.099892616271972656e+00,4.844468593597412109e+00,4.843273639678955078e+00,4.842079162597656250e+00,4.840885639190673828e+00,4.839693069458007812e+00,4.838500499725341797e+00,4.837308883666992188e+00,4.836117744445800781e+00,4.834927082061767578e+00,4.833736896514892578e+00,4.832547664642333984e+00,4.831358909606933594e+00,4.830170631408691406e+00,4.828982830047607422e+00,4.660495758056640625e+00,4.484847545623779297e+00,4.321957588195800781e+00,4.170485973358154297e+00,4.029272079467773438e+00,3.897307634353637695e+00,3.773712873458862305e+00,3.657716512680053711e+00,3.548638105392456055e+00,3.445877075195312500e+00,3.348900079727172852e+00,3.257232427597045898e+00,3.170449018478393555e+00,3.088170051574707031e+00,3.010053634643554688e+00,2.935791969299316406e+00,2.865106105804443359e+00,2.797744035720825195e+00,2.733476638793945312e+00,2.672095775604248047e+00,2.613410949707031250e+00,2.557248353958129883e+00,2.503448724746704102e+00,2.451866388320922852e+00,2.402366638183593750e+00,2.354826211929321289e+00,2.309130430221557617e+00,2.265174865722656250e+00,2.222861051559448242e+00,2.182099342346191406e+00,2.142805576324462891e+00,2.104901790618896484e+00,2.068315744400024414e+00,2.032979965209960938e+00,1.998830914497375488e+00,1.965810537338256836e+00,1.933863401412963867e+00,1.902937650680541992e+00,1.872985720634460449e+00,1.843962192535400391e+00
3.778597354888916016e+00,3.777870178222656250e+00,3.777143955230712891e+00,3.776417493820190430e+00,3.775691270828247070e+00,3.774965763092041016e+00,3.774240016937255859e+00,3.773514986038208008e+00,3.772789955139160156e+00,3.772065401077270508e+00,3.771340847015380859e+00,3.770617008209228516e+00,3.769893169403076172e+00,3.769169807434082031e+00,3.768446445465087891e+00,3.767723798751831055e+00,3.767000913619995117e+00,3.766278743743896484e+00,3.765556335449218750e+00,3.764834642410278320e+00,3.764112949371337891e+00,3.763391733169555664e+00,3.762670516967773438e+00,3.761950016021728516e+00,3.761229515075683594e+00,3.760509014129638672e+00,3.759789466857910156e+00,3.759069442749023438e+00,3.758350372314453125e+00,3.757631063461303711e+00,3.756912469863891602e+00,3.756193637847900391e+00,3.755475759506225586e+00,3.754757404327392578e+00,3.754040002822875977e+00,3.753322362899780273e+00,3.752605438232421875e+00,3.751888275146484375e+00,3.751171827316284180e+00,3.750455379486083984e+00,3.749739408493041992e+00,3.749023437500000000e+00,3.748307704925537109e+00,3.747592687606811523e+00,3.746877670288085938e+00,3.746163129806518555e+00,3.745448350906372070e+00,3.657794713973999023e+00,3.548711776733398438e+00,3.445946455001831055e+00,3.348965883255004883e+00,3.257294416427612305e+00,3.170507669448852539e+00,3.088225841522216797e+00,3.010106801986694336e+00,2.935842514038085938e+00,2.865154027938842773e+00,2.797789573669433594e+00,2.733520507812500000e+00,2.672137498855590820e+00,2.613450765609741211e+00,2.557286500930786133e+00,2.503485441207885742e+00,2.451901674270629883e+00,2.402400255203247070e+00,2.354858398437500000e+00,2.309161663055419922e+00,2.265204668045043945e+00,2.222889900207519531e+00,2.182126998901367188e+00,2.142832517623901367e+00,2.104927778244018555e+00,2.068340778350830078e+00,2.033004045486450195e+00,1.998854517936706543e+00,1.965833187103271484e+00,1.933885216712951660e+00,1.902958869934082031e+00,1.873006224632263184e+00,1.843981981277465820e+00
3.084517478942871094e+00,3.084033012390136719e+00,3.083548784255981445e+00,3.083064556121826172e+00,3.082580804824829102e+00,3.082097053527832031e+00,3.081613540649414062e+00,3.081130027770996094e+00,3.080646753311157227e+00,3.080163478851318359e+00,3.079680681228637695e+00,3.079197645187377930e+00,3.078715085983276367e+00,3.078232526779174805e+00,3.077750205993652344e+00,3.077267885208129883e+00,3.076785802841186523e+00,3.076303720474243164e+00,3.075821876525878906e+00,3.075340270996093750e+00,3.074858665466308594e+00,3.074377536773681641e+00,3.073896169662475586e+00,3.073415279388427734e+00,3.072934150695800781e+00,3.072453737258911133e+00,3.071972846984863281e+00,3.071492671966552734e+00,3.071012258529663086e+00,3.070532083511352539e+00,3.070052146911621094e+00,3.069572448730468750e+00,3.069092512130737305e+00,3.068613052368164062e+00,3.068133592605590820e+00,3.067654609680175781e+00,3.067175388336181641e+00,3.066696643829345703e+00,3.066217660903930664e+00,3.065738916397094727e+00,3.065260648727416992e+00,3.064782142639160156e+00,3.064304113388061523e+00,3.063825845718383789e+00,3.063348054885864258e+00,3.062870264053344727e+00,3.062392711639404297e+00,3.061915159225463867e+00,3.061438083648681641e+00,3.060960769653320312e+00,3.060483932495117188e+00,3.060006856918334961e+00,3.059530496597290039e+00,3.059053659439086914e+00,3.010159730911254883e+00,2.935892820358276367e+00,2.865202188491821289e+00,2.797835826873779297e+00,2.733564138412475586e+00,2.672179222106933594e+00,2.613491058349609375e+00,2.557324886322021484e+00,2.503522157669067383e+00,2.451936721801757812e+00,2.402434349060058594e+00,2.354891061782836914e+00,2.309192895889282227e+00,2.265234708786010742e+00,2.222918987274169922e+00,2.182155132293701172e+00,2.142859220504760742e+00,2.104953765869140625e+00,2.068365812301635742e+00,2.033028364181518555e+00,1.998877882957458496e+00,1.965855717658996582e+00,1.933907032012939453e+00,1.902980208396911621e+00,1.873026728630065918e+00,1.844001889228820801e+00
2.605855226516723633e+00,2.605509519577026367e+00,2.605163812637329102e+00,2.604818344116210938e+00,2.604472875595092773e+00,2.604127645492553711e+00,2.603782415390014648e+00,2.603437185287475586e+00,2.603091955184936523e+00,2.602747201919555664e+00,2.602402210235595703e+00,2.602057456970214844e+00,2.601712703704833984e+00,2.601368188858032227e+00,2.601023674011230469e+00,2.600679159164428711e+00,2.600334882736206055e+00,2.599990606307983398e+00,2.599646329879760742e+00,2.599302291870117188e+00,2.598958253860473633e+00,2.598614454269409180e+00,2.598270654678344727e+00,2.597926855087280273e+00,2.597583293914794922e+00,2.597239732742309570e+00,2.596896409988403320e+00,2.596553087234497070e+00,2.596209764480590820e+00,2.595866680145263672e+00,2.595523595809936523e+00,2.595180511474609375e+00,2.594837665557861328e+00,2.594494819641113281e+00,2.594152212142944336e+00,2.593809604644775391e+00,2.593466997146606445e+00,2.593124628067016602e+00,2.592782258987426758e+00,2.592440128326416016e+00,2.592097759246826172e+00,2.591755867004394531e+00,2.591413736343383789e+00,2.591072082519531250e+00,2.590730190277099609e+00,2.590388536453247070e+00,2.590046882629394531e+00,2.589705467224121094e+00,2.589363813400268555e+00,2.589022636413574219e+00,2.588681221008300781e+00,2.588340044021606445e+00,2.587999105453491211e+00,2.587657928466796875e+00,2.587316989898681641e+00,2.586976289749145508e+00,2.586635589599609375e+00,2.586294889450073242e+00,2.585954427719116211e+00,2.585613965988159180e+00,2.585273742675781250e+00,2.557363033294677734e+00,2.503558874130249023e+00,2.451972007751464844e+00,2.402467966079711914e+00,2.354923486709594727e+00,2.309224128723144531e+00,2.265264987945556641e+00,2.222947835922241211e+00,2.182182788848876953e+00,2.142886161804199219e+00,2.104979753494262695e+00,2.068390846252441406e+00,2.033052444458007812e+00,1.998901247978210449e+00,1.965878605842590332e+00,1.933928847312927246e+00,1.903001427650451660e+00,1.873047471046447754e+00,1.844021677970886230e+00
2.255793094635009766e+00,2.255534172058105469e+00,2.255275487899780273e+00,2.255016565322875977e+00,2.254757642745971680e+00,2.254498958587646484e+00,2.254240512847900391e+00,2.253981828689575195e+00,2.253723144531250000e+00,2.253464698791503906e+00,2.253206491470336914e+00,2.252948045730590820e+00,2.252689599990844727e+00,2.252431631088256836e+00,2.252173423767089844e+00,2.251915216445922852e+00,2.251657009124755859e+00,2.251399278640747070e+00,2.251141309738159180e+00,2.250883340835571289e+00,2.250625610351562500e+00,2.250367879867553711e+00,2.250110149383544922e+00,2.249852418899536133e+00,2.249594449996948242e+00,2.249336957931518555e+00,2.249079227447509766e+00,2.248821973800659180e+00,2.248564243316650391e+00,2.248306751251220703e+00,2.248049497604370117e+00,2.247792243957519531e+00,2.247534990310668945e+00,2.247277736663818359e+00,2.247020721435546875e+00,2.246763706207275391e+00,2.246506690979003906e+00,2.246249675750732422e+00,2.245992898941040039e+00,2.245736122131347656e+00,2.245479345321655273e+00,2.245222568511962891e+00,2.244966030120849609e+00,2.244709253311157227e+00,2.244452714920043945e+00,2.244196176528930664e+00,2.243939876556396484e+00,2.243683576583862305e+00,2.243427038192749023e+00,2.243170976638793945e+00,2.242914676666259766e+00,2.242658615112304688e+00,2.242402553558349609e+00,2.242146730422973633e+00,2.241890668869018555e+00,2.241634845733642578e+00,2.241378784179687500e+00,2.241123199462890625e+00,2.240867376327514648e+00,2.240611791610717773e+00,2.240356206893920898e+00,2.240100622177124023e+00,2.239845037460327148e+00,2.239589691162109375e+00,2.239334344863891602e+00,2.239078998565673828e+00,2.238823890686035156e+00,2.238568544387817383e+00,2.222976684570312500e+00,2.182210922241210938e+00,2.142913103103637695e+00,2.105005502700805664e+00,2.068415880203247070e+00,2.033076763153076172e+00,1.998924612998962402e+00,1.965901136398315430e+00,1.933950781822204590e+00,1.903022527694702148e+00,1.873067975044250488e+00,1.844041585922241211e+00
1.988639831542968750e+00,1.988438606262207031e+00,1.988237261772155762e+00,1.988036155700683594e+00,1.987834930419921875e+00,1.987633824348449707e+00,1.987432718276977539e+00,1.987231969833374023e+00,1.987030982971191406e+00,1.986829996109008789e+00,1.986629128456115723e+00,1.986428260803222656e+00,1.986227393150329590e+00,1.986026644706726074e+00,1.985826134681701660e+00,1.985625386238098145e+00,1.985424757003784180e+00,1.985224127769470215e+00,1.985023498535156250e+00,1.984822988510131836e+00,1.984622478485107422e+00,1.984422206878662109e+00,1.984221816062927246e+00,1.984021425247192383e+00,1.983821034431457520e+00,1.983620762825012207e+00,1.983420491218566895e+00,1.983220219612121582e+00,1.983020067214965820e+00,1.982820153236389160e+00,1.982620000839233398e+00,1.982419967651367188e+00,1.982219934463500977e+00,1.982020020484924316e+00,1.981819987297058105e+00,1.981620073318481445e+00,1.981420516967773438e+00,1.981220722198486328e+00,1.981020927429199219e+00,1.980821132659912109e+00,1.980621457099914551e+00,1.980421781539916992e+00,1.980222105979919434e+00,1.980022788047790527e+00,1.979823231697082520e+00,1.979623794555664062e+00,1.979424238204956055e+00,1.979224801063537598e+00,1.979025483131408691e+00,1.978826165199279785e+00,1.978627085685729980e+00,1.978427767753601074e+00,1.978228569030761719e+00,1.978029370307922363e+00,1.977830290794372559e+00,1.977631092071533203e+00,1.977432131767272949e+00,1.977233052253723145e+00,1.977034330368041992e+00,1.976835370063781738e+00,1.976636409759521484e+00,1.976437568664550781e+00,1.976238727569580078e+00,1.976040005683898926e+00,1.975841283798217773e+00,1.975642800331115723e+00,1.975444078445434570e+00,1.975245475769042969e+00,1.975046873092651367e+00,1.974848389625549316e+00,1.974649906158447266e+00,1.974451422691345215e+00,1.974253177642822266e+00,1.974054813385009766e+00,1.973856449127197266e+00,1.965923666954040527e+00,1.933972835540771484e+00,1.903043746948242188e+00,1.873088479042053223e+00,1.844061613082885742e+00
1.778063774108886719e+00,1.777902841567993164e+00,1.777742028236389160e+00,1.777581095695495605e+00,1.777420520782470703e+00,1.777259707450866699e+00,1.777098894119262695e+00,1.776938199996948242e+00,1.776777505874633789e+00,1.776616811752319336e+00,1.776456117630004883e+00,1.776295781135559082e+00,1.776135087013244629e+00,1.775974512100219727e+00,1.775814056396484375e+00,1.775653481483459473e+00,1.775493025779724121e+00,1.775332570075988770e+00,1.775172233581542969e+00,1.775012016296386719e+00,1.774851679801940918e+00,1.774691343307495117e+00,1.774531006813049316e+00,1.774370670318603516e+00,1.774210453033447266e+00,1.774050235748291016e+00,1.773890256881713867e+00,1.773730039596557617e+00,1.773569941520690918e+00,1.773409843444824219e+00,1.773249745368957520e+00,1.773089766502380371e+00,1.772929668426513672e+00,1.772769927978515625e+00,1.772609949111938477e+00,1.772449970245361328e+00,1.772290110588073730e+00,1.772130250930786133e+00,1.771970391273498535e+00,1.771810531616210938e+00,1.771651029586791992e+00,1.771491289138793945e+00,1.771331548690795898e+00,1.771171808242797852e+00,1.771012187004089355e+00,1.770852446556091309e+00,1.770692825317382812e+00,1.770533323287963867e+00,1.770373940467834473e+00,1.770214438438415527e+00,1.770054936408996582e+00,1.769895434379577637e+00,1.769735932350158691e+00,1.769576549530029297e+00,1.769417166709899902e+00,1.769258022308349609e+00,1.769098758697509766e+00,1.768939375877380371e+00,1.768780112266540527e+00,1.768620848655700684e+00,1.768461704254150391e+00,1.768302559852600098e+00,1.768143534660339355e+00,1.767984390258789062e+00,1.767825365066528320e+00,1.767666220664978027e+00,1.767507195472717285e+00,1.767348170280456543e+00,1.767189264297485352e+00,1.767030477523803711e+00,1.766871571540832520e+00,1.766712665557861328e+00,1.766553759574890137e+00,1.766394972801208496e+00,1.766236186027526855e+00,1.766077399253845215e+00,1.765918612480163574e+00,1.765760064125061035e+00,1.765601396560668945e+00,1.765442728996276855e+00
1.607813239097595215e+00,1.607681870460510254e+00,1.607550263404846191e+00,1.607418775558471680e+00,1.607287287712097168e+00,1.607155799865722656e+00,1.607024312019348145e+00,1.606892824172973633e+00,1.606761455535888672e+00,1.606630206108093262e+00,1.606498837471008301e+00,1.606367468833923340e+00,1.606236100196838379e+00,1.606104731559753418e+00,1.605973482131958008e+00,1.605842232704162598e+00,1.605711102485656738e+00,1.605579853057861328e+00,1.605448603630065918e+00,1.605317473411560059e+00,1.605186343193054199e+00,1.605055093765258789e+00,1.604924082756042480e+00,1.604793071746826172e+00,1.604662060737609863e+00,1.604530930519104004e+00,1.604399919509887695e+00,1.604268908500671387e+00,1.604137897491455078e+00,1.604006886482238770e+00,1.603876113891601562e+00,1.603745222091674805e+00,1.603614330291748047e+00,1.603483438491821289e+00,1.603352546691894531e+00,1.603221654891967773e+00,1.603090882301330566e+00,1.602959990501403809e+00,1.602829456329345703e+00,1.602698683738708496e+00,1.602567911148071289e+00,1.602437257766723633e+00,1.602306485176086426e+00,1.602175831794738770e+00,1.602045178413391113e+00,1.601914644241333008e+00,1.601784110069274902e+00,1.601653456687927246e+00,1.601522922515869141e+00,1.601392388343811035e+00,1.601261854171752930e+00,1.601131319999694824e+00,1.601001024246215820e+00,1.600870609283447266e+00,1.600740075111389160e+00,1.600609660148620605e+00,1.600479364395141602e+00,1.600348949432373047e+00,1.600218534469604492e+00,1.600088357925415039e+00,1.599958062171936035e+00,1.599827766418457031e+00,1.599697470664978027e+00,1.599567174911499023e+00,1.599436998367309570e+00,1.599306821823120117e+00,1.599176645278930664e+00,1.599046587944030762e+00,1.598916411399841309e+00,1.598786354064941406e+00,1.598656296730041504e+00,1.598526120185852051e+00,1.598396062850952148e+00,1.598266124725341797e+00,1.598136186599731445e+00,1.598006248474121094e+00,1.597876191139221191e+00,1.597746253013610840e+00,1.597616314888000488e+00,1.597486376762390137e+00
1.467316985130310059e+00,1.467207431793212891e+00,1.467097878456115723e+00,1.466988325119018555e+00,1.466878771781921387e+00,1.466769218444824219e+00,1.466659903526306152e+00,1.466550350189208984e+00,1.466440916061401367e+00,1.466331481933593750e+00,1.466222047805786133e+00,1.466112613677978516e+00,1.466003179550170898e+00,1.465893983840942383e+00,1.465784549713134766e+00,1.465675234794616699e+00,1.465565800666809082e+00,1.465456485748291016e+00,1.465347170829772949e+00,1.465237975120544434e+00,1.465128779411315918e+00,1.465019464492797852e+00,1.464910268783569336e+00,1.464801073074340820e+00,1.464691877365112305e+00,1.464582681655883789e+00,1.464473485946655273e+00,1.464364290237426758e+00,1.464255332946777344e+00,1.464146137237548828e+00,1.464037060737609863e+00,1.463927984237670898e+00,1.463818907737731934e+00,1.463709831237792969e+00,1.463600754737854004e+00,1.463491797447204590e+00,1.463382840156555176e+00,1.463273882865905762e+00,1.463164806365966797e+00,1.463055849075317383e+00,1.462946891784667969e+00,1.462838053703308105e+00,1.462729215621948242e+00,1.462620258331298828e+00,1.462511420249938965e+00,1.462402582168579102e+00,1.462293744087219238e+00,1.462184906005859375e+00,1.462076067924499512e+00,1.461967349052429199e+00,1.461858630180358887e+00,1.461749792098999023e+00,1.461641073226928711e+00,1.461532354354858398e+00,1.461423635482788086e+00,1.461314916610717773e+00,1.461206197738647461e+00,1.461097717285156250e+00,1.460988998413085938e+00,1.460880398750305176e+00,1.460771799087524414e+00,1.460663199424743652e+00,1.460554599761962891e+00,1.460446000099182129e+00,1.460337519645690918e+00,1.460229039192199707e+00,1.460120439529418945e+00,1.460011959075927734e+00,1.459903478622436523e+00,1.459794998168945312e+00,1.459686517715454102e+00,1.459578156471252441e+00,1.459469795227050781e+00,1.459361314773559570e+00,1.459252953529357910e+00,1.459144592285156250e+00,1.459036231040954590e+00,1.458927869796752930e+00,1.458819627761840820e+00,1.458711266517639160e+00
1.349401473999023438e+00,1.349308848381042480e+00,1.349216222763061523e+00,1.349123597145080566e+00,1.349030971527099609e+00,1.348938345909118652e+00,1.348845720291137695e+00,1.348753094673156738e+00,1.348660588264465332e+00,1.348567962646484375e+00,1.348475456237792969e+00,1.348382949829101562e+00,1.348290443420410156e+00,1.348197937011718750e+00,1.348105430603027344e+00,1.348012924194335938e+00,1.347920417785644531e+00,1.347827911376953125e+00,1.347735524177551270e+00,1.347643136978149414e+00,1.347550630569458008e+00,1.347458243370056152e+00,1.347365856170654297e+00,1.347273468971252441e+00,1.347181081771850586e+00,1.347088813781738281e+00,1.346996426582336426e+00,1.346904039382934570e+00,1.346811771392822266e+00,1.346719384193420410e+00,1.346627116203308105e+00,1.346534848213195801e+00,1.346442580223083496e+00,1.346350312232971191e+00,1.346258044242858887e+00,1.346165895462036133e+00,1.346073627471923828e+00,1.345981359481811523e+00,1.345889210700988770e+00,1.345797061920166016e+00,1.345704913139343262e+00,1.345612764358520508e+00,1.345520615577697754e+00,1.345428466796875000e+00,1.345336318016052246e+00,1.345244169235229492e+00,1.345152020454406738e+00,1.345060110092163086e+00,1.344967961311340332e+00,1.344875931739807129e+00,1.344783782958984375e+00,1.344691753387451172e+00,1.344599723815917969e+00,1.344507694244384766e+00,1.344415783882141113e+00,1.344323873519897461e+00,1.344231843948364258e+00,1.344139814376831055e+00,1.344047904014587402e+00,1.343955993652343750e+00,1.343863964080810547e+00,1.343772172927856445e+00,1.343680262565612793e+00,1.343588352203369141e+00,1.343496561050415039e+00,1.343404650688171387e+00,1.343312740325927734e+00,1.343220949172973633e+00,1.343129158020019531e+00,1.343037366867065430e+00,1.342945575714111328e+00,1.342853784561157227e+00,1.342761993408203125e+00,1.342670202255249023e+00,1.342578411102294922e+00,1.342486739158630371e+00,1.342395067214965820e+00,1.342303395271301270e+00,1.342211604118347168e+00,1.342119932174682617e+00
1.249028086662292480e+00,1.248948693275451660e+00,1.248869299888610840e+00,1.248789906501770020e+00,1.248710632324218750e+00,1.248631238937377930e+00,1.248551845550537109e+00,1.248472571372985840e+00,1.248393297195434570e+00,1.248314023017883301e+00,1.248234629631042480e+00,1.248155355453491211e+00,1.248076081275939941e+00,1.247996807098388672e+00,1.247917532920837402e+00,1.247838258743286133e+00,1.247759103775024414e+00,1.247679829597473145e+00,1.247600555419921875e+00,1.247521400451660156e+00,1.247442126274108887e+00,1.247362971305847168e+00,1.247283816337585449e+00,1.247204661369323730e+00,1.247125506401062012e+00,1.247046351432800293e+00,1.246967196464538574e+00,1.246888041496276855e+00,1.246808886528015137e+00,1.246729850769042969e+00,1.246650695800781250e+00,1.246571660041809082e+00,1.246492505073547363e+00,1.246413469314575195e+00,1.246334314346313477e+00,1.246255278587341309e+00,1.246176242828369141e+00,1.246097326278686523e+00,1.246018290519714355e+00,1.245939254760742188e+00,1.245860219001770020e+00,1.245781183242797852e+00,1.245702266693115234e+00,1.245623230934143066e+00,1.245544314384460449e+00,1.245465397834777832e+00,1.245386481285095215e+00,1.245307445526123047e+00,1.245228528976440430e+00,1.245149612426757812e+00,1.245070695877075195e+00,1.244991898536682129e+00,1.244912981986999512e+00,1.244834184646606445e+00,1.244755268096923828e+00,1.244676351547241211e+00,1.244597554206848145e+00,1.244518637657165527e+00,1.244439840316772461e+00,1.244361162185668945e+00,1.244282364845275879e+00,1.244203567504882812e+00,1.244124770164489746e+00,1.244045972824096680e+00,1.243967175483703613e+00,1.243888378143310547e+00,1.243809700012207031e+00,1.243731021881103516e+00,1.243652224540710449e+00,1.243573546409606934e+00,1.243494868278503418e+00,1.243416070938110352e+00,1.243337392807006836e+00,1.243258833885192871e+00,1.243180155754089355e+00,1.243101477622985840e+00,1.243022799491882324e+00,1.242944240570068359e+00,1.242865562438964844e+00,1.242787003517150879e+00
1.162553191184997559e+00,1.162484407424926758e+00,1.162415623664855957e+00,1.162346839904785156e+00,1.162278056144714355e+00,1.162209391593933105e+00,1.162140607833862305e+00,1.162071824073791504e+00,1.162003159523010254e+00,1.161934375762939453e+00,1.161865711212158203e+00,1.161797046661376953e+00,1.161728382110595703e+00,1.161659717559814453e+00,1.161590933799743652e+00,1.161522269248962402e+00,1.161453604698181152e+00,1.161384940147399902e+00,1.161316275596618652e+00,1.161247730255126953e+00,1.161179065704345703e+00,1.161110520362854004e+00,1.161041855812072754e+00,1.160973191261291504e+00,1.160904645919799805e+00,1.160836100578308105e+00,1.160767436027526855e+00,1.160699009895324707e+00,1.160630345344543457e+00,1.160561800003051758e+00,1.160493254661560059e+00,1.160424709320068359e+00,1.160356163978576660e+00,1.160287618637084961e+00,1.160219192504882812e+00,1.160150647163391113e+00,1.160082221031188965e+00,1.160013675689697266e+00,1.159945130348205566e+00,1.159876704216003418e+00,1.159808158874511719e+00,1.159739851951599121e+00,1.159671306610107422e+00,1.159602880477905273e+00,1.159534454345703125e+00,1.159466028213500977e+00,1.159397602081298828e+00,1.159329175949096680e+00,1.159260749816894531e+00,1.159192442893981934e+00,1.159124016761779785e+00,1.159055590629577637e+00,1.158987283706665039e+00,1.158918857574462891e+00,1.158850550651550293e+00,1.158782124519348145e+00,1.158713936805725098e+00,1.158645510673522949e+00,1.158577203750610352e+00,1.158508896827697754e+00,1.158440589904785156e+00,1.158372282981872559e+00,1.158303976058959961e+00,1.158235788345336914e+00,1.158167481422424316e+00,1.158099293708801270e+00,1.158030986785888672e+00,1.157962679862976074e+00,1.157894492149353027e+00,1.157826304435729980e+00,1.157758116722106934e+00,1.157689809799194336e+00,1.157621622085571289e+00,1.157553434371948242e+00,1.157485246658325195e+00,1.157417058944702148e+00,1.157348871231079102e+00,1.157280683517456055e+00,1.157212615013122559e+00,1.157144427299499512e+00
1.087276816368103027e+00,1.087216615676879883e+00,1.087156534194946289e+00,1.087096333503723145e+00,1.087036252021789551e+00,1.086976051330566406e+00,1.086915969848632812e+00,1.086855769157409668e+00,1.086795687675476074e+00,1.086735606193542480e+00,1.086675524711608887e+00,1.086615443229675293e+00,1.086555361747741699e+00,1.086495280265808105e+00,1.086435198783874512e+00,1.086375117301940918e+00,1.086315035820007324e+00,1.086254954338073730e+00,1.086194992065429688e+00,1.086134910583496094e+00,1.086074829101562500e+00,1.086014866828918457e+00,1.085954785346984863e+00,1.085894703865051270e+00,1.085834860801696777e+00,1.085774779319763184e+00,1.085714817047119141e+00,1.085654735565185547e+00,1.085594773292541504e+00,1.085534811019897461e+00,1.085474848747253418e+00,1.085414886474609375e+00,1.085354924201965332e+00,1.085294961929321289e+00,1.085235118865966797e+00,1.085175156593322754e+00,1.085115194320678711e+00,1.085055232048034668e+00,1.084995269775390625e+00,1.084935426712036133e+00,1.084875583648681641e+00,1.084815621376037598e+00,1.084755778312683105e+00,1.084695816040039062e+00,1.084635972976684570e+00,1.084576129913330078e+00,1.084516286849975586e+00,1.084456443786621094e+00,1.084396600723266602e+00,1.084336638450622559e+00,1.084276795387268066e+00,1.084216952323913574e+00,1.084157228469848633e+00,1.084097385406494141e+00,1.084037661552429199e+00,1.083977818489074707e+00,1.083917975425720215e+00,1.083858132362365723e+00,1.083798408508300781e+00,1.083738565444946289e+00,1.083678841590881348e+00,1.083619117736816406e+00,1.083559393882751465e+00,1.083499550819396973e+00,1.083439826965332031e+00,1.083380103111267090e+00,1.083320379257202148e+00,1.083260655403137207e+00,1.083200931549072266e+00,1.083141207695007324e+00,1.083081483840942383e+00,1.083021759986877441e+00,1.082962155342102051e+00,1.082902431488037109e+00,1.082842707633972168e+00,1.082783102989196777e+00,1.082723379135131836e+00,1.082663774490356445e+00,1.082604050636291504e+00,1.082544445991516113e+00
1.021156072616577148e+00,1.021103024482727051e+00,1.021049976348876953e+00,1.020996928215026855e+00,1.020943880081176758e+00,1.020890831947326660e+00,1.020837783813476562e+00,1.020784735679626465e+00,1.020731687545776367e+00,1.020678639411926270e+00,1.020625710487365723e+00,1.020572662353515625e+00,1.020519614219665527e+00,1.020466566085815430e+00,1.020413637161254883e+00,1.020360708236694336e+00,1.020307660102844238e+00,1.020254731178283691e+00,1.020201683044433594e+00,1.020148754119873047e+00,1.020095705986022949e+00,1.020042896270751953e+00,1.019989848136901855e+00,1.019936919212341309e+00,1.019883990287780762e+00,1.019831061363220215e+00,1.019778132438659668e+00,1.019725203514099121e+00,1.019672274589538574e+00,1.019619345664978027e+00,1.019566535949707031e+00,1.019513607025146484e+00,1.019460678100585938e+00,1.019407749176025391e+00,1.019354820251464844e+00,1.019302010536193848e+00,1.019249200820922852e+00,1.019196271896362305e+00,1.019143462181091309e+00,1.019090533256530762e+00,1.019037723541259766e+00,1.018984794616699219e+00,1.018931984901428223e+00,1.018879175186157227e+00,1.018826365470886230e+00,1.018773555755615234e+00,1.018720746040344238e+00,1.018667817115783691e+00,1.018615007400512695e+00,1.018562197685241699e+00,1.018509507179260254e+00,1.018456697463989258e+00,1.018403887748718262e+00,1.018351078033447266e+00,1.018298268318176270e+00,1.018245577812194824e+00,1.018192768096923828e+00,1.018139958381652832e+00,1.018087267875671387e+00,1.018034577369689941e+00,1.017981767654418945e+00,1.017929077148437500e+00,1.017876267433166504e+00,1.017823576927185059e+00,1.017770886421203613e+00,1.017718195915222168e+00,1.017665505409240723e+00,1.017612695693969727e+00,1.017560005187988281e+00,1.017507314682006836e+00,1.017454624176025391e+00,1.017401933670043945e+00,1.017349362373352051e+00,1.017296671867370605e+00,1.017243981361389160e+00,1.017191290855407715e+00,1.017138600349426270e+00,1.017085909843444824e+00,1.017033338546752930e+00,1.016980767250061035e+00
9.626164436340332031e-01,9.625692367553710938e-01,9.625220894813537598e-01,9.624749422073364258e-01,9.624277949333190918e-01,9.623806476593017578e-01,9.623335003852844238e-01,9.622863531112670898e-01,9.622392058372497559e-01,9.621920585632324219e-01,9.621449708938598633e-01,9.620979428291320801e-01,9.620508551597595215e-01,9.620037078857421875e-01,9.619566202163696289e-01,9.619095325469970703e-01,9.618624448776245117e-01,9.618153572082519531e-01,9.617682695388793945e-01,9.617211818695068359e-01,9.616740942001342773e-01,9.616270065307617188e-01,9.615799784660339355e-01,9.615328907966613770e-01,9.614858627319335938e-01,9.614387750625610352e-01,9.613918662071228027e-01,9.613447785377502441e-01,9.612977504730224609e-01,9.612507224082946777e-01,9.612036943435668945e-01,9.611566662788391113e-01,9.611096382141113281e-01,9.610626101493835449e-01,9.610155820846557617e-01,9.609686136245727539e-01,9.609215855598449707e-01,9.608746170997619629e-01,9.608275890350341797e-01,9.607806205749511719e-01,9.607337117195129395e-01,9.606867432594299316e-01,9.606397747993469238e-01,9.605928063392639160e-01,9.605458378791809082e-01,9.604988694190979004e-01,9.604519009590148926e-01,9.604049921035766602e-01,9.603580236434936523e-01,9.603110551834106445e-01,9.602641463279724121e-01,9.602171778678894043e-01,9.601702690124511719e-01,9.601233601570129395e-01,9.600763916969299316e-01,9.600296020507812500e-01,9.599826931953430176e-01,9.599357843399047852e-01,9.598888754844665527e-01,9.598419666290283203e-01,9.597951173782348633e-01,9.597482085227966309e-01,9.597012996673583984e-01,9.596544504165649414e-01,9.596075415611267090e-01,9.595606923103332520e-01,9.595138430595397949e-01,9.594669938087463379e-01,9.594200849533081055e-01,9.593733549118041992e-01,9.593265056610107422e-01,9.592796564102172852e-01,9.592328071594238281e-01,9.591860175132751465e-01,9.591391682624816895e-01,9.590923190116882324e-01,9.590455293655395508e-01,9.589986801147460938e-01,9.589518904685974121e-01,9.589051008224487305e-01
9.104245305061340332e-01,9.103823304176330566e-01,9.103401899337768555e-01,9.102979898452758789e-01,9.102557897567749023e-01,9.102136492729187012e-01,9.101714491844177246e-01,9.101293087005615234e-01,9.100871086120605469e-01,9.100450873374938965e-01,9.100029468536376953e-01,9.099607467651367188e-01,9.099186062812805176e-01,9.098764657974243164e-01,9.098343253135681152e-01,9.097921848297119141e-01,9.097500443458557129e-01,9.097079634666442871e-01,9.096658229827880859e-01,9.096236824989318848e-01,9.095816016197204590e-01,9.095394611358642578e-01,9.094973802566528320e-01,9.094553589820861816e-01,9.094132781028747559e-01,9.093711376190185547e-01,9.093290567398071289e-01,9.092869758605957031e-01,9.092448949813842773e-01,9.092028141021728516e-01,9.091607332229614258e-01,9.091186523437500000e-01,9.090766310691833496e-01,9.090345501899719238e-01,9.089924693107604980e-01,9.089504480361938477e-01,9.089083671569824219e-01,9.088663458824157715e-01,9.088243842124938965e-01,9.087823033332824707e-01,9.087402820587158203e-01,9.086982607841491699e-01,9.086562395095825195e-01,9.086142182350158691e-01,9.085721969604492188e-01,9.085301756858825684e-01,9.084881544113159180e-01,9.084461331367492676e-01,9.084041118621826172e-01,9.083621501922607422e-01,9.083201289176940918e-01,9.082781672477722168e-01,9.082362651824951172e-01,9.081942439079284668e-01,9.081522822380065918e-01,9.081103205680847168e-01,9.080682992935180664e-01,9.080263376235961914e-01,9.079843759536743164e-01,9.079424142837524414e-01,9.079004526138305664e-01,9.078584909439086914e-01,9.078165888786315918e-01,9.077746272087097168e-01,9.077326655387878418e-01,9.076907038688659668e-01,9.076488018035888672e-01,9.076069593429565430e-01,9.075649976730346680e-01,9.075230956077575684e-01,9.074811935424804688e-01,9.074392318725585938e-01,9.073973298072814941e-01,9.073554277420043945e-01,9.073135256767272949e-01,9.072716236114501953e-01,9.072297215461730957e-01,9.071878194808959961e-01,9.071459770202636719e-01,9.071040749549865723e-01
8.636011481285095215e-01,8.635631799697875977e-01,8.635252118110656738e-01,8.634873032569885254e-01,8.634493350982666016e-01,8.634113669395446777e-01,8.633735179901123047e-01,8.633356094360351562e-01,8.632976412773132324e-01,8.632597327232360840e-01,8.632217645645141602e-01,8.631838560104370117e-01,8.631459474563598633e-01,8.631079792976379395e-01,8.630700707435607910e-01,8.630321621894836426e-01,8.629942536354064941e-01,8.629563450813293457e-01,8.629184365272521973e-01,8.628805279731750488e-01,8.628427386283874512e-01,8.628048300743103027e-01,8.627669215202331543e-01,8.627290725708007812e-01,8.626911640167236328e-01,8.626533150672912598e-01,8.626154065132141113e-01,8.625775575637817383e-01,8.625396490097045898e-01,8.625018000602722168e-01,8.624639511108398438e-01,8.624261021614074707e-01,8.623881936073303223e-01,8.623503446578979492e-01,8.623124957084655762e-01,8.622747659683227539e-01,8.622369170188903809e-01,8.621990680694580078e-01,8.621612191200256348e-01,8.621233701705932617e-01,8.620855808258056641e-01,8.620477318763732910e-01,8.620098829269409180e-01,8.619720935821533203e-01,8.619342446327209473e-01,8.618964552879333496e-01,8.618586063385009766e-01,8.618208169937133789e-01,8.617830276489257812e-01,8.617452979087829590e-01,8.617075085639953613e-01,8.616697192192077637e-01,8.616319298744201660e-01,8.615941405296325684e-01,8.615563511848449707e-01,8.615185618400573730e-01,8.614807724952697754e-01,8.614429831504821777e-01,8.614052534103393555e-01,8.613674640655517578e-01,8.613296747207641602e-01,8.612919449806213379e-01,8.612541556358337402e-01,8.612164258956909180e-01,8.611787557601928711e-01,8.611410260200500488e-01,8.611032366752624512e-01,8.610655069351196289e-01,8.610277771949768066e-01,8.609900474548339844e-01,8.609523177146911621e-01,8.609145879745483398e-01,8.608768582344055176e-01,8.608391284942626953e-01,8.608013987541198730e-01,8.607637286186218262e-01,8.607259988784790039e-01,8.606882691383361816e-01,8.606506586074829102e-01,8.606129884719848633e-01
8.213584423065185547e-01,8.213241100311279297e-01,8.212897777557373047e-01,8.212555646896362305e-01,8.212212324142456055e-01,8.211869001388549805e-01,8.211525678634643555e-01,8.211182355880737305e-01,8.210839033126831055e-01,8.210496306419372559e-01,8.210152983665466309e-01,8.209809660911560059e-01,8.209466934204101562e-01,8.209123611450195312e-01,8.208780884742736816e-01,8.208437561988830566e-01,8.208094835281372070e-01,8.207752108573913574e-01,8.207409977912902832e-01,8.207066655158996582e-01,8.206723928451538086e-01,8.206381201744079590e-01,8.206038475036621094e-01,8.205695748329162598e-01,8.205353021621704102e-01,8.205010294914245605e-01,8.204667568206787109e-01,8.204324841499328613e-01,8.203982710838317871e-01,8.203639984130859375e-01,8.203297257423400879e-01,8.202954530715942383e-01,8.202612996101379395e-01,8.202270865440368652e-01,8.201928138732910156e-01,8.201586008071899414e-01,8.201243281364440918e-01,8.200901150703430176e-01,8.200558423995971680e-01,8.200216293334960938e-01,8.199874162673950195e-01,8.199532032012939453e-01,8.199189901351928711e-01,8.198847770690917969e-01,8.198505640029907227e-01,8.198162913322448730e-01,8.197821378707885742e-01,8.197479844093322754e-01,8.197137713432312012e-01,8.196795582771301270e-01,8.196454048156738281e-01,8.196111917495727539e-01,8.195769786834716797e-01,8.195428252220153809e-01,8.195086121559143066e-01,8.194743990898132324e-01,8.194402456283569336e-01,8.194060921669006348e-01,8.193718791007995605e-01,8.193377256393432617e-01,8.193035721778869629e-01,8.192694783210754395e-01,8.192353248596191406e-01,8.192011117935180664e-01,8.191669583320617676e-01,8.191328048706054688e-01,8.190986514091491699e-01,8.190644979476928711e-01,8.190303444862365723e-01,8.189962506294250488e-01,8.189620971679687500e-01,8.189279437065124512e-01,8.188937902450561523e-01,8.188596963882446289e-01,8.188255429267883301e-01,8.187913894653320312e-01,8.187573552131652832e-01,8.187232613563537598e-01,8.186891078948974609e-01,8.186550140380859375e-01
7.830557227134704590e-01,7.830244898796081543e-01,7.829933166503906250e-01,7.829620838165283203e-01,7.829309105873107910e-01,7.828996777534484863e-01,7.828685045242309570e-01,7.828372716903686523e-01,7.828060984611511230e-01,7.827749252319335938e-01,7.827437520027160645e-01,7.827125191688537598e-01,7.826813459396362305e-01,7.826501727104187012e-01,7.826189994812011719e-01,7.825878858566284180e-01,7.825567126274108887e-01,7.825255393981933594e-01,7.824943661689758301e-01,7.824631929397583008e-01,7.824320197105407715e-01,7.824009060859680176e-01,7.823697328567504883e-01,7.823385596275329590e-01,7.823073863983154297e-01,7.822762727737426758e-01,7.822450995445251465e-01,7.822139859199523926e-01,7.821828126907348633e-01,7.821517586708068848e-01,7.821205854415893555e-01,7.820894718170166016e-01,7.820583581924438477e-01,7.820271849632263184e-01,7.819960713386535645e-01,7.819649577140808105e-01,7.819338440895080566e-01,7.819027304649353027e-01,7.818715572357177734e-01,7.818404436111450195e-01,7.818093299865722656e-01,7.817782163619995117e-01,7.817471623420715332e-01,7.817160487174987793e-01,7.816849946975708008e-01,7.816538810729980469e-01,7.816227674484252930e-01,7.815917134284973145e-01,7.815605998039245605e-01,7.815294861793518066e-01,7.814984321594238281e-01,7.814673185348510742e-01,7.814362645149230957e-01,7.814051508903503418e-01,7.813740968704223633e-01,7.813429832458496094e-01,7.813119292259216309e-01,7.812808752059936523e-01,7.812497615814208984e-01,7.812187671661376953e-01,7.811877131462097168e-01,7.811566591262817383e-01,7.811256051063537598e-01,7.810945510864257812e-01,7.810634970664978027e-01,7.810324430465698242e-01,7.810013890266418457e-01,7.809703350067138672e-01,7.809392809867858887e-01,7.809082865715026855e-01,7.808772325515747070e-01,7.808461785316467285e-01,7.808151245117187500e-01,7.807841897010803223e-01,7.807531356811523438e-01,7.807221412658691406e-01,7.806910872459411621e-01,7.806600928306579590e-01,7.806290388107299805e-01,7.805980443954467773e-01
