5.000000000000000000e+00,5.000000000000000000e+00,5.000000000000000000e+00,5.000000000000000000e+00,5.000000000000000000e+00,5.000000000000000000e+00,5.000000000000000000e+00,5.000000000000000000e+00,5.000000000000000000e+00,5.000000000000000000e+00,5.000000000000000000e+00,5.000000000000000000e+00,5.000000000000000000e+00,5.000000000000000000e+00,5.000000000000000000e+00,5.000000000000000000e+00,5.000000000000000000e+00,5.000000000000000000e+00,5.000000000000000000e+00,5.000000000000000000e+00,5.000000000000000000e+00,5.000000000000000000e+00,5.000000000000000000e+00,1.143322944641113281e+00,1.114890813827514648e+00,5.000000000000000000e+00,1.137765407562255859e+00,1.333142518997192383e+00,1.325247287750244141e+00,1.322870016098022461e+00,1.322140455245971680e+00,1.333253502845764160e+00,1.356375336647033691e+00,1.364506125450134277e+00,1.315159916877746582e+00,1.280427575111389160e+00,1.272771000862121582e+00,1.264908790588378906e+00,1.261283874511718750e+00,1.289329648017883301e+00,1.319364070892333984e+00,1.496201753616333008e+00,1.536351561546325684e+00,4.173086643218994141e+00,4.031661033630371094e+00,3.899507522583007812e+00,3.775742053985595703e+00,3.659591913223266602e+00,3.550374031066894531e+00,3.447486639022827148e+00,3.350394487380981445e+00,3.258621215820312500e+00,3.171741724014282227e+00,3.089374542236328125e+00,3.011176824569702148e+00,2.936840534210205078e+00,2.866085529327392578e+00,2.798660039901733398e+00,2.734333753585815430e+00,2.672898054122924805e+00,2.614162683486938477e+00,2.557953119277954102e+00,2.504109621047973633e+00,2.452486276626586914e+00,2.402948379516601562e+00,2.355372190475463867e+00,2.309643268585205078e+00,2.265656232833862305e+00,2.223313331604003906e+00,2.182524204254150391e+00,2.143204450607299805e+00,2.105276823043823242e+00,2.068667650222778320e+00,2.033310413360595703e+00,1.999141335487365723e+00,1.966101765632629395e+00,1.934136509895324707e+00,1.903193950653076172e+00,1.873225688934326172e+00,1.844186663627624512e+00
5.000000000000000000e+00,5.000000000000000000e+00,5.000000000000000000e+00,5.000000000000000000e+00,5.000000000000000000e+00,5.000000000000000000e+00,5.000000000000000000e+00,5.000000000000000000e+00,5.000000000000000000e+00,5.000000000000000000e+00,5.000000000000000000e+00,5.000000000000000000e+00,5.000000000000000000e+00,5.000000000000000000e+00,5.000000000000000000e+00,5.000000000000000000e+00,5.000000000000000000e+00,5.000000000000000000e+00,5.000000000000000000e+00,5.000000000000000000e+00,5.000000000000000000e+00,5.000000000000000000e+00,1.188322067260742188e+00,1.125683665275573730e+00,1.098677158355712891e+00,5.000000000000000000e+00,5.000000000000000000e+00,1.333003640174865723e+00,1.330305457115173340e+00,1.327662467956542969e+00,1.325276613235473633e+00,1.333740949630737305e+00,1.356373906135559082e+00,1.372249245643615723e+00,1.316072940826416016e+00,1.269105315208435059e+00,1.263039469718933105e+00,1.256458520889282227e+00,1.248795866966247559e+00,1.270676732063293457e+00,1.301726341247558594e+00,1.491887450218200684e+00,1.525503396987915039e+00,4.173189163208007812e+00,4.031756401062011719e+00,3.899596929550170898e+00,3.775825977325439453e+00,3.659670591354370117e+00,3.550448417663574219e+00,3.447556495666503906e+00,3.350460290908813477e+00,3.258683919906616211e+00,3.171800613403320312e+00,3.089430570602416992e+00,3.011229991912841797e+00,2.936891078948974609e+00,2.866133928298950195e+00,2.798705816268920898e+00,2.734377622604370117e+00,2.672940254211425781e+00,2.614202737808227539e+00,2.557991504669189453e+00,2.504146337509155273e+00,2.452521562576293945e+00,2.402982473373413086e+00,2.355404853820800781e+00,2.309674739837646484e+00,2.265686511993408203e+00,2.223342418670654297e+00,2.182552099227905273e+00,2.143231630325317383e+00,2.105302810668945312e+00,2.068692922592163086e+00,2.033334732055664062e+00,1.999164938926696777e+00,1.966124653816223145e+00,1.934158325195312500e+00,1.903215050697326660e+00,1.873246312141418457e+00,1.844206809997558594e+00
5.000000000000000000e+00,5.000000000000000000e+00,5.000000000000000000e+00,5.000000000000000000e+00,5.000000000000000000e+00,5.000000000000000000e+00,5.000000000000000000e+00,5.000000000000000000e+00,5.000000000000000000e+00,5.000000000000000000e+00,5.000000000000000000e+00,5.000000000000000000e+00,5.000000000000000000e+00,5.000000000000000000e+00,5.000000000000000000e+00,5.000000000000000000e+00,5.000000000000000000e+00,5.000000000000000000e+00,5.000000000000000000e+00,5.000000000000000000e+00,5.000000000000000000e+00,5.000000000000000000e+00,1.179664373397827148e+00,1.108316779136657715e+00,5.000000000000000000e+00,5.000000000000000000e+00,5.000000000000000000e+00,1.338194251060485840e+00,1.335451602935791016e+00,1.332743644714355469e+00,1.330086588859558105e+00,1.337320208549499512e+00,1.359237432479858398e+00,1.418735146522521973e+00,1.315784454345703125e+00,1.268767356872558594e+00,1.252021312713623047e+00,1.246117234230041504e+00,1.240268588066101074e+00,1.253715276718139648e+00,1.284554123878479004e+00,1.502491354942321777e+00,4.325014591217041016e+00,4.173291206359863281e+00,4.031851768493652344e+00,3.899686098098754883e+00,3.775909900665283203e+00,3.659749269485473633e+00,3.550522565841674805e+00,3.447626590728759766e+00,3.350526332855224609e+00,3.258746147155761719e+00,3.171859741210937500e+00,3.089486598968505859e+00,3.011283636093139648e+00,2.936941623687744141e+00,2.866182088851928711e+00,2.798752069473266602e+00,2.734421491622924805e+00,2.672982215881347656e+00,2.614243030548095703e+00,2.558029890060424805e+00,2.504183292388916016e+00,2.452556848526000977e+00,2.403016328811645508e+00,2.355437517166137695e+00,2.309705972671508789e+00,2.265716552734375000e+00,2.223371505737304688e+00,2.182580232620239258e+00,2.143258571624755859e+00,2.105328798294067383e+00,2.068717956542968750e+00,2.033359050750732422e+00,1.999188184738159180e+00,1.966147184371948242e+00,1.934180378913879395e+00,1.903236508369445801e+00,1.873267054557800293e+00,1.844226598739624023e+00
5.000000000000000000e+00,5.000000000000000000e+00,5.000000000000000000e+00,5.000000000000000000e+00,5.000000000000000000e+00,5.000000000000000000e+00,5.000000000000000000e+00,5.000000000000000000e+00,5.000000000000000000e+00,5.000000000000000000e+00,5.000000000000000000e+00,5.000000000000000000e+00,5.000000000000000000e+00,5.000000000000000000e+00,5.000000000000000000e+00,5.000000000000000000e+00,5.000000000000000000e+00,5.000000000000000000e+00,5.000000000000000000e+00,5.000000000000000000e+00,5.000000000000000000e+00,5.000000000000000000e+00,1.134336590766906738e+00,1.102651596069335938e+00,5.000000000000000000e+00,5.000000000000000000e+00,5.000000000000000000e+00,1.345462679862976074e+00,1.341879487037658691e+00,1.338815569877624512e+00,1.335765600204467773e+00,1.341953635215759277e+00,1.364929437637329102e+00,1.462002158164978027e+00,1.315485477447509766e+00,1.268443942070007324e+00,1.241193652153015137e+00,1.235612392425537109e+00,1.230290293693542480e+00,1.233437299728393555e+00,1.266911745071411133e+00,1.483817696571350098e+00,4.325124263763427734e+00,4.173393726348876953e+00,4.031947612762451172e+00,3.899775505065917969e+00,3.775993585586547852e+00,3.659828186035156250e+00,3.550596475601196289e+00,3.447696208953857422e+00,3.350592136383056641e+00,3.258808612823486328e+00,3.171919107437133789e+00,3.089542627334594727e+00,3.011336803436279297e+00,2.936992645263671875e+00,2.866230487823486328e+00,2.798798084259033203e+00,2.734465360641479492e+00,2.673024177551269531e+00,2.614283323287963867e+00,2.558068275451660156e+00,2.504220247268676758e+00,2.452592372894287109e+00,2.403050184249877930e+00,2.355470180511474609e+00,2.309737205505371094e+00,2.265746831893920898e+00,2.223400592803955078e+00,2.182608127593994141e+00,2.143285512924194336e+00,2.105355024337768555e+00,2.068743228912353516e+00,2.033383369445800781e+00,1.999211788177490234e+00,1.966169953346252441e+00,1.934202432632446289e+00,1.903257608413696289e+00,1.873287558555603027e+00,1.844246745109558105e+00
5.000000000000000000e+00,5.000000000000000000e+00,5.000000000000000000e+00,5.000000000000000000e+00,5.000000000000000000e+00,5.000000000000000000e+00,5.000000000000000000e+00,5.000000000000000000e+00,5.000000000000000000e+00,5.000000000000000000e+00,5.000000000000000000e+00,5.000000000000000000e+00,5.000000000000000000e+00,5.000000000000000000e+00,5.000000000000000000e+00,5.000000000000000000e+00,5.000000000000000000e+00,5.000000000000000000e+00,5.000000000000000000e+00,5.000000000000000000e+00,5.000000000000000000e+00,5.000000000000000000e+00,5.000000000000000000e+00,5.000000000000000000e+00,5.000000000000000000e+00,5.000000000000000000e+00,5.000000000000000000e+00,1.358441472053527832e+00,1.348680138587951660e+00,1.345585227012634277e+00,1.342504382133483887e+00,1.349544286727905273e+00,1.372149825096130371e+00,5.000000000000000000e+00,1.325930476188659668e+00,1.268120646476745605e+00,1.229919314384460449e+00,1.226143956184387207e+00,1.220903038978576660e+00,1.215706586837768555e+00,1.242748260498046875e+00,1.476323962211608887e+00,1.487600088119506836e+00,4.173495769500732422e+00,4.032042980194091797e+00,3.899865150451660156e+00,3.776077508926391602e+00,3.659906864166259766e+00,3.550670385360717773e+00,3.447766065597534180e+00,3.350658416748046875e+00,3.258870840072631836e+00,3.171978235244750977e+00,3.089598894119262695e+00,3.011390209197998047e+00,2.937043190002441406e+00,2.866278648376464844e+00,2.798844099044799805e+00,2.734509706497192383e+00,2.673066139221191406e+00,2.614323377609252930e+00,2.558106899261474609e+00,2.504256963729858398e+00,2.452627658843994141e+00,2.403084039688110352e+00,2.355502843856811523e+00,2.309768915176391602e+00,2.265776872634887695e+00,2.223429679870605469e+00,2.182636260986328125e+00,2.143312454223632812e+00,2.105381011962890625e+00,2.068768262863159180e+00,2.033407688140869141e+00,1.999235391616821289e+00,1.966192603111267090e+00,1.934224367141723633e+00,1.903279066085815430e+00,1.873308300971984863e+00,1.844266772270202637e+00
5.000000000000000000e+00,5.000000000000000000e+00,5.000000000000000000e+00,5.000000000000000000e+00,5.000000000000000000e+00,5.000000000000000000e+00,5.000000000000000000e+00,5.000000000000000000e+00,5.000000000000000000e+00,5.000000000000000000e+00,5.000000000000000000e+00,5.000000000000000000e+00,5.000000000000000000e+00,5.000000000000000000e+00,5.000000000000000000e+00,5.000000000000000000e+00,5.000000000000000000e+00,5.000000000000000000e+00,5.000000000000000000e+00,5.000000000000000000e+00,5.000000000000000000e+00,5.000000000000000000e+00,5.000000000000000000e+00,5.000000000000000000e+00,5.000000000000000000e+00,5.000000000000000000e+00,5.000000000000000000e+00,1.377752423286437988e+00,1.356328368186950684e+00,1.352423548698425293e+00,1.349311470985412598e+00,1.357221126556396484e+00,1.380086779594421387e+00,5.000000000000000000e+00,1.365763902664184570e+00,1.266227483749389648e+00,1.224538207054138184e+00,1.214434742927551270e+00,1.211658000946044922e+00,1.206539750099182129e+00,1.219489216804504395e+00,1.484836697578430176e+00,1.476832509040832520e+00,4.173598289489746094e+00,4.032138824462890625e+00,3.899954557418823242e+00,3.776161193847656250e+00,3.659985542297363281e+00,3.550744771957397461e+00,3.447835922241210938e+00,3.350724220275878906e+00,3.258933544158935547e+00,3.172037363052368164e+00,3.089654922485351562e+00,3.011443376541137695e+00,2.937093973159790039e+00,2.866327047348022461e+00,2.798890113830566406e+00,2.734553575515747070e+00,2.673108339309692383e+00,2.614363431930541992e+00,2.558145284652709961e+00,2.504293918609619141e+00,2.452663183212280273e+00,2.403118133544921875e+00,2.355535268783569336e+00,2.309800148010253906e+00,2.265807151794433594e+00,2.223458528518676758e+00,2.182664155960083008e+00,2.143339633941650391e+00,2.105406999588012695e+00,2.068793535232543945e+00,2.033432006835937500e+00,1.999258756637573242e+00,1.966215372085571289e+00,1.934246420860290527e+00,1.903300404548645020e+00,1.873328804969787598e+00,1.844286680221557617e+00
5.000000000000000000e+00,5.000000000000000000e+00,5.000000000000000000e+00,5.000000000000000000e+00,5.000000000000000000e+00,5.000000000000000000e+00,5.000000000000000000e+00,5.000000000000000000e+00,5.000000000000000000e+00,5.000000000000000000e+00,5.000000000000000000e+00,5.000000000000000000e+00,5.000000000000000000e+00,5.000000000000000000e+00,5.000000000000000000e+00,5.000000000000000000e+00,5.000000000000000000e+00,5.000000000000000000e+00,5.000000000000000000e+00,5.000000000000000000e+00,5.000000000000000000e+00,5.000000000000000000e+00,5.000000000000000000e+00,5.000000000000000000e+00,5.000000000000000000e+00,5.000000000000000000e+00,5.000000000000000000e+00,1.397620320320129395e+00,1.364088177680969238e+00,1.359573960304260254e+00,1.356187939643859863e+00,1.364985823631286621e+00,1.386931180953979492e+00,5.000000000000000000e+00,5.000000000000000000e+00,1.262796163558959961e+00,1.222182035446166992e+00,1.201561927795410156e+00,1.199335217475891113e+00,1.197116732597351074e+00,1.197084784507751465e+00,4.488659858703613281e+00,1.462980508804321289e+00,4.173700809478759766e+00,4.032234191894531250e+00,3.900043725967407227e+00,3.776245355606079102e+00,3.660064220428466797e+00,3.550818920135498047e+00,3.447906017303466797e+00,3.350790262222290039e+00,3.258995771408081055e+00,3.172096252441406250e+00,3.089710950851440430e+00,3.011496782302856445e+00,2.937144517898559570e+00,2.866375446319580078e+00,2.798936367034912109e+00,2.734597444534301758e+00,2.673150300979614258e+00,2.614403724670410156e+00,2.558183670043945312e+00,2.504330873489379883e+00,2.452698469161987305e+00,2.403151988983154297e+00,2.355567932128906250e+00,2.309831380844116211e+00,2.265837430953979492e+00,2.223487615585327148e+00,2.182692289352416992e+00,2.143366575241088867e+00,2.105432987213134766e+00,2.068818569183349609e+00,2.033456325531005859e+00,1.999282360076904297e+00,1.966238141059875488e+00,1.934268236160278320e+00,1.903321504592895508e+00,1.873349428176879883e+00,1.844306707382202148e+00
5.000000000000000000e+00,5.000000000000000000e+00,5.000000000000000000e+00,5.000000000000000000e+00,5.000000000000000000e+00,5.000000000000000000e+00,5.000000000000000000e+00,5.000000000000000000e+00,5.000000000000000000e+00,5.000000000000000000e+00,5.000000000000000000e+00,5.000000000000000000e+00,5.000000000000000000e+00,5.000000000000000000e+00,5.000000000000000000e+00,5.000000000000000000e+00,5.000000000000000000e+00,5.000000000000000000e+00,5.000000000000000000e+00,5.000000000000000000e+00,5.000000000000000000e+00,5.000000000000000000e+00,5.000000000000000000e+00,5.000000000000000000e+00,5.000000000000000000e+00,5.000000000000000000e+00,5.000000000000000000e+00,1.417938828468322754e+00,1.371937274932861328e+00,1.367371082305908203e+00,1.363134741783142090e+00,1.372840046882629395e+00,1.393575906753540039e+00,5.000000000000000000e+00,5.000000000000000000e+00,1.259383320808410645e+00,1.219834804534912109e+00,1.190366029739379883e+00,1.186778783798217773e+00,1.184606432914733887e+00,1.183438420295715332e+00,1.228536248207092285e+00,1.453435420989990234e+00,4.173803329467773438e+00,4.032330036163330078e+00,3.900133132934570312e+00,3.776329040527343750e+00,3.660143136978149414e+00,3.550892829895019531e+00,3.447975873947143555e+00,3.350856065750122070e+00,3.259058237075805664e+00,3.172155618667602539e+00,3.089766979217529297e+00,3.011550188064575195e+00,2.937195539474487305e+00,2.866423606872558594e+00,2.798982381820678711e+00,2.734641313552856445e+00,2.673192262649536133e+00,2.614444017410278320e+00,2.558222055435180664e+00,2.504367589950561523e+00,2.452733993530273438e+00,2.403186082839965820e+00,2.355600595474243164e+00,2.309862852096557617e+00,2.265867471694946289e+00,2.223516941070556641e+00,2.182720184326171875e+00,2.143393516540527344e+00,2.105459213256835938e+00,2.068843841552734375e+00,2.033480644226074219e+00,1.999305725097656250e+00,1.966260790824890137e+00,1.934290289878845215e+00,1.903342962265014648e+00,1.873370170593261719e+00,1.844326853752136230e+00
5.000000000000000000e+00,5.000000000000000000e+00,5.000000000000000000e+00,5.000000000000000000e+00,5.000000000000000000e+00,5.000000000000000000e+00,5.000000000000000000e+00,5.000000000000000000e+00,5.000000000000000000e+00,5.000000000000000000e+00,5.000000000000000000e+00,5.000000000000000000e+00,5.000000000000000000e+00,5.000000000000000000e+00,5.000000000000000000e+00,5.000000000000000000e+00,5.000000000000000000e+00,5.000000000000000000e+00,5.000000000000000000e+00,5.000000000000000000e+00,5.000000000000000000e+00,5.000000000000000000e+00,5.000000000000000000e+00,5.000000000000000000e+00,5.000000000000000000e+00,5.000000000000000000e+00,5.000000000000000000e+00,1.475132703781127930e+00,1.379202604293823242e+00,1.375017523765563965e+00,1.370669841766357422e+00,1.379525303840637207e+00,1.400284886360168457e+00,5.000000000000000000e+00,5.000000000000000000e+00,1.284002780914306641e+00,1.217496514320373535e+00,1.187975168228149414e+00,1.177571535110473633e+00,1.177037119865417480e+00,1.176166176795959473e+00,1.211017489433288574e+00,1.455465793609619141e+00,4.173905372619628906e+00,4.032425403594970703e+00,3.900222778320312500e+00,3.776412725448608398e+00,3.660221815109252930e+00,3.550966978073120117e+00,3.448045730590820312e+00,3.350922346115112305e+00,3.259120702743530273e+00,3.172214746475219727e+00,3.089823484420776367e+00,3.011603355407714844e+00,2.937246084213256836e+00,2.866471767425537109e+00,2.799028396606445312e+00,2.734685420989990234e+00,2.673234224319458008e+00,2.614484071731567383e+00,2.558260679244995117e+00,2.504404544830322266e+00,2.452769279479980469e+00,2.403219938278198242e+00,2.355633258819580078e+00,2.309894323348999023e+00,2.265897512435913086e+00,2.223545789718627930e+00,2.182748317718505859e+00,2.143420696258544922e+00,2.105485200881958008e+00,2.068868875503540039e+00,2.033504962921142578e+00,1.999329328536987305e+00,1.966283559799194336e+00,1.934312462806701660e+00,1.903364300727844238e+00,1.873390674591064453e+00,1.844346642494201660e+00
5.000000000000000000e+00,5.000000000000000000e+00,5.000000000000000000e+00,5.000000000000000000e+00,5.000000000000000000e+00,5.000000000000000000e+00,5.000000000000000000e+00,5.000000000000000000e+00,5.000000000000000000e+00,5.000000000000000000e+00,5.000000000000000000e+00,5.000000000000000000e+00,5.000000000000000000e+00,5.000000000000000000e+00,5.000000000000000000e+00,5.000000000000000000e+00,5.000000000000000000e+00,5.000000000000000000e+00,5.000000000000000000e+00,5.000000000000000000e+00,5.000000000000000000e+00,5.000000000000000000e+00,5.000000000000000000e+00,5.000000000000000000e+00,5.000000000000000000e+00,5.000000000000000000e+00,5.000000000000000000e+00,5.000000000000000000e+00,1.386935949325561523e+00,1.380404829978942871e+00,1.376212358474731445e+00,1.386385440826416016e+00,1.407311916351318359e+00,5.000000000000000000e+00,5.000000000000000000e+00,5.000000000000000000e+00,1.214010596275329590e+00,1.186254501342773438e+00,1.171420335769653320e+00,1.172064661979675293e+00,1.172872662544250488e+00,1.201660156250000000e+00,4.325784206390380859e+00,4.174008369445800781e+00,4.032521247863769531e+00,3.900312185287475586e+00,3.776496410369873047e+00,3.660300493240356445e+00,3.551041364669799805e+00,3.448115348815917969e+00,3.350988388061523438e+00,3.259183168411254883e+00,3.172273874282836914e+00,3.089879512786865234e+00,3.011656522750854492e+00,2.937296867370605469e+00,2.866520404815673828e+00,2.799074411392211914e+00,2.734729290008544922e+00,2.673276424407958984e+00,2.614524126052856445e+00,2.558299303054809570e+00,2.504441261291503906e+00,2.452804565429687500e+00,2.403254032135009766e+00,2.355665683746337891e+00,2.309925556182861328e+00,2.265927791595458984e+00,2.223574876785278320e+00,2.182776212692260742e+00,2.143447637557983398e+00,2.105511188507080078e+00,2.068894147872924805e+00,2.033529043197631836e+00,1.999352812767028809e+00,1.966306447982788086e+00,1.934334278106689453e+00,1.903385519981384277e+00,1.873411417007446289e+00,1.844366788864135742e+00
5.000000000000000000e+00,5.000000000000000000e+00,5.000000000000000000e+00,5.000000000000000000e+00,5.000000000000000000e+00,5.000000000000000000e+00,5.000000000000000000e+00,5.000000000000000000e+00,5.000000000000000000e+00,5.000000000000000000e+00,5.000000000000000000e+00,5.000000000000000000e+00,5.000000000000000000e+00,5.000000000000000000e+00,5.000000000000000000e+00,5.000000000000000000e+00,5.000000000000000000e+00,5.000000000000000000e+00,5.000000000000000000e+00,5.000000000000000000e+00,5.000000000000000000e+00,5.000000000000000000e+00,5.000000000000000000e+00,5.000000000000000000e+00,5.000000000000000000e+00,5.000000000000000000e+00,5.000000000000000000e+00,5.000000000000000000e+00,1.402851462364196777e+00,1.385834455490112305e+00,1.381608963012695312e+00,1.393391609191894531e+00,1.413801074028015137e+00,5.000000000000000000e+00,5.000000000000000000e+00,5.000000000000000000e+00,1.213338613510131836e+00,1.189232587814331055e+00,1.173080801963806152e+00,1.173199772834777832e+00,1.173354744911193848e+00,1.201440095901489258e+00,4.325894355773925781e+00,4.174110412597656250e+00,4.032616615295410156e+00,3.900401353836059570e+00,3.776580572128295898e+00,3.660379171371459961e+00,3.551115274429321289e+00,3.448185682296752930e+00,3.351054191589355469e+00,3.259245634078979492e+00,3.172333002090454102e+00,3.089935541152954102e+00,3.011710166931152344e+00,2.937347412109375000e+00,2.866568565368652344e+00,2.799120664596557617e+00,2.734773159027099609e+00,2.673318386077880859e+00,2.614564418792724609e+00,2.558337688446044922e+00,2.504478216171264648e+00,2.452839851379394531e+00,2.403287887573242188e+00,2.355698585510253906e+00,2.309957027435302734e+00,2.265958070755004883e+00,2.223603963851928711e+00,2.182804107666015625e+00,2.143474578857421875e+00,2.105537176132202148e+00,2.068919420242309570e+00,2.033553600311279297e+00,1.999376177787780762e+00,1.966328978538513184e+00,1.934356331825256348e+00,1.903406858444213867e+00,1.873432040214538574e+00,1.844386577606201172e+00
5.000000000000000000e+00,5.000000000000000000e+00,5.000000000000000000e+00,5.000000000000000000e+00,5.000000000000000000e+00,5.000000000000000000e+00,5.000000000000000000e+00,5.000000000000000000e+00,5.000000000000000000e+00,5.000000000000000000e+00,5.000000000000000000e+00,5.000000000000000000e+00,5.000000000000000000e+00,5.000000000000000000e+00,5.000000000000000000e+00,5.000000000000000000e+00,5.000000000000000000e+00,5.000000000000000000e+00,5.000000000000000000e+00,5.000000000000000000e+00,5.000000000000000000e+00,5.000000000000000000e+00,5.000000000000000000e+00,5.000000000000000000e+00,5.000000000000000000e+00,5.000000000000000000e+00,5.000000000000000000e+00,5.000000000000000000e+00,1.428146362304687500e+00,1.392624139785766602e+00,1.387048125267028809e+00,1.400469064712524414e+00,1.418925642967224121e+00,5.000000000000000000e+00,5.000000000000000000e+00,5.000000000000000000e+00,1.217914700508117676e+00,1.194196462631225586e+00,1.176743745803833008e+00,1.176923513412475586e+00,1.177223801612854004e+00,1.207708954811096191e+00,4.326004505157470703e+00,4.174212932586669922e+00,4.032712459564208984e+00,3.900490760803222656e+00,3.776664257049560547e+00,3.660458087921142578e+00,3.551189422607421875e+00,3.448255300521850586e+00,3.351120233535766602e+00,3.259308099746704102e+00,3.172392368316650391e+00,3.089991569519042969e+00,3.011763334274291992e+00,2.937398433685302734e+00,2.866616725921630859e+00,2.799166440963745117e+00,2.734817266464233398e+00,2.673360347747802734e+00,2.614604711532592773e+00,2.558376073837280273e+00,2.504515171051025391e+00,2.452875375747680664e+00,2.403321743011474609e+00,2.355731010437011719e+00,2.309988260269165039e+00,2.265988111495971680e+00,2.223633050918579102e+00,2.182832241058349609e+00,2.143501758575439453e+00,2.105563402175903320e+00,2.068944454193115234e+00,2.033577919006347656e+00,1.999399781227111816e+00,1.966351866722106934e+00,1.934378385543823242e+00,1.903427958488464355e+00,1.873452544212341309e+00,1.844406723976135254e+00
5.000000000000000000e+00,5.000000000000000000e+00,5.000000000000000000e+00,5.000000000000000000e+00,5.000000000000000000e+00,5.000000000000000000e+00,5.000000000000000000e+00,5.000000000000000000e+00,5.000000000000000000e+00,5.000000000000000000e+00,5.000000000000000000e+00,5.000000000000000000e+00,5.000000000000000000e+00,5.000000000000000000e+00,5.000000000000000000e+00,5.000000000000000000e+00,5.000000000000000000e+00,5.000000000000000000e+00,5.000000000000000000e+00,5.000000000000000000e+00,5.000000000000000000e+00,5.000000000000000000e+00,5.000000000000000000e+00,5.000000000000000000e+00,5.000000000000000000e+00,5.000000000000000000e+00,5.000000000000000000e+00,5.000000000000000000e+00,1.452084541320800781e+00,1.402238965034484863e+00,1.392530202865600586e+00,1.406815171241760254e+00,1.424087524414062500e+00,5.000000000000000000e+00,5.000000000000000000e+00,5.000000000000000000e+00,1.225616931915283203e+00,1.202124714851379395e+00,1.183613538742065430e+00,1.180816054344177246e+00,1.181118249893188477e+00,1.211298704147338867e+00,4.326114654541015625e+00,4.174315452575683594e+00,4.032807826995849609e+00,3.900580644607543945e+00,3.776748180389404297e+00,3.660536766052246094e+00,3.551263570785522461e+00,3.448325157165527344e+00,3.351186513900756836e+00,3.259370326995849609e+00,3.172451496124267578e+00,3.090047836303710938e+00,3.011816501617431641e+00,2.937448978424072266e+00,2.866665124893188477e+00,2.799212455749511719e+00,2.734861373901367188e+00,2.673402309417724609e+00,2.614644765853881836e+00,2.558414697647094727e+00,2.504551887512207031e+00,2.452910661697387695e+00,2.403355836868286133e+00,2.355763673782348633e+00,2.310019731521606445e+00,2.266018390655517578e+00,2.223662137985229492e+00,2.182860374450683594e+00,2.143528699874877930e+00,2.105589389801025391e+00,2.068969488143920898e+00,2.033601999282836914e+00,1.999423384666442871e+00,1.966374397277832031e+00,1.934400320053100586e+00,1.903449416160583496e+00,1.873473286628723145e+00,1.844426751136779785e+00
5.000000000000000000e+00,5.000000000000000000e+00,5.000000000000000000e+00,5.000000000000000000e+00,5.000000000000000000e+00,5.000000000000000000e+00,5.000000000000000000e+00,5.000000000000000000e+00,5.000000000000000000e+00,5.000000000000000000e+00,5.000000000000000000e+00,5.000000000000000000e+00,5.000000000000000000e+00,5.000000000000000000e+00,5.000000000000000000e+00,5.000000000000000000e+00,5.000000000000000000e+00,5.000000000000000000e+00,5.000000000000000000e+00,5.000000000000000000e+00,5.000000000000000000e+00,5.000000000000000000e+00,5.000000000000000000e+00,5.000000000000000000e+00,5.000000000000000000e+00,5.000000000000000000e+00,5.000000000000000000e+00,5.000000000000000000e+00,1.487015485763549805e+00,1.411987423896789551e+00,1.398359298706054688e+00,1.411889195442199707e+00,1.429287075996398926e+00,5.000000000000000000e+00,5.000000000000000000e+00,5.000000000000000000e+00,1.233969211578369141e+00,1.210158824920654297e+00,1.190564155578613281e+00,1.184734463691711426e+00,1.185038685798645020e+00,1.213393568992614746e+00,4.326224327087402344e+00,4.174417972564697266e+00,4.032903671264648438e+00,3.900669813156127930e+00,3.776831865310668945e+00,3.660615444183349609e+00,3.551337957382202148e+00,3.448395013809204102e+00,3.351252317428588867e+00,3.259433031082153320e+00,3.172510623931884766e+00,3.090104103088378906e+00,3.011869907379150391e+00,2.937499761581420898e+00,2.866713523864746094e+00,2.799258470535278320e+00,2.734905242919921875e+00,2.673444509506225586e+00,2.614685058593750000e+00,2.558453083038330078e+00,2.504588842391967773e+00,2.452945947647094727e+00,2.403389930725097656e+00,2.355796337127685547e+00,2.310050964355468750e+00,2.266048669815063477e+00,2.223691225051879883e+00,2.182888269424438477e+00,2.143555641174316406e+00,2.105615377426147461e+00,2.068994760513305664e+00,2.033626317977905273e+00,1.999446749687194824e+00,1.966397166252136230e+00,1.934422373771667480e+00,1.903470754623413086e+00,1.873493790626525879e+00,1.844446659088134766e+00
5.000000000000000000e+00,5.000000000000000000e+00,5.000000000000000000e+00,5.000000000000000000e+00,5.000000000000000000e+00,5.000000000000000000e+00,5.000000000000000000e+00,5.000000000000000000e+00,5.000000000000000000e+00,5.000000000000000000e+00,5.000000000000000000e+00,5.000000000000000000e+00,5.000000000000000000e+00,5.000000000000000000e+00,5.000000000000000000e+00,5.000000000000000000e+00,5.000000000000000000e+00,5.000000000000000000e+00,5.000000000000000000e+00,5.000000000000000000e+00,5.000000000000000000e+00,5.000000000000000000e+00,5.000000000000000000e+00,5.000000000000000000e+00,5.000000000000000000e+00,5.000000000000000000e+00,5.000000000000000000e+00,5.000000000000000000e+00,1.512559652328491211e+00,1.423385858535766602e+00,1.405909538269042969e+00,1.419923305511474609e+00,1.436064124107360840e+00,5.000000000000000000e+00,5.000000000000000000e+00,5.000000000000000000e+00,5.000000000000000000e+00,1.215990781784057617e+00,1.197596907615661621e+00,1.191129326820373535e+00,1.188985228538513184e+00,1.215495467185974121e+00,4.326334476470947266e+00,4.174520015716552734e+00,4.032999038696289062e+00,3.900759220123291016e+00,3.776916027069091797e+00,3.660694122314453125e+00,3.551411867141723633e+00,3.448465108871459961e+00,3.351318359375000000e+00,3.259495496749877930e+00,3.172569513320922852e+00,3.090160131454467773e+00,3.011923313140869141e+00,2.937550306320190430e+00,2.866761922836303711e+00,2.799304723739624023e+00,2.734949111938476562e+00,2.673486471176147461e+00,2.614725112915039062e+00,2.558491468429565430e+00,2.504625797271728516e+00,2.452981233596801758e+00,2.403423786163330078e+00,2.355829000473022461e+00,2.310082435607910156e+00,2.266078710556030273e+00,2.223720312118530273e+00,2.182916164398193359e+00,2.143582820892333984e+00,2.105641365051269531e+00,2.069020032882690430e+00,2.033650875091552734e+00,1.999470353126525879e+00,1.966420054435729980e+00,1.934444189071655273e+00,1.903491973876953125e+00,1.873514533042907715e+00,1.844466686248779297e+00
5.000000000000000000e+00,5.000000000000000000e+00,5.000000000000000000e+00,5.000000000000000000e+00,5.000000000000000000e+00,5.000000000000000000e+00,5.000000000000000000e+00,5.000000000000000000e+00,5.000000000000000000e+00,5.000000000000000000e+00,5.000000000000000000e+00,5.000000000000000000e+00,5.000000000000000000e+00,5.000000000000000000e+00,5.000000000000000000e+00,5.000000000000000000e+00,5.000000000000000000e+00,5.000000000000000000e+00,5.000000000000000000e+00,5.000000000000000000e+00,5.000000000000000000e+00,5.000000000000000000e+00,5.000000000000000000e+00,5.000000000000000000e+00,5.000000000000000000e+00,5.000000000000000000e+00,5.000000000000000000e+00,5.000000000000000000e+00,1.511141896247863770e+00,1.440652608871459961e+00,1.416991114616394043e+00,1.433996081352233887e+00,1.453383922576904297e+00,5.000000000000000000e+00,5.000000000000000000e+00,5.000000000000000000e+00,5.000000000000000000e+00,1.221498012542724609e+00,1.204713106155395508e+00,1.198168754577636719e+00,1.192957997322082520e+00,1.217604875564575195e+00,4.326444625854492188e+00,4.174622535705566406e+00,4.033094882965087891e+00,3.900848627090454102e+00,3.776999711990356445e+00,3.660773277282714844e+00,3.551486015319824219e+00,3.448534965515136719e+00,3.351384401321411133e+00,3.259557723999023438e+00,3.172629117965698242e+00,3.090216159820556641e+00,3.011976718902587891e+00,2.937601327896118164e+00,2.866810083389282227e+00,2.799350738525390625e+00,2.734992980957031250e+00,2.673528432846069336e+00,2.614765405654907227e+00,2.558530092239379883e+00,2.504662752151489258e+00,2.453016757965087891e+00,2.403457641601562500e+00,2.355861663818359375e+00,2.310113668441772461e+00,2.266108989715576172e+00,2.223749399185180664e+00,2.182944297790527344e+00,2.143609762191772461e+00,2.105667591094970703e+00,2.069045066833496094e+00,2.033675193786621094e+00,1.999493718147277832e+00,1.966442584991455078e+00,1.934466361999511719e+00,1.903513312339782715e+00,1.873535275459289551e+00,1.844486832618713379e+00
5.000000000000000000e+00,5.000000000000000000e+00,5.000000000000000000e+00,5.000000000000000000e+00,5.000000000000000000e+00,5.000000000000000000e+00,5.000000000000000000e+00,5.000000000000000000e+00,5.000000000000000000e+00,5.000000000000000000e+00,5.000000000000000000e+00,5.000000000000000000e+00,5.000000000000000000e+00,5.000000000000000000e+00,5.000000000000000000e+00,5.000000000000000000e+00,5.000000000000000000e+00,5.000000000000000000e+00,5.000000000000000000e+00,5.000000000000000000e+00,5.000000000000000000e+00,5.000000000000000000e+00,5.000000000000000000e+00,5.000000000000000000e+00,5.000000000000000000e+00,5.000000000000000000e+00,5.000000000000000000e+00,5.000000000000000000e+00,1.502484560012817383e+00,1.461829543113708496e+00,1.436631083488464355e+00,1.455895543098449707e+00,1.482084631919860840e+00,5.000000000000000000e+00,5.000000000000000000e+00,5.000000000000000000e+00,5.000000000000000000e+00,1.226241350173950195e+00,1.207938551902770996e+00,1.201102375984191895e+00,1.194343328475952148e+00,1.217237830162048340e+00,4.326554775238037109e+00,4.174725055694580078e+00,4.033190250396728516e+00,3.900938272476196289e+00,3.777083635330200195e+00,3.660851955413818359e+00,3.551559925079345703e+00,3.448604822158813477e+00,3.351450681686401367e+00,3.259620189666748047e+00,3.172688007354736328e+00,3.090272426605224609e+00,3.012029886245727539e+00,2.937651872634887695e+00,2.866858243942260742e+00,2.799396753311157227e+00,2.735037088394165039e+00,2.673570394515991211e+00,2.614805698394775391e+00,2.558568716049194336e+00,2.504699468612670898e+00,2.453052043914794922e+00,2.403491497039794922e+00,2.355894088745117188e+00,2.310145139694213867e+00,2.266139030456542969e+00,2.223778486251831055e+00,2.182972431182861328e+00,2.143636703491210938e+00,2.105693578720092773e+00,2.069070339202880859e+00,2.033699274063110352e+00,1.999517321586608887e+00,1.966465473175048828e+00,1.934488415718078613e+00,1.903534650802612305e+00,1.873555779457092285e+00,1.844506621360778809e+00
5.000000000000000000e+00,5.000000000000000000e+00,5.000000000000000000e+00,5.000000000000000000e+00,5.000000000000000000e+00,5.000000000000000000e+00,5.000000000000000000e+00,5.000000000000000000e+00,5.000000000000000000e+00,5.000000000000000000e+00,5.000000000000000000e+00,5.000000000000000000e+00,5.000000000000000000e+00,5.000000000000000000e+00,5.000000000000000000e+00,5.000000000000000000e+00,5.000000000000000000e+00,5.000000000000000000e+00,5.000000000000000000e+00,5.000000000000000000e+00,5.000000000000000000e+00,5.000000000000000000e+00,5.000000000000000000e+00,5.000000000000000000e+00,5.000000000000000000e+00,5.000000000000000000e+00,5.000000000000000000e+00,5.000000000000000000e+00,1.508685588836669922e+00,1.479764223098754883e+00,1.461572170257568359e+00,1.478114724159240723e+00,1.576311469078063965e+00,5.000000000000000000e+00,5.000000000000000000e+00,5.000000000000000000e+00,5.000000000000000000e+00,1.226647853851318359e+00,1.205917596817016602e+00,1.199268460273742676e+00,1.192529916763305664e+00,1.210858702659606934e+00,4.326664447784423828e+00,4.174827575683593750e+00,4.033286094665527344e+00,3.901027679443359375e+00,3.777167320251464844e+00,3.660930633544921875e+00,3.551634550094604492e+00,3.448674678802490234e+00,3.351516485214233398e+00,3.259682893753051758e+00,3.172747135162353516e+00,3.090328454971313477e+00,3.012083292007446289e+00,2.937702655792236328e+00,2.866906881332397461e+00,2.799442768096923828e+00,2.735081195831298828e+00,2.673612356185913086e+00,2.614845752716064453e+00,2.558607101440429688e+00,2.504736423492431641e+00,2.453087568283081055e+00,2.403525590896606445e+00,2.355926752090454102e+00,2.310176610946655273e+00,2.266169309616088867e+00,2.223807334899902344e+00,2.183000326156616211e+00,2.143663644790649414e+00,2.105719804763793945e+00,2.069095611572265625e+00,2.033723592758178711e+00,1.999540925025939941e+00,1.966488242149353027e+00,1.934510231018066406e+00,1.903555870056152344e+00,1.873576402664184570e+00,1.844526767730712891e+00
5.000000000000000000e+00,5.000000000000000000e+00,5.000000000000000000e+00,5.000000000000000000e+00,5.000000000000000000e+00,5.000000000000000000e+00,5.000000000000000000e+00,5.000000000000000000e+00,5.000000000000000000e+00,5.000000000000000000e+00,5.000000000000000000e+00,5.000000000000000000e+00,5.000000000000000000e+00,5.000000000000000000e+00,5.000000000000000000e+00,5.000000000000000000e+00,5.000000000000000000e+00,5.000000000000000000e+00,5.000000000000000000e+00,5.000000000000000000e+00,5.000000000000000000e+00,5.000000000000000000e+00,5.000000000000000000e+00,5.000000000000000000e+00,5.000000000000000000e+00,5.000000000000000000e+00,5.000000000000000000e+00,5.000000000000000000e+00,1.524516701698303223e+00,1.498144507408142090e+00,1.487583875656127930e+00,1.508961081504821777e+00,5.000000000000000000e+00,5.000000000000000000e+00,5.000000000000000000e+00,5.000000000000000000e+00,5.000000000000000000e+00,1.227054715156555176e+00,1.203306317329406738e+00,1.197439908981323242e+00,1.190721988677978516e+00,1.204546093940734863e+00,4.326774597167968750e+00,4.174930095672607422e+00,4.033381462097167969e+00,3.901117086410522461e+00,3.777251482009887695e+00,3.661009311676025391e+00,3.551708459854125977e+00,3.448744773864746094e+00,3.351582527160644531e+00,3.259745359420776367e+00,3.172806262969970703e+00,3.090384483337402344e+00,3.012136697769165039e+00,2.937753200531005859e+00,2.866955041885375977e+00,2.799489021301269531e+00,2.735125064849853516e+00,2.673654317855834961e+00,2.614885807037353516e+00,2.558645486831665039e+00,2.504773378372192383e+00,2.453122854232788086e+00,2.403559446334838867e+00,2.355959415435791016e+00,2.310207843780517578e+00,2.266199588775634766e+00,2.223836421966552734e+00,2.183028221130371094e+00,2.143690824508666992e+00,2.105745792388916016e+00,2.069120645523071289e+00,2.033748149871826172e+00,1.999564170837402344e+00,1.966510891914367676e+00,1.934532284736633301e+00,1.903577208518981934e+00,1.873597145080566406e+00,1.844546556472778320e+00
5.000000000000000000e+00,5.000000000000000000e+00,5.000000000000000000e+00,5.000000000000000000e+00,5.000000000000000000e+00,5.000000000000000000e+00,5.000000000000000000e+00,5.000000000000000000e+00,5.000000000000000000e+00,5.000000000000000000e+00,5.000000000000000000e+00,5.000000000000000000e+00,5.000000000000000000e+00,5.000000000000000000e+00,5.000000000000000000e+00,5.000000000000000000e+00,5.000000000000000000e+00,5.000000000000000000e+00,5.000000000000000000e+00,5.000000000000000000e+00,5.000000000000000000e+00,5.000000000000000000e+00,5.000000000000000000e+00,5.000000000000000000e+00,5.000000000000000000e+00,5.000000000000000000e+00,5.000000000000000000e+00,5.000000000000000000e+00,1.541184663772583008e+00,1.514225959777832031e+00,1.506678819656372070e+00,1.529381275177001953e+00,5.000000000000000000e+00,5.000000000000000000e+00,5.000000000000000000e+00,5.000000000000000000e+00,5.000000000000000000e+00,1.227461814880371094e+00,1.200706243515014648e+00,1.195263862609863281e+00,1.188919425010681152e+00,1.198298931121826172e+00,4.326884746551513672e+00,4.175032615661621094e+00,4.033477306365966797e+00,3.901206493377685547e+00,3.777335166931152344e+00,3.661088466644287109e+00,3.551782608032226562e+00,3.448814630508422852e+00,3.351648330688476562e+00,3.259807586669921875e+00,3.172865629196166992e+00,3.090440750122070312e+00,3.012189865112304688e+00,2.937804222106933594e+00,2.867003440856933594e+00,2.799535036087036133e+00,2.735168933868408203e+00,2.673696517944335938e+00,2.614926338195800781e+00,2.558683872222900391e+00,2.504810094833374023e+00,2.453158378601074219e+00,2.403593540191650391e+00,2.355992078781127930e+00,2.310239315032958984e+00,2.266229629516601562e+00,2.223865747451782227e+00,2.183056354522705078e+00,2.143717765808105469e+00,2.105772018432617188e+00,2.069145679473876953e+00,2.033772230148315430e+00,1.999587774276733398e+00,1.966533660888671875e+00,1.934554457664489746e+00,1.903598427772521973e+00,1.873617649078369141e+00,1.844566702842712402e+00
5.000000000000000000e+00,5.000000000000000000e+00,5.000000000000000000e+00,5.000000000000000000e+00,5.000000000000000000e+00,5.000000000000000000e+00,5.000000000000000000e+00,5.000000000000000000e+00,5.000000000000000000e+00,5.000000000000000000e+00,5.000000000000000000e+00,5.000000000000000000e+00,5.000000000000000000e+00,5.000000000000000000e+00,5.000000000000000000e+00,5.000000000000000000e+00,5.000000000000000000e+00,5.000000000000000000e+00,5.000000000000000000e+00,5.000000000000000000e+00,5.000000000000000000e+00,5.000000000000000000e+00,5.000000000000000000e+00,5.000000000000000000e+00,5.000000000000000000e+00,5.000000000000000000e+00,5.000000000000000000e+00,5.000000000000000000e+00,1.557464957237243652e+00,1.525145053863525391e+00,1.517054915428161621e+00,1.539777159690856934e+00,5.000000000000000000e+00,5.000000000000000000e+00,5.000000000000000000e+00,5.000000000000000000e+00,5.000000000000000000e+00,1.227869153022766113e+00,1.198117494583129883e+00,1.192698478698730469e+00,1.187122344970703125e+00,1.192116379737854004e+00,4.326994895935058594e+00,4.175135135650634766e+00,4.033572673797607422e+00,3.901296138763427734e+00,3.777419090270996094e+00,3.661167144775390625e+00,3.551856756210327148e+00,3.448884487152099609e+00,3.351714611053466797e+00,3.259870052337646484e+00,3.172924757003784180e+00,3.090497016906738281e+00,3.012243270874023438e+00,2.937854766845703125e+00,2.867051601409912109e+00,2.799581050872802734e+00,2.735213041305541992e+00,2.673738479614257812e+00,2.614966392517089844e+00,2.558722496032714844e+00,2.504847049713134766e+00,2.453193664550781250e+00,2.403627395629882812e+00,2.356024742126464844e+00,2.310270786285400391e+00,2.266259908676147461e+00,2.223894596099853516e+00,2.183084487915039062e+00,2.143744707107543945e+00,2.105798006057739258e+00,2.069170951843261719e+00,2.033796548843383789e+00,1.999611377716064453e+00,1.966556191444396973e+00,1.934576272964477539e+00,1.903619766235351562e+00,1.873638391494750977e+00,1.844586730003356934e+00
5.000000000000000000e+00,5.000000000000000000e+00,5.000000000000000000e+00,5.000000000000000000e+00,5.000000000000000000e+00,5.000000000000000000e+00,5.000000000000000000e+00,5.000000000000000000e+00,5.000000000000000000e+00,5.000000000000000000e+00,5.000000000000000000e+00,5.000000000000000000e+00,5.000000000000000000e+00,5.000000000000000000e+00,5.000000000000000000e+00,5.000000000000000000e+00,5.000000000000000000e+00,5.000000000000000000e+00,5.000000000000000000e+00,5.000000000000000000e+00,5.000000000000000000e+00,5.000000000000000000e+00,5.000000000000000000e+00,5.000000000000000000e+00,5.000000000000000000e+00,5.000000000000000000e+00,5.000000000000000000e+00,5.000000000000000000e+00,1.574092745780944824e+00,1.538111805915832520e+00,1.527574658393859863e+00,1.550138831138610840e+00,5.000000000000000000e+00,5.000000000000000000e+00,5.000000000000000000e+00,5.000000000000000000e+00,5.000000000000000000e+00,1.228276729583740234e+00,1.195539832115173340e+00,1.190144181251525879e+00,1.184796929359436035e+00,1.186765909194946289e+00,4.327104568481445312e+00,4.175237655639648438e+00,4.033668518066406250e+00,3.901385545730590820e+00,3.777502775192260742e+00,3.661245822906494141e+00,3.551931142807006836e+00,3.448954343795776367e+00,3.351780652999877930e+00,3.259932756423950195e+00,3.172983884811401367e+00,3.090553045272827148e+00,3.012296438217163086e+00,2.937905550003051758e+00,2.867100000381469727e+00,2.799627065658569336e+00,2.735256910324096680e+00,2.673780441284179688e+00,2.615006446838378906e+00,2.558760881423950195e+00,2.504883766174316406e+00,2.453228950500488281e+00,2.403661489486694336e+00,2.356057405471801758e+00,2.310302019119262695e+00,2.266290187835693359e+00,2.223923683166503906e+00,2.183112382888793945e+00,2.143771648406982422e+00,2.105823993682861328e+00,2.069196224212646484e+00,2.033820867538452148e+00,1.999634742736816406e+00,1.966579079627990723e+00,1.934598326683044434e+00,1.903641223907470703e+00,1.873658895492553711e+00,1.844606637954711914e+00
5.000000000000000000e+00,5.000000000000000000e+00,5.000000000000000000e+00,5.000000000000000000e+00,5.000000000000000000e+00,5.000000000000000000e+00,5.000000000000000000e+00,5.000000000000000000e+00,5.000000000000000000e+00,5.000000000000000000e+00,5.000000000000000000e+00,5.000000000000000000e+00,5.000000000000000000e+00,5.000000000000000000e+00,5.000000000000000000e+00,5.000000000000000000e+00,5.000000000000000000e+00,5.000000000000000000e+00,5.000000000000000000e+00,5.000000000000000000e+00,5.000000000000000000e+00,5.000000000000000000e+00,5.000000000000000000e+00,5.000000000000000000e+00,5.000000000000000000e+00,5.000000000000000000e+00,5.000000000000000000e+00,5.000000000000000000e+00,1.591079473495483398e+00,1.553791880607604980e+00,1.538241624832153320e+00,1.559993505477905273e+00,5.000000000000000000e+00,5.000000000000000000e+00,5.000000000000000000e+00,5.000000000000000000e+00,5.000000000000000000e+00,1.229089736938476562e+00,1.195121407508850098e+00,1.187758207321166992e+00,1.182411074638366699e+00,1.183398485183715820e+00,4.327215194702148438e+00,4.175339698791503906e+00,4.033763885498046875e+00,3.901474952697753906e+00,3.777586936950683594e+00,3.661324501037597656e+00,3.552005052566528320e+00,3.449024438858032227e+00,3.351846694946289062e+00,3.259995222091674805e+00,3.173043012619018555e+00,3.090609073638916016e+00,3.012350082397460938e+00,2.937956094741821289e+00,2.867148399353027344e+00,2.799673318862915039e+00,2.735301017761230469e+00,2.673822641372680664e+00,2.615046739578247070e+00,2.558799505233764648e+00,2.504920959472656250e+00,2.453264236450195312e+00,2.403695344924926758e+00,2.356090068817138672e+00,2.310333490371704102e+00,2.266320228576660156e+00,2.223952770233154297e+00,2.183140277862548828e+00,2.143798828125000000e+00,2.105849981307983398e+00,2.069221258163452148e+00,2.033845424652099609e+00,1.999658346176147461e+00,1.966601848602294922e+00,1.934620261192321777e+00,1.903662323951721191e+00,1.873679637908935547e+00,1.844626665115356445e+00
5.000000000000000000e+00,5.000000000000000000e+00,5.000000000000000000e+00,5.000000000000000000e+00,5.000000000000000000e+00,5.000000000000000000e+00,5.000000000000000000e+00,5.000000000000000000e+00,5.000000000000000000e+00,5.000000000000000000e+00,5.000000000000000000e+00,5.000000000000000000e+00,5.000000000000000000e+00,5.000000000000000000e+00,5.000000000000000000e+00,5.000000000000000000e+00,5.000000000000000000e+00,5.000000000000000000e+00,5.000000000000000000e+00,5.000000000000000000e+00,5.000000000000000000e+00,5.000000000000000000e+00,5.000000000000000000e+00,5.000000000000000000e+00,5.000000000000000000e+00,5.000000000000000000e+00,5.000000000000000000e+00,5.000000000000000000e+00,5.000000000000000000e+00,1.570555448532104492e+00,1.549647331237792969e+00,1.569974303245544434e+00,5.000000000000000000e+00,5.000000000000000000e+00,5.000000000000000000e+00,5.000000000000000000e+00,5.000000000000000000e+00,5.000000000000000000e+00,1.198458075523376465e+00,1.185875058174133301e+00,1.180544734001159668e+00,1.186265826225280762e+00,4.327323913574218750e+00,4.175442218780517578e+00,4.033859729766845703e+00,3.901564359664916992e+00,3.777670860290527344e+00,3.661403179168701172e+00,3.552079200744628906e+00,3.449094295501708984e+00,3.351912498474121094e+00,3.260057449340820312e+00,3.173102378845214844e+00,3.090665340423583984e+00,3.012403249740600586e+00,2.938006877899169922e+00,2.867196559906005859e+00,2.799719333648681641e+00,2.735344886779785156e+00,2.673864603042602539e+00,2.615087032318115234e+00,2.558837890625000000e+00,2.504957675933837891e+00,2.453299760818481445e+00,2.403729438781738281e+00,2.356122732162475586e+00,2.310364723205566406e+00,2.266350507736206055e+00,2.223981857299804688e+00,2.183168411254882812e+00,2.143825769424438477e+00,2.105875968933105469e+00,2.069246530532836914e+00,2.033869504928588867e+00,1.999681711196899414e+00,1.966624498367309570e+00,1.934642314910888672e+00,1.903683781623840332e+00,1.873700380325317383e+00,1.844646573066711426e+00
5.000000000000000000e+00,5.000000000000000000e+00,5.000000000000000000e+00,5.000000000000000000e+00,5.000000000000000000e+00,5.000000000000000000e+00,5.000000000000000000e+00,5.000000000000000000e+00,5.000000000000000000e+00,5.000000000000000000e+00,5.000000000000000000e+00,5.000000000000000000e+00,5.000000000000000000e+00,5.000000000000000000e+00,5.000000000000000000e+00,5.000000000000000000e+00,5.000000000000000000e+00,5.000000000000000000e+00,5.000000000000000000e+00,5.000000000000000000e+00,5.000000000000000000e+00,5.000000000000000000e+00,5.000000000000000000e+00,5.000000000000000000e+00,5.000000000000000000e+00,5.000000000000000000e+00,5.000000000000000000e+00,5.000000000000000000e+00,5.000000000000000000e+00,1.589234352111816406e+00,1.567239165306091309e+00,1.581560015678405762e+00,5.000000000000000000e+00,5.000000000000000000e+00,5.000000000000000000e+00,5.000000000000000000e+00,5.000000000000000000e+00,5.000000000000000000e+00,1.201813459396362305e+00,1.183997750282287598e+00,1.178684473037719727e+00,1.189146995544433594e+00,4.327433586120605469e+00,4.175544738769531250e+00,4.033955574035644531e+00,3.901654005050659180e+00,3.777754545211791992e+00,3.661482334136962891e+00,3.552153348922729492e+00,3.449164152145385742e+00,3.351978778839111328e+00,3.260119915008544922e+00,3.173161506652832031e+00,3.090721607208251953e+00,3.012456655502319336e+00,2.938057899475097656e+00,2.867244958877563477e+00,2.799765348434448242e+00,2.735388994216918945e+00,2.673906564712524414e+00,2.615127086639404297e+00,2.558876514434814453e+00,2.504994630813598633e+00,2.453335285186767578e+00,2.403763294219970703e+00,2.356155157089233398e+00,2.310396194458007812e+00,2.266380548477172852e+00,2.224010944366455078e+00,2.183196544647216797e+00,2.143852710723876953e+00,2.105902194976806641e+00,2.069271564483642578e+00,2.033893823623657227e+00,1.999705314636230469e+00,1.966647267341613770e+00,1.934664368629455566e+00,1.903705120086669922e+00,1.873720884323120117e+00,1.844666719436645508e+00
4.875209808349609375e+00,4.873998641967773438e+00,4.872788906097412109e+00,4.871579170227050781e+00,4.870369911193847656e+00,4.869161605834960938e+00,4.867953777313232422e+00,4.866746425628662109e+00,4.865540027618408203e+00,4.864333629608154297e+00,4.863128185272216797e+00,4.861923694610595703e+00,4.860719203948974609e+00,4.859515666961669922e+00,4.858312606811523438e+00,4.857110023498535156e+00,4.855908393859863281e+00,4.854707241058349609e+00,4.853506565093994141e+00,4.852306365966796875e+00,4.851107120513916016e+00,4.849907875061035156e+00,4.848710060119628906e+00,4.847512245178222656e+00,4.846314907073974609e+00,4.845118522644042969e+00,4.843922615051269531e+00,4.842727184295654297e+00,4.841532707214355469e+00,1.608712077140808105e+00,1.587996006011962891e+00,1.593334436416625977e+00,4.836759090423583984e+00,4.835567951202392578e+00,4.834376335144042969e+00,4.833185672760009766e+00,4.831995964050292969e+00,4.830806255340576172e+00,1.205187797546386719e+00,1.182209610939025879e+00,1.176829814910888672e+00,1.188605785369873047e+00,4.327543258666992188e+00,4.175646305084228516e+00,4.034051418304443359e+00,3.901743412017822266e+00,3.777838468551635742e+00,3.661561012268066406e+00,3.552227735519409180e+00,3.449234008789062500e+00,3.352044820785522461e+00,3.260182380676269531e+00,3.173220634460449219e+00,3.090777635574340820e+00,3.012509822845458984e+00,2.938108444213867188e+00,2.867293357849121094e+00,2.799811363220214844e+00,2.735432863235473633e+00,2.673948526382446289e+00,2.615167379379272461e+00,2.558914899826049805e+00,2.505031347274780273e+00,2.453370571136474609e+00,2.403797388076782227e+00,2.356187820434570312e+00,2.310427665710449219e+00,2.266410827636718750e+00,2.224040031433105469e+00,2.183224439620971680e+00,2.143879652023315430e+00,2.105928182601928711e+00,2.069296836853027344e+00,2.033918142318725586e+00,1.999728918075561523e+00,1.966669917106628418e+00,1.934686303138732910e+00,1.903726339340209961e+00,1.873741507530212402e+00,1.844686746597290039e+00
3.778014898300170898e+00,3.777287960052490234e+00,3.776561021804809570e+00,3.775834321975708008e+00,3.775107860565185547e+00,3.774381875991821289e+00,3.773656368255615234e+00,3.772930860519409180e+00,3.772205352783203125e+00,3.771480321884155273e+00,3.770755767822265625e+00,3.770031213760375977e+00,3.769307374954223633e+00,3.768583536148071289e+00,3.767859935760498047e+00,3.767136573791503906e+00,3.766413450241088867e+00,3.765690803527832031e+00,3.764968633651733398e+00,3.764246225357055664e+00,3.763524293899536133e+00,3.762802600860595703e+00,3.762081146240234375e+00,3.761360645294189453e+00,3.760639667510986328e+00,3.759919166564941406e+00,3.759198904037475586e+00,3.758478879928588867e+00,3.757759094238281250e+00,1.628828406333923340e+00,1.601165294647216797e+00,1.605285406112670898e+00,3.754883050918579102e+00,3.754164695739746094e+00,3.753446578979492188e+00,3.752729177474975586e+00,3.752011537551879883e+00,3.751294374465942383e+00,1.208580970764160156e+00,1.181721806526184082e+00,1.174981117248535156e+00,1.185829758644104004e+00,3.747712373733520508e+00,3.746996879577636719e+00,3.746281385421752930e+00,3.745566368103027344e+00,3.744852066040039062e+00,3.661639690399169922e+00,3.552301883697509766e+00,3.449303865432739258e+00,3.352110862731933594e+00,3.260245084762573242e+00,3.173279762268066406e+00,3.090833902359008789e+00,3.012563467025756836e+00,2.938159227371215820e+00,2.867341756820678711e+00,2.799857378005981445e+00,2.735476970672607422e+00,2.673990726470947266e+00,2.615207433700561523e+00,2.558953285217285156e+00,2.505068540573120117e+00,2.453405857086181641e+00,2.403831243515014648e+00,2.356220483779907227e+00,2.310458898544311523e+00,2.266441106796264648e+00,2.224069118499755859e+00,2.183252334594726562e+00,2.143906831741333008e+00,2.105954408645629883e+00,2.069322109222412109e+00,2.033942461013793945e+00,1.999752283096313477e+00,1.966692686080932617e+00,1.934708356857299805e+00,1.903747677803039551e+00,1.873762249946594238e+00,1.844706654548645020e+00
3.083953142166137695e+00,3.083468675613403320e+00,3.082984447479248047e+00,3.082500219345092773e+00,3.082015991210937500e+00,3.081532001495361328e+00,3.081048250198364258e+00,3.080564498901367188e+00,3.080081224441528320e+00,3.079597711563110352e+00,3.079114675521850586e+00,3.078631401062011719e+00,3.078148603439331055e+00,3.077666044235229492e+00,3.077183485031127930e+00,3.076700925827026367e+00,3.076218605041503906e+00,3.075736284255981445e+00,3.075254440307617188e+00,3.074772834777832031e+00,3.074290990829467773e+00,3.073809385299682617e+00,3.073328018188476562e+00,3.072846651077270508e+00,3.072365522384643555e+00,3.071884870529174805e+00,3.071403980255126953e+00,3.070923328399658203e+00,3.070442914962768555e+00,1.649510502815246582e+00,1.614469647407531738e+00,1.617416858673095703e+00,3.068522453308105469e+00,3.068042755126953125e+00,3.067563056945800781e+00,3.067083597183227539e+00,3.066604614257812500e+00,3.066125392913818359e+00,1.211993455886840820e+00,1.181234717369079590e+00,1.173138141632080078e+00,1.183066606521606445e+00,3.063732147216796875e+00,3.063253879547119141e+00,3.062775850296020508e+00,3.062297821044921875e+00,3.061820030212402344e+00,3.061342239379882812e+00,3.060864925384521484e+00,3.060387611389160156e+00,3.059910297393798828e+00,3.059433221817016602e+00,3.058956384658813477e+00,3.058479785919189453e+00,3.012616634368896484e+00,2.938209772109985352e+00,2.867389917373657227e+00,2.799903631210327148e+00,2.735520839691162109e+00,2.674032688140869141e+00,2.615247726440429688e+00,2.558991909027099609e+00,2.505105257034301758e+00,2.453441143035888672e+00,2.403865098953247070e+00,2.356253147125244141e+00,2.310490131378173828e+00,2.266471147537231445e+00,2.224098205566406250e+00,2.183280467987060547e+00,2.143933773040771484e+00,2.105980396270751953e+00,2.069347143173217773e+00,2.033966779708862305e+00,1.999775886535644531e+00,1.966715574264526367e+00,1.934730410575866699e+00,1.903768897056579590e+00,1.873782753944396973e+00,1.844726681709289551e+00
2.605326890945434570e+00,2.604980945587158203e+00,2.604635238647460938e+00,2.604289770126342773e+00,2.603944063186645508e+00,2.603598594665527344e+00,2.603253126144409180e+00,2.602907896041870117e+00,2.602562665939331055e+00,2.602217674255371094e+00,2.601872682571411133e+00,2.601527690887451172e+00,2.601182937622070312e+00,2.600838184356689453e+00,2.600493431091308594e+00,2.600149154663085938e+00,2.599804639816284180e+00,2.599460124969482422e+00,2.599115848541259766e+00,2.598771572113037109e+00,2.598427534103393555e+00,2.598083496093750000e+00,2.597739696502685547e+00,2.597395896911621094e+00,2.597052097320556641e+00,2.596708297729492188e+00,2.596364974975585938e+00,2.596021413803100586e+00,2.595678091049194336e+00,2.595334768295288086e+00,1.650592565536499023e+00,1.647409915924072266e+00,2.594305515289306641e+00,2.593962669372558594e+00,2.593619823455810547e+00,2.593276977539062500e+00,2.592934370040893555e+00,2.592591762542724609e+00,1.215425133705139160e+00,1.181141138076782227e+00,1.171301126480102539e+00,1.180316448211669922e+00,2.590880393981933594e+00,2.590538501739501953e+00,2.590196609497070312e+00,2.589854717254638672e+00,2.589512825012207031e+00,2.589171171188354492e+00,2.588829517364501953e+00,2.588488340377807617e+00,2.588146924972534180e+00,2.587805509567260742e+00,2.587464332580566406e+00,2.587123155593872070e+00,2.586782217025756836e+00,2.586441516876220703e+00,2.586100578308105469e+00,2.585759639739990234e+00,2.585419178009033203e+00,2.585078477859497070e+00,2.584738254547119141e+00,2.559030294418334961e+00,2.505142211914062500e+00,2.453476667404174805e+00,2.403899192810058594e+00,2.356285810470581055e+00,2.310521841049194336e+00,2.266501426696777344e+00,2.224127292633056641e+00,2.183308362960815430e+00,2.143960952758789062e+00,2.106006383895874023e+00,2.069372177124023438e+00,2.033991098403930664e+00,1.999799489974975586e+00,1.966738104820251465e+00,1.934752345085144043e+00,1.903790235519409180e+00,1.873803496360778809e+00,1.844746828079223633e+00
2.255330562591552734e+00,2.255070447921752930e+00,2.254810094833374023e+00,2.254549980163574219e+00,2.254289865493774414e+00,2.254029989242553711e+00,2.253770112991333008e+00,2.253510236740112305e+00,2.253250360488891602e+00,2.252990722656250000e+00,2.252731084823608398e+00,2.252471446990966797e+00,2.252211809158325195e+00,2.251952171325683594e+00,2.251692771911621094e+00,2.251433372497558594e+00,2.251173973083496094e+00,2.250914812088012695e+00,2.250655412673950195e+00,2.250396251678466797e+00,2.250137090682983398e+00,2.249878168106079102e+00,2.249619245529174805e+00,2.249360322952270508e+00,2.249102354049682617e+00,2.248844623565673828e+00,2.248586893081665039e+00,2.248329401016235352e+00,2.248071908950805664e+00,2.247814416885375977e+00,1.642750382423400879e+00,1.629976868629455566e+00,2.247042179107666016e+00,2.246784925460815430e+00,2.246527671813964844e+00,2.246270656585693359e+00,2.246013402938842773e+00,2.245756387710571289e+00,2.245499372482299805e+00,1.202222347259521484e+00,1.184633016586303711e+00,1.199603199958801270e+00,2.244472265243530273e+00,2.244215488433837891e+00,2.243958950042724609e+00,2.243702411651611328e+00,2.243445873260498047e+00,2.243189334869384766e+00,2.242933034896850586e+00,2.242676734924316406e+00,2.242420434951782227e+00,2.242164373397827148e+00,2.241908073425292969e+00,2.241652011871337891e+00,2.241395950317382812e+00,2.241139888763427734e+00,2.240884065628051758e+00,2.240628242492675781e+00,2.240372419357299805e+00,2.240116596221923828e+00,2.239861011505126953e+00,2.239605426788330078e+00,2.239349842071533203e+00,2.239094495773315430e+00,2.238838911056518555e+00,2.238583564758300781e+00,2.238328218460083008e+00,2.238073110580444336e+00,2.224156379699707031e+00,2.183336496353149414e+00,2.143987894058227539e+00,2.106032609939575195e+00,2.069397449493408203e+00,2.034015417098999023e+00,1.999822854995727539e+00,1.966760993003845215e+00,1.934774398803710938e+00,1.903811573982238770e+00,1.873824000358581543e+00,1.844766616821289062e+00
1.988281369209289551e+00,1.988078951835632324e+00,1.987876892089843750e+00,1.987674593925476074e+00,1.987472534179687500e+00,1.987270593643188477e+00,1.987068414688110352e+00,1.986866474151611328e+00,1.986664414405822754e+00,1.986462593078613281e+00,1.986260533332824707e+00,1.986058831214904785e+00,1.985856890678405762e+00,1.985655188560485840e+00,1.985453367233276367e+00,1.985251784324645996e+00,1.985050082206726074e+00,1.984848618507385254e+00,1.984646916389465332e+00,1.984445452690124512e+00,1.984243869781494141e+00,1.984042525291442871e+00,1.983840942382812500e+00,1.983639717102050781e+00,1.983438253402709961e+00,1.983237147331237793e+00,1.983035802841186523e+00,1.982834696769714355e+00,1.982633352279663086e+00,1.982432365417480469e+00,1.622054815292358398e+00,1.605983495712280273e+00,1.611387610435485840e+00,1.981628298759460449e+00,1.981427311897277832e+00,1.981226563453674316e+00,1.981025576591491699e+00,1.980824828147888184e+00,1.980624198913574219e+00,1.197309613227844238e+00,1.177231073379516602e+00,1.189130783081054688e+00,1.979821562767028809e+00,1.979620933532714844e+00,1.979420542716979980e+00,1.979219913482666016e+00,1.979019641876220703e+00,1.978819131851196289e+00,1.978618860244750977e+00,1.978418469429016113e+00,1.978218317031860352e+00,1.978017926216125488e+00,1.977817893028259277e+00,1.977617621421813965e+00,1.977417588233947754e+00,1.977217435836791992e+00,1.977017521858215332e+00,1.976817488670349121e+00,1.976617574691772461e+00,1.976417541503906250e+00,1.976217865943908691e+00,1.976017832756042480e+00,1.975818157196044922e+00,1.975618362426757812e+00,1.975418806076049805e+00,1.975219011306762695e+00,1.975019454956054688e+00,1.974819779396057129e+00,1.974620342254638672e+00,1.974421024322509766e+00,1.974221348762512207e+00,1.974022030830383301e+00,1.973822593688964844e+00,1.973623394966125488e+00,1.973423957824707031e+00,1.966783761978149414e+00,1.934796214103698730e+00,1.903832793235778809e+00,1.873844742774963379e+00,1.844786763191223145e+00
1.777778148651123047e+00,1.777616500854492188e+00,1.777454733848571777e+00,1.777293205261230469e+00,1.777131438255310059e+00,1.776970028877258301e+00,1.776808381080627441e+00,1.776646852493286133e+00,1.776485323905944824e+00,1.776323914527893066e+00,1.776162385940551758e+00,1.776001095771789551e+00,1.775839567184448242e+00,1.775678277015686035e+00,1.775516867637634277e+00,1.775355696678161621e+00,1.775194406509399414e+00,1.775033235549926758e+00,1.774871945381164551e+00,1.774710774421691895e+00,1.774549603462219238e+00,1.774388551712036133e+00,1.774227380752563477e+00,1.774066329002380371e+00,1.773905277252197266e+00,1.773744344711303711e+00,1.773583292961120605e+00,1.773422360420227051e+00,1.773261427879333496e+00,1.773100614547729492e+00,1.592196822166442871e+00,1.580504894256591797e+00,1.578432321548461914e+00,1.772457361221313477e+00,1.772296667098999023e+00,1.772135853767395020e+00,1.771975278854370117e+00,1.771814465522766113e+00,1.771654009819030762e+00,1.187231898307800293e+00,1.158664703369140625e+00,1.141867876052856445e+00,1.771011710166931152e+00,1.770851135253906250e+00,1.770690798759460449e+00,1.770530343055725098e+00,1.770370006561279297e+00,1.770209550857543945e+00,1.770049333572387695e+00,1.769888877868652344e+00,1.769728660583496094e+00,1.769568324089050293e+00,1.769408226013183594e+00,1.769247889518737793e+00,1.769087910652160645e+00,1.768927693367004395e+00,1.768767595291137695e+00,1.768607497215270996e+00,1.768447518348693848e+00,1.768287420272827148e+00,1.768127560615539551e+00,1.767967462539672852e+00,1.767807602882385254e+00,1.767647624015808105e+00,1.767487883567810059e+00,1.767328143119812012e+00,1.767168164253234863e+00,1.767008543014526367e+00,1.766848683357238770e+00,1.766689062118530273e+00,1.766529202461242676e+00,1.766369700431823730e+00,1.766209959983825684e+00,1.766050338745117188e+00,1.765890717506408691e+00,1.765731215476989746e+00,1.765571594238281250e+00,1.765412330627441406e+00,1.765252709388732910e+00,1.765093326568603516e+00
1.607580423355102539e+00,1.607448339462280273e+00,1.607316017150878906e+00,1.607183933258056641e+00,1.607051730155944824e+00,1.606919646263122559e+00,1.606787443161010742e+00,1.606655359268188477e+00,1.606523275375366211e+00,1.606391310691833496e+00,1.606259107589721680e+00,1.606127262115478516e+00,1.605995178222656250e+00,1.605863213539123535e+00,1.605731248855590820e+00,1.605599403381347656e+00,1.605467438697814941e+00,1.605335593223571777e+00,1.605203628540039062e+00,1.605071902275085449e+00,1.604940056800842285e+00,1.604808330535888672e+00,1.604676485061645508e+00,1.604544758796691895e+00,1.604412913322448730e+00,1.604281306266784668e+00,1.604149580001831055e+00,1.604017972946166992e+00,1.603886246681213379e+00,1.603754639625549316e+00,1.559394955635070801e+00,1.542986869812011719e+00,1.544686794281005859e+00,1.537502408027648926e+00,1.603096961975097656e+00,1.602965354919433594e+00,1.602833986282348633e+00,1.602702498435974121e+00,1.602571129798889160e+00,1.184259295463562012e+00,1.134573101997375488e+00,1.100132703781127930e+00,1.100023984909057617e+00,1.601914286613464355e+00,1.601783037185668945e+00,1.601651668548583984e+00,1.601520538330078125e+00,1.601389169692993164e+00,1.601258039474487305e+00,1.601126790046691895e+00,1.600995659828186035e+00,1.600864410400390625e+00,1.600733399391174316e+00,1.600602269172668457e+00,1.600471258163452148e+00,1.600340127944946289e+00,1.600209116935729980e+00,1.600077986717224121e+00,1.599947094917297363e+00,1.599815964698791504e+00,1.599685072898864746e+00,1.599554300308227539e+00,1.599423289299011230e+00,1.599292516708374023e+00,1.599161505699157715e+00,1.599030733108520508e+00,1.598899841308593750e+00,1.598769068717956543e+00,1.598638296127319336e+00,1.598507523536682129e+00,1.598376750946044922e+00,1.598246097564697266e+00,1.598115324974060059e+00,1.597984790802001953e+00,1.597854018211364746e+00,1.597723484039306641e+00,1.597592711448669434e+00,1.597462296485900879e+00,1.597331643104553223e+00,1.597201108932495117e+00
1.467123627662658691e+00,1.467013597488403320e+00,1.466903448104858398e+00,1.466793417930603027e+00,1.466683268547058105e+00,1.466573238372802734e+00,1.466463088989257812e+00,1.466353178024291992e+00,1.466243028640747070e+00,1.466133117675781250e+00,1.466023087501525879e+00,1.465913176536560059e+00,1.465803146362304688e+00,1.465693235397338867e+00,1.465583324432373047e+00,1.465473413467407227e+00,1.465363502502441406e+00,1.465253710746765137e+00,1.465143799781799316e+00,1.465034008026123047e+00,1.464924097061157227e+00,1.464814305305480957e+00,1.464704513549804688e+00,1.464594841003417969e+00,1.464484930038452148e+00,1.464375257492065430e+00,1.464265584945678711e+00,1.464155912399291992e+00,1.464046239852905273e+00,1.463936448097229004e+00,1.463826894760131836e+00,1.463717222213745117e+00,1.463607668876647949e+00,1.463497996330261230e+00,1.463388442993164062e+00,1.463278770446777344e+00,1.463169336318969727e+00,1.463059663772583008e+00,1.462950229644775391e+00,1.194676637649536133e+00,1.144352197647094727e+00,1.073929905891418457e+00,1.030262112617492676e+00,1.020998358726501465e+00,1.035563945770263672e+00,1.069967150688171387e+00,1.462074637413024902e+00,1.461965203285217285e+00,1.461855888366699219e+00,1.461746573448181152e+00,1.461637258529663086e+00,1.461527824401855469e+00,1.461418628692626953e+00,1.461309313774108887e+00,1.461200118064880371e+00,1.461090803146362305e+00,1.460981607437133789e+00,1.460872530937194824e+00,1.460763216018676758e+00,1.460654139518737793e+00,1.460544824600219727e+00,1.460435748100280762e+00,1.460326552391052246e+00,1.460217595100402832e+00,1.460108399391174316e+00,1.459999322891235352e+00,1.459890246391296387e+00,1.459781289100646973e+00,1.459672212600708008e+00,1.459563255310058594e+00,1.459454178810119629e+00,1.459345221519470215e+00,1.459236145019531250e+00,1.459127306938171387e+00,1.459018349647521973e+00,1.458909392356872559e+00,1.458800435066223145e+00,1.458691596984863281e+00,1.458582758903503418e+00,1.458473920822143555e+00
1.349238514900207520e+00,1.349145412445068359e+00,1.349052309989929199e+00,1.348959207534790039e+00,1.348865985870361328e+00,1.348773002624511719e+00,1.348679900169372559e+00,1.348586797714233398e+00,1.348493695259094238e+00,1.348400712013244629e+00,1.348307609558105469e+00,1.348214745521545410e+00,1.348121643066406250e+00,1.348028659820556641e+00,1.347935676574707031e+00,1.347842693328857422e+00,1.347749710083007812e+00,1.347656846046447754e+00,1.347563862800598145e+00,1.347470998764038086e+00,1.347378015518188477e+00,1.347285270690917969e+00,1.347192406654357910e+00,1.347099542617797852e+00,1.347006678581237793e+00,1.346913814544677734e+00,1.346821069717407227e+00,1.346728205680847168e+00,1.346635460853576660e+00,1.346542596817016602e+00,1.346449851989746094e+00,1.346357107162475586e+00,1.346264362335205078e+00,1.346171617507934570e+00,1.346078872680664062e+00,1.345986127853393555e+00,1.345893502235412598e+00,1.345800757408142090e+00,1.345708131790161133e+00,1.200340390205383301e+00,1.181179523468017578e+00,1.069834470748901367e+00,1.043633699417114258e+00,1.070013403892517090e+00,1.091631889343261719e+00,1.345059752464294434e+00,1.344967246055603027e+00,1.344874620437622070e+00,1.344782114028930664e+00,1.344689488410949707e+00,1.344597101211547852e+00,1.344504475593566895e+00,1.344412088394165039e+00,1.344319581985473633e+00,1.344227075576782227e+00,1.344134688377380371e+00,1.344042181968688965e+00,1.343949794769287109e+00,1.343857288360595703e+00,1.343765020370483398e+00,1.343672513961791992e+00,1.343580245971679688e+00,1.343487739562988281e+00,1.343395471572875977e+00,1.343303084373474121e+00,1.343210816383361816e+00,1.343118429183959961e+00,1.343026161193847656e+00,1.342933893203735352e+00,1.342841625213623047e+00,1.342749357223510742e+00,1.342657089233398438e+00,1.342564821243286133e+00,1.342472672462463379e+00,1.342380404472351074e+00,1.342288255691528320e+00,1.342195987701416016e+00,1.342103838920593262e+00,1.342011570930480957e+00,1.341919541358947754e+00
1.248888850212097168e+00,1.248809099197387695e+00,1.248729228973388672e+00,1.248649597167968750e+00,1.248569726943969727e+00,1.248489975929260254e+00,1.248410224914550781e+00,1.248330473899841309e+00,1.248250722885131836e+00,1.248171091079711914e+00,1.248091220855712891e+00,1.248011589050292969e+00,1.247931838035583496e+00,1.247852206230163574e+00,1.247772574424743652e+00,1.247692942619323730e+00,1.247613191604614258e+00,1.247533559799194336e+00,1.247454047203063965e+00,1.247374296188354492e+00,1.247294783592224121e+00,1.247215151786804199e+00,1.247135519981384277e+00,1.247055888175964355e+00,1.246976375579833984e+00,1.246896862983703613e+00,1.246817350387573242e+00,1.246737718582153320e+00,1.246658205986022949e+00,1.246578693389892578e+00,1.246499180793762207e+00,1.246419668197631836e+00,1.246340155601501465e+00,1.246260643005371094e+00,1.246181249618530273e+00,1.246101737022399902e+00,1.246022343635559082e+00,1.245942831039428711e+00,1.245863437652587891e+00,1.245784044265747070e+00,1.245704650878906250e+00,1.245625138282775879e+00,1.245545864105224609e+00,1.245466351509094238e+00,1.245387077331542969e+00,1.245307683944702148e+00,1.245228409767150879e+00,1.245149016380310059e+00,1.245069742202758789e+00,1.244990468025207520e+00,1.244911074638366699e+00,1.244831800460815430e+00,1.244752526283264160e+00,1.244673252105712891e+00,1.244593977928161621e+00,1.244514703750610352e+00,1.244435429573059082e+00,1.244356274604797363e+00,1.244277000427246094e+00,1.244197845458984375e+00,1.244118571281433105e+00,1.244039416313171387e+00,1.243960142135620117e+00,1.243880987167358398e+00,1.243801832199096680e+00,1.243722677230834961e+00,1.243643522262573242e+00,1.243564367294311523e+00,1.243485212326049805e+00,1.243406176567077637e+00,1.243327021598815918e+00,1.243247985839843750e+00,1.243168830871582031e+00,1.243089795112609863e+00,1.243010640144348145e+00,1.242931723594665527e+00,1.242852568626403809e+00,1.242773652076721191e+00,1.242694497108459473e+00,1.242615580558776855e+00
1.162432909011840820e+00,1.162363767623901367e+00,1.162294626235961914e+00,1.162225604057312012e+00,1.162156343460083008e+00,1.162087321281433105e+00,1.162018179893493652e+00,1.161949157714843750e+00,1.161880016326904297e+00,1.161810994148254395e+00,1.161741852760314941e+00,1.161672830581665039e+00,1.161603808403015137e+00,1.161534786224365234e+00,1.161465764045715332e+00,1.161396741867065430e+00,1.161327719688415527e+00,1.161258697509765625e+00,1.161189675331115723e+00,1.161120653152465820e+00,1.161051750183105469e+00,1.160982728004455566e+00,1.160913825035095215e+00,1.160844802856445312e+00,1.160775899887084961e+00,1.160706877708435059e+00,1.160637974739074707e+00,1.160569071769714355e+00,1.160500168800354004e+00,1.160431265830993652e+00,1.160362362861633301e+00,1.160293459892272949e+00,1.160224556922912598e+00,1.160155653953552246e+00,1.160086870193481445e+00,1.160017967224121094e+00,1.159949064254760742e+00,1.159880161285400391e+00,1.159811377525329590e+00,1.159742593765258789e+00,1.159673810005187988e+00,1.159604907035827637e+00,1.159536123275756836e+00,1.159467339515686035e+00,1.159398555755615234e+00,1.159329771995544434e+00,1.159260988235473633e+00,1.159192323684692383e+00,1.159123420715332031e+00,1.159054756164550781e+00,1.158985972404479980e+00,1.158917307853698730e+00,1.158848524093627930e+00,1.158779859542846680e+00,1.158711075782775879e+00,1.158642411231994629e+00,1.158573746681213379e+00,1.158505082130432129e+00,1.158436298370361328e+00,1.158367753028869629e+00,1.158299088478088379e+00,1.158230423927307129e+00,1.158161759376525879e+00,1.158093214035034180e+00,1.158024549484252930e+00,1.157955884933471680e+00,1.157887339591979980e+00,1.157818675041198730e+00,1.157750129699707031e+00,1.157681584358215332e+00,1.157612919807434082e+00,1.157544374465942383e+00,1.157475829124450684e+00,1.157407283782958984e+00,1.157338738441467285e+00,1.157270193099975586e+00,1.157201647758483887e+00,1.157133221626281738e+00,1.157064676284790039e+00,1.156996130943298340e+00
1.087171912193298340e+00,1.087111473083496094e+00,1.087051033973693848e+00,1.086990594863891602e+00,1.086930155754089355e+00,1.086869716644287109e+00,1.086809158325195312e+00,1.086748838424682617e+00,1.086688280105590820e+00,1.086627960205078125e+00,1.086567521095275879e+00,1.086507081985473633e+00,1.086446762084960938e+00,1.086386322975158691e+00,1.086326003074645996e+00,1.086265563964843750e+00,1.086205244064331055e+00,1.086144804954528809e+00,1.086084485054016113e+00,1.086024045944213867e+00,1.085963726043701172e+00,1.085903406143188477e+00,1.085843086242675781e+00,1.085782766342163086e+00,1.085722446441650391e+00,1.085662126541137695e+00,1.085601806640625000e+00,1.085541486740112305e+00,1.085481286048889160e+00,1.085420846939086914e+00,1.085360646247863770e+00,1.085300326347351074e+00,1.085240125656127930e+00,1.085179805755615234e+00,1.085119605064392090e+00,1.085059285163879395e+00,1.084999084472656250e+00,1.084938883781433105e+00,1.084878683090209961e+00,1.084818363189697266e+00,1.084758162498474121e+00,1.084697961807250977e+00,1.084637761116027832e+00,1.084577560424804688e+00,1.084517359733581543e+00,1.084457278251647949e+00,1.084397077560424805e+00,1.084336876869201660e+00,1.084276676177978516e+00,1.084216594696044922e+00,1.084156394004821777e+00,1.084096312522888184e+00,1.084036111831665039e+00,1.083976030349731445e+00,1.083915829658508301e+00,1.083855748176574707e+00,1.083795666694641113e+00,1.083735585212707520e+00,1.083675503730773926e+00,1.083615422248840332e+00,1.083555340766906738e+00,1.083495259284973145e+00,1.083435177803039551e+00,1.083375096321105957e+00,1.083315014839172363e+00,1.083255052566528320e+00,1.083194971084594727e+00,1.083134889602661133e+00,1.083074927330017090e+00,1.083014845848083496e+00,1.082954883575439453e+00,1.082894802093505859e+00,1.082834839820861816e+00,1.082774877548217773e+00,1.082714915275573730e+00,1.082654833793640137e+00,1.082594990730285645e+00,1.082534909248352051e+00,1.082475066184997559e+00,1.082414984703063965e+00
1.021063923835754395e+00,1.021010518074035645e+00,1.020957231521606445e+00,1.020903944969177246e+00,1.020850539207458496e+00,1.020797252655029297e+00,1.020743966102600098e+00,1.020690560340881348e+00,1.020637273788452148e+00,1.020583987236022949e+00,1.020530700683593750e+00,1.020477414131164551e+00,1.020424127578735352e+00,1.020370841026306152e+00,1.020317554473876953e+00,1.020264267921447754e+00,1.020211100578308105e+00,1.020157814025878906e+00,1.020104527473449707e+00,1.020051240921020508e+00,1.019998073577880859e+00,1.019944787025451660e+00,1.019891619682312012e+00,1.019838333129882812e+00,1.019785165786743164e+00,1.019731879234313965e+00,1.019678711891174316e+00,1.019625544548034668e+00,1.019572377204895020e+00,1.019519090652465820e+00,1.019466042518615723e+00,1.019412755966186523e+00,1.019359588623046875e+00,1.019306421279907227e+00,1.019253253936767578e+00,1.019200086593627930e+00,1.019147038459777832e+00,1.019093871116638184e+00,1.019040703773498535e+00,1.018987655639648438e+00,1.018934488296508789e+00,1.018881320953369141e+00,1.018828153610229492e+00,1.018775105476379395e+00,1.018721938133239746e+00,1.018668889999389648e+00,1.018615841865539551e+00,1.018562674522399902e+00,1.018509626388549805e+00,1.018456578254699707e+00,1.018403410911560059e+00,1.018350481986999512e+00,1.018297314643859863e+00,1.018244266510009766e+00,1.018191218376159668e+00,1.018138170242309570e+00,1.018085122108459473e+00,1.018032073974609375e+00,1.017979025840759277e+00,1.017926096916198730e+00,1.017873048782348633e+00,1.017820000648498535e+00,1.017766952514648438e+00,1.017714023590087891e+00,1.017660975456237793e+00,1.017608046531677246e+00,1.017554998397827148e+00,1.017502069473266602e+00,1.017449021339416504e+00,1.017396092414855957e+00,1.017343163490295410e+00,1.017290234565734863e+00,1.017237305641174316e+00,1.017184376716613770e+00,1.017131447792053223e+00,1.017078399658203125e+00,1.017025589942932129e+00,1.016972541809082031e+00,1.016919732093811035e+00,1.016866803169250488e+00
9.625346660614013672e-01,9.624873399734497070e-01,9.624399542808532715e-01,9.623925685882568359e-01,9.623451828956604004e-01,9.622977375984191895e-01,9.622503519058227539e-01,9.622030258178710938e-01,9.621556401252746582e-01,9.621081948280334473e-01,9.620608687400817871e-01,9.620135426521301270e-01,9.619662165641784668e-01,9.619187712669372559e-01,9.618714451789855957e-01,9.618241786956787109e-01,9.617768526077270508e-01,9.617294669151306152e-01,9.616821408271789551e-01,9.616348743438720703e-01,9.615875482559204102e-01,9.615401625633239746e-01,9.614928960800170898e-01,9.614456295967102051e-01,9.613983631134033203e-01,9.613509774208068848e-01,9.613037109375000000e-01,9.612564444541931152e-01,9.612091779708862305e-01,9.611618518829345703e-01,9.611145853996276855e-01,9.610673785209655762e-01,9.610201120376586914e-01,9.609729051589965820e-01,9.609255790710449219e-01,9.608783125877380371e-01,9.608311057090759277e-01,9.607838988304138184e-01,9.607365727424621582e-01,9.606894254684448242e-01,9.606422185897827148e-01,9.605950117111206055e-01,9.605476856231689453e-01,9.605005383491516113e-01,9.604533314704895020e-01,9.604061841964721680e-01,9.603589177131652832e-01,9.603117108345031738e-01,9.602645635604858398e-01,9.602174162864685059e-01,9.601701498031616211e-01,9.601230025291442871e-01,9.600758552551269531e-01,9.600287079811096191e-01,9.599815011024475098e-01,9.599343538284301758e-01,9.598872661590576172e-01,9.598401188850402832e-01,9.597929120063781738e-01,9.597457647323608398e-01,9.596986770629882812e-01,9.596515893936157227e-01,9.596043825149536133e-01,9.595572948455810547e-01,9.595102071762084961e-01,9.594631195068359375e-01,9.594160318374633789e-01,9.593688845634460449e-01,9.593217968940734863e-01,9.592747092247009277e-01,9.592276811599731445e-01,9.591805338859558105e-01,9.591334462165832520e-01,9.590864181518554688e-01,9.590393900871276855e-01,9.589922428131103516e-01,9.589452147483825684e-01,9.588981866836547852e-01,9.588511586189270020e-01,9.588040113449096680e-01
9.103517532348632812e-01,9.103093147277832031e-01,9.102669358253479004e-01,9.102244973182678223e-01,9.101821184158325195e-01,9.101397395133972168e-01,9.100974202156066895e-01,9.100549221038818359e-01,9.100126028060913086e-01,9.099702239036560059e-01,9.099279046058654785e-01,9.098854660987854004e-01,9.098431468009948730e-01,9.098007678985595703e-01,9.097584486007690430e-01,9.097160100936889648e-01,9.096736907958984375e-01,9.096313714981079102e-01,9.095890522003173828e-01,9.095466732978820801e-01,9.095043540000915527e-01,9.094620347023010254e-01,9.094197750091552734e-01,9.093773961067199707e-01,9.093350768089294434e-01,9.092928171157836914e-01,9.092504978179931641e-01,9.092081189155578613e-01,9.091658592224121094e-01,9.091235995292663574e-01,9.090813398361206055e-01,9.090390801429748535e-01,9.089967012405395508e-01,9.089544415473937988e-01,9.089121818542480469e-01,9.088699817657470703e-01,9.088276028633117676e-01,9.087854027748107910e-01,9.087431430816650391e-01,9.087009429931640625e-01,9.086585640907287598e-01,9.086163640022277832e-01,9.085741639137268066e-01,9.085319638252258301e-01,9.084896445274353027e-01,9.084474444389343262e-01,9.084052443504333496e-01,9.083630442619323730e-01,9.083207249641418457e-01,9.082785248756408691e-01,9.082363247871398926e-01,9.081941843032836914e-01,9.081518650054931641e-01,9.081097245216369629e-01,9.080675244331359863e-01,9.080253839492797852e-01,9.079831242561340332e-01,9.079409837722778320e-01,9.078987836837768555e-01,9.078566431999206543e-01,9.078143835067749023e-01,9.077722430229187012e-01,9.077301025390625000e-01,9.076879620552062988e-01,9.076458215713500977e-01,9.076036214828491211e-01,9.075614809989929199e-01,9.075193405151367188e-01,9.074772596359252930e-01,9.074350595474243164e-01,9.073929190635681152e-01,9.073508381843566895e-01,9.073086977005004883e-01,9.072665572166442871e-01,9.072244167327880859e-01,9.071823358535766602e-01,9.071402549743652344e-01,9.070980548858642578e-01,9.070560336112976074e-01,9.070139527320861816e-01
8.635358810424804688e-01,8.634976744651794434e-01,8.634595274925231934e-01,8.634214401245117188e-01,8.633832931518554688e-01,8.633450865745544434e-01,8.633069992065429688e-01,8.632688522338867188e-01,8.632307648658752441e-01,8.631925582885742188e-01,8.631544709205627441e-01,8.631163835525512695e-01,8.630782365798950195e-01,8.630400896072387695e-01,8.630020022392272949e-01,8.629639148712158203e-01,8.629258275032043457e-01,8.628876209259033203e-01,8.628495931625366211e-01,8.628115057945251465e-01,8.627734184265136719e-01,8.627352714538574219e-01,8.626971840858459473e-01,8.626591563224792480e-01,8.626210689544677734e-01,8.625830411911010742e-01,8.625448942184448242e-01,8.625068664550781250e-01,8.624688386917114258e-01,8.624307513236999512e-01,8.623926639556884766e-01,8.623546361923217773e-01,8.623166084289550781e-01,8.622785806655883789e-01,8.622404336929321289e-01,8.622024059295654297e-01,8.621644377708435059e-01,8.621264100074768066e-01,8.620883226394653320e-01,8.620502948760986328e-01,8.620122671127319336e-01,8.619742989540100098e-01,8.619362115859985352e-01,8.618982434272766113e-01,8.618602156639099121e-01,8.618222475051879883e-01,8.617841601371765137e-01,8.617461919784545898e-01,8.617082238197326660e-01,8.616702556610107422e-01,8.616321682929992676e-01,8.615942001342773438e-01,8.615562319755554199e-01,8.615183234214782715e-01,8.614802360534667969e-01,8.614423274993896484e-01,8.614043593406677246e-01,8.613663911819458008e-01,8.613284826278686523e-01,8.612904548645019531e-01,8.612524867057800293e-01,8.612145781517028809e-01,8.611766099929809570e-01,8.611386418342590332e-01,8.611006736755371094e-01,8.610627651214599609e-01,8.610248565673828125e-01,8.609868884086608887e-01,8.609489798545837402e-01,8.609110713005065918e-01,8.608731627464294434e-01,8.608351349830627441e-01,8.607972860336303711e-01,8.607593774795532227e-01,8.607214689254760742e-01,8.606835007667541504e-01,8.606456518173217773e-01,8.606077432632446289e-01,8.605698943138122559e-01,8.605319261550903320e-01
8.212996125221252441e-01,8.212651014328002930e-01,8.212305903434753418e-01,8.211960196495056152e-01,8.211615681648254395e-01,8.211270570755004883e-01,8.210926055908203125e-01,8.210580348968505859e-01,8.210235834121704102e-01,8.209890723228454590e-01,8.209546208381652832e-01,8.209201097488403320e-01,8.208855986595153809e-01,8.208511471748352051e-01,8.208166956901550293e-01,8.207821846008300781e-01,8.207477331161499023e-01,8.207132816314697266e-01,8.206788301467895508e-01,8.206443190574645996e-01,8.206098675727844238e-01,8.205754160881042480e-01,8.205410242080688477e-01,8.205065727233886719e-01,8.204720616340637207e-01,8.204376697540283203e-01,8.204032182693481445e-01,8.203688263893127441e-01,8.203343152999877930e-01,8.202998638153076172e-01,8.202654719352722168e-01,8.202310800552368164e-01,8.201965689659118652e-01,8.201621770858764648e-01,8.201277852058410645e-01,8.200933933258056641e-01,8.200589418411254883e-01,8.200245499610900879e-01,8.199901580810546875e-01,8.199557662010192871e-01,8.199213147163391113e-01,8.198869228363037109e-01,8.198525309562683105e-01,8.198181390762329102e-01,8.197836875915527344e-01,8.197493553161621094e-01,8.197149634361267090e-01,8.196806311607360840e-01,8.196461796760559082e-01,8.196118474006652832e-01,8.195774555206298828e-01,8.195431232452392578e-01,8.195086717605590820e-01,8.194743394851684570e-01,8.194400072097778320e-01,8.194056749343872070e-01,8.193713426589965820e-01,8.193368911743164062e-01,8.193025588989257812e-01,8.192682862281799316e-01,8.192339539527893066e-01,8.191995620727539062e-01,8.191652297973632812e-01,8.191308975219726562e-01,8.190965652465820312e-01,8.190621733665466309e-01,8.190279006958007812e-01,8.189935684204101562e-01,8.189592957496643066e-01,8.189249038696289062e-01,8.188906311988830566e-01,8.188562989234924316e-01,8.188220262527465820e-01,8.187876343727111816e-01,8.187533617019653320e-01,8.187190890312194824e-01,8.186848163604736328e-01,8.186504840850830078e-01,8.186162114143371582e-01,8.185819387435913086e-01
7.830023765563964844e-01,7.829709649085998535e-01,7.829396128654479980e-01,7.829082608222961426e-01,7.828769087791442871e-01,7.828454971313476562e-01,7.828141450881958008e-01,7.827827930450439453e-01,7.827514410018920898e-01,7.827200889587402344e-01,7.826887369155883789e-01,7.826573848724365234e-01,7.826260924339294434e-01,7.825946807861328125e-01,7.825633883476257324e-01,7.825320363044738770e-01,7.825007438659667969e-01,7.824693918228149414e-01,7.824380397796630859e-01,7.824067473411560059e-01,7.823753952980041504e-01,7.823441028594970703e-01,7.823127508163452148e-01,7.822814583778381348e-01,7.822501659393310547e-01,7.822188735008239746e-01,7.821874618530273438e-01,7.821562290191650391e-01,7.821249365806579590e-01,7.820936441421508789e-01,7.820622920989990234e-01,7.820309996604919434e-01,7.819997072219848633e-01,7.819684743881225586e-01,7.819371223449707031e-01,7.819058299064636230e-01,7.818745970726013184e-01,7.818433046340942383e-01,7.818119525909423828e-01,7.817807197570800781e-01,7.817494869232177734e-01,7.817181944847106934e-01,7.816869020462036133e-01,7.816556692123413086e-01,7.816243767738342285e-01,7.815931439399719238e-01,7.815618515014648438e-01,7.815306186676025391e-01,7.814993858337402344e-01,7.814681529998779297e-01,7.814369201660156250e-01,7.814056277275085449e-01,7.813743948936462402e-01,7.813431620597839355e-01,7.813119292259216309e-01,7.812806367874145508e-01,7.812494039535522461e-01,7.812182307243347168e-01,7.811869978904724121e-01,7.811557054519653320e-01,7.811245322227478027e-01,7.810932993888854980e-01,7.810621261596679688e-01,7.810308337211608887e-01,7.809996604919433594e-01,7.809684276580810547e-01,7.809372544288635254e-01,7.809060215950012207e-01,7.808748483657836914e-01,7.808436155319213867e-01,7.808124423027038574e-01,7.807812094688415527e-01,7.807500362396240234e-01,7.807188630104064941e-01,7.806876897811889648e-01,7.806564569473266602e-01,7.806252837181091309e-01,7.805941104888916016e-01,7.805629372596740723e-01,7.805317044258117676e-01
7.481175065040588379e-01,7.480888962745666504e-01,7.480602860450744629e-01,7.480316162109375000e-01,7.480030059814453125e-01,7.479743957519531250e-01,7.479457855224609375e-01,7.479171156883239746e-01,7.478885054588317871e-01,7.478598952293395996e-01,7.478312849998474121e-01,7.478026151657104492e-01,7.477740049362182617e-01,7.477453947067260742e-01,7.477168440818786621e-01,7.476882338523864746e-01,7.476595640182495117e-01,7.476310133934020996e-01,7.476024031639099121e-01,7.475738525390625000e-01,7.475451827049255371e-01,7.475165724754333496e-01,7.474880218505859375e-01,7.474594712257385254e-01,7.474308013916015625e-01,7.474022507667541504e-01,7.473737001419067383e-01,7.473450899124145508e-01,7.473164796829223633e-01,7.472879290580749512e-01,7.472593784332275391e-01,7.472308278083801270e-01,7.472022175788879395e-01,7.471736073493957520e-01,7.471451163291931152e-01,7.471165657043457031e-01,7.470879554748535156e-01,7.470594048500061035e-01,7.470308542251586914e-01,7.470023036003112793e-01,7.469736933708190918e-01,7.469451427459716797e-01,7.469166517257690430e-01,7.468881011009216309e-01,7.468594908714294434e-01,7.468309998512268066e-01,7.468024492263793945e-01,7.467739582061767578e-01,7.467454075813293457e-01,7.467168569564819336e-01,7.466883063316345215e-01,7.466598153114318848e-01,7.466313242912292480e-01,7.466027140617370605e-01,7.465742230415344238e-01,7.465457320213317871e-01,7.465172410011291504e-01,7.464886307716369629e-01,7.464601397514343262e-01,7.464316487312316895e-01,7.464031577110290527e-01,7.463746070861816406e-01,7.463461160659790039e-01,7.463176250457763672e-01,7.462891340255737305e-01,7.462605834007263184e-01,7.462321519851684570e-01,7.462036609649658203e-01,7.461751699447631836e-01,7.461466193199157715e-01,7.461181879043579102e-01,7.460896968841552734e-01,7.460612058639526367e-01,7.460327148437500000e-01,7.460042238235473633e-01,7.459757924079895020e-01,7.459473013877868652e-01,7.459188699722290039e-01,7.458903193473815918e-01,7.458618879318237305e-01
7.162085771560668945e-01,7.161822915077209473e-01,7.161560654640197754e-01,7.161298394203186035e-01,7.161036133766174316e-01,7.160773277282714844e-01,7.160511016845703125e-01,7.160248756408691406e-01,7.159986495971679688e-01,7.159724235534667969e-01,7.159461379051208496e-01,7.159199714660644531e-01,7.158937454223632812e-01,7.158675193786621094e-01,7.158412933349609375e-01,7.158150672912597656e-01,7.157888412475585938e-01,7.157626748085021973e-01,7.157363891601562500e-01,7.157102227210998535e-01,7.156839966773986816e-01,7.156578302383422852e-01,7.156315445899963379e-01,7.156053781509399414e-01,7.155791521072387695e-01,7.155529856681823730e-01,7.155267596244812012e-01,7.155005931854248047e-01,7.154743671417236328e-01,7.154482007026672363e-01,7.154219746589660645e-01,7.153958082199096680e-01,7.153696417808532715e-01,7.153434753417968750e-01,7.153172492980957031e-01,7.152910828590393066e-01,7.152649164199829102e-01,7.152387499809265137e-01,7.152125239372253418e-01,7.151863574981689453e-01,7.151601910591125488e-01,7.151340246200561523e-01,7.151078581809997559e-01,7.150816917419433594e-01,7.150555253028869629e-01,7.150293588638305664e-01,7.150032520294189453e-01,7.149770259857177734e-01,7.149509191513061523e-01,7.149247527122497559e-01,7.148985862731933594e-01,7.148724198341369629e-01,7.148462533950805664e-01,7.148201465606689453e-01,7.147940397262573242e-01,7.147678136825561523e-01,7.147417068481445312e-01,7.147156000137329102e-01,7.146894335746765137e-01,7.146632671356201172e-01,7.146371603012084961e-01,7.146110534667968750e-01,7.145849466323852539e-01,7.145587801933288574e-01,7.145326137542724609e-01,7.145065069198608398e-01,7.144804000854492188e-01,7.144542336463928223e-01,7.144281268119812012e-01,7.144020795822143555e-01,7.143759727478027344e-01,7.143498063087463379e-01,7.143236994743347168e-01,7.142975926399230957e-01,7.142714858055114746e-01,7.142454385757446289e-01,7.142192721366882324e-01,7.141931653022766113e-01,7.141671180725097656e-01,7.141410112380981445e-01
6.869102120399475098e-01,6.868860721588134766e-01,6.868619918823242188e-01,6.868377923965454102e-01,6.868136525154113770e-01,6.867895126342773438e-01,6.867654323577880859e-01,6.867412924766540527e-01,6.867171525955200195e-01,6.866930127143859863e-01,6.866688728332519531e-01,6.866447925567626953e-01,6.866205930709838867e-01,6.865965127944946289e-01,6.865723729133605957e-01,6.865482926368713379e-01,6.865241527557373047e-01,6.865000128746032715e-01,6.864759325981140137e-01,6.864518523216247559e-01,6.864276528358459473e-01,6.864035725593566895e-01,6.863794922828674316e-01,6.863554120063781738e-01,6.863312125205993652e-01,6.863071322441101074e-01,6.862830519676208496e-01,6.862589716911315918e-01,6.862348318099975586e-01,6.862107515335083008e-01,6.861866712570190430e-01,6.861625909805297852e-01,6.861384510993957520e-01,6.861143708229064941e-01,6.860902905464172363e-01,6.860662698745727539e-01,6.860421299934387207e-01,6.860180497169494629e-01,6.859939694404602051e-01,6.859698891639709473e-01,6.859458684921264648e-01,6.859217286109924316e-01,6.858976483345031738e-01,6.858736276626586914e-01,6.858495473861694336e-01,6.858254671096801758e-01,6.858013868331909180e-01,6.857773661613464355e-01,6.857532858848571777e-01,6.857292056083679199e-01,6.857051253318786621e-01,6.856811046600341797e-01,6.856570243835449219e-01,6.856329441070556641e-01,6.856089234352111816e-01,6.855849027633666992e-01,6.855608224868774414e-01,6.855367422103881836e-01,6.855127215385437012e-01,6.854887008666992188e-01,6.854646801948547363e-01,6.854405403137207031e-01,6.854165196418762207e-01,6.853924989700317383e-01,6.853684782981872559e-01,6.853443980216979980e-01,6.853203773498535156e-01,6.852963566780090332e-01,6.852723360061645508e-01,6.852483749389648438e-01,6.852242946624755859e-01,6.852002739906311035e-01,6.851762533187866211e-01,6.851522326469421387e-01,6.851282119750976562e-01,6.851041913032531738e-01,6.850801706314086914e-01,6.850561499595642090e-01,6.850321292877197266e-01,6.850081086158752441e-01
