5.000000000000000000e+00,5.000000000000000000e+00,5.000000000000000000e+00,5.000000000000000000e+00,5.000000000000000000e+00,5.000000000000000000e+00,5.000000000000000000e+00,5.000000000000000000e+00,5.000000000000000000e+00,5.000000000000000000e+00,5.000000000000000000e+00,5.000000000000000000e+00,5.000000000000000000e+00,5.000000000000000000e+00,5.000000000000000000e+00,5.000000000000000000e+00,5.000000000000000000e+00,5.000000000000000000e+00,5.000000000000000000e+00,5.000000000000000000e+00,5.000000000000000000e+00,5.000000000000000000e+00,5.000000000000000000e+00,5.000000000000000000e+00,5.000000000000000000e+00,5.000000000000000000e+00,5.000000000000000000e+00,5.000000000000000000e+00,5.000000000000000000e+00,5.000000000000000000e+00,5.000000000000000000e+00,5.000000000000000000e+00,5.000000000000000000e+00,5.000000000000000000e+00,5.000000000000000000e+00,5.000000000000000000e+00,5.000000000000000000e+00,5.000000000000000000e+00,5.000000000000000000e+00,4.862644672393798828e+00,4.671629905700683594e+00,4.495055198669433594e+00,4.331342220306396484e+00,4.179134845733642578e+00,4.037262439727783203e+00,3.904705762863159180e+00,3.780576944351196289e+00,3.664097070693969727e+00,3.554580450057983398e+00,3.451420307159423828e+00,3.354079008102416992e+00,3.262078046798706055e+00,3.174989223480224609e+00,3.092429637908935547e+00,3.014054775238037109e+00,2.939554452896118164e+00,2.868648052215576172e+00,2.801081895828247070e+00,2.736625432968139648e+00,2.675068616867065430e+00,2.616220235824584961e+00,2.559905290603637695e+00,2.505963563919067383e+00,2.454248428344726562e+00,2.404624462127685547e+00,2.356967449188232422e+00,2.311162710189819336e+00,2.267104387283325195e+00,2.224694490432739258e+00,2.183842182159423828e+00,2.144463062286376953e+00,2.106478929519653320e+00,2.069817066192626953e+00,2.034409523010253906e+00,2.000193119049072266e+00,1.967108488082885742e+00,1.935100674629211426e+00,1.904117584228515625e+00,1.874110937118530273e+00,1.845035672187805176e+00
5.000000000000000000e+00,5.000000000000000000e+00,5.000000000000000000e+00,5.000000000000000000e+00,5.000000000000000000e+00,5.000000000000000000e+00,5.000000000000000000e+00,5.000000000000000000e+00,5.000000000000000000e+00,5.000000000000000000e+00,5.000000000000000000e+00,5.000000000000000000e+00,5.000000000000000000e+00,5.000000000000000000e+00,5.000000000000000000e+00,5.000000000000000000e+00,5.000000000000000000e+00,5.000000000000000000e+00,5.000000000000000000e+00,5.000000000000000000e+00,5.000000000000000000e+00,5.000000000000000000e+00,5.000000000000000000e+00,5.000000000000000000e+00,5.000000000000000000e+00,5.000000000000000000e+00,3.450999259948730469e+00,3.422813892364501953e+00,5.000000000000000000e+00,5.000000000000000000e+00,5.000000000000000000e+00,5.000000000000000000e+00,5.000000000000000000e+00,5.000000000000000000e+00,5.000000000000000000e+00,5.000000000000000000e+00,5.000000000000000000e+00,5.000000000000000000e+00,5.000000000000000000e+00,4.862782955169677734e+00,4.671757698059082031e+00,4.495173454284667969e+00,4.331451892852783203e+00,4.179236888885498047e+00,4.037357330322265625e+00,3.904795169830322266e+00,3.780660867691040039e+00,3.664175987243652344e+00,3.554654121398925781e+00,3.451489925384521484e+00,3.354144811630249023e+00,3.262140035629272461e+00,3.175048112869262695e+00,3.092485427856445312e+00,3.014107704162597656e+00,2.939604997634887695e+00,2.868696212768554688e+00,2.801127910614013672e+00,2.736669063568115234e+00,2.675110578536987305e+00,2.616260290145874023e+00,2.559943675994873047e+00,2.506000280380249023e+00,2.454283475875854492e+00,2.404658079147338867e+00,2.356999874114990234e+00,2.311193943023681641e+00,2.267134428024291992e+00,2.224723577499389648e+00,2.183870077133178711e+00,2.144490003585815430e+00,2.106504917144775391e+00,2.069842100143432617e+00,2.034433841705322266e+00,2.000216484069824219e+00,1.967131018638610840e+00,1.935122489929199219e+00,1.904138803482055664e+00,1.874131679534912109e+00,1.845055580139160156e+00
5.000000000000000000e+00,5.000000000000000000e+00,5.000000000000000000e+00,5.000000000000000000e+00,5.000000000000000000e+00,5.000000000000000000e+00,5.000000000000000000e+00,5.000000000000000000e+00,5.000000000000000000e+00,5.000000000000000000e+00,5.000000000000000000e+00,5.000000000000000000e+00,5.000000000000000000e+00,5.000000000000000000e+00,5.000000000000000000e+00,5.000000000000000000e+00,5.000000000000000000e+00,5.000000000000000000e+00,5.000000000000000000e+00,5.000000000000000000e+00,5.000000000000000000e+00,5.000000000000000000e+00,5.000000000000000000e+00,5.000000000000000000e+00,5.000000000000000000e+00,5.000000000000000000e+00,3.427869319915771484e+00,3.409053325653076172e+00,5.000000000000000000e+00,5.000000000000000000e+00,5.000000000000000000e+00,5.000000000000000000e+00,5.000000000000000000e+00,5.000000000000000000e+00,5.000000000000000000e+00,5.000000000000000000e+00,5.000000000000000000e+00,5.000000000000000000e+00,5.000000000000000000e+00,4.862921237945556641e+00,4.671885013580322266e+00,4.495291233062744141e+00,4.331561565399169922e+00,4.179339408874511719e+00,4.037452697753906250e+00,3.904884338378906250e+00,3.780744552612304688e+00,3.664254426956176758e+00,3.554728269577026367e+00,3.451559782028198242e+00,3.354210853576660156e+00,3.262202262878417969e+00,3.175107002258300781e+00,3.092541217803955078e+00,3.014160871505737305e+00,2.939655542373657227e+00,2.868744373321533203e+00,2.801173925399780273e+00,2.736713171005249023e+00,2.675152540206909180e+00,2.616300344467163086e+00,2.559981822967529297e+00,2.506036996841430664e+00,2.454318761825561523e+00,2.404691934585571289e+00,2.357032537460327148e+00,2.311225175857543945e+00,2.267164468765258789e+00,2.224752426147460938e+00,2.183897972106933594e+00,2.144516944885253906e+00,2.106530904769897461e+00,2.069867134094238281e+00,2.034457921981811523e+00,2.000239849090576172e+00,1.967153668403625488e+00,1.935144424438476562e+00,1.904159903526306152e+00,1.874152183532714844e+00,1.845075488090515137e+00
5.000000000000000000e+00,5.000000000000000000e+00,5.000000000000000000e+00,5.000000000000000000e+00,5.000000000000000000e+00,5.000000000000000000e+00,5.000000000000000000e+00,5.000000000000000000e+00,5.000000000000000000e+00,5.000000000000000000e+00,5.000000000000000000e+00,5.000000000000000000e+00,5.000000000000000000e+00,5.000000000000000000e+00,5.000000000000000000e+00,5.000000000000000000e+00,5.000000000000000000e+00,5.000000000000000000e+00,5.000000000000000000e+00,5.000000000000000000e+00,5.000000000000000000e+00,5.000000000000000000e+00,5.000000000000000000e+00,5.000000000000000000e+00,5.000000000000000000e+00,5.000000000000000000e+00,3.441636800765991211e+00,3.418881177902221680e+00,3.470814466476440430e+00,5.000000000000000000e+00,5.000000000000000000e+00,5.000000000000000000e+00,5.000000000000000000e+00,5.000000000000000000e+00,5.000000000000000000e+00,5.000000000000000000e+00,5.000000000000000000e+00,5.000000000000000000e+00,5.000000000000000000e+00,4.863059520721435547e+00,4.672012805938720703e+00,4.495409965515136719e+00,4.331671237945556641e+00,4.179441452026367188e+00,4.037548065185546875e+00,3.904973268508911133e+00,3.780827999114990234e+00,3.664332866668701172e+00,3.554802179336547852e+00,3.451629400253295898e+00,3.354276657104492188e+00,3.262264728546142578e+00,3.175166130065917969e+00,3.092597246170043945e+00,3.014214038848876953e+00,2.939705848693847656e+00,2.868792533874511719e+00,2.801219701766967773e+00,2.736756801605224609e+00,2.675194263458251953e+00,2.616340398788452148e+00,2.560020208358764648e+00,2.506073951721191406e+00,2.454354047775268555e+00,2.404725790023803711e+00,2.357064962387084961e+00,2.311256408691406250e+00,2.267194509506225586e+00,2.224781274795532227e+00,2.183925867080688477e+00,2.144543647766113281e+00,2.106556892395019531e+00,2.069892168045043945e+00,2.034482240676879883e+00,2.000263214111328125e+00,1.967176318168640137e+00,1.935166239738464355e+00,1.904181122779846191e+00,1.874172687530517578e+00,1.845095276832580566e+00
5.000000000000000000e+00,5.000000000000000000e+00,5.000000000000000000e+00,5.000000000000000000e+00,5.000000000000000000e+00,5.000000000000000000e+00,5.000000000000000000e+00,5.000000000000000000e+00,5.000000000000000000e+00,5.000000000000000000e+00,5.000000000000000000e+00,5.000000000000000000e+00,5.000000000000000000e+00,5.000000000000000000e+00,5.000000000000000000e+00,5.000000000000000000e+00,5.000000000000000000e+00,5.000000000000000000e+00,5.000000000000000000e+00,5.000000000000000000e+00,5.000000000000000000e+00,5.000000000000000000e+00,5.000000000000000000e+00,5.000000000000000000e+00,5.000000000000000000e+00,5.000000000000000000e+00,3.497397661209106445e+00,3.435793161392211914e+00,5.000000000000000000e+00,5.000000000000000000e+00,5.000000000000000000e+00,5.000000000000000000e+00,5.000000000000000000e+00,5.000000000000000000e+00,5.000000000000000000e+00,5.000000000000000000e+00,5.000000000000000000e+00,5.000000000000000000e+00,5.000000000000000000e+00,4.863197803497314453e+00,4.672140598297119141e+00,4.495527744293212891e+00,4.331780910491943359e+00,4.179543495178222656e+00,4.037643432617187500e+00,3.905062437057495117e+00,3.780911445617675781e+00,3.664411306381225586e+00,3.554876089096069336e+00,3.451699018478393555e+00,3.354342222213745117e+00,3.262326955795288086e+00,3.175225019454956055e+00,3.092653274536132812e+00,3.014267206192016602e+00,2.939756631851196289e+00,2.868840456008911133e+00,2.801265478134155273e+00,2.736800670623779297e+00,2.675236225128173828e+00,2.616380453109741211e+00,2.560058593750000000e+00,2.506110668182373047e+00,2.454389333724975586e+00,2.404759645462036133e+00,2.357097387313842773e+00,2.311287641525268555e+00,2.267224550247192383e+00,2.224810123443603516e+00,2.183953762054443359e+00,2.144570589065551758e+00,2.106582880020141602e+00,2.069917201995849609e+00,2.034506320953369141e+00,2.000286579132080078e+00,1.967199087142944336e+00,1.935188174247741699e+00,1.904202342033386230e+00,1.874193310737609863e+00,1.845115184783935547e+00
5.000000000000000000e+00,5.000000000000000000e+00,5.000000000000000000e+00,5.000000000000000000e+00,5.000000000000000000e+00,5.000000000000000000e+00,5.000000000000000000e+00,5.000000000000000000e+00,5.000000000000000000e+00,5.000000000000000000e+00,5.000000000000000000e+00,5.000000000000000000e+00,5.000000000000000000e+00,5.000000000000000000e+00,5.000000000000000000e+00,5.000000000000000000e+00,5.000000000000000000e+00,5.000000000000000000e+00,5.000000000000000000e+00,5.000000000000000000e+00,5.000000000000000000e+00,5.000000000000000000e+00,5.000000000000000000e+00,5.000000000000000000e+00,3.402737379074096680e+00,3.421550273895263672e+00,3.420356035232543945e+00,3.503131389617919922e+00,3.523621320724487305e+00,5.000000000000000000e+00,5.000000000000000000e+00,5.000000000000000000e+00,5.000000000000000000e+00,5.000000000000000000e+00,5.000000000000000000e+00,5.000000000000000000e+00,5.000000000000000000e+00,5.000000000000000000e+00,5.000000000000000000e+00,4.863336086273193359e+00,4.672268390655517578e+00,4.495645999908447266e+00,4.331890583038330078e+00,4.179646015167236328e+00,4.037738800048828125e+00,3.905151844024658203e+00,3.780995368957519531e+00,3.664490222930908203e+00,3.554949760437011719e+00,3.451768636703491211e+00,3.354408025741577148e+00,3.262389183044433594e+00,3.175283908843994141e+00,3.092709302902221680e+00,3.014320373535156250e+00,2.939807176589965820e+00,2.868888854980468750e+00,2.801311492919921875e+00,2.736844301223754883e+00,2.675277948379516602e+00,2.616420507431030273e+00,2.560096979141235352e+00,2.506147384643554688e+00,2.454424381256103516e+00,2.404793500900268555e+00,2.357130050659179688e+00,2.311318874359130859e+00,2.267254829406738281e+00,2.224839210510253906e+00,2.183981657028198242e+00,2.144597530364990234e+00,2.106608867645263672e+00,2.069942235946655273e+00,2.034530639648437500e+00,2.000309944152832031e+00,1.967221736907958984e+00,1.935209989547729492e+00,1.904223680496215820e+00,1.874213814735412598e+00,1.845135331153869629e+00
5.000000000000000000e+00,5.000000000000000000e+00,5.000000000000000000e+00,5.000000000000000000e+00,5.000000000000000000e+00,5.000000000000000000e+00,5.000000000000000000e+00,5.000000000000000000e+00,5.000000000000000000e+00,5.000000000000000000e+00,5.000000000000000000e+00,5.000000000000000000e+00,5.000000000000000000e+00,5.000000000000000000e+00,5.000000000000000000e+00,5.000000000000000000e+00,5.000000000000000000e+00,5.000000000000000000e+00,5.000000000000000000e+00,5.000000000000000000e+00,5.000000000000000000e+00,5.000000000000000000e+00,5.000000000000000000e+00,3.360540390014648438e+00,3.376380681991577148e+00,3.381210088729858398e+00,3.402734279632568359e+00,3.429462909698486328e+00,3.471724033355712891e+00,3.529192686080932617e+00,3.575837850570678711e+00,5.000000000000000000e+00,5.000000000000000000e+00,5.000000000000000000e+00,5.000000000000000000e+00,5.000000000000000000e+00,5.000000000000000000e+00,5.000000000000000000e+00,5.000000000000000000e+00,4.863474845886230469e+00,4.672395706176757812e+00,4.495764255523681641e+00,4.332000732421875000e+00,4.179748058319091797e+00,4.037834167480468750e+00,3.905241012573242188e+00,3.781078815460205078e+00,3.664568662643432617e+00,3.555023908615112305e+00,3.451838493347167969e+00,3.354473829269409180e+00,3.262451171875000000e+00,3.175342798233032227e+00,3.092765092849731445e+00,3.014373540878295898e+00,2.939857721328735352e+00,2.868937015533447266e+00,2.801357507705688477e+00,2.736888408660888672e+00,2.675319910049438477e+00,2.616460561752319336e+00,2.560135126113891602e+00,2.506183862686157227e+00,2.454459667205810547e+00,2.404827356338500977e+00,2.357162475585937500e+00,2.311350107192993164e+00,2.267284870147705078e+00,2.224868297576904297e+00,2.184009552001953125e+00,2.144624471664428711e+00,2.106634855270385742e+00,2.069967269897460938e+00,2.034554719924926758e+00,2.000333309173583984e+00,1.967244386672973633e+00,1.935231924057006836e+00,1.904244899749755859e+00,1.874234318733215332e+00,1.845155239105224609e+00
5.000000000000000000e+00,5.000000000000000000e+00,5.000000000000000000e+00,5.000000000000000000e+00,5.000000000000000000e+00,5.000000000000000000e+00,5.000000000000000000e+00,5.000000000000000000e+00,5.000000000000000000e+00,5.000000000000000000e+00,5.000000000000000000e+00,5.000000000000000000e+00,5.000000000000000000e+00,5.000000000000000000e+00,5.000000000000000000e+00,5.000000000000000000e+00,5.000000000000000000e+00,5.000000000000000000e+00,5.000000000000000000e+00,5.000000000000000000e+00,5.000000000000000000e+00,5.000000000000000000e+00,5.000000000000000000e+00,3.377737045288085938e+00,3.395798206329345703e+00,3.376435756683349609e+00,3.373657226562500000e+00,3.394096136093139648e+00,3.425342082977294922e+00,3.480730056762695312e+00,3.593290328979492188e+00,5.000000000000000000e+00,5.000000000000000000e+00,5.000000000000000000e+00,5.000000000000000000e+00,5.000000000000000000e+00,5.000000000000000000e+00,5.000000000000000000e+00,5.000000000000000000e+00,4.863612651824951172e+00,4.672523498535156250e+00,4.495882511138916016e+00,4.332109928131103516e+00,4.179850101470947266e+00,4.037929534912109375e+00,3.905330181121826172e+00,3.781162500381469727e+00,3.664647102355957031e+00,3.555097818374633789e+00,3.451908111572265625e+00,3.354539871215820312e+00,3.262513875961303711e+00,3.175402164459228516e+00,3.092820882797241211e+00,3.014426469802856445e+00,2.939908027648925781e+00,2.868984937667846680e+00,2.801403284072875977e+00,2.736932039260864258e+00,2.675361871719360352e+00,2.616500616073608398e+00,2.560173749923706055e+00,2.506220817565917969e+00,2.454494953155517578e+00,2.404860973358154297e+00,2.357194900512695312e+00,2.311381340026855469e+00,2.267314910888671875e+00,2.224897146224975586e+00,2.184037446975708008e+00,2.144651412963867188e+00,2.106660842895507812e+00,2.069992542266845703e+00,2.034579038619995117e+00,2.000356674194335938e+00,1.967266917228698730e+00,1.935253739356994629e+00,1.904265999794006348e+00,1.874254822731018066e+00,1.845175027847290039e+00
5.000000000000000000e+00,5.000000000000000000e+00,5.000000000000000000e+00,5.000000000000000000e+00,5.000000000000000000e+00,5.000000000000000000e+00,5.000000000000000000e+00,5.000000000000000000e+00,5.000000000000000000e+00,5.000000000000000000e+00,5.000000000000000000e+00,5.000000000000000000e+00,5.000000000000000000e+00,5.000000000000000000e+00,5.000000000000000000e+00,5.000000000000000000e+00,5.000000000000000000e+00,5.000000000000000000e+00,5.000000000000000000e+00,5.000000000000000000e+00,5.000000000000000000e+00,5.000000000000000000e+00,5.000000000000000000e+00,3.403964519500732422e+00,3.403278350830078125e+00,3.382703781127929688e+00,3.383956670761108398e+00,3.391780138015747070e+00,3.424917697906494141e+00,3.481723070144653320e+00,3.597269058227539062e+00,5.000000000000000000e+00,5.000000000000000000e+00,5.000000000000000000e+00,5.000000000000000000e+00,5.000000000000000000e+00,5.000000000000000000e+00,5.000000000000000000e+00,5.000000000000000000e+00,4.863751411437988281e+00,4.672651290893554688e+00,4.496000766754150391e+00,4.332220077514648438e+00,4.179952621459960938e+00,4.038024902343750000e+00,3.905419111251831055e+00,3.781245946884155273e+00,3.664725542068481445e+00,3.555171728134155273e+00,3.451977729797363281e+00,3.354605436325073242e+00,3.262575864791870117e+00,3.175461053848266602e+00,3.092877149581909180e+00,3.014479875564575195e+00,2.939958810806274414e+00,2.869033098220825195e+00,2.801449060440063477e+00,2.736975908279418945e+00,2.675403594970703125e+00,2.616540670394897461e+00,2.560211896896362305e+00,2.506257534027099609e+00,2.454530239105224609e+00,2.404895067214965820e+00,2.357227563858032227e+00,2.311412572860717773e+00,2.267344951629638672e+00,2.224925994873046875e+00,2.184065341949462891e+00,2.144678115844726562e+00,2.106686592102050781e+00,2.070017576217651367e+00,2.034603357315063477e+00,2.000380277633666992e+00,1.967289566993713379e+00,1.935275912284851074e+00,1.904287219047546387e+00,1.874275326728820801e+00,1.845194935798645020e+00
5.000000000000000000e+00,5.000000000000000000e+00,5.000000000000000000e+00,5.000000000000000000e+00,5.000000000000000000e+00,5.000000000000000000e+00,5.000000000000000000e+00,5.000000000000000000e+00,5.000000000000000000e+00,5.000000000000000000e+00,5.000000000000000000e+00,5.000000000000000000e+00,5.000000000000000000e+00,5.000000000000000000e+00,5.000000000000000000e+00,5.000000000000000000e+00,5.000000000000000000e+00,5.000000000000000000e+00,5.000000000000000000e+00,5.000000000000000000e+00,5.000000000000000000e+00,5.000000000000000000e+00,5.000000000000000000e+00,3.409384489059448242e+00,3.400588750839233398e+00,3.393132686614990234e+00,3.379336833953857422e+00,3.388237476348876953e+00,3.420014619827270508e+00,3.499592542648315430e+00,3.600838899612426758e+00,5.000000000000000000e+00,5.000000000000000000e+00,5.000000000000000000e+00,5.000000000000000000e+00,5.000000000000000000e+00,5.000000000000000000e+00,5.000000000000000000e+00,5.000000000000000000e+00,4.863889694213867188e+00,4.672779083251953125e+00,4.496119022369384766e+00,4.332329750061035156e+00,4.180054664611816406e+00,4.038120269775390625e+00,3.905508756637573242e+00,3.781329870223999023e+00,3.664804458618164062e+00,3.555245399475097656e+00,3.452047348022460938e+00,3.354671239852905273e+00,3.262638092041015625e+00,3.175519943237304688e+00,3.092932939529418945e+00,3.014533042907714844e+00,2.940009355545043945e+00,2.869081497192382812e+00,2.801495075225830078e+00,2.737019538879394531e+00,2.675445318222045898e+00,2.616580486297607422e+00,2.560250282287597656e+00,2.506294250488281250e+00,2.454565525054931641e+00,2.404928684234619141e+00,2.357259988784790039e+00,2.311444044113159180e+00,2.267374992370605469e+00,2.224955081939697266e+00,2.184093236923217773e+00,2.144705057144165039e+00,2.106712579727172852e+00,2.070042610168457031e+00,2.034627437591552734e+00,2.000403642654418945e+00,1.967312097549438477e+00,1.935297727584838867e+00,1.904308438301086426e+00,1.874296069145202637e+00,1.845214843750000000e+00
5.000000000000000000e+00,5.000000000000000000e+00,5.000000000000000000e+00,5.000000000000000000e+00,5.000000000000000000e+00,5.000000000000000000e+00,5.000000000000000000e+00,5.000000000000000000e+00,5.000000000000000000e+00,5.000000000000000000e+00,5.000000000000000000e+00,5.000000000000000000e+00,5.000000000000000000e+00,5.000000000000000000e+00,5.000000000000000000e+00,5.000000000000000000e+00,5.000000000000000000e+00,5.000000000000000000e+00,5.000000000000000000e+00,5.000000000000000000e+00,5.000000000000000000e+00,5.000000000000000000e+00,5.000000000000000000e+00,3.416980028152465820e+00,3.404947042465209961e+00,3.400127649307250977e+00,3.376242876052856445e+00,3.393386363983154297e+00,3.425466299057006836e+00,3.503146886825561523e+00,3.601392745971679688e+00,5.000000000000000000e+00,5.000000000000000000e+00,5.000000000000000000e+00,5.000000000000000000e+00,5.000000000000000000e+00,5.000000000000000000e+00,5.000000000000000000e+00,5.000000000000000000e+00,4.864027976989746094e+00,4.672906875610351562e+00,4.496237277984619141e+00,4.332439422607421875e+00,4.180156707763671875e+00,4.038215637207031250e+00,3.905597925186157227e+00,3.781413316726684570e+00,3.664882898330688477e+00,3.555319786071777344e+00,3.452117443084716797e+00,3.354737043380737305e+00,3.262700319290161133e+00,3.175578832626342773e+00,3.092988967895507812e+00,3.014585971832275391e+00,2.940059900283813477e+00,2.869129419326782227e+00,2.801541090011596680e+00,2.737063646316528320e+00,2.675487518310546875e+00,2.616620779037475586e+00,2.560288429260253906e+00,2.506330966949462891e+00,2.454600572586059570e+00,2.404962539672851562e+00,2.357292413711547852e+00,2.311475276947021484e+00,2.267405033111572266e+00,2.224983930587768555e+00,2.184121131896972656e+00,2.144731998443603516e+00,2.106738567352294922e+00,2.070067644119262695e+00,2.034651517868041992e+00,2.000427007675170898e+00,1.967334747314453125e+00,1.935319662094116211e+00,1.904329657554626465e+00,1.874316573143005371e+00,1.845234751701354980e+00
5.000000000000000000e+00,5.000000000000000000e+00,5.000000000000000000e+00,5.000000000000000000e+00,5.000000000000000000e+00,5.000000000000000000e+00,5.000000000000000000e+00,5.000000000000000000e+00,5.000000000000000000e+00,5.000000000000000000e+00,5.000000000000000000e+00,5.000000000000000000e+00,5.000000000000000000e+00,5.000000000000000000e+00,5.000000000000000000e+00,5.000000000000000000e+00,5.000000000000000000e+00,5.000000000000000000e+00,5.000000000000000000e+00,5.000000000000000000e+00,5.000000000000000000e+00,5.000000000000000000e+00,5.000000000000000000e+00,3.427416563034057617e+00,3.421633005142211914e+00,3.384299755096435547e+00,3.362663745880126953e+00,3.382108211517333984e+00,3.416521310806274414e+00,3.483595371246337891e+00,3.621395587921142578e+00,5.000000000000000000e+00,5.000000000000000000e+00,5.000000000000000000e+00,5.000000000000000000e+00,5.000000000000000000e+00,5.000000000000000000e+00,5.000000000000000000e+00,5.000000000000000000e+00,4.864166259765625000e+00,4.673034667968750000e+00,4.496355533599853516e+00,4.332549095153808594e+00,4.180258750915527344e+00,4.038311004638671875e+00,3.905686855316162109e+00,3.781497001647949219e+00,3.664961338043212891e+00,3.555393457412719727e+00,3.452186822891235352e+00,3.354803085327148438e+00,3.262762784957885742e+00,3.175637960433959961e+00,3.093044757843017578e+00,3.014639139175415039e+00,2.940110445022583008e+00,2.869177579879760742e+00,2.801586866378784180e+00,2.737107276916503906e+00,2.675529241561889648e+00,2.616660833358764648e+00,2.560327053070068359e+00,2.506367683410644531e+00,2.454636096954345703e+00,2.404996395111083984e+00,2.357324838638305664e+00,2.311506271362304688e+00,2.267435073852539062e+00,2.225013017654418945e+00,2.184149026870727539e+00,2.144758939743041992e+00,2.106764554977416992e+00,2.070092678070068359e+00,2.034675836563110352e+00,2.000450372695922852e+00,1.967357397079467773e+00,1.935341477394104004e+00,1.904350757598876953e+00,1.874337077140808105e+00,1.845254659652709961e+00
5.000000000000000000e+00,5.000000000000000000e+00,5.000000000000000000e+00,5.000000000000000000e+00,5.000000000000000000e+00,5.000000000000000000e+00,5.000000000000000000e+00,5.000000000000000000e+00,5.000000000000000000e+00,5.000000000000000000e+00,5.000000000000000000e+00,5.000000000000000000e+00,5.000000000000000000e+00,5.000000000000000000e+00,5.000000000000000000e+00,5.000000000000000000e+00,5.000000000000000000e+00,5.000000000000000000e+00,5.000000000000000000e+00,5.000000000000000000e+00,5.000000000000000000e+00,5.000000000000000000e+00,5.000000000000000000e+00,3.414572715759277344e+00,3.406789541244506836e+00,3.374950647354125977e+00,3.373372316360473633e+00,3.390668630599975586e+00,3.425960063934326172e+00,3.506249904632568359e+00,3.608846187591552734e+00,5.000000000000000000e+00,5.000000000000000000e+00,5.000000000000000000e+00,5.000000000000000000e+00,5.000000000000000000e+00,5.000000000000000000e+00,5.000000000000000000e+00,5.000000000000000000e+00,4.864305019378662109e+00,4.673161983489990234e+00,4.496473789215087891e+00,4.332659244537353516e+00,4.180361270904541016e+00,4.038406372070312500e+00,3.905776023864746094e+00,3.781580448150634766e+00,3.665039777755737305e+00,3.555467367172241211e+00,3.452256441116333008e+00,3.354868888854980469e+00,3.262825012207031250e+00,3.175696849822998047e+00,3.093101024627685547e+00,3.014692544937133789e+00,2.940160989761352539e+00,2.869225740432739258e+00,2.801632642745971680e+00,2.737151145935058594e+00,2.675570964813232422e+00,2.616700649261474609e+00,2.560365200042724609e+00,2.506404399871826172e+00,2.454671144485473633e+00,2.405030250549316406e+00,2.357357501983642578e+00,2.311537504196166992e+00,2.267465114593505859e+00,2.225041866302490234e+00,2.184176921844482422e+00,2.144785881042480469e+00,2.106790542602539062e+00,2.070117712020874023e+00,2.034700155258178711e+00,2.000473976135253906e+00,1.967380166053771973e+00,1.935363411903381348e+00,1.904371976852416992e+00,1.874357581138610840e+00,1.845274567604064941e+00
5.000000000000000000e+00,5.000000000000000000e+00,5.000000000000000000e+00,5.000000000000000000e+00,5.000000000000000000e+00,5.000000000000000000e+00,5.000000000000000000e+00,5.000000000000000000e+00,5.000000000000000000e+00,5.000000000000000000e+00,5.000000000000000000e+00,5.000000000000000000e+00,5.000000000000000000e+00,5.000000000000000000e+00,5.000000000000000000e+00,5.000000000000000000e+00,5.000000000000000000e+00,5.000000000000000000e+00,5.000000000000000000e+00,5.000000000000000000e+00,5.000000000000000000e+00,5.000000000000000000e+00,5.000000000000000000e+00,3.397771835327148438e+00,3.386704921722412109e+00,3.366029024124145508e+00,3.372882366180419922e+00,3.412459850311279297e+00,3.445264577865600586e+00,3.500630617141723633e+00,3.597027063369750977e+00,3.644068002700805664e+00,5.000000000000000000e+00,5.000000000000000000e+00,5.000000000000000000e+00,5.000000000000000000e+00,5.000000000000000000e+00,5.000000000000000000e+00,5.000000000000000000e+00,4.864442825317382812e+00,4.673289775848388672e+00,4.496592044830322266e+00,4.332768917083740234e+00,4.180463314056396484e+00,4.038501739501953125e+00,3.905865669250488281e+00,3.781664371490478516e+00,3.665118694305419922e+00,3.555541276931762695e+00,3.452326059341430664e+00,3.354934692382812500e+00,3.262887239456176758e+00,3.175755739212036133e+00,3.093156814575195312e+00,3.014745473861694336e+00,2.940211534500122070e+00,2.869273900985717773e+00,2.801678895950317383e+00,2.737194776535034180e+00,2.675612926483154297e+00,2.616740703582763672e+00,2.560403585433959961e+00,2.506441116333007812e+00,2.454706430435180664e+00,2.405064105987548828e+00,2.357389926910400391e+00,2.311568975448608398e+00,2.267495393753051758e+00,2.225070953369140625e+00,2.184204816818237305e+00,2.144812583923339844e+00,2.106816530227661133e+00,2.070142745971679688e+00,2.034724235534667969e+00,2.000497341156005859e+00,1.967402815818786621e+00,1.935385227203369141e+00,1.904393315315246582e+00,1.874378204345703125e+00,1.845294594764709473e+00
5.000000000000000000e+00,5.000000000000000000e+00,5.000000000000000000e+00,5.000000000000000000e+00,5.000000000000000000e+00,5.000000000000000000e+00,5.000000000000000000e+00,5.000000000000000000e+00,5.000000000000000000e+00,5.000000000000000000e+00,5.000000000000000000e+00,5.000000000000000000e+00,5.000000000000000000e+00,5.000000000000000000e+00,5.000000000000000000e+00,5.000000000000000000e+00,5.000000000000000000e+00,5.000000000000000000e+00,5.000000000000000000e+00,5.000000000000000000e+00,5.000000000000000000e+00,5.000000000000000000e+00,5.000000000000000000e+00,5.000000000000000000e+00,3.364716053009033203e+00,3.346599578857421875e+00,3.355264425277709961e+00,3.463345766067504883e+00,3.425138235092163086e+00,3.424247503280639648e+00,3.601983070373535156e+00,3.591793537139892578e+00,5.000000000000000000e+00,5.000000000000000000e+00,5.000000000000000000e+00,5.000000000000000000e+00,5.000000000000000000e+00,5.000000000000000000e+00,5.000000000000000000e+00,4.864581584930419922e+00,4.673417568206787109e+00,4.496710300445556641e+00,4.332878589630126953e+00,4.180565834045410156e+00,4.038597106933593750e+00,3.905954599380493164e+00,3.781748056411743164e+00,3.665197134017944336e+00,3.555615425109863281e+00,3.452396154403686523e+00,3.355000257492065430e+00,3.262949466705322266e+00,3.175814628601074219e+00,3.093212604522705078e+00,3.014798641204833984e+00,2.940262079238891602e+00,2.869322061538696289e+00,2.801724672317504883e+00,2.737238883972167969e+00,2.675654888153076172e+00,2.616780996322631836e+00,2.560441970825195312e+00,2.506477832794189453e+00,2.454741477966308594e+00,2.405097961425781250e+00,2.357422351837158203e+00,2.311600208282470703e+00,2.267525434494018555e+00,2.225099802017211914e+00,2.184232711791992188e+00,2.144839763641357422e+00,2.106842517852783203e+00,2.070167779922485352e+00,2.034748554229736328e+00,2.000520706176757812e+00,1.967425465583801270e+00,1.935407161712646484e+00,1.904414534568786621e+00,1.874398708343505859e+00,1.845314502716064453e+00
5.000000000000000000e+00,5.000000000000000000e+00,5.000000000000000000e+00,5.000000000000000000e+00,5.000000000000000000e+00,5.000000000000000000e+00,5.000000000000000000e+00,5.000000000000000000e+00,5.000000000000000000e+00,5.000000000000000000e+00,5.000000000000000000e+00,5.000000000000000000e+00,5.000000000000000000e+00,5.000000000000000000e+00,5.000000000000000000e+00,5.000000000000000000e+00,5.000000000000000000e+00,5.000000000000000000e+00,5.000000000000000000e+00,5.000000000000000000e+00,5.000000000000000000e+00,5.000000000000000000e+00,5.000000000000000000e+00,5.000000000000000000e+00,5.000000000000000000e+00,3.343836545944213867e+00,3.348806858062744141e+00,3.398633718490600586e+00,3.397659301757812500e+00,3.402779102325439453e+00,3.484580993652343750e+00,3.571724414825439453e+00,5.000000000000000000e+00,5.000000000000000000e+00,5.000000000000000000e+00,5.000000000000000000e+00,5.000000000000000000e+00,5.000000000000000000e+00,5.000000000000000000e+00,4.864719867706298828e+00,4.673545360565185547e+00,4.496828556060791016e+00,4.332988262176513672e+00,4.180667877197265625e+00,4.038692474365234375e+00,3.906043767929077148e+00,3.781831502914428711e+00,3.665275573730468750e+00,3.555689334869384766e+00,3.452465772628784180e+00,3.355066299438476562e+00,3.263011932373046875e+00,3.175873994827270508e+00,3.093268632888793945e+00,3.014851808547973633e+00,2.940312623977661133e+00,2.869370222091674805e+00,2.801770448684692383e+00,2.737282514572143555e+00,2.675696611404418945e+00,2.616821050643920898e+00,2.560480356216430664e+00,2.506514787673950195e+00,2.454777002334594727e+00,2.405131578445434570e+00,2.357454776763916016e+00,2.311631441116333008e+00,2.267555475234985352e+00,2.225128650665283203e+00,2.184260606765747070e+00,2.144866466522216797e+00,2.106868505477905273e+00,2.070193052291870117e+00,2.034772872924804688e+00,2.000544071197509766e+00,1.967447996139526367e+00,1.935428977012634277e+00,1.904435753822326660e+00,1.874419212341308594e+00,1.845334410667419434e+00
5.000000000000000000e+00,5.000000000000000000e+00,5.000000000000000000e+00,5.000000000000000000e+00,5.000000000000000000e+00,5.000000000000000000e+00,5.000000000000000000e+00,5.000000000000000000e+00,5.000000000000000000e+00,5.000000000000000000e+00,5.000000000000000000e+00,5.000000000000000000e+00,5.000000000000000000e+00,5.000000000000000000e+00,5.000000000000000000e+00,5.000000000000000000e+00,5.000000000000000000e+00,5.000000000000000000e+00,5.000000000000000000e+00,5.000000000000000000e+00,5.000000000000000000e+00,5.000000000000000000e+00,5.000000000000000000e+00,5.000000000000000000e+00,3.335836172103881836e+00,3.347915410995483398e+00,3.349748134613037109e+00,3.394606828689575195e+00,3.395931005477905273e+00,3.391377210617065430e+00,3.457576513290405273e+00,3.548128843307495117e+00,5.000000000000000000e+00,5.000000000000000000e+00,5.000000000000000000e+00,5.000000000000000000e+00,5.000000000000000000e+00,5.000000000000000000e+00,5.000000000000000000e+00,4.864858627319335938e+00,4.673673152923583984e+00,4.496946811676025391e+00,4.333098411560058594e+00,4.180769920349121094e+00,4.038788318634033203e+00,3.906132936477661133e+00,3.781914949417114258e+00,3.665354013442993164e+00,3.555763244628906250e+00,3.452535390853881836e+00,3.355132102966308594e+00,3.263074159622192383e+00,3.175932884216308594e+00,3.093324661254882812e+00,3.014905214309692383e+00,2.940363407135009766e+00,2.869418382644653320e+00,2.801816463470458984e+00,2.737326383590698242e+00,2.675738573074340820e+00,2.616860866546630859e+00,2.560518741607666016e+00,2.506551504135131836e+00,2.454812049865722656e+00,2.405165672302246094e+00,2.357487440109252930e+00,2.311662673950195312e+00,2.267585515975952148e+00,2.225157737731933594e+00,2.184288501739501953e+00,2.144893407821655273e+00,2.106894254684448242e+00,2.070218086242675781e+00,2.034796953201293945e+00,2.000567436218261719e+00,1.967470645904541016e+00,1.935451149940490723e+00,1.904456973075866699e+00,1.874439716339111328e+00,1.845354318618774414e+00
5.000000000000000000e+00,5.000000000000000000e+00,5.000000000000000000e+00,5.000000000000000000e+00,5.000000000000000000e+00,5.000000000000000000e+00,5.000000000000000000e+00,5.000000000000000000e+00,5.000000000000000000e+00,5.000000000000000000e+00,5.000000000000000000e+00,5.000000000000000000e+00,5.000000000000000000e+00,5.000000000000000000e+00,5.000000000000000000e+00,5.000000000000000000e+00,5.000000000000000000e+00,5.000000000000000000e+00,5.000000000000000000e+00,5.000000000000000000e+00,5.000000000000000000e+00,5.000000000000000000e+00,5.000000000000000000e+00,3.364458322525024414e+00,5.000000000000000000e+00,3.372934579849243164e+00,3.351808786392211914e+00,3.389500617980957031e+00,3.395645380020141602e+00,3.376967668533325195e+00,3.428961753845214844e+00,5.000000000000000000e+00,5.000000000000000000e+00,5.000000000000000000e+00,5.000000000000000000e+00,5.000000000000000000e+00,5.000000000000000000e+00,5.000000000000000000e+00,5.000000000000000000e+00,4.864996910095214844e+00,4.673800945281982422e+00,4.497065067291259766e+00,4.333208084106445312e+00,4.180872440338134766e+00,4.038883209228515625e+00,3.906222581863403320e+00,3.781999111175537109e+00,3.665432453155517578e+00,3.555836915969848633e+00,3.452605009078979492e+00,3.355197906494140625e+00,3.263136148452758789e+00,3.175991773605346680e+00,3.093380689620971680e+00,3.014958143234252930e+00,2.940413951873779297e+00,2.869466543197631836e+00,2.801862478256225586e+00,2.737370252609252930e+00,2.675780296325683594e+00,2.616900920867919922e+00,2.560556888580322266e+00,2.506588220596313477e+00,2.454847335815429688e+00,2.405199527740478516e+00,2.357519865036010742e+00,2.311693906784057617e+00,2.267615556716918945e+00,2.225186824798583984e+00,2.184316396713256836e+00,2.144920349121093750e+00,2.106920242309570312e+00,2.070243120193481445e+00,2.034821033477783203e+00,2.000590801239013672e+00,1.967493295669555664e+00,1.935472965240478516e+00,1.904478073120117188e+00,1.874460458755493164e+00,1.845374226570129395e+00
5.000000000000000000e+00,5.000000000000000000e+00,5.000000000000000000e+00,5.000000000000000000e+00,5.000000000000000000e+00,5.000000000000000000e+00,5.000000000000000000e+00,5.000000000000000000e+00,5.000000000000000000e+00,5.000000000000000000e+00,5.000000000000000000e+00,5.000000000000000000e+00,5.000000000000000000e+00,5.000000000000000000e+00,5.000000000000000000e+00,5.000000000000000000e+00,5.000000000000000000e+00,5.000000000000000000e+00,5.000000000000000000e+00,5.000000000000000000e+00,5.000000000000000000e+00,5.000000000000000000e+00,5.000000000000000000e+00,5.000000000000000000e+00,5.000000000000000000e+00,3.406389474868774414e+00,3.349546194076538086e+00,3.384768486022949219e+00,3.390187263488769531e+00,3.362803459167480469e+00,3.393257379531860352e+00,5.000000000000000000e+00,5.000000000000000000e+00,5.000000000000000000e+00,5.000000000000000000e+00,5.000000000000000000e+00,5.000000000000000000e+00,5.000000000000000000e+00,5.000000000000000000e+00,4.865135192871093750e+00,4.673928737640380859e+00,4.497183322906494141e+00,4.333318233489990234e+00,4.180974483489990234e+00,4.038979053497314453e+00,3.906311750411987305e+00,3.782082557678222656e+00,3.665511369705200195e+00,3.555911302566528320e+00,3.452675104141235352e+00,3.355263710021972656e+00,3.263198375701904297e+00,3.176050662994384766e+00,3.093436479568481445e+00,3.015011310577392578e+00,2.940464258193969727e+00,2.869514703750610352e+00,2.801908254623413086e+00,2.737414121627807617e+00,2.675822257995605469e+00,2.616941213607788086e+00,2.560595273971557617e+00,2.506624937057495117e+00,2.454882621765136719e+00,2.405233144760131836e+00,2.357552528381347656e+00,2.311725139617919922e+00,2.267645597457885742e+00,2.225215673446655273e+00,2.184344291687011719e+00,2.144947290420532227e+00,2.106946229934692383e+00,2.070268154144287109e+00,2.034845352172851562e+00,2.000614166259765625e+00,1.967515826225280762e+00,1.935494899749755859e+00,1.904499292373657227e+00,1.874480962753295898e+00,1.845394015312194824e+00
5.000000000000000000e+00,5.000000000000000000e+00,5.000000000000000000e+00,5.000000000000000000e+00,5.000000000000000000e+00,5.000000000000000000e+00,5.000000000000000000e+00,5.000000000000000000e+00,5.000000000000000000e+00,5.000000000000000000e+00,5.000000000000000000e+00,5.000000000000000000e+00,5.000000000000000000e+00,5.000000000000000000e+00,5.000000000000000000e+00,5.000000000000000000e+00,5.000000000000000000e+00,5.000000000000000000e+00,5.000000000000000000e+00,5.000000000000000000e+00,5.000000000000000000e+00,5.000000000000000000e+00,5.000000000000000000e+00,5.000000000000000000e+00,5.000000000000000000e+00,5.000000000000000000e+00,3.352306365966796875e+00,3.375964403152465820e+00,5.000000000000000000e+00,3.344413042068481445e+00,3.364584207534790039e+00,5.000000000000000000e+00,5.000000000000000000e+00,5.000000000000000000e+00,5.000000000000000000e+00,5.000000000000000000e+00,5.000000000000000000e+00,5.000000000000000000e+00,5.000000000000000000e+00,4.865273475646972656e+00,4.674056529998779297e+00,4.497301578521728516e+00,4.333427906036376953e+00,4.181076526641845703e+00,4.039074420928955078e+00,3.906400918960571289e+00,3.782166004180908203e+00,3.665589809417724609e+00,3.555985212326049805e+00,3.452744722366333008e+00,3.355329751968383789e+00,3.263261079788208008e+00,3.176109790802001953e+00,3.093492507934570312e+00,3.015064477920532227e+00,2.940514802932739258e+00,2.869562864303588867e+00,2.801954269409179688e+00,2.737457990646362305e+00,2.675864219665527344e+00,2.616981267929077148e+00,2.560633659362792969e+00,2.506661653518676758e+00,2.454917669296264648e+00,2.405267000198364258e+00,2.357584953308105469e+00,2.311756372451782227e+00,2.267675638198852539e+00,2.225244522094726562e+00,2.184372186660766602e+00,2.144974231719970703e+00,2.106972217559814453e+00,2.070293188095092773e+00,2.034869670867919922e+00,2.000637769699096680e+00,1.967538475990295410e+00,1.935516715049743652e+00,1.904520511627197266e+00,1.874501466751098633e+00,1.845413923263549805e+00
5.000000000000000000e+00,5.000000000000000000e+00,5.000000000000000000e+00,5.000000000000000000e+00,5.000000000000000000e+00,5.000000000000000000e+00,5.000000000000000000e+00,5.000000000000000000e+00,5.000000000000000000e+00,5.000000000000000000e+00,5.000000000000000000e+00,5.000000000000000000e+00,5.000000000000000000e+00,5.000000000000000000e+00,5.000000000000000000e+00,5.000000000000000000e+00,5.000000000000000000e+00,5.000000000000000000e+00,5.000000000000000000e+00,5.000000000000000000e+00,5.000000000000000000e+00,5.000000000000000000e+00,5.000000000000000000e+00,5.000000000000000000e+00,5.000000000000000000e+00,5.000000000000000000e+00,3.363450050354003906e+00,3.376548528671264648e+00,5.000000000000000000e+00,3.352285861968994141e+00,3.370980262756347656e+00,5.000000000000000000e+00,5.000000000000000000e+00,5.000000000000000000e+00,5.000000000000000000e+00,5.000000000000000000e+00,5.000000000000000000e+00,5.000000000000000000e+00,5.000000000000000000e+00,4.865411758422851562e+00,4.674184322357177734e+00,4.497419834136962891e+00,4.333537578582763672e+00,4.181179046630859375e+00,4.039169788360595703e+00,3.906489849090576172e+00,3.782249689102172852e+00,3.665668249130249023e+00,3.556058883666992188e+00,3.452814340591430664e+00,3.355395555496215820e+00,3.263323068618774414e+00,3.176168918609619141e+00,3.093548536300659180e+00,3.015117883682250977e+00,2.940565347671508789e+00,2.869611024856567383e+00,2.802000045776367188e+00,2.737501621246337891e+00,2.675905942916870117e+00,2.617021083831787109e+00,2.560672044754028320e+00,2.506698369979858398e+00,2.454953193664550781e+00,2.405300855636596680e+00,2.357617616653442383e+00,2.311787605285644531e+00,2.267705678939819336e+00,2.225273609161376953e+00,2.184400081634521484e+00,2.145001173019409180e+00,2.106998205184936523e+00,2.070318222045898438e+00,2.034893751144409180e+00,2.000661134719848633e+00,1.967561364173889160e+00,1.935538649559020996e+00,1.904541730880737305e+00,1.874521970748901367e+00,1.845433831214904785e+00
5.000000000000000000e+00,5.000000000000000000e+00,5.000000000000000000e+00,5.000000000000000000e+00,5.000000000000000000e+00,5.000000000000000000e+00,5.000000000000000000e+00,5.000000000000000000e+00,5.000000000000000000e+00,5.000000000000000000e+00,5.000000000000000000e+00,5.000000000000000000e+00,5.000000000000000000e+00,5.000000000000000000e+00,5.000000000000000000e+00,5.000000000000000000e+00,5.000000000000000000e+00,5.000000000000000000e+00,5.000000000000000000e+00,5.000000000000000000e+00,5.000000000000000000e+00,5.000000000000000000e+00,5.000000000000000000e+00,5.000000000000000000e+00,5.000000000000000000e+00,5.000000000000000000e+00,3.393241167068481445e+00,3.415086269378662109e+00,3.453021526336669922e+00,3.405329942703247070e+00,5.000000000000000000e+00,5.000000000000000000e+00,5.000000000000000000e+00,5.000000000000000000e+00,5.000000000000000000e+00,5.000000000000000000e+00,5.000000000000000000e+00,5.000000000000000000e+00,5.000000000000000000e+00,4.865550518035888672e+00,4.674312114715576172e+00,4.497538089752197266e+00,4.333647251129150391e+00,4.181281089782714844e+00,4.039265155792236328e+00,3.906579494476318359e+00,3.782333612442016602e+00,3.665746927261352539e+00,3.556132793426513672e+00,3.452883958816528320e+00,3.355461359024047852e+00,3.263385295867919922e+00,3.176227807998657227e+00,3.093604564666748047e+00,3.015170812606811523e+00,2.940616130828857422e+00,2.869659185409545898e+00,2.802046060562133789e+00,2.737545490264892578e+00,2.675947904586791992e+00,2.617061138153076172e+00,2.560710430145263672e+00,2.506735086441040039e+00,2.454988241195678711e+00,2.405334711074829102e+00,2.357650041580200195e+00,2.311819076538085938e+00,2.267735958099365234e+00,2.225302696228027344e+00,2.184427976608276367e+00,2.145027875900268555e+00,2.107023954391479492e+00,2.070343255996704102e+00,2.034918069839477539e+00,2.000684499740600586e+00,1.967583894729614258e+00,1.935560584068298340e+00,1.904563069343566895e+00,1.874542593955993652e+00,1.845453739166259766e+00
5.000000000000000000e+00,5.000000000000000000e+00,5.000000000000000000e+00,5.000000000000000000e+00,5.000000000000000000e+00,5.000000000000000000e+00,5.000000000000000000e+00,5.000000000000000000e+00,5.000000000000000000e+00,5.000000000000000000e+00,5.000000000000000000e+00,5.000000000000000000e+00,5.000000000000000000e+00,5.000000000000000000e+00,5.000000000000000000e+00,5.000000000000000000e+00,5.000000000000000000e+00,5.000000000000000000e+00,5.000000000000000000e+00,5.000000000000000000e+00,5.000000000000000000e+00,5.000000000000000000e+00,5.000000000000000000e+00,5.000000000000000000e+00,5.000000000000000000e+00,5.000000000000000000e+00,3.420942544937133789e+00,3.469404935836791992e+00,3.478480577468872070e+00,3.474097967147827148e+00,5.000000000000000000e+00,5.000000000000000000e+00,5.000000000000000000e+00,5.000000000000000000e+00,5.000000000000000000e+00,5.000000000000000000e+00,5.000000000000000000e+00,5.000000000000000000e+00,5.000000000000000000e+00,4.865688800811767578e+00,4.674439907073974609e+00,4.497656345367431641e+00,4.333757400512695312e+00,4.181383609771728516e+00,4.039360523223876953e+00,3.906668663024902344e+00,3.782417297363281250e+00,3.665825605392456055e+00,3.556207180023193359e+00,3.452953815460205078e+00,3.355527162551879883e+00,3.263447523117065430e+00,3.176286697387695312e+00,3.093660354614257812e+00,3.015223979949951172e+00,2.940666675567626953e+00,2.869707345962524414e+00,2.802092075347900391e+00,2.737589359283447266e+00,2.675989866256713867e+00,2.617101430892944336e+00,2.560748577117919922e+00,2.506771802902221680e+00,2.455023527145385742e+00,2.405368566513061523e+00,2.357682466506958008e+00,2.311850309371948242e+00,2.267765998840332031e+00,2.225331544876098633e+00,2.184456110000610352e+00,2.145055055618286133e+00,2.107049942016601562e+00,2.070368289947509766e+00,2.034942150115966797e+00,2.000707864761352539e+00,1.967606544494628906e+00,1.935582399368286133e+00,1.904584288597106934e+00,1.874563097953796387e+00,1.845473885536193848e+00
5.000000000000000000e+00,5.000000000000000000e+00,5.000000000000000000e+00,5.000000000000000000e+00,5.000000000000000000e+00,5.000000000000000000e+00,5.000000000000000000e+00,5.000000000000000000e+00,5.000000000000000000e+00,5.000000000000000000e+00,5.000000000000000000e+00,5.000000000000000000e+00,5.000000000000000000e+00,5.000000000000000000e+00,5.000000000000000000e+00,5.000000000000000000e+00,5.000000000000000000e+00,5.000000000000000000e+00,5.000000000000000000e+00,5.000000000000000000e+00,5.000000000000000000e+00,5.000000000000000000e+00,5.000000000000000000e+00,5.000000000000000000e+00,5.000000000000000000e+00,5.000000000000000000e+00,3.434174776077270508e+00,3.479952812194824219e+00,3.519136667251586914e+00,5.000000000000000000e+00,5.000000000000000000e+00,5.000000000000000000e+00,5.000000000000000000e+00,5.000000000000000000e+00,5.000000000000000000e+00,5.000000000000000000e+00,5.000000000000000000e+00,5.000000000000000000e+00,5.000000000000000000e+00,4.865827560424804688e+00,4.674567699432373047e+00,4.497775077819824219e+00,4.333867073059082031e+00,4.181485652923583984e+00,4.039455890655517578e+00,3.906757831573486328e+00,3.782500743865966797e+00,3.665904283523559570e+00,3.556281089782714844e+00,3.453023672103881836e+00,3.355593204498291016e+00,3.263510227203369141e+00,3.176345825195312500e+00,3.093716382980346680e+00,3.015277147293090820e+00,2.940717220306396484e+00,2.869755506515502930e+00,2.802137851715087891e+00,2.737633228302001953e+00,2.676031827926635742e+00,2.617141485214233398e+00,2.560787200927734375e+00,2.506808757781982422e+00,2.455058813095092773e+00,2.405402421951293945e+00,2.357714891433715820e+00,2.311881542205810547e+00,2.267796039581298828e+00,2.225360393524169922e+00,2.184484004974365234e+00,2.145081758499145508e+00,2.107076168060302734e+00,2.070393562316894531e+00,2.034966468811035156e+00,2.000731229782104492e+00,1.967629194259643555e+00,1.935604333877563477e+00,1.904605507850646973e+00,1.874583601951599121e+00,1.845493793487548828e+00
5.000000000000000000e+00,5.000000000000000000e+00,5.000000000000000000e+00,5.000000000000000000e+00,5.000000000000000000e+00,5.000000000000000000e+00,5.000000000000000000e+00,5.000000000000000000e+00,5.000000000000000000e+00,5.000000000000000000e+00,5.000000000000000000e+00,5.000000000000000000e+00,5.000000000000000000e+00,5.000000000000000000e+00,5.000000000000000000e+00,5.000000000000000000e+00,5.000000000000000000e+00,5.000000000000000000e+00,5.000000000000000000e+00,5.000000000000000000e+00,5.000000000000000000e+00,5.000000000000000000e+00,5.000000000000000000e+00,5.000000000000000000e+00,5.000000000000000000e+00,5.000000000000000000e+00,3.450787782669067383e+00,3.490854740142822266e+00,3.565569400787353516e+00,5.000000000000000000e+00,5.000000000000000000e+00,5.000000000000000000e+00,5.000000000000000000e+00,5.000000000000000000e+00,5.000000000000000000e+00,5.000000000000000000e+00,5.000000000000000000e+00,5.000000000000000000e+00,5.000000000000000000e+00,4.865965843200683594e+00,4.674695491790771484e+00,4.497892856597900391e+00,4.333977222442626953e+00,4.181588172912597656e+00,4.039551734924316406e+00,3.906847000122070312e+00,3.782584428787231445e+00,3.665982723236083984e+00,3.556354761123657227e+00,3.453093290328979492e+00,3.355659008026123047e+00,3.263572454452514648e+00,3.176404953002929688e+00,3.093772649765014648e+00,3.015330553054809570e+00,2.940767765045166016e+00,2.869803667068481445e+00,2.802183628082275391e+00,2.737677097320556641e+00,2.676073551177978516e+00,2.617181301116943359e+00,2.560825347900390625e+00,2.506845474243164062e+00,2.455094099044799805e+00,2.405436277389526367e+00,2.357747554779052734e+00,2.311912536621093750e+00,2.267826080322265625e+00,2.225389242172241211e+00,2.184511661529541016e+00,2.145108699798583984e+00,2.107101917266845703e+00,2.070418596267700195e+00,2.034990787506103516e+00,2.000754833221435547e+00,1.967651724815368652e+00,1.935626387596130371e+00,1.904626607894897461e+00,1.874604105949401855e+00,1.845513582229614258e+00
5.000000000000000000e+00,5.000000000000000000e+00,5.000000000000000000e+00,5.000000000000000000e+00,5.000000000000000000e+00,5.000000000000000000e+00,5.000000000000000000e+00,5.000000000000000000e+00,5.000000000000000000e+00,5.000000000000000000e+00,5.000000000000000000e+00,5.000000000000000000e+00,5.000000000000000000e+00,5.000000000000000000e+00,5.000000000000000000e+00,5.000000000000000000e+00,5.000000000000000000e+00,5.000000000000000000e+00,5.000000000000000000e+00,5.000000000000000000e+00,5.000000000000000000e+00,5.000000000000000000e+00,5.000000000000000000e+00,5.000000000000000000e+00,5.000000000000000000e+00,5.000000000000000000e+00,3.473765850067138672e+00,3.507510185241699219e+00,5.000000000000000000e+00,5.000000000000000000e+00,5.000000000000000000e+00,5.000000000000000000e+00,5.000000000000000000e+00,5.000000000000000000e+00,5.000000000000000000e+00,5.000000000000000000e+00,5.000000000000000000e+00,5.000000000000000000e+00,5.000000000000000000e+00,4.866104602813720703e+00,4.674822807312011719e+00,4.498011112213134766e+00,4.334086894989013672e+00,4.181690216064453125e+00,4.039646625518798828e+00,3.906936645507812500e+00,3.782668352127075195e+00,3.666061162948608398e+00,3.556428670883178711e+00,3.453162908554077148e+00,3.355724811553955078e+00,3.263634443283081055e+00,3.176463842391967773e+00,3.093828439712524414e+00,3.015383481979370117e+00,2.940818548202514648e+00,2.869851827621459961e+00,2.802229881286621094e+00,2.737720727920532227e+00,2.676115274429321289e+00,2.617221355438232422e+00,2.560863733291625977e+00,2.506882190704345703e+00,2.455129384994506836e+00,2.405470132827758789e+00,2.357779979705810547e+00,2.311944007873535156e+00,2.267856121063232422e+00,2.225418329238891602e+00,2.184539556503295898e+00,2.145135641098022461e+00,2.107127904891967773e+00,2.070443630218505859e+00,2.035014867782592773e+00,2.000778198242187500e+00,1.967674374580383301e+00,1.935648322105407715e+00,1.904647827148437500e+00,1.874624848365783691e+00,1.845533490180969238e+00
5.000000000000000000e+00,5.000000000000000000e+00,5.000000000000000000e+00,5.000000000000000000e+00,5.000000000000000000e+00,5.000000000000000000e+00,5.000000000000000000e+00,5.000000000000000000e+00,5.000000000000000000e+00,5.000000000000000000e+00,5.000000000000000000e+00,5.000000000000000000e+00,5.000000000000000000e+00,5.000000000000000000e+00,5.000000000000000000e+00,5.000000000000000000e+00,5.000000000000000000e+00,5.000000000000000000e+00,5.000000000000000000e+00,5.000000000000000000e+00,5.000000000000000000e+00,5.000000000000000000e+00,5.000000000000000000e+00,5.000000000000000000e+00,5.000000000000000000e+00,5.000000000000000000e+00,3.498288869857788086e+00,5.000000000000000000e+00,3.649186611175537109e+00,5.000000000000000000e+00,5.000000000000000000e+00,5.000000000000000000e+00,5.000000000000000000e+00,5.000000000000000000e+00,5.000000000000000000e+00,5.000000000000000000e+00,5.000000000000000000e+00,5.000000000000000000e+00,5.000000000000000000e+00,4.866242885589599609e+00,4.674951076507568359e+00,4.498129844665527344e+00,4.334197044372558594e+00,4.181792259216308594e+00,4.039742469787597656e+00,3.907025814056396484e+00,3.782752037048339844e+00,3.666140079498291016e+00,3.556503057479858398e+00,3.453233003616333008e+00,3.355790615081787109e+00,3.263696670532226562e+00,3.176522731781005859e+00,3.093884468078613281e+00,3.015436649322509766e+00,2.940868854522705078e+00,2.869899988174438477e+00,2.802275657653808594e+00,2.737764835357666016e+00,2.676157474517822266e+00,2.617261648178100586e+00,2.560902118682861328e+00,2.506918907165527344e+00,2.455164670944213867e+00,2.405503988265991211e+00,2.357812643051147461e+00,2.311975240707397461e+00,2.267886161804199219e+00,2.225447416305541992e+00,2.184567689895629883e+00,2.145162582397460938e+00,2.107153892517089844e+00,2.070468664169311523e+00,2.035039186477661133e+00,2.000801563262939453e+00,1.967697024345397949e+00,1.935670137405395508e+00,1.904669046401977539e+00,1.874645352363586426e+00,1.845553398132324219e+00
4.875857353210449219e+00,4.874646663665771484e+00,4.873435974121093750e+00,4.872225761413574219e+00,4.871016979217529297e+00,4.869807720184326172e+00,4.868599891662597656e+00,4.867392063140869141e+00,4.866185188293457031e+00,4.864979267120361328e+00,4.863773345947265625e+00,4.862568378448486328e+00,4.861363410949707031e+00,4.860159873962402344e+00,4.858956336975097656e+00,4.857753276824951172e+00,4.856551647186279297e+00,4.855350017547607422e+00,4.854149341583251953e+00,4.852948665618896484e+00,4.851748943328857422e+00,4.850549697875976562e+00,4.849350929260253906e+00,4.848153591156005859e+00,4.846955776214599609e+00,4.845758914947509766e+00,3.524952888488769531e+00,3.522738695144653320e+00,3.596290349960327148e+00,4.840977668762207031e+00,4.839783668518066406e+00,4.838590621948242188e+00,4.837397575378417969e+00,4.836205959320068359e+00,4.835014343261718750e+00,4.833823204040527344e+00,4.832633018493652344e+00,4.831442832946777344e+00,4.830254077911376953e+00,4.829065322875976562e+00,4.675078392028808594e+00,4.498248100280761719e+00,4.334306716918945312e+00,4.181894779205322266e+00,4.039837837219238281e+00,3.907114982604980469e+00,3.782835483551025391e+00,3.666218519210815430e+00,3.556576967239379883e+00,3.453302621841430664e+00,3.355856657028198242e+00,3.263759374618530273e+00,3.176581859588623047e+00,3.093940258026123047e+00,3.015489816665649414e+00,2.940919399261474609e+00,2.869948148727416992e+00,2.802321672439575195e+00,2.737808465957641602e+00,2.676199197769165039e+00,2.617301702499389648e+00,2.560940504074096680e+00,2.506955862045288086e+00,2.455199718475341797e+00,2.405537843704223633e+00,2.357845067977905273e+00,2.312006473541259766e+00,2.267916440963745117e+00,2.225476264953613281e+00,2.184595584869384766e+00,2.145189523696899414e+00,2.107179880142211914e+00,2.070493698120117188e+00,2.035063505172729492e+00,2.000824928283691406e+00,1.967719674110412598e+00,1.935692071914672852e+00,1.904690265655517578e+00,1.874665975570678711e+00,1.845573306083679199e+00
3.778665542602539062e+00,3.777938365936279297e+00,3.777211189270019531e+00,3.776484251022338867e+00,3.775757551193237305e+00,3.775031089782714844e+00,3.774305343627929688e+00,3.773579597473144531e+00,3.772854089736938477e+00,3.772128582000732422e+00,3.771403789520263672e+00,3.770679473876953125e+00,3.769954919815063477e+00,3.769230842590332031e+00,3.768507003784179688e+00,3.767783403396606445e+00,3.767060518264770508e+00,3.766337394714355469e+00,3.765614748001098633e+00,3.764892101287841797e+00,3.764169931411743164e+00,3.763448476791381836e+00,3.762726783752441406e+00,3.762005329132080078e+00,3.761284112930297852e+00,3.760563373565673828e+00,3.759843349456787109e+00,3.444556474685668945e+00,3.446288347244262695e+00,3.757683277130126953e+00,3.756963729858398438e+00,3.756245136260986328e+00,3.755526065826416016e+00,3.754807472229003906e+00,3.754089117050170898e+00,3.753371477127075195e+00,3.752653598785400391e+00,3.751936197280883789e+00,3.751218795776367188e+00,3.750501871109008789e+00,3.749785661697387695e+00,3.749069213867187500e+00,3.748353004455566406e+00,3.747637033462524414e+00,3.746921539306640625e+00,3.746206521987915039e+00,3.745491504669189453e+00,3.666297197341918945e+00,3.556650638580322266e+00,3.453372240066528320e+00,3.355922460556030273e+00,3.263821601867675781e+00,3.176640987396240234e+00,3.093996524810791016e+00,3.015543222427368164e+00,2.940969944000244141e+00,2.869996309280395508e+00,2.802367448806762695e+00,2.737852334976196289e+00,2.676241159439086914e+00,2.617341756820678711e+00,2.560978889465332031e+00,2.506992578506469727e+00,2.455235242843627930e+00,2.405571699142456055e+00,2.357877731323242188e+00,2.312037706375122070e+00,2.267946481704711914e+00,2.225505113601684570e+00,2.184623479843139648e+00,2.145216464996337891e+00,2.107205867767333984e+00,2.070518732070922852e+00,2.035087585449218750e+00,2.000848531723022461e+00,1.967742443084716797e+00,1.935714006423950195e+00,1.904711365699768066e+00,1.874686479568481445e+00,1.845593214035034180e+00
3.084560871124267578e+00,3.084076166152954102e+00,3.083591699600219727e+00,3.083107233047485352e+00,3.082622766494750977e+00,3.082138538360595703e+00,3.081654787063598633e+00,3.081171035766601562e+00,3.080687284469604492e+00,3.080203771591186523e+00,3.079720258712768555e+00,3.079237222671508789e+00,3.078754186630249023e+00,3.078271150588989258e+00,3.077788352966308594e+00,3.077305555343627930e+00,3.076823234558105469e+00,3.076340913772583008e+00,3.075858831405639648e+00,3.075376749038696289e+00,3.074894666671752930e+00,3.074413299560546875e+00,3.073931694030761719e+00,3.073450088500976562e+00,3.072968721389770508e+00,3.072487592697143555e+00,3.072006940841674805e+00,3.071526050567626953e+00,3.071045398712158203e+00,3.070564746856689453e+00,3.070084333419799805e+00,3.069604396820068359e+00,3.069124221801757812e+00,3.068644285202026367e+00,3.068164587020874023e+00,3.067685127258300781e+00,3.067205667495727539e+00,3.066726207733154297e+00,3.066246986389160156e+00,3.065768003463745117e+00,3.065289497375488281e+00,3.064810752868652344e+00,3.064332008361816406e+00,3.063853502273559570e+00,3.063375234603881836e+00,3.062897443771362305e+00,3.062419414520263672e+00,3.061941385269165039e+00,3.061463832855224609e+00,3.060986280441284180e+00,3.060508966445922852e+00,3.060031890869140625e+00,3.059554576873779297e+00,3.059077739715576172e+00,3.015596389770507812e+00,2.941020727157592773e+00,2.870044708251953125e+00,2.802413463592529297e+00,2.737896203994750977e+00,2.676282882690429688e+00,2.617381572723388672e+00,2.561017274856567383e+00,2.507029294967651367e+00,2.455270290374755859e+00,2.405605554580688477e+00,2.357910156250000000e+00,2.312069177627563477e+00,2.267976522445678711e+00,2.225534200668334961e+00,2.184651374816894531e+00,2.145243167877197266e+00,2.107231855392456055e+00,2.070543766021728516e+00,2.035111904144287109e+00,2.000871896743774414e+00,1.967765092849731445e+00,1.935735821723937988e+00,1.904732823371887207e+00,1.874706983566284180e+00,1.845613121986389160e+00
2.605884790420532227e+00,2.605538845062255859e+00,2.605192899703979492e+00,2.604847192764282227e+00,2.604501485824584961e+00,2.604155778884887695e+00,2.603810310363769531e+00,2.603464841842651367e+00,2.603119611740112305e+00,2.602774143218994141e+00,2.602429151535034180e+00,2.602084159851074219e+00,2.601739168167114258e+00,2.601394176483154297e+00,2.601049423217773438e+00,2.600704669952392578e+00,2.600360155105590820e+00,2.600015640258789062e+00,2.599671125411987305e+00,2.599326848983764648e+00,2.598982572555541992e+00,2.598638534545898438e+00,2.598294496536254883e+00,2.597950458526611328e+00,2.597606420516967773e+00,2.597262620925903320e+00,2.596919059753417969e+00,2.596575498580932617e+00,2.596231937408447266e+00,2.595888614654541016e+00,2.595545053482055664e+00,2.595201969146728516e+00,2.594858884811401367e+00,2.594515800476074219e+00,2.594172716140747070e+00,2.593830108642578125e+00,2.593487262725830078e+00,2.593144416809082031e+00,2.592801809310913086e+00,2.592459201812744141e+00,2.592117071151733398e+00,2.591774702072143555e+00,2.591432332992553711e+00,2.591090202331542969e+00,2.590748071670532227e+00,2.590406179428100586e+00,2.590064287185668945e+00,2.589722633361816406e+00,2.589380741119384766e+00,2.589039087295532227e+00,2.588697910308837891e+00,2.588356256484985352e+00,2.588014841079711914e+00,2.587673664093017578e+00,2.587332487106323242e+00,2.586991548538208008e+00,2.586650609970092773e+00,2.586309671401977539e+00,2.585968732833862305e+00,2.585628032684326172e+00,2.585287570953369141e+00,2.561055421829223633e+00,2.507066011428833008e+00,2.455305576324462891e+00,2.405639410018920898e+00,2.357942581176757812e+00,2.312100410461425781e+00,2.268006563186645508e+00,2.225563287734985352e+00,2.184679269790649414e+00,2.145270347595214844e+00,2.107257843017578125e+00,2.070569038391113281e+00,2.035135984420776367e+00,2.000895261764526367e+00,1.967787742614746094e+00,1.935757756233215332e+00,1.904754042625427246e+00,1.874727487564086914e+00,1.845633268356323242e+00
2.255815505981445312e+00,2.255556583404541016e+00,2.255297183990478516e+00,2.255038261413574219e+00,2.254779338836669922e+00,2.254520177841186523e+00,2.254261255264282227e+00,2.254002571105957031e+00,2.253743648529052734e+00,2.253484964370727539e+00,2.253226280212402344e+00,2.252967596054077148e+00,2.252709150314331055e+00,2.252450704574584961e+00,2.252192258834838867e+00,2.251934051513671875e+00,2.251675605773925781e+00,2.251417398452758789e+00,2.251158952713012695e+00,2.250900983810424805e+00,2.250643014907836914e+00,2.250384807586669922e+00,2.250126838684082031e+00,2.249868869781494141e+00,2.249610900878906250e+00,2.249352931976318359e+00,2.249095201492309570e+00,2.248837471008300781e+00,2.248579978942871094e+00,2.248322248458862305e+00,2.248064756393432617e+00,2.247807264328002930e+00,2.247549772262573242e+00,2.247292518615722656e+00,2.247035026550292969e+00,2.246778011322021484e+00,2.246520757675170898e+00,2.246263504028320312e+00,2.246006488800048828e+00,2.245749473571777344e+00,2.245492458343505859e+00,2.245235443115234375e+00,2.244978666305541992e+00,2.244721889495849609e+00,2.244465112686157227e+00,2.244208574295043945e+00,2.243952035903930664e+00,2.243695259094238281e+00,2.243438720703125000e+00,2.243182420730590820e+00,2.242926120758056641e+00,2.242669820785522461e+00,2.242413520812988281e+00,2.242157220840454102e+00,2.241901159286499023e+00,2.241645097732543945e+00,2.241389036178588867e+00,2.241132974624633789e+00,2.240877151489257812e+00,2.240621328353881836e+00,2.240365505218505859e+00,2.240109920501708984e+00,2.239854097366333008e+00,2.239598512649536133e+00,2.239342927932739258e+00,2.239087581634521484e+00,2.238831996917724609e+00,2.238576650619506836e+00,2.225592136383056641e+00,2.184707164764404297e+00,2.145297050476074219e+00,2.107283830642700195e+00,2.070594072341918945e+00,2.035160303115844727e+00,2.000918626785278320e+00,1.967810273170471191e+00,1.935779571533203125e+00,1.904775261878967285e+00,1.874747991561889648e+00,1.845653176307678223e+00
1.988659858703613281e+00,1.988458633422851562e+00,1.988257050514221191e+00,1.988055706024169922e+00,1.987854480743408203e+00,1.987653136253356934e+00,1.987451791763305664e+00,1.987250804901123047e+00,1.987049579620361328e+00,1.986848354339599609e+00,1.986647486686706543e+00,1.986446380615234375e+00,1.986245274543762207e+00,1.986044287681579590e+00,1.985843539237976074e+00,1.985642552375793457e+00,1.985441684722900391e+00,1.985241055488586426e+00,1.985040187835693359e+00,1.984839439392089844e+00,1.984638929367065430e+00,1.984438180923461914e+00,1.984237432479858398e+00,1.984037041664123535e+00,1.983836531639099121e+00,1.983636021614074707e+00,1.983435750007629395e+00,1.983235239982604980e+00,1.983034849166870117e+00,1.982834458351135254e+00,1.982634305953979492e+00,1.982434034347534180e+00,1.982233762741088867e+00,1.982033729553222656e+00,1.981833577156066895e+00,1.981633424758911133e+00,1.981433629989624023e+00,1.981233477592468262e+00,1.981033563613891602e+00,1.980833768844604492e+00,1.980633854866027832e+00,1.980433940887451172e+00,1.980234265327453613e+00,1.980034470558166504e+00,1.979834675788879395e+00,1.979635000228881836e+00,1.979435443878173828e+00,1.979235887527465820e+00,1.979036211967468262e+00,1.978836894035339355e+00,1.978637337684631348e+00,1.978437781333923340e+00,1.978238582611083984e+00,1.978039145469665527e+00,1.977839827537536621e+00,1.977640748023986816e+00,1.977441430091857910e+00,1.977242112159729004e+00,1.977042913436889648e+00,1.976843953132629395e+00,1.976644873619079590e+00,1.976445794105529785e+00,1.976246953010559082e+00,1.976047873497009277e+00,1.975848913192749023e+00,1.975650191307067871e+00,1.975451350212097168e+00,1.975252509117126465e+00,1.975053906440734863e+00,1.974855065345764160e+00,1.974656343460083008e+00,1.974457859992980957e+00,1.974259257316589355e+00,1.974060654640197754e+00,1.973862051963806152e+00,1.967832922935485840e+00,1.935801744461059570e+00,1.904796361923217773e+00,1.874768614768981934e+00,1.845672965049743652e+00
1.778082013130187988e+00,1.777921199798583984e+00,1.777760028839111328e+00,1.777598977088928223e+00,1.777438163757324219e+00,1.777277231216430664e+00,1.777116298675537109e+00,1.776955485343933105e+00,1.776794552803039551e+00,1.776633739471435547e+00,1.776473045349121094e+00,1.776312232017517090e+00,1.776151537895202637e+00,1.775990962982177734e+00,1.775830149650573730e+00,1.775669455528259277e+00,1.775508880615234375e+00,1.775348424911499023e+00,1.775187730789184570e+00,1.775027155876159668e+00,1.774866819381713867e+00,1.774706244468688965e+00,1.774545788764953613e+00,1.774385571479797363e+00,1.774225115776062012e+00,1.774064660072326660e+00,1.773904442787170410e+00,1.773744106292724609e+00,1.773583769798278809e+00,1.773423671722412109e+00,1.773263454437255859e+00,1.773103237152099609e+00,1.772943019866943359e+00,1.772783041000366211e+00,1.772622823715209961e+00,1.772462725639343262e+00,1.772302865982055664e+00,1.772142767906188965e+00,1.771982789039611816e+00,1.771822929382324219e+00,1.771662950515747070e+00,1.771502971649169922e+00,1.771343231201171875e+00,1.771183371543884277e+00,1.771023511886596680e+00,1.770863890647888184e+00,1.770704150199890137e+00,1.770544290542602539e+00,1.770384550094604492e+00,1.770225048065185547e+00,1.770065307617187500e+00,1.769905686378479004e+00,1.769746303558349609e+00,1.769586682319641113e+00,1.769427061080932617e+00,1.769267678260803223e+00,1.769108176231384277e+00,1.768948674201965332e+00,1.768789410591125488e+00,1.768630027770996094e+00,1.768470644950866699e+00,1.768311262130737305e+00,1.768152117729187012e+00,1.767992854118347168e+00,1.767833471298217773e+00,1.767674446105957031e+00,1.767515182495117188e+00,1.767356038093566895e+00,1.767197012901306152e+00,1.767037868499755859e+00,1.766878843307495117e+00,1.766719937324523926e+00,1.766560792922973633e+00,1.766401767730712891e+00,1.766242980957031250e+00,1.766084074974060059e+00,1.765925049781799316e+00,1.765766143798828125e+00,1.765607476234436035e+00,1.765448689460754395e+00
1.607830166816711426e+00,1.607698440551757812e+00,1.607566714286804199e+00,1.607435107231140137e+00,1.607303619384765625e+00,1.607171893119812012e+00,1.607040286064147949e+00,1.606908798217773438e+00,1.606777310371398926e+00,1.606645703315734863e+00,1.606514334678649902e+00,1.606382846832275391e+00,1.606251358985900879e+00,1.606119990348815918e+00,1.605988502502441406e+00,1.605857133865356445e+00,1.605725884437561035e+00,1.605594515800476074e+00,1.605463147163391113e+00,1.605331778526306152e+00,1.605200529098510742e+00,1.605069279670715332e+00,1.604938030242919922e+00,1.604806900024414062e+00,1.604675650596618652e+00,1.604544401168823242e+00,1.604413390159606934e+00,1.604282259941101074e+00,1.604151129722595215e+00,1.604020118713378906e+00,1.603888988494873047e+00,1.603757858276367188e+00,1.603626966476440430e+00,1.603495955467224121e+00,1.603364944458007812e+00,1.603233933448791504e+00,1.603103160858154297e+00,1.602972149848937988e+00,1.602841258049011230e+00,1.602710485458374023e+00,1.602579593658447266e+00,1.602448701858520508e+00,1.602317929267883301e+00,1.602187156677246094e+00,1.602056384086608887e+00,1.601925730705261230e+00,1.601794958114624023e+00,1.601664185523986816e+00,1.601533532142639160e+00,1.601402878761291504e+00,1.601272225379943848e+00,1.601141571998596191e+00,1.601011157035827637e+00,1.600880503654479980e+00,1.600749850273132324e+00,1.600619435310363770e+00,1.600488901138305664e+00,1.600358366966247559e+00,1.600228071212768555e+00,1.600097537040710449e+00,1.599967002868652344e+00,1.599836707115173340e+00,1.599706292152404785e+00,1.599575877189636230e+00,1.599445581436157227e+00,1.599315285682678223e+00,1.599184989929199219e+00,1.599054694175720215e+00,1.598924517631530762e+00,1.598794221878051758e+00,1.598664045333862305e+00,1.598533987998962402e+00,1.598403692245483398e+00,1.598273515701293945e+00,1.598143458366394043e+00,1.598013401031494141e+00,1.597883224487304688e+00,1.597753286361694336e+00,1.597623229026794434e+00,1.597493171691894531e+00
1.467332601547241211e+00,1.467222809791564941e+00,1.467113137245178223e+00,1.467003583908081055e+00,1.466893911361694336e+00,1.466784238815307617e+00,1.466674685478210449e+00,1.466565132141113281e+00,1.466455578804016113e+00,1.466345906257629395e+00,1.466236472129821777e+00,1.466126918792724609e+00,1.466017365455627441e+00,1.465908050537109375e+00,1.465798497200012207e+00,1.465689063072204590e+00,1.465579628944396973e+00,1.465470194816589355e+00,1.465360760688781738e+00,1.465251445770263672e+00,1.465142130851745605e+00,1.465032696723937988e+00,1.464923381805419922e+00,1.464814066886901855e+00,1.464704751968383789e+00,1.464595437049865723e+00,1.464486241340637207e+00,1.464376926422119141e+00,1.464267730712890625e+00,1.464158535003662109e+00,1.464049339294433594e+00,1.463940024375915527e+00,1.463830947875976562e+00,1.463721752166748047e+00,1.463612675666809082e+00,1.463503599166870117e+00,1.463394403457641602e+00,1.463285326957702637e+00,1.463176250457763672e+00,1.463067293167114258e+00,1.462958216667175293e+00,1.462849140167236328e+00,1.462740182876586914e+00,1.462631106376647949e+00,1.462522149085998535e+00,1.462413311004638672e+00,1.462304353713989258e+00,1.462195277214050293e+00,1.462086558341979980e+00,1.461977601051330566e+00,1.461868643760681152e+00,1.461759805679321289e+00,1.461650967597961426e+00,1.461542129516601562e+00,1.461433291435241699e+00,1.461324572563171387e+00,1.461215734481811523e+00,1.461107015609741211e+00,1.460998296737670898e+00,1.460889577865600586e+00,1.460780739784240723e+00,1.460672140121459961e+00,1.460563421249389648e+00,1.460454702377319336e+00,1.460346221923828125e+00,1.460237503051757812e+00,1.460128903388977051e+00,1.460020184516906738e+00,1.459911704063415527e+00,1.459803104400634766e+00,1.459694504737854004e+00,1.459586024284362793e+00,1.459477543830871582e+00,1.459368944168090820e+00,1.459260582923889160e+00,1.459151983261108398e+00,1.459043502807617188e+00,1.458935141563415527e+00,1.458826661109924316e+00,1.458718299865722656e+00
1.349416017532348633e+00,1.349323153495788574e+00,1.349230408668518066e+00,1.349137783050537109e+00,1.349045038223266602e+00,1.348952293395996094e+00,1.348859667778015137e+00,1.348766922950744629e+00,1.348674178123474121e+00,1.348581552505493164e+00,1.348488926887512207e+00,1.348396301269531250e+00,1.348303675651550293e+00,1.348211169242858887e+00,1.348118543624877930e+00,1.348025918006896973e+00,1.347933411598205566e+00,1.347840785980224609e+00,1.347748279571533203e+00,1.347655773162841797e+00,1.347563266754150391e+00,1.347470641136169434e+00,1.347378253936767578e+00,1.347285747528076172e+00,1.347193241119384766e+00,1.347100853919982910e+00,1.347008466720581055e+00,1.346915960311889648e+00,1.346823573112487793e+00,1.346731185913085938e+00,1.346638798713684082e+00,1.346546411514282227e+00,1.346454143524169922e+00,1.346361756324768066e+00,1.346269369125366211e+00,1.346177101135253906e+00,1.346084713935852051e+00,1.345992445945739746e+00,1.345900177955627441e+00,1.345807909965515137e+00,1.345715641975402832e+00,1.345623254776000977e+00,1.345531105995178223e+00,1.345438838005065918e+00,1.345346689224243164e+00,1.345254540443420410e+00,1.345162272453308105e+00,1.345070123672485352e+00,1.344977974891662598e+00,1.344885826110839844e+00,1.344793677330017090e+00,1.344701647758483887e+00,1.344609498977661133e+00,1.344517350196838379e+00,1.344425201416015625e+00,1.344333171844482422e+00,1.344241142272949219e+00,1.344148993492126465e+00,1.344057083129882812e+00,1.343965053558349609e+00,1.343872904777526855e+00,1.343780994415283203e+00,1.343688964843750000e+00,1.343597054481506348e+00,1.343505144119262695e+00,1.343413114547729492e+00,1.343321204185485840e+00,1.343229293823242188e+00,1.343137383460998535e+00,1.343045473098754883e+00,1.342953562736511230e+00,1.342861771583557129e+00,1.342769861221313477e+00,1.342677950859069824e+00,1.342586159706115723e+00,1.342494368553161621e+00,1.342402458190917969e+00,1.342310786247253418e+00,1.342218995094299316e+00,1.342127084732055664e+00
1.249041557312011719e+00,1.248962044715881348e+00,1.248882532119750977e+00,1.248803138732910156e+00,1.248723745346069336e+00,1.248644232749938965e+00,1.248564839363098145e+00,1.248485445976257324e+00,1.248406052589416504e+00,1.248326659202575684e+00,1.248247265815734863e+00,1.248167872428894043e+00,1.248088479042053223e+00,1.248009204864501953e+00,1.247929811477661133e+00,1.247850418090820312e+00,1.247771263122558594e+00,1.247691869735717773e+00,1.247612595558166504e+00,1.247533321380615234e+00,1.247454047203063965e+00,1.247374653816223145e+00,1.247295498847961426e+00,1.247216224670410156e+00,1.247136950492858887e+00,1.247057795524597168e+00,1.246978521347045898e+00,1.246899366378784180e+00,1.246820092201232910e+00,1.246740937232971191e+00,1.246661782264709473e+00,1.246582508087158203e+00,1.246503472328186035e+00,1.246424317359924316e+00,1.246345162391662598e+00,1.246266007423400879e+00,1.246186852455139160e+00,1.246107697486877441e+00,1.246028661727905273e+00,1.245949625968933105e+00,1.245870471000671387e+00,1.245791435241699219e+00,1.245712399482727051e+00,1.245633363723754883e+00,1.245554208755493164e+00,1.245475292205810547e+00,1.245396256446838379e+00,1.245317220687866211e+00,1.245238304138183594e+00,1.245159268379211426e+00,1.245080232620239258e+00,1.245001316070556641e+00,1.244922399520874023e+00,1.244843363761901855e+00,1.244764447212219238e+00,1.244685530662536621e+00,1.244606614112854004e+00,1.244527697563171387e+00,1.244448781013488770e+00,1.244369864463806152e+00,1.244290947914123535e+00,1.244212150573730469e+00,1.244133353233337402e+00,1.244054436683654785e+00,1.243975639343261719e+00,1.243896842002868652e+00,1.243817925453186035e+00,1.243739247322082520e+00,1.243660330772399902e+00,1.243581533432006836e+00,1.243502855300903320e+00,1.243424057960510254e+00,1.243345260620117188e+00,1.243266463279724121e+00,1.243187785148620605e+00,1.243109107017517090e+00,1.243030309677124023e+00,1.242951631546020508e+00,1.242872953414916992e+00,1.242794275283813477e+00
1.162565708160400391e+00,1.162496805191040039e+00,1.162428021430969238e+00,1.162359237670898438e+00,1.162290334701538086e+00,1.162221550941467285e+00,1.162152767181396484e+00,1.162083983421325684e+00,1.162015080451965332e+00,1.161946415901184082e+00,1.161877632141113281e+00,1.161808848381042480e+00,1.161740064620971680e+00,1.161671280860900879e+00,1.161602616310119629e+00,1.161533832550048828e+00,1.161465167999267578e+00,1.161396384239196777e+00,1.161327600479125977e+00,1.161259055137634277e+00,1.161190271377563477e+00,1.161121606826782227e+00,1.161052942276000977e+00,1.160984277725219727e+00,1.160915613174438477e+00,1.160846948623657227e+00,1.160778284072875977e+00,1.160709619522094727e+00,1.160641074180603027e+00,1.160572409629821777e+00,1.160503745079040527e+00,1.160435199737548828e+00,1.160366654396057129e+00,1.160297989845275879e+00,1.160229325294494629e+00,1.160160899162292480e+00,1.160092234611511230e+00,1.160023689270019531e+00,1.159955143928527832e+00,1.159886598587036133e+00,1.159818053245544434e+00,1.159749627113342285e+00,1.159681081771850586e+00,1.159612536430358887e+00,1.159544110298156738e+00,1.159475564956665039e+00,1.159407019615173340e+00,1.159338593482971191e+00,1.159270167350769043e+00,1.159201622009277344e+00,1.159133195877075195e+00,1.159064769744873047e+00,1.158996343612670898e+00,1.158927917480468750e+00,1.158859491348266602e+00,1.158791065216064453e+00,1.158722639083862305e+00,1.158654332160949707e+00,1.158585906028747559e+00,1.158517479896545410e+00,1.158449053764343262e+00,1.158380746841430664e+00,1.158312439918518066e+00,1.158244013786315918e+00,1.158175706863403320e+00,1.158107399940490723e+00,1.158039093017578125e+00,1.157970786094665527e+00,1.157902479171752930e+00,1.157834172248840332e+00,1.157765865325927734e+00,1.157697558403015137e+00,1.157629370689392090e+00,1.157561063766479492e+00,1.157492876052856445e+00,1.157424569129943848e+00,1.157356262207031250e+00,1.157288074493408203e+00,1.157219886779785156e+00,1.157151579856872559e+00
1.087288618087768555e+00,1.087228417396545410e+00,1.087168216705322266e+00,1.087108016014099121e+00,1.087047815322875977e+00,1.086987614631652832e+00,1.086927413940429688e+00,1.086867213249206543e+00,1.086807012557983398e+00,1.086746931076049805e+00,1.086686730384826660e+00,1.086626529693603516e+00,1.086566448211669922e+00,1.086506247520446777e+00,1.086446166038513184e+00,1.086386084556579590e+00,1.086325883865356445e+00,1.086265802383422852e+00,1.086205601692199707e+00,1.086145639419555664e+00,1.086085438728332520e+00,1.086025357246398926e+00,1.085965275764465332e+00,1.085905194282531738e+00,1.085845112800598145e+00,1.085785150527954102e+00,1.085725069046020508e+00,1.085664987564086914e+00,1.085605025291442871e+00,1.085544943809509277e+00,1.085484862327575684e+00,1.085424900054931641e+00,1.085364818572998047e+00,1.085304856300354004e+00,1.085244774818420410e+00,1.085184812545776367e+00,1.085124850273132324e+00,1.085064888000488281e+00,1.085004925727844238e+00,1.084944963455200195e+00,1.084885001182556152e+00,1.084825038909912109e+00,1.084765076637268066e+00,1.084705114364624023e+00,1.084645152091979980e+00,1.084585309028625488e+00,1.084525346755981445e+00,1.084465384483337402e+00,1.084405541419982910e+00,1.084345579147338867e+00,1.084285736083984375e+00,1.084225893020629883e+00,1.084165930747985840e+00,1.084106087684631348e+00,1.084046244621276855e+00,1.083986282348632812e+00,1.083926439285278320e+00,1.083866715431213379e+00,1.083806753158569336e+00,1.083746910095214844e+00,1.083687186241149902e+00,1.083627343177795410e+00,1.083567500114440918e+00,1.083507657051086426e+00,1.083447933197021484e+00,1.083388090133666992e+00,1.083328247070312500e+00,1.083268523216247559e+00,1.083208680152893066e+00,1.083148956298828125e+00,1.083089232444763184e+00,1.083029389381408691e+00,1.082969665527343750e+00,1.082909941673278809e+00,1.082850217819213867e+00,1.082790493965148926e+00,1.082730770111083984e+00,1.082671046257019043e+00,1.082611322402954102e+00,1.082551598548889160e+00
1.021167278289794922e+00,1.021114110946655273e+00,1.021061062812805176e+00,1.021007895469665527e+00,1.020954728126525879e+00,1.020901679992675781e+00,1.020848631858825684e+00,1.020795464515686035e+00,1.020742416381835938e+00,1.020689368247985840e+00,1.020636320114135742e+00,1.020583152770996094e+00,1.020530223846435547e+00,1.020477056503295898e+00,1.020424008369445801e+00,1.020371079444885254e+00,1.020318031311035156e+00,1.020264983177185059e+00,1.020211935043334961e+00,1.020158886909484863e+00,1.020105838775634766e+00,1.020052790641784668e+00,1.019999861717224121e+00,1.019946813583374023e+00,1.019893884658813477e+00,1.019840955734252930e+00,1.019787907600402832e+00,1.019734859466552734e+00,1.019681930541992188e+00,1.019629001617431641e+00,1.019576072692871094e+00,1.019523143768310547e+00,1.019470095634460449e+00,1.019417166709899902e+00,1.019364237785339355e+00,1.019311308860778809e+00,1.019258379936218262e+00,1.019205451011657715e+00,1.019152522087097168e+00,1.019099593162536621e+00,1.019046664237976074e+00,1.018993854522705078e+00,1.018940925598144531e+00,1.018887996673583984e+00,1.018835186958312988e+00,1.018782258033752441e+00,1.018729448318481445e+00,1.018676638603210449e+00,1.018623709678649902e+00,1.018570780754089355e+00,1.018517971038818359e+00,1.018465161323547363e+00,1.018412351608276367e+00,1.018359422683715820e+00,1.018306612968444824e+00,1.018253803253173828e+00,1.018200993537902832e+00,1.018148183822631836e+00,1.018095374107360840e+00,1.018042564392089844e+00,1.017989873886108398e+00,1.017937064170837402e+00,1.017884254455566406e+00,1.017831444740295410e+00,1.017778635025024414e+00,1.017725944519042969e+00,1.017673134803771973e+00,1.017620444297790527e+00,1.017567634582519531e+00,1.017514824867248535e+00,1.017462134361267090e+00,1.017409443855285645e+00,1.017356634140014648e+00,1.017303943634033203e+00,1.017251253128051758e+00,1.017198443412780762e+00,1.017145872116088867e+00,1.017093062400817871e+00,1.017040371894836426e+00,1.016987800598144531e+00
9.626269340515136719e-01,9.625797271728515625e-01,9.625325798988342285e-01,9.624853134155273438e-01,9.624381661415100098e-01,9.623910188674926758e-01,9.623437523841857910e-01,9.622966051101684570e-01,9.622493386268615723e-01,9.622022509574890137e-01,9.621551036834716797e-01,9.621078968048095703e-01,9.620607495307922363e-01,9.620136618614196777e-01,9.619664549827575684e-01,9.619193673133850098e-01,9.618722200393676758e-01,9.618250727653503418e-01,9.617779850959777832e-01,9.617308974266052246e-01,9.616836905479431152e-01,9.616366028785705566e-01,9.615895748138427734e-01,9.615423679351806641e-01,9.614953398704528809e-01,9.614482522010803223e-01,9.614011049270629883e-01,9.613540768623352051e-01,9.613069891929626465e-01,9.612598419189453125e-01,9.612128138542175293e-01,9.611657857894897461e-01,9.611186385154724121e-01,9.610716700553894043e-01,9.610246419906616211e-01,9.609774947166442871e-01,9.609305262565612793e-01,9.608834981918334961e-01,9.608364105224609375e-01,9.607894420623779297e-01,9.607422947883605957e-01,9.606953263282775879e-01,9.606483578681945801e-01,9.606012701988220215e-01,9.605543017387390137e-01,9.605073332786560059e-01,9.604603052139282227e-01,9.604133367538452148e-01,9.603663682937622070e-01,9.603193402290344238e-01,9.602723717689514160e-01,9.602254629135131836e-01,9.601783752441406250e-01,9.601314663887023926e-01,9.600845575332641602e-01,9.600375294685363770e-01,9.599906206130981445e-01,9.599437117576599121e-01,9.598966836929321289e-01,9.598497748374938965e-01,9.598028659820556641e-01,9.597558975219726562e-01,9.597089886665344238e-01,9.596621394157409668e-01,9.596151113510131836e-01,9.595682621002197266e-01,9.595214128494262695e-01,9.594744443893432617e-01,9.594275951385498047e-01,9.593806266784667969e-01,9.593337774276733398e-01,9.592869281768798828e-01,9.592399597167968750e-01,9.591931104660034180e-01,9.591462612152099609e-01,9.590993523597717285e-01,9.590525627136230469e-01,9.590057134628295898e-01,9.589588046073913574e-01,9.589120149612426758e-01
9.104345440864562988e-01,9.103923439979553223e-01,9.103501439094543457e-01,9.103078842163085938e-01,9.102656841278076172e-01,9.102234840393066406e-01,9.101812243461608887e-01,9.101390838623046875e-01,9.100968837738037109e-01,9.100546240806579590e-01,9.100124835968017578e-01,9.099702239036560059e-01,9.099280834197998047e-01,9.098859429359436035e-01,9.098436832427978516e-01,9.098016023635864258e-01,9.097594618797302246e-01,9.097172021865844727e-01,9.096750617027282715e-01,9.096329808235168457e-01,9.095907807350158691e-01,9.095486402511596680e-01,9.095065593719482422e-01,9.094643592834472656e-01,9.094222187995910645e-01,9.093801379203796387e-01,9.093379378318786621e-01,9.092958569526672363e-01,9.092537760734558105e-01,9.092115759849548340e-01,9.091694951057434082e-01,9.091274142265319824e-01,9.090852737426757812e-01,9.090431928634643555e-01,9.090011715888977051e-01,9.089589715003967285e-01,9.089169502258300781e-01,9.088748693466186523e-01,9.088327288627624512e-01,9.087907075881958008e-01,9.087486863136291504e-01,9.087065458297729492e-01,9.086645245552062988e-01,9.086223840713500977e-01,9.085803627967834473e-01,9.085383415222167969e-01,9.084962010383605957e-01,9.084542393684387207e-01,9.084122180938720703e-01,9.083700776100158691e-01,9.083281159400939941e-01,9.082860946655273438e-01,9.082440137863159180e-01,9.082020521163940430e-01,9.081600308418273926e-01,9.081179499626159668e-01,9.080759882926940918e-01,9.080340266227722168e-01,9.079919457435607910e-01,9.079499840736389160e-01,9.079080224037170410e-01,9.078660011291503906e-01,9.078240394592285156e-01,9.077820777893066406e-01,9.077400565147399902e-01,9.076980948448181152e-01,9.076561331748962402e-01,9.076141119003295898e-01,9.075722098350524902e-01,9.075302481651306152e-01,9.074882268905639648e-01,9.074463248252868652e-01,9.074043035507202148e-01,9.073624014854431152e-01,9.073204994201660156e-01,9.072784781455993652e-01,9.072365760803222656e-01,9.071947336196899414e-01,9.071527123451232910e-01,9.071108102798461914e-01
8.636106848716735840e-01,8.635727167129516602e-01,8.635347485542297363e-01,8.634967207908630371e-01,8.634587526321411133e-01,8.634207844734191895e-01,8.633827567100524902e-01,8.633448481559753418e-01,8.633068799972534180e-01,8.632688522338867188e-01,8.632309436798095703e-01,8.631929755210876465e-01,8.631550073623657227e-01,8.631170392036437988e-01,8.630790710449218750e-01,8.630411624908447266e-01,8.630032539367675781e-01,8.629652261734008789e-01,8.629273176193237305e-01,8.628894090652465820e-01,8.628514409065246582e-01,8.628135323524475098e-01,8.627756237983703613e-01,8.627376556396484375e-01,8.626998066902160645e-01,8.626618981361389160e-01,8.626239299774169922e-01,8.625860810279846191e-01,8.625481724739074707e-01,8.625102043151855469e-01,8.624723553657531738e-01,8.624345064163208008e-01,8.623965382575988770e-01,8.623586893081665039e-01,8.623208403587341309e-01,8.622828722000122070e-01,8.622450828552246094e-01,8.622072339057922363e-01,8.621692657470703125e-01,8.621314764022827148e-01,8.620936274528503418e-01,8.620557188987731934e-01,8.620178699493408203e-01,8.619800209999084473e-01,8.619421720504760742e-01,8.619043231010437012e-01,8.618664145469665527e-01,8.618286252021789551e-01,8.617908358573913574e-01,8.617529273033142090e-01,8.617151379585266113e-01,8.616773486137390137e-01,8.616394400596618652e-01,8.616016507148742676e-01,8.615638613700866699e-01,8.615260124206542969e-01,8.614882230758666992e-01,8.614504337310791016e-01,8.614125847816467285e-01,8.613747954368591309e-01,8.613370656967163086e-01,8.612992167472839355e-01,8.612614274024963379e-01,8.612236976623535156e-01,8.611858487129211426e-01,8.611480593681335449e-01,8.611103296279907227e-01,8.610724806785583496e-01,8.610347509384155273e-01,8.609970211982727051e-01,8.609592318534851074e-01,8.609215021133422852e-01,8.608837723731994629e-01,8.608459234237670898e-01,8.608081936836242676e-01,8.607704043388366699e-01,8.607326745986938477e-01,8.606950044631958008e-01,8.606572151184082031e-01,8.606194853782653809e-01
8.213675618171691895e-01,8.213332295417785645e-01,8.212988972663879395e-01,8.212644457817077637e-01,8.212301135063171387e-01,8.211957812309265137e-01,8.211613893508911133e-01,8.211270570755004883e-01,8.210927844047546387e-01,8.210583329200744629e-01,8.210240602493286133e-01,8.209897279739379883e-01,8.209553360939025879e-01,8.209210634231567383e-01,8.208867311477661133e-01,8.208523392677307129e-01,8.208180665969848633e-01,8.207836747169494629e-01,8.207494020462036133e-01,8.207151293754577637e-01,8.206807374954223633e-01,8.206464648246765137e-01,8.206121921539306641e-01,8.205778598785400391e-01,8.205435872077941895e-01,8.205093145370483398e-01,8.204749822616577148e-01,8.204407095909118652e-01,8.204064369201660156e-01,8.203721046447753906e-01,8.203378319740295410e-01,8.203035593032836914e-01,8.202692270278930664e-01,8.202350139617919922e-01,8.202007412910461426e-01,8.201664090156555176e-01,8.201321959495544434e-01,8.200979828834533691e-01,8.200636506080627441e-01,8.200294375419616699e-01,8.199951648712158203e-01,8.199608922004699707e-01,8.199266791343688965e-01,8.198924660682678223e-01,8.198581337928771973e-01,8.198239207267761230e-01,8.197896480560302734e-01,8.197554349899291992e-01,8.197212219238281250e-01,8.196869492530822754e-01,8.196527361869812012e-01,8.196185231208801270e-01,8.195842504501342773e-01,8.195500969886779785e-01,8.195158839225769043e-01,8.194816112518310547e-01,8.194474577903747559e-01,8.194132447242736816e-01,8.193790316581726074e-01,8.193448185920715332e-01,8.193106651306152344e-01,8.192764520645141602e-01,8.192422389984130859e-01,8.192080855369567871e-01,8.191738724708557129e-01,8.191397190093994141e-01,8.191055655479431152e-01,8.190712928771972656e-01,8.190371394157409668e-01,8.190030455589294434e-01,8.189687728881835938e-01,8.189346790313720703e-01,8.189005255699157715e-01,8.188663125038146973e-01,8.188321590423583984e-01,8.187980651855468750e-01,8.187638521194458008e-01,8.187296986579895020e-01,8.186955451965332031e-01,8.186613917350769043e-01
7.830643653869628906e-01,7.830331325531005859e-01,7.830018997192382812e-01,7.829706668853759766e-01,7.829394340515136719e-01,7.829082608222961426e-01,7.828769683837890625e-01,7.828457951545715332e-01,7.828145623207092285e-01,7.827833294868469238e-01,7.827520966529846191e-01,7.827209234237670898e-01,7.826896905899047852e-01,7.826585173606872559e-01,7.826273441314697266e-01,7.825960516929626465e-01,7.825648784637451172e-01,7.825337052345275879e-01,7.825024724006652832e-01,7.824712991714477539e-01,7.824400663375854492e-01,7.824088931083679199e-01,7.823777794837951660e-01,7.823465466499328613e-01,7.823153734207153320e-01,7.822842001914978027e-01,7.822529673576354980e-01,7.822218537330627441e-01,7.821906805038452148e-01,7.821595072746276855e-01,7.821283340454101562e-01,7.820972204208374023e-01,7.820659875869750977e-01,7.820348739624023438e-01,7.820037603378295898e-01,7.819725275039672852e-01,7.819414138793945312e-01,7.819103002548217773e-01,7.818790674209594727e-01,7.818479537963867188e-01,7.818168401718139648e-01,7.817856669425964355e-01,7.817545533180236816e-01,7.817234396934509277e-01,7.816922664642333984e-01,7.816611528396606445e-01,7.816300988197326660e-01,7.815989255905151367e-01,7.815678119659423828e-01,7.815366387367248535e-01,7.815055251121520996e-01,7.814744710922241211e-01,7.814432978630065918e-01,7.814122438430786133e-01,7.813811302185058594e-01,7.813500165939331055e-01,7.813189029693603516e-01,7.812878489494323730e-01,7.812566757202148438e-01,7.812256217002868652e-01,7.811945676803588867e-01,7.811634540557861328e-01,7.811324000358581543e-01,7.811012864112854004e-01,7.810701727867126465e-01,7.810391187667846680e-01,7.810080647468566895e-01,7.809769511222839355e-01,7.809458971023559570e-01,7.809149026870727539e-01,7.808837890625000000e-01,7.808527350425720215e-01,7.808216810226440430e-01,7.807905673980712891e-01,7.807595729827880859e-01,7.807285189628601074e-01,7.806974053382873535e-01,7.806664109230041504e-01,7.806353569030761719e-01,7.806043028831481934e-01
7.481743693351745605e-01,7.481458783149719238e-01,7.481173872947692871e-01,7.480888366699218750e-01,7.480603456497192383e-01,7.480318546295166016e-01,7.480033040046691895e-01,7.479748129844665527e-01,7.479463815689086914e-01,7.479178309440612793e-01,7.478893399238586426e-01,7.478608489036560059e-01,7.478323578834533691e-01,7.478038668632507324e-01,7.477754354476928711e-01,7.477468848228454590e-01,7.477183938026428223e-01,7.476899623870849609e-01,7.476614713668823242e-01,7.476329803466796875e-01,7.476045489311218262e-01,7.475759983062744141e-01,7.475475668907165527e-01,7.475190758705139160e-01,7.474906444549560547e-01,7.474621534347534180e-01,7.474336624145507812e-01,7.474052309989929199e-01,7.473767995834350586e-01,7.473483085632324219e-01,7.473198771476745605e-01,7.472914457321166992e-01,7.472629547119140625e-01,7.472345232963562012e-01,7.472060918807983398e-01,7.471776008605957031e-01,7.471492290496826172e-01,7.471207976341247559e-01,7.470923066139221191e-01,7.470639348030090332e-01,7.470355033874511719e-01,7.470070123672485352e-01,7.469786405563354492e-01,7.469502091407775879e-01,7.469217777252197266e-01,7.468933463096618652e-01,7.468649744987487793e-01,7.468364834785461426e-01,7.468081116676330566e-01,7.467797398567199707e-01,7.467512488365173340e-01,7.467228770256042480e-01,7.466944456100463867e-01,7.466660737991333008e-01,7.466377019882202148e-01,7.466092705726623535e-01,7.465808391571044922e-01,7.465524673461914062e-01,7.465240359306335449e-01,7.464956641197204590e-01,7.464673519134521484e-01,7.464389204978942871e-01,7.464105486869812012e-01,7.463821768760681152e-01,7.463537454605102539e-01,7.463254332542419434e-01,7.462970614433288574e-01,7.462686300277709961e-01,7.462403178215026855e-01,7.462119460105895996e-01,7.461835145950317383e-01,7.461552023887634277e-01,7.461268305778503418e-01,7.460984587669372559e-01,7.460701465606689453e-01,7.460417747497558594e-01,7.460134029388427734e-01,7.459850311279296875e-01,7.459567189216613770e-01,7.459283471107482910e-01
