5.000000000000000000e+00,5.000000000000000000e+00,5.000000000000000000e+00,5.000000000000000000e+00,5.000000000000000000e+00,5.000000000000000000e+00,5.000000000000000000e+00,5.000000000000000000e+00,5.000000000000000000e+00,5.000000000000000000e+00,5.000000000000000000e+00,5.000000000000000000e+00,5.000000000000000000e+00,5.000000000000000000e+00,5.000000000000000000e+00,5.000000000000000000e+00,5.000000000000000000e+00,5.000000000000000000e+00,5.000000000000000000e+00,5.000000000000000000e+00,5.000000000000000000e+00,5.000000000000000000e+00,5.000000000000000000e+00,5.000000000000000000e+00,5.000000000000000000e+00,5.000000000000000000e+00,5.000000000000000000e+00,5.000000000000000000e+00,5.000000000000000000e+00,5.000000000000000000e+00,5.000000000000000000e+00,5.000000000000000000e+00,5.000000000000000000e+00,2.143524408340454102e+00,2.135638952255249023e+00,2.152288913726806641e+00,2.116277694702148438e+00,2.089679241180419922e+00,2.088788747787475586e+00,2.100481986999511719e+00,2.119929075241088867e+00,2.150856733322143555e+00,2.303164958953857422e+00,2.295619964599609375e+00,4.183784008026123047e+00,4.040554523468017578e+00,3.906807422637939453e+00,3.781631231307983398e+00,3.664226770401000977e+00,3.553893327713012695e+00,3.450009584426879883e+00,3.352027177810668945e+00,3.259456157684326172e+00,3.171860694885253906e+00,3.088850259780883789e+00,3.010073900222778320e+00,2.935215950012207031e+00,2.863990783691406250e+00,2.796140432357788086e+00,2.731430530548095703e+00,2.669647932052612305e+00,2.610598564147949219e+00,2.554104566574096680e+00,2.500004291534423828e+00,2.448148012161254883e+00,2.398399591445922852e+00,2.350632429122924805e+00,2.304731130599975586e+00,2.260587930679321289e+00,2.218103885650634766e+00,2.177187204360961914e+00,2.137753009796142578e+00,2.099721670150756836e+00,2.063019752502441406e+00,2.027579069137573242e+00,1.993335604667663574e+00,1.960229516029357910e+00,1.928204894065856934e+00,1.897210001945495605e+00,1.867195844650268555e+00
5.000000000000000000e+00,5.000000000000000000e+00,5.000000000000000000e+00,5.000000000000000000e+00,5.000000000000000000e+00,5.000000000000000000e+00,5.000000000000000000e+00,5.000000000000000000e+00,5.000000000000000000e+00,5.000000000000000000e+00,5.000000000000000000e+00,5.000000000000000000e+00,5.000000000000000000e+00,5.000000000000000000e+00,5.000000000000000000e+00,5.000000000000000000e+00,5.000000000000000000e+00,5.000000000000000000e+00,5.000000000000000000e+00,5.000000000000000000e+00,5.000000000000000000e+00,5.000000000000000000e+00,5.000000000000000000e+00,5.000000000000000000e+00,5.000000000000000000e+00,5.000000000000000000e+00,5.000000000000000000e+00,5.000000000000000000e+00,5.000000000000000000e+00,5.000000000000000000e+00,5.000000000000000000e+00,5.000000000000000000e+00,5.000000000000000000e+00,2.151539802551269531e+00,2.142091751098632812e+00,2.141704797744750977e+00,2.103502988815307617e+00,2.083430528640747070e+00,2.080077171325683594e+00,2.090955495834350586e+00,2.120195388793945312e+00,2.139139890670776367e+00,2.313145875930786133e+00,2.306006908416748047e+00,4.183888912200927734e+00,4.040652275085449219e+00,3.906898736953735352e+00,3.781716823577880859e+00,3.664307355880737305e+00,3.553968906402587891e+00,3.450080871582031250e+00,3.352094411849975586e+00,3.259519815444946289e+00,3.171921014785766602e+00,3.088907480239868164e+00,3.010128259658813477e+00,2.935267686843872070e+00,2.864039897918701172e+00,2.796187162399291992e+00,2.731475114822387695e+00,2.669690847396850586e+00,2.610639333724975586e+00,2.554143667221069336e+00,2.500041723251342773e+00,2.448184013366699219e+00,2.398433923721313477e+00,2.350665569305419922e+00,2.304762840270996094e+00,2.260618448257446289e+00,2.218133449554443359e+00,2.177215814590454102e+00,2.137780189514160156e+00,2.099748134613037109e+00,2.063045263290405273e+00,2.027603864669799805e+00,1.993359208106994629e+00,1.960252404212951660e+00,1.928227186203002930e+00,1.897231459617614746e+00,1.867216706275939941e+00
5.000000000000000000e+00,5.000000000000000000e+00,5.000000000000000000e+00,5.000000000000000000e+00,5.000000000000000000e+00,5.000000000000000000e+00,5.000000000000000000e+00,5.000000000000000000e+00,5.000000000000000000e+00,5.000000000000000000e+00,5.000000000000000000e+00,5.000000000000000000e+00,5.000000000000000000e+00,5.000000000000000000e+00,5.000000000000000000e+00,5.000000000000000000e+00,5.000000000000000000e+00,5.000000000000000000e+00,5.000000000000000000e+00,5.000000000000000000e+00,5.000000000000000000e+00,5.000000000000000000e+00,5.000000000000000000e+00,5.000000000000000000e+00,5.000000000000000000e+00,5.000000000000000000e+00,5.000000000000000000e+00,5.000000000000000000e+00,5.000000000000000000e+00,5.000000000000000000e+00,5.000000000000000000e+00,5.000000000000000000e+00,5.000000000000000000e+00,2.158701419830322266e+00,2.153734922409057617e+00,2.132071495056152344e+00,2.103054046630859375e+00,2.080992698669433594e+00,2.092617750167846680e+00,2.085942745208740234e+00,2.105510234832763672e+00,2.130998373031616211e+00,2.188084363937377930e+00,2.317676305770874023e+00,4.183993816375732422e+00,4.040750026702880859e+00,3.906990289688110352e+00,3.781802415847778320e+00,3.664387702941894531e+00,3.554044723510742188e+00,3.450152397155761719e+00,3.352161645889282227e+00,3.259583473205566406e+00,3.171981096267700195e+00,3.088964700698852539e+00,3.010182619094848633e+00,2.935319185256958008e+00,2.864089012145996094e+00,2.796234130859375000e+00,2.731519699096679688e+00,2.669733285903930664e+00,2.610680103302001953e+00,2.554182767868041992e+00,2.500079154968261719e+00,2.448220014572143555e+00,2.398468494415283203e+00,2.350698709487915039e+00,2.304794788360595703e+00,2.260649204254150391e+00,2.218162775039672852e+00,2.177244186401367188e+00,2.137807607650756836e+00,2.099774599075317383e+00,2.063070774078369141e+00,2.027628421783447266e+00,1.993383169174194336e+00,1.960275292396545410e+00,1.928249359130859375e+00,1.897253155708312988e+00,1.867237687110900879e+00
5.000000000000000000e+00,5.000000000000000000e+00,5.000000000000000000e+00,5.000000000000000000e+00,5.000000000000000000e+00,5.000000000000000000e+00,5.000000000000000000e+00,5.000000000000000000e+00,5.000000000000000000e+00,5.000000000000000000e+00,5.000000000000000000e+00,5.000000000000000000e+00,5.000000000000000000e+00,5.000000000000000000e+00,5.000000000000000000e+00,5.000000000000000000e+00,5.000000000000000000e+00,5.000000000000000000e+00,5.000000000000000000e+00,5.000000000000000000e+00,5.000000000000000000e+00,5.000000000000000000e+00,5.000000000000000000e+00,5.000000000000000000e+00,5.000000000000000000e+00,5.000000000000000000e+00,5.000000000000000000e+00,5.000000000000000000e+00,5.000000000000000000e+00,5.000000000000000000e+00,5.000000000000000000e+00,5.000000000000000000e+00,5.000000000000000000e+00,2.151097059249877930e+00,2.139981031417846680e+00,2.132263660430908203e+00,2.104692697525024414e+00,2.095756292343139648e+00,2.090754747390747070e+00,2.099753379821777344e+00,2.110954284667968750e+00,2.142767667770385742e+00,2.221751928329467773e+00,2.322832345962524414e+00,4.184098720550537109e+00,4.040847778320312500e+00,3.907081604003906250e+00,3.781888246536254883e+00,3.664468050003051758e+00,3.554120302200317383e+00,3.450223684310913086e+00,3.352229118347167969e+00,3.259647130966186523e+00,3.172041416168212891e+00,3.089021921157836914e+00,3.010236740112304688e+00,2.935370922088623047e+00,2.864138126373291016e+00,2.796280860900878906e+00,2.731564521789550781e+00,2.669775962829589844e+00,2.610720872879028320e+00,2.554221868515014648e+00,2.500116586685180664e+00,2.448255777359008789e+00,2.398502826690673828e+00,2.350731849670410156e+00,2.304826498031616211e+00,2.260679721832275391e+00,2.218192338943481445e+00,2.177272558212280273e+00,2.137835025787353516e+00,2.099800825119018555e+00,2.063096284866333008e+00,2.027652978897094727e+00,1.993406891822814941e+00,1.960298418998718262e+00,1.928271770477294922e+00,1.897274613380432129e+00,1.867258429527282715e+00
5.000000000000000000e+00,5.000000000000000000e+00,5.000000000000000000e+00,5.000000000000000000e+00,5.000000000000000000e+00,5.000000000000000000e+00,5.000000000000000000e+00,5.000000000000000000e+00,5.000000000000000000e+00,5.000000000000000000e+00,5.000000000000000000e+00,5.000000000000000000e+00,5.000000000000000000e+00,5.000000000000000000e+00,5.000000000000000000e+00,5.000000000000000000e+00,5.000000000000000000e+00,5.000000000000000000e+00,5.000000000000000000e+00,5.000000000000000000e+00,5.000000000000000000e+00,5.000000000000000000e+00,5.000000000000000000e+00,5.000000000000000000e+00,5.000000000000000000e+00,5.000000000000000000e+00,5.000000000000000000e+00,5.000000000000000000e+00,5.000000000000000000e+00,5.000000000000000000e+00,5.000000000000000000e+00,5.000000000000000000e+00,5.000000000000000000e+00,2.135635852813720703e+00,2.119772911071777344e+00,2.141353130340576172e+00,2.094583511352539062e+00,2.091642141342163086e+00,2.096332550048828125e+00,2.106451988220214844e+00,2.115726470947265625e+00,2.144389867782592773e+00,2.198443174362182617e+00,2.312140464782714844e+00,2.323148965835571289e+00,4.040946006774902344e+00,3.907173156738281250e+00,3.781973838806152344e+00,3.664548635482788086e+00,3.554195880889892578e+00,3.450294971466064453e+00,3.352296352386474609e+00,3.259710788726806641e+00,3.172101736068725586e+00,3.089078903198242188e+00,3.010291099548339844e+00,2.935422420501708984e+00,2.864187240600585938e+00,2.796327829360961914e+00,2.731609106063842773e+00,2.669818639755249023e+00,2.610761880874633789e+00,2.554260969161987305e+00,2.500154018402099609e+00,2.448291778564453125e+00,2.398537397384643555e+00,2.350764751434326172e+00,2.304858446121215820e+00,2.260710477828979492e+00,2.218221664428710938e+00,2.177300930023193359e+00,2.137862443923950195e+00,2.099827289581298828e+00,2.063121795654296875e+00,2.027677774429321289e+00,1.993430733680725098e+00,1.960321307182312012e+00,1.928293943405151367e+00,1.897296309471130371e+00,1.867279410362243652e+00
5.000000000000000000e+00,5.000000000000000000e+00,5.000000000000000000e+00,5.000000000000000000e+00,5.000000000000000000e+00,5.000000000000000000e+00,5.000000000000000000e+00,5.000000000000000000e+00,5.000000000000000000e+00,5.000000000000000000e+00,5.000000000000000000e+00,5.000000000000000000e+00,5.000000000000000000e+00,5.000000000000000000e+00,5.000000000000000000e+00,5.000000000000000000e+00,5.000000000000000000e+00,5.000000000000000000e+00,5.000000000000000000e+00,5.000000000000000000e+00,5.000000000000000000e+00,5.000000000000000000e+00,5.000000000000000000e+00,5.000000000000000000e+00,5.000000000000000000e+00,5.000000000000000000e+00,5.000000000000000000e+00,5.000000000000000000e+00,5.000000000000000000e+00,5.000000000000000000e+00,5.000000000000000000e+00,5.000000000000000000e+00,5.000000000000000000e+00,2.140716552734375000e+00,2.104490280151367188e+00,2.127522230148315430e+00,2.049638748168945312e+00,2.041665554046630859e+00,2.034034490585327148e+00,2.122545957565307617e+00,2.121058225631713867e+00,2.164846897125244141e+00,2.184951543807983398e+00,2.308398246765136719e+00,2.308851003646850586e+00,4.041043758392333984e+00,3.907264709472656250e+00,3.782059431076049805e+00,3.664628982543945312e+00,3.554271697998046875e+00,3.450366258621215820e+00,3.352363348007202148e+00,3.259774446487426758e+00,3.172162055969238281e+00,3.089136123657226562e+00,3.010345458984375000e+00,2.935474157333374023e+00,2.864236354827880859e+00,2.796374559402465820e+00,2.731653928756713867e+00,2.669861316680908203e+00,2.610802650451660156e+00,2.554300069808959961e+00,2.500191450119018555e+00,2.448327541351318359e+00,2.398571729660034180e+00,2.350797891616821289e+00,2.304889917373657227e+00,2.260740995407104492e+00,2.218251228332519531e+00,2.177329301834106445e+00,2.137889862060546875e+00,2.099853754043579102e+00,2.063147306442260742e+00,2.027702331542968750e+00,1.993454456329345703e+00,1.960344433784484863e+00,1.928316354751586914e+00,1.897317767143249512e+00,1.867300152778625488e+00
5.000000000000000000e+00,5.000000000000000000e+00,5.000000000000000000e+00,5.000000000000000000e+00,5.000000000000000000e+00,5.000000000000000000e+00,5.000000000000000000e+00,5.000000000000000000e+00,5.000000000000000000e+00,5.000000000000000000e+00,5.000000000000000000e+00,5.000000000000000000e+00,5.000000000000000000e+00,5.000000000000000000e+00,5.000000000000000000e+00,5.000000000000000000e+00,5.000000000000000000e+00,5.000000000000000000e+00,5.000000000000000000e+00,5.000000000000000000e+00,5.000000000000000000e+00,5.000000000000000000e+00,5.000000000000000000e+00,5.000000000000000000e+00,5.000000000000000000e+00,5.000000000000000000e+00,5.000000000000000000e+00,5.000000000000000000e+00,5.000000000000000000e+00,5.000000000000000000e+00,5.000000000000000000e+00,5.000000000000000000e+00,5.000000000000000000e+00,5.000000000000000000e+00,2.089447736740112305e+00,2.105354547500610352e+00,2.027714252471923828e+00,2.019898653030395508e+00,2.012142658233642578e+00,2.039759159088134766e+00,2.165943622589111328e+00,2.162692070007324219e+00,2.166321039199829102e+00,2.315431118011474609e+00,2.294159412384033203e+00,4.041141510009765625e+00,3.907356023788452148e+00,3.782145261764526367e+00,3.664709568023681641e+00,3.554347276687622070e+00,3.450437545776367188e+00,3.352430582046508789e+00,3.259838104248046875e+00,3.172222375869750977e+00,3.089193344116210938e+00,3.010399580001831055e+00,2.935525655746459961e+00,2.864285469055175781e+00,2.796421527862548828e+00,2.731698513031005859e+00,2.669903993606567383e+00,2.610843420028686523e+00,2.554339170455932617e+00,2.500228881835937500e+00,2.448363542556762695e+00,2.398606300354003906e+00,2.350831031799316406e+00,2.304921865463256836e+00,2.260771512985229492e+00,2.218280792236328125e+00,2.177357673645019531e+00,2.137917280197143555e+00,2.099880218505859375e+00,2.063172817230224609e+00,2.027726888656616211e+00,1.993478417396545410e+00,1.960367321968078613e+00,1.928338527679443359e+00,1.897339344024658203e+00,1.867321133613586426e+00
5.000000000000000000e+00,5.000000000000000000e+00,5.000000000000000000e+00,5.000000000000000000e+00,5.000000000000000000e+00,5.000000000000000000e+00,5.000000000000000000e+00,5.000000000000000000e+00,5.000000000000000000e+00,5.000000000000000000e+00,5.000000000000000000e+00,5.000000000000000000e+00,5.000000000000000000e+00,5.000000000000000000e+00,5.000000000000000000e+00,5.000000000000000000e+00,5.000000000000000000e+00,5.000000000000000000e+00,5.000000000000000000e+00,5.000000000000000000e+00,5.000000000000000000e+00,5.000000000000000000e+00,5.000000000000000000e+00,5.000000000000000000e+00,5.000000000000000000e+00,5.000000000000000000e+00,5.000000000000000000e+00,5.000000000000000000e+00,5.000000000000000000e+00,5.000000000000000000e+00,5.000000000000000000e+00,5.000000000000000000e+00,5.000000000000000000e+00,5.000000000000000000e+00,2.077907323837280273e+00,2.090684652328491211e+00,2.014967441558837891e+00,2.004292726516723633e+00,1.997059822082519531e+00,2.012465000152587891e+00,2.153409957885742188e+00,2.145001411437988281e+00,2.146268606185913086e+00,2.207062005996704102e+00,2.293705701828002930e+00,2.298266649246215820e+00,3.907447576522827148e+00,3.782230854034423828e+00,3.664789915084838867e+00,3.554423093795776367e+00,3.450508832931518555e+00,3.352498054504394531e+00,3.259901762008666992e+00,3.172282695770263672e+00,3.089250564575195312e+00,3.010453939437866211e+00,2.935577392578125000e+00,2.864334821701049805e+00,2.796468257904052734e+00,2.731743335723876953e+00,2.669946670532226562e+00,2.610884428024291992e+00,2.554378271102905273e+00,2.500266313552856445e+00,2.448399543762207031e+00,2.398640632629394531e+00,2.350864171981811523e+00,2.304953575134277344e+00,2.260802268981933594e+00,2.218310117721557617e+00,2.177386045455932617e+00,2.137944459915161133e+00,2.099906444549560547e+00,2.063198328018188477e+00,2.027751684188842773e+00,1.993502020835876465e+00,1.960390448570251465e+00,1.928360819816589355e+00,1.897360801696777344e+00,1.867341995239257812e+00
5.000000000000000000e+00,5.000000000000000000e+00,5.000000000000000000e+00,5.000000000000000000e+00,5.000000000000000000e+00,5.000000000000000000e+00,5.000000000000000000e+00,5.000000000000000000e+00,5.000000000000000000e+00,5.000000000000000000e+00,5.000000000000000000e+00,5.000000000000000000e+00,5.000000000000000000e+00,5.000000000000000000e+00,5.000000000000000000e+00,5.000000000000000000e+00,5.000000000000000000e+00,5.000000000000000000e+00,5.000000000000000000e+00,5.000000000000000000e+00,5.000000000000000000e+00,5.000000000000000000e+00,5.000000000000000000e+00,5.000000000000000000e+00,5.000000000000000000e+00,5.000000000000000000e+00,5.000000000000000000e+00,5.000000000000000000e+00,5.000000000000000000e+00,5.000000000000000000e+00,5.000000000000000000e+00,5.000000000000000000e+00,5.000000000000000000e+00,5.000000000000000000e+00,2.073629856109619141e+00,2.078793764114379883e+00,2.022057533264160156e+00,1.991068243980407715e+00,1.982773065567016602e+00,1.990495920181274414e+00,2.147187948226928711e+00,2.134997844696044922e+00,2.138101339340209961e+00,2.195252656936645508e+00,2.332484006881713867e+00,2.304036378860473633e+00,3.907538890838623047e+00,3.782316684722900391e+00,3.664870500564575195e+00,3.554498672485351562e+00,3.450580120086669922e+00,3.352565288543701172e+00,3.259965419769287109e+00,3.172342777252197266e+00,3.089307546615600586e+00,3.010508298873901367e+00,2.935628890991210938e+00,2.864383935928344727e+00,2.796514987945556641e+00,2.731787919998168945e+00,2.669989347457885742e+00,2.610925197601318359e+00,2.554417371749877930e+00,2.500303745269775391e+00,2.448435306549072266e+00,2.398675203323364258e+00,2.350897312164306641e+00,2.304985523223876953e+00,2.260832786560058594e+00,2.218339681625366211e+00,2.177414417266845703e+00,2.137971878051757812e+00,2.099932909011840820e+00,2.063223838806152344e+00,2.027776002883911133e+00,1.993525981903076172e+00,1.960413455963134766e+00,1.928382992744445801e+00,1.897382497787475586e+00,1.867362976074218750e+00
5.000000000000000000e+00,5.000000000000000000e+00,5.000000000000000000e+00,5.000000000000000000e+00,5.000000000000000000e+00,5.000000000000000000e+00,5.000000000000000000e+00,5.000000000000000000e+00,5.000000000000000000e+00,5.000000000000000000e+00,5.000000000000000000e+00,5.000000000000000000e+00,5.000000000000000000e+00,5.000000000000000000e+00,5.000000000000000000e+00,5.000000000000000000e+00,5.000000000000000000e+00,5.000000000000000000e+00,5.000000000000000000e+00,5.000000000000000000e+00,5.000000000000000000e+00,5.000000000000000000e+00,5.000000000000000000e+00,5.000000000000000000e+00,5.000000000000000000e+00,5.000000000000000000e+00,5.000000000000000000e+00,5.000000000000000000e+00,5.000000000000000000e+00,5.000000000000000000e+00,5.000000000000000000e+00,5.000000000000000000e+00,5.000000000000000000e+00,5.000000000000000000e+00,2.056485652923583984e+00,2.047264575958251953e+00,2.028414487838745117e+00,1.978847503662109375e+00,1.970064759254455566e+00,1.968511700630187988e+00,2.010148525238037109e+00,2.132133245468139648e+00,2.135444641113281250e+00,2.189060211181640625e+00,2.270370006561279297e+00,2.266254901885986328e+00,3.907630443572998047e+00,3.782402276992797852e+00,3.664950847625732422e+00,3.554574251174926758e+00,3.450651407241821289e+00,3.352632522583007812e+00,3.260029077529907227e+00,3.172403097152709961e+00,3.089364767074584961e+00,3.010562419891357422e+00,2.935680627822875977e+00,2.864433050155639648e+00,2.796561717987060547e+00,2.731832742691040039e+00,2.670032024383544922e+00,2.610965967178344727e+00,2.554456472396850586e+00,2.500341176986694336e+00,2.448471307754516602e+00,2.398709535598754883e+00,2.350930452346801758e+00,2.305017232894897461e+00,2.260863542556762695e+00,2.218369245529174805e+00,2.177442789077758789e+00,2.137999296188354492e+00,2.099959373474121094e+00,2.063249349594116211e+00,2.027800798416137695e+00,1.993549704551696777e+00,1.960436582565307617e+00,1.928405404090881348e+00,1.897403955459594727e+00,1.867383718490600586e+00
5.000000000000000000e+00,5.000000000000000000e+00,5.000000000000000000e+00,5.000000000000000000e+00,5.000000000000000000e+00,5.000000000000000000e+00,5.000000000000000000e+00,5.000000000000000000e+00,5.000000000000000000e+00,5.000000000000000000e+00,5.000000000000000000e+00,5.000000000000000000e+00,5.000000000000000000e+00,5.000000000000000000e+00,5.000000000000000000e+00,5.000000000000000000e+00,5.000000000000000000e+00,5.000000000000000000e+00,5.000000000000000000e+00,5.000000000000000000e+00,5.000000000000000000e+00,5.000000000000000000e+00,5.000000000000000000e+00,5.000000000000000000e+00,5.000000000000000000e+00,5.000000000000000000e+00,5.000000000000000000e+00,5.000000000000000000e+00,5.000000000000000000e+00,5.000000000000000000e+00,5.000000000000000000e+00,5.000000000000000000e+00,5.000000000000000000e+00,5.000000000000000000e+00,2.041609525680541992e+00,2.024231195449829102e+00,2.036131381988525391e+00,1.971938967704772949e+00,1.955717206001281738e+00,1.947581887245178223e+00,1.986631393432617188e+00,2.129440546035766602e+00,2.134114265441894531e+00,2.187047719955444336e+00,4.184832572937011719e+00,2.277856588363647461e+00,3.907721996307373047e+00,3.782488107681274414e+00,3.665031194686889648e+00,3.554650068283081055e+00,3.450722694396972656e+00,3.352699995040893555e+00,3.260092735290527344e+00,3.172463417053222656e+00,3.089421987533569336e+00,3.010616779327392578e+00,2.935732126235961914e+00,2.864482164382934570e+00,2.796608686447143555e+00,2.731877326965332031e+00,2.670074939727783203e+00,2.611006736755371094e+00,2.554495573043823242e+00,2.500378608703613281e+00,2.448507070541381836e+00,2.398744106292724609e+00,2.350963592529296875e+00,2.305049180984497070e+00,2.260894060134887695e+00,2.218398571014404297e+00,2.177471399307250977e+00,2.138026714324951172e+00,2.099985837936401367e+00,2.063274860382080078e+00,2.027825355529785156e+00,1.993573665618896484e+00,1.960459470748901367e+00,1.928427577018737793e+00,1.897425651550292969e+00,1.867404699325561523e+00
5.000000000000000000e+00,5.000000000000000000e+00,5.000000000000000000e+00,5.000000000000000000e+00,5.000000000000000000e+00,5.000000000000000000e+00,5.000000000000000000e+00,5.000000000000000000e+00,5.000000000000000000e+00,5.000000000000000000e+00,5.000000000000000000e+00,5.000000000000000000e+00,5.000000000000000000e+00,5.000000000000000000e+00,5.000000000000000000e+00,5.000000000000000000e+00,5.000000000000000000e+00,5.000000000000000000e+00,5.000000000000000000e+00,5.000000000000000000e+00,5.000000000000000000e+00,5.000000000000000000e+00,5.000000000000000000e+00,5.000000000000000000e+00,5.000000000000000000e+00,5.000000000000000000e+00,5.000000000000000000e+00,5.000000000000000000e+00,5.000000000000000000e+00,5.000000000000000000e+00,5.000000000000000000e+00,5.000000000000000000e+00,5.000000000000000000e+00,5.000000000000000000e+00,2.052602767944335938e+00,2.002728462219238281e+00,2.064682722091674805e+00,1.979876041412353516e+00,1.941146850585937500e+00,1.931939482688903809e+00,1.964676141738891602e+00,2.125787973403930664e+00,2.132562398910522461e+00,2.188260555267333984e+00,4.184937477111816406e+00,4.041630744934082031e+00,2.244256496429443359e+00,3.782573699951171875e+00,3.665111780166625977e+00,3.554725408554077148e+00,3.450794219970703125e+00,3.352767229080200195e+00,3.260156393051147461e+00,3.172523736953735352e+00,3.089479207992553711e+00,3.010671138763427734e+00,2.935783863067626953e+00,2.864531278610229492e+00,2.796655416488647461e+00,2.731922149658203125e+00,2.670117616653442383e+00,2.611047744750976562e+00,2.554534673690795898e+00,2.500416040420532227e+00,2.448543071746826172e+00,2.398778438568115234e+00,2.350996494293212891e+00,2.305080890655517578e+00,2.260924577713012695e+00,2.218428134918212891e+00,2.177499771118164062e+00,2.138054132461547852e+00,2.100012302398681641e+00,2.063300371170043945e+00,2.027849912643432617e+00,1.993597269058227539e+00,1.960482597351074219e+00,1.928449988365173340e+00,1.897447109222412109e+00,1.867425560951232910e+00
5.000000000000000000e+00,5.000000000000000000e+00,5.000000000000000000e+00,5.000000000000000000e+00,5.000000000000000000e+00,5.000000000000000000e+00,5.000000000000000000e+00,5.000000000000000000e+00,5.000000000000000000e+00,5.000000000000000000e+00,5.000000000000000000e+00,5.000000000000000000e+00,5.000000000000000000e+00,5.000000000000000000e+00,5.000000000000000000e+00,5.000000000000000000e+00,5.000000000000000000e+00,5.000000000000000000e+00,5.000000000000000000e+00,5.000000000000000000e+00,5.000000000000000000e+00,5.000000000000000000e+00,5.000000000000000000e+00,5.000000000000000000e+00,5.000000000000000000e+00,5.000000000000000000e+00,5.000000000000000000e+00,5.000000000000000000e+00,5.000000000000000000e+00,5.000000000000000000e+00,5.000000000000000000e+00,5.000000000000000000e+00,5.000000000000000000e+00,5.000000000000000000e+00,2.035722255706787109e+00,5.000000000000000000e+00,5.000000000000000000e+00,1.988048315048217773e+00,1.931945323944091797e+00,1.917493820190429688e+00,1.941222310066223145e+00,2.122624874114990234e+00,2.129466056823730469e+00,2.186100482940673828e+00,4.185042381286621094e+00,4.041728496551513672e+00,2.274825572967529297e+00,3.782659530639648438e+00,3.665192127227783203e+00,3.554800987243652344e+00,3.450865507125854492e+00,3.352834701538085938e+00,3.260220050811767578e+00,3.172584056854248047e+00,3.089536428451538086e+00,3.010725498199462891e+00,2.935835361480712891e+00,2.864580392837524414e+00,2.796702384948730469e+00,2.731966733932495117e+00,2.670160293579101562e+00,2.611088514328002930e+00,2.554573774337768555e+00,2.500453472137451172e+00,2.448579072952270508e+00,2.398812770843505859e+00,2.351029634475708008e+00,2.305112838745117188e+00,2.260955333709716797e+00,2.218457698822021484e+00,2.177528142929077148e+00,2.138081550598144531e+00,2.100038528442382812e+00,2.063325881958007812e+00,2.027874708175659180e+00,1.993621230125427246e+00,1.960505485534667969e+00,1.928472161293029785e+00,1.897468805313110352e+00,1.867446541786193848e+00
5.000000000000000000e+00,5.000000000000000000e+00,5.000000000000000000e+00,5.000000000000000000e+00,5.000000000000000000e+00,5.000000000000000000e+00,5.000000000000000000e+00,5.000000000000000000e+00,5.000000000000000000e+00,5.000000000000000000e+00,5.000000000000000000e+00,5.000000000000000000e+00,5.000000000000000000e+00,5.000000000000000000e+00,5.000000000000000000e+00,5.000000000000000000e+00,5.000000000000000000e+00,5.000000000000000000e+00,5.000000000000000000e+00,5.000000000000000000e+00,5.000000000000000000e+00,5.000000000000000000e+00,5.000000000000000000e+00,5.000000000000000000e+00,5.000000000000000000e+00,5.000000000000000000e+00,5.000000000000000000e+00,5.000000000000000000e+00,5.000000000000000000e+00,5.000000000000000000e+00,5.000000000000000000e+00,5.000000000000000000e+00,5.000000000000000000e+00,5.000000000000000000e+00,5.000000000000000000e+00,5.000000000000000000e+00,5.000000000000000000e+00,2.007249593734741211e+00,1.929177999496459961e+00,1.907827973365783691e+00,1.920792818069458008e+00,2.117173910140991211e+00,2.127085447311401367e+00,2.187277555465698242e+00,4.185147285461425781e+00,4.041826248168945312e+00,3.907996416091918945e+00,3.782745122909545898e+00,3.665272712707519531e+00,3.554876804351806641e+00,3.450936794281005859e+00,3.352901935577392578e+00,3.260283708572387695e+00,3.172644376754760742e+00,3.089593648910522461e+00,3.010779619216918945e+00,2.935887098312377930e+00,2.864629507064819336e+00,2.796749114990234375e+00,2.732011556625366211e+00,2.670202970504760742e+00,2.611129283905029297e+00,2.554612874984741211e+00,2.500490903854370117e+00,2.448614835739135742e+00,2.398847341537475586e+00,2.351062774658203125e+00,2.305144548416137695e+00,2.260985851287841797e+00,2.218487024307250977e+00,2.177556514739990234e+00,2.138108968734741211e+00,2.100064992904663086e+00,2.063351392745971680e+00,2.027899265289306641e+00,1.993644952774047852e+00,1.960528612136840820e+00,1.928494572639465332e+00,1.897490262985229492e+00,1.867467284202575684e+00
5.000000000000000000e+00,5.000000000000000000e+00,5.000000000000000000e+00,5.000000000000000000e+00,5.000000000000000000e+00,5.000000000000000000e+00,5.000000000000000000e+00,5.000000000000000000e+00,5.000000000000000000e+00,5.000000000000000000e+00,5.000000000000000000e+00,5.000000000000000000e+00,5.000000000000000000e+00,5.000000000000000000e+00,5.000000000000000000e+00,5.000000000000000000e+00,5.000000000000000000e+00,5.000000000000000000e+00,5.000000000000000000e+00,5.000000000000000000e+00,5.000000000000000000e+00,5.000000000000000000e+00,5.000000000000000000e+00,5.000000000000000000e+00,5.000000000000000000e+00,5.000000000000000000e+00,5.000000000000000000e+00,5.000000000000000000e+00,5.000000000000000000e+00,5.000000000000000000e+00,5.000000000000000000e+00,5.000000000000000000e+00,5.000000000000000000e+00,5.000000000000000000e+00,5.000000000000000000e+00,5.000000000000000000e+00,5.000000000000000000e+00,5.000000000000000000e+00,1.940964818000793457e+00,1.904834270477294922e+00,1.915655136108398438e+00,2.112454891204833984e+00,2.123815774917602539e+00,4.339119434356689453e+00,4.185252189636230469e+00,4.041923999786376953e+00,3.908087730407714844e+00,3.782830953598022461e+00,3.665353298187255859e+00,3.554952383041381836e+00,3.451008081436157227e+00,3.352969408035278320e+00,3.260347366333007812e+00,3.172704696655273438e+00,3.089650630950927734e+00,3.010833978652954102e+00,2.935938358306884766e+00,2.864678859710693359e+00,2.796796083450317383e+00,2.732056140899658203e+00,2.670245647430419922e+00,2.611170291900634766e+00,2.554651975631713867e+00,2.500528573989868164e+00,2.448650836944580078e+00,2.398881912231445312e+00,2.351095914840698242e+00,2.305176496505737305e+00,2.261016607284545898e+00,2.218516588211059570e+00,2.177584886550903320e+00,2.138136148452758789e+00,2.100091457366943359e+00,2.063376903533935547e+00,2.027923822402954102e+00,1.993668794631958008e+00,1.960551500320434570e+00,1.928516745567321777e+00,1.897511959075927734e+00,1.867488265037536621e+00
5.000000000000000000e+00,5.000000000000000000e+00,5.000000000000000000e+00,5.000000000000000000e+00,5.000000000000000000e+00,5.000000000000000000e+00,5.000000000000000000e+00,5.000000000000000000e+00,5.000000000000000000e+00,5.000000000000000000e+00,5.000000000000000000e+00,5.000000000000000000e+00,5.000000000000000000e+00,5.000000000000000000e+00,5.000000000000000000e+00,5.000000000000000000e+00,5.000000000000000000e+00,5.000000000000000000e+00,5.000000000000000000e+00,5.000000000000000000e+00,5.000000000000000000e+00,5.000000000000000000e+00,5.000000000000000000e+00,5.000000000000000000e+00,5.000000000000000000e+00,5.000000000000000000e+00,5.000000000000000000e+00,5.000000000000000000e+00,5.000000000000000000e+00,5.000000000000000000e+00,5.000000000000000000e+00,5.000000000000000000e+00,5.000000000000000000e+00,5.000000000000000000e+00,5.000000000000000000e+00,5.000000000000000000e+00,5.000000000000000000e+00,5.000000000000000000e+00,1.942517518997192383e+00,1.910393118858337402e+00,1.923082709312438965e+00,2.111541986465454102e+00,2.118494987487792969e+00,4.339231967926025391e+00,4.185357093811035156e+00,4.042022228240966797e+00,3.908179283142089844e+00,3.782916545867919922e+00,3.665433645248413086e+00,3.555028200149536133e+00,3.451079607009887695e+00,3.353036642074584961e+00,3.260411024093627930e+00,3.172765016555786133e+00,3.089707851409912109e+00,3.010888338088989258e+00,2.935990095138549805e+00,2.864727973937988281e+00,2.796842813491821289e+00,2.732100963592529297e+00,2.670288324356079102e+00,2.611211061477661133e+00,2.554691076278686523e+00,2.500566005706787109e+00,2.448686838150024414e+00,2.398916244506835938e+00,2.351129055023193359e+00,2.305208206176757812e+00,2.261047124862670898e+00,2.218546152114868164e+00,2.177613258361816406e+00,2.138163566589355469e+00,2.100117683410644531e+00,2.063402414321899414e+00,2.027948617935180664e+00,1.993692517280578613e+00,1.960574626922607422e+00,1.928539037704467773e+00,1.897533416748046875e+00,1.867509126663208008e+00
5.000000000000000000e+00,5.000000000000000000e+00,5.000000000000000000e+00,5.000000000000000000e+00,5.000000000000000000e+00,5.000000000000000000e+00,5.000000000000000000e+00,5.000000000000000000e+00,5.000000000000000000e+00,5.000000000000000000e+00,5.000000000000000000e+00,5.000000000000000000e+00,5.000000000000000000e+00,5.000000000000000000e+00,5.000000000000000000e+00,5.000000000000000000e+00,5.000000000000000000e+00,5.000000000000000000e+00,5.000000000000000000e+00,5.000000000000000000e+00,5.000000000000000000e+00,5.000000000000000000e+00,5.000000000000000000e+00,5.000000000000000000e+00,5.000000000000000000e+00,5.000000000000000000e+00,5.000000000000000000e+00,5.000000000000000000e+00,5.000000000000000000e+00,5.000000000000000000e+00,5.000000000000000000e+00,5.000000000000000000e+00,5.000000000000000000e+00,5.000000000000000000e+00,5.000000000000000000e+00,5.000000000000000000e+00,5.000000000000000000e+00,2.004490852355957031e+00,1.953416466712951660e+00,1.928681135177612305e+00,1.951686501502990723e+00,2.113499402999877930e+00,2.119962692260742188e+00,4.339344978332519531e+00,4.185462474822998047e+00,4.042119979858398438e+00,3.908270835876464844e+00,3.783002376556396484e+00,3.665514230728149414e+00,3.555103778839111328e+00,3.451150894165039062e+00,3.353104114532470703e+00,3.260474681854248047e+00,3.172825336456298828e+00,3.089765071868896484e+00,3.010942697525024414e+00,2.936041831970214844e+00,2.864777088165283203e+00,2.796889781951904297e+00,2.732145786285400391e+00,2.670331001281738281e+00,2.611251831054687500e+00,2.554729938507080078e+00,2.500603437423706055e+00,2.448722600936889648e+00,2.398950815200805664e+00,2.351162195205688477e+00,2.305240154266357422e+00,2.261077880859375000e+00,2.218575477600097656e+00,2.177641630172729492e+00,2.138190984725952148e+00,2.100144147872924805e+00,2.063427925109863281e+00,2.027973175048828125e+00,1.993716478347778320e+00,1.960597634315490723e+00,1.928561210632324219e+00,1.897555112838745117e+00,1.867530107498168945e+00
5.000000000000000000e+00,5.000000000000000000e+00,5.000000000000000000e+00,5.000000000000000000e+00,5.000000000000000000e+00,5.000000000000000000e+00,5.000000000000000000e+00,5.000000000000000000e+00,5.000000000000000000e+00,5.000000000000000000e+00,5.000000000000000000e+00,5.000000000000000000e+00,5.000000000000000000e+00,5.000000000000000000e+00,5.000000000000000000e+00,5.000000000000000000e+00,5.000000000000000000e+00,5.000000000000000000e+00,5.000000000000000000e+00,5.000000000000000000e+00,5.000000000000000000e+00,5.000000000000000000e+00,5.000000000000000000e+00,5.000000000000000000e+00,5.000000000000000000e+00,5.000000000000000000e+00,5.000000000000000000e+00,5.000000000000000000e+00,5.000000000000000000e+00,5.000000000000000000e+00,5.000000000000000000e+00,5.000000000000000000e+00,5.000000000000000000e+00,5.000000000000000000e+00,5.000000000000000000e+00,5.000000000000000000e+00,5.000000000000000000e+00,2.011199474334716797e+00,1.979790806770324707e+00,1.966639637947082520e+00,2.149449825286865234e+00,2.128721237182617188e+00,2.137651205062866211e+00,4.339457511901855469e+00,4.185567378997802734e+00,4.042217731475830078e+00,3.908362388610839844e+00,3.783087491989135742e+00,3.665594577789306641e+00,3.555179595947265625e+00,3.451222181320190430e+00,3.353171348571777344e+00,3.260538339614868164e+00,3.172885417938232422e+00,3.089822292327880859e+00,3.010996818542480469e+00,2.936093330383300781e+00,2.864826202392578125e+00,2.796936511993408203e+00,2.732190370559692383e+00,2.670373916625976562e+00,2.611292600631713867e+00,2.554769039154052734e+00,2.500640630722045898e+00,2.448758602142333984e+00,2.398985147476196289e+00,2.351195335388183594e+00,2.305271863937377930e+00,2.261108398437500000e+00,2.218605041503906250e+00,2.177670240402221680e+00,2.138218402862548828e+00,2.100170612335205078e+00,2.063453435897827148e+00,2.027997732162475586e+00,1.993740200996398926e+00,1.960620760917663574e+00,1.928583621978759766e+00,1.897576570510864258e+00,1.867550849914550781e+00
5.000000000000000000e+00,5.000000000000000000e+00,5.000000000000000000e+00,5.000000000000000000e+00,5.000000000000000000e+00,5.000000000000000000e+00,5.000000000000000000e+00,5.000000000000000000e+00,5.000000000000000000e+00,5.000000000000000000e+00,5.000000000000000000e+00,5.000000000000000000e+00,5.000000000000000000e+00,5.000000000000000000e+00,5.000000000000000000e+00,5.000000000000000000e+00,5.000000000000000000e+00,5.000000000000000000e+00,5.000000000000000000e+00,5.000000000000000000e+00,5.000000000000000000e+00,5.000000000000000000e+00,5.000000000000000000e+00,5.000000000000000000e+00,5.000000000000000000e+00,5.000000000000000000e+00,5.000000000000000000e+00,5.000000000000000000e+00,5.000000000000000000e+00,5.000000000000000000e+00,5.000000000000000000e+00,5.000000000000000000e+00,5.000000000000000000e+00,5.000000000000000000e+00,5.000000000000000000e+00,5.000000000000000000e+00,5.000000000000000000e+00,2.028430461883544922e+00,2.006108760833740234e+00,2.020967483520507812e+00,2.159266710281372070e+00,2.153381586074829102e+00,4.505217552185058594e+00,4.339570522308349609e+00,4.185672283172607422e+00,4.042315483093261719e+00,3.908453941345214844e+00,3.783173322677612305e+00,3.665675163269042969e+00,3.555255174636840820e+00,3.451293468475341797e+00,3.353238821029663086e+00,3.260601997375488281e+00,3.172945737838745117e+00,3.089879512786865234e+00,3.011051177978515625e+00,2.936145067214965820e+00,2.864875316619873047e+00,2.796983480453491211e+00,2.732235193252563477e+00,2.670416593551635742e+00,2.611333608627319336e+00,2.554808139801025391e+00,2.500678062438964844e+00,2.448794603347778320e+00,2.399019718170166016e+00,2.351228475570678711e+00,2.305303812026977539e+00,2.261139154434204102e+00,2.218634605407714844e+00,2.177698612213134766e+00,2.138245820999145508e+00,2.100197076797485352e+00,2.063478946685791016e+00,2.028022527694702148e+00,1.993764042854309082e+00,1.960643649101257324e+00,1.928605794906616211e+00,1.897598147392272949e+00,1.867571711540222168e+00
5.000000000000000000e+00,5.000000000000000000e+00,5.000000000000000000e+00,5.000000000000000000e+00,5.000000000000000000e+00,5.000000000000000000e+00,5.000000000000000000e+00,5.000000000000000000e+00,5.000000000000000000e+00,5.000000000000000000e+00,5.000000000000000000e+00,5.000000000000000000e+00,5.000000000000000000e+00,5.000000000000000000e+00,5.000000000000000000e+00,5.000000000000000000e+00,5.000000000000000000e+00,5.000000000000000000e+00,5.000000000000000000e+00,5.000000000000000000e+00,5.000000000000000000e+00,5.000000000000000000e+00,5.000000000000000000e+00,5.000000000000000000e+00,5.000000000000000000e+00,5.000000000000000000e+00,5.000000000000000000e+00,5.000000000000000000e+00,5.000000000000000000e+00,5.000000000000000000e+00,5.000000000000000000e+00,5.000000000000000000e+00,5.000000000000000000e+00,5.000000000000000000e+00,5.000000000000000000e+00,5.000000000000000000e+00,5.000000000000000000e+00,2.046450138092041016e+00,2.024852752685546875e+00,2.056064605712890625e+00,2.184178352355957031e+00,2.178620100021362305e+00,4.505339145660400391e+00,4.339683055877685547e+00,4.185777187347412109e+00,4.042413711547851562e+00,3.908545255661010742e+00,3.783259153366088867e+00,3.665755510330200195e+00,3.555330991744995117e+00,3.451364994049072266e+00,3.353306055068969727e+00,3.260665655136108398e+00,3.173006057739257812e+00,3.089936733245849609e+00,3.011105537414550781e+00,2.936196565628051758e+00,2.864924669265747070e+00,2.797030210494995117e+00,2.732279777526855469e+00,2.670459270477294922e+00,2.611374378204345703e+00,2.554847240447998047e+00,2.500715494155883789e+00,2.448830366134643555e+00,2.399054288864135742e+00,2.351261615753173828e+00,2.305335521697998047e+00,2.261169672012329102e+00,2.218663930892944336e+00,2.177726984024047852e+00,2.138273239135742188e+00,2.100223541259765625e+00,2.063504457473754883e+00,2.028047084808349609e+00,1.993787765502929688e+00,1.960666775703430176e+00,1.928628206253051758e+00,1.897619605064392090e+00,1.867592692375183105e+00
5.000000000000000000e+00,5.000000000000000000e+00,5.000000000000000000e+00,5.000000000000000000e+00,5.000000000000000000e+00,5.000000000000000000e+00,5.000000000000000000e+00,5.000000000000000000e+00,5.000000000000000000e+00,5.000000000000000000e+00,5.000000000000000000e+00,5.000000000000000000e+00,5.000000000000000000e+00,5.000000000000000000e+00,5.000000000000000000e+00,5.000000000000000000e+00,5.000000000000000000e+00,5.000000000000000000e+00,5.000000000000000000e+00,5.000000000000000000e+00,5.000000000000000000e+00,5.000000000000000000e+00,5.000000000000000000e+00,5.000000000000000000e+00,5.000000000000000000e+00,5.000000000000000000e+00,5.000000000000000000e+00,5.000000000000000000e+00,5.000000000000000000e+00,5.000000000000000000e+00,5.000000000000000000e+00,5.000000000000000000e+00,5.000000000000000000e+00,5.000000000000000000e+00,5.000000000000000000e+00,5.000000000000000000e+00,2.134443044662475586e+00,2.065075397491455078e+00,2.043950319290161133e+00,2.089666604995727539e+00,2.193218708038330078e+00,2.209675073623657227e+00,4.505460739135742188e+00,4.339796066284179688e+00,4.185882091522216797e+00,4.042511463165283203e+00,3.908636808395385742e+00,3.783344745635986328e+00,3.665836095809936523e+00,3.555406808853149414e+00,3.451436281204223633e+00,3.353373527526855469e+00,3.260729551315307617e+00,3.173066377639770508e+00,3.089993476867675781e+00,3.011159896850585938e+00,2.936248302459716797e+00,2.864973783493041992e+00,2.797077178955078125e+00,2.732324600219726562e+00,2.670501947402954102e+00,2.611415147781372070e+00,2.554886341094970703e+00,2.500752925872802734e+00,2.448866367340087891e+00,2.399088621139526367e+00,2.351294517517089844e+00,2.305367469787597656e+00,2.261200428009033203e+00,2.218693494796752930e+00,2.177755117416381836e+00,2.138300657272338867e+00,2.100249767303466797e+00,2.063529968261718750e+00,2.028071641921997070e+00,1.993811726570129395e+00,1.960689663887023926e+00,1.928650379180908203e+00,1.897641301155090332e+00,1.867613434791564941e+00
5.000000000000000000e+00,5.000000000000000000e+00,5.000000000000000000e+00,5.000000000000000000e+00,5.000000000000000000e+00,5.000000000000000000e+00,5.000000000000000000e+00,5.000000000000000000e+00,5.000000000000000000e+00,5.000000000000000000e+00,5.000000000000000000e+00,5.000000000000000000e+00,5.000000000000000000e+00,5.000000000000000000e+00,5.000000000000000000e+00,5.000000000000000000e+00,5.000000000000000000e+00,5.000000000000000000e+00,5.000000000000000000e+00,5.000000000000000000e+00,5.000000000000000000e+00,5.000000000000000000e+00,5.000000000000000000e+00,5.000000000000000000e+00,5.000000000000000000e+00,5.000000000000000000e+00,5.000000000000000000e+00,5.000000000000000000e+00,5.000000000000000000e+00,5.000000000000000000e+00,5.000000000000000000e+00,5.000000000000000000e+00,5.000000000000000000e+00,5.000000000000000000e+00,5.000000000000000000e+00,5.000000000000000000e+00,2.130906820297241211e+00,2.084302425384521484e+00,2.073919296264648438e+00,2.202263593673706055e+00,2.202334403991699219e+00,4.684403419494628906e+00,4.505582332611083984e+00,4.339909076690673828e+00,4.185986995697021484e+00,4.042609214782714844e+00,3.908728361129760742e+00,3.783430576324462891e+00,3.665916681289672852e+00,3.555482387542724609e+00,3.451507568359375000e+00,3.353440761566162109e+00,3.260793209075927734e+00,3.173126697540283203e+00,3.090050697326660156e+00,3.011214256286621094e+00,2.936300039291381836e+00,2.865022897720336914e+00,2.797124147415161133e+00,2.732369184494018555e+00,2.670544624328613281e+00,2.611456155776977539e+00,2.554925441741943359e+00,2.500790596008300781e+00,2.448902368545532227e+00,2.399123191833496094e+00,2.351327657699584961e+00,2.305399179458618164e+00,2.261230945587158203e+00,2.218723058700561523e+00,2.177783727645874023e+00,2.138328075408935547e+00,2.100276231765747070e+00,2.063555479049682617e+00,2.028096437454223633e+00,1.993835449218750000e+00,1.960712909698486328e+00,1.928672790527343750e+00,1.897662758827209473e+00,1.867634415626525879e+00
5.000000000000000000e+00,5.000000000000000000e+00,5.000000000000000000e+00,5.000000000000000000e+00,5.000000000000000000e+00,5.000000000000000000e+00,5.000000000000000000e+00,5.000000000000000000e+00,5.000000000000000000e+00,5.000000000000000000e+00,5.000000000000000000e+00,5.000000000000000000e+00,5.000000000000000000e+00,5.000000000000000000e+00,5.000000000000000000e+00,5.000000000000000000e+00,5.000000000000000000e+00,5.000000000000000000e+00,5.000000000000000000e+00,5.000000000000000000e+00,5.000000000000000000e+00,5.000000000000000000e+00,5.000000000000000000e+00,5.000000000000000000e+00,5.000000000000000000e+00,5.000000000000000000e+00,5.000000000000000000e+00,5.000000000000000000e+00,5.000000000000000000e+00,5.000000000000000000e+00,5.000000000000000000e+00,5.000000000000000000e+00,5.000000000000000000e+00,5.000000000000000000e+00,5.000000000000000000e+00,5.000000000000000000e+00,2.153374671936035156e+00,2.108228206634521484e+00,2.111226797103881836e+00,2.208663702011108398e+00,2.211061000823974609e+00,4.684532642364501953e+00,4.505701065063476562e+00,4.340021610260009766e+00,4.186091899871826172e+00,4.042707443237304688e+00,3.908819913864135742e+00,3.783516407012939453e+00,3.665997028350830078e+00,3.555558204650878906e+00,3.451579093933105469e+00,3.353508234024047852e+00,3.260856866836547852e+00,3.173187017440795898e+00,3.090107917785644531e+00,3.011268377304077148e+00,2.936351537704467773e+00,2.865072011947631836e+00,2.797170877456665039e+00,2.732414007186889648e+00,2.670587301254272461e+00,2.611496925354003906e+00,2.554964542388916016e+00,2.500828027725219727e+00,2.448938131332397461e+00,2.399157524108886719e+00,2.351360797882080078e+00,2.305431127548217773e+00,2.261261463165283203e+00,2.218752384185791016e+00,2.177812099456787109e+00,2.138355255126953125e+00,2.100302696228027344e+00,2.063580989837646484e+00,2.028120994567871094e+00,1.993859291076660156e+00,1.960735797882080078e+00,1.928694963455200195e+00,1.897684454917907715e+00,1.867655277252197266e+00
5.000000000000000000e+00,5.000000000000000000e+00,5.000000000000000000e+00,5.000000000000000000e+00,5.000000000000000000e+00,5.000000000000000000e+00,5.000000000000000000e+00,5.000000000000000000e+00,5.000000000000000000e+00,5.000000000000000000e+00,5.000000000000000000e+00,5.000000000000000000e+00,5.000000000000000000e+00,5.000000000000000000e+00,5.000000000000000000e+00,5.000000000000000000e+00,5.000000000000000000e+00,5.000000000000000000e+00,5.000000000000000000e+00,5.000000000000000000e+00,5.000000000000000000e+00,5.000000000000000000e+00,5.000000000000000000e+00,5.000000000000000000e+00,5.000000000000000000e+00,5.000000000000000000e+00,5.000000000000000000e+00,5.000000000000000000e+00,5.000000000000000000e+00,5.000000000000000000e+00,5.000000000000000000e+00,5.000000000000000000e+00,5.000000000000000000e+00,5.000000000000000000e+00,5.000000000000000000e+00,5.000000000000000000e+00,2.176519155502319336e+00,2.135572910308837891e+00,2.152297496795654297e+00,2.218273401260375977e+00,2.220269441604614258e+00,4.684661388397216797e+00,4.505820751190185547e+00,4.340132713317871094e+00,4.186196804046630859e+00,4.042804718017578125e+00,3.908911466598510742e+00,3.783601999282836914e+00,3.666077613830566406e+00,3.555634021759033203e+00,3.451650381088256836e+00,3.353575468063354492e+00,3.260920524597167969e+00,3.173247337341308594e+00,3.090165138244628906e+00,3.011322736740112305e+00,2.936403274536132812e+00,2.865121364593505859e+00,2.797217845916748047e+00,2.732458829879760742e+00,2.670630216598510742e+00,2.611537694931030273e+00,2.555003643035888672e+00,2.500865459442138672e+00,2.448974132537841797e+00,2.399192094802856445e+00,2.351393938064575195e+00,2.305463075637817383e+00,2.261292219161987305e+00,2.218781948089599609e+00,2.177840471267700195e+00,2.138382673263549805e+00,2.100329160690307617e+00,2.063606500625610352e+00,2.028145551681518555e+00,1.993883013725280762e+00,1.960758924484252930e+00,1.928717136383056641e+00,1.897705912590026855e+00,1.867676258087158203e+00
5.000000000000000000e+00,5.000000000000000000e+00,5.000000000000000000e+00,5.000000000000000000e+00,5.000000000000000000e+00,5.000000000000000000e+00,5.000000000000000000e+00,5.000000000000000000e+00,5.000000000000000000e+00,5.000000000000000000e+00,5.000000000000000000e+00,5.000000000000000000e+00,5.000000000000000000e+00,5.000000000000000000e+00,5.000000000000000000e+00,5.000000000000000000e+00,5.000000000000000000e+00,5.000000000000000000e+00,5.000000000000000000e+00,5.000000000000000000e+00,5.000000000000000000e+00,5.000000000000000000e+00,5.000000000000000000e+00,5.000000000000000000e+00,5.000000000000000000e+00,5.000000000000000000e+00,5.000000000000000000e+00,5.000000000000000000e+00,5.000000000000000000e+00,5.000000000000000000e+00,5.000000000000000000e+00,5.000000000000000000e+00,5.000000000000000000e+00,5.000000000000000000e+00,5.000000000000000000e+00,5.000000000000000000e+00,2.216759443283081055e+00,2.179713726043701172e+00,2.248259305953979492e+00,2.228191614151000977e+00,4.878426074981689453e+00,4.684790611267089844e+00,4.505940437316894531e+00,4.340243339538574219e+00,4.186300754547119141e+00,4.042902946472167969e+00,3.909003019332885742e+00,3.783687829971313477e+00,3.666158199310302734e+00,3.555709600448608398e+00,3.451721668243408203e+00,3.353642940521240234e+00,3.260984182357788086e+00,3.173307657241821289e+00,3.090222358703613281e+00,3.011377096176147461e+00,2.936455011367797852e+00,2.865170478820800781e+00,2.797264575958251953e+00,2.732503414154052734e+00,2.670672893524169922e+00,2.611578464508056641e+00,2.555042982101440430e+00,2.500902891159057617e+00,2.449010133743286133e+00,2.399226665496826172e+00,2.351427078247070312e+00,2.305494785308837891e+00,2.261322736740112305e+00,2.218811511993408203e+00,2.177868843078613281e+00,2.138410091400146484e+00,2.100355625152587891e+00,2.063632011413574219e+00,2.028170347213745117e+00,1.993906974792480469e+00,1.960781812667846680e+00,1.928739547729492188e+00,1.897727608680725098e+00,1.867697000503540039e+00
4.872262477874755859e+00,4.871042728424072266e+00,4.869823932647705078e+00,4.868606090545654297e+00,4.867388725280761719e+00,4.866171836853027344e+00,4.864955425262451172e+00,4.863739490509033203e+00,4.862524509429931641e+00,4.861310482025146484e+00,4.860096454620361328e+00,4.858883380889892578e+00,4.857670307159423828e+00,4.856458663940429688e+00,4.855247497558593750e+00,4.854036331176757812e+00,4.852826118469238281e+00,4.851616382598876953e+00,4.850408077239990234e+00,4.849199295043945312e+00,4.847991466522216797e+00,4.846784114837646484e+00,4.845577716827392578e+00,4.844371795654296875e+00,4.843166351318359375e+00,4.841961383819580078e+00,4.840757369995117188e+00,4.839553833007812500e+00,4.838350772857666016e+00,4.837148189544677734e+00,4.835946559906005859e+00,4.834745407104492188e+00,4.833544731140136719e+00,4.832344532012939453e+00,4.831145286560058594e+00,4.829946517944335938e+00,2.207872867584228516e+00,2.181595802307128906e+00,2.253532409667968750e+00,2.238198995590209961e+00,4.823961257934570312e+00,4.684919834136962891e+00,4.506059646606445312e+00,4.340354442596435547e+00,4.186403751373291016e+00,4.043000698089599609e+00,3.909094572067260742e+00,3.783773660659790039e+00,3.666238546371459961e+00,3.555785417556762695e+00,3.451793193817138672e+00,3.353710412979125977e+00,3.261047601699829102e+00,3.173367977142333984e+00,3.090279579162597656e+00,3.011431455612182617e+00,2.936506509780883789e+00,2.865219593048095703e+00,2.797311544418334961e+00,2.732548236846923828e+00,2.670715570449829102e+00,2.611619234085083008e+00,2.555082082748413086e+00,2.500940322875976562e+00,2.449045896530151367e+00,2.399260997772216797e+00,2.351460218429565430e+00,2.305526733398437500e+00,2.261353254318237305e+00,2.218840837478637695e+00,2.177897214889526367e+00,2.138437509536743164e+00,2.100382089614868164e+00,2.063657522201538086e+00,2.028194904327392578e+00,1.993930697441101074e+00,1.960804939270019531e+00,1.928761720657348633e+00,1.897749066352844238e+00,1.867717981338500977e+00
3.776735305786132812e+00,3.776002645492553711e+00,3.775270223617553711e+00,3.774538040161132812e+00,3.773806571960449219e+00,3.773075103759765625e+00,3.772343635559082031e+00,3.771612644195556641e+00,3.770881891250610352e+00,3.770151615142822266e+00,3.769421339035034180e+00,3.768691539764404297e+00,3.767961978912353516e+00,3.767232656478881836e+00,3.766504049301147461e+00,3.765775203704833984e+00,3.765046834945678711e+00,3.764318466186523438e+00,3.763590574264526367e+00,3.762862920761108398e+00,3.762135744094848633e+00,3.761408567428588867e+00,3.760681867599487305e+00,3.759955644607543945e+00,3.759229660034179688e+00,3.758503675460815430e+00,3.757777929306030273e+00,3.757052659988403320e+00,3.756327390670776367e+00,3.755602598190307617e+00,3.754878044128417969e+00,3.754153728485107422e+00,3.753430366516113281e+00,3.752706527709960938e+00,3.751983165740966797e+00,3.751260042190551758e+00,2.183849096298217773e+00,2.165081501007080078e+00,2.270522832870483398e+00,3.748370170593261719e+00,3.747648477554321289e+00,3.746927022933959961e+00,3.746206045150756836e+00,3.745485305786132812e+00,3.744764566421508789e+00,3.744044303894042969e+00,3.743324041366577148e+00,3.742604255676269531e+00,3.666319131851196289e+00,3.555861234664916992e+00,3.451864480972290039e+00,3.353777647018432617e+00,3.261111259460449219e+00,3.173428297042846680e+00,3.090336799621582031e+00,3.011485815048217773e+00,2.936558246612548828e+00,2.865268707275390625e+00,2.797358274459838867e+00,2.732592821121215820e+00,2.670758247375488281e+00,2.611660242080688477e+00,2.555121183395385742e+00,2.500977754592895508e+00,2.449081897735595703e+00,2.399295568466186523e+00,2.351493358612060547e+00,2.305558443069458008e+00,2.261384010314941406e+00,2.218870401382446289e+00,2.177925586700439453e+00,2.138464927673339844e+00,2.100408315658569336e+00,2.063683032989501953e+00,2.028219461441040039e+00,1.993954658508300781e+00,1.960827946662902832e+00,1.928784132003784180e+00,1.897770762443542480e+00,1.867738842964172363e+00
3.083427667617797852e+00,3.082939147949218750e+00,3.082450866699218750e+00,3.081962823867797852e+00,3.081475257873535156e+00,3.080987453460693359e+00,3.080499649047851562e+00,3.080012321472167969e+00,3.079524993896484375e+00,3.079037666320800781e+00,3.078550815582275391e+00,3.078063726425170898e+00,3.077577114105224609e+00,3.077090501785278320e+00,3.076604366302490234e+00,3.076118230819702148e+00,3.075632095336914062e+00,3.075146198272705078e+00,3.074660301208496094e+00,3.074174642562866211e+00,3.073689222335815430e+00,3.073203802108764648e+00,3.072718620300292969e+00,3.072233915328979492e+00,3.071748971939086914e+00,3.071264266967773438e+00,3.070779800415039062e+00,3.070295333862304688e+00,3.069811105728149414e+00,3.069326877593994141e+00,3.068843126296997070e+00,3.068359136581420898e+00,3.067875862121582031e+00,3.067392349243164062e+00,3.066909074783325195e+00,3.066425800323486328e+00,2.152297496795654297e+00,2.144911766052246094e+00,2.148051261901855469e+00,2.261508464813232422e+00,3.064012289047241211e+00,3.063529968261718750e+00,3.063048124313354492e+00,3.062566041946411133e+00,3.062084197998046875e+00,3.061602592468261719e+00,3.061120986938476562e+00,3.060639619827270508e+00,3.060158491134643555e+00,3.059677362442016602e+00,3.059196472167968750e+00,3.058716058731079102e+00,3.058235406875610352e+00,3.057754993438720703e+00,3.057274580001831055e+00,3.011540174484252930e+00,2.936609983444213867e+00,2.865318059921264648e+00,2.797405242919921875e+00,2.732637643814086914e+00,2.670800924301147461e+00,2.611701011657714844e+00,2.555160284042358398e+00,2.501015186309814453e+00,2.449117898941040039e+00,2.399330139160156250e+00,2.351526498794555664e+00,2.305590391159057617e+00,2.261414527893066406e+00,2.218899965286254883e+00,2.177954196929931641e+00,2.138492345809936523e+00,2.100434780120849609e+00,2.063708543777465820e+00,2.028244256973266602e+00,1.993978261947631836e+00,1.960851073265075684e+00,1.928806304931640625e+00,1.897792220115661621e+00,1.867759823799133301e+00
2.605185031890869141e+00,2.604836463928222656e+00,2.604487895965576172e+00,2.604139328002929688e+00,2.603791236877441406e+00,2.603442907333374023e+00,2.603094816207885742e+00,2.602746486663818359e+00,2.602398633956909180e+00,2.602050781250000000e+00,2.601702928543090820e+00,2.601355075836181641e+00,2.601007461547851562e+00,2.600659847259521484e+00,2.600312709808349609e+00,2.599965333938598633e+00,2.599617958068847656e+00,2.599270820617675781e+00,2.598923683166503906e+00,2.598576784133911133e+00,2.598229885101318359e+00,2.597882986068725586e+00,2.597536325454711914e+00,2.597189903259277344e+00,2.596843481063842773e+00,2.596497058868408203e+00,2.596150636672973633e+00,2.595804452896118164e+00,2.595458269119262695e+00,2.595112085342407227e+00,2.594766139984130859e+00,2.594420194625854492e+00,2.594074726104736328e+00,2.593729019165039062e+00,2.593383312225341797e+00,2.593037843704223633e+00,2.592692375183105469e+00,2.122024297714233398e+00,2.119551658630371094e+00,2.191888093948364258e+00,2.591311693191528320e+00,2.590966701507568359e+00,2.590622186660766602e+00,2.590277194976806641e+00,2.589932680130004883e+00,2.589587926864624023e+00,2.589243412017822266e+00,2.588899135589599609e+00,2.588554859161376953e+00,2.588210582733154297e+00,2.587866544723510742e+00,2.587522506713867188e+00,2.587178707122802734e+00,2.586834907531738281e+00,2.586491107940673828e+00,2.586147308349609375e+00,2.585803747177124023e+00,2.585460424423217773e+00,2.585116863250732422e+00,2.584773540496826172e+00,2.584430694580078125e+00,2.584087371826171875e+00,2.555199384689331055e+00,2.501052856445312500e+00,2.449153661727905273e+00,2.399364471435546875e+00,2.351559638977050781e+00,2.305622100830078125e+00,2.261445283889770508e+00,2.218929290771484375e+00,2.177982568740844727e+00,2.138519763946533203e+00,2.100461244583129883e+00,2.063734054565429688e+00,2.028268814086914062e+00,1.994001984596252441e+00,1.960873961448669434e+00,1.928828597068786621e+00,1.897813916206359863e+00,1.867780566215515137e+00
2.255364894866943359e+00,2.255104780197143555e+00,2.254844665527343750e+00,2.254584550857543945e+00,2.254324674606323242e+00,2.254064798355102539e+00,2.253804922103881836e+00,2.253545045852661133e+00,2.253285408020019531e+00,2.253024816513061523e+00,2.252764225006103516e+00,2.252503395080566406e+00,2.252242803573608398e+00,2.251982212066650391e+00,2.251721858978271484e+00,2.251461267471313477e+00,2.251200914382934570e+00,2.250940561294555664e+00,2.250680208206176758e+00,2.250420093536376953e+00,2.250159740447998047e+00,2.249899625778198242e+00,2.249639749526977539e+00,2.249379873275756836e+00,2.249119997024536133e+00,2.248860120773315430e+00,2.248600244522094727e+00,2.248340368270874023e+00,2.248080730438232422e+00,2.247821092605590820e+00,2.247561454772949219e+00,2.247302055358886719e+00,2.247042655944824219e+00,2.246783256530761719e+00,2.246524095535278320e+00,2.246264696121215820e+00,2.246005535125732422e+00,2.245746374130249023e+00,2.245487213134765625e+00,2.128793001174926758e+00,2.164044857025146484e+00,2.244710206985473633e+00,2.244451522827148438e+00,2.244192838668823242e+00,2.243934154510498047e+00,2.243675470352172852e+00,2.243416786193847656e+00,2.243158340454101562e+00,2.242899656295776367e+00,2.242641210556030273e+00,2.242383003234863281e+00,2.242124795913696289e+00,2.241866588592529297e+00,2.241608381271362305e+00,2.241350173950195312e+00,2.241091966629028320e+00,2.240833997726440430e+00,2.240576028823852539e+00,2.240318059921264648e+00,2.240060329437255859e+00,2.239802598953247070e+00,2.239544868469238281e+00,2.239287376403808594e+00,2.239029645919799805e+00,2.238772153854370117e+00,2.238514661788940430e+00,2.238257169723510742e+00,2.237999916076660156e+00,2.237742424011230469e+00,2.218958854675292969e+00,2.178010940551757812e+00,2.138547182083129883e+00,2.100487709045410156e+00,2.063759565353393555e+00,2.028293371200561523e+00,1.994025945663452148e+00,1.960897088050842285e+00,1.928850769996643066e+00,1.897835373878479004e+00,1.867801547050476074e+00
1.988309144973754883e+00,1.988107085227966309e+00,1.987904906272888184e+00,1.987702846527099609e+00,1.987500786781311035e+00,1.987298846244812012e+00,1.987096905708312988e+00,1.986894726753234863e+00,1.986692905426025391e+00,1.986490964889526367e+00,1.986289262771606445e+00,1.986087441444396973e+00,1.985885858535766602e+00,1.985684156417846680e+00,1.985482573509216309e+00,1.985280752182006836e+00,1.985079169273376465e+00,1.984877705574035645e+00,1.984676241874694824e+00,1.984474778175354004e+00,1.984273433685302734e+00,1.984072089195251465e+00,1.983870506286621094e+00,1.983669281005859375e+00,1.983468055725097656e+00,1.983266830444335938e+00,1.983065724372863770e+00,1.982864618301391602e+00,1.982663631439208984e+00,1.982462406158447266e+00,1.982261419296264648e+00,1.982060432434082031e+00,1.981859564781188965e+00,1.981658697128295898e+00,1.981457948684692383e+00,1.981257200241088867e+00,1.981056213378906250e+00,1.980855464935302734e+00,1.980654835700988770e+00,1.980454206466674805e+00,1.980253696441650391e+00,1.980053186416625977e+00,1.979852676391601562e+00,1.979652285575866699e+00,1.979451656341552734e+00,1.979251265525817871e+00,1.979050874710083008e+00,1.978850603103637695e+00,1.978650450706481934e+00,1.978450179100036621e+00,1.978250026702880859e+00,1.978049635887145996e+00,1.977849602699279785e+00,1.977649569511413574e+00,1.977449536323547363e+00,1.977249622344970703e+00,1.977049708366394043e+00,1.976849794387817383e+00,1.976649761199951172e+00,1.976449966430664062e+00,1.976250171661376953e+00,1.976050496101379395e+00,1.975850820541381836e+00,1.975651144981384277e+00,1.975451588630676270e+00,1.975252032279968262e+00,1.975052237510681152e+00,1.974852800369262695e+00,1.974653363227844238e+00,1.974453926086425781e+00,1.974254608154296875e+00,1.974055290222167969e+00,1.973855972290039062e+00,1.973656535148620605e+00,1.973457336425781250e+00,1.973258256912231445e+00,1.960919976234436035e+00,1.928873181343078613e+00,1.897857069969177246e+00,1.867822408676147461e+00
1.777801513671875000e+00,1.777639865875244141e+00,1.777478337287902832e+00,1.777316689491271973e+00,1.777155160903930664e+00,1.776993751525878906e+00,1.776832103729248047e+00,1.776670575141906738e+00,1.776509165763854980e+00,1.776347875595092773e+00,1.776186466217041016e+00,1.776025176048278809e+00,1.775863885879516602e+00,1.775702357292175293e+00,1.775541186332702637e+00,1.775379896163940430e+00,1.775218725204467773e+00,1.775057673454284668e+00,1.774896502494812012e+00,1.774735450744628906e+00,1.774574160575866699e+00,1.774413108825683594e+00,1.774252176284790039e+00,1.774091124534606934e+00,1.773930191993713379e+00,1.773769259452819824e+00,1.773608446121215820e+00,1.773447394371032715e+00,1.773286461830139160e+00,1.773125767707824707e+00,1.772964954376220703e+00,1.772804141044616699e+00,1.772643446922302246e+00,1.772482752799987793e+00,1.772322177886962891e+00,1.772161364555358887e+00,1.772000670433044434e+00,1.771840095520019531e+00,1.771679639816284180e+00,1.771519064903259277e+00,1.771358609199523926e+00,1.771198153495788574e+00,1.771037578582763672e+00,1.770877122879028320e+00,1.770716786384582520e+00,1.770556449890136719e+00,1.770396113395690918e+00,1.770235896110534668e+00,1.770075678825378418e+00,1.769915223121643066e+00,1.769755005836486816e+00,1.769594907760620117e+00,1.769434690475463867e+00,1.769274592399597168e+00,1.769114613533020020e+00,1.768954515457153320e+00,1.768794536590576172e+00,1.768634319305419922e+00,1.768474340438842773e+00,1.768314480781555176e+00,1.768154501914978027e+00,1.767994642257690430e+00,1.767834782600402832e+00,1.767675042152404785e+00,1.767515063285827637e+00,1.767355322837829590e+00,1.767195582389831543e+00,1.767035841941833496e+00,1.766876220703125000e+00,1.766716599464416504e+00,1.766556978225708008e+00,1.766397118568420410e+00,1.766237616539001465e+00,1.766078114509582520e+00,1.765918612480163574e+00,1.765759110450744629e+00,1.765599727630615234e+00,1.765440344810485840e+00,1.765280961990356445e+00,1.765121459960937500e+00
1.607600450515747070e+00,1.607468366622924805e+00,1.607336163520812988e+00,1.607204079627990723e+00,1.607071876525878906e+00,1.606939792633056641e+00,1.606807708740234375e+00,1.606675744056701660e+00,1.606543660163879395e+00,1.606411695480346680e+00,1.606279730796813965e+00,1.606147646903991699e+00,1.606015801429748535e+00,1.605883836746215820e+00,1.605751991271972656e+00,1.605620145797729492e+00,1.605488300323486328e+00,1.605356454849243164e+00,1.605224609375000000e+00,1.605092763900756836e+00,1.604961037635803223e+00,1.604829311370849609e+00,1.604697585105895996e+00,1.604565978050231934e+00,1.604434251785278320e+00,1.604302644729614258e+00,1.604170918464660645e+00,1.604039311408996582e+00,1.603907704353332520e+00,1.603776097297668457e+00,1.603644609451293945e+00,1.603513121604919434e+00,1.603381633758544922e+00,1.603250026702880859e+00,1.603118538856506348e+00,1.602987170219421387e+00,1.602855801582336426e+00,1.602724432945251465e+00,1.602593064308166504e+00,1.602461695671081543e+00,1.602330207824707031e+00,1.602198958396911621e+00,1.602067708969116211e+00,1.601936459541320801e+00,1.601805210113525391e+00,1.601673960685729980e+00,1.601542830467224121e+00,1.601411700248718262e+00,1.601280331611633301e+00,1.601149201393127441e+00,1.601018190383911133e+00,1.600887060165405273e+00,1.600756049156188965e+00,1.600625038146972656e+00,1.600494027137756348e+00,1.600362777709960938e+00,1.600231885910034180e+00,1.600100874900817871e+00,1.599969983100891113e+00,1.599839091300964355e+00,1.599708199501037598e+00,1.599577307701110840e+00,1.599446296691894531e+00,1.599315524101257324e+00,1.599184751510620117e+00,1.599053978919982910e+00,1.598923206329345703e+00,1.598792433738708496e+00,1.598661780357360840e+00,1.598530888557434082e+00,1.598400235176086426e+00,1.598269581794738770e+00,1.598138928413391113e+00,1.598008394241333008e+00,1.597877740859985352e+00,1.597747206687927246e+00,1.597616672515869141e+00,1.597486019134521484e+00,1.597355484962463379e+00,1.597224950790405273e+00
1.467141151428222656e+00,1.467031002044677734e+00,1.466920852661132812e+00,1.466810822486877441e+00,1.466700792312622070e+00,1.466590762138366699e+00,1.466480731964111328e+00,1.466370820999145508e+00,1.466260910034179688e+00,1.466150760650634766e+00,1.466040849685668945e+00,1.465930938720703125e+00,1.465821027755737305e+00,1.465711236000061035e+00,1.465601325035095215e+00,1.465491533279418945e+00,1.465381503105163574e+00,1.465271711349487305e+00,1.465161919593811035e+00,1.465052127838134766e+00,1.464942336082458496e+00,1.464832663536071777e+00,1.464722871780395508e+00,1.464613199234008789e+00,1.464503407478332520e+00,1.464393734931945801e+00,1.464284062385559082e+00,1.464174389839172363e+00,1.464064717292785645e+00,1.463955163955688477e+00,1.463845610618591309e+00,1.463735818862915039e+00,1.463626265525817871e+00,1.463516712188720703e+00,1.463407158851623535e+00,1.463297724723815918e+00,1.463188171386718750e+00,1.463078737258911133e+00,1.462969183921813965e+00,1.462859630584716797e+00,1.462750196456909180e+00,1.462640881538391113e+00,1.462531447410583496e+00,1.462422013282775879e+00,1.462312698364257812e+00,1.462203383445739746e+00,1.462093949317932129e+00,1.461984634399414062e+00,1.461875319480895996e+00,1.461766004562377930e+00,1.461656689643859863e+00,1.461547493934631348e+00,1.461438298225402832e+00,1.461328864097595215e+00,1.461219668388366699e+00,1.461110472679138184e+00,1.461001396179199219e+00,1.460892200469970703e+00,1.460783123970031738e+00,1.460673928260803223e+00,1.460564732551574707e+00,1.460455656051635742e+00,1.460346579551696777e+00,1.460237503051757812e+00,1.460128426551818848e+00,1.460019469261169434e+00,1.459910392761230469e+00,1.459801435470581055e+00,1.459692358970642090e+00,1.459583401679992676e+00,1.459474444389343262e+00,1.459365487098693848e+00,1.459256649017333984e+00,1.459147691726684570e+00,1.459038853645324707e+00,1.458929896354675293e+00,1.458821058273315430e+00,1.458712220191955566e+00,1.458603382110595703e+00,1.458494544029235840e+00
1.349253892898559570e+00,1.349160790443420410e+00,1.349067687988281250e+00,1.348974585533142090e+00,1.348881483078002930e+00,1.348788499832153320e+00,1.348695516586303711e+00,1.348602294921875000e+00,1.348509311676025391e+00,1.348416328430175781e+00,1.348323345184326172e+00,1.348230361938476562e+00,1.348137497901916504e+00,1.348044514656066895e+00,1.347951531410217285e+00,1.347858548164367676e+00,1.347765684127807617e+00,1.347672820091247559e+00,1.347579836845397949e+00,1.347486972808837891e+00,1.347394227981567383e+00,1.347301363945007324e+00,1.347208380699157715e+00,1.347115635871887207e+00,1.347022771835327148e+00,1.346930027008056641e+00,1.346837282180786133e+00,1.346744537353515625e+00,1.346651792526245117e+00,1.346558928489685059e+00,1.346466183662414551e+00,1.346373438835144043e+00,1.346280813217163086e+00,1.346188068389892578e+00,1.346095442771911621e+00,1.346002817153930664e+00,1.345910072326660156e+00,1.345817327499389648e+00,1.345724821090698242e+00,1.345632195472717285e+00,1.345539569854736328e+00,1.345446944236755371e+00,1.345354437828063965e+00,1.345261812210083008e+00,1.345169186592102051e+00,1.345076680183410645e+00,1.344984173774719238e+00,1.344891667366027832e+00,1.344799160957336426e+00,1.344706654548645020e+00,1.344614148139953613e+00,1.344521641731262207e+00,1.344429135322570801e+00,1.344336748123168945e+00,1.344244360923767090e+00,1.344151973724365234e+00,1.344059586524963379e+00,1.343967199325561523e+00,1.343874692916870117e+00,1.343782305717468262e+00,1.343690037727355957e+00,1.343597650527954102e+00,1.343505382537841797e+00,1.343412995338439941e+00,1.343320727348327637e+00,1.343228459358215332e+00,1.343136072158813477e+00,1.343043804168701172e+00,1.342951536178588867e+00,1.342859387397766113e+00,1.342767119407653809e+00,1.342674970626831055e+00,1.342582702636718750e+00,1.342490434646606445e+00,1.342398285865783691e+00,1.342306137084960938e+00,1.342213988304138184e+00,1.342121839523315430e+00,1.342029809951782227e+00,1.341937661170959473e+00
1.248902559280395508e+00,1.248822808265686035e+00,1.248743057250976562e+00,1.248663306236267090e+00,1.248583555221557617e+00,1.248503804206848145e+00,1.248424053192138672e+00,1.248344302177429199e+00,1.248264670372009277e+00,1.248184919357299805e+00,1.248105287551879883e+00,1.248025655746459961e+00,1.247946023941040039e+00,1.247866272926330566e+00,1.247786641120910645e+00,1.247707009315490723e+00,1.247627377510070801e+00,1.247547745704650879e+00,1.247468233108520508e+00,1.247388601303100586e+00,1.247308969497680664e+00,1.247229456901550293e+00,1.247149825096130371e+00,1.247070312500000000e+00,1.246990799903869629e+00,1.246911287307739258e+00,1.246831774711608887e+00,1.246752142906188965e+00,1.246672630310058594e+00,1.246593236923217773e+00,1.246513724327087402e+00,1.246434330940246582e+00,1.246354818344116211e+00,1.246275424957275391e+00,1.246195912361145020e+00,1.246116399765014648e+00,1.246037006378173828e+00,1.245957612991333008e+00,1.245878219604492188e+00,1.245798826217651367e+00,1.245719552040100098e+00,1.245640158653259277e+00,1.245560765266418457e+00,1.245481371879577637e+00,1.245402097702026367e+00,1.245322704315185547e+00,1.245243430137634277e+00,1.245164155960083008e+00,1.245084881782531738e+00,1.245005488395690918e+00,1.244926214218139648e+00,1.244846940040588379e+00,1.244767785072326660e+00,1.244688510894775391e+00,1.244609236717224121e+00,1.244530081748962402e+00,1.244450807571411133e+00,1.244371533393859863e+00,1.244292378425598145e+00,1.244213223457336426e+00,1.244134068489074707e+00,1.244054913520812988e+00,1.243975758552551270e+00,1.243896603584289551e+00,1.243817448616027832e+00,1.243738293647766113e+00,1.243659138679504395e+00,1.243580102920532227e+00,1.243500947952270508e+00,1.243421912193298340e+00,1.243342876434326172e+00,1.243263721466064453e+00,1.243184685707092285e+00,1.243105649948120117e+00,1.243026614189147949e+00,1.242947578430175781e+00,1.242868661880493164e+00,1.242789626121520996e+00,1.242710590362548828e+00,1.242631554603576660e+00
1.162445187568664551e+00,1.162376165390014648e+00,1.162307024002075195e+00,1.162238001823425293e+00,1.162168741226196289e+00,1.162099719047546387e+00,1.162030696868896484e+00,1.161961674690246582e+00,1.161892533302307129e+00,1.161823511123657227e+00,1.161754488945007324e+00,1.161685466766357422e+00,1.161616444587707520e+00,1.161547422409057617e+00,1.161478400230407715e+00,1.161409378051757812e+00,1.161340475082397461e+00,1.161271452903747559e+00,1.161202430725097656e+00,1.161133527755737305e+00,1.161064505577087402e+00,1.160995602607727051e+00,1.160926699638366699e+00,1.160857677459716797e+00,1.160788774490356445e+00,1.160719871520996094e+00,1.160650968551635742e+00,1.160582065582275391e+00,1.160513162612915039e+00,1.160444259643554688e+00,1.160375475883483887e+00,1.160306572914123535e+00,1.160237669944763184e+00,1.160168766975402832e+00,1.160099983215332031e+00,1.160031199455261230e+00,1.159962296485900879e+00,1.159893512725830078e+00,1.159824728965759277e+00,1.159755945205688477e+00,1.159687042236328125e+00,1.159618258476257324e+00,1.159549474716186523e+00,1.159480810165405273e+00,1.159412026405334473e+00,1.159343242645263672e+00,1.159274578094482422e+00,1.159205794334411621e+00,1.159137010574340820e+00,1.159068346023559570e+00,1.158999562263488770e+00,1.158930897712707520e+00,1.158862233161926270e+00,1.158793568611145020e+00,1.158724904060363770e+00,1.158656120300292969e+00,1.158587455749511719e+00,1.158518791198730469e+00,1.158450245857238770e+00,1.158381581306457520e+00,1.158313035964965820e+00,1.158244371414184570e+00,1.158175706863403320e+00,1.158107042312622070e+00,1.158038496971130371e+00,1.157969951629638672e+00,1.157901406288146973e+00,1.157832741737365723e+00,1.157764196395874023e+00,1.157695651054382324e+00,1.157627105712890625e+00,1.157558560371398926e+00,1.157490015029907227e+00,1.157421469688415527e+00,1.157353043556213379e+00,1.157284498214721680e+00,1.157216072082519531e+00,1.157147407531738281e+00,1.157078981399536133e+00,1.157010555267333984e+00
1.087183117866516113e+00,1.087122678756713867e+00,1.087062239646911621e+00,1.087001800537109375e+00,1.086941361427307129e+00,1.086880922317504883e+00,1.086820483207702637e+00,1.086760163307189941e+00,1.086699724197387695e+00,1.086639285087585449e+00,1.086578845977783203e+00,1.086518526077270508e+00,1.086458206176757812e+00,1.086397767066955566e+00,1.086337447166442871e+00,1.086277127265930176e+00,1.086216688156127930e+00,1.086156368255615234e+00,1.086096048355102539e+00,1.086035728454589844e+00,1.085975408554077148e+00,1.085915088653564453e+00,1.085854768753051758e+00,1.085794448852539062e+00,1.085734128952026367e+00,1.085673809051513672e+00,1.085613608360290527e+00,1.085553288459777832e+00,1.085492968559265137e+00,1.085432767868041992e+00,1.085372567176818848e+00,1.085312247276306152e+00,1.085251927375793457e+00,1.085191726684570312e+00,1.085131525993347168e+00,1.085071325302124023e+00,1.085011124610900879e+00,1.084950923919677734e+00,1.084890604019165039e+00,1.084830403327941895e+00,1.084770321846008301e+00,1.084710121154785156e+00,1.084649920463562012e+00,1.084589719772338867e+00,1.084529638290405273e+00,1.084469437599182129e+00,1.084409236907958984e+00,1.084349155426025391e+00,1.084288954734802246e+00,1.084228873252868652e+00,1.084168791770935059e+00,1.084108591079711914e+00,1.084048509597778320e+00,1.083988308906555176e+00,1.083928227424621582e+00,1.083868145942687988e+00,1.083808064460754395e+00,1.083748102188110352e+00,1.083688020706176758e+00,1.083627939224243164e+00,1.083567857742309570e+00,1.083507776260375977e+00,1.083447694778442383e+00,1.083387732505798340e+00,1.083327651023864746e+00,1.083267688751220703e+00,1.083207607269287109e+00,1.083147644996643066e+00,1.083087563514709473e+00,1.083027601242065430e+00,1.082967638969421387e+00,1.082907676696777344e+00,1.082847714424133301e+00,1.082787752151489258e+00,1.082727789878845215e+00,1.082667708396911621e+00,1.082607746124267578e+00,1.082547903060913086e+00,1.082487940788269043e+00,1.082427978515625000e+00
1.021074056625366211e+00,1.021020770072937012e+00,1.020967483520507812e+00,1.020914196968078613e+00,1.020860791206359863e+00,1.020807504653930664e+00,1.020754218101501465e+00,1.020700931549072266e+00,1.020647644996643066e+00,1.020594358444213867e+00,1.020541071891784668e+00,1.020487785339355469e+00,1.020434617996215820e+00,1.020381331443786621e+00,1.020328044891357422e+00,1.020274758338928223e+00,1.020221590995788574e+00,1.020168304443359375e+00,1.020115137100219727e+00,1.020061850547790527e+00,1.020008683204650879e+00,1.019955515861511230e+00,1.019902229309082031e+00,1.019849061965942383e+00,1.019795894622802734e+00,1.019742608070373535e+00,1.019689440727233887e+00,1.019636273384094238e+00,1.019583106040954590e+00,1.019529938697814941e+00,1.019476771354675293e+00,1.019423604011535645e+00,1.019370436668395996e+00,1.019317388534545898e+00,1.019264221191406250e+00,1.019211053848266602e+00,1.019157886505126953e+00,1.019104838371276855e+00,1.019051671028137207e+00,1.018998622894287109e+00,1.018945455551147461e+00,1.018892407417297363e+00,1.018839240074157715e+00,1.018786191940307617e+00,1.018733024597167969e+00,1.018679976463317871e+00,1.018626928329467773e+00,1.018573880195617676e+00,1.018520832061767578e+00,1.018467783927917480e+00,1.018414735794067383e+00,1.018361568450927734e+00,1.018308520317077637e+00,1.018255591392517090e+00,1.018202543258666992e+00,1.018149495124816895e+00,1.018096446990966797e+00,1.018043518066406250e+00,1.017990469932556152e+00,1.017937421798706055e+00,1.017884492874145508e+00,1.017831444740295410e+00,1.017778515815734863e+00,1.017725467681884766e+00,1.017672538757324219e+00,1.017619609832763672e+00,1.017566561698913574e+00,1.017513632774353027e+00,1.017460703849792480e+00,1.017407774925231934e+00,1.017354846000671387e+00,1.017301917076110840e+00,1.017248988151550293e+00,1.017195940017700195e+00,1.017143011093139648e+00,1.017090201377868652e+00,1.017037272453308105e+00,1.016984343528747559e+00,1.016931414604187012e+00,1.016878604888916016e+00
9.625440835952758789e-01,9.624966979026794434e-01,9.624493122100830078e-01,9.624019265174865723e-01,9.623545408248901367e-01,9.623072147369384766e-01,9.622598290443420410e-01,9.622125029563903809e-01,9.621651768684387207e-01,9.621177911758422852e-01,9.620704650878906250e-01,9.620231389999389648e-01,9.619758129119873047e-01,9.619283676147460938e-01,9.618810415267944336e-01,9.618337750434875488e-01,9.617864489555358887e-01,9.617391228675842285e-01,9.616918563842773438e-01,9.616445302963256836e-01,9.615972638130187988e-01,9.615499973297119141e-01,9.615026712417602539e-01,9.614554047584533691e-01,9.614081382751464844e-01,9.613608717918395996e-01,9.613136053085327148e-01,9.612662792205810547e-01,9.612190127372741699e-01,9.611717462539672852e-01,9.611244797706604004e-01,9.610772728919982910e-01,9.610300064086914062e-01,9.609827995300292969e-01,9.609355926513671875e-01,9.608883261680603027e-01,9.608411192893981934e-01,9.607939124107360840e-01,9.607467055320739746e-01,9.606994986534118652e-01,9.606523513793945312e-01,9.606051445007324219e-01,9.605578184127807617e-01,9.605106711387634277e-01,9.604634642601013184e-01,9.604163169860839844e-01,9.603691101074218750e-01,9.603219628334045410e-01,9.602748155593872070e-01,9.602276682853698730e-01,9.601804614067077637e-01,9.601333737373352051e-01,9.600862264633178711e-01,9.600390791893005371e-01,9.599919319152832031e-01,9.599447846412658691e-01,9.598976969718933105e-01,9.598504304885864258e-01,9.598033428192138672e-01,9.597561955451965332e-01,9.597091078758239746e-01,9.596620202064514160e-01,9.596149325370788574e-01,9.595678448677062988e-01,9.595207571983337402e-01,9.594736695289611816e-01,9.594265818595886230e-01,9.593794941902160645e-01,9.593324661254882812e-01,9.592853784561157227e-01,9.592382907867431641e-01,9.591911435127258301e-01,9.591441154479980469e-01,9.590970277786254883e-01,9.590499997138977051e-01,9.590029716491699219e-01,9.589559435844421387e-01,9.589089155197143555e-01,9.588618874549865723e-01,9.588148593902587891e-01
9.103603959083557129e-01,9.103180170059204102e-01,9.102756381034851074e-01,9.102332592010498047e-01,9.101908206939697266e-01,9.101484417915344238e-01,9.101060628890991211e-01,9.100637435913085938e-01,9.100213646888732910e-01,9.099790453910827637e-01,9.099366664886474609e-01,9.098943471908569336e-01,9.098520278930664062e-01,9.098096489906311035e-01,9.097673296928405762e-01,9.097250103950500488e-01,9.096826910972595215e-01,9.096403717994689941e-01,9.095979332923889160e-01,9.095556735992431641e-01,9.095133543014526367e-01,9.094710350036621094e-01,9.094287157058715820e-01,9.093864560127258301e-01,9.093441367149353027e-01,9.093018770217895508e-01,9.092595577239990234e-01,9.092172980308532715e-01,9.091750383377075195e-01,9.091327786445617676e-01,9.090905189514160156e-01,9.090481996536254883e-01,9.090059995651245117e-01,9.089636206626892090e-01,9.089213609695434570e-01,9.088791012763977051e-01,9.088369011878967285e-01,9.087946414947509766e-01,9.087523818016052246e-01,9.087101817131042480e-01,9.086679220199584961e-01,9.086257219314575195e-01,9.085835218429565430e-01,9.085412621498107910e-01,9.084990620613098145e-01,9.084568619728088379e-01,9.084146618843078613e-01,9.083724617958068848e-01,9.083301424980163574e-01,9.082880020141601562e-01,9.082458019256591797e-01,9.082036018371582031e-01,9.081614017486572266e-01,9.081192612648010254e-01,9.080770611763000488e-01,9.080349206924438477e-01,9.079927206039428711e-01,9.079505801200866699e-01,9.079084396362304688e-01,9.078662991523742676e-01,9.078240990638732910e-01,9.077819585800170898e-01,9.077397584915161133e-01,9.076976180076599121e-01,9.076554775238037109e-01,9.076133370399475098e-01,9.075711965560913086e-01,9.075291156768798828e-01,9.074869751930236816e-01,9.074448347091674805e-01,9.074027538299560547e-01,9.073606133460998535e-01,9.073185324668884277e-01,9.072764515876770020e-01,9.072343707084655762e-01,9.071922302246093750e-01,9.071501493453979492e-01,9.071080088615417480e-01,9.070659279823303223e-01,9.070238471031188965e-01
8.635439276695251465e-01,8.635057806968688965e-01,8.634676337242126465e-01,8.634294867515563965e-01,8.633913993835449219e-01,8.633532524108886719e-01,8.633151650428771973e-01,8.632770180702209473e-01,8.632389307022094727e-01,8.632007241249084473e-01,8.631626367568969727e-01,8.631245493888854980e-01,8.630864024162292480e-01,8.630483150482177734e-01,8.630102276802062988e-01,8.629721403121948242e-01,8.629340529441833496e-01,8.628959655761718750e-01,8.628579378128051758e-01,8.628198504447937012e-01,8.627817630767822266e-01,8.627436757087707520e-01,8.627056479454040527e-01,8.626675605773925781e-01,8.626294136047363281e-01,8.625913858413696289e-01,8.625532984733581543e-01,8.625152707099914551e-01,8.624772429466247559e-01,8.624392151832580566e-01,8.624011278152465820e-01,8.623631000518798828e-01,8.623250722885131836e-01,8.622870445251464844e-01,8.622490167617797852e-01,8.622110486030578613e-01,8.621730208396911621e-01,8.621349930763244629e-01,8.620969057083129883e-01,8.620588779449462891e-01,8.620209097862243652e-01,8.619828820228576660e-01,8.619449138641357422e-01,8.619068861007690430e-01,8.618689179420471191e-01,8.618308901786804199e-01,8.617929220199584961e-01,8.617549538612365723e-01,8.617169857025146484e-01,8.616790175437927246e-01,8.616410493850708008e-01,8.616030812263488770e-01,8.615651130676269531e-01,8.615270256996154785e-01,8.614891171455383301e-01,8.614511489868164062e-01,8.614131808280944824e-01,8.613752722740173340e-01,8.613373041152954102e-01,8.612993359565734863e-01,8.612614274024963379e-01,8.612235188484191895e-01,8.611855506896972656e-01,8.611476421356201172e-01,8.611097335815429688e-01,8.610718250274658203e-01,8.610338568687438965e-01,8.609959483146667480e-01,8.609579801559448242e-01,8.609200716018676758e-01,8.608821630477905273e-01,8.608442544937133789e-01,8.608063459396362305e-01,8.607684969902038574e-01,8.607305884361267090e-01,8.606926798820495605e-01,8.606548309326171875e-01,8.606169223785400391e-01,8.605790734291076660e-01,8.605411648750305176e-01
8.213070631027221680e-01,8.212726116180419922e-01,8.212381005287170410e-01,8.212035894393920898e-01,8.211691379547119141e-01,8.211346268653869629e-01,8.211001753807067871e-01,8.210656642913818359e-01,8.210312128067016602e-01,8.209967017173767090e-01,8.209622502326965332e-01,8.209277987480163574e-01,8.208933472633361816e-01,8.208588957786560059e-01,8.208244442939758301e-01,8.207898736000061035e-01,8.207554221153259277e-01,8.207209706306457520e-01,8.206865191459655762e-01,8.206520676612854004e-01,8.206176757812500000e-01,8.205832242965698242e-01,8.205487728118896484e-01,8.205143809318542480e-01,8.204799294471740723e-01,8.204454779624938965e-01,8.204110860824584961e-01,8.203766345977783203e-01,8.203422427177429199e-01,8.203077316284179688e-01,8.202733397483825684e-01,8.202389478683471680e-01,8.202045559883117676e-01,8.201701045036315918e-01,8.201357126235961914e-01,8.201013207435607910e-01,8.200669288635253906e-01,8.200325369834899902e-01,8.199981451034545898e-01,8.199637532234191895e-01,8.199293613433837891e-01,8.198950290679931641e-01,8.198606371879577637e-01,8.198262453079223633e-01,8.197917938232421875e-01,8.197574615478515625e-01,8.197230696678161621e-01,8.196887373924255371e-01,8.196543455123901367e-01,8.196200132369995117e-01,8.195856213569641113e-01,8.195512890815734863e-01,8.195169568061828613e-01,8.194825649261474609e-01,8.194482326507568359e-01,8.194139003753662109e-01,8.193795680999755859e-01,8.193452358245849609e-01,8.193108439445495605e-01,8.192765116691589355e-01,8.192421793937683105e-01,8.192078471183776855e-01,8.191735148429870605e-01,8.191392421722412109e-01,8.191049098968505859e-01,8.190705776214599609e-01,8.190363049507141113e-01,8.190019726753234863e-01,8.189677000045776367e-01,8.189333677291870117e-01,8.188990950584411621e-01,8.188647627830505371e-01,8.188304901123046875e-01,8.187961578369140625e-01,8.187618255615234375e-01,8.187275528907775879e-01,8.186932802200317383e-01,8.186590075492858887e-01,8.186247348785400391e-01,8.185904622077941895e-01
7.830094099044799805e-01,7.829780578613281250e-01,7.829467058181762695e-01,7.829153537750244141e-01,7.828840017318725586e-01,7.828526496887207031e-01,7.828212380409240723e-01,7.827898859977722168e-01,7.827585339546203613e-01,7.827272415161132812e-01,7.826958894729614258e-01,7.826645374298095703e-01,7.826332449913024902e-01,7.826018929481506348e-01,7.825706005096435547e-01,7.825392484664916992e-01,7.825079560279846191e-01,7.824766635894775391e-01,7.824453115463256836e-01,7.824140191078186035e-01,7.823826670646667480e-01,7.823513150215148926e-01,7.823200225830078125e-01,7.822887301445007324e-01,7.822574377059936523e-01,7.822261452674865723e-01,7.821948528289794922e-01,7.821635603904724121e-01,7.821322679519653320e-01,7.821009755134582520e-01,7.820697426795959473e-01,7.820384502410888672e-01,7.820071578025817871e-01,7.819758653640747070e-01,7.819446325302124023e-01,7.819132804870605469e-01,7.818819880485534668e-01,7.818507552146911621e-01,7.818194627761840820e-01,7.817882299423217773e-01,7.817569375038146973e-01,7.817257046699523926e-01,7.816944718360900879e-01,7.816632390022277832e-01,7.816319465637207031e-01,7.816007137298583984e-01,7.815694808959960938e-01,7.815382480621337891e-01,7.815070152282714844e-01,7.814757227897644043e-01,7.814444899559020996e-01,7.814132571220397949e-01,7.813820242881774902e-01,7.813507914543151855e-01,7.813195586204528809e-01,7.812883257865905762e-01,7.812571525573730469e-01,7.812259197235107422e-01,7.811947464942932129e-01,7.811635136604309082e-01,7.811322808265686035e-01,7.811011075973510742e-01,7.810698747634887695e-01,7.810387015342712402e-01,7.810074090957641602e-01,7.809762358665466309e-01,7.809450626373291016e-01,7.809138298034667969e-01,7.808826565742492676e-01,7.808514833450317383e-01,7.808203101158142090e-01,7.807891368865966797e-01,7.807579636573791504e-01,7.807267904281616211e-01,7.806956171989440918e-01,7.806644439697265625e-01,7.806332707405090332e-01,7.806020975112915039e-01,7.805709242820739746e-01,7.805396914482116699e-01
7.481241226196289062e-01,7.480955123901367188e-01,7.480669021606445312e-01,7.480382919311523438e-01,7.480096817016601562e-01,7.479810714721679688e-01,7.479524016380310059e-01,7.479237914085388184e-01,7.478952407836914062e-01,7.478666305541992188e-01,7.478380203247070312e-01,7.478093504905700684e-01,7.477807402610778809e-01,7.477521300315856934e-01,7.477235794067382812e-01,7.476949691772460938e-01,7.476663589477539062e-01,7.476378083229064941e-01,7.476091980934143066e-01,7.475806474685668945e-01,7.475520372390747070e-01,7.475234866142272949e-01,7.474948763847351074e-01,7.474663257598876953e-01,7.474377155303955078e-01,7.474091649055480957e-01,7.473805546760559082e-01,7.473519444465637207e-01,7.473233938217163086e-01,7.472948431968688965e-01,7.472662925720214844e-01,7.472377419471740723e-01,7.472091913223266602e-01,7.471806406974792480e-01,7.471520900726318359e-01,7.471235394477844238e-01,7.470949888229370117e-01,7.470664381980895996e-01,7.470378875732421875e-01,7.470093369483947754e-01,7.469807267189025879e-01,7.469522356986999512e-01,7.469236850738525391e-01,7.468951344490051270e-01,7.468666434288024902e-01,7.468380928039550781e-01,7.468096017837524414e-01,7.467810511589050293e-01,7.467525601387023926e-01,7.467240095138549805e-01,7.466955184936523438e-01,7.466669678688049316e-01,7.466384768486022949e-01,7.466099858283996582e-01,7.465814948081970215e-01,7.465528845787048340e-01,7.465243935585021973e-01,7.464959025382995605e-01,7.464674115180969238e-01,7.464389204978942871e-01,7.464104294776916504e-01,7.463819384574890137e-01,7.463534474372863770e-01,7.463249564170837402e-01,7.462964653968811035e-01,7.462679743766784668e-01,7.462394833564758301e-01,7.462109923362731934e-01,7.461825609207153320e-01,7.461540102958679199e-01,7.461255192756652832e-01,7.460970282554626465e-01,7.460685968399047852e-01,7.460401058197021484e-01,7.460116744041442871e-01,7.459831833839416504e-01,7.459547519683837891e-01,7.459262609481811523e-01,7.458978295326232910e-01,7.458693981170654297e-01
7.162148356437683105e-01,7.161886096000671387e-01,7.161622643470764160e-01,7.161360383033752441e-01,7.161098122596740723e-01,7.160835862159729004e-01,7.160574197769165039e-01,7.160311937332153320e-01,7.160049676895141602e-01,7.159787416458129883e-01,7.159525156021118164e-01,7.159262895584106445e-01,7.159001231193542480e-01,7.158738970756530762e-01,7.158476710319519043e-01,7.158214449882507324e-01,7.157952189445495605e-01,7.157689929008483887e-01,7.157428264617919922e-01,7.157166004180908203e-01,7.156904339790344238e-01,7.156642079353332520e-01,7.156380414962768555e-01,7.156118154525756836e-01,7.155856490135192871e-01,7.155594825744628906e-01,7.155332565307617188e-01,7.155070900917053223e-01,7.154809236526489258e-01,7.154547572135925293e-01,7.154285907745361328e-01,7.154023051261901855e-01,7.153761386871337891e-01,7.153499722480773926e-01,7.153238058090209961e-01,7.152976393699645996e-01,7.152714729309082031e-01,7.152453064918518066e-01,7.152191400527954102e-01,7.151929736137390137e-01,7.151668667793273926e-01,7.151407003402709961e-01,7.151145339012145996e-01,7.150883674621582031e-01,7.150622606277465820e-01,7.150360941886901855e-01,7.150098681449890137e-01,7.149837613105773926e-01,7.149575948715209961e-01,7.149314284324645996e-01,7.149053215980529785e-01,7.148791551589965820e-01,7.148530483245849609e-01,7.148268818855285645e-01,7.148007750511169434e-01,7.147746682167053223e-01,7.147485017776489258e-01,7.147223949432373047e-01,7.146962881088256836e-01,7.146701812744140625e-01,7.146439552307128906e-01,7.146178483963012695e-01,7.145917415618896484e-01,7.145656347274780273e-01,7.145395278930664062e-01,7.145134210586547852e-01,7.144873142242431641e-01,7.144612073898315430e-01,7.144351005554199219e-01,7.144089937210083008e-01,7.143828868865966797e-01,7.143567800521850586e-01,7.143306732177734375e-01,7.143046259880065918e-01,7.142785191535949707e-01,7.142523527145385742e-01,7.142262458801269531e-01,7.142001986503601074e-01,7.141740918159484863e-01,7.141479849815368652e-01
6.869161128997802734e-01,6.868919730186462402e-01,6.868678927421569824e-01,6.868437528610229492e-01,6.868196129798889160e-01,6.867954730987548828e-01,6.867713928222656250e-01,6.867471933364868164e-01,6.867231130599975586e-01,6.866989731788635254e-01,6.866748332977294922e-01,6.866507530212402344e-01,6.866266131401062012e-01,6.866025328636169434e-01,6.865783929824829102e-01,6.865543127059936523e-01,6.865301728248596191e-01,6.865060925483703613e-01,6.864820122718811035e-01,6.864578723907470703e-01,6.864337921142578125e-01,6.864097118377685547e-01,6.863855719566345215e-01,6.863614320755004883e-01,6.863373517990112305e-01,6.863132715225219727e-01,6.862891912460327148e-01,6.862651109695434570e-01,6.862410306930541992e-01,6.862169504165649414e-01,6.861928701400756836e-01,6.861687898635864258e-01,6.861447095870971680e-01,6.861206293106079102e-01,6.860965490341186523e-01,6.860724687576293945e-01,6.860483288764953613e-01,6.860242486000061035e-01,6.860002279281616211e-01,6.859761476516723633e-01,6.859520673751831055e-01,6.859279870986938477e-01,6.859039664268493652e-01,6.858798861503601074e-01,6.858558654785156250e-01,6.858317852020263672e-01,6.858077049255371094e-01,6.857836842536926270e-01,6.857596039772033691e-01,6.857355833053588867e-01,6.857115030288696289e-01,6.856874227523803711e-01,6.856634020805358887e-01,6.856393218040466309e-01,6.856153011322021484e-01,6.855912804603576660e-01,6.855672001838684082e-01,6.855431795120239258e-01,6.855191588401794434e-01,6.854951381683349609e-01,6.854711174964904785e-01,6.854470372200012207e-01,6.854230165481567383e-01,6.853989958763122559e-01,6.853749752044677734e-01,6.853509545326232910e-01,6.853268742561340332e-01,6.853028535842895508e-01,6.852788329124450684e-01,6.852548122406005859e-01,6.852308511734008789e-01,6.852068305015563965e-01,6.851828098297119141e-01,6.851587891578674316e-01,6.851347684860229492e-01,6.851108074188232422e-01,6.850867867469787598e-01,6.850627660751342773e-01,6.850388050079345703e-01,6.850147843360900879e-01
