5.000000000000000000e+00,5.000000000000000000e+00,5.000000000000000000e+00,5.000000000000000000e+00,5.000000000000000000e+00,5.000000000000000000e+00,5.000000000000000000e+00,5.000000000000000000e+00,5.000000000000000000e+00,5.000000000000000000e+00,5.000000000000000000e+00,5.000000000000000000e+00,5.000000000000000000e+00,5.000000000000000000e+00,5.000000000000000000e+00,5.000000000000000000e+00,5.000000000000000000e+00,5.000000000000000000e+00,5.000000000000000000e+00,5.000000000000000000e+00,5.000000000000000000e+00,5.000000000000000000e+00,5.000000000000000000e+00,5.000000000000000000e+00,5.000000000000000000e+00,5.000000000000000000e+00,5.000000000000000000e+00,5.000000000000000000e+00,5.000000000000000000e+00,5.000000000000000000e+00,5.000000000000000000e+00,5.000000000000000000e+00,5.000000000000000000e+00,5.000000000000000000e+00,5.000000000000000000e+00,5.000000000000000000e+00,5.000000000000000000e+00,5.000000000000000000e+00,5.000000000000000000e+00,5.000000000000000000e+00,5.000000000000000000e+00,4.492115497589111328e+00,4.328629493713378906e+00,4.176624774932861328e+00,4.034934043884277344e+00,3.902541160583496094e+00,3.778560400009155273e+00,3.662214756011962891e+00,3.552819728851318359e+00,3.449770927429199219e+00,3.352531194686889648e+00,3.260622978210449219e+00,3.173619985580444336e+00,3.091138839721679688e+00,3.012836694717407227e+00,2.938403367996215820e+00,2.867558956146240234e+00,2.800050735473632812e+00,2.735647439956665039e+00,2.674140691757202148e+00,2.615338563919067383e+00,2.559066772460937500e+00,2.505165576934814453e+00,2.453488111495971680e+00,2.403899908065795898e+00,2.356276273727416992e+00,2.310502767562866211e+00,2.266473770141601562e+00,2.224091529846191406e+00,2.183265447616577148e+00,2.143910884857177734e+00,2.105950355529785156e+00,2.069310188293457031e+00,2.033923625946044922e+00,1.999726772308349609e+00,1.966660857200622559e+00,1.934670805931091309e+00,1.903704643249511719e+00,1.873713970184326172e+00,1.844653725624084473e+00
5.000000000000000000e+00,5.000000000000000000e+00,5.000000000000000000e+00,5.000000000000000000e+00,5.000000000000000000e+00,5.000000000000000000e+00,5.000000000000000000e+00,5.000000000000000000e+00,5.000000000000000000e+00,5.000000000000000000e+00,5.000000000000000000e+00,5.000000000000000000e+00,5.000000000000000000e+00,5.000000000000000000e+00,5.000000000000000000e+00,5.000000000000000000e+00,5.000000000000000000e+00,5.000000000000000000e+00,5.000000000000000000e+00,5.000000000000000000e+00,5.000000000000000000e+00,5.000000000000000000e+00,5.000000000000000000e+00,5.000000000000000000e+00,5.000000000000000000e+00,5.000000000000000000e+00,5.000000000000000000e+00,5.000000000000000000e+00,5.000000000000000000e+00,5.000000000000000000e+00,5.000000000000000000e+00,5.000000000000000000e+00,5.000000000000000000e+00,5.000000000000000000e+00,5.000000000000000000e+00,5.000000000000000000e+00,5.000000000000000000e+00,5.000000000000000000e+00,5.000000000000000000e+00,5.000000000000000000e+00,4.668564319610595703e+00,4.492234706878662109e+00,4.328739643096923828e+00,4.176727771759033203e+00,4.035029888153076172e+00,3.902631044387817383e+00,3.778644561767578125e+00,3.662293910980224609e+00,3.552894353866577148e+00,3.449841260910034180e+00,3.352597475051879883e+00,3.260685682296752930e+00,3.173679351806640625e+00,3.091195106506347656e+00,3.012890100479125977e+00,2.938454389572143555e+00,2.867607593536376953e+00,2.800096988677978516e+00,2.735691547393798828e+00,2.674182891845703125e+00,2.615378856658935547e+00,2.559105396270751953e+00,2.505202770233154297e+00,2.453523635864257812e+00,2.403934001922607422e+00,2.356308937072753906e+00,2.310534238815307617e+00,2.266504287719726562e+00,2.224120855331420898e+00,2.183293581008911133e+00,2.143938064575195312e+00,2.105976581573486328e+00,2.069335460662841797e+00,2.033947944641113281e+00,1.999750375747680664e+00,1.966683745384216309e+00,1.934692978858947754e+00,1.903726100921630859e+00,1.873734712600708008e+00,1.844673871994018555e+00
5.000000000000000000e+00,5.000000000000000000e+00,5.000000000000000000e+00,5.000000000000000000e+00,5.000000000000000000e+00,5.000000000000000000e+00,5.000000000000000000e+00,5.000000000000000000e+00,5.000000000000000000e+00,5.000000000000000000e+00,5.000000000000000000e+00,5.000000000000000000e+00,5.000000000000000000e+00,5.000000000000000000e+00,5.000000000000000000e+00,5.000000000000000000e+00,5.000000000000000000e+00,5.000000000000000000e+00,5.000000000000000000e+00,5.000000000000000000e+00,5.000000000000000000e+00,5.000000000000000000e+00,5.000000000000000000e+00,5.000000000000000000e+00,5.000000000000000000e+00,5.000000000000000000e+00,5.000000000000000000e+00,5.000000000000000000e+00,5.000000000000000000e+00,5.000000000000000000e+00,5.000000000000000000e+00,5.000000000000000000e+00,5.000000000000000000e+00,5.000000000000000000e+00,5.000000000000000000e+00,5.000000000000000000e+00,5.000000000000000000e+00,5.000000000000000000e+00,5.000000000000000000e+00,4.859441757202148438e+00,4.668693065643310547e+00,4.492353916168212891e+00,4.328850269317626953e+00,4.176830768585205078e+00,4.035125732421875000e+00,3.902720928192138672e+00,3.778728723526000977e+00,3.662373065948486328e+00,3.552968740463256836e+00,3.449911355972290039e+00,3.352663755416870117e+00,3.260748386383056641e+00,3.173738718032836914e+00,3.091251611709594727e+00,3.012943744659423828e+00,2.938505172729492188e+00,2.867655992507934570e+00,2.800143241882324219e+00,2.735735893249511719e+00,2.674225091934204102e+00,2.615419387817382812e+00,2.559144020080566406e+00,2.505239725112915039e+00,2.453559160232543945e+00,2.403968095779418945e+00,2.356341600418090820e+00,2.310565710067749023e+00,2.266534566879272461e+00,2.224149942398071289e+00,2.183321714401245117e+00,2.143965244293212891e+00,2.106002569198608398e+00,2.069360733032226562e+00,2.033972501754760742e+00,1.999773979187011719e+00,1.966706514358520508e+00,1.934714794158935547e+00,1.903747439384460449e+00,1.873755574226379395e+00,1.844694018363952637e+00
5.000000000000000000e+00,5.000000000000000000e+00,5.000000000000000000e+00,5.000000000000000000e+00,5.000000000000000000e+00,5.000000000000000000e+00,5.000000000000000000e+00,5.000000000000000000e+00,5.000000000000000000e+00,5.000000000000000000e+00,5.000000000000000000e+00,5.000000000000000000e+00,5.000000000000000000e+00,5.000000000000000000e+00,5.000000000000000000e+00,5.000000000000000000e+00,5.000000000000000000e+00,5.000000000000000000e+00,5.000000000000000000e+00,5.000000000000000000e+00,5.000000000000000000e+00,5.000000000000000000e+00,5.000000000000000000e+00,5.000000000000000000e+00,5.000000000000000000e+00,5.000000000000000000e+00,5.000000000000000000e+00,5.000000000000000000e+00,5.000000000000000000e+00,5.000000000000000000e+00,5.000000000000000000e+00,5.000000000000000000e+00,5.000000000000000000e+00,5.000000000000000000e+00,5.000000000000000000e+00,5.000000000000000000e+00,5.000000000000000000e+00,5.000000000000000000e+00,5.000000000000000000e+00,4.859581470489501953e+00,4.668821811676025391e+00,4.492473125457763672e+00,4.328960895538330078e+00,4.176933765411376953e+00,4.035222053527832031e+00,3.902810811996459961e+00,3.778813123703002930e+00,3.662452220916748047e+00,3.553043127059936523e+00,3.449981212615966797e+00,3.352730035781860352e+00,3.260811090469360352e+00,3.173798084259033203e+00,3.091307878494262695e+00,3.012997388839721680e+00,2.938556194305419922e+00,2.867704629898071289e+00,2.800189495086669922e+00,2.735780000686645508e+00,2.674267292022705078e+00,2.615459680557250977e+00,2.559182643890380859e+00,2.505276679992675781e+00,2.453594684600830078e+00,2.404002189636230469e+00,2.356374502182006836e+00,2.310597181320190430e+00,2.266564846038818359e+00,2.224179267883300781e+00,2.183349847793579102e+00,2.143992424011230469e+00,2.106028795242309570e+00,2.069386005401611328e+00,2.033996820449829102e+00,1.999797582626342773e+00,1.966729402542114258e+00,1.934736847877502441e+00,1.903768897056579590e+00,1.873776316642761230e+00,1.844714164733886719e+00
5.000000000000000000e+00,5.000000000000000000e+00,5.000000000000000000e+00,5.000000000000000000e+00,5.000000000000000000e+00,5.000000000000000000e+00,5.000000000000000000e+00,5.000000000000000000e+00,5.000000000000000000e+00,5.000000000000000000e+00,5.000000000000000000e+00,5.000000000000000000e+00,5.000000000000000000e+00,5.000000000000000000e+00,5.000000000000000000e+00,5.000000000000000000e+00,5.000000000000000000e+00,5.000000000000000000e+00,5.000000000000000000e+00,5.000000000000000000e+00,5.000000000000000000e+00,5.000000000000000000e+00,5.000000000000000000e+00,5.000000000000000000e+00,5.000000000000000000e+00,5.000000000000000000e+00,5.000000000000000000e+00,5.000000000000000000e+00,5.000000000000000000e+00,5.000000000000000000e+00,5.000000000000000000e+00,5.000000000000000000e+00,5.000000000000000000e+00,5.000000000000000000e+00,5.000000000000000000e+00,5.000000000000000000e+00,5.000000000000000000e+00,5.000000000000000000e+00,5.000000000000000000e+00,4.859720706939697266e+00,4.668950557708740234e+00,4.492591857910156250e+00,4.329071521759033203e+00,4.177036285400390625e+00,4.035317897796630859e+00,3.902900695800781250e+00,3.778897285461425781e+00,3.662531375885009766e+00,3.553117752075195312e+00,3.450051546096801758e+00,3.352796554565429688e+00,3.260874032974243164e+00,3.173857688903808594e+00,3.091364383697509766e+00,3.013050556182861328e+00,2.938607215881347656e+00,2.867753028869628906e+00,2.800235748291015625e+00,2.735824108123779297e+00,2.674309253692626953e+00,2.615499973297119141e+00,2.559221267700195312e+00,2.505313873291015625e+00,2.453630208969116211e+00,2.404036283493041992e+00,2.356407165527343750e+00,2.310628652572631836e+00,2.266595125198364258e+00,2.224208354949951172e+00,2.183377981185913086e+00,2.144019603729248047e+00,2.106054782867431641e+00,2.069411277770996094e+00,2.034021139144897461e+00,1.999821186065673828e+00,1.966752171516418457e+00,1.934759020805358887e+00,1.903790235519409180e+00,1.873796939849853516e+00,1.844734191894531250e+00
5.000000000000000000e+00,5.000000000000000000e+00,5.000000000000000000e+00,5.000000000000000000e+00,5.000000000000000000e+00,5.000000000000000000e+00,5.000000000000000000e+00,5.000000000000000000e+00,5.000000000000000000e+00,5.000000000000000000e+00,5.000000000000000000e+00,5.000000000000000000e+00,5.000000000000000000e+00,5.000000000000000000e+00,5.000000000000000000e+00,5.000000000000000000e+00,5.000000000000000000e+00,5.000000000000000000e+00,5.000000000000000000e+00,5.000000000000000000e+00,5.000000000000000000e+00,5.000000000000000000e+00,5.000000000000000000e+00,5.000000000000000000e+00,5.000000000000000000e+00,5.000000000000000000e+00,5.000000000000000000e+00,5.000000000000000000e+00,5.000000000000000000e+00,5.000000000000000000e+00,5.000000000000000000e+00,5.000000000000000000e+00,5.000000000000000000e+00,5.000000000000000000e+00,5.000000000000000000e+00,5.000000000000000000e+00,5.000000000000000000e+00,5.000000000000000000e+00,5.000000000000000000e+00,4.859859943389892578e+00,4.669078826904296875e+00,4.492711067199707031e+00,4.329182147979736328e+00,4.177139282226562500e+00,4.035414218902587891e+00,3.902990579605102539e+00,3.778981685638427734e+00,3.662610530853271484e+00,3.553192138671875000e+00,3.450121879577636719e+00,3.352862834930419922e+00,3.260936737060546875e+00,3.173917055130004883e+00,3.091420650482177734e+00,3.013104200363159180e+00,2.938657999038696289e+00,2.867801666259765625e+00,2.800282001495361328e+00,2.735868215560913086e+00,2.674351453781127930e+00,2.615540266036987305e+00,2.559259891510009766e+00,2.505350828170776367e+00,2.453665733337402344e+00,2.404070138931274414e+00,2.356440067291259766e+00,2.310660123825073242e+00,2.266625404357910156e+00,2.224237680435180664e+00,2.183406114578247070e+00,2.144046545028686523e+00,2.106081008911132812e+00,2.069436550140380859e+00,2.034045696258544922e+00,1.999844789505004883e+00,1.966775059700012207e+00,1.934781074523925781e+00,1.903811573982238770e+00,1.873817682266235352e+00,1.844754338264465332e+00
5.000000000000000000e+00,5.000000000000000000e+00,5.000000000000000000e+00,5.000000000000000000e+00,5.000000000000000000e+00,5.000000000000000000e+00,5.000000000000000000e+00,5.000000000000000000e+00,5.000000000000000000e+00,5.000000000000000000e+00,5.000000000000000000e+00,5.000000000000000000e+00,5.000000000000000000e+00,5.000000000000000000e+00,5.000000000000000000e+00,5.000000000000000000e+00,5.000000000000000000e+00,5.000000000000000000e+00,5.000000000000000000e+00,5.000000000000000000e+00,5.000000000000000000e+00,5.000000000000000000e+00,5.000000000000000000e+00,5.000000000000000000e+00,5.000000000000000000e+00,5.000000000000000000e+00,5.000000000000000000e+00,5.000000000000000000e+00,5.000000000000000000e+00,5.000000000000000000e+00,5.000000000000000000e+00,5.000000000000000000e+00,5.000000000000000000e+00,5.000000000000000000e+00,5.000000000000000000e+00,5.000000000000000000e+00,5.000000000000000000e+00,5.000000000000000000e+00,5.000000000000000000e+00,4.859999179840087891e+00,4.669207572937011719e+00,4.492830276489257812e+00,4.329292297363281250e+00,4.177242279052734375e+00,4.035510063171386719e+00,3.903080463409423828e+00,3.779065847396850586e+00,3.662689685821533203e+00,3.553266763687133789e+00,3.450191974639892578e+00,3.352929115295410156e+00,3.260999441146850586e+00,3.173976421356201172e+00,3.091477155685424805e+00,3.013157844543457031e+00,2.938709020614624023e+00,2.867850065231323242e+00,2.800328254699707031e+00,2.735912561416625977e+00,2.674393653869628906e+00,2.615580797195434570e+00,2.559298753738403320e+00,2.505388021469116211e+00,2.453701257705688477e+00,2.404104232788085938e+00,2.356472730636596680e+00,2.310691595077514648e+00,2.266655683517456055e+00,2.224266767501831055e+00,2.183434247970581055e+00,2.144073724746704102e+00,2.106107234954833984e+00,2.069461822509765625e+00,2.034070014953613281e+00,1.999868392944335938e+00,1.966797828674316406e+00,1.934803128242492676e+00,1.903833031654357910e+00,1.873838424682617188e+00,1.844774365425109863e+00
5.000000000000000000e+00,5.000000000000000000e+00,5.000000000000000000e+00,5.000000000000000000e+00,5.000000000000000000e+00,5.000000000000000000e+00,5.000000000000000000e+00,5.000000000000000000e+00,5.000000000000000000e+00,5.000000000000000000e+00,5.000000000000000000e+00,5.000000000000000000e+00,5.000000000000000000e+00,5.000000000000000000e+00,5.000000000000000000e+00,5.000000000000000000e+00,5.000000000000000000e+00,5.000000000000000000e+00,5.000000000000000000e+00,5.000000000000000000e+00,5.000000000000000000e+00,5.000000000000000000e+00,5.000000000000000000e+00,5.000000000000000000e+00,5.000000000000000000e+00,5.000000000000000000e+00,5.000000000000000000e+00,5.000000000000000000e+00,5.000000000000000000e+00,5.000000000000000000e+00,5.000000000000000000e+00,5.000000000000000000e+00,5.000000000000000000e+00,5.000000000000000000e+00,5.000000000000000000e+00,5.000000000000000000e+00,5.000000000000000000e+00,5.000000000000000000e+00,5.000000000000000000e+00,4.860138893127441406e+00,4.669336318969726562e+00,4.492949485778808594e+00,4.329402923583984375e+00,4.177345275878906250e+00,4.035606384277343750e+00,3.903170347213745117e+00,3.779150247573852539e+00,3.662768602371215820e+00,3.553341150283813477e+00,3.450262308120727539e+00,3.352995395660400391e+00,3.261062145233154297e+00,3.174036026000976562e+00,3.091533422470092773e+00,3.013211488723754883e+00,2.938760042190551758e+00,2.867898702621459961e+00,2.800374507904052734e+00,2.735956668853759766e+00,2.674435853958129883e+00,2.615621089935302734e+00,2.559337377548217773e+00,2.505424976348876953e+00,2.453736782073974609e+00,2.404138326644897461e+00,2.356505632400512695e+00,2.310723304748535156e+00,2.266685962677001953e+00,2.224295854568481445e+00,2.183462381362915039e+00,2.144100904464721680e+00,2.106133460998535156e+00,2.069487094879150391e+00,2.034094572067260742e+00,1.999891996383666992e+00,1.966820716857910156e+00,1.934825301170349121e+00,1.903854370117187500e+00,1.873859167098999023e+00,1.844794511795043945e+00
5.000000000000000000e+00,5.000000000000000000e+00,5.000000000000000000e+00,5.000000000000000000e+00,5.000000000000000000e+00,5.000000000000000000e+00,5.000000000000000000e+00,5.000000000000000000e+00,5.000000000000000000e+00,5.000000000000000000e+00,5.000000000000000000e+00,5.000000000000000000e+00,5.000000000000000000e+00,5.000000000000000000e+00,5.000000000000000000e+00,5.000000000000000000e+00,5.000000000000000000e+00,5.000000000000000000e+00,5.000000000000000000e+00,5.000000000000000000e+00,5.000000000000000000e+00,5.000000000000000000e+00,5.000000000000000000e+00,5.000000000000000000e+00,5.000000000000000000e+00,5.000000000000000000e+00,5.000000000000000000e+00,5.000000000000000000e+00,5.000000000000000000e+00,5.000000000000000000e+00,5.000000000000000000e+00,5.000000000000000000e+00,5.000000000000000000e+00,5.000000000000000000e+00,5.000000000000000000e+00,5.000000000000000000e+00,5.000000000000000000e+00,5.000000000000000000e+00,5.000000000000000000e+00,4.860278129577636719e+00,4.669465065002441406e+00,4.493068218231201172e+00,4.329513549804687500e+00,4.177448272705078125e+00,4.035702228546142578e+00,3.903260469436645508e+00,3.779234409332275391e+00,3.662847757339477539e+00,3.553415775299072266e+00,3.450332403182983398e+00,3.353061914443969727e+00,3.261124849319458008e+00,3.174095153808593750e+00,3.091589927673339844e+00,3.013264894485473633e+00,2.938811063766479492e+00,2.867947340011596680e+00,2.800420522689819336e+00,2.736000776290893555e+00,2.674478054046630859e+00,2.615661382675170898e+00,2.559376001358032227e+00,2.505461931228637695e+00,2.453772306442260742e+00,2.404172420501708984e+00,2.356538295745849609e+00,2.310754776000976562e+00,2.266716480255126953e+00,2.224325180053710938e+00,2.183490514755249023e+00,2.144128084182739258e+00,2.106159687042236328e+00,2.069512367248535156e+00,2.034118890762329102e+00,1.999915599822998047e+00,1.966843485832214355e+00,1.934847354888916016e+00,1.903875827789306641e+00,1.873879909515380859e+00,1.844814538955688477e+00
5.000000000000000000e+00,5.000000000000000000e+00,5.000000000000000000e+00,5.000000000000000000e+00,5.000000000000000000e+00,5.000000000000000000e+00,5.000000000000000000e+00,5.000000000000000000e+00,5.000000000000000000e+00,5.000000000000000000e+00,5.000000000000000000e+00,5.000000000000000000e+00,5.000000000000000000e+00,5.000000000000000000e+00,5.000000000000000000e+00,5.000000000000000000e+00,5.000000000000000000e+00,5.000000000000000000e+00,5.000000000000000000e+00,5.000000000000000000e+00,5.000000000000000000e+00,5.000000000000000000e+00,5.000000000000000000e+00,5.000000000000000000e+00,5.000000000000000000e+00,5.000000000000000000e+00,5.000000000000000000e+00,5.000000000000000000e+00,5.000000000000000000e+00,5.000000000000000000e+00,5.000000000000000000e+00,5.000000000000000000e+00,5.000000000000000000e+00,5.000000000000000000e+00,5.000000000000000000e+00,5.000000000000000000e+00,5.000000000000000000e+00,5.000000000000000000e+00,5.000000000000000000e+00,4.860417366027832031e+00,4.669593811035156250e+00,4.493187427520751953e+00,4.329624176025390625e+00,4.177551269531250000e+00,4.035798549652099609e+00,3.903350353240966797e+00,3.779318809509277344e+00,3.662926912307739258e+00,3.553490161895751953e+00,3.450402736663818359e+00,3.353128194808959961e+00,3.261187791824340820e+00,3.174154520034790039e+00,3.091646194458007812e+00,3.013318538665771484e+00,2.938861846923828125e+00,2.867995738983154297e+00,2.800466775894165039e+00,2.736044883728027344e+00,2.674520254135131836e+00,2.615701913833618164e+00,2.559414625167846680e+00,2.505498886108398438e+00,2.453807830810546875e+00,2.404206514358520508e+00,2.356571197509765625e+00,2.310786247253417969e+00,2.266746759414672852e+00,2.224354267120361328e+00,2.183518648147583008e+00,2.144155025482177734e+00,2.106185674667358398e+00,2.069537639617919922e+00,2.034143209457397461e+00,1.999939203262329102e+00,1.966866374015808105e+00,1.934869408607482910e+00,1.903897166252136230e+00,1.873900651931762695e+00,1.844834566116333008e+00
5.000000000000000000e+00,5.000000000000000000e+00,5.000000000000000000e+00,5.000000000000000000e+00,5.000000000000000000e+00,5.000000000000000000e+00,5.000000000000000000e+00,5.000000000000000000e+00,5.000000000000000000e+00,5.000000000000000000e+00,5.000000000000000000e+00,5.000000000000000000e+00,5.000000000000000000e+00,5.000000000000000000e+00,5.000000000000000000e+00,5.000000000000000000e+00,5.000000000000000000e+00,5.000000000000000000e+00,5.000000000000000000e+00,5.000000000000000000e+00,5.000000000000000000e+00,5.000000000000000000e+00,5.000000000000000000e+00,5.000000000000000000e+00,5.000000000000000000e+00,5.000000000000000000e+00,5.000000000000000000e+00,5.000000000000000000e+00,5.000000000000000000e+00,5.000000000000000000e+00,5.000000000000000000e+00,5.000000000000000000e+00,5.000000000000000000e+00,5.000000000000000000e+00,5.000000000000000000e+00,5.000000000000000000e+00,5.000000000000000000e+00,5.000000000000000000e+00,5.000000000000000000e+00,4.860557079315185547e+00,4.669722080230712891e+00,4.493306636810302734e+00,4.329734802246093750e+00,4.177654266357421875e+00,4.035894393920898438e+00,3.903440237045288086e+00,3.779402971267700195e+00,3.663006067276000977e+00,3.553564786911010742e+00,3.450473070144653320e+00,3.353194475173950195e+00,3.261250495910644531e+00,3.174214124679565430e+00,3.091702699661254883e+00,3.013372182846069336e+00,2.938912868499755859e+00,2.868044376373291016e+00,2.800513029098510742e+00,2.736089229583740234e+00,2.674562454223632812e+00,2.615742206573486328e+00,2.559453248977661133e+00,2.505535840988159180e+00,2.453843355178833008e+00,2.404240608215332031e+00,2.356603860855102539e+00,2.310817718505859375e+00,2.266776800155639648e+00,2.224383592605590820e+00,2.183546781539916992e+00,2.144182205200195312e+00,2.106211900711059570e+00,2.069562911987304688e+00,2.034167766571044922e+00,1.999962806701660156e+00,1.966889142990112305e+00,1.934891581535339355e+00,1.903918504714965820e+00,1.873921275138854980e+00,1.844854712486267090e+00
5.000000000000000000e+00,5.000000000000000000e+00,5.000000000000000000e+00,5.000000000000000000e+00,5.000000000000000000e+00,5.000000000000000000e+00,5.000000000000000000e+00,5.000000000000000000e+00,5.000000000000000000e+00,5.000000000000000000e+00,5.000000000000000000e+00,5.000000000000000000e+00,5.000000000000000000e+00,5.000000000000000000e+00,5.000000000000000000e+00,5.000000000000000000e+00,5.000000000000000000e+00,5.000000000000000000e+00,5.000000000000000000e+00,5.000000000000000000e+00,5.000000000000000000e+00,5.000000000000000000e+00,5.000000000000000000e+00,5.000000000000000000e+00,5.000000000000000000e+00,5.000000000000000000e+00,4.616472244262695312e+00,5.000000000000000000e+00,5.000000000000000000e+00,5.000000000000000000e+00,5.000000000000000000e+00,5.000000000000000000e+00,5.000000000000000000e+00,5.000000000000000000e+00,5.000000000000000000e+00,5.000000000000000000e+00,5.000000000000000000e+00,5.000000000000000000e+00,5.000000000000000000e+00,4.860696315765380859e+00,4.669850826263427734e+00,4.493425369262695312e+00,4.329845428466796875e+00,4.177757263183593750e+00,4.035990715026855469e+00,3.903529644012451172e+00,3.779487371444702148e+00,3.663085222244262695e+00,3.553639173507690430e+00,3.450543165206909180e+00,3.353260755538940430e+00,3.261313199996948242e+00,3.174273490905761719e+00,3.091759204864501953e+00,3.013425588607788086e+00,2.938963890075683594e+00,2.868092775344848633e+00,2.800559520721435547e+00,2.736133337020874023e+00,2.674604654312133789e+00,2.615782499313354492e+00,2.559491872787475586e+00,2.505573034286499023e+00,2.453878879547119141e+00,2.404274702072143555e+00,2.356636524200439453e+00,2.310849189758300781e+00,2.266807079315185547e+00,2.224412679672241211e+00,2.183574914932250977e+00,2.144209384918212891e+00,2.106238126754760742e+00,2.069588184356689453e+00,2.034192085266113281e+00,1.999986410140991211e+00,1.966912031173706055e+00,1.934913635253906250e+00,1.903939723968505859e+00,1.873942017555236816e+00,1.844874739646911621e+00
5.000000000000000000e+00,5.000000000000000000e+00,5.000000000000000000e+00,5.000000000000000000e+00,5.000000000000000000e+00,5.000000000000000000e+00,5.000000000000000000e+00,5.000000000000000000e+00,5.000000000000000000e+00,5.000000000000000000e+00,5.000000000000000000e+00,5.000000000000000000e+00,5.000000000000000000e+00,5.000000000000000000e+00,5.000000000000000000e+00,5.000000000000000000e+00,5.000000000000000000e+00,5.000000000000000000e+00,5.000000000000000000e+00,5.000000000000000000e+00,5.000000000000000000e+00,5.000000000000000000e+00,5.000000000000000000e+00,5.000000000000000000e+00,5.000000000000000000e+00,4.709515094757080078e+00,4.611555099487304688e+00,4.731019973754882812e+00,5.000000000000000000e+00,5.000000000000000000e+00,5.000000000000000000e+00,5.000000000000000000e+00,5.000000000000000000e+00,5.000000000000000000e+00,5.000000000000000000e+00,5.000000000000000000e+00,5.000000000000000000e+00,5.000000000000000000e+00,5.000000000000000000e+00,4.860835552215576172e+00,4.669979572296142578e+00,4.493544578552246094e+00,4.329956054687500000e+00,4.177860260009765625e+00,4.036086559295654297e+00,3.903619527816772461e+00,3.779571533203125000e+00,3.663164377212524414e+00,3.553713798522949219e+00,3.450613498687744141e+00,3.353326797485351562e+00,3.261376142501831055e+00,3.174332857131958008e+00,3.091815471649169922e+00,3.013479232788085938e+00,2.939014673233032227e+00,2.868141412734985352e+00,2.800605773925781250e+00,2.736177444458007812e+00,2.674646854400634766e+00,2.615823030471801758e+00,2.559530496597290039e+00,2.505609989166259766e+00,2.453914403915405273e+00,2.404308795928955078e+00,2.356669425964355469e+00,2.310880661010742188e+00,2.266837596893310547e+00,2.224442005157470703e+00,2.183603048324584961e+00,2.144236564636230469e+00,2.106264352798461914e+00,2.069613456726074219e+00,2.034216642379760742e+00,2.000010013580322266e+00,1.966934800148010254e+00,1.934935688972473145e+00,1.903961181640625000e+00,1.873962759971618652e+00,1.844894886016845703e+00
5.000000000000000000e+00,5.000000000000000000e+00,5.000000000000000000e+00,5.000000000000000000e+00,5.000000000000000000e+00,5.000000000000000000e+00,5.000000000000000000e+00,5.000000000000000000e+00,5.000000000000000000e+00,5.000000000000000000e+00,5.000000000000000000e+00,5.000000000000000000e+00,5.000000000000000000e+00,5.000000000000000000e+00,5.000000000000000000e+00,5.000000000000000000e+00,5.000000000000000000e+00,5.000000000000000000e+00,5.000000000000000000e+00,5.000000000000000000e+00,5.000000000000000000e+00,5.000000000000000000e+00,5.000000000000000000e+00,5.000000000000000000e+00,5.000000000000000000e+00,5.000000000000000000e+00,4.634954452514648438e+00,5.000000000000000000e+00,5.000000000000000000e+00,5.000000000000000000e+00,5.000000000000000000e+00,5.000000000000000000e+00,5.000000000000000000e+00,5.000000000000000000e+00,5.000000000000000000e+00,5.000000000000000000e+00,5.000000000000000000e+00,5.000000000000000000e+00,5.000000000000000000e+00,4.860974788665771484e+00,4.670107841491699219e+00,4.493663787841796875e+00,4.330066680908203125e+00,4.177963256835937500e+00,4.036182880401611328e+00,3.903709411621093750e+00,3.779655933380126953e+00,3.663243532180786133e+00,3.553788423538208008e+00,3.450683832168579102e+00,3.353393316268920898e+00,3.261438846588134766e+00,3.174392461776733398e+00,3.091871976852416992e+00,3.013532876968383789e+00,2.939065456390380859e+00,2.868190050125122070e+00,2.800652027130126953e+00,2.736221790313720703e+00,2.674689054489135742e+00,2.615863084793090820e+00,2.559569120407104492e+00,2.505646944046020508e+00,2.453950166702270508e+00,2.404343128204345703e+00,2.356702089309692383e+00,2.310912132263183594e+00,2.266867876052856445e+00,2.224471092224121094e+00,2.183631181716918945e+00,2.144263744354248047e+00,2.106290578842163086e+00,2.069638729095458984e+00,2.034240961074829102e+00,2.000033617019653320e+00,1.966957688331604004e+00,1.934957742691040039e+00,1.903982520103454590e+00,1.873983502388000488e+00,1.844914913177490234e+00
5.000000000000000000e+00,5.000000000000000000e+00,5.000000000000000000e+00,5.000000000000000000e+00,5.000000000000000000e+00,5.000000000000000000e+00,5.000000000000000000e+00,5.000000000000000000e+00,5.000000000000000000e+00,5.000000000000000000e+00,5.000000000000000000e+00,5.000000000000000000e+00,5.000000000000000000e+00,5.000000000000000000e+00,5.000000000000000000e+00,5.000000000000000000e+00,5.000000000000000000e+00,5.000000000000000000e+00,5.000000000000000000e+00,5.000000000000000000e+00,5.000000000000000000e+00,5.000000000000000000e+00,5.000000000000000000e+00,5.000000000000000000e+00,4.696733951568603516e+00,4.639729976654052734e+00,4.698114871978759766e+00,4.668301105499267578e+00,4.719459533691406250e+00,5.000000000000000000e+00,5.000000000000000000e+00,5.000000000000000000e+00,5.000000000000000000e+00,5.000000000000000000e+00,5.000000000000000000e+00,5.000000000000000000e+00,5.000000000000000000e+00,5.000000000000000000e+00,5.000000000000000000e+00,4.861114501953125000e+00,4.670236587524414062e+00,4.493782997131347656e+00,4.330177307128906250e+00,4.178066253662109375e+00,4.036278724670410156e+00,3.903799295425415039e+00,3.779740095138549805e+00,3.663322687149047852e+00,3.553862810134887695e+00,3.450754165649414062e+00,3.353459596633911133e+00,3.261501550674438477e+00,3.174451828002929688e+00,3.091928243637084961e+00,3.013586521148681641e+00,2.939116477966308594e+00,2.868238449096679688e+00,2.800698280334472656e+00,2.736265897750854492e+00,2.674731254577636719e+00,2.615903615951538086e+00,2.559607982635498047e+00,2.505684137344360352e+00,2.453985691070556641e+00,2.404377222061157227e+00,2.356734752655029297e+00,2.310943841934204102e+00,2.266898155212402344e+00,2.224500417709350586e+00,2.183659315109252930e+00,2.144290685653686523e+00,2.106316566467285156e+00,2.069664001464843750e+00,2.034265518188476562e+00,2.000057220458984375e+00,1.966980457305908203e+00,1.934979915618896484e+00,1.904003858566284180e+00,1.874004244804382324e+00,1.844935059547424316e+00
5.000000000000000000e+00,5.000000000000000000e+00,5.000000000000000000e+00,5.000000000000000000e+00,5.000000000000000000e+00,5.000000000000000000e+00,5.000000000000000000e+00,5.000000000000000000e+00,5.000000000000000000e+00,5.000000000000000000e+00,5.000000000000000000e+00,5.000000000000000000e+00,5.000000000000000000e+00,5.000000000000000000e+00,5.000000000000000000e+00,5.000000000000000000e+00,5.000000000000000000e+00,5.000000000000000000e+00,5.000000000000000000e+00,5.000000000000000000e+00,5.000000000000000000e+00,5.000000000000000000e+00,5.000000000000000000e+00,4.644640445709228516e+00,4.629279613494873047e+00,4.602128028869628906e+00,4.610229969024658203e+00,4.623178482055664062e+00,4.690527915954589844e+00,4.735377311706542969e+00,5.000000000000000000e+00,5.000000000000000000e+00,5.000000000000000000e+00,5.000000000000000000e+00,5.000000000000000000e+00,5.000000000000000000e+00,5.000000000000000000e+00,5.000000000000000000e+00,5.000000000000000000e+00,4.861253738403320312e+00,4.670365333557128906e+00,4.493902206420898438e+00,4.330287933349609375e+00,4.178168773651123047e+00,4.036375045776367188e+00,3.903889417648315430e+00,3.779824495315551758e+00,3.663401842117309570e+00,3.553937435150146484e+00,3.450824260711669922e+00,3.353525876998901367e+00,3.261564254760742188e+00,3.174511432647705078e+00,3.091984748840332031e+00,3.013639926910400391e+00,2.939167499542236328e+00,2.868287086486816406e+00,2.800744533538818359e+00,2.736310005187988281e+00,2.674773454666137695e+00,2.615943908691406250e+00,2.559646606445312500e+00,2.505721092224121094e+00,2.454021215438842773e+00,2.404411315917968750e+00,2.356767654418945312e+00,2.310975313186645508e+00,2.266928434371948242e+00,2.224529504776000977e+00,2.183687448501586914e+00,2.144317865371704102e+00,2.106342792510986328e+00,2.069689273834228516e+00,2.034289836883544922e+00,2.000080823898315430e+00,1.967003345489501953e+00,1.935001969337463379e+00,1.904025316238403320e+00,1.874024987220764160e+00,1.844955086708068848e+00
5.000000000000000000e+00,5.000000000000000000e+00,5.000000000000000000e+00,5.000000000000000000e+00,5.000000000000000000e+00,5.000000000000000000e+00,5.000000000000000000e+00,5.000000000000000000e+00,5.000000000000000000e+00,5.000000000000000000e+00,5.000000000000000000e+00,5.000000000000000000e+00,5.000000000000000000e+00,5.000000000000000000e+00,5.000000000000000000e+00,5.000000000000000000e+00,5.000000000000000000e+00,5.000000000000000000e+00,5.000000000000000000e+00,5.000000000000000000e+00,5.000000000000000000e+00,5.000000000000000000e+00,5.000000000000000000e+00,5.000000000000000000e+00,4.669068813323974609e+00,4.597660064697265625e+00,4.596768856048583984e+00,4.623179912567138672e+00,4.699968814849853516e+00,4.743290901184082031e+00,5.000000000000000000e+00,5.000000000000000000e+00,5.000000000000000000e+00,5.000000000000000000e+00,5.000000000000000000e+00,5.000000000000000000e+00,5.000000000000000000e+00,5.000000000000000000e+00,5.000000000000000000e+00,4.861392974853515625e+00,4.670494079589843750e+00,4.494021415710449219e+00,4.330398559570312500e+00,4.178271770477294922e+00,4.036470890045166016e+00,3.903979301452636719e+00,3.779908895492553711e+00,3.663481235504150391e+00,3.554011583328247070e+00,3.450894594192504883e+00,3.353592395782470703e+00,3.261627197265625000e+00,3.174570798873901367e+00,3.092040777206420898e+00,3.013693571090698242e+00,2.939218521118164062e+00,2.868335485458374023e+00,2.800790786743164062e+00,2.736354112625122070e+00,2.674815893173217773e+00,2.615984201431274414e+00,2.559685230255126953e+00,2.505758285522460938e+00,2.454056739807128906e+00,2.404445409774780273e+00,2.356800317764282227e+00,2.311006784439086914e+00,2.266958713531494141e+00,2.224558830261230469e+00,2.183715581893920898e+00,2.144344806671142578e+00,2.106369018554687500e+00,2.069714546203613281e+00,2.034314155578613281e+00,2.000104427337646484e+00,1.967026114463806152e+00,1.935024142265319824e+00,1.904046654701232910e+00,1.874045610427856445e+00,1.844975233078002930e+00
5.000000000000000000e+00,5.000000000000000000e+00,5.000000000000000000e+00,5.000000000000000000e+00,5.000000000000000000e+00,5.000000000000000000e+00,5.000000000000000000e+00,5.000000000000000000e+00,5.000000000000000000e+00,5.000000000000000000e+00,5.000000000000000000e+00,5.000000000000000000e+00,5.000000000000000000e+00,5.000000000000000000e+00,5.000000000000000000e+00,5.000000000000000000e+00,5.000000000000000000e+00,5.000000000000000000e+00,5.000000000000000000e+00,5.000000000000000000e+00,5.000000000000000000e+00,5.000000000000000000e+00,5.000000000000000000e+00,5.000000000000000000e+00,4.667778968811035156e+00,4.595556735992431641e+00,4.589940071105957031e+00,4.619717121124267578e+00,4.753439426422119141e+00,4.743483066558837891e+00,5.000000000000000000e+00,5.000000000000000000e+00,5.000000000000000000e+00,5.000000000000000000e+00,5.000000000000000000e+00,5.000000000000000000e+00,5.000000000000000000e+00,5.000000000000000000e+00,5.000000000000000000e+00,4.861532688140869141e+00,4.670622825622558594e+00,4.494140625000000000e+00,4.330509185791015625e+00,4.178374767303466797e+00,4.036567211151123047e+00,3.904069185256958008e+00,3.779993057250976562e+00,3.663560390472412109e+00,3.554085969924926758e+00,3.450964927673339844e+00,3.353658676147460938e+00,3.261689901351928711e+00,3.174630165100097656e+00,3.092097282409667969e+00,3.013747215270996094e+00,2.939269542694091797e+00,2.868384122848510742e+00,2.800837039947509766e+00,2.736398220062255859e+00,2.674858093261718750e+00,2.616024732589721680e+00,2.559723854064941406e+00,2.505795240402221680e+00,2.454092264175415039e+00,2.404479503631591797e+00,2.356833219528198242e+00,2.311038255691528320e+00,2.266989231109619141e+00,2.224587917327880859e+00,2.183743715286254883e+00,2.144371986389160156e+00,2.106395244598388672e+00,2.069739818572998047e+00,2.034338712692260742e+00,2.000128030776977539e+00,1.967049002647399902e+00,1.935046195983886719e+00,1.904068112373352051e+00,1.874066352844238281e+00,1.844995260238647461e+00
5.000000000000000000e+00,5.000000000000000000e+00,5.000000000000000000e+00,5.000000000000000000e+00,5.000000000000000000e+00,5.000000000000000000e+00,5.000000000000000000e+00,5.000000000000000000e+00,5.000000000000000000e+00,5.000000000000000000e+00,5.000000000000000000e+00,5.000000000000000000e+00,5.000000000000000000e+00,5.000000000000000000e+00,5.000000000000000000e+00,5.000000000000000000e+00,5.000000000000000000e+00,5.000000000000000000e+00,5.000000000000000000e+00,5.000000000000000000e+00,5.000000000000000000e+00,5.000000000000000000e+00,5.000000000000000000e+00,5.000000000000000000e+00,4.688511371612548828e+00,4.582253456115722656e+00,4.589285850524902344e+00,4.616046905517578125e+00,5.000000000000000000e+00,4.756042957305908203e+00,5.000000000000000000e+00,5.000000000000000000e+00,5.000000000000000000e+00,5.000000000000000000e+00,5.000000000000000000e+00,5.000000000000000000e+00,5.000000000000000000e+00,5.000000000000000000e+00,5.000000000000000000e+00,4.861671924591064453e+00,4.670751571655273438e+00,4.494259834289550781e+00,4.330619812011718750e+00,4.178477764129638672e+00,4.036663532257080078e+00,3.904159069061279297e+00,3.780077457427978516e+00,3.663639545440673828e+00,3.554160594940185547e+00,3.451035022735595703e+00,3.353724956512451172e+00,3.261752605438232422e+00,3.174689769744873047e+00,3.092153787612915039e+00,3.013800859451293945e+00,2.939320325851440430e+00,2.868432760238647461e+00,2.800883531570434570e+00,2.736442327499389648e+00,2.674900293350219727e+00,2.616065025329589844e+00,2.559762477874755859e+00,2.505832195281982422e+00,2.454127550125122070e+00,2.404513597488403320e+00,2.356865882873535156e+00,2.311069726943969727e+00,2.267019510269165039e+00,2.224617004394531250e+00,2.183771848678588867e+00,2.144399166107177734e+00,2.106421470642089844e+00,2.069765090942382812e+00,2.034363031387329102e+00,2.000151634216308594e+00,1.967071771621704102e+00,1.935068249702453613e+00,1.904089450836181641e+00,1.874087095260620117e+00,1.845015406608581543e+00
5.000000000000000000e+00,5.000000000000000000e+00,5.000000000000000000e+00,5.000000000000000000e+00,5.000000000000000000e+00,5.000000000000000000e+00,5.000000000000000000e+00,5.000000000000000000e+00,5.000000000000000000e+00,5.000000000000000000e+00,5.000000000000000000e+00,5.000000000000000000e+00,5.000000000000000000e+00,5.000000000000000000e+00,5.000000000000000000e+00,5.000000000000000000e+00,5.000000000000000000e+00,5.000000000000000000e+00,5.000000000000000000e+00,5.000000000000000000e+00,5.000000000000000000e+00,5.000000000000000000e+00,5.000000000000000000e+00,5.000000000000000000e+00,4.706181526184082031e+00,4.591470718383789062e+00,4.589750289916992188e+00,4.622692108154296875e+00,4.753926753997802734e+00,4.718982696533203125e+00,5.000000000000000000e+00,5.000000000000000000e+00,5.000000000000000000e+00,5.000000000000000000e+00,5.000000000000000000e+00,5.000000000000000000e+00,5.000000000000000000e+00,5.000000000000000000e+00,5.000000000000000000e+00,4.861811637878417969e+00,4.670880317687988281e+00,4.494378566741943359e+00,4.330730438232421875e+00,4.178581237792968750e+00,4.036759376525878906e+00,3.904248952865600586e+00,3.780161857604980469e+00,3.663718700408935547e+00,3.554235219955444336e+00,3.451105356216430664e+00,3.353791475296020508e+00,3.261815547943115234e+00,3.174749135971069336e+00,3.092210054397583008e+00,3.013854503631591797e+00,2.939371347427368164e+00,2.868481159210205078e+00,2.800929784774780273e+00,2.736486673355102539e+00,2.674942493438720703e+00,2.616105556488037109e+00,2.559801101684570312e+00,2.505869388580322266e+00,2.454163074493408203e+00,2.404547691345214844e+00,2.356898546218872070e+00,2.311101436614990234e+00,2.267049789428710938e+00,2.224646091461181641e+00,2.183799982070922852e+00,2.144426345825195312e+00,2.106447458267211914e+00,2.069790363311767578e+00,2.034387350082397461e+00,2.000175237655639648e+00,1.967094659805297852e+00,1.935090422630310059e+00,1.904110908508300781e+00,1.874107837677001953e+00,1.845035433769226074e+00
5.000000000000000000e+00,5.000000000000000000e+00,5.000000000000000000e+00,5.000000000000000000e+00,5.000000000000000000e+00,5.000000000000000000e+00,5.000000000000000000e+00,5.000000000000000000e+00,5.000000000000000000e+00,5.000000000000000000e+00,5.000000000000000000e+00,5.000000000000000000e+00,5.000000000000000000e+00,5.000000000000000000e+00,5.000000000000000000e+00,5.000000000000000000e+00,5.000000000000000000e+00,5.000000000000000000e+00,5.000000000000000000e+00,5.000000000000000000e+00,5.000000000000000000e+00,5.000000000000000000e+00,5.000000000000000000e+00,5.000000000000000000e+00,4.685586452484130859e+00,4.573354721069335938e+00,4.617372512817382812e+00,4.642349243164062500e+00,4.729331016540527344e+00,4.688227176666259766e+00,5.000000000000000000e+00,5.000000000000000000e+00,5.000000000000000000e+00,5.000000000000000000e+00,5.000000000000000000e+00,5.000000000000000000e+00,5.000000000000000000e+00,5.000000000000000000e+00,5.000000000000000000e+00,4.861950874328613281e+00,4.671009063720703125e+00,4.494497776031494141e+00,4.330841064453125000e+00,4.178684234619140625e+00,4.036855697631835938e+00,3.904339075088500977e+00,3.780245780944824219e+00,3.663797855377197266e+00,3.554309606552124023e+00,3.451175689697265625e+00,3.353857755661010742e+00,3.261877775192260742e+00,3.174808740615844727e+00,3.092266559600830078e+00,3.013907909393310547e+00,2.939422369003295898e+00,2.868529796600341797e+00,2.800976037979125977e+00,2.736530780792236328e+00,2.674984693527221680e+00,2.616145849227905273e+00,2.559839963912963867e+00,2.505906343460083008e+00,2.454198598861694336e+00,2.404581785202026367e+00,2.356931447982788086e+00,2.311132907867431641e+00,2.267080068588256836e+00,2.224675416946411133e+00,2.183828115463256836e+00,2.144453525543212891e+00,2.106473684310913086e+00,2.069815635681152344e+00,2.034411907196044922e+00,2.000198841094970703e+00,1.967117428779602051e+00,1.935112476348876953e+00,1.904132246971130371e+00,1.874128341674804688e+00,1.845055580139160156e+00
5.000000000000000000e+00,5.000000000000000000e+00,5.000000000000000000e+00,5.000000000000000000e+00,5.000000000000000000e+00,5.000000000000000000e+00,5.000000000000000000e+00,5.000000000000000000e+00,5.000000000000000000e+00,5.000000000000000000e+00,5.000000000000000000e+00,5.000000000000000000e+00,5.000000000000000000e+00,5.000000000000000000e+00,5.000000000000000000e+00,5.000000000000000000e+00,5.000000000000000000e+00,5.000000000000000000e+00,5.000000000000000000e+00,5.000000000000000000e+00,5.000000000000000000e+00,5.000000000000000000e+00,5.000000000000000000e+00,5.000000000000000000e+00,4.676025390625000000e+00,4.535506725311279297e+00,4.578448772430419922e+00,4.627298355102539062e+00,4.674276828765869141e+00,4.627349853515625000e+00,5.000000000000000000e+00,5.000000000000000000e+00,5.000000000000000000e+00,5.000000000000000000e+00,5.000000000000000000e+00,5.000000000000000000e+00,5.000000000000000000e+00,5.000000000000000000e+00,5.000000000000000000e+00,4.862090587615966797e+00,4.671137332916259766e+00,4.494616985321044922e+00,4.330951690673828125e+00,4.178787231445312500e+00,4.036952018737792969e+00,3.904428958892822266e+00,3.780329942703247070e+00,3.663877248764038086e+00,3.554384231567382812e+00,3.451246023178100586e+00,3.353924274444580078e+00,3.261940717697143555e+00,3.174868106842041016e+00,3.092323064804077148e+00,3.013961553573608398e+00,2.939473390579223633e+00,2.868578195571899414e+00,2.801022291183471680e+00,2.736574888229370117e+00,2.675026893615722656e+00,2.616186141967773438e+00,2.559878587722778320e+00,2.505943536758422852e+00,2.454234123229980469e+00,2.404615879058837891e+00,2.356964111328125000e+00,2.311164379119873047e+00,2.267110347747802734e+00,2.224704504013061523e+00,2.183856248855590820e+00,2.144480466842651367e+00,2.106499910354614258e+00,2.069840908050537109e+00,2.034436225891113281e+00,2.000222444534301758e+00,1.967140316963195801e+00,1.935134530067443848e+00,1.904153704643249512e+00,1.874149084091186523e+00,1.845075607299804688e+00
5.000000000000000000e+00,5.000000000000000000e+00,5.000000000000000000e+00,5.000000000000000000e+00,5.000000000000000000e+00,5.000000000000000000e+00,5.000000000000000000e+00,5.000000000000000000e+00,5.000000000000000000e+00,5.000000000000000000e+00,5.000000000000000000e+00,5.000000000000000000e+00,5.000000000000000000e+00,5.000000000000000000e+00,5.000000000000000000e+00,5.000000000000000000e+00,5.000000000000000000e+00,5.000000000000000000e+00,5.000000000000000000e+00,5.000000000000000000e+00,5.000000000000000000e+00,5.000000000000000000e+00,5.000000000000000000e+00,5.000000000000000000e+00,4.655439853668212891e+00,4.521496295928955078e+00,4.556834697723388672e+00,4.627174854278564453e+00,4.678284168243408203e+00,5.000000000000000000e+00,4.645052909851074219e+00,5.000000000000000000e+00,5.000000000000000000e+00,5.000000000000000000e+00,5.000000000000000000e+00,5.000000000000000000e+00,5.000000000000000000e+00,5.000000000000000000e+00,5.000000000000000000e+00,4.862229824066162109e+00,4.671266078948974609e+00,4.494736194610595703e+00,4.331062316894531250e+00,4.178890228271484375e+00,4.037047863006591797e+00,3.904518842697143555e+00,3.780414342880249023e+00,3.663956403732299805e+00,3.554458856582641602e+00,3.451316356658935547e+00,3.353990554809570312e+00,3.262003421783447266e+00,3.174927711486816406e+00,3.092379331588745117e+00,3.014015197753906250e+00,2.939524412155151367e+00,2.868626594543457031e+00,2.801068544387817383e+00,2.736619234085083008e+00,2.675069093704223633e+00,2.616226673126220703e+00,2.559916973114013672e+00,2.505980491638183594e+00,2.454269647598266602e+00,2.404649972915649414e+00,2.356997013092041016e+00,2.311195850372314453e+00,2.267140865325927734e+00,2.224733829498291016e+00,2.183884382247924805e+00,2.144507646560668945e+00,2.106526136398315430e+00,2.069866180419921875e+00,2.034460544586181641e+00,2.000246047973632812e+00,1.967163085937500000e+00,1.935156702995300293e+00,1.904175043106079102e+00,1.874169826507568359e+00,1.845095753669738770e+00
5.000000000000000000e+00,5.000000000000000000e+00,5.000000000000000000e+00,5.000000000000000000e+00,5.000000000000000000e+00,5.000000000000000000e+00,5.000000000000000000e+00,5.000000000000000000e+00,5.000000000000000000e+00,5.000000000000000000e+00,5.000000000000000000e+00,5.000000000000000000e+00,5.000000000000000000e+00,5.000000000000000000e+00,5.000000000000000000e+00,5.000000000000000000e+00,5.000000000000000000e+00,5.000000000000000000e+00,5.000000000000000000e+00,5.000000000000000000e+00,5.000000000000000000e+00,5.000000000000000000e+00,5.000000000000000000e+00,5.000000000000000000e+00,4.633640766143798828e+00,4.505817890167236328e+00,4.534843921661376953e+00,4.637627124786376953e+00,4.742690086364746094e+00,5.000000000000000000e+00,5.000000000000000000e+00,5.000000000000000000e+00,5.000000000000000000e+00,5.000000000000000000e+00,5.000000000000000000e+00,5.000000000000000000e+00,5.000000000000000000e+00,5.000000000000000000e+00,5.000000000000000000e+00,4.862369060516357422e+00,4.671394824981689453e+00,4.494855403900146484e+00,4.331173419952392578e+00,4.178993225097656250e+00,4.037144184112548828e+00,3.904608964920043945e+00,3.780498743057250977e+00,3.664035558700561523e+00,3.554533243179321289e+00,3.451386451721191406e+00,3.354056835174560547e+00,3.262066364288330078e+00,3.174987077713012695e+00,3.092435836791992188e+00,3.014068841934204102e+00,2.939575433731079102e+00,2.868675231933593750e+00,2.801114797592163086e+00,2.736663341522216797e+00,2.675111293792724609e+00,2.616266965866088867e+00,2.559955596923828125e+00,2.506017446517944336e+00,2.454305171966552734e+00,2.404684305191040039e+00,2.357029676437377930e+00,2.311227321624755859e+00,2.267171144485473633e+00,2.224762916564941406e+00,2.183912515640258789e+00,2.144534826278686523e+00,2.106552124023437500e+00,2.069891452789306641e+00,2.034485101699829102e+00,2.000269651412963867e+00,1.967185974121093750e+00,1.935178756713867188e+00,1.904196500778198242e+00,1.874190568923950195e+00,1.845115780830383301e+00
5.000000000000000000e+00,5.000000000000000000e+00,5.000000000000000000e+00,5.000000000000000000e+00,5.000000000000000000e+00,5.000000000000000000e+00,5.000000000000000000e+00,5.000000000000000000e+00,5.000000000000000000e+00,5.000000000000000000e+00,5.000000000000000000e+00,5.000000000000000000e+00,5.000000000000000000e+00,5.000000000000000000e+00,5.000000000000000000e+00,5.000000000000000000e+00,5.000000000000000000e+00,5.000000000000000000e+00,5.000000000000000000e+00,5.000000000000000000e+00,5.000000000000000000e+00,5.000000000000000000e+00,5.000000000000000000e+00,5.000000000000000000e+00,5.000000000000000000e+00,4.494695663452148438e+00,4.508312702178955078e+00,4.646487236022949219e+00,5.000000000000000000e+00,5.000000000000000000e+00,5.000000000000000000e+00,5.000000000000000000e+00,5.000000000000000000e+00,5.000000000000000000e+00,5.000000000000000000e+00,5.000000000000000000e+00,5.000000000000000000e+00,5.000000000000000000e+00,5.000000000000000000e+00,4.862508773803710938e+00,4.671524047851562500e+00,4.494974613189697266e+00,4.331284046173095703e+00,4.179096221923828125e+00,4.037240028381347656e+00,3.904698848724365234e+00,3.780582904815673828e+00,3.664114713668823242e+00,3.554607868194580078e+00,3.451456546783447266e+00,3.354123353958129883e+00,3.262129068374633789e+00,3.175046682357788086e+00,3.092492341995239258e+00,3.014122486114501953e+00,2.939626455307006836e+00,2.868723869323730469e+00,2.801161289215087891e+00,2.736707448959350586e+00,2.675153493881225586e+00,2.616307497024536133e+00,2.559994459152221680e+00,2.506054639816284180e+00,2.454340934753417969e+00,2.404718399047851562e+00,2.357062578201293945e+00,2.311258792877197266e+00,2.267201423645019531e+00,2.224792242050170898e+00,2.183940649032592773e+00,2.144562005996704102e+00,2.106578350067138672e+00,2.069916725158691406e+00,2.034509420394897461e+00,2.000293254852294922e+00,1.967208862304687500e+00,1.935200810432434082e+00,1.904217839241027832e+00,1.874211311340332031e+00,1.845135927200317383e+00
5.000000000000000000e+00,5.000000000000000000e+00,5.000000000000000000e+00,5.000000000000000000e+00,5.000000000000000000e+00,5.000000000000000000e+00,5.000000000000000000e+00,5.000000000000000000e+00,5.000000000000000000e+00,5.000000000000000000e+00,5.000000000000000000e+00,5.000000000000000000e+00,5.000000000000000000e+00,5.000000000000000000e+00,5.000000000000000000e+00,5.000000000000000000e+00,5.000000000000000000e+00,5.000000000000000000e+00,5.000000000000000000e+00,5.000000000000000000e+00,5.000000000000000000e+00,5.000000000000000000e+00,5.000000000000000000e+00,5.000000000000000000e+00,5.000000000000000000e+00,4.516201496124267578e+00,4.512600898742675781e+00,4.651999950408935547e+00,5.000000000000000000e+00,5.000000000000000000e+00,5.000000000000000000e+00,5.000000000000000000e+00,5.000000000000000000e+00,5.000000000000000000e+00,5.000000000000000000e+00,5.000000000000000000e+00,5.000000000000000000e+00,5.000000000000000000e+00,5.000000000000000000e+00,4.862646579742431641e+00,4.671652793884277344e+00,4.495093822479248047e+00,4.331394672393798828e+00,4.179199218750000000e+00,4.037336349487304688e+00,3.904788732528686523e+00,3.780667304992675781e+00,3.664194107055664062e+00,3.554682493209838867e+00,3.451526880264282227e+00,3.354189634323120117e+00,3.262191772460937500e+00,3.175106048583984375e+00,3.092548608779907227e+00,3.014175891876220703e+00,2.939677238464355469e+00,2.868772268295288086e+00,2.801207542419433594e+00,2.736751794815063477e+00,2.675195693969726562e+00,2.616347789764404297e+00,2.560033082962036133e+00,2.506091594696044922e+00,2.454376459121704102e+00,2.404752492904663086e+00,2.357095241546630859e+00,2.311290264129638672e+00,2.267231702804565430e+00,2.224821329116821289e+00,2.183968782424926758e+00,2.144589185714721680e+00,2.106604576110839844e+00,2.069941997528076172e+00,2.034533977508544922e+00,2.000316858291625977e+00,1.967231631278991699e+00,1.935222983360290527e+00,1.904239296913146973e+00,1.874231934547424316e+00,1.845155954360961914e+00
5.000000000000000000e+00,5.000000000000000000e+00,5.000000000000000000e+00,5.000000000000000000e+00,5.000000000000000000e+00,5.000000000000000000e+00,5.000000000000000000e+00,5.000000000000000000e+00,5.000000000000000000e+00,5.000000000000000000e+00,5.000000000000000000e+00,5.000000000000000000e+00,5.000000000000000000e+00,5.000000000000000000e+00,5.000000000000000000e+00,5.000000000000000000e+00,5.000000000000000000e+00,5.000000000000000000e+00,5.000000000000000000e+00,5.000000000000000000e+00,5.000000000000000000e+00,5.000000000000000000e+00,5.000000000000000000e+00,5.000000000000000000e+00,5.000000000000000000e+00,4.542756557464599609e+00,4.554093360900878906e+00,4.713289260864257812e+00,5.000000000000000000e+00,5.000000000000000000e+00,5.000000000000000000e+00,5.000000000000000000e+00,5.000000000000000000e+00,5.000000000000000000e+00,5.000000000000000000e+00,5.000000000000000000e+00,5.000000000000000000e+00,5.000000000000000000e+00,5.000000000000000000e+00,4.862785339355468750e+00,4.671780109405517578e+00,4.495213031768798828e+00,4.331505298614501953e+00,4.179302215576171875e+00,4.037432670593261719e+00,3.904878854751586914e+00,3.780751705169677734e+00,3.664273262023925781e+00,3.554757118225097656e+00,3.451597213745117188e+00,3.354256153106689453e+00,3.262254714965820312e+00,3.175165653228759766e+00,3.092605113983154297e+00,3.014229297637939453e+00,2.939728260040283203e+00,2.868820905685424805e+00,2.801253795623779297e+00,2.736795902252197266e+00,2.675237894058227539e+00,2.616388082504272461e+00,2.560071706771850586e+00,2.506128787994384766e+00,2.454411983489990234e+00,2.404786348342895508e+00,2.357128143310546875e+00,2.311321735382080078e+00,2.267262220382690430e+00,2.224850654602050781e+00,2.183996915817260742e+00,2.144616365432739258e+00,2.106630802154541016e+00,2.069967269897460938e+00,2.034558296203613281e+00,2.000340461730957031e+00,1.967254519462585449e+00,1.935245037078857422e+00,1.904260635375976562e+00,1.874252676963806152e+00,1.845176100730895996e+00
5.000000000000000000e+00,5.000000000000000000e+00,5.000000000000000000e+00,5.000000000000000000e+00,5.000000000000000000e+00,5.000000000000000000e+00,5.000000000000000000e+00,5.000000000000000000e+00,5.000000000000000000e+00,5.000000000000000000e+00,5.000000000000000000e+00,5.000000000000000000e+00,5.000000000000000000e+00,5.000000000000000000e+00,5.000000000000000000e+00,5.000000000000000000e+00,5.000000000000000000e+00,5.000000000000000000e+00,5.000000000000000000e+00,5.000000000000000000e+00,5.000000000000000000e+00,5.000000000000000000e+00,5.000000000000000000e+00,5.000000000000000000e+00,5.000000000000000000e+00,4.569882392883300781e+00,4.557937622070312500e+00,4.841726779937744141e+00,5.000000000000000000e+00,5.000000000000000000e+00,5.000000000000000000e+00,5.000000000000000000e+00,5.000000000000000000e+00,5.000000000000000000e+00,5.000000000000000000e+00,5.000000000000000000e+00,5.000000000000000000e+00,5.000000000000000000e+00,5.000000000000000000e+00,4.862924098968505859e+00,4.671908378601074219e+00,4.495332241058349609e+00,4.331615924835205078e+00,4.179405212402343750e+00,4.037528514862060547e+00,3.904968738555908203e+00,3.780836105346679688e+00,3.664352416992187500e+00,3.554831504821777344e+00,3.451667308807373047e+00,3.354322433471679688e+00,3.262317419052124023e+00,3.175225019454956055e+00,3.092661619186401367e+00,3.014282941818237305e+00,2.939779281616210938e+00,2.868869543075561523e+00,2.801300048828125000e+00,2.736840009689331055e+00,2.675280094146728516e+00,2.616428613662719727e+00,2.560110330581665039e+00,2.506165742874145508e+00,2.454447507858276367e+00,2.404820442199707031e+00,2.357160806655883789e+00,2.311353445053100586e+00,2.267292499542236328e+00,2.224879741668701172e+00,2.184024810791015625e+00,2.144643306732177734e+00,2.106656789779663086e+00,2.069992542266845703e+00,2.034582853317260742e+00,2.000364065170288086e+00,1.967277288436889648e+00,1.935267210006713867e+00,1.904282093048095703e+00,1.874273419380187988e+00,1.845196127891540527e+00
5.000000000000000000e+00,5.000000000000000000e+00,5.000000000000000000e+00,5.000000000000000000e+00,5.000000000000000000e+00,5.000000000000000000e+00,5.000000000000000000e+00,5.000000000000000000e+00,5.000000000000000000e+00,5.000000000000000000e+00,5.000000000000000000e+00,5.000000000000000000e+00,5.000000000000000000e+00,5.000000000000000000e+00,5.000000000000000000e+00,5.000000000000000000e+00,5.000000000000000000e+00,5.000000000000000000e+00,5.000000000000000000e+00,5.000000000000000000e+00,5.000000000000000000e+00,5.000000000000000000e+00,5.000000000000000000e+00,5.000000000000000000e+00,5.000000000000000000e+00,5.000000000000000000e+00,4.557414531707763672e+00,4.954674243927001953e+00,5.000000000000000000e+00,5.000000000000000000e+00,5.000000000000000000e+00,5.000000000000000000e+00,5.000000000000000000e+00,5.000000000000000000e+00,5.000000000000000000e+00,5.000000000000000000e+00,5.000000000000000000e+00,5.000000000000000000e+00,5.000000000000000000e+00,4.863062858581542969e+00,4.672036170959472656e+00,4.495450019836425781e+00,4.331726551055908203e+00,4.179508209228515625e+00,4.037624835968017578e+00,3.905058860778808594e+00,3.780920505523681641e+00,3.664431333541870117e+00,3.554906129837036133e+00,3.451737642288208008e+00,3.354388952255249023e+00,3.262380123138427734e+00,3.175284624099731445e+00,3.092718124389648438e+00,3.014336585998535156e+00,2.939830303192138672e+00,2.868917942047119141e+00,2.801346540451049805e+00,2.736884355545043945e+00,2.675322294235229492e+00,2.616468906402587891e+00,2.560148954391479492e+00,2.506202936172485352e+00,2.454483032226562500e+00,2.404854536056518555e+00,2.357193708419799805e+00,2.311384916305541992e+00,2.267322778701782227e+00,2.224909067153930664e+00,2.184053182601928711e+00,2.144670486450195312e+00,2.106683015823364258e+00,2.070017814636230469e+00,2.034607172012329102e+00,2.000387668609619141e+00,1.967300176620483398e+00,1.935289263725280762e+00,1.904303431510925293e+00,1.874294161796569824e+00,1.845216035842895508e+00
5.000000000000000000e+00,5.000000000000000000e+00,5.000000000000000000e+00,5.000000000000000000e+00,5.000000000000000000e+00,5.000000000000000000e+00,5.000000000000000000e+00,5.000000000000000000e+00,5.000000000000000000e+00,5.000000000000000000e+00,5.000000000000000000e+00,5.000000000000000000e+00,5.000000000000000000e+00,5.000000000000000000e+00,5.000000000000000000e+00,5.000000000000000000e+00,5.000000000000000000e+00,5.000000000000000000e+00,5.000000000000000000e+00,5.000000000000000000e+00,5.000000000000000000e+00,5.000000000000000000e+00,5.000000000000000000e+00,5.000000000000000000e+00,5.000000000000000000e+00,5.000000000000000000e+00,4.559356212615966797e+00,5.000000000000000000e+00,5.000000000000000000e+00,5.000000000000000000e+00,5.000000000000000000e+00,5.000000000000000000e+00,5.000000000000000000e+00,5.000000000000000000e+00,5.000000000000000000e+00,5.000000000000000000e+00,5.000000000000000000e+00,5.000000000000000000e+00,5.000000000000000000e+00,4.863201618194580078e+00,4.672164440155029297e+00,4.495568275451660156e+00,4.331836223602294922e+00,4.179611206054687500e+00,4.037721157073974609e+00,3.905148744583129883e+00,3.781004667282104492e+00,3.664510488510131836e+00,3.554980754852294922e+00,3.451807975769042969e+00,3.354455232620239258e+00,3.262443065643310547e+00,3.175343751907348633e+00,3.092774391174316406e+00,3.014390230178833008e+00,2.939881324768066406e+00,2.868966579437255859e+00,2.801392793655395508e+00,2.736928462982177734e+00,2.675364494323730469e+00,2.616509437561035156e+00,2.560187816619873047e+00,2.506239891052246094e+00,2.454518556594848633e+00,2.404888868331909180e+00,2.357226610183715820e+00,2.311416387557983398e+00,2.267353057861328125e+00,2.224938154220581055e+00,2.184081315994262695e+00,2.144697666168212891e+00,2.106709241867065430e+00,2.070043087005615234e+00,2.034631729125976562e+00,2.000411272048950195e+00,1.967322945594787598e+00,1.935311317443847656e+00,1.904324889183044434e+00,1.874314904212951660e+00,1.845236182212829590e+00
5.000000000000000000e+00,5.000000000000000000e+00,5.000000000000000000e+00,5.000000000000000000e+00,5.000000000000000000e+00,5.000000000000000000e+00,5.000000000000000000e+00,5.000000000000000000e+00,5.000000000000000000e+00,5.000000000000000000e+00,5.000000000000000000e+00,5.000000000000000000e+00,5.000000000000000000e+00,5.000000000000000000e+00,5.000000000000000000e+00,5.000000000000000000e+00,5.000000000000000000e+00,5.000000000000000000e+00,5.000000000000000000e+00,5.000000000000000000e+00,5.000000000000000000e+00,5.000000000000000000e+00,5.000000000000000000e+00,5.000000000000000000e+00,5.000000000000000000e+00,5.000000000000000000e+00,4.576413631439208984e+00,5.000000000000000000e+00,5.000000000000000000e+00,5.000000000000000000e+00,5.000000000000000000e+00,5.000000000000000000e+00,5.000000000000000000e+00,5.000000000000000000e+00,5.000000000000000000e+00,5.000000000000000000e+00,5.000000000000000000e+00,5.000000000000000000e+00,5.000000000000000000e+00,4.863339900970458984e+00,4.672292232513427734e+00,4.495687007904052734e+00,4.331945896148681641e+00,4.179713249206542969e+00,4.037817478179931641e+00,3.905238628387451172e+00,3.781089067459106445e+00,3.664589881896972656e+00,3.555055379867553711e+00,3.451878309249877930e+00,3.354521751403808594e+00,3.262505769729614258e+00,3.175403356552124023e+00,3.092830896377563477e+00,3.014443874359130859e+00,2.939932346343994141e+00,2.869015216827392578e+00,2.801438808441162109e+00,2.736972808837890625e+00,2.675406694412231445e+00,2.616549730300903320e+00,2.560226440429687500e+00,2.506276845932006836e+00,2.454554080963134766e+00,2.404922962188720703e+00,2.357259273529052734e+00,2.311447858810424805e+00,2.267383575439453125e+00,2.224967479705810547e+00,2.184109449386596680e+00,2.144724845886230469e+00,2.106735467910766602e+00,2.070068359375000000e+00,2.034656047821044922e+00,2.000434875488281250e+00,1.967345833778381348e+00,1.935333490371704102e+00,1.904346227645874023e+00,1.874335646629333496e+00,1.845256209373474121e+00
4.875414371490478516e+00,4.874203205108642578e+00,4.872993469238281250e+00,4.871783256530761719e+00,4.870573997497558594e+00,4.869365692138671875e+00,4.868157863616943359e+00,4.866950511932373047e+00,4.865743637084960938e+00,4.864537715911865234e+00,4.863331794738769531e+00,4.862127304077148438e+00,4.860922813415527344e+00,4.859718799591064453e+00,4.858515739440917969e+00,4.857313156127929688e+00,4.856111049652099609e+00,4.854910373687744141e+00,4.853709220886230469e+00,4.852509021759033203e+00,4.851309776306152344e+00,4.850110530853271484e+00,4.848912239074707031e+00,4.847714424133300781e+00,4.846517086029052734e+00,4.845320701599121094e+00,4.478720188140869141e+00,4.842929363250732422e+00,4.841733932495117188e+00,4.840539932250976562e+00,4.839346408843994141e+00,4.838153362274169922e+00,4.836960792541503906e+00,4.835768699645996094e+00,4.834577560424804688e+00,4.833386898040771484e+00,4.832196712493896484e+00,4.831007003784179688e+00,4.829818248748779297e+00,4.828629493713378906e+00,4.672420024871826172e+00,4.495805263519287109e+00,4.332056045532226562e+00,4.179816246032714844e+00,4.037913322448730469e+00,3.905328750610351562e+00,3.781173467636108398e+00,3.664669036865234375e+00,3.555129766464233398e+00,3.451948642730712891e+00,3.354588031768798828e+00,3.262568712234497070e+00,3.175462722778320312e+00,3.092887401580810547e+00,3.014497518539428711e+00,2.939983367919921875e+00,2.869063854217529297e+00,2.801485061645507812e+00,2.737016916275024414e+00,2.675448894500732422e+00,2.616590261459350586e+00,2.560265064239501953e+00,2.506313800811767578e+00,2.454589605331420898e+00,2.404957056045532227e+00,2.357292175292968750e+00,2.311479568481445312e+00,2.267413616180419922e+00,2.224996805191040039e+00,2.184137582778930664e+00,2.144752025604248047e+00,2.106761693954467773e+00,2.070093631744384766e+00,2.034680604934692383e+00,2.000458478927612305e+00,1.967368721961975098e+00,1.935355544090270996e+00,1.904367685317993164e+00,1.874356389045715332e+00,1.845276355743408203e+00
3.778227090835571289e+00,3.777499914169311523e+00,3.776772737503051758e+00,3.776046037673950195e+00,3.775319576263427734e+00,3.774593353271484375e+00,3.773867607116699219e+00,3.773142099380493164e+00,3.772416591644287109e+00,3.771691560745239258e+00,3.770966768264770508e+00,3.770242214202880859e+00,3.769518375396728516e+00,3.768794298171997070e+00,3.768070697784423828e+00,3.767347097396850586e+00,3.766623973846435547e+00,3.765901088714599609e+00,3.765178918838500977e+00,3.764456510543823242e+00,3.763734579086303711e+00,3.763012886047363281e+00,3.762291431427001953e+00,3.761570215225219727e+00,3.760849714279174805e+00,3.760128974914550781e+00,3.759408473968505859e+00,3.758688449859619141e+00,3.757968664169311523e+00,3.757249116897583008e+00,3.756530046463012695e+00,3.755811214447021484e+00,3.755092382431030273e+00,3.754374027252197266e+00,3.753655672073364258e+00,3.752937793731689453e+00,3.752220630645751953e+00,3.751503229141235352e+00,3.750786066055297852e+00,3.750069379806518555e+00,3.749352693557739258e+00,3.748636484146118164e+00,3.747920989990234375e+00,3.747205257415771484e+00,3.746489763259887695e+00,3.745774507522583008e+00,3.745059728622436523e+00,3.664748191833496094e+00,3.555204391479492188e+00,3.452018976211547852e+00,3.354654550552368164e+00,3.262631416320800781e+00,3.175522327423095703e+00,3.092943906784057617e+00,3.014551162719726562e+00,2.940034389495849609e+00,2.869112253189086914e+00,2.801531314849853516e+00,2.737061023712158203e+00,2.675491333007812500e+00,2.616630554199218750e+00,2.560303688049316406e+00,2.506350994110107422e+00,2.454625129699707031e+00,2.404991149902343750e+00,2.357324838638305664e+00,2.311511039733886719e+00,2.267443895339965820e+00,2.225025892257690430e+00,2.184165716171264648e+00,2.144779205322265625e+00,2.106787919998168945e+00,2.070118904113769531e+00,2.034704923629760742e+00,2.000482082366943359e+00,1.967391490936279297e+00,1.935377717018127441e+00,1.904389023780822754e+00,1.874377131462097168e+00,1.845296382904052734e+00
3.084153652191162109e+00,3.083668947219848633e+00,3.083184719085693359e+00,3.082700490951538086e+00,3.082216262817382812e+00,3.081732034683227539e+00,3.081248283386230469e+00,3.080764532089233398e+00,3.080281019210815430e+00,3.079797744750976562e+00,3.079314470291137695e+00,3.078831195831298828e+00,3.078348159790039062e+00,3.077865362167358398e+00,3.077383041381835938e+00,3.076900482177734375e+00,3.076417922973632812e+00,3.075935840606689453e+00,3.075453519821166992e+00,3.074971675872802734e+00,3.074490070343017578e+00,3.074008464813232422e+00,3.073527097702026367e+00,3.073045730590820312e+00,3.072564363479614258e+00,3.072083711624145508e+00,3.071602821350097656e+00,3.071122169494628906e+00,3.070641517639160156e+00,3.070161104202270508e+00,3.069680690765380859e+00,3.069200992584228516e+00,3.068720817565917969e+00,3.068241119384765625e+00,3.067761421203613281e+00,3.067281961441040039e+00,3.066802501678466797e+00,3.066323518753051758e+00,3.065844535827636719e+00,3.065365552902221680e+00,3.064886808395385742e+00,3.064408063888549805e+00,3.063929796218872070e+00,3.063451528549194336e+00,3.062973499298095703e+00,3.062495470046997070e+00,3.062017440795898438e+00,3.061539649963378906e+00,3.061062097549438477e+00,3.060585021972656250e+00,3.060107707977294922e+00,3.059630632400512695e+00,3.059153556823730469e+00,3.058676719665527344e+00,3.014604806900024414e+00,2.940085411071777344e+00,2.869160890579223633e+00,2.801577806472778320e+00,2.737105369567871094e+00,2.675533533096313477e+00,2.616670846939086914e+00,2.560342550277709961e+00,2.506387948989868164e+00,2.454660654067993164e+00,2.405025243759155273e+00,2.357357740402221680e+00,2.311542510986328125e+00,2.267474412918090820e+00,2.225055217742919922e+00,2.184193849563598633e+00,2.144806146621704102e+00,2.106814146041870117e+00,2.070144176483154297e+00,2.034729242324829102e+00,2.000505685806274414e+00,1.967414379119873047e+00,1.935399770736694336e+00,1.904410481452941895e+00,1.874397873878479004e+00,1.845316529273986816e+00
2.605512142181396484e+00,2.605166196823120117e+00,2.604820489883422852e+00,2.604475021362304688e+00,2.604129314422607422e+00,2.603783607482910156e+00,2.603438138961791992e+00,2.603092908859252930e+00,2.602747678756713867e+00,2.602402687072753906e+00,2.602057456970214844e+00,2.601712465286254883e+00,2.601367712020874023e+00,2.601022720336914062e+00,2.600677967071533203e+00,2.600333690643310547e+00,2.599989175796508789e+00,2.599644660949707031e+00,2.599300384521484375e+00,2.598955869674682617e+00,2.598611831665039062e+00,2.598267793655395508e+00,2.597923994064331055e+00,2.597579956054687500e+00,2.597236156463623047e+00,2.596892356872558594e+00,2.596548795700073242e+00,2.596205472946166992e+00,2.595861911773681641e+00,2.595518589019775391e+00,2.595175266265869141e+00,2.594832181930541992e+00,2.594489097595214844e+00,2.594146251678466797e+00,2.593803405761718750e+00,2.593460559844970703e+00,2.593117952346801758e+00,2.592775106430053711e+00,2.592432737350463867e+00,2.592090368270874023e+00,2.591747999191284180e+00,2.591405868530273438e+00,2.591063499450683594e+00,2.590721607208251953e+00,2.590379476547241211e+00,2.590037822723388672e+00,2.589695930480957031e+00,2.589354276657104492e+00,2.589012622833251953e+00,2.588670969009399414e+00,2.588329553604125977e+00,2.587988376617431641e+00,2.587647199630737305e+00,2.587306022644042969e+00,2.586964845657348633e+00,2.586623907089233398e+00,2.586282968521118164e+00,2.585942268371582031e+00,2.585601568222045898e+00,2.585260868072509766e+00,2.584920406341552734e+00,2.560381174087524414e+00,2.506425142288208008e+00,2.454696416854858398e+00,2.405059337615966797e+00,2.357390403747558594e+00,2.311573982238769531e+00,2.267504692077636719e+00,2.225084304809570312e+00,2.184221982955932617e+00,2.144833326339721680e+00,2.106840133666992188e+00,2.070169448852539062e+00,2.034753799438476562e+00,2.000529289245605469e+00,1.967437148094177246e+00,1.935421824455261230e+00,1.904431819915771484e+00,1.874418616294860840e+00,1.845336675643920898e+00
2.255491256713867188e+00,2.255231380462646484e+00,2.254971504211425781e+00,2.254711866378784180e+00,2.254452228546142578e+00,2.254192590713500977e+00,2.253932952880859375e+00,2.253673553466796875e+00,2.253413915634155273e+00,2.253154754638671875e+00,2.252895355224609375e+00,2.252636194229125977e+00,2.252377033233642578e+00,2.252117633819580078e+00,2.251858711242675781e+00,2.251599788665771484e+00,2.251340866088867188e+00,2.251081943511962891e+00,2.250823020935058594e+00,2.250564098358154297e+00,2.250305414199829102e+00,2.250046730041503906e+00,2.249788284301757812e+00,2.249529838562011719e+00,2.249272108078002930e+00,2.249014139175415039e+00,2.248756408691406250e+00,2.248498678207397461e+00,2.248241186141967773e+00,2.247983694076538086e+00,2.247726202011108398e+00,2.247468709945678711e+00,2.247211456298828125e+00,2.246954202651977539e+00,2.246696949005126953e+00,2.246439695358276367e+00,2.246182680130004883e+00,2.245925664901733398e+00,2.245668411254882812e+00,2.245411396026611328e+00,2.245154619216918945e+00,2.244897842407226562e+00,2.244641065597534180e+00,2.244384288787841797e+00,2.244127750396728516e+00,2.243870973587036133e+00,2.243614673614501953e+00,2.243358135223388672e+00,2.243101596832275391e+00,2.242845296859741211e+00,2.242588996887207031e+00,2.242332696914672852e+00,2.242076635360717773e+00,2.241820573806762695e+00,2.241564512252807617e+00,2.241308450698852539e+00,2.241052389144897461e+00,2.240796566009521484e+00,2.240540742874145508e+00,2.240284919738769531e+00,2.240029335021972656e+00,2.239773511886596680e+00,2.239517927169799805e+00,2.239262342453002930e+00,2.239006996154785156e+00,2.238751411437988281e+00,2.238496065139770508e+00,2.238240718841552734e+00,2.225113630294799805e+00,2.184250116348266602e+00,2.144860506057739258e+00,2.106866359710693359e+00,2.070194721221923828e+00,2.034778118133544922e+00,2.000552892684936523e+00,1.967460036277770996e+00,1.935443997383117676e+00,1.904453277587890625e+00,1.874439239501953125e+00,1.845356702804565430e+00
1.988404631614685059e+00,1.988202691078186035e+00,1.988000750541687012e+00,1.987798929214477539e+00,1.987597107887268066e+00,1.987395286560058594e+00,1.987193346023559570e+00,1.986991643905639648e+00,1.986790060997009277e+00,1.986588358879089355e+00,1.986386895179748535e+00,1.986185312271118164e+00,1.985983848571777344e+00,1.985782384872436523e+00,1.985580921173095703e+00,1.985379576683044434e+00,1.985178232192993164e+00,1.984976768493652344e+00,1.984775543212890625e+00,1.984574317932128906e+00,1.984373092651367188e+00,1.984171986579895020e+00,1.983970880508422852e+00,1.983769893646240234e+00,1.983568906784057617e+00,1.983367919921875000e+00,1.983167052268981934e+00,1.982966184616088867e+00,1.982765316963195801e+00,1.982564330101013184e+00,1.982363462448120117e+00,1.982162833213806152e+00,1.981962084770202637e+00,1.981761455535888672e+00,1.981560945510864258e+00,1.981360316276550293e+00,1.981159806251525879e+00,1.980959415435791016e+00,1.980758905410766602e+00,1.980558514595031738e+00,1.980358004570007324e+00,1.980157613754272461e+00,1.979957342147827148e+00,1.979757189750671387e+00,1.979556918144226074e+00,1.979356765747070312e+00,1.979156732559204102e+00,1.978956580162048340e+00,1.978756546974182129e+00,1.978556632995605469e+00,1.978356599807739258e+00,1.978156447410583496e+00,1.977956652641296387e+00,1.977756857872009277e+00,1.977557063102722168e+00,1.977357268333435059e+00,1.977157592773437500e+00,1.976957917213439941e+00,1.976758241653442383e+00,1.976558685302734375e+00,1.976359128952026367e+00,1.976159691810607910e+00,1.975959897041320801e+00,1.975760459899902344e+00,1.975561141967773438e+00,1.975361824035644531e+00,1.975162506103515625e+00,1.974963188171386719e+00,1.974763989448547363e+00,1.974564790725708008e+00,1.974365711212158203e+00,1.974166512489318848e+00,1.973967552185058594e+00,1.973768234252929688e+00,1.973569273948669434e+00,1.967482686042785645e+00,1.935466051101684570e+00,1.904474616050720215e+00,1.874459981918334961e+00,1.845376849174499512e+00
1.777875423431396484e+00,1.777713894844055176e+00,1.777552485466003418e+00,1.777391076087951660e+00,1.777229785919189453e+00,1.777068376541137695e+00,1.776907205581665039e+00,1.776745915412902832e+00,1.776584625244140625e+00,1.776423454284667969e+00,1.776262044906616211e+00,1.776100873947143555e+00,1.775939822196960449e+00,1.775778651237487793e+00,1.775617599487304688e+00,1.775456547737121582e+00,1.775295615196228027e+00,1.775134563446044922e+00,1.774973630905151367e+00,1.774812698364257812e+00,1.774651885032653809e+00,1.774490952491760254e+00,1.774330019950866699e+00,1.774169206619262695e+00,1.774008393287658691e+00,1.773847699165344238e+00,1.773687005043029785e+00,1.773526310920715332e+00,1.773365616798400879e+00,1.773204922676086426e+00,1.773044347763061523e+00,1.772883772850036621e+00,1.772723317146301270e+00,1.772562623023986816e+00,1.772402048110961914e+00,1.772241592407226562e+00,1.772081255912780762e+00,1.771920800209045410e+00,1.771760463714599609e+00,1.771600127220153809e+00,1.771439790725708008e+00,1.771279573440551758e+00,1.771119236946105957e+00,1.770959019660949707e+00,1.770798683166503906e+00,1.770638465881347656e+00,1.770478367805480957e+00,1.770318269729614258e+00,1.770158171653747559e+00,1.769998073577880859e+00,1.769838094711303711e+00,1.769678115844726562e+00,1.769518136978149414e+00,1.769358277320861816e+00,1.769198298454284668e+00,1.769038200378417969e+00,1.768878459930419922e+00,1.768718600273132324e+00,1.768558859825134277e+00,1.768399000167846680e+00,1.768239378929138184e+00,1.768079638481140137e+00,1.767919898033142090e+00,1.767760276794433594e+00,1.767600655555725098e+00,1.767441153526306152e+00,1.767281413078308105e+00,1.767121791839599609e+00,1.766962289810180664e+00,1.766802906990051270e+00,1.766643404960632324e+00,1.766484022140502930e+00,1.766324639320373535e+00,1.766165256500244141e+00,1.766005992889404297e+00,1.765846610069274902e+00,1.765687346458435059e+00,1.765527963638305664e+00,1.765368819236755371e+00,1.765209674835205078e+00
1.607658982276916504e+00,1.607527017593383789e+00,1.607395052909851074e+00,1.607263088226318359e+00,1.607131004333496094e+00,1.606999039649963379e+00,1.606867194175720215e+00,1.606735229492187500e+00,1.606603384017944336e+00,1.606471538543701172e+00,1.606339693069458008e+00,1.606207966804504395e+00,1.606076121330261230e+00,1.605944395065307617e+00,1.605812668800354004e+00,1.605680823326110840e+00,1.605549097061157227e+00,1.605417490005493164e+00,1.605285882949829102e+00,1.605154156684875488e+00,1.605022549629211426e+00,1.604891061782836914e+00,1.604759454727172852e+00,1.604627966880798340e+00,1.604496359825134277e+00,1.604364871978759766e+00,1.604233264923095703e+00,1.604101896286010742e+00,1.603970408439636230e+00,1.603839039802551270e+00,1.603707671165466309e+00,1.603576302528381348e+00,1.603444933891296387e+00,1.603313565254211426e+00,1.603182315826416016e+00,1.603051066398620605e+00,1.602919816970825195e+00,1.602788329124450684e+00,1.602657198905944824e+00,1.602525949478149414e+00,1.602394819259643555e+00,1.602263689041137695e+00,1.602132558822631836e+00,1.602001428604125977e+00,1.601870298385620117e+00,1.601739287376403809e+00,1.601608276367187500e+00,1.601477265357971191e+00,1.601346015930175781e+00,1.601215124130249023e+00,1.601084113121032715e+00,1.600953221321105957e+00,1.600822329521179199e+00,1.600691437721252441e+00,1.600560545921325684e+00,1.600429654121398926e+00,1.600298881530761719e+00,1.600168108940124512e+00,1.600037336349487305e+00,1.599906325340270996e+00,1.599775552749633789e+00,1.599644899368286133e+00,1.599514126777648926e+00,1.599383473396301270e+00,1.599252820014953613e+00,1.599122166633605957e+00,1.598991632461547852e+00,1.598860979080200195e+00,1.598730444908142090e+00,1.598599910736083984e+00,1.598469257354736328e+00,1.598338723182678223e+00,1.598208189010620117e+00,1.598077774047851562e+00,1.597947359085083008e+00,1.597816824913024902e+00,1.597686529159545898e+00,1.597556114196777344e+00,1.597425699234008789e+00,1.597295403480529785e+00
1.467188239097595215e+00,1.467078208923339844e+00,1.466968297958374023e+00,1.466858386993408203e+00,1.466748476028442383e+00,1.466638565063476562e+00,1.466528773307800293e+00,1.466418862342834473e+00,1.466308951377868652e+00,1.466199040412902832e+00,1.466089248657226562e+00,1.465979456901550293e+00,1.465869665145874023e+00,1.465759992599487305e+00,1.465650200843811035e+00,1.465540528297424316e+00,1.465430855751037598e+00,1.465321063995361328e+00,1.465211391448974609e+00,1.465101599693298340e+00,1.464992046356201172e+00,1.464882373809814453e+00,1.464772820472717285e+00,1.464663147926330566e+00,1.464553594589233398e+00,1.464444041252136230e+00,1.464334487915039062e+00,1.464225053787231445e+00,1.464115500450134277e+00,1.464005947113037109e+00,1.463896393775939941e+00,1.463786959648132324e+00,1.463677525520324707e+00,1.463568091392517090e+00,1.463458657264709473e+00,1.463349223136901855e+00,1.463239908218383789e+00,1.463130474090576172e+00,1.463021159172058105e+00,1.462911844253540039e+00,1.462802529335021973e+00,1.462693095207214355e+00,1.462583899497985840e+00,1.462474584579467773e+00,1.462365388870239258e+00,1.462256073951721191e+00,1.462146878242492676e+00,1.462037682533264160e+00,1.461928486824035645e+00,1.461819410324096680e+00,1.461710214614868164e+00,1.461601138114929199e+00,1.461491823196411133e+00,1.461382746696472168e+00,1.461273670196533203e+00,1.461164593696594238e+00,1.461055517196655273e+00,1.460946559906005859e+00,1.460837483406066895e+00,1.460728526115417480e+00,1.460619568824768066e+00,1.460510492324829102e+00,1.460401654243469238e+00,1.460292577743530273e+00,1.460183620452880859e+00,1.460074663162231445e+00,1.459965825080871582e+00,1.459856986999511719e+00,1.459748148918151855e+00,1.459639310836791992e+00,1.459530472755432129e+00,1.459421634674072266e+00,1.459312796592712402e+00,1.459204077720642090e+00,1.459095358848571777e+00,1.458986401557922363e+00,1.458877682685852051e+00,1.458768963813781738e+00,1.458660364151000977e+00,1.458551645278930664e+00
1.349292516708374023e+00,1.349199414253234863e+00,1.349106431007385254e+00,1.349013447761535645e+00,1.348920464515686035e+00,1.348827481269836426e+00,1.348734617233276367e+00,1.348641633987426758e+00,1.348548769950866699e+00,1.348455905914306641e+00,1.348363041877746582e+00,1.348270177841186523e+00,1.348177194595336914e+00,1.348084330558776855e+00,1.347991585731506348e+00,1.347898721694946289e+00,1.347805976867675781e+00,1.347713112831115723e+00,1.347620368003845215e+00,1.347527623176574707e+00,1.347434878349304199e+00,1.347342133522033691e+00,1.347249388694763184e+00,1.347156643867492676e+00,1.347063899040222168e+00,1.346971273422241211e+00,1.346878528594970703e+00,1.346785902976989746e+00,1.346693277359008789e+00,1.346600651741027832e+00,1.346508026123046875e+00,1.346415400505065918e+00,1.346322774887084961e+00,1.346230268478393555e+00,1.346137523651123047e+00,1.346045017242431641e+00,1.345952510833740234e+00,1.345859885215759277e+00,1.345767378807067871e+00,1.345674872398376465e+00,1.345582365989685059e+00,1.345489978790283203e+00,1.345397472381591797e+00,1.345304965972900391e+00,1.345212578773498535e+00,1.345120072364807129e+00,1.345027565956115723e+00,1.344935178756713867e+00,1.344842791557312012e+00,1.344750404357910156e+00,1.344658017158508301e+00,1.344565749168395996e+00,1.344473361968994141e+00,1.344380974769592285e+00,1.344288706779479980e+00,1.344196438789367676e+00,1.344104051589965820e+00,1.344011783599853516e+00,1.343919515609741211e+00,1.343827247619628906e+00,1.343734979629516602e+00,1.343642711639404297e+00,1.343550562858581543e+00,1.343458294868469238e+00,1.343366146087646484e+00,1.343273997306823730e+00,1.343181729316711426e+00,1.343089580535888672e+00,1.342997431755065918e+00,1.342905282974243164e+00,1.342813134193420410e+00,1.342720985412597656e+00,1.342628955841064453e+00,1.342536926269531250e+00,1.342444777488708496e+00,1.342352747917175293e+00,1.342260718345642090e+00,1.342168688774108887e+00,1.342076659202575684e+00,1.341984629631042480e+00
1.248934388160705566e+00,1.248854756355285645e+00,1.248775124549865723e+00,1.248695492744445801e+00,1.248615860939025879e+00,1.248536109924316406e+00,1.248456478118896484e+00,1.248376846313476562e+00,1.248297214508056641e+00,1.248217701911926270e+00,1.248138070106506348e+00,1.248058557510375977e+00,1.247978925704956055e+00,1.247899413108825684e+00,1.247819900512695312e+00,1.247740268707275391e+00,1.247660756111145020e+00,1.247581243515014648e+00,1.247501730918884277e+00,1.247422218322753906e+00,1.247342705726623535e+00,1.247263193130493164e+00,1.247183799743652344e+00,1.247104287147521973e+00,1.247024893760681152e+00,1.246945500373840332e+00,1.246865987777709961e+00,1.246786594390869141e+00,1.246707081794738770e+00,1.246627807617187500e+00,1.246548414230346680e+00,1.246469020843505859e+00,1.246389627456665039e+00,1.246310353279113770e+00,1.246230959892272949e+00,1.246151566505432129e+00,1.246072292327880859e+00,1.245993018150329590e+00,1.245913624763488770e+00,1.245834350585937500e+00,1.245755076408386230e+00,1.245675802230834961e+00,1.245596528053283691e+00,1.245517253875732422e+00,1.245437979698181152e+00,1.245358824729919434e+00,1.245279550552368164e+00,1.245200395584106445e+00,1.245121121406555176e+00,1.245041966438293457e+00,1.244962692260742188e+00,1.244883537292480469e+00,1.244804382324218750e+00,1.244725227355957031e+00,1.244646072387695312e+00,1.244567036628723145e+00,1.244487881660461426e+00,1.244408726692199707e+00,1.244329690933227539e+00,1.244250535964965820e+00,1.244171500205993652e+00,1.244092345237731934e+00,1.244013309478759766e+00,1.243934273719787598e+00,1.243855237960815430e+00,1.243776202201843262e+00,1.243697166442871094e+00,1.243618130683898926e+00,1.243539214134216309e+00,1.243460178375244141e+00,1.243381142616271973e+00,1.243302226066589355e+00,1.243223190307617188e+00,1.243144273757934570e+00,1.243065357208251953e+00,1.242986440658569336e+00,1.242907404899597168e+00,1.242828607559204102e+00,1.242749691009521484e+00,1.242670774459838867e+00
1.162471771240234375e+00,1.162402749061584473e+00,1.162333726882934570e+00,1.162264823913574219e+00,1.162195801734924316e+00,1.162126779556274414e+00,1.162057757377624512e+00,1.161988854408264160e+00,1.161919832229614258e+00,1.161850810050964355e+00,1.161781907081604004e+00,1.161712884902954102e+00,1.161643981933593750e+00,1.161575078964233398e+00,1.161506175994873047e+00,1.161437273025512695e+00,1.161368370056152344e+00,1.161299467086791992e+00,1.161230564117431641e+00,1.161161661148071289e+00,1.161092758178710938e+00,1.161023855209350586e+00,1.160955071449279785e+00,1.160886168479919434e+00,1.160817384719848633e+00,1.160748481750488281e+00,1.160679697990417480e+00,1.160610914230346680e+00,1.160542011260986328e+00,1.160473227500915527e+00,1.160404443740844727e+00,1.160335659980773926e+00,1.160266876220703125e+00,1.160198092460632324e+00,1.160129308700561523e+00,1.160060524940490723e+00,1.159991860389709473e+00,1.159923076629638672e+00,1.159854412078857422e+00,1.159785628318786621e+00,1.159716963768005371e+00,1.159648299217224121e+00,1.159579515457153320e+00,1.159510850906372070e+00,1.159442186355590820e+00,1.159373521804809570e+00,1.159304857254028320e+00,1.159236192703247070e+00,1.159167528152465820e+00,1.159098863601684570e+00,1.159030318260192871e+00,1.158961653709411621e+00,1.158892989158630371e+00,1.158824443817138672e+00,1.158755779266357422e+00,1.158687233924865723e+00,1.158618569374084473e+00,1.158550024032592773e+00,1.158481478691101074e+00,1.158412933349609375e+00,1.158344388008117676e+00,1.158275842666625977e+00,1.158207297325134277e+00,1.158138871192932129e+00,1.158070325851440430e+00,1.158001780509948730e+00,1.157933235168457031e+00,1.157864809036254883e+00,1.157796263694763184e+00,1.157727837562561035e+00,1.157659411430358887e+00,1.157590866088867188e+00,1.157522439956665039e+00,1.157454013824462891e+00,1.157385587692260742e+00,1.157317161560058594e+00,1.157248616218566895e+00,1.157180309295654297e+00,1.157111883163452148e+00,1.157043457031250000e+00
1.087205529212951660e+00,1.087145209312438965e+00,1.087084770202636719e+00,1.087024450302124023e+00,1.086964011192321777e+00,1.086903691291809082e+00,1.086843371391296387e+00,1.086783051490783691e+00,1.086722731590270996e+00,1.086662411689758301e+00,1.086602091789245605e+00,1.086541771888732910e+00,1.086481451988220215e+00,1.086421132087707520e+00,1.086360812187194824e+00,1.086300492286682129e+00,1.086240291595458984e+00,1.086179971694946289e+00,1.086119651794433594e+00,1.086059451103210449e+00,1.085999250411987305e+00,1.085938930511474609e+00,1.085878729820251465e+00,1.085818529129028320e+00,1.085758209228515625e+00,1.085698008537292480e+00,1.085637807846069336e+00,1.085577607154846191e+00,1.085517406463623047e+00,1.085457205772399902e+00,1.085397005081176758e+00,1.085336804389953613e+00,1.085276722908020020e+00,1.085216522216796875e+00,1.085156321525573730e+00,1.085096240043640137e+00,1.085036039352416992e+00,1.084975838661193848e+00,1.084915757179260254e+00,1.084855675697326660e+00,1.084795475006103516e+00,1.084735393524169922e+00,1.084675312042236328e+00,1.084615230560302734e+00,1.084555149078369141e+00,1.084495067596435547e+00,1.084434986114501953e+00,1.084374785423278809e+00,1.084314703941345215e+00,1.084254741668701172e+00,1.084194660186767578e+00,1.084134578704833984e+00,1.084074616432189941e+00,1.084014534950256348e+00,1.083954572677612305e+00,1.083894491195678711e+00,1.083834528923034668e+00,1.083774566650390625e+00,1.083714485168457031e+00,1.083654522895812988e+00,1.083594441413879395e+00,1.083534479141235352e+00,1.083474516868591309e+00,1.083414554595947266e+00,1.083354592323303223e+00,1.083294630050659180e+00,1.083234786987304688e+00,1.083174824714660645e+00,1.083114862442016602e+00,1.083054900169372559e+00,1.082994937896728516e+00,1.082935094833374023e+00,1.082875132560729980e+00,1.082815289497375488e+00,1.082755327224731445e+00,1.082695484161376953e+00,1.082635641098022461e+00,1.082575678825378418e+00,1.082515835762023926e+00,1.082455992698669434e+00
1.021093130111694336e+00,1.021039843559265137e+00,1.020986557006835938e+00,1.020933389663696289e+00,1.020880103111267090e+00,1.020826816558837891e+00,1.020773530006408691e+00,1.020720362663269043e+00,1.020667076110839844e+00,1.020613908767700195e+00,1.020560741424560547e+00,1.020507574081420898e+00,1.020454287528991699e+00,1.020401120185852051e+00,1.020347952842712402e+00,1.020294785499572754e+00,1.020241618156433105e+00,1.020188331604003906e+00,1.020135164260864258e+00,1.020081996917724609e+00,1.020028948783874512e+00,1.019975781440734863e+00,1.019922614097595215e+00,1.019869446754455566e+00,1.019816398620605469e+00,1.019763231277465820e+00,1.019710063934326172e+00,1.019657015800476074e+00,1.019603848457336426e+00,1.019550681114196777e+00,1.019497632980346680e+00,1.019444584846496582e+00,1.019391417503356934e+00,1.019338369369506836e+00,1.019285321235656738e+00,1.019232273101806641e+00,1.019179224967956543e+00,1.019126176834106445e+00,1.019073128700256348e+00,1.019020080566406250e+00,1.018966913223266602e+00,1.018913865089416504e+00,1.018860936164855957e+00,1.018807888031005859e+00,1.018754839897155762e+00,1.018701791763305664e+00,1.018648862838745117e+00,1.018595814704895020e+00,1.018542766571044922e+00,1.018489837646484375e+00,1.018436789512634277e+00,1.018383860588073730e+00,1.018330812454223633e+00,1.018277883529663086e+00,1.018224954605102539e+00,1.018171906471252441e+00,1.018118977546691895e+00,1.018066048622131348e+00,1.018013119697570801e+00,1.017960190773010254e+00,1.017907261848449707e+00,1.017854332923889160e+00,1.017801284790039062e+00,1.017748475074768066e+00,1.017695546150207520e+00,1.017642617225646973e+00,1.017589688301086426e+00,1.017536878585815430e+00,1.017483949661254883e+00,1.017431020736694336e+00,1.017378211021423340e+00,1.017325282096862793e+00,1.017272472381591797e+00,1.017219543457031250e+00,1.017166733741760254e+00,1.017113804817199707e+00,1.017060995101928711e+00,1.017008185386657715e+00,1.016955375671386719e+00,1.016902446746826172e+00
9.625602960586547852e-01,9.625129103660583496e-01,9.624656438827514648e-01,9.624183177947998047e-01,9.623709917068481445e-01,9.623236656188964844e-01,9.622763991355895996e-01,9.622290730476379395e-01,9.621818065643310547e-01,9.621344804763793945e-01,9.620871543884277344e-01,9.620398879051208496e-01,9.619925618171691895e-01,9.619453549385070801e-01,9.618980288505554199e-01,9.618508219718933105e-01,9.618035554885864258e-01,9.617563486099243164e-01,9.617090225219726562e-01,9.616618752479553223e-01,9.616145491600036621e-01,9.615674018859863281e-01,9.615200757980346680e-01,9.614728093147277832e-01,9.614256620407104492e-01,9.613783955574035645e-01,9.613312482833862305e-01,9.612839818000793457e-01,9.612368345260620117e-01,9.611895680427551270e-01,9.611424803733825684e-01,9.610952138900756836e-01,9.610480666160583496e-01,9.610008597373962402e-01,9.609536528587341309e-01,9.609065055847167969e-01,9.608592987060546875e-01,9.608122110366821289e-01,9.607650041580200195e-01,9.607179164886474609e-01,9.606707096099853516e-01,9.606236219406127930e-01,9.605764150619506836e-01,9.605293273925781250e-01,9.604821801185607910e-01,9.604349732398986816e-01,9.603879451751708984e-01,9.603407382965087891e-01,9.602937102317810059e-01,9.602465629577636719e-01,9.601994752883911133e-01,9.601523280143737793e-01,9.601052999496459961e-01,9.600581526756286621e-01,9.600111842155456543e-01,9.599640369415283203e-01,9.599168896675109863e-01,9.598698616027832031e-01,9.598227739334106445e-01,9.597757458686828613e-01,9.597286581993103027e-01,9.596816897392272949e-01,9.596345424652099609e-01,9.595875740051269531e-01,9.595404863357543945e-01,9.594935178756713867e-01,9.594464302062988281e-01,9.593993425369262695e-01,9.593524336814880371e-01,9.593053460121154785e-01,9.592583775520324707e-01,9.592113494873046875e-01,9.591643810272216797e-01,9.591173529624938965e-01,9.590703845024108887e-01,9.590233564376831055e-01,9.589764475822448730e-01,9.589294195175170898e-01,9.588823914527893066e-01,9.588354825973510742e-01
9.103742241859436035e-01,9.103319644927978516e-01,9.102895855903625488e-01,9.102473258972167969e-01,9.102049469947814941e-01,9.101625680923461914e-01,9.101203083992004395e-01,9.100779294967651367e-01,9.100356698036193848e-01,9.099933505058288574e-01,9.099510908126831055e-01,9.099087715148925781e-01,9.098665118217468262e-01,9.098241925239562988e-01,9.097819328308105469e-01,9.097396135330200195e-01,9.096972942352294922e-01,9.096550941467285156e-01,9.096127748489379883e-01,9.095705151557922363e-01,9.095282554626464844e-01,9.094860553741455078e-01,9.094437360763549805e-01,9.094015359878540039e-01,9.093592166900634766e-01,9.093170166015625000e-01,9.092747569084167480e-01,9.092324972152709961e-01,9.091902971267700195e-01,9.091480374336242676e-01,9.091058373451232910e-01,9.090635776519775391e-01,9.090214371681213379e-01,9.089791774749755859e-01,9.089370369911193848e-01,9.088947772979736328e-01,9.088526368141174316e-01,9.088103771209716797e-01,9.087681770324707031e-01,9.087260365486145020e-01,9.086837768554687500e-01,9.086416363716125488e-01,9.085994362831115723e-01,9.085572957992553711e-01,9.085150957107543945e-01,9.084730148315429688e-01,9.084308147430419922e-01,9.083886742591857910e-01,9.083464741706848145e-01,9.083043336868286133e-01,9.082621932029724121e-01,9.082200527191162109e-01,9.081779718399047852e-01,9.081357717514038086e-01,9.080936908721923828e-01,9.080514907836914062e-01,9.080094695091247559e-01,9.079672694206237793e-01,9.079252481460571289e-01,9.078831076622009277e-01,9.078409075736999512e-01,9.077988862991333008e-01,9.077567458152770996e-01,9.077146649360656738e-01,9.076725244522094727e-01,9.076305031776428223e-01,9.075884222984313965e-01,9.075463414192199707e-01,9.075042605400085449e-01,9.074622392654418945e-01,9.074200987815856934e-01,9.073780179023742676e-01,9.073359966278076172e-01,9.072939157485961914e-01,9.072518944740295410e-01,9.072098135948181152e-01,9.071678519248962402e-01,9.071257710456848145e-01,9.070837497711181641e-01,9.070416688919067383e-01
