5.000000000000000000e+00,5.000000000000000000e+00,5.000000000000000000e+00,5.000000000000000000e+00,5.000000000000000000e+00,5.000000000000000000e+00,5.000000000000000000e+00,5.000000000000000000e+00,5.000000000000000000e+00,5.000000000000000000e+00,5.000000000000000000e+00,5.000000000000000000e+00,1.926262617111206055e+00,1.921982049942016602e+00,1.936143636703491211e+00,1.973307251930236816e+00,1.968534827232360840e+00,1.967531561851501465e+00,1.981156468391418457e+00,1.996842145919799805e+00,2.029484987258911133e+00,2.055088043212890625e+00,2.092300891876220703e+00,2.193392038345336914e+00,2.256271362304687500e+00,5.000000000000000000e+00,5.000000000000000000e+00,5.000000000000000000e+00,5.000000000000000000e+00,5.000000000000000000e+00,5.000000000000000000e+00,5.000000000000000000e+00,5.000000000000000000e+00,5.000000000000000000e+00,5.000000000000000000e+00,5.000000000000000000e+00,5.000000000000000000e+00,5.000000000000000000e+00,5.000000000000000000e+00,5.000000000000000000e+00,4.665245532989501953e+00,4.489184379577636719e+00,4.325928211212158203e+00,4.174129486083984375e+00,4.032623291015625000e+00,3.900397062301635742e+00,3.776566267013549805e+00,3.660356283187866211e+00,3.551085233688354492e+00,3.448148727416992188e+00,3.351011753082275391e+00,3.259197950363159180e+00,3.172280788421630859e+00,3.089879274368286133e+00,3.011650085449218750e+00,2.937284469604492188e+00,2.866503000259399414e+00,2.799052476882934570e+00,2.734703063964843750e+00,2.673246145248413086e+00,2.614490509033203125e+00,2.558262348175048828e+00,2.504401683807373047e+00,2.452762126922607422e+00,2.403209447860717773e+00,2.355619192123413086e+00,2.309876918792724609e+00,2.265877485275268555e+00,2.223522901535034180e+00,2.182722806930541992e+00,2.143392801284790039e+00,2.105455160140991211e+00,2.068837165832519531e+00,2.033471345901489258e+00,1.999294042587280273e+00,1.966246724128723145e+00,1.934273958206176758e+00,1.903324484825134277e+00,1.873349785804748535e+00,1.844304561614990234e+00
5.000000000000000000e+00,5.000000000000000000e+00,5.000000000000000000e+00,5.000000000000000000e+00,5.000000000000000000e+00,5.000000000000000000e+00,5.000000000000000000e+00,5.000000000000000000e+00,5.000000000000000000e+00,5.000000000000000000e+00,5.000000000000000000e+00,5.000000000000000000e+00,1.923580527305603027e+00,1.919607281684875488e+00,1.934863448143005371e+00,1.956804394721984863e+00,1.975060701370239258e+00,1.978273868560791016e+00,1.992564082145690918e+00,2.002327203750610352e+00,2.027266025543212891e+00,2.063097953796386719e+00,2.092479705810546875e+00,2.200167179107666016e+00,2.269244194030761719e+00,5.000000000000000000e+00,5.000000000000000000e+00,5.000000000000000000e+00,5.000000000000000000e+00,5.000000000000000000e+00,5.000000000000000000e+00,5.000000000000000000e+00,5.000000000000000000e+00,5.000000000000000000e+00,5.000000000000000000e+00,5.000000000000000000e+00,5.000000000000000000e+00,5.000000000000000000e+00,5.000000000000000000e+00,4.855820178985595703e+00,4.665374755859375000e+00,4.489303588867187500e+00,4.326039314270019531e+00,4.174232959747314453e+00,4.032720088958740234e+00,3.900487184524536133e+00,3.776650667190551758e+00,3.660435914993286133e+00,3.551160097122192383e+00,3.448219299316406250e+00,3.351078271865844727e+00,3.259260892868041992e+00,3.172340393066406250e+00,3.089935779571533203e+00,3.011703968048095703e+00,2.937335491180419922e+00,2.866551637649536133e+00,2.799098730087280273e+00,2.734747409820556641e+00,2.673288583755493164e+00,2.614531278610229492e+00,2.558301210403442383e+00,2.504438877105712891e+00,2.452797889709472656e+00,2.403243780136108398e+00,2.355652093887329102e+00,2.309908628463745117e+00,2.265907764434814453e+00,2.223552227020263672e+00,2.182750940322875977e+00,2.143419981002807617e+00,2.105481386184692383e+00,2.068862438201904297e+00,2.033495664596557617e+00,1.999317646026611328e+00,1.966269493103027344e+00,1.934296011924743652e+00,1.903345823287963867e+00,1.873370409011840820e+00,1.844324588775634766e+00
5.000000000000000000e+00,5.000000000000000000e+00,5.000000000000000000e+00,5.000000000000000000e+00,5.000000000000000000e+00,5.000000000000000000e+00,5.000000000000000000e+00,5.000000000000000000e+00,5.000000000000000000e+00,5.000000000000000000e+00,5.000000000000000000e+00,5.000000000000000000e+00,1.921883583068847656e+00,1.917648196220397949e+00,1.930562496185302734e+00,1.949436545372009277e+00,1.982873558998107910e+00,1.982903242111206055e+00,1.991668820381164551e+00,2.003961086273193359e+00,2.019093990325927734e+00,2.055430173873901367e+00,2.100524425506591797e+00,2.185342550277709961e+00,2.287376165390014648e+00,5.000000000000000000e+00,5.000000000000000000e+00,5.000000000000000000e+00,5.000000000000000000e+00,5.000000000000000000e+00,5.000000000000000000e+00,5.000000000000000000e+00,5.000000000000000000e+00,5.000000000000000000e+00,5.000000000000000000e+00,5.000000000000000000e+00,5.000000000000000000e+00,5.000000000000000000e+00,5.000000000000000000e+00,4.855960369110107422e+00,4.665503501892089844e+00,4.489423274993896484e+00,4.326150417327880859e+00,4.174336433410644531e+00,4.032815933227539062e+00,3.900577306747436523e+00,3.776735305786132812e+00,3.660515308380126953e+00,3.551234483718872070e+00,3.448289871215820312e+00,3.351145029067993164e+00,3.259323835372924805e+00,3.172400236129760742e+00,3.089992523193359375e+00,3.011757612228393555e+00,2.937386751174926758e+00,2.866600275039672852e+00,2.799145221710205078e+00,2.734791755676269531e+00,2.673330783843994141e+00,2.614571809768676758e+00,2.558340072631835938e+00,2.504476070404052734e+00,2.452833652496337891e+00,2.403277635574340820e+00,2.355684995651245117e+00,2.309940338134765625e+00,2.265938282012939453e+00,2.223581552505493164e+00,2.182779312133789062e+00,2.143447399139404297e+00,2.105507850646972656e+00,2.068887710571289062e+00,2.033520221710205078e+00,1.999341368675231934e+00,1.966292619705200195e+00,1.934318304061889648e+00,1.903367400169372559e+00,1.873391389846801758e+00,1.844344973564147949e+00
5.000000000000000000e+00,5.000000000000000000e+00,5.000000000000000000e+00,5.000000000000000000e+00,5.000000000000000000e+00,5.000000000000000000e+00,5.000000000000000000e+00,5.000000000000000000e+00,5.000000000000000000e+00,5.000000000000000000e+00,5.000000000000000000e+00,5.000000000000000000e+00,1.923630595207214355e+00,1.917613267898559570e+00,1.929003834724426270e+00,1.950536251068115234e+00,1.989565134048461914e+00,1.985850930213928223e+00,1.989737987518310547e+00,2.002171516418457031e+00,2.022119760513305664e+00,2.052586555480957031e+00,2.101155042648315430e+00,2.256227970123291016e+00,2.306040287017822266e+00,5.000000000000000000e+00,5.000000000000000000e+00,5.000000000000000000e+00,5.000000000000000000e+00,5.000000000000000000e+00,5.000000000000000000e+00,5.000000000000000000e+00,5.000000000000000000e+00,5.000000000000000000e+00,5.000000000000000000e+00,5.000000000000000000e+00,5.000000000000000000e+00,5.000000000000000000e+00,5.000000000000000000e+00,4.856100082397460938e+00,4.665632724761962891e+00,4.489542961120605469e+00,4.326261043548583984e+00,4.174439430236816406e+00,4.032912731170654297e+00,3.900667667388916016e+00,3.776819944381713867e+00,3.660594701766967773e+00,3.551309347152709961e+00,3.448360204696655273e+00,3.351211547851562500e+00,3.259386777877807617e+00,3.172459840774536133e+00,3.090049028396606445e+00,3.011811494827270508e+00,2.937438011169433594e+00,2.866648912429809570e+00,2.799191713333129883e+00,2.734836101531982422e+00,2.673373222351074219e+00,2.614612340927124023e+00,2.558378696441650391e+00,2.504513263702392578e+00,2.452869176864624023e+00,2.403311967849731445e+00,2.355717897415161133e+00,2.309971809387207031e+00,2.265968799591064453e+00,2.223610877990722656e+00,2.182807445526123047e+00,2.143474578857421875e+00,2.105534076690673828e+00,2.068913221359252930e+00,2.033544778823852539e+00,1.999364972114562988e+00,1.966315388679504395e+00,1.934340357780456543e+00,1.903388857841491699e+00,1.873412132263183594e+00,1.844365000724792480e+00
5.000000000000000000e+00,5.000000000000000000e+00,5.000000000000000000e+00,5.000000000000000000e+00,5.000000000000000000e+00,5.000000000000000000e+00,5.000000000000000000e+00,5.000000000000000000e+00,5.000000000000000000e+00,5.000000000000000000e+00,5.000000000000000000e+00,5.000000000000000000e+00,1.926892161369323730e+00,1.917150139808654785e+00,1.928694367408752441e+00,1.967537283897399902e+00,1.996211528778076172e+00,1.988011360168457031e+00,1.993479609489440918e+00,2.005802154541015625e+00,2.025642395019531250e+00,2.054677009582519531e+00,2.095007896423339844e+00,2.256055355072021484e+00,2.324738740921020508e+00,5.000000000000000000e+00,5.000000000000000000e+00,5.000000000000000000e+00,5.000000000000000000e+00,5.000000000000000000e+00,5.000000000000000000e+00,5.000000000000000000e+00,5.000000000000000000e+00,5.000000000000000000e+00,5.000000000000000000e+00,5.000000000000000000e+00,5.000000000000000000e+00,5.000000000000000000e+00,5.000000000000000000e+00,4.856239795684814453e+00,4.665761470794677734e+00,4.489662170410156250e+00,4.326372146606445312e+00,4.174542903900146484e+00,4.033009052276611328e+00,3.900757789611816406e+00,3.776904582977294922e+00,3.660674333572387695e+00,3.551384210586547852e+00,3.448430776596069336e+00,3.351278305053710938e+00,3.259449720382690430e+00,3.172519445419311523e+00,3.090105772018432617e+00,3.011865377426147461e+00,2.937489032745361328e+00,2.866697549819946289e+00,2.799238204956054688e+00,2.734880447387695312e+00,2.673415660858154297e+00,2.614652872085571289e+00,2.558417558670043945e+00,2.504550457000732422e+00,2.452904939651489258e+00,2.403346300125122070e+00,2.355750799179077148e+00,2.310003519058227539e+00,2.265999317169189453e+00,2.223640203475952148e+00,2.182835817337036133e+00,2.143501758575439453e+00,2.105560302734375000e+00,2.068938493728637695e+00,2.033569335937500000e+00,1.999388813972473145e+00,1.966338396072387695e+00,1.934362649917602539e+00,1.903410434722900391e+00,1.873432993888854980e+00,1.844385266304016113e+00
5.000000000000000000e+00,5.000000000000000000e+00,5.000000000000000000e+00,5.000000000000000000e+00,5.000000000000000000e+00,5.000000000000000000e+00,5.000000000000000000e+00,5.000000000000000000e+00,5.000000000000000000e+00,5.000000000000000000e+00,5.000000000000000000e+00,5.000000000000000000e+00,1.924029350280761719e+00,1.915353059768676758e+00,1.934759974479675293e+00,1.982846379280090332e+00,1.985725879669189453e+00,1.979238748550415039e+00,1.984457850456237793e+00,1.999709963798522949e+00,2.031175136566162109e+00,2.058641195297241211e+00,2.100990295410156250e+00,2.255882740020751953e+00,5.000000000000000000e+00,5.000000000000000000e+00,5.000000000000000000e+00,5.000000000000000000e+00,5.000000000000000000e+00,5.000000000000000000e+00,5.000000000000000000e+00,5.000000000000000000e+00,5.000000000000000000e+00,5.000000000000000000e+00,5.000000000000000000e+00,5.000000000000000000e+00,5.000000000000000000e+00,5.000000000000000000e+00,5.000000000000000000e+00,4.856379508972167969e+00,4.665890693664550781e+00,4.489781856536865234e+00,4.326483249664306641e+00,4.174646377563476562e+00,4.033105373382568359e+00,3.900848150253295898e+00,3.776989221572875977e+00,3.660753726959228516e+00,3.551458835601806641e+00,3.448501348495483398e+00,3.351344823837280273e+00,3.259512901306152344e+00,3.172579288482666016e+00,3.090162277221679688e+00,3.011919021606445312e+00,2.937540292739868164e+00,2.866746425628662109e+00,2.799284696578979492e+00,2.734924793243408203e+00,2.673458099365234375e+00,2.614693403244018555e+00,2.558456420898437500e+00,2.504587650299072266e+00,2.452940702438354492e+00,2.403380632400512695e+00,2.355783700942993164e+00,2.310035228729248047e+00,2.266029596328735352e+00,2.223669528961181641e+00,2.182863950729370117e+00,2.143528938293457031e+00,2.105586528778076172e+00,2.068964004516601562e+00,2.033593893051147461e+00,1.999412417411804199e+00,1.966361284255981445e+00,1.934384822845458984e+00,1.903431773185729980e+00,1.873453736305236816e+00,1.844405412673950195e+00
5.000000000000000000e+00,5.000000000000000000e+00,5.000000000000000000e+00,5.000000000000000000e+00,5.000000000000000000e+00,5.000000000000000000e+00,5.000000000000000000e+00,5.000000000000000000e+00,5.000000000000000000e+00,5.000000000000000000e+00,5.000000000000000000e+00,5.000000000000000000e+00,1.924500703811645508e+00,1.892079710960388184e+00,1.902818560600280762e+00,1.994814276695251465e+00,1.981926918029785156e+00,1.973753690719604492e+00,1.978571534156799316e+00,1.995414018630981445e+00,2.021003007888793945e+00,2.056003332138061523e+00,2.091377496719360352e+00,2.269061326980590820e+00,5.000000000000000000e+00,5.000000000000000000e+00,5.000000000000000000e+00,5.000000000000000000e+00,5.000000000000000000e+00,5.000000000000000000e+00,5.000000000000000000e+00,5.000000000000000000e+00,5.000000000000000000e+00,5.000000000000000000e+00,5.000000000000000000e+00,5.000000000000000000e+00,5.000000000000000000e+00,5.000000000000000000e+00,5.000000000000000000e+00,4.856519699096679688e+00,4.666019916534423828e+00,4.489901542663574219e+00,4.326594352722167969e+00,4.174749851226806641e+00,4.033201694488525391e+00,3.900938272476196289e+00,3.777073860168457031e+00,3.660833120346069336e+00,3.551533699035644531e+00,3.448571920394897461e+00,3.351411342620849609e+00,3.259575843811035156e+00,3.172638893127441406e+00,3.090219020843505859e+00,3.011972904205322266e+00,2.937591552734375000e+00,2.866795063018798828e+00,2.799331188201904297e+00,2.734969139099121094e+00,2.673500299453735352e+00,2.614733934402465820e+00,2.558495283126831055e+00,2.504624843597412109e+00,2.452976226806640625e+00,2.403414726257324219e+00,2.355816602706909180e+00,2.310066699981689453e+00,2.266060113906860352e+00,2.223698854446411133e+00,2.182892322540283203e+00,2.143556356430053711e+00,2.105612993240356445e+00,2.068989276885986328e+00,2.033618450164794922e+00,1.999436259269714355e+00,1.966384291648864746e+00,1.934407114982604980e+00,1.903453350067138672e+00,1.873474597930908203e+00,1.844425678253173828e+00
5.000000000000000000e+00,5.000000000000000000e+00,5.000000000000000000e+00,5.000000000000000000e+00,5.000000000000000000e+00,5.000000000000000000e+00,5.000000000000000000e+00,5.000000000000000000e+00,5.000000000000000000e+00,5.000000000000000000e+00,5.000000000000000000e+00,5.000000000000000000e+00,5.000000000000000000e+00,1.874301910400390625e+00,1.876819491386413574e+00,1.913875341415405273e+00,1.975523471832275391e+00,1.982308626174926758e+00,1.990637421607971191e+00,2.007616758346557617e+00,2.017624378204345703e+00,2.048157453536987305e+00,2.086261034011840820e+00,2.285068035125732422e+00,5.000000000000000000e+00,5.000000000000000000e+00,5.000000000000000000e+00,5.000000000000000000e+00,5.000000000000000000e+00,5.000000000000000000e+00,5.000000000000000000e+00,5.000000000000000000e+00,5.000000000000000000e+00,5.000000000000000000e+00,5.000000000000000000e+00,5.000000000000000000e+00,5.000000000000000000e+00,5.000000000000000000e+00,5.000000000000000000e+00,4.856659412384033203e+00,4.666149139404296875e+00,4.490021228790283203e+00,4.326705455780029297e+00,4.174853324890136719e+00,4.033298492431640625e+00,3.901028633117675781e+00,3.777158260345458984e+00,3.660912752151489258e+00,3.551608562469482422e+00,3.448642492294311523e+00,3.351478099822998047e+00,3.259638786315917969e+00,3.172698736190795898e+00,3.090275526046752930e+00,3.012026786804199219e+00,2.937642574310302734e+00,2.866843938827514648e+00,2.799377679824829102e+00,2.735013484954833984e+00,2.673542737960815430e+00,2.614774465560913086e+00,2.558534145355224609e+00,2.504662036895751953e+00,2.453011989593505859e+00,2.403449058532714844e+00,2.355849504470825195e+00,2.310098409652709961e+00,2.266090631484985352e+00,2.223728179931640625e+00,2.182920455932617188e+00,2.143583536148071289e+00,2.105639219284057617e+00,2.069014787673950195e+00,2.033643007278442383e+00,1.999459862709045410e+00,1.966407060623168945e+00,1.934429168701171875e+00,1.903474688529968262e+00,1.873495340347290039e+00,1.844445705413818359e+00
5.000000000000000000e+00,5.000000000000000000e+00,5.000000000000000000e+00,5.000000000000000000e+00,5.000000000000000000e+00,5.000000000000000000e+00,5.000000000000000000e+00,5.000000000000000000e+00,5.000000000000000000e+00,5.000000000000000000e+00,5.000000000000000000e+00,5.000000000000000000e+00,5.000000000000000000e+00,1.869163632392883301e+00,1.862241983413696289e+00,1.884603857994079590e+00,1.969769716262817383e+00,1.979490160942077637e+00,1.989844799041748047e+00,2.007769346237182617e+00,2.027627229690551758e+00,2.058686733245849609e+00,2.114542484283447266e+00,2.300813674926757812e+00,5.000000000000000000e+00,5.000000000000000000e+00,5.000000000000000000e+00,5.000000000000000000e+00,5.000000000000000000e+00,5.000000000000000000e+00,5.000000000000000000e+00,5.000000000000000000e+00,5.000000000000000000e+00,5.000000000000000000e+00,5.000000000000000000e+00,5.000000000000000000e+00,5.000000000000000000e+00,5.000000000000000000e+00,5.000000000000000000e+00,4.856799602508544922e+00,4.666278362274169922e+00,4.490140438079833984e+00,4.326816082000732422e+00,4.174956321716308594e+00,4.033394813537597656e+00,3.901118755340576172e+00,3.777242898941040039e+00,3.660992145538330078e+00,3.551683425903320312e+00,3.448713064193725586e+00,3.351544618606567383e+00,3.259701967239379883e+00,3.172758340835571289e+00,3.090332269668579102e+00,3.012080430984497070e+00,2.937693834304809570e+00,2.866892576217651367e+00,2.799424171447753906e+00,2.735057830810546875e+00,2.673585176467895508e+00,2.614814996719360352e+00,2.558573007583618164e+00,2.504699230194091797e+00,2.453047752380371094e+00,2.403483390808105469e+00,2.355882406234741211e+00,2.310130119323730469e+00,2.266120910644531250e+00,2.223757505416870117e+00,2.182948827743530273e+00,2.143610715866088867e+00,2.105665445327758789e+00,2.069040060043334961e+00,2.033667325973510742e+00,1.999483704566955566e+00,1.966430187225341797e+00,1.934451460838317871e+00,1.903496384620666504e+00,1.873516321182250977e+00,1.844465970993041992e+00
5.000000000000000000e+00,5.000000000000000000e+00,5.000000000000000000e+00,5.000000000000000000e+00,5.000000000000000000e+00,5.000000000000000000e+00,5.000000000000000000e+00,5.000000000000000000e+00,5.000000000000000000e+00,5.000000000000000000e+00,5.000000000000000000e+00,5.000000000000000000e+00,5.000000000000000000e+00,5.000000000000000000e+00,1.842226862907409668e+00,1.849629521369934082e+00,1.969988226890563965e+00,1.981097579002380371e+00,1.993037462234497070e+00,2.011090993881225586e+00,2.034276962280273438e+00,2.071063518524169922e+00,2.116142749786376953e+00,2.292467594146728516e+00,5.000000000000000000e+00,5.000000000000000000e+00,5.000000000000000000e+00,5.000000000000000000e+00,5.000000000000000000e+00,5.000000000000000000e+00,5.000000000000000000e+00,5.000000000000000000e+00,5.000000000000000000e+00,5.000000000000000000e+00,5.000000000000000000e+00,5.000000000000000000e+00,5.000000000000000000e+00,5.000000000000000000e+00,5.000000000000000000e+00,4.856939315795898438e+00,4.666407108306884766e+00,4.490260124206542969e+00,4.326927185058593750e+00,4.175059795379638672e+00,4.033491134643554688e+00,3.901209115982055664e+00,3.777327537536621094e+00,3.661071538925170898e+00,3.551758050918579102e+00,3.448783397674560547e+00,3.351611375808715820e+00,3.259764909744262695e+00,3.172817945480346680e+00,3.090388774871826172e+00,3.012134313583374023e+00,2.937745094299316406e+00,2.866941452026367188e+00,2.799470663070678711e+00,2.735102176666259766e+00,2.673627614974975586e+00,2.614855527877807617e+00,2.558611631393432617e+00,2.504736423492431641e+00,2.453083276748657227e+00,2.403517484664916992e+00,2.355915307998657227e+00,2.310161828994750977e+00,2.266151428222656250e+00,2.223786830902099609e+00,2.182976961135864258e+00,2.143638134002685547e+00,2.105691909790039062e+00,2.069065570831298828e+00,2.033691883087158203e+00,1.999507308006286621e+00,1.966452956199645996e+00,1.934473514556884766e+00,1.903517723083496094e+00,1.873536944389343262e+00,1.844485998153686523e+00
5.000000000000000000e+00,5.000000000000000000e+00,5.000000000000000000e+00,5.000000000000000000e+00,5.000000000000000000e+00,5.000000000000000000e+00,5.000000000000000000e+00,5.000000000000000000e+00,5.000000000000000000e+00,5.000000000000000000e+00,5.000000000000000000e+00,5.000000000000000000e+00,5.000000000000000000e+00,5.000000000000000000e+00,1.834086298942565918e+00,1.841853976249694824e+00,1.971680164337158203e+00,1.983701348304748535e+00,2.004418849945068359e+00,2.035612821578979492e+00,2.035999536514282227e+00,2.094923734664916992e+00,2.124114990234375000e+00,2.282274007797241211e+00,5.000000000000000000e+00,5.000000000000000000e+00,5.000000000000000000e+00,5.000000000000000000e+00,5.000000000000000000e+00,5.000000000000000000e+00,5.000000000000000000e+00,5.000000000000000000e+00,5.000000000000000000e+00,5.000000000000000000e+00,5.000000000000000000e+00,5.000000000000000000e+00,5.000000000000000000e+00,5.000000000000000000e+00,5.000000000000000000e+00,4.857079029083251953e+00,4.666536331176757812e+00,4.490379810333251953e+00,4.327038288116455078e+00,4.175163269042968750e+00,4.033587932586669922e+00,3.901299476623535156e+00,3.777412176132202148e+00,3.661151170730590820e+00,3.551832914352416992e+00,3.448853969573974609e+00,3.351677894592285156e+00,3.259827852249145508e+00,3.172877788543701172e+00,3.090445518493652344e+00,3.012188196182250977e+00,2.937796115875244141e+00,2.866990089416503906e+00,2.799517154693603516e+00,2.735146760940551758e+00,2.673670053482055664e+00,2.614896059036254883e+00,2.558650493621826172e+00,2.504773616790771484e+00,2.453119039535522461e+00,2.403551816940307617e+00,2.355948209762573242e+00,2.310193300247192383e+00,2.266181945800781250e+00,2.223816156387329102e+00,2.183005332946777344e+00,2.143665313720703125e+00,2.105718135833740234e+00,2.069090843200683594e+00,2.033716440200805664e+00,1.999531149864196777e+00,1.966476082801818848e+00,1.934495806694030762e+00,1.903539299964904785e+00,1.873557925224304199e+00,1.844506382942199707e+00
5.000000000000000000e+00,5.000000000000000000e+00,5.000000000000000000e+00,5.000000000000000000e+00,5.000000000000000000e+00,5.000000000000000000e+00,5.000000000000000000e+00,5.000000000000000000e+00,5.000000000000000000e+00,5.000000000000000000e+00,5.000000000000000000e+00,5.000000000000000000e+00,5.000000000000000000e+00,5.000000000000000000e+00,1.819388270378112793e+00,1.811195135116577148e+00,1.832719445228576660e+00,1.987062335014343262e+00,2.006254196166992188e+00,2.058608293533325195e+00,2.063433885574340820e+00,2.062029123306274414e+00,2.060962915420532227e+00,2.099152803421020508e+00,5.000000000000000000e+00,5.000000000000000000e+00,5.000000000000000000e+00,5.000000000000000000e+00,5.000000000000000000e+00,5.000000000000000000e+00,5.000000000000000000e+00,5.000000000000000000e+00,5.000000000000000000e+00,5.000000000000000000e+00,5.000000000000000000e+00,5.000000000000000000e+00,5.000000000000000000e+00,5.000000000000000000e+00,5.000000000000000000e+00,4.857219219207763672e+00,4.666665554046630859e+00,4.490499019622802734e+00,4.327149391174316406e+00,4.175266742706298828e+00,4.033684253692626953e+00,3.901389598846435547e+00,3.777496814727783203e+00,3.661230564117431641e+00,3.551907777786254883e+00,3.448924303054809570e+00,3.351744413375854492e+00,3.259891033172607422e+00,3.172937393188476562e+00,3.090502262115478516e+00,3.012241840362548828e+00,2.937847375869750977e+00,2.867038965225219727e+00,2.799563407897949219e+00,2.735191106796264648e+00,2.673712491989135742e+00,2.614936590194702148e+00,2.558689355850219727e+00,2.504811048507690430e+00,2.453154802322387695e+00,2.403586149215698242e+00,2.355981111526489258e+00,2.310225009918212891e+00,2.266212463378906250e+00,2.223845481872558594e+00,2.183033466339111328e+00,2.143692493438720703e+00,2.105744361877441406e+00,2.069116353988647461e+00,2.033740997314453125e+00,1.999554634094238281e+00,1.966498851776123047e+00,1.934517979621887207e+00,1.903560757637023926e+00,1.873578667640686035e+00,1.844526410102844238e+00
5.000000000000000000e+00,5.000000000000000000e+00,5.000000000000000000e+00,5.000000000000000000e+00,5.000000000000000000e+00,5.000000000000000000e+00,5.000000000000000000e+00,5.000000000000000000e+00,5.000000000000000000e+00,5.000000000000000000e+00,5.000000000000000000e+00,5.000000000000000000e+00,5.000000000000000000e+00,5.000000000000000000e+00,1.807496190071105957e+00,1.791056394577026367e+00,1.793207406997680664e+00,1.825117349624633789e+00,2.004207849502563477e+00,2.066424369812011719e+00,2.054984569549560547e+00,2.033355951309204102e+00,2.041115045547485352e+00,2.049265384674072266e+00,2.138521432876586914e+00,5.000000000000000000e+00,5.000000000000000000e+00,5.000000000000000000e+00,5.000000000000000000e+00,5.000000000000000000e+00,5.000000000000000000e+00,5.000000000000000000e+00,5.000000000000000000e+00,5.000000000000000000e+00,5.000000000000000000e+00,5.000000000000000000e+00,5.000000000000000000e+00,5.000000000000000000e+00,5.000000000000000000e+00,4.857358932495117188e+00,4.666794776916503906e+00,4.490618705749511719e+00,4.327260494232177734e+00,4.175370216369628906e+00,4.033781051635742188e+00,3.901479959487915039e+00,3.777581453323364258e+00,3.661310195922851562e+00,3.551982641220092773e+00,3.448994636535644531e+00,3.351811170578002930e+00,3.259953975677490234e+00,3.172997236251831055e+00,3.090558767318725586e+00,3.012295722961425781e+00,2.937898635864257812e+00,2.867087602615356445e+00,2.799609899520874023e+00,2.735235452651977539e+00,2.673754692077636719e+00,2.614977121353149414e+00,2.558728218078613281e+00,2.504848241806030273e+00,2.453190326690673828e+00,2.403620243072509766e+00,2.356014013290405273e+00,2.310256719589233398e+00,2.266242980957031250e+00,2.223874807357788086e+00,2.183061838150024414e+00,2.143719673156738281e+00,2.105770826339721680e+00,2.069141626358032227e+00,2.033765316009521484e+00,1.999578475952148438e+00,1.966521859169006348e+00,1.934540271759033203e+00,1.903582334518432617e+00,1.873599529266357422e+00,1.844546675682067871e+00
5.000000000000000000e+00,5.000000000000000000e+00,5.000000000000000000e+00,5.000000000000000000e+00,5.000000000000000000e+00,5.000000000000000000e+00,5.000000000000000000e+00,5.000000000000000000e+00,5.000000000000000000e+00,5.000000000000000000e+00,5.000000000000000000e+00,5.000000000000000000e+00,5.000000000000000000e+00,5.000000000000000000e+00,1.802515149116516113e+00,1.776783943176269531e+00,1.777095437049865723e+00,1.809087395668029785e+00,2.006306409835815430e+00,2.068032026290893555e+00,2.052173614501953125e+00,2.029315710067749023e+00,2.028538227081298828e+00,2.037500858306884766e+00,2.092967033386230469e+00,5.000000000000000000e+00,5.000000000000000000e+00,5.000000000000000000e+00,5.000000000000000000e+00,5.000000000000000000e+00,5.000000000000000000e+00,5.000000000000000000e+00,5.000000000000000000e+00,5.000000000000000000e+00,5.000000000000000000e+00,5.000000000000000000e+00,5.000000000000000000e+00,5.000000000000000000e+00,5.000000000000000000e+00,4.857499122619628906e+00,4.666923999786376953e+00,4.490738391876220703e+00,4.327371597290039062e+00,4.175473213195800781e+00,4.033877372741699219e+00,3.901570081710815430e+00,3.777666091918945312e+00,3.661389589309692383e+00,3.552057504653930664e+00,3.449065208435058594e+00,3.351877689361572266e+00,3.260016918182373047e+00,3.173056840896606445e+00,3.090615510940551758e+00,3.012349605560302734e+00,2.937949657440185547e+00,2.867136240005493164e+00,2.799656391143798828e+00,2.735279798507690430e+00,2.673797130584716797e+00,2.615017652511596680e+00,2.558767080307006836e+00,2.504885435104370117e+00,2.453226089477539062e+00,2.403654575347900391e+00,2.356046915054321289e+00,2.310288429260253906e+00,2.266273260116577148e+00,2.223904132843017578e+00,2.183089971542358398e+00,2.143747091293334961e+00,2.105797052383422852e+00,2.069167137145996094e+00,2.033789873123168945e+00,1.999602079391479492e+00,1.966544747352600098e+00,1.934562325477600098e+00,1.903603672981262207e+00,1.873620271682739258e+00,1.844566822052001953e+00
5.000000000000000000e+00,5.000000000000000000e+00,5.000000000000000000e+00,5.000000000000000000e+00,5.000000000000000000e+00,5.000000000000000000e+00,5.000000000000000000e+00,5.000000000000000000e+00,5.000000000000000000e+00,5.000000000000000000e+00,5.000000000000000000e+00,5.000000000000000000e+00,5.000000000000000000e+00,5.000000000000000000e+00,1.796088695526123047e+00,1.778819799423217773e+00,1.989071726799011230e+00,1.766801595687866211e+00,2.013661861419677734e+00,2.076541185379028320e+00,2.058820486068725586e+00,2.028981447219848633e+00,2.014451742172241211e+00,2.025870561599731445e+00,2.052616357803344727e+00,5.000000000000000000e+00,5.000000000000000000e+00,5.000000000000000000e+00,5.000000000000000000e+00,5.000000000000000000e+00,5.000000000000000000e+00,5.000000000000000000e+00,5.000000000000000000e+00,5.000000000000000000e+00,5.000000000000000000e+00,5.000000000000000000e+00,5.000000000000000000e+00,5.000000000000000000e+00,5.000000000000000000e+00,4.857638835906982422e+00,4.667053222656250000e+00,4.490858078002929688e+00,4.327482700347900391e+00,4.175576686859130859e+00,4.033973693847656250e+00,3.901660442352294922e+00,3.777750730514526367e+00,3.661469221115112305e+00,3.552132368087768555e+00,3.449135780334472656e+00,3.351944446563720703e+00,3.260080099105834961e+00,3.173116683959960938e+00,3.090672016143798828e+00,3.012403249740600586e+00,2.938000917434692383e+00,2.867185115814208984e+00,2.799702882766723633e+00,2.735324144363403320e+00,2.673839569091796875e+00,2.615058183670043945e+00,2.558805942535400391e+00,2.504922628402709961e+00,2.453261852264404297e+00,2.403688907623291016e+00,2.356079816818237305e+00,2.310320138931274414e+00,2.266303777694702148e+00,2.223933458328247070e+00,2.183118343353271484e+00,2.143774271011352539e+00,2.105823278427124023e+00,2.069192409515380859e+00,2.033814430236816406e+00,1.999625921249389648e+00,1.966567754745483398e+00,1.934584617614746094e+00,1.903625249862670898e+00,1.873641133308410645e+00,1.844587087631225586e+00
5.000000000000000000e+00,5.000000000000000000e+00,5.000000000000000000e+00,5.000000000000000000e+00,5.000000000000000000e+00,5.000000000000000000e+00,5.000000000000000000e+00,5.000000000000000000e+00,5.000000000000000000e+00,5.000000000000000000e+00,5.000000000000000000e+00,5.000000000000000000e+00,5.000000000000000000e+00,5.000000000000000000e+00,2.038536787033081055e+00,1.762082934379577637e+00,1.998972535133361816e+00,2.010874032974243164e+00,2.028013706207275391e+00,5.000000000000000000e+00,2.072435855865478516e+00,2.028647184371948242e+00,2.004288673400878906e+00,2.010872125625610352e+00,2.022630929946899414e+00,5.000000000000000000e+00,5.000000000000000000e+00,5.000000000000000000e+00,5.000000000000000000e+00,5.000000000000000000e+00,5.000000000000000000e+00,5.000000000000000000e+00,5.000000000000000000e+00,5.000000000000000000e+00,5.000000000000000000e+00,5.000000000000000000e+00,5.000000000000000000e+00,5.000000000000000000e+00,5.000000000000000000e+00,4.857779026031494141e+00,4.667182445526123047e+00,4.490977287292480469e+00,4.327593803405761719e+00,4.175680160522460938e+00,4.034070491790771484e+00,3.901750802993774414e+00,3.777835369110107422e+00,3.661548614501953125e+00,3.552206993103027344e+00,3.449206352233886719e+00,3.352010965347290039e+00,3.260143041610717773e+00,3.173176288604736328e+00,3.090728759765625000e+00,3.012457132339477539e+00,2.938052177429199219e+00,2.867233753204345703e+00,2.799749374389648438e+00,2.735368490219116211e+00,2.673882007598876953e+00,2.615098953247070312e+00,2.558844804763793945e+00,2.504959821701049805e+00,2.453297615051269531e+00,2.403723239898681641e+00,2.356112718582153320e+00,2.310351610183715820e+00,2.266334295272827148e+00,2.223962783813476562e+00,2.183146715164184570e+00,2.143801450729370117e+00,2.105849504470825195e+00,2.069217920303344727e+00,2.033838987350463867e+00,1.999649524688720703e+00,1.966590642929077148e+00,1.934606671333312988e+00,1.903646707534790039e+00,1.873661875724792480e+00,1.844607114791870117e+00
5.000000000000000000e+00,5.000000000000000000e+00,5.000000000000000000e+00,5.000000000000000000e+00,5.000000000000000000e+00,5.000000000000000000e+00,5.000000000000000000e+00,5.000000000000000000e+00,5.000000000000000000e+00,5.000000000000000000e+00,5.000000000000000000e+00,5.000000000000000000e+00,5.000000000000000000e+00,5.000000000000000000e+00,2.054787635803222656e+00,2.012850999832153320e+00,2.009789466857910156e+00,2.020884037017822266e+00,2.046131849288940430e+00,5.000000000000000000e+00,5.000000000000000000e+00,2.028313159942626953e+00,2.002731084823608398e+00,1.996595621109008789e+00,2.008936405181884766e+00,2.056978940963745117e+00,5.000000000000000000e+00,5.000000000000000000e+00,5.000000000000000000e+00,5.000000000000000000e+00,5.000000000000000000e+00,5.000000000000000000e+00,5.000000000000000000e+00,5.000000000000000000e+00,5.000000000000000000e+00,5.000000000000000000e+00,5.000000000000000000e+00,5.000000000000000000e+00,5.000000000000000000e+00,4.857918739318847656e+00,4.667311668395996094e+00,4.491096973419189453e+00,4.327704906463623047e+00,4.175783634185791016e+00,4.034166812896728516e+00,3.901841163635253906e+00,3.777920007705688477e+00,3.661628246307373047e+00,3.552281856536865234e+00,3.449276924133300781e+00,3.352077722549438477e+00,3.260205984115600586e+00,3.173235893249511719e+00,3.090785503387451172e+00,3.012511014938354492e+00,2.938103437423706055e+00,2.867282629013061523e+00,2.799795866012573242e+00,2.735412836074829102e+00,2.673924446105957031e+00,2.615139484405517578e+00,2.558883428573608398e+00,2.504997014999389648e+00,2.453333139419555664e+00,2.403757333755493164e+00,2.356145620346069336e+00,2.310383319854736328e+00,2.266364812850952148e+00,2.223992109298706055e+00,2.183174848556518555e+00,2.143828868865966797e+00,2.105875968933105469e+00,2.069243192672729492e+00,2.033863544464111328e+00,1.999673366546630859e+00,1.966613650321960449e+00,1.934628963470458984e+00,1.903668284416198730e+00,1.873682856559753418e+00,1.844627380371093750e+00
5.000000000000000000e+00,5.000000000000000000e+00,5.000000000000000000e+00,5.000000000000000000e+00,5.000000000000000000e+00,5.000000000000000000e+00,5.000000000000000000e+00,5.000000000000000000e+00,5.000000000000000000e+00,5.000000000000000000e+00,5.000000000000000000e+00,5.000000000000000000e+00,5.000000000000000000e+00,5.000000000000000000e+00,2.071005344390869141e+00,2.025922060012817383e+00,2.020724058151245117e+00,2.031209707260131836e+00,2.063190460205078125e+00,5.000000000000000000e+00,5.000000000000000000e+00,2.039557218551635742e+00,1.999643087387084961e+00,1.982265591621398926e+00,1.993657112121582031e+00,2.007201433181762695e+00,5.000000000000000000e+00,5.000000000000000000e+00,5.000000000000000000e+00,5.000000000000000000e+00,5.000000000000000000e+00,5.000000000000000000e+00,5.000000000000000000e+00,5.000000000000000000e+00,5.000000000000000000e+00,5.000000000000000000e+00,5.000000000000000000e+00,5.000000000000000000e+00,5.000000000000000000e+00,4.858058929443359375e+00,4.667440891265869141e+00,4.491216659545898438e+00,4.327816009521484375e+00,4.175887107849121094e+00,4.034263610839843750e+00,3.901931285858154297e+00,3.778004646301269531e+00,3.661707639694213867e+00,3.552356719970703125e+00,3.449347496032714844e+00,3.352144241333007812e+00,3.260269165039062500e+00,3.173295736312866211e+00,3.090842008590698242e+00,3.012564897537231445e+00,2.938154458999633789e+00,2.867331266403198242e+00,2.799842357635498047e+00,2.735457181930541992e+00,2.673966884613037109e+00,2.615180015563964844e+00,2.558922290802001953e+00,2.505034208297729492e+00,2.453368902206420898e+00,2.403791666030883789e+00,2.356178522109985352e+00,2.310415029525756836e+00,2.266395092010498047e+00,2.224021434783935547e+00,2.183203220367431641e+00,2.143856048583984375e+00,2.105902194976806641e+00,2.069268703460693359e+00,2.033888101577758789e+00,1.999696969985961914e+00,1.966636419296264648e+00,1.934651136398315430e+00,1.903689622879028320e+00,1.873703598976135254e+00,1.844647526741027832e+00
5.000000000000000000e+00,5.000000000000000000e+00,5.000000000000000000e+00,5.000000000000000000e+00,5.000000000000000000e+00,5.000000000000000000e+00,5.000000000000000000e+00,5.000000000000000000e+00,5.000000000000000000e+00,5.000000000000000000e+00,5.000000000000000000e+00,5.000000000000000000e+00,5.000000000000000000e+00,5.000000000000000000e+00,2.088116407394409180e+00,2.040744781494140625e+00,2.029379367828369141e+00,2.040832996368408203e+00,2.077978372573852539e+00,5.000000000000000000e+00,5.000000000000000000e+00,5.000000000000000000e+00,1.996564030647277832e+00,1.979672074317932129e+00,1.974549889564514160e+00,1.991197586059570312e+00,5.000000000000000000e+00,5.000000000000000000e+00,5.000000000000000000e+00,5.000000000000000000e+00,5.000000000000000000e+00,5.000000000000000000e+00,5.000000000000000000e+00,5.000000000000000000e+00,5.000000000000000000e+00,5.000000000000000000e+00,5.000000000000000000e+00,5.000000000000000000e+00,5.000000000000000000e+00,4.858198642730712891e+00,4.667570114135742188e+00,4.491336345672607422e+00,4.327927112579345703e+00,4.175990581512451172e+00,4.034359931945800781e+00,3.902021646499633789e+00,3.778089284896850586e+00,3.661787271499633789e+00,3.552431583404541016e+00,3.449418067932128906e+00,3.352210998535156250e+00,3.260332107543945312e+00,3.173355340957641602e+00,3.090898752212524414e+00,3.012618541717529297e+00,2.938205718994140625e+00,2.867380142211914062e+00,2.799888849258422852e+00,2.735501527786254883e+00,2.674009084701538086e+00,2.615220546722412109e+00,2.558961153030395508e+00,2.505071401596069336e+00,2.453404664993286133e+00,2.403825998306274414e+00,2.356211423873901367e+00,2.310446739196777344e+00,2.266425609588623047e+00,2.224050760269165039e+00,2.183231353759765625e+00,2.143883228302001953e+00,2.105928421020507812e+00,2.069293975830078125e+00,2.033912658691406250e+00,1.999720811843872070e+00,1.966659545898437500e+00,1.934673428535461426e+00,1.903711318969726562e+00,1.873724460601806641e+00,1.844667792320251465e+00
5.000000000000000000e+00,5.000000000000000000e+00,5.000000000000000000e+00,5.000000000000000000e+00,5.000000000000000000e+00,5.000000000000000000e+00,5.000000000000000000e+00,5.000000000000000000e+00,5.000000000000000000e+00,5.000000000000000000e+00,5.000000000000000000e+00,5.000000000000000000e+00,5.000000000000000000e+00,5.000000000000000000e+00,2.101763963699340820e+00,2.055875539779663086e+00,2.038143634796142578e+00,2.048569917678833008e+00,2.093172073364257812e+00,5.000000000000000000e+00,5.000000000000000000e+00,5.000000000000000000e+00,2.012769222259521484e+00,1.976238727569580078e+00,1.963226914405822754e+00,1.979363560676574707e+00,5.000000000000000000e+00,5.000000000000000000e+00,5.000000000000000000e+00,5.000000000000000000e+00,5.000000000000000000e+00,5.000000000000000000e+00,5.000000000000000000e+00,5.000000000000000000e+00,5.000000000000000000e+00,5.000000000000000000e+00,5.000000000000000000e+00,5.000000000000000000e+00,5.000000000000000000e+00,4.858338832855224609e+00,4.667699337005615234e+00,4.491456031799316406e+00,4.328038215637207031e+00,4.176094055175781250e+00,4.034456253051757812e+00,3.902112007141113281e+00,3.778173923492431641e+00,3.661866664886474609e+00,3.552506446838378906e+00,3.449488639831542969e+00,3.352277517318725586e+00,3.260395288467407227e+00,3.173415184020996094e+00,3.090955495834350586e+00,3.012672424316406250e+00,2.938256978988647461e+00,2.867429018020629883e+00,2.799935340881347656e+00,2.735546112060546875e+00,2.674051523208618164e+00,2.615261077880859375e+00,2.559000015258789062e+00,2.505108594894409180e+00,2.453440189361572266e+00,2.403860330581665039e+00,2.356244325637817383e+00,2.310478210449218750e+00,2.266456127166748047e+00,2.224080085754394531e+00,2.183259725570678711e+00,2.143910646438598633e+00,2.105954885482788086e+00,2.069319486618041992e+00,2.033937215805053711e+00,1.999744415283203125e+00,1.966682314872741699e+00,1.934695482254028320e+00,1.903732657432556152e+00,1.873745203018188477e+00,1.844687819480895996e+00
5.000000000000000000e+00,5.000000000000000000e+00,5.000000000000000000e+00,5.000000000000000000e+00,5.000000000000000000e+00,5.000000000000000000e+00,5.000000000000000000e+00,5.000000000000000000e+00,5.000000000000000000e+00,5.000000000000000000e+00,5.000000000000000000e+00,5.000000000000000000e+00,5.000000000000000000e+00,5.000000000000000000e+00,5.000000000000000000e+00,2.071232557296752930e+00,2.049837350845336914e+00,2.056365728378295898e+00,2.103584051132202148e+00,5.000000000000000000e+00,5.000000000000000000e+00,5.000000000000000000e+00,5.000000000000000000e+00,1.979019165039062500e+00,1.967134833335876465e+00,1.981492280960083008e+00,5.000000000000000000e+00,5.000000000000000000e+00,5.000000000000000000e+00,5.000000000000000000e+00,5.000000000000000000e+00,5.000000000000000000e+00,5.000000000000000000e+00,5.000000000000000000e+00,5.000000000000000000e+00,5.000000000000000000e+00,5.000000000000000000e+00,5.000000000000000000e+00,5.000000000000000000e+00,4.858478546142578125e+00,4.667828559875488281e+00,4.491575717926025391e+00,4.328148841857910156e+00,4.176197528839111328e+00,4.034553050994873047e+00,3.902202129364013672e+00,3.778258562088012695e+00,3.661946296691894531e+00,3.552581310272216797e+00,3.449559211730957031e+00,3.352343797683715820e+00,3.260458230972290039e+00,3.173474788665771484e+00,3.091012001037597656e+00,3.012726306915283203e+00,2.938308000564575195e+00,2.867477655410766602e+00,2.799981832504272461e+00,2.735590219497680664e+00,2.674093961715698242e+00,2.615301609039306641e+00,2.559038877487182617e+00,2.505145788192749023e+00,2.453475952148437500e+00,2.403894424438476562e+00,2.356277227401733398e+00,2.310509920120239258e+00,2.266486644744873047e+00,2.224109411239624023e+00,2.183287858963012695e+00,2.143937826156616211e+00,2.105981111526489258e+00,2.069344758987426758e+00,2.033961772918701172e+00,1.999768018722534180e+00,1.966705441474914551e+00,1.934717774391174316e+00,1.903754234313964844e+00,1.873766064643859863e+00,1.844708085060119629e+00
5.000000000000000000e+00,5.000000000000000000e+00,5.000000000000000000e+00,5.000000000000000000e+00,5.000000000000000000e+00,5.000000000000000000e+00,5.000000000000000000e+00,5.000000000000000000e+00,5.000000000000000000e+00,5.000000000000000000e+00,5.000000000000000000e+00,5.000000000000000000e+00,5.000000000000000000e+00,5.000000000000000000e+00,5.000000000000000000e+00,2.086620330810546875e+00,2.061191797256469727e+00,2.066703796386718750e+00,2.114402055740356445e+00,5.000000000000000000e+00,5.000000000000000000e+00,5.000000000000000000e+00,5.000000000000000000e+00,1.987497806549072266e+00,1.975217819213867188e+00,1.987190008163452148e+00,5.000000000000000000e+00,5.000000000000000000e+00,5.000000000000000000e+00,5.000000000000000000e+00,5.000000000000000000e+00,5.000000000000000000e+00,5.000000000000000000e+00,5.000000000000000000e+00,5.000000000000000000e+00,5.000000000000000000e+00,5.000000000000000000e+00,5.000000000000000000e+00,5.000000000000000000e+00,4.858618736267089844e+00,4.667957782745361328e+00,4.491695404052734375e+00,4.328259944915771484e+00,4.176300525665283203e+00,4.034649372100830078e+00,3.902292490005493164e+00,3.778343439102172852e+00,3.662025690078735352e+00,3.552656173706054688e+00,3.449629783630371094e+00,3.352410554885864258e+00,3.260521173477172852e+00,3.173534631729125977e+00,3.091068744659423828e+00,3.012780189514160156e+00,2.938359260559082031e+00,2.867526531219482422e+00,2.800028324127197266e+00,2.735634565353393555e+00,2.674136400222778320e+00,2.615342140197753906e+00,2.559077739715576172e+00,2.505182981491088867e+00,2.453511714935302734e+00,2.403928756713867188e+00,2.356310367584228516e+00,2.310541391372680664e+00,2.266516923904418945e+00,2.224138736724853516e+00,2.183316230773925781e+00,2.143965005874633789e+00,2.106007337570190430e+00,2.069370269775390625e+00,2.033986330032348633e+00,1.999791860580444336e+00,1.966728210449218750e+00,1.934739947319030762e+00,1.903775691986083984e+00,1.873786807060241699e+00,1.844728231430053711e+00
5.000000000000000000e+00,5.000000000000000000e+00,5.000000000000000000e+00,5.000000000000000000e+00,5.000000000000000000e+00,5.000000000000000000e+00,5.000000000000000000e+00,5.000000000000000000e+00,5.000000000000000000e+00,5.000000000000000000e+00,5.000000000000000000e+00,5.000000000000000000e+00,5.000000000000000000e+00,5.000000000000000000e+00,2.129433631896972656e+00,2.094068765640258789e+00,2.076479196548461914e+00,2.086618900299072266e+00,5.000000000000000000e+00,5.000000000000000000e+00,5.000000000000000000e+00,5.000000000000000000e+00,5.000000000000000000e+00,1.996772170066833496e+00,1.985124707221984863e+00,1.992920517921447754e+00,5.000000000000000000e+00,5.000000000000000000e+00,5.000000000000000000e+00,5.000000000000000000e+00,5.000000000000000000e+00,5.000000000000000000e+00,5.000000000000000000e+00,5.000000000000000000e+00,5.000000000000000000e+00,5.000000000000000000e+00,5.000000000000000000e+00,5.000000000000000000e+00,5.000000000000000000e+00,4.858758449554443359e+00,4.668087005615234375e+00,4.491815090179443359e+00,4.328371047973632812e+00,4.176403999328613281e+00,4.034746170043945312e+00,3.902382850646972656e+00,3.778428077697753906e+00,3.662105321884155273e+00,3.552731037139892578e+00,3.449700355529785156e+00,3.352477312088012695e+00,3.260584354400634766e+00,3.173594236373901367e+00,3.091125488281250000e+00,3.012834072113037109e+00,2.938410520553588867e+00,2.867575168609619141e+00,2.800074815750122070e+00,2.735678911209106445e+00,2.674178838729858398e+00,2.615382671356201172e+00,2.559116601943969727e+00,2.505220413208007812e+00,2.453547477722167969e+00,2.403963088989257812e+00,2.356343269348144531e+00,2.310573101043701172e+00,2.266547441482543945e+00,2.224168062210083008e+00,2.183344602584838867e+00,2.143992424011230469e+00,2.106033802032470703e+00,2.069395542144775391e+00,2.034010648727416992e+00,1.999815464019775391e+00,1.966751217842102051e+00,1.934762239456176758e+00,1.903797268867492676e+00,1.873807787895202637e+00,1.844748497009277344e+00
5.000000000000000000e+00,5.000000000000000000e+00,5.000000000000000000e+00,5.000000000000000000e+00,5.000000000000000000e+00,5.000000000000000000e+00,5.000000000000000000e+00,5.000000000000000000e+00,5.000000000000000000e+00,5.000000000000000000e+00,5.000000000000000000e+00,5.000000000000000000e+00,5.000000000000000000e+00,5.000000000000000000e+00,2.124925851821899414e+00,2.103611707687377930e+00,2.100695610046386719e+00,2.129100799560546875e+00,5.000000000000000000e+00,5.000000000000000000e+00,5.000000000000000000e+00,5.000000000000000000e+00,5.000000000000000000e+00,2.003787994384765625e+00,1.994710564613342285e+00,2.002399682998657227e+00,5.000000000000000000e+00,5.000000000000000000e+00,5.000000000000000000e+00,5.000000000000000000e+00,5.000000000000000000e+00,5.000000000000000000e+00,5.000000000000000000e+00,5.000000000000000000e+00,5.000000000000000000e+00,5.000000000000000000e+00,5.000000000000000000e+00,5.000000000000000000e+00,5.000000000000000000e+00,4.858898639678955078e+00,4.668216228485107422e+00,4.491934776306152344e+00,4.328482151031494141e+00,4.176507472991943359e+00,4.034842491149902344e+00,3.902473211288452148e+00,3.778512716293334961e+00,3.662184953689575195e+00,3.552805900573730469e+00,3.449770927429199219e+00,3.352543830871582031e+00,3.260647296905517578e+00,3.173654079437255859e+00,3.091181993484497070e+00,3.012887716293334961e+00,2.938461780548095703e+00,2.867624044418334961e+00,2.800121307373046875e+00,2.735723257064819336e+00,2.674221277236938477e+00,2.615423440933227539e+00,2.559155464172363281e+00,2.505257606506347656e+00,2.453583002090454102e+00,2.403997421264648438e+00,2.356376171112060547e+00,2.310604810714721680e+00,2.266577959060668945e+00,2.224197387695312500e+00,2.183372735977172852e+00,2.144019603729248047e+00,2.106060028076171875e+00,2.069421052932739258e+00,2.034035205841064453e+00,1.999839305877685547e+00,1.966774106025695801e+00,1.934784293174743652e+00,1.903818607330322266e+00,1.873828530311584473e+00,1.844768524169921875e+00
5.000000000000000000e+00,5.000000000000000000e+00,5.000000000000000000e+00,5.000000000000000000e+00,5.000000000000000000e+00,5.000000000000000000e+00,5.000000000000000000e+00,5.000000000000000000e+00,5.000000000000000000e+00,5.000000000000000000e+00,5.000000000000000000e+00,5.000000000000000000e+00,5.000000000000000000e+00,5.000000000000000000e+00,2.132395982742309570e+00,2.123249053955078125e+00,2.127303600311279297e+00,5.000000000000000000e+00,5.000000000000000000e+00,5.000000000000000000e+00,5.000000000000000000e+00,5.000000000000000000e+00,5.000000000000000000e+00,2.005015850067138672e+00,1.990403175354003906e+00,1.998557209968566895e+00,5.000000000000000000e+00,5.000000000000000000e+00,5.000000000000000000e+00,5.000000000000000000e+00,5.000000000000000000e+00,5.000000000000000000e+00,5.000000000000000000e+00,5.000000000000000000e+00,5.000000000000000000e+00,5.000000000000000000e+00,5.000000000000000000e+00,5.000000000000000000e+00,5.000000000000000000e+00,4.859036922454833984e+00,4.668345451354980469e+00,4.492054462432861328e+00,4.328593254089355469e+00,4.176610946655273438e+00,4.034939289093017578e+00,3.902563571929931641e+00,3.778597354888916016e+00,3.662264347076416016e+00,3.552880764007568359e+00,3.449841499328613281e+00,3.352610588073730469e+00,3.260710477828979492e+00,3.173713922500610352e+00,3.091238737106323242e+00,3.012941598892211914e+00,2.938513040542602539e+00,2.867672681808471680e+00,2.800167798995971680e+00,2.735767602920532227e+00,2.674263715744018555e+00,2.615463972091674805e+00,2.559194326400756836e+00,2.505294799804687500e+00,2.453618764877319336e+00,2.404031515121459961e+00,2.356409072875976562e+00,2.310636520385742188e+00,2.266608476638793945e+00,2.224226713180541992e+00,2.183401107788085938e+00,2.144046783447265625e+00,2.106086254119873047e+00,2.069446325302124023e+00,2.034059762954711914e+00,1.999862909317016602e+00,1.966797113418579102e+00,1.934806585311889648e+00,1.903840184211730957e+00,1.873849391937255859e+00,1.844788908958435059e+00
5.000000000000000000e+00,5.000000000000000000e+00,5.000000000000000000e+00,5.000000000000000000e+00,5.000000000000000000e+00,5.000000000000000000e+00,5.000000000000000000e+00,5.000000000000000000e+00,5.000000000000000000e+00,5.000000000000000000e+00,5.000000000000000000e+00,5.000000000000000000e+00,5.000000000000000000e+00,5.000000000000000000e+00,2.147513866424560547e+00,2.142058849334716797e+00,2.159284830093383789e+00,5.000000000000000000e+00,5.000000000000000000e+00,5.000000000000000000e+00,5.000000000000000000e+00,5.000000000000000000e+00,5.000000000000000000e+00,2.004848241806030273e+00,1.985355496406555176e+00,1.994728803634643555e+00,2.026576757431030273e+00,5.000000000000000000e+00,5.000000000000000000e+00,5.000000000000000000e+00,5.000000000000000000e+00,5.000000000000000000e+00,5.000000000000000000e+00,5.000000000000000000e+00,5.000000000000000000e+00,5.000000000000000000e+00,5.000000000000000000e+00,5.000000000000000000e+00,5.000000000000000000e+00,4.859174728393554688e+00,4.668473720550537109e+00,4.492174148559570312e+00,4.328704357147216797e+00,4.176714420318603516e+00,4.035035610198974609e+00,3.902653932571411133e+00,3.778681993484497070e+00,3.662343978881835938e+00,3.552955627441406250e+00,3.449912071228027344e+00,3.352677106857299805e+00,3.260773420333862305e+00,3.173773527145385742e+00,3.091295480728149414e+00,3.012995481491088867e+00,2.938564062118530273e+00,2.867721557617187500e+00,2.800214290618896484e+00,2.735812187194824219e+00,2.674306154251098633e+00,2.615504503250122070e+00,2.559232950210571289e+00,2.505331993103027344e+00,2.453654527664184570e+00,2.404065847396850586e+00,2.356441974639892578e+00,2.310668230056762695e+00,2.266638994216918945e+00,2.224256038665771484e+00,2.183429241180419922e+00,2.144074201583862305e+00,2.106112718582153320e+00,2.069471836090087891e+00,2.034084320068359375e+00,1.999886751174926758e+00,1.966820001602172852e+00,1.934828639030456543e+00,1.903861641883850098e+00,1.873870134353637695e+00,1.844808936119079590e+00
5.000000000000000000e+00,5.000000000000000000e+00,5.000000000000000000e+00,5.000000000000000000e+00,5.000000000000000000e+00,5.000000000000000000e+00,5.000000000000000000e+00,5.000000000000000000e+00,5.000000000000000000e+00,5.000000000000000000e+00,5.000000000000000000e+00,5.000000000000000000e+00,5.000000000000000000e+00,5.000000000000000000e+00,2.162378072738647461e+00,2.155397891998291016e+00,2.182677030563354492e+00,5.000000000000000000e+00,5.000000000000000000e+00,5.000000000000000000e+00,5.000000000000000000e+00,5.000000000000000000e+00,5.000000000000000000e+00,2.019529819488525391e+00,1.983700633049011230e+00,1.989809274673461914e+00,2.004856109619140625e+00,5.000000000000000000e+00,5.000000000000000000e+00,5.000000000000000000e+00,5.000000000000000000e+00,5.000000000000000000e+00,5.000000000000000000e+00,5.000000000000000000e+00,5.000000000000000000e+00,5.000000000000000000e+00,5.000000000000000000e+00,5.000000000000000000e+00,5.000000000000000000e+00,4.859312534332275391e+00,4.668601036071777344e+00,4.492293834686279297e+00,4.328815460205078125e+00,4.176817893981933594e+00,4.035132408142089844e+00,3.902744293212890625e+00,3.778766632080078125e+00,3.662423610687255859e+00,3.553030490875244141e+00,3.449982643127441406e+00,3.352743864059448242e+00,3.260836601257324219e+00,3.173833370208740234e+00,3.091351985931396484e+00,3.013049364089965820e+00,2.938615322113037109e+00,2.867770195007324219e+00,2.800260782241821289e+00,2.735856533050537109e+00,2.674348592758178711e+00,2.615545034408569336e+00,2.559271812438964844e+00,2.505369186401367188e+00,2.453690290451049805e+00,2.404100179672241211e+00,2.356474876403808594e+00,2.310699701309204102e+00,2.266669273376464844e+00,2.224285602569580078e+00,2.183457612991333008e+00,2.144101381301879883e+00,2.106138944625854492e+00,2.069497346878051758e+00,2.034108877182006836e+00,1.999910354614257812e+00,1.966843008995056152e+00,1.934851050376892090e+00,1.903883218765258789e+00,1.873891115188598633e+00,1.844829201698303223e+00
5.000000000000000000e+00,5.000000000000000000e+00,5.000000000000000000e+00,5.000000000000000000e+00,5.000000000000000000e+00,5.000000000000000000e+00,5.000000000000000000e+00,5.000000000000000000e+00,5.000000000000000000e+00,5.000000000000000000e+00,5.000000000000000000e+00,5.000000000000000000e+00,5.000000000000000000e+00,5.000000000000000000e+00,2.177809476852416992e+00,2.170539855957031250e+00,2.204670190811157227e+00,5.000000000000000000e+00,5.000000000000000000e+00,5.000000000000000000e+00,5.000000000000000000e+00,5.000000000000000000e+00,5.000000000000000000e+00,5.000000000000000000e+00,1.984624505043029785e+00,1.985074996948242188e+00,1.994580626487731934e+00,5.000000000000000000e+00,5.000000000000000000e+00,5.000000000000000000e+00,5.000000000000000000e+00,5.000000000000000000e+00,5.000000000000000000e+00,5.000000000000000000e+00,5.000000000000000000e+00,5.000000000000000000e+00,5.000000000000000000e+00,5.000000000000000000e+00,5.000000000000000000e+00,4.859450817108154297e+00,4.668727874755859375e+00,4.492411613464355469e+00,4.328926563262939453e+00,4.176921367645263672e+00,4.035228729248046875e+00,3.902834415435791016e+00,3.778851270675659180e+00,3.662503004074096680e+00,3.553105354309082031e+00,3.450053215026855469e+00,3.352810621261596680e+00,3.260899543762207031e+00,3.173892974853515625e+00,3.091408729553222656e+00,3.013103246688842773e+00,2.938666582107543945e+00,2.867819070816040039e+00,2.800307273864746094e+00,2.735900878906250000e+00,2.674390792846679688e+00,2.615585565567016602e+00,2.559310674667358398e+00,2.505406379699707031e+00,2.453725814819335938e+00,2.404134511947631836e+00,2.356507778167724609e+00,2.310731410980224609e+00,2.266699790954589844e+00,2.224314928054809570e+00,2.183485746383666992e+00,2.144128561019897461e+00,2.106165170669555664e+00,2.069522619247436523e+00,2.034133434295654297e+00,1.999934196472167969e+00,1.966865897178649902e+00,1.934873104095458984e+00,1.903904557228088379e+00,1.873911738395690918e+00,1.844849348068237305e+00
5.000000000000000000e+00,5.000000000000000000e+00,5.000000000000000000e+00,5.000000000000000000e+00,5.000000000000000000e+00,5.000000000000000000e+00,5.000000000000000000e+00,5.000000000000000000e+00,5.000000000000000000e+00,5.000000000000000000e+00,5.000000000000000000e+00,5.000000000000000000e+00,5.000000000000000000e+00,5.000000000000000000e+00,2.194014549255371094e+00,2.187268018722534180e+00,2.227609395980834961e+00,5.000000000000000000e+00,5.000000000000000000e+00,5.000000000000000000e+00,5.000000000000000000e+00,5.000000000000000000e+00,5.000000000000000000e+00,5.000000000000000000e+00,1.987720131874084473e+00,1.981079101562500000e+00,1.995754957199096680e+00,5.000000000000000000e+00,5.000000000000000000e+00,5.000000000000000000e+00,5.000000000000000000e+00,5.000000000000000000e+00,5.000000000000000000e+00,5.000000000000000000e+00,5.000000000000000000e+00,5.000000000000000000e+00,5.000000000000000000e+00,5.000000000000000000e+00,5.000000000000000000e+00,4.859588146209716797e+00,4.668855190277099609e+00,4.492529392242431641e+00,4.329036712646484375e+00,4.177024841308593750e+00,4.035325527191162109e+00,3.902924776077270508e+00,3.778936147689819336e+00,3.662582635879516602e+00,3.553180217742919922e+00,3.450124025344848633e+00,3.352877140045166016e+00,3.260962724685668945e+00,3.173952817916870117e+00,3.091465473175048828e+00,3.013156890869140625e+00,2.938717842102050781e+00,2.867867946624755859e+00,2.800353765487670898e+00,2.735945224761962891e+00,2.674433231353759766e+00,2.615626096725463867e+00,2.559349536895751953e+00,2.505443572998046875e+00,2.453761577606201172e+00,2.404168605804443359e+00,2.356540679931640625e+00,2.310763120651245117e+00,2.266730308532714844e+00,2.224344253540039062e+00,2.183514118194580078e+00,2.144155979156494141e+00,2.106191635131835938e+00,2.069548130035400391e+00,2.034157991409301758e+00,1.999957799911499023e+00,1.966888904571533203e+00,1.934895396232604980e+00,1.903926253318786621e+00,1.873932719230651855e+00,1.844869613647460938e+00
5.000000000000000000e+00,5.000000000000000000e+00,5.000000000000000000e+00,5.000000000000000000e+00,5.000000000000000000e+00,5.000000000000000000e+00,5.000000000000000000e+00,5.000000000000000000e+00,5.000000000000000000e+00,5.000000000000000000e+00,5.000000000000000000e+00,5.000000000000000000e+00,5.000000000000000000e+00,5.000000000000000000e+00,2.211568355560302734e+00,2.210348367691040039e+00,2.257657289505004883e+00,5.000000000000000000e+00,5.000000000000000000e+00,5.000000000000000000e+00,5.000000000000000000e+00,5.000000000000000000e+00,5.000000000000000000e+00,5.000000000000000000e+00,1.990825653076171875e+00,1.977728128433227539e+00,1.999287843704223633e+00,5.000000000000000000e+00,5.000000000000000000e+00,5.000000000000000000e+00,5.000000000000000000e+00,5.000000000000000000e+00,5.000000000000000000e+00,5.000000000000000000e+00,5.000000000000000000e+00,5.000000000000000000e+00,5.000000000000000000e+00,5.000000000000000000e+00,5.000000000000000000e+00,4.859725952148437500e+00,4.668982505798339844e+00,4.492646694183349609e+00,4.329145908355712891e+00,4.177128314971923828e+00,4.035421848297119141e+00,3.903015136718750000e+00,3.779020786285400391e+00,3.662662267684936523e+00,3.553255081176757812e+00,3.450194597244262695e+00,3.352943897247314453e+00,3.261025428771972656e+00,3.174012422561645508e+00,3.091522216796875000e+00,3.013210773468017578e+00,2.938769102096557617e+00,2.867916584014892578e+00,2.800400257110595703e+00,2.735989570617675781e+00,2.674475431442260742e+00,2.615666866302490234e+00,2.559388399124145508e+00,2.505481004714965820e+00,2.453797340393066406e+00,2.404202938079833984e+00,2.356573820114135742e+00,2.310794830322265625e+00,2.266760587692260742e+00,2.224373579025268555e+00,2.183542490005493164e+00,2.144183158874511719e+00,2.106217861175537109e+00,2.069573402404785156e+00,2.034182548522949219e+00,1.999981641769409180e+00,1.966911792755126953e+00,1.934917569160461426e+00,1.903947591781616211e+00,1.873953461647033691e+00,1.844889640808105469e+00
4.871513366699218750e+00,4.870292186737060547e+00,4.869071483612060547e+00,4.867851257324218750e+00,4.866631984710693359e+00,4.865412712097167969e+00,4.864194393157958984e+00,4.862977027893066406e+00,4.861759662628173828e+00,4.860543727874755859e+00,4.859327793121337891e+00,4.858112335205078125e+00,4.856897830963134766e+00,4.855683803558349609e+00,2.229788303375244141e+00,2.229627370834350586e+00,4.852045536041259766e+00,4.850833892822265625e+00,4.849622726440429688e+00,4.848412513732910156e+00,4.847202777862548828e+00,4.845993518829345703e+00,4.844784736633300781e+00,4.843577384948730469e+00,1.993940830230712891e+00,1.976055383682250977e+00,1.992050409317016602e+00,4.838750839233398438e+00,4.837546348571777344e+00,4.836341857910156250e+00,4.835138320922851562e+00,4.833934783935546875e+00,4.832732200622558594e+00,4.831530094146728516e+00,4.830328941345214844e+00,4.829128265380859375e+00,4.827928066253662109e+00,4.826728343963623047e+00,4.825529575347900391e+00,4.824330806732177734e+00,4.669109821319580078e+00,4.492764949798583984e+00,4.329255580902099609e+00,4.177229404449462891e+00,4.035518646240234375e+00,3.903105497360229492e+00,3.779105424880981445e+00,3.662741661071777344e+00,3.553329944610595703e+00,3.450265169143676758e+00,3.353010654449462891e+00,3.261088609695434570e+00,3.174072265625000000e+00,3.091578722000122070e+00,3.013264656066894531e+00,2.938820362091064453e+00,2.867965459823608398e+00,2.800446748733520508e+00,2.736034154891967773e+00,2.674517869949340820e+00,2.615707397460937500e+00,2.559427261352539062e+00,2.505518198013305664e+00,2.453833103179931641e+00,2.404237270355224609e+00,2.356606721878051758e+00,2.310826539993286133e+00,2.266791105270385742e+00,2.224402904510498047e+00,2.183570623397827148e+00,2.144210577011108398e+00,2.106244087219238281e+00,2.069598913192749023e+00,2.034207105636596680e+00,2.000005245208740234e+00,1.966934561729431152e+00,1.934939861297607422e+00,1.903969168663024902e+00,1.873974323272705078e+00,1.844910025596618652e+00
3.776342630386352539e+00,3.775608777999877930e+00,3.774874687194824219e+00,3.774141550064086914e+00,3.773408412933349609e+00,3.772675275802612305e+00,3.771942853927612305e+00,3.771210908889770508e+00,3.770478963851928711e+00,3.769747018814086914e+00,3.769015789031982422e+00,3.768284797668457031e+00,3.767553567886352539e+00,3.766823291778564453e+00,2.257775783538818359e+00,2.262265682220458984e+00,3.764633178710937500e+00,3.763903856277465820e+00,3.763174772262573242e+00,3.762445688247680664e+00,3.761717319488525391e+00,3.760989189147949219e+00,3.760261297225952148e+00,3.759533166885375977e+00,2.041039705276489258e+00,1.991315245628356934e+00,2.010857343673706055e+00,3.756625175476074219e+00,3.755898952484130859e+00,3.755173206329345703e+00,3.754446983337402344e+00,3.753721714019775391e+00,3.752996683120727539e+00,3.752271413803100586e+00,3.751546859741210938e+00,3.750822544097900391e+00,3.750098705291748047e+00,3.749374628067016602e+00,3.748651266098022461e+00,3.747928142547607422e+00,3.747204780578613281e+00,3.746482133865356445e+00,3.745759963989257812e+00,3.745038032531738281e+00,3.744315862655639648e+00,3.743594408035278320e+00,3.742873191833496094e+00,3.662821292877197266e+00,3.553404808044433594e+00,3.450335741043090820e+00,3.353077173233032227e+00,3.261151552200317383e+00,3.174132108688354492e+00,3.091635465621948242e+00,3.013318538665771484e+00,2.938871383666992188e+00,2.868014097213745117e+00,2.800493240356445312e+00,2.736078500747680664e+00,2.674560308456420898e+00,2.615747928619384766e+00,2.559466123580932617e+00,2.505555391311645508e+00,2.453868865966796875e+00,2.404271602630615234e+00,2.356639623641967773e+00,2.310858249664306641e+00,2.266821622848510742e+00,2.224432229995727539e+00,2.183598995208740234e+00,2.144237756729125977e+00,2.106270551681518555e+00,2.069624185562133789e+00,2.034231662750244141e+00,2.000029087066650391e+00,1.966957688331604004e+00,1.934961915016174316e+00,1.903990626335144043e+00,1.873995065689086914e+00,1.844930052757263184e+00
3.083203792572021484e+00,3.082714557647705078e+00,3.082225561141967773e+00,3.081736326217651367e+00,3.081247568130493164e+00,3.080759048461914062e+00,3.080270290374755859e+00,3.079782009124755859e+00,3.079293966293334961e+00,3.078806161880493164e+00,3.078317880630493164e+00,3.077830314636230469e+00,3.077342748641967773e+00,3.076855182647705078e+00,2.260581016540527344e+00,2.250325918197631836e+00,3.075394153594970703e+00,3.074907064437866211e+00,3.074420690536499023e+00,3.073934078216552734e+00,3.073447704315185547e+00,3.072961568832397461e+00,3.072475671768188477e+00,3.071989774703979492e+00,3.071503877639770508e+00,1.981776237487792969e+00,1.966867208480834961e+00,3.070047616958618164e+00,3.069562435150146484e+00,3.069077730178833008e+00,3.068593025207519531e+00,3.068108081817626953e+00,3.067623615264892578e+00,3.067139387130737305e+00,3.066655158996582031e+00,3.066171169281005859e+00,3.065687417984008789e+00,3.065203666687011719e+00,3.064719915390014648e+00,3.064236640930175781e+00,3.063753366470336914e+00,3.063270092010498047e+00,3.062787294387817383e+00,3.062304496765136719e+00,3.061821699142456055e+00,3.061339139938354492e+00,3.060856819152832031e+00,3.060374736785888672e+00,3.059892416000366211e+00,3.059410810470581055e+00,3.058928966522216797e+00,3.058447122573852539e+00,3.057965755462646484e+00,3.057484626770019531e+00,3.013372421264648438e+00,2.938922643661499023e+00,2.868062973022460938e+00,2.800539731979370117e+00,2.736122846603393555e+00,2.674602746963500977e+00,2.615788459777832031e+00,2.559504985809326172e+00,2.505592584609985352e+00,2.453904390335083008e+00,2.404305696487426758e+00,2.356672525405883789e+00,2.310889720916748047e+00,2.266852140426635742e+00,2.224461555480957031e+00,2.183627128601074219e+00,2.144264936447143555e+00,2.106296777725219727e+00,2.069649696350097656e+00,2.034256219863891602e+00,2.000052690505981445e+00,1.966980457305908203e+00,1.934984207153320312e+00,1.904012203216552734e+00,1.874016046524047852e+00,1.844950318336486816e+00
2.605052471160888672e+00,2.604703187942504883e+00,2.604354143142700195e+00,2.604004859924316406e+00,2.603655815124511719e+00,2.603307008743286133e+00,2.602958202362060547e+00,2.602609395980834961e+00,2.602260828018188477e+00,2.601912260055541992e+00,2.601563930511474609e+00,2.601215362548828125e+00,2.600867033004760742e+00,2.600518941879272461e+00,2.238723278045654297e+00,2.226368665695190430e+00,2.233262300491333008e+00,2.599127292633056641e+00,2.598779439926147461e+00,2.598431825637817383e+00,2.598084449768066406e+00,2.597736835479736328e+00,2.597389459609985352e+00,2.597042322158813477e+00,2.596695184707641602e+00,1.977933764457702637e+00,1.942168354988098145e+00,1.900504112243652344e+00,1.874255061149597168e+00,1.929319024085998535e+00,2.594614267349243164e+00,2.594267606735229492e+00,2.593921422958374023e+00,2.593575000762939453e+00,2.593228816986083984e+00,2.592882633209228516e+00,2.592536687850952148e+00,2.592190742492675781e+00,2.591844797134399414e+00,2.591499090194702148e+00,2.591153383255004883e+00,2.590807914733886719e+00,2.590462207794189453e+00,2.590116977691650391e+00,2.589771747589111328e+00,2.589426279067993164e+00,2.589081287384033203e+00,2.588736295700073242e+00,2.588391542434692383e+00,2.588046550750732422e+00,2.587701797485351562e+00,2.587357282638549805e+00,2.587012529373168945e+00,2.586668014526367188e+00,2.586323738098144531e+00,2.585979461669921875e+00,2.585635185241699219e+00,2.585291147232055664e+00,2.584947347640991211e+00,2.584603071212768555e+00,2.584259510040283203e+00,2.559543848037719727e+00,2.505629777908325195e+00,2.453940153121948242e+00,2.404340028762817383e+00,2.356705427169799805e+00,2.310921430587768555e+00,2.266882658004760742e+00,2.224490880966186523e+00,2.183655500411987305e+00,2.144292354583740234e+00,2.106323242187500000e+00,2.069674968719482422e+00,2.034280776977539062e+00,2.000076532363891602e+00,1.967003583908081055e+00,1.935006380081176758e+00,1.904033660888671875e+00,1.874036788940429688e+00,1.844970464706420898e+00
2.255263805389404297e+00,2.255003452301025391e+00,2.254743099212646484e+00,2.254482984542846680e+00,2.254222631454467773e+00,2.253962516784667969e+00,2.253702402114868164e+00,2.253442287445068359e+00,2.253182411193847656e+00,2.252922534942626953e+00,2.252662658691406250e+00,2.252402782440185547e+00,2.252142906188964844e+00,2.251883268356323242e+00,2.251623630523681641e+00,2.189632415771484375e+00,2.190273284912109375e+00,2.205858707427978516e+00,2.250585794448852539e+00,2.250326395034790039e+00,2.250067234039306641e+00,2.249808073043823242e+00,2.249548912048339844e+00,2.249289274215698242e+00,2.249028921127319336e+00,1.985350728034973145e+00,1.990958929061889648e+00,2.248248100280761719e+00,2.247987985610961914e+00,2.247727870941162109e+00,2.247467756271362305e+00,2.247207880020141602e+00,2.246947765350341797e+00,2.246687889099121094e+00,2.246428251266479492e+00,2.246168613433837891e+00,2.245908737182617188e+00,2.245649099349975586e+00,2.245389461517333984e+00,2.245130062103271484e+00,2.244870662689208984e+00,2.244611263275146484e+00,2.244351863861083984e+00,2.244092464447021484e+00,2.243833303451538086e+00,2.243574380874633789e+00,2.243314981460571289e+00,2.243056058883666992e+00,2.242797136306762695e+00,2.242538213729858398e+00,2.242279291152954102e+00,2.242020606994628906e+00,2.241761922836303711e+00,2.241503238677978516e+00,2.241244554519653320e+00,2.240986108779907227e+00,2.240727663040161133e+00,2.240469217300415039e+00,2.240210771560668945e+00,2.239952564239501953e+00,2.239694118499755859e+00,2.239435911178588867e+00,2.239177942276000977e+00,2.238919973373413086e+00,2.238661766052246094e+00,2.238403797149658203e+00,2.238146066665649414e+00,2.237888097763061523e+00,2.224520206451416016e+00,2.183683872222900391e+00,2.144319534301757812e+00,2.106349468231201172e+00,2.069700479507446289e+00,2.034305334091186523e+00,2.000100135803222656e+00,1.967026352882385254e+00,1.935028672218322754e+00,1.904055237770080566e+00,1.874057650566101074e+00,1.844990730285644531e+00
1.988229274749755859e+00,1.988026976585388184e+00,1.987824559211730957e+00,1.987622261047363281e+00,1.987420082092285156e+00,1.987217783927917480e+00,1.987015724182128906e+00,1.986813545227050781e+00,1.986611247062683105e+00,1.986409187316894531e+00,1.986207127571105957e+00,1.986005187034606934e+00,1.985803246498107910e+00,1.985601425170898438e+00,1.985399603843688965e+00,1.985197782516479492e+00,1.984996080398559570e+00,1.984794378280639648e+00,1.984592676162719727e+00,1.984390735626220703e+00,1.984189152717590332e+00,1.983987569808959961e+00,1.983786106109619141e+00,1.983584642410278320e+00,1.983383178710937500e+00,1.983181834220886230e+00,1.982980489730834961e+00,1.982779145240783691e+00,1.982577800750732422e+00,1.982376694679260254e+00,1.982175230979919434e+00,1.981974124908447266e+00,1.981773018836975098e+00,1.981571912765502930e+00,1.981370925903320312e+00,1.981169939041137695e+00,1.980968952178955078e+00,1.980768084526062012e+00,1.980567216873168945e+00,1.980366349220275879e+00,1.980165600776672363e+00,1.979964852333068848e+00,1.979763865470886230e+00,1.979563236236572266e+00,1.979362607002258301e+00,1.979162096977233887e+00,1.978961467742919922e+00,1.978760957717895508e+00,1.978560566902160645e+00,1.978360176086425781e+00,1.978159785270690918e+00,1.977959394454956055e+00,1.977759122848510742e+00,1.977558612823486328e+00,1.977358460426330566e+00,1.977158308029174805e+00,1.976958155632019043e+00,1.976758003234863281e+00,1.976557970046997070e+00,1.976357936859130859e+00,1.976158022880554199e+00,1.975958108901977539e+00,1.975758194923400879e+00,1.975558280944824219e+00,1.975358247756958008e+00,1.975158572196960449e+00,1.974958777427673340e+00,1.974759101867675781e+00,1.974559426307678223e+00,1.974359869956970215e+00,1.974160313606262207e+00,1.973960757255554199e+00,1.973761320114135742e+00,1.973561882972717285e+00,1.973362445831298828e+00,1.967049479484558105e+00,1.935050725936889648e+00,1.904076576232910156e+00,1.874078392982482910e+00,1.845010757446289062e+00
1.777736306190490723e+00,1.777574539184570312e+00,1.777412772178649902e+00,1.777251005172729492e+00,1.777089357376098633e+00,1.776927709579467773e+00,1.776766061782836914e+00,1.776604413986206055e+00,1.776442766189575195e+00,1.776281237602233887e+00,1.776119470596313477e+00,1.775958061218261719e+00,1.775796532630920410e+00,1.775635123252868652e+00,1.775473713874816895e+00,1.775312304496765137e+00,1.775151014328002930e+00,1.774989604949951172e+00,1.774828314781188965e+00,1.774667024612426758e+00,1.774505853652954102e+00,1.774344444274902344e+00,1.774183273315429688e+00,1.774022102355957031e+00,1.773860931396484375e+00,1.773699879646301270e+00,1.773538827896118164e+00,1.773377776145935059e+00,1.773216843605041504e+00,1.773055791854858398e+00,1.772894859313964844e+00,1.772733926773071289e+00,1.772573113441467285e+00,1.772412061691284180e+00,1.772251129150390625e+00,1.772090435028076172e+00,1.771929621696472168e+00,1.771768808364868164e+00,1.771608114242553711e+00,1.771447420120239258e+00,1.771286845207214355e+00,1.771126151084899902e+00,1.770965576171875000e+00,1.770805001258850098e+00,1.770644307136535645e+00,1.770483732223510742e+00,1.770323276519775391e+00,1.770162820816040039e+00,1.770002365112304688e+00,1.769842028617858887e+00,1.769681692123413086e+00,1.769521355628967285e+00,1.769361019134521484e+00,1.769200801849365234e+00,1.769040465354919434e+00,1.768880128860473633e+00,1.768719911575317383e+00,1.768559694290161133e+00,1.768399596214294434e+00,1.768239498138427734e+00,1.768079400062561035e+00,1.767919421195983887e+00,1.767759323120117188e+00,1.767599344253540039e+00,1.767439484596252441e+00,1.767279505729675293e+00,1.767119407653808594e+00,1.766959547996520996e+00,1.766799688339233398e+00,1.766639947891235352e+00,1.766480088233947754e+00,1.766320347785949707e+00,1.766160607337951660e+00,1.766000986099243164e+00,1.765841245651245117e+00,1.765681624412536621e+00,1.765522003173828125e+00,1.765362262725830078e+00,1.765202760696411133e+00,1.765043258666992188e+00
1.607546329498291016e+00,1.607413768768310547e+00,1.607281565666198730e+00,1.607149243354797363e+00,1.607017040252685547e+00,1.606884837150573730e+00,1.606752634048461914e+00,1.606620430946350098e+00,1.606488347053527832e+00,1.606356143951416016e+00,1.606224060058593750e+00,1.606091976165771484e+00,1.605959773063659668e+00,1.605827808380126953e+00,1.605695724487304688e+00,1.605563759803771973e+00,1.605431795120239258e+00,1.605299830436706543e+00,1.605167865753173828e+00,1.605036020278930664e+00,1.604904055595397949e+00,1.604772210121154785e+00,1.604640364646911621e+00,1.604508519172668457e+00,1.604376554489135742e+00,1.604244828224182129e+00,1.604113101959228516e+00,1.603981256484985352e+00,1.603849649429321289e+00,1.603717923164367676e+00,1.603586196899414062e+00,1.603454589843750000e+00,1.603322982788085938e+00,1.603191375732421875e+00,1.603059768676757812e+00,1.602928042411804199e+00,1.602796554565429688e+00,1.602664947509765625e+00,1.602533459663391113e+00,1.602401971817016602e+00,1.602270483970642090e+00,1.602139115333557129e+00,1.602007746696472168e+00,1.601876258850097656e+00,1.601744890213012695e+00,1.601613640785217285e+00,1.601482152938842773e+00,1.601350784301757812e+00,1.601219534873962402e+00,1.601088285446166992e+00,1.600957036018371582e+00,1.600825786590576172e+00,1.600694656372070312e+00,1.600563406944274902e+00,1.600432276725769043e+00,1.600301146507263184e+00,1.600170016288757324e+00,1.600038766860961914e+00,1.599907636642456055e+00,1.599776625633239746e+00,1.599645614624023438e+00,1.599514603614807129e+00,1.599383592605590820e+00,1.599252700805664062e+00,1.599121689796447754e+00,1.598990797996520996e+00,1.598859906196594238e+00,1.598729014396667480e+00,1.598598003387451172e+00,1.598467230796813965e+00,1.598336458206176758e+00,1.598205566406250000e+00,1.598074913024902344e+00,1.597944140434265137e+00,1.597813367843627930e+00,1.597682714462280273e+00,1.597551941871643066e+00,1.597421288490295410e+00,1.597290635108947754e+00,1.597160100936889648e+00
1.467095017433166504e+00,1.466984868049621582e+00,1.466874718666076660e+00,1.466764330863952637e+00,1.466654300689697266e+00,1.466544151306152344e+00,1.466434001922607422e+00,1.466323852539062500e+00,1.466213822364807129e+00,1.466103792190551758e+00,1.465993762016296387e+00,1.465883731842041016e+00,1.465773701667785645e+00,1.465663671493530273e+00,1.465553522109985352e+00,1.465443611145019531e+00,1.465333700180053711e+00,1.465223670005798340e+00,1.465113759040832520e+00,1.465003967285156250e+00,1.464894056320190430e+00,1.464784145355224609e+00,1.464674353599548340e+00,1.464564442634582520e+00,1.464454650878906250e+00,1.464344859123229980e+00,1.464234948158264160e+00,1.464125156402587891e+00,1.464015483856201172e+00,1.463905692100524902e+00,1.463796019554138184e+00,1.463686347007751465e+00,1.463576674461364746e+00,1.463467001914978027e+00,1.463357329368591309e+00,1.463247656822204590e+00,1.463138103485107422e+00,1.463028311729431152e+00,1.462918758392333984e+00,1.462809205055236816e+00,1.462699651718139648e+00,1.462590098381042480e+00,1.462480545043945312e+00,1.462371110916137695e+00,1.462261557579040527e+00,1.462152123451232910e+00,1.462042689323425293e+00,1.461933255195617676e+00,1.461823701858520508e+00,1.461714267730712891e+00,1.461604952812194824e+00,1.461495518684387207e+00,1.461386203765869141e+00,1.461276888847351074e+00,1.461167573928833008e+00,1.461058259010314941e+00,1.460948944091796875e+00,1.460839629173278809e+00,1.460730433464050293e+00,1.460620999336242676e+00,1.460511803627014160e+00,1.460402607917785645e+00,1.460293412208557129e+00,1.460184216499328613e+00,1.460075139999389648e+00,1.459965944290161133e+00,1.459856867790222168e+00,1.459747672080993652e+00,1.459638595581054688e+00,1.459529519081115723e+00,1.459420323371887207e+00,1.459311366081237793e+00,1.459202289581298828e+00,1.459093332290649414e+00,1.458984255790710449e+00,1.458875298500061035e+00,1.458766341209411621e+00,1.458657383918762207e+00,1.458548426628112793e+00,1.458439588546752930e+00
1.349214196205139160e+00,1.349121093750000000e+00,1.349027872085571289e+00,1.348934650421142578e+00,1.348841547966003418e+00,1.348748207092285156e+00,1.348655104637145996e+00,1.348562002182006836e+00,1.348468899726867676e+00,1.348375797271728516e+00,1.348282694816589355e+00,1.348189711570739746e+00,1.348096609115600586e+00,1.348003506660461426e+00,1.347910523414611816e+00,1.347817540168762207e+00,1.347724437713623047e+00,1.347631454467773438e+00,1.347538471221923828e+00,1.347445487976074219e+00,1.347352504730224609e+00,1.347259640693664551e+00,1.347166657447814941e+00,1.347073793411254883e+00,1.346980810165405273e+00,1.346887946128845215e+00,1.346795082092285156e+00,1.346702218055725098e+00,1.346609234809875488e+00,1.346516489982604980e+00,1.346423625946044922e+00,1.346330761909484863e+00,1.346238017082214355e+00,1.346145272254943848e+00,1.346052408218383789e+00,1.345959663391113281e+00,1.345866918563842773e+00,1.345774173736572266e+00,1.345681428909301758e+00,1.345588684082031250e+00,1.345495939254760742e+00,1.345403313636779785e+00,1.345310568809509277e+00,1.345217943191528320e+00,1.345125317573547363e+00,1.345032691955566406e+00,1.344940066337585449e+00,1.344847440719604492e+00,1.344754815101623535e+00,1.344662308692932129e+00,1.344569563865661621e+00,1.344477057456970215e+00,1.344384431838989258e+00,1.344291925430297852e+00,1.344199419021606445e+00,1.344106912612915039e+00,1.344014406204223633e+00,1.343921899795532227e+00,1.343829512596130371e+00,1.343737006187438965e+00,1.343644618988037109e+00,1.343551993370056152e+00,1.343459606170654297e+00,1.343367218971252441e+00,1.343274831771850586e+00,1.343182444572448730e+00,1.343090057373046875e+00,1.342997670173645020e+00,1.342905402183532715e+00,1.342813014984130859e+00,1.342720746994018555e+00,1.342628359794616699e+00,1.342535972595214844e+00,1.342443704605102539e+00,1.342351436614990234e+00,1.342259168624877930e+00,1.342167019844055176e+00,1.342074751853942871e+00,1.341982483863830566e+00,1.341890335083007812e+00
1.248867988586425781e+00,1.248788118362426758e+00,1.248708248138427734e+00,1.248628497123718262e+00,1.248548626899719238e+00,1.248468875885009766e+00,1.248389005661010742e+00,1.248309135437011719e+00,1.248229384422302246e+00,1.248149633407592773e+00,1.248069882392883301e+00,1.247990131378173828e+00,1.247910380363464355e+00,1.247830629348754883e+00,1.247750878334045410e+00,1.247671127319335938e+00,1.247591495513916016e+00,1.247511744499206543e+00,1.247431993484497070e+00,1.247352361679077148e+00,1.247272729873657227e+00,1.247193098068237305e+00,1.247113466262817383e+00,1.247033834457397461e+00,1.246954202651977539e+00,1.246874570846557617e+00,1.246794939041137695e+00,1.246715426445007324e+00,1.246635794639587402e+00,1.246556282043457031e+00,1.246476650238037109e+00,1.246397018432617188e+00,1.246317505836486816e+00,1.246237993240356445e+00,1.246158480644226074e+00,1.246078968048095703e+00,1.245999455451965332e+00,1.245919942855834961e+00,1.245840549468994141e+00,1.245761036872863770e+00,1.245681643486022949e+00,1.245602011680603027e+00,1.245522618293762207e+00,1.245443224906921387e+00,1.245363831520080566e+00,1.245284438133239746e+00,1.245205044746398926e+00,1.245125651359558105e+00,1.245046257972717285e+00,1.244966864585876465e+00,1.244887471199035645e+00,1.244808197021484375e+00,1.244728803634643555e+00,1.244649410247802734e+00,1.244570136070251465e+00,1.244490861892700195e+00,1.244411468505859375e+00,1.244332194328308105e+00,1.244252920150756836e+00,1.244173765182495117e+00,1.244094491004943848e+00,1.244015216827392578e+00,1.243935942649841309e+00,1.243856668472290039e+00,1.243777513504028320e+00,1.243698239326477051e+00,1.243619084358215332e+00,1.243539929389953613e+00,1.243460774421691895e+00,1.243381619453430176e+00,1.243302464485168457e+00,1.243223309516906738e+00,1.243144154548645020e+00,1.243064999580383301e+00,1.242985963821411133e+00,1.242906689643859863e+00,1.242827653884887695e+00,1.242748618125915527e+00,1.242669463157653809e+00,1.242590427398681641e+00
1.162414669990539551e+00,1.162345528602600098e+00,1.162276387214660645e+00,1.162207245826721191e+00,1.162138104438781738e+00,1.162068843841552734e+00,1.161999821662902832e+00,1.161930680274963379e+00,1.161861538887023926e+00,1.161792397499084473e+00,1.161723256111145020e+00,1.161654114723205566e+00,1.161585092544555664e+00,1.161515951156616211e+00,1.161446928977966309e+00,1.161377787590026855e+00,1.161308765411376953e+00,1.161239743232727051e+00,1.161170721054077148e+00,1.161101698875427246e+00,1.161032676696777344e+00,1.160963535308837891e+00,1.160894513130187988e+00,1.160825490951538086e+00,1.160756587982177734e+00,1.160687565803527832e+00,1.160618543624877930e+00,1.160549640655517578e+00,1.160480618476867676e+00,1.160411715507507324e+00,1.160342812538146973e+00,1.160273790359497070e+00,1.160204768180847168e+00,1.160135865211486816e+00,1.160066962242126465e+00,1.159998059272766113e+00,1.159929156303405762e+00,1.159860372543334961e+00,1.159791469573974609e+00,1.159722566604614258e+00,1.159653663635253906e+00,1.159584879875183105e+00,1.159515976905822754e+00,1.159447073936462402e+00,1.159378290176391602e+00,1.159309506416320801e+00,1.159240603446960449e+00,1.159171819686889648e+00,1.159103035926818848e+00,1.159034252166748047e+00,1.158965468406677246e+00,1.158896684646606445e+00,1.158827900886535645e+00,1.158759236335754395e+00,1.158690333366394043e+00,1.158621668815612793e+00,1.158552885055541992e+00,1.158484220504760742e+00,1.158415436744689941e+00,1.158346772193908691e+00,1.158278107643127441e+00,1.158209443092346191e+00,1.158140778541564941e+00,1.158072113990783691e+00,1.158003449440002441e+00,1.157934784889221191e+00,1.157866001129150391e+00,1.157797455787658691e+00,1.157728791236877441e+00,1.157660126686096191e+00,1.157591581344604492e+00,1.157522916793823242e+00,1.157454371452331543e+00,1.157385706901550293e+00,1.157317161560058594e+00,1.157248616218566895e+00,1.157180070877075195e+00,1.157111406326293945e+00,1.157042860984802246e+00,1.156974315643310547e+00
1.087155938148498535e+00,1.087095499038696289e+00,1.087034940719604492e+00,1.086974501609802246e+00,1.086913943290710449e+00,1.086853504180908203e+00,1.086793065071105957e+00,1.086732506752014160e+00,1.086672067642211914e+00,1.086611628532409668e+00,1.086551189422607422e+00,1.086490750312805176e+00,1.086430191993713379e+00,1.086369752883911133e+00,1.086309313774108887e+00,1.086248993873596191e+00,1.086188554763793945e+00,1.086128115653991699e+00,1.086067795753479004e+00,1.086007356643676758e+00,1.085946917533874512e+00,1.085886597633361816e+00,1.085826277732849121e+00,1.085765838623046875e+00,1.085705399513244629e+00,1.085645079612731934e+00,1.085584759712219238e+00,1.085524439811706543e+00,1.085464119911193848e+00,1.085403800010681152e+00,1.085343480110168457e+00,1.085283160209655762e+00,1.085222840309143066e+00,1.085162520408630371e+00,1.085102200508117676e+00,1.085041880607604980e+00,1.084981679916381836e+00,1.084921360015869141e+00,1.084861159324645996e+00,1.084800839424133301e+00,1.084740638732910156e+00,1.084680318832397461e+00,1.084620118141174316e+00,1.084559917449951172e+00,1.084499716758728027e+00,1.084439396858215332e+00,1.084379196166992188e+00,1.084318995475769043e+00,1.084258794784545898e+00,1.084198594093322754e+00,1.084138393402099609e+00,1.084078192710876465e+00,1.084018111228942871e+00,1.083957910537719727e+00,1.083897709846496582e+00,1.083837628364562988e+00,1.083777427673339844e+00,1.083717226982116699e+00,1.083657145500183105e+00,1.083596944808959961e+00,1.083536863327026367e+00,1.083476781845092773e+00,1.083416700363159180e+00,1.083356618881225586e+00,1.083296537399291992e+00,1.083236455917358398e+00,1.083176374435424805e+00,1.083116292953491211e+00,1.083056092262268066e+00,1.082996129989624023e+00,1.082936048507690430e+00,1.082875967025756836e+00,1.082816004753112793e+00,1.082755923271179199e+00,1.082695841789245605e+00,1.082635879516601562e+00,1.082575917243957520e+00,1.082515835762023926e+00,1.082455873489379883e+00,1.082395792007446289e+00
1.021049737930297852e+00,1.020996451377868652e+00,1.020942926406860352e+00,1.020889639854431152e+00,1.020836234092712402e+00,1.020782947540283203e+00,1.020729541778564453e+00,1.020676255226135254e+00,1.020622849464416504e+00,1.020569562911987305e+00,1.020516157150268555e+00,1.020462870597839355e+00,1.020409584045410156e+00,1.020356297492980957e+00,1.020302891731262207e+00,1.020249605178833008e+00,1.020196318626403809e+00,1.020143032073974609e+00,1.020089745521545410e+00,1.020036458969116211e+00,1.019983172416687012e+00,1.019929885864257812e+00,1.019876718521118164e+00,1.019823431968688965e+00,1.019770145416259766e+00,1.019716858863830566e+00,1.019663691520690918e+00,1.019610404968261719e+00,1.019557237625122070e+00,1.019503951072692871e+00,1.019450783729553223e+00,1.019397497177124023e+00,1.019344329833984375e+00,1.019291162490844727e+00,1.019237995147705078e+00,1.019184708595275879e+00,1.019131541252136230e+00,1.019078373908996582e+00,1.019025206565856934e+00,1.018972039222717285e+00,1.018918871879577637e+00,1.018865704536437988e+00,1.018812537193298340e+00,1.018759369850158691e+00,1.018706321716308594e+00,1.018653154373168945e+00,1.018599987030029297e+00,1.018546819686889648e+00,1.018493771553039551e+00,1.018440604209899902e+00,1.018387556076049805e+00,1.018334388732910156e+00,1.018281340599060059e+00,1.018228292465209961e+00,1.018175125122070312e+00,1.018122076988220215e+00,1.018069028854370117e+00,1.018015980720520020e+00,1.017962813377380371e+00,1.017909765243530273e+00,1.017856717109680176e+00,1.017803668975830078e+00,1.017750620841979980e+00,1.017697572708129883e+00,1.017644643783569336e+00,1.017591595649719238e+00,1.017538547515869141e+00,1.017485499382019043e+00,1.017432570457458496e+00,1.017379522323608398e+00,1.017326474189758301e+00,1.017273545265197754e+00,1.017220497131347656e+00,1.017167568206787109e+00,1.017114520072937012e+00,1.017061591148376465e+00,1.017008662223815918e+00,1.016955733299255371e+00,1.016902804374694824e+00,1.016849756240844727e+00
9.625220894813537598e-01,9.624747037887573242e-01,9.624272584915161133e-01,9.623798727989196777e-01,9.623323678970336914e-01,9.622849225997924805e-01,9.622375369071960449e-01,9.621900916099548340e-01,9.621427655220031738e-01,9.620953202247619629e-01,9.620479941368103027e-01,9.620005488395690918e-01,9.619532227516174316e-01,9.619057774543762207e-01,9.618584513664245605e-01,9.618110656738281250e-01,9.617636203765869141e-01,9.617162942886352539e-01,9.616689085960388184e-01,9.616216421127319336e-01,9.615741968154907227e-01,9.615269303321838379e-01,9.614795446395874023e-01,9.614322781562805176e-01,9.613848924636840820e-01,9.613376259803771973e-01,9.612902402877807617e-01,9.612429141998291016e-01,9.611956477165222168e-01,9.611483216285705566e-01,9.611010551452636719e-01,9.610537290573120117e-01,9.610064625740051270e-01,9.609591364860534668e-01,9.609119296073913574e-01,9.608646035194396973e-01,9.608173966407775879e-01,9.607700705528259277e-01,9.607227444648742676e-01,9.606755375862121582e-01,9.606282114982604980e-01,9.605810642242431641e-01,9.605337381362915039e-01,9.604865908622741699e-01,9.604392647743225098e-01,9.603921175003051758e-01,9.603448510169982910e-01,9.602976441383361816e-01,9.602503776550292969e-01,9.602031111717224121e-01,9.601559638977050781e-01,9.601086974143981934e-01,9.600616097450256348e-01,9.600143432617187500e-01,9.599671959877014160e-01,9.599199891090393066e-01,9.598728418350219727e-01,9.598256349563598633e-01,9.597784876823425293e-01,9.597312808036804199e-01,9.596841931343078613e-01,9.596369862556457520e-01,9.595897793769836426e-01,9.595426917076110840e-01,9.594954848289489746e-01,9.594483971595764160e-01,9.594012498855590820e-01,9.593541622161865234e-01,9.593069553375244141e-01,9.592599272727966309e-01,9.592127799987792969e-01,9.591656923294067383e-01,9.591185450553894043e-01,9.590713977813720703e-01,9.590243697166442871e-01,9.589772224426269531e-01,9.589301943778991699e-01,9.588830471038818359e-01,9.588360190391540527e-01,9.587889313697814941e-01
9.103403687477111816e-01,9.102979898452758789e-01,9.102554917335510254e-01,9.102131128311157227e-01,9.101706743240356445e-01,9.101282954216003418e-01,9.100858569145202637e-01,9.100434184074401855e-01,9.100010395050048828e-01,9.099586009979248047e-01,9.099162220954895020e-01,9.098737835884094238e-01,9.098314642906188965e-01,9.097890257835388184e-01,9.097467064857482910e-01,9.097042679786682129e-01,9.096619486808776855e-01,9.096195697784423828e-01,9.095771312713623047e-01,9.095348119735717773e-01,9.094924330711364746e-01,9.094501137733459473e-01,9.094077348709106445e-01,9.093654751777648926e-01,9.093230366706848145e-01,9.092807769775390625e-01,9.092383980751037598e-01,9.091961383819580078e-01,9.091537594795227051e-01,9.091113805770874023e-01,9.090691208839416504e-01,9.090267419815063477e-01,9.089844822883605957e-01,9.089421629905700684e-01,9.088999032974243164e-01,9.088575839996337891e-01,9.088153243064880371e-01,9.087730050086975098e-01,9.087307453155517578e-01,9.086884260177612305e-01,9.086461067199707031e-01,9.086038470268249512e-01,9.085615277290344238e-01,9.085193276405334473e-01,9.084770083427429199e-01,9.084348082542419434e-01,9.083925485610961914e-01,9.083503484725952148e-01,9.083080291748046875e-01,9.082658290863037109e-01,9.082235693931579590e-01,9.081813693046569824e-01,9.081391096115112305e-01,9.080968499183654785e-01,9.080546498298645020e-01,9.080123901367187500e-01,9.079702496528625488e-01,9.079279899597167969e-01,9.078858494758605957e-01,9.078435897827148438e-01,9.078014492988586426e-01,9.077591896057128906e-01,9.077170491218566895e-01,9.076747894287109375e-01,9.076325893402099609e-01,9.075904488563537598e-01,9.075482487678527832e-01,9.075061082839965820e-01,9.074639081954956055e-01,9.074217677116394043e-01,9.073795676231384277e-01,9.073374867439270020e-01,9.072952866554260254e-01,9.072532057762145996e-01,9.072110056877136230e-01,9.071688055992126465e-01,9.071267247200012207e-01,9.070845246315002441e-01,9.070424437522888184e-01,9.070003032684326172e-01
8.635255694389343262e-01,8.634874820709228516e-01,8.634492158889770508e-01,8.634111285209655762e-01,8.633729219436645508e-01,8.633347749710083008e-01,8.632965683937072754e-01,8.632584810256958008e-01,8.632202744483947754e-01,8.631820678710937500e-01,8.631439805030822754e-01,8.631057739257812500e-01,8.630676865577697754e-01,8.630294799804687500e-01,8.629913926124572754e-01,8.629532456398010254e-01,8.629151582717895508e-01,8.628770112991333008e-01,8.628389239311218262e-01,8.628007769584655762e-01,8.627626299858093262e-01,8.627245426177978516e-01,8.626863956451416016e-01,8.626483082771301270e-01,8.626101613044738770e-01,8.625721335411071777e-01,8.625339865684509277e-01,8.624959588050842285e-01,8.624578118324279785e-01,8.624197840690612793e-01,8.623816370964050293e-01,8.623435497283935547e-01,8.623055219650268555e-01,8.622673749923706055e-01,8.622293472290039062e-01,8.621912598609924316e-01,8.621532320976257324e-01,8.621151447296142578e-01,8.620771169662475586e-01,8.620390295982360840e-01,8.620010614395141602e-01,8.619629740715026855e-01,8.619248867034912109e-01,8.618868589401245117e-01,8.618488311767578125e-01,8.618108034133911133e-01,8.617727160453796387e-01,8.617347478866577148e-01,8.616967201232910156e-01,8.616587519645690918e-01,8.616206645965576172e-01,8.615826964378356934e-01,8.615446686744689941e-01,8.615067005157470703e-01,8.614686727523803711e-01,8.614306449890136719e-01,8.613926768302917480e-01,8.613546490669250488e-01,8.613166809082031250e-01,8.612786531448364258e-01,8.612407445907592773e-01,8.612027168273925781e-01,8.611648082733154297e-01,8.611267805099487305e-01,8.610888719558715820e-01,8.610508441925048828e-01,8.610128164291381836e-01,8.609749078750610352e-01,8.609369397163391113e-01,8.608990311622619629e-01,8.608610630035400391e-01,8.608231544494628906e-01,8.607851862907409668e-01,8.607472777366638184e-01,8.607093095779418945e-01,8.606714010238647461e-01,8.606334328651428223e-01,8.605954647064208984e-01,8.605576157569885254e-01,8.605196475982666016e-01
