5.000000000000000000e+00,5.000000000000000000e+00,5.000000000000000000e+00,5.000000000000000000e+00,5.000000000000000000e+00,5.000000000000000000e+00,5.000000000000000000e+00,5.000000000000000000e+00,5.000000000000000000e+00,5.000000000000000000e+00,5.000000000000000000e+00,5.000000000000000000e+00,5.000000000000000000e+00,5.000000000000000000e+00,5.000000000000000000e+00,5.000000000000000000e+00,5.000000000000000000e+00,5.000000000000000000e+00,5.000000000000000000e+00,5.000000000000000000e+00,5.000000000000000000e+00,5.000000000000000000e+00,5.000000000000000000e+00,5.000000000000000000e+00,5.000000000000000000e+00,5.000000000000000000e+00,5.000000000000000000e+00,5.000000000000000000e+00,5.000000000000000000e+00,5.000000000000000000e+00,5.000000000000000000e+00,5.000000000000000000e+00,2.221815824508666992e+00,2.179666757583618164e+00,2.181796550750732422e+00,2.162972211837768555e+00,2.139284133911132812e+00,2.129662036895751953e+00,2.135060548782348633e+00,2.160448789596557617e+00,2.180325269699096680e+00,2.233046531677246094e+00,2.359150886535644531e+00,4.337633132934570312e+00,4.183869361877441406e+00,4.040634155273437500e+00,3.906882047653198242e+00,3.781700611114501953e+00,3.664292097091674805e+00,3.553954601287841797e+00,3.450067520141601562e+00,3.352081298828125000e+00,3.259507894515991211e+00,3.171909570693969727e+00,3.088896512985229492e+00,3.010117769241333008e+00,2.935257673263549805e+00,2.864030361175537109e+00,2.796177864074707031e+00,2.731466531753540039e+00,2.669682264328002930e+00,2.610631227493286133e+00,2.554136037826538086e+00,2.500034093856811523e+00,2.448176860809326172e+00,2.398427009582519531e+00,2.350658893585205078e+00,2.304756402969360352e+00,2.260612249374389648e+00,2.218127250671386719e+00,2.177209854125976562e+00,2.137774705886840820e+00,2.099742650985717773e+00,2.063040018081665039e+00,2.027598619461059570e+00,1.993354320526123047e+00,1.960247397422790527e+00,1.928222417831420898e+00,1.897226810455322266e+00,1.867212176322937012e+00
5.000000000000000000e+00,5.000000000000000000e+00,5.000000000000000000e+00,5.000000000000000000e+00,5.000000000000000000e+00,5.000000000000000000e+00,5.000000000000000000e+00,5.000000000000000000e+00,5.000000000000000000e+00,5.000000000000000000e+00,5.000000000000000000e+00,5.000000000000000000e+00,5.000000000000000000e+00,5.000000000000000000e+00,5.000000000000000000e+00,5.000000000000000000e+00,5.000000000000000000e+00,5.000000000000000000e+00,5.000000000000000000e+00,5.000000000000000000e+00,5.000000000000000000e+00,5.000000000000000000e+00,5.000000000000000000e+00,5.000000000000000000e+00,5.000000000000000000e+00,5.000000000000000000e+00,5.000000000000000000e+00,5.000000000000000000e+00,5.000000000000000000e+00,5.000000000000000000e+00,5.000000000000000000e+00,5.000000000000000000e+00,5.000000000000000000e+00,2.185652971267700195e+00,2.193212509155273438e+00,2.160356760025024414e+00,2.136457681655883789e+00,2.124627590179443359e+00,2.129566669464111328e+00,2.146616458892822266e+00,2.170507192611694336e+00,2.203534841537475586e+00,2.371121406555175781e+00,4.337746620178222656e+00,4.183975219726562500e+00,4.040732860565185547e+00,3.906974315643310547e+00,3.781787157058715820e+00,3.664373397827148438e+00,3.554030656814575195e+00,3.450139522552490234e+00,3.352149248123168945e+00,3.259571790695190430e+00,3.171970367431640625e+00,3.088954210281372070e+00,3.010172605514526367e+00,2.935309410095214844e+00,2.864079952239990234e+00,2.796225309371948242e+00,2.731511354446411133e+00,2.669725179672241211e+00,2.610672473907470703e+00,2.554175376892089844e+00,2.500071763992309570e+00,2.448213100433349609e+00,2.398461818695068359e+00,2.350692272186279297e+00,2.304788351058959961e+00,2.260643243789672852e+00,2.218157052993774414e+00,2.177238464355468750e+00,2.137802362442016602e+00,2.099769353866577148e+00,2.063065767288208008e+00,2.027623414993286133e+00,1.993378400802612305e+00,1.960270524024963379e+00,1.928244829177856445e+00,1.897248744964599609e+00,1.867233157157897949e+00
5.000000000000000000e+00,5.000000000000000000e+00,5.000000000000000000e+00,5.000000000000000000e+00,5.000000000000000000e+00,5.000000000000000000e+00,5.000000000000000000e+00,5.000000000000000000e+00,5.000000000000000000e+00,5.000000000000000000e+00,5.000000000000000000e+00,5.000000000000000000e+00,5.000000000000000000e+00,5.000000000000000000e+00,5.000000000000000000e+00,5.000000000000000000e+00,5.000000000000000000e+00,5.000000000000000000e+00,5.000000000000000000e+00,5.000000000000000000e+00,5.000000000000000000e+00,5.000000000000000000e+00,5.000000000000000000e+00,5.000000000000000000e+00,5.000000000000000000e+00,5.000000000000000000e+00,5.000000000000000000e+00,5.000000000000000000e+00,5.000000000000000000e+00,5.000000000000000000e+00,5.000000000000000000e+00,5.000000000000000000e+00,5.000000000000000000e+00,2.172796726226806641e+00,2.180843591690063477e+00,2.169095277786254883e+00,2.143245935440063477e+00,2.138895034790039062e+00,2.140981912612915039e+00,2.153113842010498047e+00,2.178658485412597656e+00,2.235049247741699219e+00,2.384583234786987305e+00,4.337860107421875000e+00,4.184081077575683594e+00,4.040831565856933594e+00,3.907066345214843750e+00,3.781873226165771484e+00,3.664454460144042969e+00,3.554107189178466797e+00,3.450211286544799805e+00,3.352217435836791992e+00,3.259635925292968750e+00,3.172030925750732422e+00,3.089011669158935547e+00,3.010227441787719727e+00,2.935361623764038086e+00,2.864129304885864258e+00,2.796272516250610352e+00,2.731556415557861328e+00,2.669768333435058594e+00,2.610713481903076172e+00,2.554214954376220703e+00,2.500109672546386719e+00,2.448249101638793945e+00,2.398496627807617188e+00,2.350725650787353516e+00,2.304820537567138672e+00,2.260673999786376953e+00,2.218186855316162109e+00,2.177267074584960938e+00,2.137829780578613281e+00,2.099795818328857422e+00,2.063091516494750977e+00,2.027648210525512695e+00,1.993402361869812012e+00,1.960293889045715332e+00,1.928267240524291992e+00,1.897270441055297852e+00,1.867254137992858887e+00
5.000000000000000000e+00,5.000000000000000000e+00,5.000000000000000000e+00,5.000000000000000000e+00,5.000000000000000000e+00,5.000000000000000000e+00,5.000000000000000000e+00,5.000000000000000000e+00,5.000000000000000000e+00,5.000000000000000000e+00,5.000000000000000000e+00,5.000000000000000000e+00,5.000000000000000000e+00,5.000000000000000000e+00,5.000000000000000000e+00,5.000000000000000000e+00,5.000000000000000000e+00,5.000000000000000000e+00,5.000000000000000000e+00,5.000000000000000000e+00,5.000000000000000000e+00,5.000000000000000000e+00,5.000000000000000000e+00,5.000000000000000000e+00,5.000000000000000000e+00,5.000000000000000000e+00,5.000000000000000000e+00,5.000000000000000000e+00,5.000000000000000000e+00,5.000000000000000000e+00,5.000000000000000000e+00,5.000000000000000000e+00,5.000000000000000000e+00,2.155667304992675781e+00,2.156790256500244141e+00,2.162808418273925781e+00,2.143173694610595703e+00,2.138149976730346680e+00,2.145310401916503906e+00,2.156429767608642578e+00,2.179028511047363281e+00,2.217770099639892578e+00,2.375811815261840820e+00,4.337973594665527344e+00,4.184186458587646484e+00,4.040930271148681641e+00,3.907158613204956055e+00,3.781959772109985352e+00,3.664535284042358398e+00,3.554183483123779297e+00,3.450283288955688477e+00,3.352284908294677734e+00,3.259700298309326172e+00,3.172091960906982422e+00,3.089069366455078125e+00,3.010281801223754883e+00,2.935413837432861328e+00,2.864178895950317383e+00,2.796319484710693359e+00,2.731601476669311523e+00,2.669811487197875977e+00,2.610754728317260742e+00,2.554254293441772461e+00,2.500147342681884766e+00,2.448285341262817383e+00,2.398531198501586914e+00,2.350759029388427734e+00,2.304852724075317383e+00,2.260704994201660156e+00,2.218216419219970703e+00,2.177295923233032227e+00,2.137857437133789062e+00,2.099822521209716797e+00,2.063117265701293945e+00,2.027673244476318359e+00,1.993426322937011719e+00,1.960317134857177734e+00,1.928289771080017090e+00,1.897292017936706543e+00,1.867275357246398926e+00
5.000000000000000000e+00,5.000000000000000000e+00,5.000000000000000000e+00,5.000000000000000000e+00,5.000000000000000000e+00,5.000000000000000000e+00,5.000000000000000000e+00,5.000000000000000000e+00,5.000000000000000000e+00,5.000000000000000000e+00,5.000000000000000000e+00,5.000000000000000000e+00,5.000000000000000000e+00,5.000000000000000000e+00,5.000000000000000000e+00,5.000000000000000000e+00,5.000000000000000000e+00,5.000000000000000000e+00,5.000000000000000000e+00,5.000000000000000000e+00,5.000000000000000000e+00,5.000000000000000000e+00,5.000000000000000000e+00,5.000000000000000000e+00,5.000000000000000000e+00,5.000000000000000000e+00,5.000000000000000000e+00,5.000000000000000000e+00,5.000000000000000000e+00,5.000000000000000000e+00,5.000000000000000000e+00,5.000000000000000000e+00,5.000000000000000000e+00,2.145269155502319336e+00,2.138301610946655273e+00,2.143011569976806641e+00,2.114165306091308594e+00,2.118700027465820312e+00,2.162055492401123047e+00,2.169080257415771484e+00,2.199837446212768555e+00,2.221435785293579102e+00,2.371032953262329102e+00,2.385807991027832031e+00,4.184292316436767578e+00,4.041028976440429688e+00,3.907250404357910156e+00,3.782046318054199219e+00,3.664616584777832031e+00,3.554259538650512695e+00,3.450355291366577148e+00,3.352352857589721680e+00,3.259764194488525391e+00,3.172152519226074219e+00,3.089127063751220703e+00,3.010336637496948242e+00,2.935465574264526367e+00,2.864228487014770508e+00,2.796366930007934570e+00,2.731646537780761719e+00,2.669854402542114258e+00,2.610795974731445312e+00,2.554293632507324219e+00,2.500185012817382812e+00,2.448321819305419922e+00,2.398566007614135742e+00,2.350792407989501953e+00,2.304884672164916992e+00,2.260735750198364258e+00,2.218246221542358398e+00,2.177324295043945312e+00,2.137885093688964844e+00,2.099849224090576172e+00,2.063143014907836914e+00,2.027697801589965820e+00,1.993450403213500977e+00,1.960340261459350586e+00,1.928312182426452637e+00,1.897313714027404785e+00,1.867296338081359863e+00
5.000000000000000000e+00,5.000000000000000000e+00,5.000000000000000000e+00,5.000000000000000000e+00,5.000000000000000000e+00,5.000000000000000000e+00,5.000000000000000000e+00,5.000000000000000000e+00,5.000000000000000000e+00,5.000000000000000000e+00,5.000000000000000000e+00,5.000000000000000000e+00,5.000000000000000000e+00,5.000000000000000000e+00,5.000000000000000000e+00,5.000000000000000000e+00,5.000000000000000000e+00,5.000000000000000000e+00,5.000000000000000000e+00,5.000000000000000000e+00,5.000000000000000000e+00,5.000000000000000000e+00,5.000000000000000000e+00,5.000000000000000000e+00,5.000000000000000000e+00,5.000000000000000000e+00,5.000000000000000000e+00,5.000000000000000000e+00,5.000000000000000000e+00,5.000000000000000000e+00,5.000000000000000000e+00,5.000000000000000000e+00,5.000000000000000000e+00,2.130327463150024414e+00,2.114798069000244141e+00,2.109534263610839844e+00,2.083992004394531250e+00,2.077957868576049805e+00,2.101853132247924805e+00,2.201311826705932617e+00,2.205733299255371094e+00,2.210102081298828125e+00,2.263863325119018555e+00,2.374016284942626953e+00,4.184398174285888672e+00,4.041127204895019531e+00,3.907342910766601562e+00,3.782132387161254883e+00,3.664697885513305664e+00,3.554336071014404297e+00,3.450426816940307617e+00,3.352421045303344727e+00,3.259828567504882812e+00,3.172213315963745117e+00,3.089184522628784180e+00,3.010391473770141602e+00,2.935517787933349609e+00,2.864278078079223633e+00,2.796414136886596680e+00,2.731691598892211914e+00,2.669897317886352539e+00,2.610836982727050781e+00,2.554333209991455078e+00,2.500222921371459961e+00,2.448357820510864258e+00,2.398600578308105469e+00,2.350825786590576172e+00,2.304916858673095703e+00,2.260766506195068359e+00,2.218276023864746094e+00,2.177353143692016602e+00,2.137912750244140625e+00,2.099875688552856445e+00,2.063168764114379883e+00,2.027722835540771484e+00,1.993474364280700684e+00,1.960363626480102539e+00,1.928334593772888184e+00,1.897335648536682129e+00,1.867317318916320801e+00
5.000000000000000000e+00,5.000000000000000000e+00,5.000000000000000000e+00,5.000000000000000000e+00,5.000000000000000000e+00,5.000000000000000000e+00,5.000000000000000000e+00,5.000000000000000000e+00,5.000000000000000000e+00,5.000000000000000000e+00,5.000000000000000000e+00,5.000000000000000000e+00,5.000000000000000000e+00,5.000000000000000000e+00,5.000000000000000000e+00,5.000000000000000000e+00,5.000000000000000000e+00,5.000000000000000000e+00,5.000000000000000000e+00,5.000000000000000000e+00,5.000000000000000000e+00,5.000000000000000000e+00,5.000000000000000000e+00,5.000000000000000000e+00,5.000000000000000000e+00,5.000000000000000000e+00,5.000000000000000000e+00,5.000000000000000000e+00,5.000000000000000000e+00,5.000000000000000000e+00,5.000000000000000000e+00,5.000000000000000000e+00,5.000000000000000000e+00,2.122829675674438477e+00,2.111626625061035156e+00,2.087934017181396484e+00,2.069499015808105469e+00,2.063411474227905273e+00,2.072245121002197266e+00,2.209681034088134766e+00,2.186645507812500000e+00,2.186784982681274414e+00,2.219905376434326172e+00,2.358674287796020508e+00,4.184504032135009766e+00,4.041225910186767578e+00,3.907435178756713867e+00,3.782218933105468750e+00,3.664778709411621094e+00,3.554412364959716797e+00,3.450498819351196289e+00,3.352488517761230469e+00,3.259892463684082031e+00,3.172274112701416016e+00,3.089242219924926758e+00,3.010446071624755859e+00,2.935570001602172852e+00,2.864327669143676758e+00,2.796461343765258789e+00,2.731736660003662109e+00,2.669940471649169922e+00,2.610878229141235352e+00,2.554372310638427734e+00,2.500260829925537109e+00,2.448394060134887695e+00,2.398635387420654297e+00,2.350859165191650391e+00,2.304948806762695312e+00,2.260797500610351562e+00,2.218305587768554688e+00,2.177381753921508789e+00,2.137940406799316406e+00,2.099902391433715820e+00,2.063194274902343750e+00,2.027747631072998047e+00,1.993498325347900391e+00,1.960386753082275391e+00,1.928357243537902832e+00,1.897357344627380371e+00,1.867338538169860840e+00
5.000000000000000000e+00,5.000000000000000000e+00,5.000000000000000000e+00,5.000000000000000000e+00,5.000000000000000000e+00,5.000000000000000000e+00,5.000000000000000000e+00,5.000000000000000000e+00,5.000000000000000000e+00,5.000000000000000000e+00,5.000000000000000000e+00,5.000000000000000000e+00,5.000000000000000000e+00,5.000000000000000000e+00,5.000000000000000000e+00,5.000000000000000000e+00,5.000000000000000000e+00,5.000000000000000000e+00,5.000000000000000000e+00,5.000000000000000000e+00,5.000000000000000000e+00,5.000000000000000000e+00,5.000000000000000000e+00,5.000000000000000000e+00,5.000000000000000000e+00,5.000000000000000000e+00,5.000000000000000000e+00,5.000000000000000000e+00,5.000000000000000000e+00,5.000000000000000000e+00,5.000000000000000000e+00,5.000000000000000000e+00,5.000000000000000000e+00,5.000000000000000000e+00,2.088300943374633789e+00,2.092220067977905273e+00,2.058453798294067383e+00,2.052025079727172852e+00,2.056562423706054688e+00,2.103080034255981445e+00,2.174313306808471680e+00,2.176588058471679688e+00,2.204727888107299805e+00,2.363584041595458984e+00,4.184609413146972656e+00,4.041324615478515625e+00,3.907527208328247070e+00,3.782305479049682617e+00,3.664860010147094727e+00,3.554488420486450195e+00,3.450571060180664062e+00,3.352556705474853516e+00,3.259956836700439453e+00,3.172334671020507812e+00,3.089299917221069336e+00,3.010500907897949219e+00,2.935621738433837891e+00,2.864377260208129883e+00,2.796508550643920898e+00,2.731781721115112305e+00,2.669983386993408203e+00,2.610919475555419922e+00,2.554411888122558594e+00,2.500298261642456055e+00,2.448430061340332031e+00,2.398670196533203125e+00,2.350892543792724609e+00,2.304980993270874023e+00,2.260828495025634766e+00,2.218335390090942383e+00,2.177410364151000977e+00,2.137967824935913086e+00,2.099929094314575195e+00,2.063220024108886719e+00,2.027772426605224609e+00,1.993522405624389648e+00,1.960409879684448242e+00,1.928379654884338379e+00,1.897378921508789062e+00,1.867359519004821777e+00
5.000000000000000000e+00,5.000000000000000000e+00,5.000000000000000000e+00,5.000000000000000000e+00,5.000000000000000000e+00,5.000000000000000000e+00,5.000000000000000000e+00,5.000000000000000000e+00,5.000000000000000000e+00,5.000000000000000000e+00,5.000000000000000000e+00,5.000000000000000000e+00,5.000000000000000000e+00,5.000000000000000000e+00,5.000000000000000000e+00,5.000000000000000000e+00,5.000000000000000000e+00,5.000000000000000000e+00,5.000000000000000000e+00,5.000000000000000000e+00,5.000000000000000000e+00,5.000000000000000000e+00,5.000000000000000000e+00,5.000000000000000000e+00,5.000000000000000000e+00,5.000000000000000000e+00,5.000000000000000000e+00,5.000000000000000000e+00,5.000000000000000000e+00,5.000000000000000000e+00,5.000000000000000000e+00,5.000000000000000000e+00,5.000000000000000000e+00,5.000000000000000000e+00,2.059200525283813477e+00,2.075175762176513672e+00,2.048873901367187500e+00,2.041087627410888672e+00,2.041115522384643555e+00,2.084123134613037109e+00,2.169227838516235352e+00,2.172837257385253906e+00,2.196169614791870117e+00,2.341165542602539062e+00,4.184715747833251953e+00,4.041423320770263672e+00,3.907619476318359375e+00,3.782391548156738281e+00,3.664941310882568359e+00,3.554564952850341797e+00,3.450642585754394531e+00,3.352624177932739258e+00,3.260021209716796875e+00,3.172395706176757812e+00,3.089357376098632812e+00,3.010555744171142578e+00,2.935673952102661133e+00,2.864426612854003906e+00,2.796555757522583008e+00,2.731827020645141602e+00,2.670026540756225586e+00,2.610960483551025391e+00,2.554451465606689453e+00,2.500336170196533203e+00,2.448466539382934570e+00,2.398704767227172852e+00,2.350925922393798828e+00,2.305012941360473633e+00,2.260859251022338867e+00,2.218365192413330078e+00,2.177438974380493164e+00,2.137995481491088867e+00,2.099955558776855469e+00,2.063245773315429688e+00,2.027797222137451172e+00,1.993546366691589355e+00,1.960433244705200195e+00,1.928401947021484375e+00,1.897400856018066406e+00,1.867380499839782715e+00
5.000000000000000000e+00,5.000000000000000000e+00,5.000000000000000000e+00,5.000000000000000000e+00,5.000000000000000000e+00,5.000000000000000000e+00,5.000000000000000000e+00,5.000000000000000000e+00,5.000000000000000000e+00,5.000000000000000000e+00,5.000000000000000000e+00,5.000000000000000000e+00,5.000000000000000000e+00,5.000000000000000000e+00,5.000000000000000000e+00,5.000000000000000000e+00,5.000000000000000000e+00,5.000000000000000000e+00,5.000000000000000000e+00,5.000000000000000000e+00,5.000000000000000000e+00,5.000000000000000000e+00,5.000000000000000000e+00,5.000000000000000000e+00,5.000000000000000000e+00,5.000000000000000000e+00,5.000000000000000000e+00,5.000000000000000000e+00,5.000000000000000000e+00,5.000000000000000000e+00,5.000000000000000000e+00,5.000000000000000000e+00,5.000000000000000000e+00,2.109933614730834961e+00,2.061902761459350586e+00,2.117180585861206055e+00,2.039487123489379883e+00,2.031424045562744141e+00,2.025678634643554688e+00,2.065504789352416992e+00,2.165145397186279297e+00,2.170019865036010742e+00,2.189302921295166016e+00,2.320099353790283203e+00,2.341889858245849609e+00,4.041522026062011719e+00,3.907711982727050781e+00,3.782478094100952148e+00,3.665022134780883789e+00,3.554641485214233398e+00,3.450714588165283203e+00,3.352692365646362305e+00,3.260085105895996094e+00,3.172456502914428711e+00,3.089415073394775391e+00,3.010610342025756836e+00,2.935726165771484375e+00,2.864476203918457031e+00,2.796602964401245117e+00,2.731871843338012695e+00,2.670069694519042969e+00,2.611001729965209961e+00,2.554490566253662109e+00,2.500374078750610352e+00,2.448502779006958008e+00,2.398739576339721680e+00,2.350959300994873047e+00,2.305045127868652344e+00,2.260890007019042969e+00,2.218394756317138672e+00,2.177467584609985352e+00,2.138023138046264648e+00,2.099982261657714844e+00,2.063271522521972656e+00,2.027822256088256836e+00,1.993570327758789062e+00,1.960456371307373047e+00,1.928424358367919922e+00,1.897422552108764648e+00,1.867401719093322754e+00
5.000000000000000000e+00,5.000000000000000000e+00,5.000000000000000000e+00,5.000000000000000000e+00,5.000000000000000000e+00,5.000000000000000000e+00,5.000000000000000000e+00,5.000000000000000000e+00,5.000000000000000000e+00,5.000000000000000000e+00,5.000000000000000000e+00,5.000000000000000000e+00,5.000000000000000000e+00,5.000000000000000000e+00,5.000000000000000000e+00,5.000000000000000000e+00,5.000000000000000000e+00,5.000000000000000000e+00,5.000000000000000000e+00,5.000000000000000000e+00,5.000000000000000000e+00,5.000000000000000000e+00,5.000000000000000000e+00,5.000000000000000000e+00,5.000000000000000000e+00,5.000000000000000000e+00,5.000000000000000000e+00,5.000000000000000000e+00,5.000000000000000000e+00,5.000000000000000000e+00,5.000000000000000000e+00,5.000000000000000000e+00,5.000000000000000000e+00,5.000000000000000000e+00,2.041249752044677734e+00,2.140037298202514648e+00,2.047757863998413086e+00,2.019689559936523438e+00,2.011863470077514648e+00,2.049658536911010742e+00,2.163274288177490234e+00,2.165053367614746094e+00,2.182987689971923828e+00,2.322363376617431641e+00,2.330162048339843750e+00,4.041620731353759766e+00,3.907803773880004883e+00,3.782564640045166016e+00,3.665103435516357422e+00,3.554717540740966797e+00,3.450786590576171875e+00,3.352760314941406250e+00,3.260149478912353516e+00,3.172517061233520508e+00,3.089473009109497070e+00,3.010665178298950195e+00,2.935777902603149414e+00,2.864525556564331055e+00,2.796650409698486328e+00,2.731916904449462891e+00,2.670112609863281250e+00,2.611042976379394531e+00,2.554530143737792969e+00,2.500411748886108398e+00,2.448538780212402344e+00,2.398774385452270508e+00,2.350992679595947266e+00,2.305077075958251953e+00,2.260921001434326172e+00,2.218424558639526367e+00,2.177496194839477539e+00,2.138050794601440430e+00,2.100008964538574219e+00,2.063297271728515625e+00,2.027846813201904297e+00,1.993594527244567871e+00,1.960479497909545898e+00,1.928447008132934570e+00,1.897444248199462891e+00,1.867422699928283691e+00
5.000000000000000000e+00,5.000000000000000000e+00,5.000000000000000000e+00,5.000000000000000000e+00,5.000000000000000000e+00,5.000000000000000000e+00,5.000000000000000000e+00,5.000000000000000000e+00,5.000000000000000000e+00,5.000000000000000000e+00,5.000000000000000000e+00,5.000000000000000000e+00,5.000000000000000000e+00,5.000000000000000000e+00,5.000000000000000000e+00,5.000000000000000000e+00,5.000000000000000000e+00,5.000000000000000000e+00,5.000000000000000000e+00,5.000000000000000000e+00,5.000000000000000000e+00,5.000000000000000000e+00,5.000000000000000000e+00,5.000000000000000000e+00,5.000000000000000000e+00,5.000000000000000000e+00,5.000000000000000000e+00,5.000000000000000000e+00,5.000000000000000000e+00,5.000000000000000000e+00,5.000000000000000000e+00,5.000000000000000000e+00,5.000000000000000000e+00,5.000000000000000000e+00,2.032610416412353516e+00,5.000000000000000000e+00,2.056110858917236328e+00,2.009473323822021484e+00,2.000353336334228516e+00,2.032826185226440430e+00,2.160032987594604492e+00,2.160542011260986328e+00,2.172700405120849609e+00,4.338883399963378906e+00,2.388014078140258789e+00,4.041719436645507812e+00,3.907896280288696289e+00,3.782650947570800781e+00,3.665184736251831055e+00,3.554793834686279297e+00,3.450858354568481445e+00,3.352828025817871094e+00,3.260213613510131836e+00,3.172578096389770508e+00,3.089530467987060547e+00,3.010720014572143555e+00,2.935830116271972656e+00,2.864575386047363281e+00,2.796697378158569336e+00,2.731962203979492188e+00,2.670155763626098633e+00,2.611083984375000000e+00,2.554569482803344727e+00,2.500449419021606445e+00,2.448575019836425781e+00,2.398809194564819336e+00,2.351026058197021484e+00,2.305109262466430664e+00,2.260951757431030273e+00,2.218454360961914062e+00,2.177524805068969727e+00,2.138078451156616211e+00,2.100035429000854492e+00,2.063323020935058594e+00,2.027871847152709961e+00,1.993618369102478027e+00,1.960502624511718750e+00,1.928469300270080566e+00,1.897466063499450684e+00,1.867443680763244629e+00
5.000000000000000000e+00,5.000000000000000000e+00,5.000000000000000000e+00,5.000000000000000000e+00,5.000000000000000000e+00,5.000000000000000000e+00,5.000000000000000000e+00,5.000000000000000000e+00,5.000000000000000000e+00,5.000000000000000000e+00,5.000000000000000000e+00,5.000000000000000000e+00,5.000000000000000000e+00,5.000000000000000000e+00,5.000000000000000000e+00,5.000000000000000000e+00,5.000000000000000000e+00,5.000000000000000000e+00,5.000000000000000000e+00,5.000000000000000000e+00,5.000000000000000000e+00,5.000000000000000000e+00,5.000000000000000000e+00,5.000000000000000000e+00,5.000000000000000000e+00,5.000000000000000000e+00,5.000000000000000000e+00,5.000000000000000000e+00,5.000000000000000000e+00,5.000000000000000000e+00,5.000000000000000000e+00,5.000000000000000000e+00,5.000000000000000000e+00,5.000000000000000000e+00,5.000000000000000000e+00,5.000000000000000000e+00,2.072792053222656250e+00,2.002317667007446289e+00,1.988973975181579590e+00,2.015339136123657227e+00,2.158488273620605469e+00,2.155602216720581055e+00,2.163121223449707031e+00,4.338996887207031250e+00,4.185138702392578125e+00,4.041817665100097656e+00,3.907988548278808594e+00,3.782737493515014648e+00,3.665265560150146484e+00,3.554870367050170898e+00,3.450930356979370117e+00,3.352895975112915039e+00,3.260277748107910156e+00,3.172638893127441406e+00,3.089588165283203125e+00,3.010774612426757812e+00,2.935881853103637695e+00,2.864624977111816406e+00,2.796744823455810547e+00,2.732007026672363281e+00,2.670198917388916016e+00,2.611125230789184570e+00,2.554608821868896484e+00,2.500487089157104492e+00,2.448611259460449219e+00,2.398844003677368164e+00,2.351059436798095703e+00,2.305141448974609375e+00,2.260982751846313477e+00,2.218483924865722656e+00,2.177553415298461914e+00,2.138106107711791992e+00,2.100062131881713867e+00,2.063348531723022461e+00,2.027896642684936523e+00,1.993642330169677734e+00,1.960525989532470703e+00,1.928491711616516113e+00,1.897487759590148926e+00,1.867464900016784668e+00
5.000000000000000000e+00,5.000000000000000000e+00,5.000000000000000000e+00,5.000000000000000000e+00,5.000000000000000000e+00,5.000000000000000000e+00,5.000000000000000000e+00,5.000000000000000000e+00,5.000000000000000000e+00,5.000000000000000000e+00,5.000000000000000000e+00,5.000000000000000000e+00,5.000000000000000000e+00,5.000000000000000000e+00,5.000000000000000000e+00,5.000000000000000000e+00,5.000000000000000000e+00,5.000000000000000000e+00,5.000000000000000000e+00,5.000000000000000000e+00,5.000000000000000000e+00,5.000000000000000000e+00,5.000000000000000000e+00,5.000000000000000000e+00,5.000000000000000000e+00,5.000000000000000000e+00,5.000000000000000000e+00,5.000000000000000000e+00,5.000000000000000000e+00,5.000000000000000000e+00,5.000000000000000000e+00,5.000000000000000000e+00,5.000000000000000000e+00,5.000000000000000000e+00,5.000000000000000000e+00,5.000000000000000000e+00,2.086572885513305664e+00,2.000859498977661133e+00,1.982735395431518555e+00,2.002668142318725586e+00,2.156945466995239258e+00,2.147777080535888672e+00,2.159155607223510742e+00,4.339110374450683594e+00,4.185244083404541016e+00,4.041916847229003906e+00,3.908080577850341797e+00,3.782824039459228516e+00,3.665346860885620117e+00,3.554946422576904297e+00,3.451002120971679688e+00,3.352963924407958984e+00,3.260341882705688477e+00,3.172699451446533203e+00,3.089645862579345703e+00,3.010829448699951172e+00,2.935934066772460938e+00,2.864674329757690430e+00,2.796792030334472656e+00,2.732052326202392578e+00,2.670241832733154297e+00,2.611166477203369141e+00,2.554648399353027344e+00,2.500524997711181641e+00,2.448647499084472656e+00,2.398878812789916992e+00,2.351092815399169922e+00,2.305173397064208984e+00,2.261013746261596680e+00,2.218513727188110352e+00,2.177582025527954102e+00,2.138133525848388672e+00,2.100088834762573242e+00,2.063374280929565430e+00,2.027921438217163086e+00,1.993666291236877441e+00,1.960549116134643555e+00,1.928514361381530762e+00,1.897509455680847168e+00,1.867485880851745605e+00
5.000000000000000000e+00,5.000000000000000000e+00,5.000000000000000000e+00,5.000000000000000000e+00,5.000000000000000000e+00,5.000000000000000000e+00,5.000000000000000000e+00,5.000000000000000000e+00,5.000000000000000000e+00,5.000000000000000000e+00,5.000000000000000000e+00,5.000000000000000000e+00,5.000000000000000000e+00,5.000000000000000000e+00,5.000000000000000000e+00,5.000000000000000000e+00,5.000000000000000000e+00,5.000000000000000000e+00,5.000000000000000000e+00,5.000000000000000000e+00,5.000000000000000000e+00,5.000000000000000000e+00,5.000000000000000000e+00,5.000000000000000000e+00,5.000000000000000000e+00,5.000000000000000000e+00,5.000000000000000000e+00,5.000000000000000000e+00,5.000000000000000000e+00,5.000000000000000000e+00,5.000000000000000000e+00,5.000000000000000000e+00,5.000000000000000000e+00,5.000000000000000000e+00,5.000000000000000000e+00,5.000000000000000000e+00,5.000000000000000000e+00,2.012813568115234375e+00,1.982188940048217773e+00,2.002034902572631836e+00,2.154783248901367188e+00,2.142360210418701172e+00,2.154945135116577148e+00,4.339224338531494141e+00,4.185349941253662109e+00,4.042015075683593750e+00,3.908172845840454102e+00,3.782910108566284180e+00,3.665428161621093750e+00,3.555022954940795898e+00,3.451074123382568359e+00,3.353031635284423828e+00,3.260406255722045898e+00,3.172760486602783203e+00,3.089703321456909180e+00,3.010884284973144531e+00,2.935986280441284180e+00,2.864723920822143555e+00,2.796839237213134766e+00,2.732097387313842773e+00,2.670284986495971680e+00,2.611207485198974609e+00,2.554687738418579102e+00,2.500562667846679688e+00,2.448683738708496094e+00,2.398913383483886719e+00,2.351126194000244141e+00,2.305205583572387695e+00,2.261044502258300781e+00,2.218543291091918945e+00,2.177610874176025391e+00,2.138161182403564453e+00,2.100115299224853516e+00,2.063400030136108398e+00,2.027946233749389648e+00,1.993690371513366699e+00,1.960572242736816406e+00,1.928536772727966309e+00,1.897531390190124512e+00,1.867506861686706543e+00
5.000000000000000000e+00,5.000000000000000000e+00,5.000000000000000000e+00,5.000000000000000000e+00,5.000000000000000000e+00,5.000000000000000000e+00,5.000000000000000000e+00,5.000000000000000000e+00,5.000000000000000000e+00,5.000000000000000000e+00,5.000000000000000000e+00,5.000000000000000000e+00,5.000000000000000000e+00,5.000000000000000000e+00,5.000000000000000000e+00,5.000000000000000000e+00,5.000000000000000000e+00,5.000000000000000000e+00,5.000000000000000000e+00,5.000000000000000000e+00,5.000000000000000000e+00,5.000000000000000000e+00,5.000000000000000000e+00,5.000000000000000000e+00,5.000000000000000000e+00,5.000000000000000000e+00,5.000000000000000000e+00,5.000000000000000000e+00,5.000000000000000000e+00,5.000000000000000000e+00,5.000000000000000000e+00,5.000000000000000000e+00,5.000000000000000000e+00,5.000000000000000000e+00,5.000000000000000000e+00,5.000000000000000000e+00,2.078256607055664062e+00,2.018306732177734375e+00,1.994552969932556152e+00,2.018453359603881836e+00,2.158723592758178711e+00,2.147250413894653320e+00,2.158901929855346680e+00,4.339338302612304688e+00,4.185455799102783203e+00,4.042113780975341797e+00,3.908265352249145508e+00,3.782996654510498047e+00,3.665508985519409180e+00,3.555099010467529297e+00,3.451146125793457031e+00,3.353099584579467773e+00,3.260470390319824219e+00,3.172821283340454102e+00,3.089761018753051758e+00,3.010938882827758789e+00,2.936038255691528320e+00,2.864773750305175781e+00,2.796886444091796875e+00,2.732142448425292969e+00,2.670328140258789062e+00,2.611248731613159180e+00,2.554727077484130859e+00,2.500600337982177734e+00,2.448719978332519531e+00,2.398948192596435547e+00,2.351159572601318359e+00,2.305237770080566406e+00,2.261075258255004883e+00,2.218573093414306641e+00,2.177639245986938477e+00,2.138188838958740234e+00,2.100142002105712891e+00,2.063425779342651367e+00,2.027971267700195312e+00,1.993714332580566406e+00,1.960595607757568359e+00,1.928559184074401855e+00,1.897552967071533203e+00,1.867528080940246582e+00
5.000000000000000000e+00,5.000000000000000000e+00,5.000000000000000000e+00,5.000000000000000000e+00,5.000000000000000000e+00,5.000000000000000000e+00,5.000000000000000000e+00,5.000000000000000000e+00,5.000000000000000000e+00,5.000000000000000000e+00,5.000000000000000000e+00,5.000000000000000000e+00,5.000000000000000000e+00,5.000000000000000000e+00,5.000000000000000000e+00,5.000000000000000000e+00,5.000000000000000000e+00,5.000000000000000000e+00,5.000000000000000000e+00,5.000000000000000000e+00,5.000000000000000000e+00,5.000000000000000000e+00,5.000000000000000000e+00,5.000000000000000000e+00,5.000000000000000000e+00,5.000000000000000000e+00,5.000000000000000000e+00,5.000000000000000000e+00,5.000000000000000000e+00,5.000000000000000000e+00,5.000000000000000000e+00,5.000000000000000000e+00,5.000000000000000000e+00,5.000000000000000000e+00,5.000000000000000000e+00,5.000000000000000000e+00,2.086866140365600586e+00,2.053296327590942383e+00,2.041005849838256836e+00,2.198065042495727539e+00,2.169441938400268555e+00,2.166610479354858398e+00,4.505089759826660156e+00,4.339451789855957031e+00,4.185561656951904297e+00,4.042212486267089844e+00,3.908357381820678711e+00,3.783083438873291016e+00,3.665590286254882812e+00,3.555175304412841797e+00,3.451217889785766602e+00,3.353167772293090820e+00,3.260534524917602539e+00,3.172881841659545898e+00,3.089818954467773438e+00,3.010993719100952148e+00,2.936090230941772461e+00,2.864823102951049805e+00,2.796933889389038086e+00,2.732187509536743164e+00,2.670371055603027344e+00,2.611289978027343750e+00,2.554766654968261719e+00,2.500638246536254883e+00,2.448755979537963867e+00,2.398983001708984375e+00,2.351192951202392578e+00,2.305269718170166016e+00,2.261106252670288086e+00,2.218602895736694336e+00,2.177668094635009766e+00,2.138216257095336914e+00,2.100168704986572266e+00,2.063451528549194336e+00,2.027996063232421875e+00,1.993738293647766113e+00,1.960618734359741211e+00,1.928581714630126953e+00,1.897574663162231445e+00,1.867549061775207520e+00
5.000000000000000000e+00,5.000000000000000000e+00,5.000000000000000000e+00,5.000000000000000000e+00,5.000000000000000000e+00,5.000000000000000000e+00,5.000000000000000000e+00,5.000000000000000000e+00,5.000000000000000000e+00,5.000000000000000000e+00,5.000000000000000000e+00,5.000000000000000000e+00,5.000000000000000000e+00,5.000000000000000000e+00,5.000000000000000000e+00,5.000000000000000000e+00,5.000000000000000000e+00,5.000000000000000000e+00,5.000000000000000000e+00,5.000000000000000000e+00,5.000000000000000000e+00,5.000000000000000000e+00,5.000000000000000000e+00,5.000000000000000000e+00,5.000000000000000000e+00,5.000000000000000000e+00,5.000000000000000000e+00,5.000000000000000000e+00,5.000000000000000000e+00,5.000000000000000000e+00,5.000000000000000000e+00,5.000000000000000000e+00,5.000000000000000000e+00,5.000000000000000000e+00,5.000000000000000000e+00,2.160730838775634766e+00,2.108787059783935547e+00,2.089914798736572266e+00,2.133206844329833984e+00,2.210467100143432617e+00,2.188410758972167969e+00,2.188360214233398438e+00,4.505212306976318359e+00,4.339565753936767578e+00,4.185667514801025391e+00,4.042311191558837891e+00,3.908449649810791016e+00,3.783169507980346680e+00,3.665671586990356445e+00,3.555251836776733398e+00,3.451289892196655273e+00,3.353235483169555664e+00,3.260598897933959961e+00,3.172942876815795898e+00,3.089876413345336914e+00,3.011048316955566406e+00,2.936142444610595703e+00,2.864872694015502930e+00,2.796980857849121094e+00,2.732232570648193359e+00,2.670414209365844727e+00,2.611331224441528320e+00,2.554805994033813477e+00,2.500676155090332031e+00,2.448792457580566406e+00,2.399017572402954102e+00,2.351226329803466797e+00,2.305301904678344727e+00,2.261137008666992188e+00,2.218632698059082031e+00,2.177696704864501953e+00,2.138244152069091797e+00,2.100195407867431641e+00,2.063477277755737305e+00,2.028020858764648438e+00,1.993762493133544922e+00,1.960641980171203613e+00,1.928604125976562500e+00,1.897596597671508789e+00,1.867570042610168457e+00
5.000000000000000000e+00,5.000000000000000000e+00,5.000000000000000000e+00,5.000000000000000000e+00,5.000000000000000000e+00,5.000000000000000000e+00,5.000000000000000000e+00,5.000000000000000000e+00,5.000000000000000000e+00,5.000000000000000000e+00,5.000000000000000000e+00,5.000000000000000000e+00,5.000000000000000000e+00,5.000000000000000000e+00,5.000000000000000000e+00,5.000000000000000000e+00,5.000000000000000000e+00,5.000000000000000000e+00,5.000000000000000000e+00,5.000000000000000000e+00,5.000000000000000000e+00,5.000000000000000000e+00,5.000000000000000000e+00,5.000000000000000000e+00,5.000000000000000000e+00,5.000000000000000000e+00,5.000000000000000000e+00,5.000000000000000000e+00,5.000000000000000000e+00,5.000000000000000000e+00,5.000000000000000000e+00,5.000000000000000000e+00,5.000000000000000000e+00,5.000000000000000000e+00,5.000000000000000000e+00,2.184506177902221680e+00,2.136241436004638672e+00,2.126169681549072266e+00,2.286683320999145508e+00,2.213739633560180664e+00,2.208936929702758789e+00,2.235661506652832031e+00,4.505334854125976562e+00,4.339679241180419922e+00,4.185773372650146484e+00,4.042409896850585938e+00,3.908542156219482422e+00,3.783256053924560547e+00,3.665752410888671875e+00,3.555327892303466797e+00,3.451362133026123047e+00,3.353303432464599609e+00,3.260662794113159180e+00,3.173003673553466797e+00,3.089934110641479492e+00,3.011103153228759766e+00,2.936194419860839844e+00,2.864922285079956055e+00,2.797028303146362305e+00,2.732277631759643555e+00,2.670457363128662109e+00,2.611372470855712891e+00,2.554845333099365234e+00,2.500713825225830078e+00,2.448828697204589844e+00,2.399052381515502930e+00,2.351259708404541016e+00,2.305333852767944336e+00,2.261168003082275391e+00,2.218662261962890625e+00,2.177725315093994141e+00,2.138271808624267578e+00,2.100222110748291016e+00,2.063502788543701172e+00,2.028045654296875000e+00,1.993786334991455078e+00,1.960665345191955566e+00,1.928626537322998047e+00,1.897618293762207031e+00,1.867591261863708496e+00
5.000000000000000000e+00,5.000000000000000000e+00,5.000000000000000000e+00,5.000000000000000000e+00,5.000000000000000000e+00,5.000000000000000000e+00,5.000000000000000000e+00,5.000000000000000000e+00,5.000000000000000000e+00,5.000000000000000000e+00,5.000000000000000000e+00,5.000000000000000000e+00,5.000000000000000000e+00,5.000000000000000000e+00,5.000000000000000000e+00,5.000000000000000000e+00,5.000000000000000000e+00,5.000000000000000000e+00,5.000000000000000000e+00,5.000000000000000000e+00,5.000000000000000000e+00,5.000000000000000000e+00,5.000000000000000000e+00,5.000000000000000000e+00,5.000000000000000000e+00,5.000000000000000000e+00,5.000000000000000000e+00,5.000000000000000000e+00,5.000000000000000000e+00,5.000000000000000000e+00,5.000000000000000000e+00,5.000000000000000000e+00,5.000000000000000000e+00,5.000000000000000000e+00,5.000000000000000000e+00,2.209510803222656250e+00,2.164799451828002930e+00,2.182171344757080078e+00,2.264099359512329102e+00,2.214653015136718750e+00,2.215620994567871094e+00,4.684276103973388672e+00,4.505457878112792969e+00,4.339793205261230469e+00,4.185879230499267578e+00,4.042508602142333984e+00,3.908634185791015625e+00,3.783342599868774414e+00,3.665833711624145508e+00,3.555404424667358398e+00,3.451433897018432617e+00,3.353371381759643555e+00,3.260727167129516602e+00,3.173064470291137695e+00,3.089991569519042969e+00,3.011157989501953125e+00,2.936246633529663086e+00,2.864971876144409180e+00,2.797075510025024414e+00,2.732322692871093750e+00,2.670500278472900391e+00,2.611413478851318359e+00,2.554884910583496094e+00,2.500751495361328125e+00,2.448864698410034180e+00,2.399087190628051758e+00,2.351293087005615234e+00,2.305366039276123047e+00,2.261198759078979492e+00,2.218692064285278320e+00,2.177753925323486328e+00,2.138299226760864258e+00,2.100248575210571289e+00,2.063528537750244141e+00,2.028070449829101562e+00,1.993810296058654785e+00,1.960688471794128418e+00,1.928649187088012695e+00,1.897639870643615723e+00,1.867612242698669434e+00
5.000000000000000000e+00,5.000000000000000000e+00,5.000000000000000000e+00,5.000000000000000000e+00,5.000000000000000000e+00,5.000000000000000000e+00,5.000000000000000000e+00,5.000000000000000000e+00,5.000000000000000000e+00,5.000000000000000000e+00,5.000000000000000000e+00,5.000000000000000000e+00,5.000000000000000000e+00,5.000000000000000000e+00,5.000000000000000000e+00,5.000000000000000000e+00,5.000000000000000000e+00,5.000000000000000000e+00,5.000000000000000000e+00,5.000000000000000000e+00,5.000000000000000000e+00,5.000000000000000000e+00,5.000000000000000000e+00,5.000000000000000000e+00,5.000000000000000000e+00,5.000000000000000000e+00,5.000000000000000000e+00,5.000000000000000000e+00,5.000000000000000000e+00,5.000000000000000000e+00,5.000000000000000000e+00,5.000000000000000000e+00,5.000000000000000000e+00,5.000000000000000000e+00,5.000000000000000000e+00,2.237841844558715820e+00,2.196923255920410156e+00,2.242921352386474609e+00,2.248476266860961914e+00,2.220375776290893555e+00,2.222345590591430664e+00,4.684437274932861328e+00,4.505580425262451172e+00,4.339906692504882812e+00,4.185985088348388672e+00,4.042607307434082031e+00,3.908726453781127930e+00,3.783428907394409180e+00,3.665914535522460938e+00,3.555480957031250000e+00,3.451505899429321289e+00,3.353439092636108398e+00,3.260791540145874023e+00,3.173125267028808594e+00,3.090049266815185547e+00,3.011212587356567383e+00,2.936298608779907227e+00,2.865021467208862305e+00,2.797122716903686523e+00,2.732367992401123047e+00,2.670543432235717773e+00,2.611454725265502930e+00,2.554924249649047852e+00,2.500789403915405273e+00,2.448900938034057617e+00,2.399121999740600586e+00,2.351326704025268555e+00,2.305398225784301758e+00,2.261229753494262695e+00,2.218721866607666016e+00,2.177782535552978516e+00,2.138326883316040039e+00,2.100275278091430664e+00,2.063554286956787109e+00,2.028095483779907227e+00,1.993834495544433594e+00,1.960711598396301270e+00,1.928671479225158691e+00,1.897661805152893066e+00,1.867633223533630371e+00
5.000000000000000000e+00,5.000000000000000000e+00,5.000000000000000000e+00,5.000000000000000000e+00,5.000000000000000000e+00,5.000000000000000000e+00,5.000000000000000000e+00,5.000000000000000000e+00,5.000000000000000000e+00,5.000000000000000000e+00,5.000000000000000000e+00,5.000000000000000000e+00,5.000000000000000000e+00,5.000000000000000000e+00,5.000000000000000000e+00,5.000000000000000000e+00,5.000000000000000000e+00,5.000000000000000000e+00,5.000000000000000000e+00,5.000000000000000000e+00,5.000000000000000000e+00,5.000000000000000000e+00,5.000000000000000000e+00,5.000000000000000000e+00,5.000000000000000000e+00,5.000000000000000000e+00,5.000000000000000000e+00,5.000000000000000000e+00,5.000000000000000000e+00,5.000000000000000000e+00,5.000000000000000000e+00,5.000000000000000000e+00,5.000000000000000000e+00,5.000000000000000000e+00,5.000000000000000000e+00,2.267940044403076172e+00,2.239995479583740234e+00,5.000000000000000000e+00,2.250036478042602539e+00,2.226459026336669922e+00,2.228863239288330078e+00,4.684598445892333984e+00,4.505723476409912109e+00,4.340020656585693359e+00,4.186090469360351562e+00,4.042706012725830078e+00,3.908818960189819336e+00,3.783515453338623047e+00,3.665995836257934570e+00,3.555557012557983398e+00,3.451577901840209961e+00,3.353507280349731445e+00,3.260855674743652344e+00,3.173186063766479492e+00,3.090107202529907227e+00,3.011267423629760742e+00,2.936350584030151367e+00,2.865071058273315430e+00,2.797169923782348633e+00,2.732412815093994141e+00,2.670586347579956055e+00,2.611495971679687500e+00,2.554963588714599609e+00,2.500827074050903320e+00,2.448937177658081055e+00,2.399156808853149414e+00,2.351359844207763672e+00,2.305430173873901367e+00,2.261260747909545898e+00,2.218751668930053711e+00,2.177811145782470703e+00,2.138354539871215820e+00,2.100301980972290039e+00,2.063580036163330078e+00,2.028120040893554688e+00,1.993858456611633301e+00,1.960734963417053223e+00,1.928693890571594238e+00,1.897683501243591309e+00,1.867654442787170410e+00
5.000000000000000000e+00,5.000000000000000000e+00,5.000000000000000000e+00,5.000000000000000000e+00,5.000000000000000000e+00,5.000000000000000000e+00,5.000000000000000000e+00,5.000000000000000000e+00,5.000000000000000000e+00,5.000000000000000000e+00,5.000000000000000000e+00,5.000000000000000000e+00,5.000000000000000000e+00,5.000000000000000000e+00,5.000000000000000000e+00,5.000000000000000000e+00,5.000000000000000000e+00,5.000000000000000000e+00,5.000000000000000000e+00,5.000000000000000000e+00,5.000000000000000000e+00,5.000000000000000000e+00,5.000000000000000000e+00,5.000000000000000000e+00,5.000000000000000000e+00,5.000000000000000000e+00,5.000000000000000000e+00,5.000000000000000000e+00,5.000000000000000000e+00,5.000000000000000000e+00,5.000000000000000000e+00,5.000000000000000000e+00,5.000000000000000000e+00,5.000000000000000000e+00,5.000000000000000000e+00,2.318294286727905273e+00,5.000000000000000000e+00,5.000000000000000000e+00,2.254605054855346680e+00,2.233668327331542969e+00,2.242293357849121094e+00,4.684760093688964844e+00,4.505872726440429688e+00,4.340145111083984375e+00,4.186196804046630859e+00,4.042804718017578125e+00,3.908910989761352539e+00,3.783601760864257812e+00,3.666077136993408203e+00,3.555633544921875000e+00,3.451649665832519531e+00,3.353575229644775391e+00,3.260919809341430664e+00,3.173246860504150391e+00,3.090164661407470703e+00,3.011322259902954102e+00,2.936402797698974609e+00,2.865120410919189453e+00,2.797217369079589844e+00,2.732458114624023438e+00,2.670629501342773438e+00,2.611536979675292969e+00,2.555003166198730469e+00,2.500864982604980469e+00,2.448973417282104492e+00,2.399191617965698242e+00,2.351393222808837891e+00,2.305462360382080078e+00,2.261291503906250000e+00,2.218781232833862305e+00,2.177839994430541992e+00,2.138381958007812500e+00,2.100328683853149414e+00,2.063605785369873047e+00,2.028145074844360352e+00,1.993882298469543457e+00,1.960758090019226074e+00,1.928716540336608887e+00,1.897705197334289551e+00,1.867675542831420898e+00
5.000000000000000000e+00,5.000000000000000000e+00,5.000000000000000000e+00,5.000000000000000000e+00,5.000000000000000000e+00,5.000000000000000000e+00,5.000000000000000000e+00,5.000000000000000000e+00,5.000000000000000000e+00,5.000000000000000000e+00,5.000000000000000000e+00,5.000000000000000000e+00,5.000000000000000000e+00,5.000000000000000000e+00,5.000000000000000000e+00,5.000000000000000000e+00,5.000000000000000000e+00,5.000000000000000000e+00,5.000000000000000000e+00,5.000000000000000000e+00,5.000000000000000000e+00,5.000000000000000000e+00,5.000000000000000000e+00,5.000000000000000000e+00,5.000000000000000000e+00,5.000000000000000000e+00,5.000000000000000000e+00,5.000000000000000000e+00,5.000000000000000000e+00,5.000000000000000000e+00,5.000000000000000000e+00,5.000000000000000000e+00,5.000000000000000000e+00,5.000000000000000000e+00,5.000000000000000000e+00,2.321205139160156250e+00,5.000000000000000000e+00,5.000000000000000000e+00,2.259156227111816406e+00,2.240983963012695312e+00,4.878612995147705078e+00,4.684921264648437500e+00,4.506021976470947266e+00,4.340283393859863281e+00,4.186304092407226562e+00,4.042903423309326172e+00,3.909003496170043945e+00,3.783688306808471680e+00,3.666158199310302734e+00,3.555710077285766602e+00,3.451721668243408203e+00,3.353642940521240234e+00,3.260984182357788086e+00,3.173307657241821289e+00,3.090222358703613281e+00,3.011376857757568359e+00,2.936455011367797852e+00,2.865170240402221680e+00,2.797264337539672852e+00,2.732502937316894531e+00,2.670672655105590820e+00,2.611578226089477539e+00,2.555042505264282227e+00,2.500902652740478516e+00,2.449009656906127930e+00,2.399226188659667969e+00,2.351426601409912109e+00,2.305494546890258789e+00,2.261322498321533203e+00,2.218811035156250000e+00,2.177868604660034180e+00,2.138409852981567383e+00,2.100355148315429688e+00,2.063631534576416016e+00,2.028169870376586914e+00,1.993906497955322266e+00,1.960781216621398926e+00,1.928738951683044434e+00,1.897727012634277344e+00,1.867696523666381836e+00
4.872114658355712891e+00,4.870894908905029297e+00,4.869676113128662109e+00,4.868457794189453125e+00,4.867240428924560547e+00,4.866023540496826172e+00,4.864807128906250000e+00,4.863591194152832031e+00,4.862376213073730469e+00,4.861161708831787109e+00,4.859947681427001953e+00,4.858734607696533203e+00,4.857522010803222656e+00,4.856309890747070312e+00,4.855098247528076172e+00,4.853887081146240234e+00,4.852676868438720703e+00,4.851467609405517578e+00,4.850258350372314453e+00,4.849050045013427734e+00,4.847842216491699219e+00,4.846634864807128906e+00,4.845428466796875000e+00,4.844222068786621094e+00,4.843016624450683594e+00,4.841811656951904297e+00,4.840607643127441406e+00,4.839403629302978516e+00,4.838200569152832031e+00,4.836997985839843750e+00,4.835796356201171875e+00,4.834594726562500000e+00,4.833394050598144531e+00,4.832194328308105469e+00,2.334017992019653320e+00,2.315770387649536133e+00,2.326103448867797852e+00,4.827399730682373047e+00,2.263334274291992188e+00,2.248347520828247070e+00,4.823810100555419922e+00,4.685082435607910156e+00,4.506171226501464844e+00,4.340422153472900391e+00,4.186433315277099609e+00,4.043002128601074219e+00,3.909095525741577148e+00,3.783774852752685547e+00,3.666239500045776367e+00,3.555786132812500000e+00,3.451793909072875977e+00,3.353710889816284180e+00,3.261048316955566406e+00,3.173368453979492188e+00,3.090280055999755859e+00,3.011431694030761719e+00,2.936506748199462891e+00,2.865219831466674805e+00,2.797311782836914062e+00,2.732548236846923828e+00,2.670715570449829102e+00,2.611619472503662109e+00,2.555082082748413086e+00,2.500940322875976562e+00,2.449045896530151367e+00,2.399260997772216797e+00,2.351459980010986328e+00,2.305526494979858398e+00,2.261353254318237305e+00,2.218840837478637695e+00,2.177897214889526367e+00,2.138437509536743164e+00,2.100381851196289062e+00,2.063657283782958984e+00,2.028194665908813477e+00,1.993930459022521973e+00,1.960804581642150879e+00,1.928761363029479980e+00,1.897748708724975586e+00,1.867717742919921875e+00
3.776599645614624023e+00,3.775866985321044922e+00,3.775134801864624023e+00,3.774402618408203125e+00,3.773670434951782227e+00,3.772938728332519531e+00,3.772207498550415039e+00,3.771476507186889648e+00,3.770745992660522461e+00,3.770015478134155273e+00,3.769285440444946289e+00,3.768555641174316406e+00,3.767825603485107422e+00,3.767096281051635742e+00,3.766367435455322266e+00,3.765638828277587891e+00,3.764910221099853516e+00,3.764182090759277344e+00,3.763454198837280273e+00,3.762726783752441406e+00,3.761999368667602539e+00,3.761271953582763672e+00,3.760545253753662109e+00,3.759818792343139648e+00,3.759092569351196289e+00,3.758366823196411133e+00,3.757641077041625977e+00,3.756915807723999023e+00,3.756190776824951172e+00,3.755465507507324219e+00,3.754741191864013672e+00,3.754016876220703125e+00,3.753293037414550781e+00,3.752569437026977539e+00,3.751845836639404297e+00,2.302996635437011719e+00,2.308372497558593750e+00,3.749677181243896484e+00,2.277379751205444336e+00,2.309686422348022461e+00,3.747511148452758789e+00,3.746789693832397461e+00,3.746068477630615234e+00,3.745347738265991211e+00,3.744626998901367188e+00,3.743906497955322266e+00,3.743186473846435547e+00,3.742466688156127930e+00,3.666320800781250000e+00,3.555862665176391602e+00,3.451865434646606445e+00,3.353779077529907227e+00,3.261112689971923828e+00,3.173429250717163086e+00,3.090337514877319336e+00,3.011486530303955078e+00,2.936558961868286133e+00,2.865269184112548828e+00,2.797358989715576172e+00,2.732593297958374023e+00,2.670758724212646484e+00,2.611660480499267578e+00,2.555121421813964844e+00,2.500978231430053711e+00,2.449082136154174805e+00,2.399295806884765625e+00,2.351493597030639648e+00,2.305558681488037109e+00,2.261384010314941406e+00,2.218870639801025391e+00,2.177925825119018555e+00,2.138464927673339844e+00,2.100408315658569336e+00,2.063683032989501953e+00,2.028219461441040039e+00,1.993954420089721680e+00,1.960827827453613281e+00,1.928784012794494629e+00,1.897770404815673828e+00,1.867738723754882812e+00
3.083306074142456055e+00,3.082817554473876953e+00,3.082329273223876953e+00,3.081840991973876953e+00,3.081353187561035156e+00,3.080865383148193359e+00,3.080377817153930664e+00,3.079890489578247070e+00,3.079403162002563477e+00,3.078916072845458984e+00,3.078428745269775391e+00,3.077941894531250000e+00,3.077455282211303711e+00,3.076968669891357422e+00,3.076482295989990234e+00,3.075996160507202148e+00,3.075510025024414062e+00,3.075024127960205078e+00,3.074538230895996094e+00,3.074052333831787109e+00,3.073566913604736328e+00,3.073081731796264648e+00,3.072596549987792969e+00,3.072111606597900391e+00,3.071626663208007812e+00,3.071141958236694336e+00,3.070657491683959961e+00,3.070172786712646484e+00,3.069688558578491211e+00,3.069204568862915039e+00,3.068720579147338867e+00,3.068236827850341797e+00,3.067753314971923828e+00,3.067269802093505859e+00,3.066786527633666992e+00,2.292141437530517578e+00,2.294237613677978516e+00,3.065337181091308594e+00,2.248890399932861328e+00,2.252612352371215820e+00,3.063889741897583008e+00,3.063407421112060547e+00,3.062925338745117188e+00,3.062443017959594727e+00,3.061961412429809570e+00,3.061479806900024414e+00,3.060998201370239258e+00,3.060516834259033203e+00,3.060035705566406250e+00,3.059554576873779297e+00,3.059073686599731445e+00,3.058592796325683594e+00,3.058112144470214844e+00,3.057631731033325195e+00,3.057151556015014648e+00,3.011541128158569336e+00,2.936611175537109375e+00,2.865319013595581055e+00,2.797406196594238281e+00,2.732638359069824219e+00,2.670801877975463867e+00,2.611701726913452148e+00,2.555160760879516602e+00,2.501016139984130859e+00,2.449118375778198242e+00,2.399330615997314453e+00,2.351526737213134766e+00,2.305590867996215820e+00,2.261415004730224609e+00,2.218900203704833984e+00,2.177954435348510742e+00,2.138492584228515625e+00,2.100435018539428711e+00,2.063708543777465820e+00,2.028244495391845703e+00,1.993978500366210938e+00,1.960850954055786133e+00,1.928806304931640625e+00,1.897792339324951172e+00,1.867759704589843750e+00
2.605075836181640625e+00,2.604727268218994141e+00,2.604378700256347656e+00,2.604030132293701172e+00,2.603681802749633789e+00,2.603333711624145508e+00,2.602985382080078125e+00,2.602637290954589844e+00,2.602289199829101562e+00,2.601941347122192383e+00,2.601593494415283203e+00,2.601245880126953125e+00,2.600898265838623047e+00,2.600550651550292969e+00,2.600203275680541992e+00,2.599855899810791016e+00,2.599508523941040039e+00,2.599161386489868164e+00,2.598814249038696289e+00,2.598467350006103516e+00,2.598120450973510742e+00,2.597773551940917969e+00,2.597426891326904297e+00,2.597080469131469727e+00,2.596733808517456055e+00,2.596387386322021484e+00,2.596040964126586914e+00,2.595694780349731445e+00,2.595348596572875977e+00,2.595002651214599609e+00,2.594656705856323242e+00,2.594310760498046875e+00,2.593965053558349609e+00,2.593619108200073242e+00,2.593273639678955078e+00,2.592928171157836914e+00,2.592582702636718750e+00,2.592237472534179688e+00,2.206395864486694336e+00,2.190469741821289062e+00,2.591202020645141602e+00,2.590857028961181641e+00,2.590512037277221680e+00,2.590167284011840820e+00,2.589822769165039062e+00,2.589478015899658203e+00,2.589133739471435547e+00,2.588789224624633789e+00,2.588444948196411133e+00,2.588100671768188477e+00,2.587756395339965820e+00,2.587412357330322266e+00,2.587068557739257812e+00,2.586724758148193359e+00,2.586380958557128906e+00,2.586037397384643555e+00,2.585693836212158203e+00,2.585350036621093750e+00,2.585006713867187500e+00,2.584663391113281250e+00,2.584320306777954102e+00,2.583977222442626953e+00,2.555200338363647461e+00,2.501053810119628906e+00,2.449154615402221680e+00,2.399365425109863281e+00,2.351560354232788086e+00,2.305622816085815430e+00,2.261445999145507812e+00,2.218930006027221680e+00,2.177983045578002930e+00,2.138520240783691406e+00,2.100461721420288086e+00,2.063734292984008789e+00,2.028269290924072266e+00,1.994002461433410645e+00,1.960874319076538086e+00,1.928828716278076172e+00,1.897814035415649414e+00,1.867780923843383789e+00
2.255268096923828125e+00,2.255007505416870117e+00,2.254747390747070312e+00,2.254487037658691406e+00,2.254226922988891602e+00,2.253966569900512695e+00,2.253706693649291992e+00,2.253446817398071289e+00,2.253186702728271484e+00,2.252926349639892578e+00,2.252665519714355469e+00,2.252404928207397461e+00,2.252144098281860352e+00,2.251883506774902344e+00,2.251622915267944336e+00,2.251362562179565430e+00,2.251102209091186523e+00,2.250841856002807617e+00,2.250581502914428711e+00,2.250321388244628906e+00,2.250061035156250000e+00,2.249801158905029297e+00,2.249541044235229492e+00,2.249280929565429688e+00,2.249021053314208984e+00,2.248761177062988281e+00,2.248501300811767578e+00,2.248241662979125977e+00,2.247982025146484375e+00,2.247722387313842773e+00,2.247462749481201172e+00,2.247203111648559570e+00,2.246943712234497070e+00,2.246684312820434570e+00,2.246425151824951172e+00,2.246165752410888672e+00,2.245906591415405273e+00,2.245647430419921875e+00,2.245388269424438477e+00,2.133452415466308594e+00,2.164021015167236328e+00,2.244611263275146484e+00,2.244352579116821289e+00,2.244093656539916992e+00,2.243834972381591797e+00,2.243576288223266602e+00,2.243317842483520508e+00,2.243059158325195312e+00,2.242800712585449219e+00,2.242542266845703125e+00,2.242283821105957031e+00,2.242025613784790039e+00,2.241767406463623047e+00,2.241509199142456055e+00,2.241250991821289062e+00,2.240992784500122070e+00,2.240734815597534180e+00,2.240476846694946289e+00,2.240219116210937500e+00,2.239961147308349609e+00,2.239703416824340820e+00,2.239445686340332031e+00,2.239187955856323242e+00,2.238930225372314453e+00,2.238672733306884766e+00,2.238415241241455078e+00,2.238157987594604492e+00,2.237900495529174805e+00,2.237643241882324219e+00,2.218959808349609375e+00,2.178011894226074219e+00,2.138547897338867188e+00,2.100488424301147461e+00,2.063760042190551758e+00,2.028294086456298828e+00,1.994026422500610352e+00,1.960897445678710938e+00,1.928851366043090820e+00,1.897835731506347656e+00,1.867801904678344727e+00
1.988232851028442383e+00,1.988030672073364258e+00,1.987828373908996582e+00,1.987626075744628906e+00,1.987423777580261230e+00,1.987221598625183105e+00,1.987019419670104980e+00,1.986817359924316406e+00,1.986615180969238281e+00,1.986413240432739258e+00,1.986211180686950684e+00,1.986009240150451660e+00,1.985807299613952637e+00,1.985605359077453613e+00,1.985403776168823242e+00,1.985202074050903320e+00,1.985000252723693848e+00,1.984798550605773926e+00,1.984596848487854004e+00,1.984395146369934082e+00,1.984193563461303711e+00,1.983992099761962891e+00,1.983790516853332520e+00,1.983589053153991699e+00,1.983387589454650879e+00,1.983186244964599609e+00,1.982984900474548340e+00,1.982783794403076172e+00,1.982582569122314453e+00,1.982381343841552734e+00,1.982180118560791016e+00,1.981979012489318848e+00,1.981777906417846680e+00,1.981576800346374512e+00,1.981375813484191895e+00,1.981174826622009277e+00,1.980973839759826660e+00,1.980772972106933594e+00,1.980572104454040527e+00,1.980371236801147461e+00,1.980170488357543945e+00,1.979969978332519531e+00,1.979769229888916016e+00,1.979568600654602051e+00,1.979367971420288086e+00,1.979167461395263672e+00,1.978966832160949707e+00,1.978766441345214844e+00,1.978565931320190430e+00,1.978365540504455566e+00,1.978165149688720703e+00,1.977964758872985840e+00,1.977764487266540527e+00,1.977564215660095215e+00,1.977364301681518555e+00,1.977164030075073242e+00,1.976963996887207031e+00,1.976763844490051270e+00,1.976563811302185059e+00,1.976363778114318848e+00,1.976163864135742188e+00,1.975963950157165527e+00,1.975764036178588867e+00,1.975564122200012207e+00,1.975364327430725098e+00,1.975164532661437988e+00,1.974964857101440430e+00,1.974765419960021973e+00,1.974565744400024414e+00,1.974366188049316406e+00,1.974166512489318848e+00,1.973967075347900391e+00,1.973767518997192383e+00,1.973568081855773926e+00,1.973368644714355469e+00,1.973169326782226562e+00,1.960920572280883789e+00,1.928873777389526367e+00,1.897857546806335449e+00,1.867822885513305664e+00
1.777739763259887695e+00,1.777577877044677734e+00,1.777416110038757324e+00,1.777254462242126465e+00,1.777092695236206055e+00,1.776931047439575195e+00,1.776769399642944336e+00,1.776607751846313477e+00,1.776446223258972168e+00,1.776284813880920410e+00,1.776123285293579102e+00,1.775961756706237793e+00,1.775800347328186035e+00,1.775638818740844727e+00,1.775477409362792969e+00,1.775316119194030762e+00,1.775154709815979004e+00,1.774993419647216797e+00,1.774832129478454590e+00,1.774670839309692383e+00,1.774509549140930176e+00,1.774348378181457520e+00,1.774187326431274414e+00,1.774026274681091309e+00,1.773865103721618652e+00,1.773704051971435547e+00,1.773543000221252441e+00,1.773381948471069336e+00,1.773220896720886230e+00,1.773059964179992676e+00,1.772899031639099121e+00,1.772738099098205566e+00,1.772577166557312012e+00,1.772416353225708008e+00,1.772255539894104004e+00,1.772094726562500000e+00,1.771934151649475098e+00,1.771773338317871094e+00,1.771612644195556641e+00,1.771451950073242188e+00,1.771291255950927734e+00,1.771130681037902832e+00,1.770970106124877930e+00,1.770809531211853027e+00,1.770648956298828125e+00,1.770488500595092773e+00,1.770327925682067871e+00,1.770167469978332520e+00,1.770007133483886719e+00,1.769846916198730469e+00,1.769686579704284668e+00,1.769526124000549316e+00,1.769365906715393066e+00,1.769205570220947266e+00,1.769045352935791016e+00,1.768885135650634766e+00,1.768724918365478516e+00,1.768564820289611816e+00,1.768404603004455566e+00,1.768244504928588867e+00,1.768084526062011719e+00,1.767924427986145020e+00,1.767764568328857422e+00,1.767604589462280273e+00,1.767444610595703125e+00,1.767284750938415527e+00,1.767124772071838379e+00,1.766964912414550781e+00,1.766805052757263184e+00,1.766645312309265137e+00,1.766485452651977539e+00,1.766325712203979492e+00,1.766165971755981445e+00,1.766006350517272949e+00,1.765846610069274902e+00,1.765687227249145508e+00,1.765527606010437012e+00,1.765368103981018066e+00,1.765208482742309570e+00,1.765048980712890625e+00
1.607549190521240234e+00,1.607416868209838867e+00,1.607284665107727051e+00,1.607152342796325684e+00,1.607020258903503418e+00,1.606888055801391602e+00,1.606755852699279785e+00,1.606623649597167969e+00,1.606491565704345703e+00,1.606359481811523438e+00,1.606227278709411621e+00,1.606095194816589355e+00,1.605963230133056641e+00,1.605831146240234375e+00,1.605699062347412109e+00,1.605567097663879395e+00,1.605435132980346680e+00,1.605303287506103516e+00,1.605171442031860352e+00,1.605039477348327637e+00,1.604907631874084473e+00,1.604775786399841309e+00,1.604643940925598145e+00,1.604512095451354980e+00,1.604380249977111816e+00,1.604248523712158203e+00,1.604116678237915039e+00,1.603984951972961426e+00,1.603853225708007812e+00,1.603721618652343750e+00,1.603589892387390137e+00,1.603458404541015625e+00,1.603326797485351562e+00,1.603195190429687500e+00,1.603063583374023438e+00,1.602931976318359375e+00,1.602800488471984863e+00,1.602669000625610352e+00,1.602537512779235840e+00,1.602406024932861328e+00,1.602274537086486816e+00,1.602143049240112305e+00,1.602011680603027344e+00,1.601880311965942383e+00,1.601749062538146973e+00,1.601617693901062012e+00,1.601486444473266602e+00,1.601355075836181641e+00,1.601223826408386230e+00,1.601092576980590820e+00,1.600961327552795410e+00,1.600830078125000000e+00,1.600698947906494141e+00,1.600567698478698730e+00,1.600436568260192871e+00,1.600305438041687012e+00,1.600174307823181152e+00,1.600043416023254395e+00,1.599912285804748535e+00,1.599781274795532227e+00,1.599650144577026367e+00,1.599519252777099609e+00,1.599388241767883301e+00,1.599257230758666992e+00,1.599126338958740234e+00,1.598995447158813477e+00,1.598864555358886719e+00,1.598733663558959961e+00,1.598602771759033203e+00,1.598471999168395996e+00,1.598341226577758789e+00,1.598210453987121582e+00,1.598079681396484375e+00,1.597949028015136719e+00,1.597818255424499512e+00,1.597687602043151855e+00,1.597556829452514648e+00,1.597426176071166992e+00,1.597295522689819336e+00,1.597164988517761230e+00
1.467097878456115723e+00,1.466987729072570801e+00,1.466877460479736328e+00,1.466767311096191406e+00,1.466657161712646484e+00,1.466547012329101562e+00,1.466436982154846191e+00,1.466326832771301270e+00,1.466216802597045898e+00,1.466106653213500977e+00,1.465996623039245605e+00,1.465886592864990234e+00,1.465776801109313965e+00,1.465666770935058594e+00,1.465556740760803223e+00,1.465446829795837402e+00,1.465336918830871582e+00,1.465226888656616211e+00,1.465116977691650391e+00,1.465007066726684570e+00,1.464897274971008301e+00,1.464787364006042480e+00,1.464677572250366211e+00,1.464567661285400391e+00,1.464457869529724121e+00,1.464348077774047852e+00,1.464238405227661133e+00,1.464128613471984863e+00,1.464018940925598145e+00,1.463909149169921875e+00,1.463799476623535156e+00,1.463689804077148438e+00,1.463580012321472168e+00,1.463470339775085449e+00,1.463360786437988281e+00,1.463251113891601562e+00,1.463141441345214844e+00,1.463031888008117676e+00,1.462922334671020508e+00,1.462812900543212891e+00,1.462703347206115723e+00,1.462593793869018555e+00,1.462484240531921387e+00,1.462374806404113770e+00,1.462265253067016602e+00,1.462155818939208984e+00,1.462046384811401367e+00,1.461936950683593750e+00,1.461827516555786133e+00,1.461718082427978516e+00,1.461608767509460449e+00,1.461499333381652832e+00,1.461390137672424316e+00,1.461280822753906250e+00,1.461171507835388184e+00,1.461062192916870117e+00,1.460952877998352051e+00,1.460843563079833984e+00,1.460734367370605469e+00,1.460625171661376953e+00,1.460515856742858887e+00,1.460406661033630371e+00,1.460297465324401855e+00,1.460188269615173340e+00,1.460079193115234375e+00,1.459970116615295410e+00,1.459861040115356445e+00,1.459751963615417480e+00,1.459642767906188965e+00,1.459533691406250000e+00,1.459424734115600586e+00,1.459315657615661621e+00,1.459206581115722656e+00,1.459097623825073242e+00,1.458988547325134277e+00,1.458879590034484863e+00,1.458770632743835449e+00,1.458661675453186035e+00,1.458552837371826172e+00,1.458443999290466309e+00
1.349216818809509277e+00,1.349123597145080566e+00,1.349030494689941406e+00,1.348937273025512695e+00,1.348844170570373535e+00,1.348750948905944824e+00,1.348657846450805664e+00,1.348564863204956055e+00,1.348471760749816895e+00,1.348378658294677734e+00,1.348285555839538574e+00,1.348192453384399414e+00,1.348099470138549805e+00,1.348006367683410645e+00,1.347913384437561035e+00,1.347820281982421875e+00,1.347727298736572266e+00,1.347634315490722656e+00,1.347541332244873047e+00,1.347448348999023438e+00,1.347355484962463379e+00,1.347262620925903320e+00,1.347169756889343262e+00,1.347076773643493652e+00,1.346983909606933594e+00,1.346891045570373535e+00,1.346798181533813477e+00,1.346705317497253418e+00,1.346612453460693359e+00,1.346519589424133301e+00,1.346426725387573242e+00,1.346333980560302734e+00,1.346241116523742676e+00,1.346148371696472168e+00,1.346055746078491211e+00,1.345962882041931152e+00,1.345870137214660645e+00,1.345777392387390137e+00,1.345684766769409180e+00,1.345592021942138672e+00,1.345499277114868164e+00,1.345406651496887207e+00,1.345313906669616699e+00,1.345221281051635742e+00,1.345128655433654785e+00,1.345036029815673828e+00,1.344943404197692871e+00,1.344850897789001465e+00,1.344758272171020508e+00,1.344665646553039551e+00,1.344573140144348145e+00,1.344480633735656738e+00,1.344388008117675781e+00,1.344295501708984375e+00,1.344202995300292969e+00,1.344110488891601562e+00,1.344017982482910156e+00,1.343925476074218750e+00,1.343832969665527344e+00,1.343740582466125488e+00,1.343648195266723633e+00,1.343555808067321777e+00,1.343463420867919922e+00,1.343370914459228516e+00,1.343278527259826660e+00,1.343186140060424805e+00,1.343093872070312500e+00,1.343001484870910645e+00,1.342909097671508789e+00,1.342816829681396484e+00,1.342724442481994629e+00,1.342632174491882324e+00,1.342539906501770020e+00,1.342447638511657715e+00,1.342355489730834961e+00,1.342263221740722656e+00,1.342170953750610352e+00,1.342078685760498047e+00,1.341986536979675293e+00,1.341894268989562988e+00
1.248870372772216797e+00,1.248790502548217773e+00,1.248710751533508301e+00,1.248631000518798828e+00,1.248551130294799805e+00,1.248471379280090332e+00,1.248391509056091309e+00,1.248311758041381836e+00,1.248232007026672363e+00,1.248152136802673340e+00,1.248072385787963867e+00,1.247992634773254395e+00,1.247912883758544922e+00,1.247833251953125000e+00,1.247753500938415527e+00,1.247673749923706055e+00,1.247594118118286133e+00,1.247514486312866211e+00,1.247434854507446289e+00,1.247355103492736816e+00,1.247275471687316895e+00,1.247195839881896973e+00,1.247116208076477051e+00,1.247036576271057129e+00,1.246956944465637207e+00,1.246877312660217285e+00,1.246797800064086914e+00,1.246718168258666992e+00,1.246638536453247070e+00,1.246559143066406250e+00,1.246479511260986328e+00,1.246399998664855957e+00,1.246320486068725586e+00,1.246240973472595215e+00,1.246161460876464844e+00,1.246081948280334473e+00,1.246002435684204102e+00,1.245922923088073730e+00,1.245843529701232910e+00,1.245764017105102539e+00,1.245684504508972168e+00,1.245605111122131348e+00,1.245525717735290527e+00,1.245446324348449707e+00,1.245366930961608887e+00,1.245287537574768066e+00,1.245208144187927246e+00,1.245128750801086426e+00,1.245049357414245605e+00,1.244969964027404785e+00,1.244890689849853516e+00,1.244811296463012695e+00,1.244732022285461426e+00,1.244652628898620605e+00,1.244573354721069336e+00,1.244494199752807617e+00,1.244414806365966797e+00,1.244335532188415527e+00,1.244256258010864258e+00,1.244176983833312988e+00,1.244097828865051270e+00,1.244018554687500000e+00,1.243939280509948730e+00,1.243860125541687012e+00,1.243780851364135742e+00,1.243701696395874023e+00,1.243622541427612305e+00,1.243543267250061035e+00,1.243464112281799316e+00,1.243385076522827148e+00,1.243305921554565430e+00,1.243226766586303711e+00,1.243147611618041992e+00,1.243068575859069824e+00,1.242989420890808105e+00,1.242910265922546387e+00,1.242831230163574219e+00,1.242752194404602051e+00,1.242673039436340332e+00,1.242594003677368164e+00
1.162417054176330566e+00,1.162347912788391113e+00,1.162278652191162109e+00,1.162209510803222656e+00,1.162140369415283203e+00,1.162071228027343750e+00,1.162002086639404297e+00,1.161932945251464844e+00,1.161863803863525391e+00,1.161794781684875488e+00,1.161725640296936035e+00,1.161656618118286133e+00,1.161587476730346680e+00,1.161518454551696777e+00,1.161449432373046875e+00,1.161380290985107422e+00,1.161311268806457520e+00,1.161242246627807617e+00,1.161173224449157715e+00,1.161104083061218262e+00,1.161035060882568359e+00,1.160966157913208008e+00,1.160897135734558105e+00,1.160828113555908203e+00,1.160759210586547852e+00,1.160690188407897949e+00,1.160621285438537598e+00,1.160552263259887695e+00,1.160483360290527344e+00,1.160414338111877441e+00,1.160345435142517090e+00,1.160276532173156738e+00,1.160207509994506836e+00,1.160138607025146484e+00,1.160069704055786133e+00,1.160000801086425781e+00,1.159931898117065430e+00,1.159863114356994629e+00,1.159794211387634277e+00,1.159725427627563477e+00,1.159656524658203125e+00,1.159587621688842773e+00,1.159518837928771973e+00,1.159449934959411621e+00,1.159381151199340820e+00,1.159312367439270020e+00,1.159243583679199219e+00,1.159174680709838867e+00,1.159105896949768066e+00,1.159037113189697266e+00,1.158968448638916016e+00,1.158899664878845215e+00,1.158830881118774414e+00,1.158762216567993164e+00,1.158693432807922363e+00,1.158624649047851562e+00,1.158555984497070312e+00,1.158487200736999512e+00,1.158418536186218262e+00,1.158349871635437012e+00,1.158281207084655762e+00,1.158212423324584961e+00,1.158143758773803711e+00,1.158075094223022461e+00,1.158006548881530762e+00,1.157937884330749512e+00,1.157869219779968262e+00,1.157800555229187012e+00,1.157732009887695312e+00,1.157663345336914062e+00,1.157594680786132812e+00,1.157526135444641113e+00,1.157457590103149414e+00,1.157388925552368164e+00,1.157320380210876465e+00,1.157251834869384766e+00,1.157183170318603516e+00,1.157114744186401367e+00,1.157046198844909668e+00,1.156977653503417969e+00
1.087158203125000000e+00,1.087097644805908203e+00,1.087037086486816406e+00,1.086976647377014160e+00,1.086916208267211914e+00,1.086855649948120117e+00,1.086795210838317871e+00,1.086734771728515625e+00,1.086674332618713379e+00,1.086613893508911133e+00,1.086553454399108887e+00,1.086493015289306641e+00,1.086432576179504395e+00,1.086372137069702148e+00,1.086311697959899902e+00,1.086251258850097656e+00,1.086190819740295410e+00,1.086130499839782715e+00,1.086070060729980469e+00,1.086009740829467773e+00,1.085949420928955078e+00,1.085888981819152832e+00,1.085828661918640137e+00,1.085768222808837891e+00,1.085707902908325195e+00,1.085647583007812500e+00,1.085587263107299805e+00,1.085526823997497559e+00,1.085466504096984863e+00,1.085406184196472168e+00,1.085345864295959473e+00,1.085285544395446777e+00,1.085225343704223633e+00,1.085165023803710938e+00,1.085104823112487793e+00,1.085044503211975098e+00,1.084984183311462402e+00,1.084923982620239258e+00,1.084863662719726562e+00,1.084803462028503418e+00,1.084743142127990723e+00,1.084682941436767578e+00,1.084622740745544434e+00,1.084562420845031738e+00,1.084502220153808594e+00,1.084442138671875000e+00,1.084381937980651855e+00,1.084321737289428711e+00,1.084261536598205566e+00,1.084201335906982422e+00,1.084141135215759277e+00,1.084080934524536133e+00,1.084020853042602539e+00,1.083960652351379395e+00,1.083900451660156250e+00,1.083840370178222656e+00,1.083780169486999512e+00,1.083720088005065918e+00,1.083659887313842773e+00,1.083599925041198730e+00,1.083539724349975586e+00,1.083479642868041992e+00,1.083419561386108398e+00,1.083359479904174805e+00,1.083299398422241211e+00,1.083239316940307617e+00,1.083179235458374023e+00,1.083119153976440430e+00,1.083059072494506836e+00,1.082998991012573242e+00,1.082938909530639648e+00,1.082878947257995605e+00,1.082818984985351562e+00,1.082758903503417969e+00,1.082698941230773926e+00,1.082638859748840332e+00,1.082578897476196289e+00,1.082518815994262695e+00,1.082458853721618652e+00,1.082398891448974609e+00
1.021051764488220215e+00,1.020998477935791016e+00,1.020945072174072266e+00,1.020891666412353516e+00,1.020838379859924316e+00,1.020784974098205566e+00,1.020731687545776367e+00,1.020678281784057617e+00,1.020624995231628418e+00,1.020571589469909668e+00,1.020518302917480469e+00,1.020465016365051270e+00,1.020411729812622070e+00,1.020358324050903320e+00,1.020305156707763672e+00,1.020251870155334473e+00,1.020198583602905273e+00,1.020145297050476074e+00,1.020092010498046875e+00,1.020038723945617676e+00,1.019985437393188477e+00,1.019932150840759277e+00,1.019878864288330078e+00,1.019825696945190430e+00,1.019772410392761230e+00,1.019719123840332031e+00,1.019665956497192383e+00,1.019612789154052734e+00,1.019559502601623535e+00,1.019506335258483887e+00,1.019453048706054688e+00,1.019399881362915039e+00,1.019346714019775391e+00,1.019293546676635742e+00,1.019240260124206543e+00,1.019187092781066895e+00,1.019133925437927246e+00,1.019080758094787598e+00,1.019027590751647949e+00,1.018974423408508301e+00,1.018921256065368652e+00,1.018868207931518555e+00,1.018815040588378906e+00,1.018761873245239258e+00,1.018708705902099609e+00,1.018655657768249512e+00,1.018602490425109863e+00,1.018549323081970215e+00,1.018496274948120117e+00,1.018443107604980469e+00,1.018390059471130371e+00,1.018336892127990723e+00,1.018283843994140625e+00,1.018230795860290527e+00,1.018177747726440430e+00,1.018124699592590332e+00,1.018071651458740234e+00,1.018018484115600586e+00,1.017965435981750488e+00,1.017912387847900391e+00,1.017859339714050293e+00,1.017806291580200195e+00,1.017753243446350098e+00,1.017700314521789551e+00,1.017647266387939453e+00,1.017594218254089355e+00,1.017541170120239258e+00,1.017488241195678711e+00,1.017435312271118164e+00,1.017382264137268066e+00,1.017329216003417969e+00,1.017276287078857422e+00,1.017223238945007324e+00,1.017170310020446777e+00,1.017117381095886230e+00,1.017064332962036133e+00,1.017011404037475586e+00,1.016958475112915039e+00,1.016905546188354492e+00,1.016852617263793945e+00
9.625240564346313477e-01,9.624766111373901367e-01,9.624292254447937012e-01,9.623817205429077148e-01,9.623343348503112793e-01,9.622868895530700684e-01,9.622395634651184082e-01,9.621920585632324219e-01,9.621447324752807617e-01,9.620974063873291016e-01,9.620499610900878906e-01,9.620026350021362305e-01,9.619551897048950195e-01,9.619078636169433594e-01,9.618604183197021484e-01,9.618131518363952637e-01,9.617657065391540527e-01,9.617184400558471680e-01,9.616709947586059570e-01,9.616237282752990723e-01,9.615763425827026367e-01,9.615290164947509766e-01,9.614817500114440918e-01,9.614343643188476562e-01,9.613870978355407715e-01,9.613397121429443359e-01,9.612924456596374512e-01,9.612451195716857910e-01,9.611978530883789062e-01,9.611504673957824707e-01,9.611032605171203613e-01,9.610558748245239258e-01,9.610086679458618164e-01,9.609613418579101562e-01,9.609141349792480469e-01,9.608668088912963867e-01,9.608195424079895020e-01,9.607723355293273926e-01,9.607250690460205078e-01,9.606778621673583984e-01,9.606305360794067383e-01,9.605833292007446289e-01,9.605360627174377441e-01,9.604888558387756348e-01,9.604415893554687500e-01,9.603943824768066406e-01,9.603471159934997559e-01,9.602999687194824219e-01,9.602527022361755371e-01,9.602055549621582031e-01,9.601584076881408691e-01,9.601111412048339844e-01,9.600639939308166504e-01,9.600167870521545410e-01,9.599696397781372070e-01,9.599223732948303223e-01,9.598752856254577637e-01,9.598280191421508789e-01,9.597809314727783203e-01,9.597337245941162109e-01,9.596866369247436523e-01,9.596394300460815430e-01,9.595922827720642090e-01,9.595451951026916504e-01,9.594980478286743164e-01,9.594509601593017578e-01,9.594037532806396484e-01,9.593566656112670898e-01,9.593095183372497559e-01,9.592624306678771973e-01,9.592152833938598633e-01,9.591681957244873047e-01,9.591210484504699707e-01,9.590740203857421875e-01,9.590268731117248535e-01,9.589798450469970703e-01,9.589328169822692871e-01,9.588856697082519531e-01,9.588386416435241699e-01,9.587915539741516113e-01
9.103422164916992188e-01,9.102997779846191406e-01,9.102573990821838379e-01,9.102149009704589844e-01,9.101725220680236816e-01,9.101302027702331543e-01,9.100877046585083008e-01,9.100453853607177734e-01,9.100029468536376953e-01,9.099605679512023926e-01,9.099181294441223145e-01,9.098758101463317871e-01,9.098333716392517090e-01,9.097909927368164062e-01,9.097486138343811035e-01,9.097062945365905762e-01,9.096638560295104980e-01,9.096215367317199707e-01,9.095792174339294434e-01,9.095368385314941406e-01,9.094945192337036133e-01,9.094520807266235352e-01,9.094098210334777832e-01,9.093674421310424805e-01,9.093251228332519531e-01,9.092827439308166504e-01,9.092404842376708984e-01,9.091981053352355957e-01,9.091558456420898438e-01,9.091134667396545410e-01,9.090712070465087891e-01,9.090289473533630371e-01,9.089865684509277344e-01,9.089443087577819824e-01,9.089019894599914551e-01,9.088597297668457031e-01,9.088173508644104004e-01,9.087751507759094238e-01,9.087328314781188965e-01,9.086905717849731445e-01,9.086482524871826172e-01,9.086060523986816406e-01,9.085637331008911133e-01,9.085215330123901367e-01,9.084792733192443848e-01,9.084370136260986328e-01,9.083948135375976562e-01,9.083524942398071289e-01,9.083102941513061523e-01,9.082680344581604004e-01,9.082258343696594238e-01,9.081835746765136719e-01,9.081413745880126953e-01,9.080991148948669434e-01,9.080569148063659668e-01,9.080146551132202148e-01,9.079725146293640137e-01,9.079303145408630371e-01,9.078881144523620605e-01,9.078459143638610840e-01,9.078037142753601074e-01,9.077615141868591309e-01,9.077193140983581543e-01,9.076771736145019531e-01,9.076349139213562012e-01,9.075928330421447754e-01,9.075505733489990234e-01,9.075084924697875977e-01,9.074662327766418457e-01,9.074241518974304199e-01,9.073820114135742188e-01,9.073398113250732422e-01,9.072977304458618164e-01,9.072555303573608398e-01,9.072134494781494141e-01,9.071712493896484375e-01,9.071291685104370117e-01,9.070870280265808105e-01,9.070449471473693848e-01,9.070027470588684082e-01
8.635273575782775879e-01,8.634892106056213379e-01,8.634510040283203125e-01,8.634129166603088379e-01,8.633747100830078125e-01,8.633365631103515625e-01,8.632983565330505371e-01,8.632602691650390625e-01,8.632220625877380371e-01,8.631839156150817871e-01,8.631457686424255371e-01,8.631076216697692871e-01,8.630695343017578125e-01,8.630313873291015625e-01,8.629932999610900879e-01,8.629550933837890625e-01,8.629170060157775879e-01,8.628788590431213379e-01,8.628407716751098633e-01,8.628026247024536133e-01,8.627645373344421387e-01,8.627263903617858887e-01,8.626883625984191895e-01,8.626502156257629395e-01,8.626121282577514648e-01,8.625739812850952148e-01,8.625359535217285156e-01,8.624978661537170410e-01,8.624597787857055664e-01,8.624217510223388672e-01,8.623836040496826172e-01,8.623455762863159180e-01,8.623074293136596680e-01,8.622694015502929688e-01,8.622313141822814941e-01,8.621932864189147949e-01,8.621551990509033203e-01,8.621171712875366211e-01,8.620790839195251465e-01,8.620410561561584473e-01,8.620030879974365234e-01,8.619650006294250488e-01,8.619269728660583496e-01,8.618889451026916504e-01,8.618509173393249512e-01,8.618128299713134766e-01,8.617748618125915527e-01,8.617368340492248535e-01,8.616988062858581543e-01,8.616607785224914551e-01,8.616228103637695312e-01,8.615847229957580566e-01,8.615467548370361328e-01,8.615088462829589844e-01,8.614707589149475098e-01,8.614328503608703613e-01,8.613948225975036621e-01,8.613568544387817383e-01,8.613188266754150391e-01,8.612808585166931152e-01,8.612428307533264160e-01,8.612049221992492676e-01,8.611668944358825684e-01,8.611289858818054199e-01,8.610909581184387207e-01,8.610530495643615723e-01,8.610151410102844238e-01,8.609771728515625000e-01,8.609392642974853516e-01,8.609012365341186523e-01,8.608633279800415039e-01,8.608253598213195801e-01,8.607874512672424316e-01,8.607494831085205078e-01,8.607115745544433594e-01,8.606736063957214355e-01,8.606357574462890625e-01,8.605977892875671387e-01,8.605598807334899902e-01,8.605220317840576172e-01
8.212919831275939941e-01,8.212574720382690430e-01,8.212229013442993164e-01,8.211883902549743652e-01,8.211538195610046387e-01,8.211193680763244629e-01,8.210847973823547363e-01,8.210503458976745605e-01,8.210158348083496094e-01,8.209813237190246582e-01,8.209468126296997070e-01,8.209123015403747559e-01,8.208778500556945801e-01,8.208432793617248535e-01,8.208088278770446777e-01,8.207743167877197266e-01,8.207398653030395508e-01,8.207053542137145996e-01,8.206709027290344238e-01,8.206363320350646973e-01,8.206019401550292969e-01,8.205674886703491211e-01,8.205329775810241699e-01,8.204985260963439941e-01,8.204640150070190430e-01,8.204296231269836426e-01,8.203951120376586914e-01,8.203607201576232910e-01,8.203262090682983398e-01,8.202918171882629395e-01,8.202573060989379883e-01,8.202229142189025879e-01,8.201884031295776367e-01,8.201540112495422363e-01,8.201196193695068359e-01,8.200851082801818848e-01,8.200507164001464844e-01,8.200162649154663086e-01,8.199818730354309082e-01,8.199474215507507324e-01,8.199130296707153320e-01,8.198785781860351562e-01,8.198441863059997559e-01,8.198097348213195801e-01,8.197754025459289551e-01,8.197409510612487793e-01,8.197065591812133789e-01,8.196722269058227539e-01,8.196377754211425781e-01,8.196034431457519531e-01,8.195689916610717773e-01,8.195346593856811523e-01,8.195002079010009766e-01,8.194658756256103516e-01,8.194314241409301758e-01,8.193970918655395508e-01,8.193626999855041504e-01,8.193283677101135254e-01,8.192939162254333496e-01,8.192596435546875000e-01,8.192253112792968750e-01,8.191909193992614746e-01,8.191565871238708496e-01,8.191221952438354492e-01,8.190878629684448242e-01,8.190534710884094238e-01,8.190191984176635742e-01,8.189848065376281738e-01,8.189504742622375488e-01,8.189160823822021484e-01,8.188818097114562988e-01,8.188474178314208984e-01,8.188131451606750488e-01,8.187788128852844238e-01,8.187444806098937988e-01,8.187102079391479492e-01,8.186758756637573242e-01,8.186416029930114746e-01,8.186072111129760742e-01,8.185729980468750000e-01
7.829954028129577637e-01,7.829640507698059082e-01,7.829326987266540527e-01,7.829012870788574219e-01,7.828699350357055664e-01,7.828385233879089355e-01,7.828071713447570801e-01,7.827757596969604492e-01,7.827444672584533691e-01,7.827130556106567383e-01,7.826817035675048828e-01,7.826502919197082520e-01,7.826189994812011719e-01,7.825875878334045410e-01,7.825562953948974609e-01,7.825248837471008301e-01,7.824935913085937500e-01,7.824622392654418945e-01,7.824308872222900391e-01,7.823995947837829590e-01,7.823681831359863281e-01,7.823368906974792480e-01,7.823055386543273926e-01,7.822742462158203125e-01,7.822428345680236816e-01,7.822115421295166016e-01,7.821801900863647461e-01,7.821488976478576660e-01,7.821175456047058105e-01,7.820862531661987305e-01,7.820549607276916504e-01,7.820236086845397949e-01,7.819923758506774902e-01,7.819610238075256348e-01,7.819297313690185547e-01,7.818983793258666992e-01,7.818671464920043945e-01,7.818357944488525391e-01,7.818045616149902344e-01,7.817732095718383789e-01,7.817419767379760742e-01,7.817106246948242188e-01,7.816793918609619141e-01,7.816481590270996094e-01,7.816168069839477539e-01,7.815855741500854492e-01,7.815542817115783691e-01,7.815230488777160645e-01,7.814916968345642090e-01,7.814604640007019043e-01,7.814291715621948242e-01,7.813979387283325195e-01,7.813666462898254395e-01,7.813354134559631348e-01,7.813041210174560547e-01,7.812729477882385254e-01,7.812417149543762207e-01,7.812104225158691406e-01,7.811791896820068359e-01,7.811479568481445312e-01,7.811167240142822266e-01,7.810854315757751465e-01,7.810542583465576172e-01,7.810229659080505371e-01,7.809917926788330078e-01,7.809605598449707031e-01,7.809293270111083984e-01,7.808980941772460938e-01,7.808669209480285645e-01,7.808356881141662598e-01,7.808044552803039551e-01,7.807732820510864258e-01,7.807420492172241211e-01,7.807108759880065918e-01,7.806796431541442871e-01,7.806484699249267578e-01,7.806172370910644531e-01,7.805860638618469238e-01,7.805548310279846191e-01,7.805236577987670898e-01
7.481113076210021973e-01,7.480826377868652344e-01,7.480540275573730469e-01,7.480253577232360840e-01,7.479966878890991211e-01,7.479680180549621582e-01,7.479394078254699707e-01,7.479107379913330078e-01,7.478821277618408203e-01,7.478534579277038574e-01,7.478248476982116699e-01,7.477962970733642578e-01,7.477676272392272949e-01,7.477390170097351074e-01,7.477103471755981445e-01,7.476817965507507324e-01,7.476531267166137695e-01,7.476245164871215820e-01,7.475958466529846191e-01,7.475672960281372070e-01,7.475386261940002441e-01,7.475100755691528320e-01,7.474814057350158691e-01,7.474528551101684570e-01,7.474243044853210449e-01,7.473956346511840820e-01,7.473670840263366699e-01,7.473384737968444824e-01,7.473098635673522949e-01,7.472812533378601074e-01,7.472527027130126953e-01,7.472240924835205078e-01,7.471955418586730957e-01,7.471669316291809082e-01,7.471383810043334961e-01,7.471097707748413086e-01,7.470812201499938965e-01,7.470526695251464844e-01,7.470240592956542969e-01,7.469955086708068848e-01,7.469668984413146973e-01,7.469384074211120605e-01,7.469097971916198730e-01,7.468812465667724609e-01,7.468526363372802734e-01,7.468241453170776367e-01,7.467955350875854492e-01,7.467670440673828125e-01,7.467384338378906250e-01,7.467099428176879883e-01,7.466813921928405762e-01,7.466528415679931641e-01,7.466243505477905273e-01,7.465957403182983398e-01,7.465672492980957031e-01,7.465386986732482910e-01,7.465101480484008789e-01,7.464815974235534668e-01,7.464531064033508301e-01,7.464245557785034180e-01,7.463960647583007812e-01,7.463675141334533691e-01,7.463390231132507324e-01,7.463104724884033203e-01,7.462819814682006836e-01,7.462534904479980469e-01,7.462249398231506348e-01,7.461964488029479980e-01,7.461679577827453613e-01,7.461394667625427246e-01,7.461109161376953125e-01,7.460824847221374512e-01,7.460539340972900391e-01,7.460254430770874023e-01,7.459969520568847656e-01,7.459684610366821289e-01,7.459399700164794922e-01,7.459114789962768555e-01,7.458830475807189941e-01,7.458544969558715820e-01
7.162029147148132324e-01,7.161766290664672852e-01,7.161503434181213379e-01,7.161240577697753906e-01,7.160978317260742188e-01,7.160715460777282715e-01,7.160453796386718750e-01,7.160191535949707031e-01,7.159928679466247559e-01,7.159666419029235840e-01,7.159403562545776367e-01,7.159141302108764648e-01,7.158879041671752930e-01,7.158616781234741211e-01,7.158353924751281738e-01,7.158092260360717773e-01,7.157829403877258301e-01,7.157567143440246582e-01,7.157304883003234863e-01,7.157042622566223145e-01,7.156780958175659180e-01,7.156518101692199707e-01,7.156256437301635742e-01,7.155993580818176270e-01,7.155731916427612305e-01,7.155469655990600586e-01,7.155207991600036621e-01,7.154945135116577148e-01,7.154683470726013184e-01,7.154421210289001465e-01,7.154159545898437500e-01,7.153896689414978027e-01,7.153635025024414062e-01,7.153373360633850098e-01,7.153111100196838379e-01,7.152849435806274414e-01,7.152587175369262695e-01,7.152325510978698730e-01,7.152063250541687012e-01,7.151802182197570801e-01,7.151539921760559082e-01,7.151278257369995117e-01,7.151015996932983398e-01,7.150754332542419434e-01,7.150492668151855469e-01,7.150231003761291504e-01,7.149969339370727539e-01,7.149707674980163574e-01,7.149446010589599609e-01,7.149184346199035645e-01,7.148922681808471680e-01,7.148661017417907715e-01,7.148399353027343750e-01,7.148137688636779785e-01,7.147876024246215820e-01,7.147614359855651855e-01,7.147353291511535645e-01,7.147091031074523926e-01,7.146829962730407715e-01,7.146568894386291504e-01,7.146307229995727539e-01,7.146045565605163574e-01,7.145783901214599609e-01,7.145522832870483398e-01,7.145261168479919434e-01,7.145000100135803223e-01,7.144738435745239258e-01,7.144477367401123047e-01,7.144215703010559082e-01,7.143954634666442871e-01,7.143692970275878906e-01,7.143432497978210449e-01,7.143171429634094238e-01,7.142909765243530273e-01,7.142648696899414062e-01,7.142387032508850098e-01,7.142126560211181641e-01,7.141864895820617676e-01,7.141603827476501465e-01,7.141342759132385254e-01
6.869050264358520508e-01,6.868809461593627930e-01,6.868567466735839844e-01,6.868326067924499512e-01,6.868084073066711426e-01,6.867843270301818848e-01,6.867601275444030762e-01,6.867359876632690430e-01,6.867118477821350098e-01,6.866877079010009766e-01,6.866635680198669434e-01,6.866394281387329102e-01,6.866152882575988770e-01,6.865911483764648438e-01,6.865670680999755859e-01,6.865428686141967773e-01,6.865187883377075195e-01,6.864946484565734863e-01,6.864705085754394531e-01,6.864463686943054199e-01,6.864222884178161621e-01,6.863981485366821289e-01,6.863740086555480957e-01,6.863498687744140625e-01,6.863257884979248047e-01,6.863016486167907715e-01,6.862775683403015137e-01,6.862534880638122559e-01,6.862293481826782227e-01,6.862052679061889648e-01,6.861811280250549316e-01,6.861570477485656738e-01,6.861329078674316406e-01,6.861088275909423828e-01,6.860846877098083496e-01,6.860606074333190918e-01,6.860365271568298340e-01,6.860124468803405762e-01,6.859883069992065430e-01,6.859642267227172852e-01,6.859401464462280273e-01,6.859160661697387695e-01,6.858919858932495117e-01,6.858679056167602539e-01,6.858438253402709961e-01,6.858197450637817383e-01,6.857956647872924805e-01,6.857715845108032227e-01,6.857475042343139648e-01,6.857234239578247070e-01,6.856993436813354492e-01,6.856752634048461914e-01,6.856512427330017090e-01,6.856271028518676758e-01,6.856030821800231934e-01,6.855790615081787109e-01,6.855549812316894531e-01,6.855309009552001953e-01,6.855068206787109375e-01,6.854828000068664551e-01,6.854587197303771973e-01,6.854346990585327148e-01,6.854106187820434570e-01,6.853865981101989746e-01,6.853625178337097168e-01,6.853384971618652344e-01,6.853144168853759766e-01,6.852903962135314941e-01,6.852663755416870117e-01,6.852422952651977539e-01,6.852182745933532715e-01,6.851941943168640137e-01,6.851702332496643066e-01,6.851461529731750488e-01,6.851221323013305664e-01,6.850981116294860840e-01,6.850740909576416016e-01,6.850500106811523438e-01,6.850260496139526367e-01,6.850019693374633789e-01
6.599099636077880859e-01,6.598877310752868652e-01,6.598653793334960938e-01,6.598431468009948730e-01,6.598207950592041016e-01,6.597985625267028809e-01,6.597762107849121094e-01,6.597539782524108887e-01,6.597316861152648926e-01,6.597093939781188965e-01,6.596871614456176758e-01,6.596648693084716797e-01,6.596425771713256836e-01,6.596202850341796875e-01,6.595980525016784668e-01,6.595757603645324707e-01,6.595534682273864746e-01,6.595311760902404785e-01,6.595089435577392578e-01,6.594866514205932617e-01,6.594644188880920410e-01,6.594421267509460449e-01,6.594198942184448242e-01,6.593976616859436035e-01,6.593753695487976074e-01,6.593531370162963867e-01,6.593308448791503906e-01,6.593086123466491699e-01,6.592863202095031738e-01,6.592640876770019531e-01,6.592417955398559570e-01,6.592196226119995117e-01,6.591973304748535156e-01,6.591750979423522949e-01,6.591528058052062988e-01,6.591306328773498535e-01,6.591084003448486328e-01,6.590861082077026367e-01,6.590639352798461914e-01,6.590416431427001953e-01,6.590194106101989746e-01,6.589971780776977539e-01,6.589749455451965332e-01,6.589527130126953125e-01,6.589304804801940918e-01,6.589082479476928711e-01,6.588860154151916504e-01,6.588637828826904297e-01,6.588416099548339844e-01,6.588193774223327637e-01,6.587971448898315430e-01,6.587749719619750977e-01,6.587526798248291016e-01,6.587305068969726562e-01,6.587082743644714355e-01,6.586861014366149902e-01,6.586638092994689941e-01,6.586416363716125488e-01,6.586194038391113281e-01,6.585972309112548828e-01,6.585749983787536621e-01,6.585528254508972168e-01,6.585306525230407715e-01,6.585084199905395508e-01,6.584862470626831055e-01,6.584640145301818848e-01,6.584418416023254395e-01,6.584196090698242188e-01,6.583974361419677734e-01,6.583752036094665527e-01,6.583530306816101074e-01,6.583308577537536621e-01,6.583086848258972168e-01,6.582864522933959961e-01,6.582642793655395508e-01,6.582421660423278809e-01,6.582199335098266602e-01,6.581977605819702148e-01,6.581755876541137695e-01,6.581534147262573242e-01
