5.000000000000000000e+00,5.000000000000000000e+00,5.000000000000000000e+00,5.000000000000000000e+00,5.000000000000000000e+00,5.000000000000000000e+00,5.000000000000000000e+00,5.000000000000000000e+00,5.000000000000000000e+00,5.000000000000000000e+00,5.000000000000000000e+00,5.000000000000000000e+00,5.000000000000000000e+00,5.000000000000000000e+00,5.000000000000000000e+00,5.000000000000000000e+00,5.000000000000000000e+00,5.000000000000000000e+00,5.000000000000000000e+00,5.000000000000000000e+00,5.000000000000000000e+00,5.000000000000000000e+00,5.000000000000000000e+00,5.000000000000000000e+00,5.000000000000000000e+00,5.000000000000000000e+00,5.000000000000000000e+00,5.000000000000000000e+00,5.000000000000000000e+00,5.000000000000000000e+00,5.000000000000000000e+00,5.000000000000000000e+00,5.000000000000000000e+00,5.000000000000000000e+00,5.000000000000000000e+00,5.000000000000000000e+00,5.000000000000000000e+00,5.000000000000000000e+00,1.650150895118713379e+00,1.628949642181396484e+00,1.632514119148254395e+00,1.586068987846374512e+00,1.551209568977355957e+00,1.536324739456176758e+00,1.536563873291015625e+00,1.537513017654418945e+00,1.608773469924926758e+00,1.607794165611267090e+00,1.628292202949523926e+00,1.631089568138122559e+00,1.660702705383300781e+00,1.769495129585266113e+00,1.737553000450134277e+00,1.715788960456848145e+00,3.088856935501098633e+00,3.010080814361572266e+00,2.935222864151000977e+00,2.863997936248779297e+00,2.796147823333740234e+00,2.731438159942626953e+00,2.669655799865722656e+00,2.610606670379638672e+00,2.554112911224365234e+00,2.500012636184692383e+00,2.448156595230102539e+00,2.398407936096191406e+00,2.350641012191772461e+00,2.304739713668823242e+00,2.260596513748168945e+00,2.218112707138061523e+00,2.177196025848388672e+00,2.137761831283569336e+00,2.099730491638183594e+00,2.063028812408447266e+00,2.027587890625000000e+00,1.993344306945800781e+00,1.960238218307495117e+00,1.928213715553283691e+00,1.897218823432922363e+00,1.867204546928405762e+00
5.000000000000000000e+00,5.000000000000000000e+00,5.000000000000000000e+00,5.000000000000000000e+00,5.000000000000000000e+00,5.000000000000000000e+00,5.000000000000000000e+00,5.000000000000000000e+00,5.000000000000000000e+00,5.000000000000000000e+00,5.000000000000000000e+00,5.000000000000000000e+00,5.000000000000000000e+00,5.000000000000000000e+00,5.000000000000000000e+00,5.000000000000000000e+00,5.000000000000000000e+00,5.000000000000000000e+00,5.000000000000000000e+00,5.000000000000000000e+00,5.000000000000000000e+00,5.000000000000000000e+00,5.000000000000000000e+00,5.000000000000000000e+00,5.000000000000000000e+00,5.000000000000000000e+00,5.000000000000000000e+00,5.000000000000000000e+00,5.000000000000000000e+00,5.000000000000000000e+00,5.000000000000000000e+00,5.000000000000000000e+00,5.000000000000000000e+00,5.000000000000000000e+00,5.000000000000000000e+00,5.000000000000000000e+00,5.000000000000000000e+00,5.000000000000000000e+00,1.646480321884155273e+00,1.618946075439453125e+00,1.629456281661987305e+00,1.579253196716308594e+00,1.547111511230468750e+00,1.529672980308532715e+00,1.528254270553588867e+00,1.527094602584838867e+00,1.547071576118469238e+00,1.631691098213195801e+00,1.624585032463073730e+00,1.624862551689147949e+00,1.639482140541076660e+00,3.352099180221557617e+00,1.735736727714538574e+00,1.713082432746887207e+00,1.707325816154479980e+00,3.010134696960449219e+00,2.935274362564086914e+00,2.864047050476074219e+00,2.796194553375244141e+00,2.731482744216918945e+00,2.669698476791381836e+00,2.610647201538085938e+00,2.554152011871337891e+00,2.500049829483032227e+00,2.448192358016967773e+00,2.398442268371582031e+00,2.350673913955688477e+00,2.304771184921264648e+00,2.260627031326293945e+00,2.218142032623291016e+00,2.177224397659301758e+00,2.137789011001586914e+00,2.099756717681884766e+00,2.063054084777832031e+00,2.027612447738647461e+00,1.993368029594421387e+00,1.960261106491088867e+00,1.928235888481140137e+00,1.897240281105041504e+00,1.867225408554077148e+00
5.000000000000000000e+00,5.000000000000000000e+00,5.000000000000000000e+00,5.000000000000000000e+00,5.000000000000000000e+00,5.000000000000000000e+00,5.000000000000000000e+00,5.000000000000000000e+00,5.000000000000000000e+00,5.000000000000000000e+00,5.000000000000000000e+00,5.000000000000000000e+00,5.000000000000000000e+00,5.000000000000000000e+00,5.000000000000000000e+00,5.000000000000000000e+00,5.000000000000000000e+00,5.000000000000000000e+00,5.000000000000000000e+00,5.000000000000000000e+00,5.000000000000000000e+00,5.000000000000000000e+00,5.000000000000000000e+00,5.000000000000000000e+00,5.000000000000000000e+00,5.000000000000000000e+00,5.000000000000000000e+00,5.000000000000000000e+00,5.000000000000000000e+00,5.000000000000000000e+00,5.000000000000000000e+00,5.000000000000000000e+00,5.000000000000000000e+00,5.000000000000000000e+00,5.000000000000000000e+00,5.000000000000000000e+00,5.000000000000000000e+00,5.000000000000000000e+00,1.637030959129333496e+00,1.611633777618408203e+00,1.620921492576599121e+00,1.576626420021057129e+00,1.540539622306823730e+00,1.525238752365112305e+00,1.523802518844604492e+00,1.522368788719177246e+00,1.530013322830200195e+00,1.582613348960876465e+00,1.614637136459350586e+00,1.612265586853027344e+00,1.610536813735961914e+00,1.666452527046203613e+00,1.756587028503417969e+00,1.713816761970520020e+00,1.709022521972656250e+00,3.010188817977905273e+00,2.935325622558593750e+00,2.864095926284790039e+00,2.796241044998168945e+00,2.731527090072631836e+00,2.669740915298461914e+00,2.610687971115112305e+00,2.554190874099731445e+00,2.500087022781372070e+00,2.448228120803833008e+00,2.398476362228393555e+00,2.350706815719604492e+00,2.304802894592285156e+00,2.260657548904418945e+00,2.218171358108520508e+00,2.177252531051635742e+00,2.137816190719604492e+00,2.099782943725585938e+00,2.063079595565795898e+00,2.027637004852294922e+00,1.993391752243041992e+00,1.960283994674682617e+00,1.928258061408996582e+00,1.897261738777160645e+00,1.867246150970458984e+00
5.000000000000000000e+00,5.000000000000000000e+00,5.000000000000000000e+00,5.000000000000000000e+00,5.000000000000000000e+00,5.000000000000000000e+00,5.000000000000000000e+00,5.000000000000000000e+00,5.000000000000000000e+00,5.000000000000000000e+00,5.000000000000000000e+00,5.000000000000000000e+00,5.000000000000000000e+00,5.000000000000000000e+00,5.000000000000000000e+00,5.000000000000000000e+00,5.000000000000000000e+00,5.000000000000000000e+00,5.000000000000000000e+00,5.000000000000000000e+00,5.000000000000000000e+00,5.000000000000000000e+00,5.000000000000000000e+00,5.000000000000000000e+00,5.000000000000000000e+00,5.000000000000000000e+00,5.000000000000000000e+00,5.000000000000000000e+00,5.000000000000000000e+00,5.000000000000000000e+00,5.000000000000000000e+00,5.000000000000000000e+00,5.000000000000000000e+00,5.000000000000000000e+00,5.000000000000000000e+00,5.000000000000000000e+00,5.000000000000000000e+00,5.000000000000000000e+00,1.631622910499572754e+00,1.606455206871032715e+00,1.619930624961853027e+00,1.579411149024963379e+00,1.541498899459838867e+00,1.522698163986206055e+00,1.521149158477783203e+00,1.519679546356201172e+00,1.521047711372375488e+00,1.570670485496520996e+00,1.605512619018554688e+00,1.604356050491333008e+00,1.603679299354553223e+00,1.649114847183227539e+00,3.259651899337768555e+00,3.172046899795532227e+00,1.676988959312438965e+00,3.010242700576782227e+00,2.935377120971679688e+00,2.864144802093505859e+00,2.796287775039672852e+00,2.731571674346923828e+00,2.669783353805541992e+00,2.610728502273559570e+00,2.554229736328125000e+00,2.500124454498291016e+00,2.448263883590698242e+00,2.398510694503784180e+00,2.350739717483520508e+00,2.304834604263305664e+00,2.260688066482543945e+00,2.218200683593750000e+00,2.177280902862548828e+00,2.137843608856201172e+00,2.099809408187866211e+00,2.063104867935180664e+00,2.027661561965942383e+00,1.993415355682373047e+00,1.960306882858276367e+00,1.928280234336853027e+00,1.897283196449279785e+00,1.867266893386840820e+00
5.000000000000000000e+00,5.000000000000000000e+00,5.000000000000000000e+00,5.000000000000000000e+00,5.000000000000000000e+00,5.000000000000000000e+00,5.000000000000000000e+00,5.000000000000000000e+00,5.000000000000000000e+00,5.000000000000000000e+00,5.000000000000000000e+00,5.000000000000000000e+00,5.000000000000000000e+00,5.000000000000000000e+00,5.000000000000000000e+00,5.000000000000000000e+00,5.000000000000000000e+00,5.000000000000000000e+00,5.000000000000000000e+00,5.000000000000000000e+00,5.000000000000000000e+00,5.000000000000000000e+00,5.000000000000000000e+00,5.000000000000000000e+00,5.000000000000000000e+00,5.000000000000000000e+00,5.000000000000000000e+00,5.000000000000000000e+00,5.000000000000000000e+00,5.000000000000000000e+00,5.000000000000000000e+00,5.000000000000000000e+00,5.000000000000000000e+00,5.000000000000000000e+00,5.000000000000000000e+00,5.000000000000000000e+00,5.000000000000000000e+00,5.000000000000000000e+00,1.641685962677001953e+00,1.615406394004821777e+00,1.649685621261596680e+00,1.589623451232910156e+00,1.548936963081359863e+00,1.521498799324035645e+00,1.518843054771423340e+00,1.517377734184265137e+00,1.515915393829345703e+00,1.562060117721557617e+00,1.602975487709045410e+00,1.601642966270446777e+00,1.600312590599060059e+00,1.639848947525024414e+00,3.259715080261230469e+00,3.172106742858886719e+00,1.651315212249755859e+00,1.663065671920776367e+00,2.935428380966186523e+00,2.864193677902221680e+00,2.796334266662597656e+00,2.731616020202636719e+00,2.669825792312622070e+00,2.610769033432006836e+00,2.554268598556518555e+00,2.500161647796630859e+00,2.448299646377563477e+00,2.398545026779174805e+00,2.350772857666015625e+00,2.304866313934326172e+00,2.260718345642089844e+00,2.218230009078979492e+00,2.177309036254882812e+00,2.137870788574218750e+00,2.099835634231567383e+00,2.063130140304565430e+00,2.027686119079589844e+00,1.993439078330993652e+00,1.960329771041870117e+00,1.928302407264709473e+00,1.897304654121398926e+00,1.867287755012512207e+00
5.000000000000000000e+00,5.000000000000000000e+00,5.000000000000000000e+00,5.000000000000000000e+00,5.000000000000000000e+00,5.000000000000000000e+00,5.000000000000000000e+00,5.000000000000000000e+00,5.000000000000000000e+00,5.000000000000000000e+00,5.000000000000000000e+00,5.000000000000000000e+00,5.000000000000000000e+00,5.000000000000000000e+00,5.000000000000000000e+00,5.000000000000000000e+00,5.000000000000000000e+00,5.000000000000000000e+00,5.000000000000000000e+00,5.000000000000000000e+00,5.000000000000000000e+00,5.000000000000000000e+00,5.000000000000000000e+00,5.000000000000000000e+00,5.000000000000000000e+00,5.000000000000000000e+00,5.000000000000000000e+00,5.000000000000000000e+00,5.000000000000000000e+00,5.000000000000000000e+00,5.000000000000000000e+00,5.000000000000000000e+00,5.000000000000000000e+00,5.000000000000000000e+00,5.000000000000000000e+00,5.000000000000000000e+00,5.000000000000000000e+00,5.000000000000000000e+00,1.634056210517883301e+00,1.599125981330871582e+00,1.597263693809509277e+00,1.604817390441894531e+00,1.556447148323059082e+00,1.522890090942382812e+00,1.517555117607116699e+00,1.515083074569702148e+00,1.513625025749206543e+00,1.553481101989746094e+00,1.601844549179077148e+00,1.601324796676635742e+00,1.600605845451354980e+00,1.635097503662109375e+00,3.259778499603271484e+00,3.172166824340820312e+00,1.642067551612854004e+00,1.665468692779541016e+00,2.935479640960693359e+00,2.864242553710937500e+00,2.796380996704101562e+00,2.731660604476928711e+00,2.669868230819702148e+00,2.610809803009033203e+00,2.554307460784912109e+00,2.500198841094970703e+00,2.448335409164428711e+00,2.398579359054565430e+00,2.350805759429931641e+00,2.304898023605346680e+00,2.260748863220214844e+00,2.218259334564208984e+00,2.177337408065795898e+00,2.137897968292236328e+00,2.099861860275268555e+00,2.063155651092529297e+00,2.027710437774658203e+00,1.993462800979614258e+00,1.960352659225463867e+00,1.928324460983276367e+00,1.897326111793518066e+00,1.867308497428894043e+00
5.000000000000000000e+00,5.000000000000000000e+00,5.000000000000000000e+00,5.000000000000000000e+00,5.000000000000000000e+00,5.000000000000000000e+00,5.000000000000000000e+00,5.000000000000000000e+00,5.000000000000000000e+00,5.000000000000000000e+00,5.000000000000000000e+00,5.000000000000000000e+00,5.000000000000000000e+00,5.000000000000000000e+00,5.000000000000000000e+00,5.000000000000000000e+00,5.000000000000000000e+00,5.000000000000000000e+00,5.000000000000000000e+00,5.000000000000000000e+00,5.000000000000000000e+00,5.000000000000000000e+00,5.000000000000000000e+00,5.000000000000000000e+00,5.000000000000000000e+00,5.000000000000000000e+00,5.000000000000000000e+00,5.000000000000000000e+00,5.000000000000000000e+00,5.000000000000000000e+00,5.000000000000000000e+00,5.000000000000000000e+00,5.000000000000000000e+00,5.000000000000000000e+00,5.000000000000000000e+00,5.000000000000000000e+00,5.000000000000000000e+00,5.000000000000000000e+00,1.623628616333007812e+00,1.584383964538574219e+00,1.594983935356140137e+00,1.597598433494567871e+00,1.564030528068542480e+00,1.530200839042663574e+00,1.516363978385925293e+00,1.513632059097290039e+00,1.511341691017150879e+00,1.544701457023620605e+00,1.602223038673400879e+00,1.601828694343566895e+00,1.601109385490417480e+00,1.631065607070922852e+00,3.259841918945312500e+00,3.172226905822753906e+00,3.089198112487792969e+00,1.725700378417968750e+00,1.626118898391723633e+00,2.864291429519653320e+00,2.796427488327026367e+00,2.731704950332641602e+00,2.669910907745361328e+00,2.610850334167480469e+00,2.554346323013305664e+00,2.500236034393310547e+00,2.448370933532714844e+00,2.398613691329956055e+00,2.350838661193847656e+00,2.304929494857788086e+00,2.260779380798339844e+00,2.218288660049438477e+00,2.177365541458129883e+00,2.137925148010253906e+00,2.099888086318969727e+00,2.063180923461914062e+00,2.027734994888305664e+00,1.993486404418945312e+00,1.960375666618347168e+00,1.928346633911132812e+00,1.897347569465637207e+00,1.867329239845275879e+00
5.000000000000000000e+00,5.000000000000000000e+00,5.000000000000000000e+00,5.000000000000000000e+00,5.000000000000000000e+00,5.000000000000000000e+00,5.000000000000000000e+00,5.000000000000000000e+00,5.000000000000000000e+00,5.000000000000000000e+00,5.000000000000000000e+00,5.000000000000000000e+00,5.000000000000000000e+00,5.000000000000000000e+00,5.000000000000000000e+00,5.000000000000000000e+00,5.000000000000000000e+00,5.000000000000000000e+00,5.000000000000000000e+00,5.000000000000000000e+00,5.000000000000000000e+00,5.000000000000000000e+00,5.000000000000000000e+00,5.000000000000000000e+00,5.000000000000000000e+00,5.000000000000000000e+00,5.000000000000000000e+00,5.000000000000000000e+00,5.000000000000000000e+00,5.000000000000000000e+00,5.000000000000000000e+00,5.000000000000000000e+00,5.000000000000000000e+00,5.000000000000000000e+00,5.000000000000000000e+00,5.000000000000000000e+00,5.000000000000000000e+00,5.000000000000000000e+00,1.615988850593566895e+00,1.577774047851562500e+00,4.876005172729492188e+00,1.583213925361633301e+00,1.576473236083984375e+00,1.537582039833068848e+00,1.514535784721374512e+00,1.511675953865051270e+00,1.508826851844787598e+00,1.536020398139953613e+00,1.604016423225402832e+00,1.600877881050109863e+00,1.601613163948059082e+00,1.627092242240905762e+00,3.259905099868774414e+00,3.172286748886108398e+00,3.089255094528198242e+00,3.010458707809448242e+00,1.660930156707763672e+00,2.864340305328369141e+00,2.796474218368530273e+00,2.731749534606933594e+00,2.669953346252441406e+00,2.610891103744506836e+00,2.554385185241699219e+00,2.500273466110229492e+00,2.448406696319580078e+00,2.398648023605346680e+00,2.350871562957763672e+00,2.304961204528808594e+00,2.260809898376464844e+00,2.218317985534667969e+00,2.177393913269042969e+00,2.137952566146850586e+00,2.099914550781250000e+00,2.063206434249877930e+00,2.027759552001953125e+00,1.993510127067565918e+00,1.960398554801940918e+00,1.928368806838989258e+00,1.897369027137756348e+00,1.867350101470947266e+00
5.000000000000000000e+00,5.000000000000000000e+00,5.000000000000000000e+00,5.000000000000000000e+00,5.000000000000000000e+00,5.000000000000000000e+00,5.000000000000000000e+00,5.000000000000000000e+00,5.000000000000000000e+00,5.000000000000000000e+00,5.000000000000000000e+00,5.000000000000000000e+00,5.000000000000000000e+00,5.000000000000000000e+00,5.000000000000000000e+00,5.000000000000000000e+00,5.000000000000000000e+00,5.000000000000000000e+00,5.000000000000000000e+00,5.000000000000000000e+00,5.000000000000000000e+00,5.000000000000000000e+00,5.000000000000000000e+00,5.000000000000000000e+00,5.000000000000000000e+00,5.000000000000000000e+00,5.000000000000000000e+00,5.000000000000000000e+00,5.000000000000000000e+00,5.000000000000000000e+00,5.000000000000000000e+00,5.000000000000000000e+00,5.000000000000000000e+00,5.000000000000000000e+00,5.000000000000000000e+00,5.000000000000000000e+00,5.000000000000000000e+00,5.000000000000000000e+00,1.615311026573181152e+00,1.575735807418823242e+00,4.876146793365478516e+00,4.682687759399414062e+00,1.589581489562988281e+00,1.545775055885314941e+00,1.513026833534240723e+00,1.507418274879455566e+00,1.504585266113281250e+00,1.527814865112304688e+00,1.605813860893249512e+00,1.599563479423522949e+00,1.601227641105651855e+00,1.626036763191223145e+00,3.259968519210815430e+00,3.172346830368041992e+00,3.089311838150024414e+00,3.010512828826904297e+00,2.935633897781372070e+00,2.864389181137084961e+00,2.796520709991455078e+00,2.731794118881225586e+00,2.669995784759521484e+00,2.610931634902954102e+00,2.554424047470092773e+00,2.500310659408569336e+00,2.448442459106445312e+00,2.398682117462158203e+00,2.350904464721679688e+00,2.304992914199829102e+00,2.260840415954589844e+00,2.218347311019897461e+00,2.177422046661376953e+00,2.137979745864868164e+00,2.099940776824951172e+00,2.063231706619262695e+00,2.027784109115600586e+00,1.993533849716186523e+00,1.960421442985534668e+00,1.928390979766845703e+00,1.897390484809875488e+00,1.867370843887329102e+00
5.000000000000000000e+00,5.000000000000000000e+00,5.000000000000000000e+00,5.000000000000000000e+00,5.000000000000000000e+00,5.000000000000000000e+00,5.000000000000000000e+00,5.000000000000000000e+00,5.000000000000000000e+00,5.000000000000000000e+00,5.000000000000000000e+00,5.000000000000000000e+00,5.000000000000000000e+00,5.000000000000000000e+00,5.000000000000000000e+00,5.000000000000000000e+00,5.000000000000000000e+00,5.000000000000000000e+00,5.000000000000000000e+00,5.000000000000000000e+00,5.000000000000000000e+00,5.000000000000000000e+00,5.000000000000000000e+00,5.000000000000000000e+00,5.000000000000000000e+00,5.000000000000000000e+00,5.000000000000000000e+00,5.000000000000000000e+00,5.000000000000000000e+00,5.000000000000000000e+00,5.000000000000000000e+00,5.000000000000000000e+00,5.000000000000000000e+00,5.000000000000000000e+00,5.000000000000000000e+00,5.000000000000000000e+00,5.000000000000000000e+00,5.000000000000000000e+00,1.609230160713195801e+00,5.000000000000000000e+00,4.876288414001464844e+00,4.682818412780761719e+00,1.604416012763977051e+00,1.554277062416076660e+00,1.519329667091369629e+00,1.503788113594055176e+00,1.500367283821105957e+00,1.519729852676391602e+00,1.607230663299560547e+00,1.598869085311889648e+00,1.600781202316284180e+00,1.621438980102539062e+00,3.260031938552856445e+00,3.172406673431396484e+00,3.089368820190429688e+00,3.010566949844360352e+00,2.935685157775878906e+00,2.864438056945800781e+00,2.796567440032958984e+00,2.731838464736938477e+00,2.670038223266601562e+00,2.610972166061401367e+00,2.554462909698486328e+00,2.500347852706909180e+00,2.448478221893310547e+00,2.398716449737548828e+00,2.350937366485595703e+00,2.305024623870849609e+00,2.260870695114135742e+00,2.218376636505126953e+00,2.177450418472290039e+00,2.138006925582885742e+00,2.099967002868652344e+00,2.063256978988647461e+00,2.027808666229248047e+00,1.993557453155517578e+00,1.960444331169128418e+00,1.928413152694702148e+00,1.897411942481994629e+00,1.867391586303710938e+00
5.000000000000000000e+00,5.000000000000000000e+00,5.000000000000000000e+00,5.000000000000000000e+00,5.000000000000000000e+00,5.000000000000000000e+00,5.000000000000000000e+00,5.000000000000000000e+00,5.000000000000000000e+00,5.000000000000000000e+00,5.000000000000000000e+00,5.000000000000000000e+00,5.000000000000000000e+00,5.000000000000000000e+00,5.000000000000000000e+00,5.000000000000000000e+00,5.000000000000000000e+00,5.000000000000000000e+00,5.000000000000000000e+00,5.000000000000000000e+00,5.000000000000000000e+00,5.000000000000000000e+00,5.000000000000000000e+00,5.000000000000000000e+00,5.000000000000000000e+00,5.000000000000000000e+00,5.000000000000000000e+00,5.000000000000000000e+00,5.000000000000000000e+00,5.000000000000000000e+00,5.000000000000000000e+00,5.000000000000000000e+00,5.000000000000000000e+00,5.000000000000000000e+00,5.000000000000000000e+00,5.000000000000000000e+00,5.000000000000000000e+00,5.000000000000000000e+00,1.602218389511108398e+00,5.000000000000000000e+00,4.876430511474609375e+00,4.682949066162109375e+00,4.504235267639160156e+00,1.566920638084411621e+00,1.528033733367919922e+00,1.504346966743469238e+00,1.496173024177551270e+00,1.511676549911499023e+00,1.606633186340332031e+00,1.598622322082519531e+00,1.601155042648315430e+00,1.613636016845703125e+00,3.260095119476318359e+00,3.172466754913330078e+00,3.089425802230834961e+00,3.010620832443237305e+00,2.935736656188964844e+00,2.864486932754516602e+00,2.796613931655883789e+00,2.731883049011230469e+00,2.670080661773681641e+00,2.611012935638427734e+00,2.554502010345458984e+00,2.500385284423828125e+00,2.448513984680175781e+00,2.398750782012939453e+00,2.350970506668090820e+00,2.305056333541870117e+00,2.260901212692260742e+00,2.218405961990356445e+00,2.177478551864624023e+00,2.138034105300903320e+00,2.099993228912353516e+00,2.063282489776611328e+00,2.027832984924316406e+00,1.993581175804138184e+00,1.960467219352722168e+00,1.928435325622558594e+00,1.897433400154113770e+00,1.867412447929382324e+00
5.000000000000000000e+00,5.000000000000000000e+00,5.000000000000000000e+00,5.000000000000000000e+00,5.000000000000000000e+00,5.000000000000000000e+00,5.000000000000000000e+00,5.000000000000000000e+00,5.000000000000000000e+00,5.000000000000000000e+00,5.000000000000000000e+00,5.000000000000000000e+00,5.000000000000000000e+00,5.000000000000000000e+00,5.000000000000000000e+00,5.000000000000000000e+00,5.000000000000000000e+00,5.000000000000000000e+00,5.000000000000000000e+00,5.000000000000000000e+00,5.000000000000000000e+00,5.000000000000000000e+00,5.000000000000000000e+00,5.000000000000000000e+00,5.000000000000000000e+00,5.000000000000000000e+00,5.000000000000000000e+00,5.000000000000000000e+00,5.000000000000000000e+00,5.000000000000000000e+00,5.000000000000000000e+00,5.000000000000000000e+00,5.000000000000000000e+00,5.000000000000000000e+00,5.000000000000000000e+00,5.000000000000000000e+00,5.000000000000000000e+00,5.000000000000000000e+00,5.000000000000000000e+00,5.000000000000000000e+00,4.876572132110595703e+00,4.683079719543457031e+00,4.504355907440185547e+00,1.579376816749572754e+00,1.536825299263000488e+00,1.504906177520751953e+00,1.495213627815246582e+00,1.501480817794799805e+00,1.531379222869873047e+00,1.596317172050476074e+00,1.601529002189636230e+00,1.605908036231994629e+00,3.260158538818359375e+00,3.172526836395263672e+00,3.089482545852661133e+00,3.010674953460693359e+00,2.935787916183471680e+00,2.864536046981811523e+00,2.796660661697387695e+00,2.731927394866943359e+00,2.670123338699340820e+00,2.611053466796875000e+00,2.554540872573852539e+00,2.500422477722167969e+00,2.448549747467041016e+00,2.398785114288330078e+00,2.351003408432006836e+00,2.305088043212890625e+00,2.260931730270385742e+00,2.218435287475585938e+00,2.177506923675537109e+00,2.138061523437500000e+00,2.100019693374633789e+00,2.063307762145996094e+00,2.027857542037963867e+00,1.993604898452758789e+00,1.960490107536315918e+00,1.928457498550415039e+00,1.897454857826232910e+00,1.867433190345764160e+00
5.000000000000000000e+00,5.000000000000000000e+00,5.000000000000000000e+00,5.000000000000000000e+00,5.000000000000000000e+00,5.000000000000000000e+00,5.000000000000000000e+00,5.000000000000000000e+00,5.000000000000000000e+00,5.000000000000000000e+00,5.000000000000000000e+00,5.000000000000000000e+00,5.000000000000000000e+00,5.000000000000000000e+00,5.000000000000000000e+00,5.000000000000000000e+00,5.000000000000000000e+00,5.000000000000000000e+00,5.000000000000000000e+00,5.000000000000000000e+00,5.000000000000000000e+00,5.000000000000000000e+00,5.000000000000000000e+00,5.000000000000000000e+00,5.000000000000000000e+00,5.000000000000000000e+00,5.000000000000000000e+00,5.000000000000000000e+00,5.000000000000000000e+00,5.000000000000000000e+00,5.000000000000000000e+00,5.000000000000000000e+00,5.000000000000000000e+00,5.000000000000000000e+00,5.000000000000000000e+00,5.000000000000000000e+00,5.000000000000000000e+00,5.000000000000000000e+00,5.000000000000000000e+00,5.000000000000000000e+00,4.876713752746582031e+00,4.683210372924804688e+00,4.504477024078369141e+00,1.588350892066955566e+00,1.545234322547912598e+00,1.507912278175354004e+00,1.494780540466308594e+00,1.496286273002624512e+00,1.523437500000000000e+00,1.594018459320068359e+00,1.600333094596862793e+00,1.603822708129882812e+00,3.260221958160400391e+00,3.172586679458618164e+00,3.089539527893066406e+00,3.010728836059570312e+00,2.935839414596557617e+00,2.864584922790527344e+00,2.796707153320312500e+00,2.731971979141235352e+00,2.670165777206420898e+00,2.611094236373901367e+00,2.554579734802246094e+00,2.500459671020507812e+00,2.448585510253906250e+00,2.398819446563720703e+00,2.351036310195922852e+00,2.305119514465332031e+00,2.260962247848510742e+00,2.218464612960815430e+00,2.177535057067871094e+00,2.138088703155517578e+00,2.100045919418334961e+00,2.063333272933959961e+00,2.027882099151611328e+00,1.993628621101379395e+00,1.960512995719909668e+00,1.928479671478271484e+00,1.897476315498352051e+00,1.867454051971435547e+00
5.000000000000000000e+00,5.000000000000000000e+00,5.000000000000000000e+00,5.000000000000000000e+00,5.000000000000000000e+00,5.000000000000000000e+00,5.000000000000000000e+00,5.000000000000000000e+00,5.000000000000000000e+00,5.000000000000000000e+00,5.000000000000000000e+00,5.000000000000000000e+00,5.000000000000000000e+00,5.000000000000000000e+00,5.000000000000000000e+00,5.000000000000000000e+00,5.000000000000000000e+00,5.000000000000000000e+00,5.000000000000000000e+00,5.000000000000000000e+00,5.000000000000000000e+00,5.000000000000000000e+00,5.000000000000000000e+00,5.000000000000000000e+00,5.000000000000000000e+00,5.000000000000000000e+00,5.000000000000000000e+00,5.000000000000000000e+00,5.000000000000000000e+00,5.000000000000000000e+00,5.000000000000000000e+00,5.000000000000000000e+00,5.000000000000000000e+00,5.000000000000000000e+00,5.000000000000000000e+00,5.000000000000000000e+00,5.000000000000000000e+00,5.000000000000000000e+00,5.000000000000000000e+00,5.000000000000000000e+00,4.876855373382568359e+00,4.683341026306152344e+00,4.504598140716552734e+00,4.338996887207031250e+00,1.555833339691162109e+00,1.517525672912597656e+00,1.498505115509033203e+00,1.497739553451538086e+00,1.523429274559020996e+00,1.593696951866149902e+00,1.598022818565368652e+00,1.604197978973388672e+00,3.260285377502441406e+00,3.172646760940551758e+00,3.089596271514892578e+00,3.010782957077026367e+00,2.935890674591064453e+00,2.864633798599243164e+00,2.796753883361816406e+00,2.732016324996948242e+00,2.670208215713500977e+00,2.611134767532348633e+00,2.554618597030639648e+00,2.500496864318847656e+00,2.448621273040771484e+00,2.398853778839111328e+00,2.351069211959838867e+00,2.305151224136352539e+00,2.260992527008056641e+00,2.218493938446044922e+00,2.177563428878784180e+00,2.138115882873535156e+00,2.100072145462036133e+00,2.063358545303344727e+00,2.027906656265258789e+00,1.993652224540710449e+00,1.960536003112792969e+00,1.928501844406127930e+00,1.897497773170471191e+00,1.867474794387817383e+00
5.000000000000000000e+00,5.000000000000000000e+00,5.000000000000000000e+00,5.000000000000000000e+00,5.000000000000000000e+00,5.000000000000000000e+00,5.000000000000000000e+00,5.000000000000000000e+00,5.000000000000000000e+00,5.000000000000000000e+00,5.000000000000000000e+00,5.000000000000000000e+00,5.000000000000000000e+00,5.000000000000000000e+00,5.000000000000000000e+00,5.000000000000000000e+00,5.000000000000000000e+00,5.000000000000000000e+00,5.000000000000000000e+00,5.000000000000000000e+00,5.000000000000000000e+00,5.000000000000000000e+00,5.000000000000000000e+00,5.000000000000000000e+00,5.000000000000000000e+00,5.000000000000000000e+00,5.000000000000000000e+00,5.000000000000000000e+00,5.000000000000000000e+00,5.000000000000000000e+00,5.000000000000000000e+00,5.000000000000000000e+00,5.000000000000000000e+00,5.000000000000000000e+00,5.000000000000000000e+00,5.000000000000000000e+00,5.000000000000000000e+00,5.000000000000000000e+00,5.000000000000000000e+00,5.000000000000000000e+00,4.876997470855712891e+00,4.683471679687500000e+00,4.504718780517578125e+00,4.339108943939208984e+00,1.557071328163146973e+00,1.522622346878051758e+00,1.506024599075317383e+00,1.509919881820678711e+00,1.538361191749572754e+00,1.597071290016174316e+00,1.600861191749572754e+00,1.607248783111572266e+00,3.260348558425903320e+00,3.172706842422485352e+00,3.089653253555297852e+00,3.010837078094482422e+00,2.935942173004150391e+00,2.864682674407958984e+00,2.796800374984741211e+00,2.732060909271240234e+00,2.670250654220581055e+00,2.611175537109375000e+00,2.554657459259033203e+00,2.500534296035766602e+00,2.448656797409057617e+00,2.398888111114501953e+00,2.351102113723754883e+00,2.305182933807373047e+00,2.261023044586181641e+00,2.218523263931274414e+00,2.177591800689697266e+00,2.138143301010131836e+00,2.100098371505737305e+00,2.063384056091308594e+00,2.027931213378906250e+00,1.993675947189331055e+00,1.960558891296386719e+00,1.928524017333984375e+00,1.897519230842590332e+00,1.867495536804199219e+00
5.000000000000000000e+00,5.000000000000000000e+00,5.000000000000000000e+00,5.000000000000000000e+00,5.000000000000000000e+00,5.000000000000000000e+00,5.000000000000000000e+00,5.000000000000000000e+00,5.000000000000000000e+00,5.000000000000000000e+00,5.000000000000000000e+00,5.000000000000000000e+00,5.000000000000000000e+00,5.000000000000000000e+00,5.000000000000000000e+00,5.000000000000000000e+00,5.000000000000000000e+00,5.000000000000000000e+00,5.000000000000000000e+00,5.000000000000000000e+00,5.000000000000000000e+00,5.000000000000000000e+00,5.000000000000000000e+00,5.000000000000000000e+00,5.000000000000000000e+00,5.000000000000000000e+00,5.000000000000000000e+00,5.000000000000000000e+00,5.000000000000000000e+00,5.000000000000000000e+00,5.000000000000000000e+00,5.000000000000000000e+00,5.000000000000000000e+00,5.000000000000000000e+00,5.000000000000000000e+00,5.000000000000000000e+00,5.000000000000000000e+00,5.000000000000000000e+00,5.000000000000000000e+00,5.000000000000000000e+00,4.877139091491699219e+00,4.683602809906005859e+00,4.504839897155761719e+00,4.339221477508544922e+00,1.554404735565185547e+00,1.528041720390319824e+00,1.518175005912780762e+00,1.526019573211669922e+00,1.623069882392883301e+00,1.602331280708312988e+00,1.607398867607116699e+00,1.614781260490417480e+00,3.260411977767944336e+00,3.172766685485839844e+00,3.089710235595703125e+00,3.010890960693359375e+00,2.935993432998657227e+00,2.864731550216674805e+00,2.796847105026245117e+00,2.732105493545532227e+00,2.670293331146240234e+00,2.611216068267822266e+00,2.554696321487426758e+00,2.500571489334106445e+00,2.448692560195922852e+00,2.398922204971313477e+00,2.351135253906250000e+00,2.305214643478393555e+00,2.261053562164306641e+00,2.218552589416503906e+00,2.177619934082031250e+00,2.138170480728149414e+00,2.100124835968017578e+00,2.063409328460693359e+00,2.027955532073974609e+00,1.993699669837951660e+00,1.960581779479980469e+00,1.928546190261840820e+00,1.897540688514709473e+00,1.867516398429870605e+00
5.000000000000000000e+00,5.000000000000000000e+00,5.000000000000000000e+00,5.000000000000000000e+00,5.000000000000000000e+00,5.000000000000000000e+00,5.000000000000000000e+00,5.000000000000000000e+00,5.000000000000000000e+00,5.000000000000000000e+00,5.000000000000000000e+00,5.000000000000000000e+00,5.000000000000000000e+00,5.000000000000000000e+00,5.000000000000000000e+00,5.000000000000000000e+00,5.000000000000000000e+00,5.000000000000000000e+00,5.000000000000000000e+00,5.000000000000000000e+00,5.000000000000000000e+00,5.000000000000000000e+00,5.000000000000000000e+00,5.000000000000000000e+00,5.000000000000000000e+00,5.000000000000000000e+00,5.000000000000000000e+00,5.000000000000000000e+00,5.000000000000000000e+00,5.000000000000000000e+00,5.000000000000000000e+00,5.000000000000000000e+00,5.000000000000000000e+00,5.000000000000000000e+00,5.000000000000000000e+00,5.000000000000000000e+00,5.000000000000000000e+00,5.000000000000000000e+00,5.000000000000000000e+00,5.000000000000000000e+00,4.877280712127685547e+00,4.683733463287353516e+00,4.504961013793945312e+00,1.604786634445190430e+00,1.555382251739501953e+00,1.537367463111877441e+00,1.530523300170898438e+00,1.542466163635253906e+00,1.637693405151367188e+00,1.621064305305480957e+00,1.626067280769348145e+00,3.353104114532470703e+00,3.260475397109985352e+00,3.172826766967773438e+00,3.089766979217529297e+00,3.010945081710815430e+00,2.936044931411743164e+00,2.864780426025390625e+00,2.796893596649169922e+00,2.732149839401245117e+00,2.670335769653320312e+00,2.611256837844848633e+00,2.554735422134399414e+00,2.500608682632446289e+00,2.448728322982788086e+00,2.398956537246704102e+00,2.351168155670166016e+00,2.305246353149414062e+00,2.261084079742431641e+00,2.218581914901733398e+00,2.177648305892944336e+00,2.138197660446166992e+00,2.100151062011718750e+00,2.063434600830078125e+00,2.027980089187622070e+00,1.993723392486572266e+00,1.960604667663574219e+00,1.928568363189697266e+00,1.897562146186828613e+00,1.867537140846252441e+00
5.000000000000000000e+00,5.000000000000000000e+00,5.000000000000000000e+00,5.000000000000000000e+00,5.000000000000000000e+00,5.000000000000000000e+00,5.000000000000000000e+00,5.000000000000000000e+00,5.000000000000000000e+00,5.000000000000000000e+00,5.000000000000000000e+00,5.000000000000000000e+00,5.000000000000000000e+00,5.000000000000000000e+00,5.000000000000000000e+00,5.000000000000000000e+00,5.000000000000000000e+00,5.000000000000000000e+00,5.000000000000000000e+00,5.000000000000000000e+00,5.000000000000000000e+00,5.000000000000000000e+00,5.000000000000000000e+00,5.000000000000000000e+00,5.000000000000000000e+00,5.000000000000000000e+00,5.000000000000000000e+00,5.000000000000000000e+00,5.000000000000000000e+00,5.000000000000000000e+00,5.000000000000000000e+00,5.000000000000000000e+00,5.000000000000000000e+00,5.000000000000000000e+00,5.000000000000000000e+00,5.000000000000000000e+00,5.000000000000000000e+00,5.000000000000000000e+00,5.000000000000000000e+00,5.000000000000000000e+00,4.877422809600830078e+00,4.683864116668701172e+00,4.505081653594970703e+00,1.595384359359741211e+00,1.561769723892211914e+00,1.546807885169982910e+00,1.543033123016357422e+00,1.576722621917724609e+00,1.668707966804504395e+00,1.662643432617187500e+00,3.451220750808715820e+00,3.353171110153198242e+00,3.260538816452026367e+00,3.172886848449707031e+00,3.089823961257934570e+00,3.010998964309692383e+00,2.936096191406250000e+00,2.864829540252685547e+00,2.796940326690673828e+00,2.732194423675537109e+00,2.670378208160400391e+00,2.611297369003295898e+00,2.554774284362792969e+00,2.500646114349365234e+00,2.448764085769653320e+00,2.398990869522094727e+00,2.351201057434082031e+00,2.305278062820434570e+00,2.261114597320556641e+00,2.218611240386962891e+00,2.177676439285278320e+00,2.138224840164184570e+00,2.100177288055419922e+00,2.063460111618041992e+00,2.028004646301269531e+00,1.993746995925903320e+00,1.960627675056457520e+00,1.928590536117553711e+00,1.897583603858947754e+00,1.867557883262634277e+00
5.000000000000000000e+00,5.000000000000000000e+00,5.000000000000000000e+00,5.000000000000000000e+00,5.000000000000000000e+00,5.000000000000000000e+00,5.000000000000000000e+00,5.000000000000000000e+00,5.000000000000000000e+00,5.000000000000000000e+00,5.000000000000000000e+00,5.000000000000000000e+00,5.000000000000000000e+00,5.000000000000000000e+00,5.000000000000000000e+00,5.000000000000000000e+00,5.000000000000000000e+00,5.000000000000000000e+00,5.000000000000000000e+00,5.000000000000000000e+00,5.000000000000000000e+00,5.000000000000000000e+00,5.000000000000000000e+00,5.000000000000000000e+00,5.000000000000000000e+00,5.000000000000000000e+00,5.000000000000000000e+00,5.000000000000000000e+00,5.000000000000000000e+00,5.000000000000000000e+00,5.000000000000000000e+00,5.000000000000000000e+00,5.000000000000000000e+00,5.000000000000000000e+00,5.000000000000000000e+00,5.000000000000000000e+00,5.000000000000000000e+00,5.000000000000000000e+00,5.000000000000000000e+00,5.000000000000000000e+00,4.877564430236816406e+00,4.683994770050048828e+00,4.505202770233154297e+00,1.589894771575927734e+00,1.568692922592163086e+00,1.555151343345642090e+00,1.551033258438110352e+00,1.592752218246459961e+00,1.713646650314331055e+00,3.555252552032470703e+00,3.451291799545288086e+00,3.353238105773925781e+00,3.260601997375488281e+00,3.172946691513061523e+00,3.089880943298339844e+00,3.011053085327148438e+00,2.936147689819335938e+00,2.864878416061401367e+00,2.796986818313598633e+00,2.732238769531250000e+00,2.670420646667480469e+00,2.611338138580322266e+00,2.554813146591186523e+00,2.500683307647705078e+00,2.448799848556518555e+00,2.399025201797485352e+00,2.351233959197998047e+00,2.305309534072875977e+00,2.261145114898681641e+00,2.218640565872192383e+00,2.177704811096191406e+00,2.138252258300781250e+00,2.100203514099121094e+00,2.063485383987426758e+00,2.028029203414916992e+00,1.993770718574523926e+00,1.960650563240051270e+00,1.928612709045410156e+00,1.897605061531066895e+00,1.867578744888305664e+00
5.000000000000000000e+00,5.000000000000000000e+00,5.000000000000000000e+00,5.000000000000000000e+00,5.000000000000000000e+00,5.000000000000000000e+00,5.000000000000000000e+00,5.000000000000000000e+00,5.000000000000000000e+00,5.000000000000000000e+00,5.000000000000000000e+00,5.000000000000000000e+00,5.000000000000000000e+00,5.000000000000000000e+00,5.000000000000000000e+00,5.000000000000000000e+00,5.000000000000000000e+00,5.000000000000000000e+00,5.000000000000000000e+00,5.000000000000000000e+00,5.000000000000000000e+00,5.000000000000000000e+00,5.000000000000000000e+00,5.000000000000000000e+00,5.000000000000000000e+00,5.000000000000000000e+00,5.000000000000000000e+00,5.000000000000000000e+00,5.000000000000000000e+00,5.000000000000000000e+00,5.000000000000000000e+00,5.000000000000000000e+00,5.000000000000000000e+00,5.000000000000000000e+00,5.000000000000000000e+00,5.000000000000000000e+00,5.000000000000000000e+00,5.000000000000000000e+00,5.000000000000000000e+00,5.000000000000000000e+00,4.877704620361328125e+00,4.684125900268554688e+00,4.505323886871337891e+00,1.607181429862976074e+00,1.574951052665710449e+00,1.558230996131896973e+00,1.554096460342407227e+00,1.594428539276123047e+00,3.665751218795776367e+00,3.555327892303466797e+00,3.451362848281860352e+00,3.353305101394653320e+00,3.260665416717529297e+00,3.173006772994995117e+00,3.089937686920166016e+00,3.011107206344604492e+00,2.936198949813842773e+00,2.864927291870117188e+00,2.797033548355102539e+00,2.732283353805541992e+00,2.670463323593139648e+00,2.611378669738769531e+00,2.554852008819580078e+00,2.500720500946044922e+00,2.448835611343383789e+00,2.399059534072875977e+00,2.351266860961914062e+00,2.305341243743896484e+00,2.261175394058227539e+00,2.218669891357421875e+00,2.177732944488525391e+00,2.138279438018798828e+00,2.100229978561401367e+00,2.063510894775390625e+00,2.028053760528564453e+00,1.993794441223144531e+00,1.960673451423645020e+00,1.928634881973266602e+00,1.897626519203186035e+00,1.867599487304687500e+00
5.000000000000000000e+00,5.000000000000000000e+00,5.000000000000000000e+00,5.000000000000000000e+00,5.000000000000000000e+00,5.000000000000000000e+00,5.000000000000000000e+00,5.000000000000000000e+00,5.000000000000000000e+00,5.000000000000000000e+00,5.000000000000000000e+00,5.000000000000000000e+00,5.000000000000000000e+00,5.000000000000000000e+00,5.000000000000000000e+00,5.000000000000000000e+00,5.000000000000000000e+00,5.000000000000000000e+00,5.000000000000000000e+00,5.000000000000000000e+00,5.000000000000000000e+00,5.000000000000000000e+00,5.000000000000000000e+00,5.000000000000000000e+00,5.000000000000000000e+00,5.000000000000000000e+00,5.000000000000000000e+00,5.000000000000000000e+00,5.000000000000000000e+00,5.000000000000000000e+00,5.000000000000000000e+00,5.000000000000000000e+00,5.000000000000000000e+00,5.000000000000000000e+00,5.000000000000000000e+00,5.000000000000000000e+00,5.000000000000000000e+00,5.000000000000000000e+00,5.000000000000000000e+00,5.000000000000000000e+00,4.877844810485839844e+00,4.684255599975585938e+00,4.505444526672363281e+00,1.628303885459899902e+00,1.581259250640869141e+00,1.562823176383972168e+00,1.557171940803527832e+00,1.596005797386169434e+00,3.665831327438354492e+00,3.555403232574462891e+00,3.451433897018432617e+00,3.353372097015380859e+00,3.260728836059570312e+00,3.173066854476928711e+00,3.089994668960571289e+00,3.011161088943481445e+00,2.936250448226928711e+00,2.864976167678833008e+00,2.797080278396606445e+00,2.732327938079833984e+00,2.670505762100219727e+00,2.611419200897216797e+00,2.554890871047973633e+00,2.500757932662963867e+00,2.448871374130249023e+00,2.399093866348266602e+00,2.351300001144409180e+00,2.305372953414916992e+00,2.261205911636352539e+00,2.218699216842651367e+00,2.177761316299438477e+00,2.138306617736816406e+00,2.100256204605102539e+00,2.063536167144775391e+00,2.028078317642211914e+00,1.993818163871765137e+00,1.960696339607238770e+00,1.928657054901123047e+00,1.897647976875305176e+00,1.867620348930358887e+00
5.000000000000000000e+00,5.000000000000000000e+00,5.000000000000000000e+00,5.000000000000000000e+00,5.000000000000000000e+00,5.000000000000000000e+00,5.000000000000000000e+00,5.000000000000000000e+00,5.000000000000000000e+00,5.000000000000000000e+00,5.000000000000000000e+00,5.000000000000000000e+00,5.000000000000000000e+00,5.000000000000000000e+00,5.000000000000000000e+00,5.000000000000000000e+00,5.000000000000000000e+00,5.000000000000000000e+00,5.000000000000000000e+00,5.000000000000000000e+00,5.000000000000000000e+00,5.000000000000000000e+00,5.000000000000000000e+00,5.000000000000000000e+00,5.000000000000000000e+00,5.000000000000000000e+00,5.000000000000000000e+00,5.000000000000000000e+00,5.000000000000000000e+00,5.000000000000000000e+00,5.000000000000000000e+00,5.000000000000000000e+00,5.000000000000000000e+00,5.000000000000000000e+00,5.000000000000000000e+00,5.000000000000000000e+00,5.000000000000000000e+00,5.000000000000000000e+00,5.000000000000000000e+00,5.000000000000000000e+00,4.877985000610351562e+00,4.684384822845458984e+00,4.505565643310546875e+00,1.639677047729492188e+00,1.587723255157470703e+00,1.567668676376342773e+00,1.560259461402893066e+00,1.597586274147033691e+00,3.665911436080932617e+00,3.555478572845458984e+00,3.451504707336425781e+00,3.353439092636108398e+00,3.260792255401611328e+00,3.173126697540283203e+00,3.090051651000976562e+00,3.011215209960937500e+00,2.936301708221435547e+00,2.865025043487548828e+00,2.797126770019531250e+00,2.732372283935546875e+00,2.670548200607299805e+00,2.611459970474243164e+00,2.554929733276367188e+00,2.500795125961303711e+00,2.448907136917114258e+00,2.399128198623657227e+00,2.351332902908325195e+00,2.305404663085937500e+00,2.261236429214477539e+00,2.218728780746459961e+00,2.177789449691772461e+00,2.138334035873413086e+00,2.100282430648803711e+00,2.063561677932739258e+00,2.028102636337280273e+00,1.993841767311096191e+00,1.960719227790832520e+00,1.928679227828979492e+00,1.897669434547424316e+00,1.867641091346740723e+00
5.000000000000000000e+00,5.000000000000000000e+00,5.000000000000000000e+00,5.000000000000000000e+00,5.000000000000000000e+00,5.000000000000000000e+00,5.000000000000000000e+00,5.000000000000000000e+00,5.000000000000000000e+00,5.000000000000000000e+00,5.000000000000000000e+00,5.000000000000000000e+00,5.000000000000000000e+00,5.000000000000000000e+00,5.000000000000000000e+00,5.000000000000000000e+00,5.000000000000000000e+00,5.000000000000000000e+00,5.000000000000000000e+00,5.000000000000000000e+00,5.000000000000000000e+00,5.000000000000000000e+00,5.000000000000000000e+00,5.000000000000000000e+00,5.000000000000000000e+00,5.000000000000000000e+00,5.000000000000000000e+00,5.000000000000000000e+00,5.000000000000000000e+00,5.000000000000000000e+00,5.000000000000000000e+00,5.000000000000000000e+00,5.000000000000000000e+00,5.000000000000000000e+00,5.000000000000000000e+00,5.000000000000000000e+00,5.000000000000000000e+00,5.000000000000000000e+00,5.000000000000000000e+00,5.000000000000000000e+00,4.878125190734863281e+00,4.684514045715332031e+00,4.505684852600097656e+00,1.651210188865661621e+00,1.594293236732482910e+00,1.573693156242370605e+00,1.563507556915283203e+00,1.599169731140136719e+00,3.665991544723510742e+00,3.555553913116455078e+00,3.451575756072998047e+00,3.353506088256835938e+00,3.260855674743652344e+00,3.173186779022216797e+00,3.090108633041381836e+00,3.011269330978393555e+00,2.936353206634521484e+00,2.865074157714843750e+00,2.797173500061035156e+00,2.732416868209838867e+00,2.670590877532958984e+00,2.611500501632690430e+00,2.554968833923339844e+00,2.500832319259643555e+00,2.448942899703979492e+00,2.399162530899047852e+00,2.351365804672241211e+00,2.305436372756958008e+00,2.261266946792602539e+00,2.218758106231689453e+00,2.177817821502685547e+00,2.138361215591430664e+00,2.100308656692504883e+00,2.063586950302124023e+00,2.028127193450927734e+00,1.993865489959716797e+00,1.960742235183715820e+00,1.928701400756835938e+00,1.897690892219543457e+00,1.867661833763122559e+00
5.000000000000000000e+00,5.000000000000000000e+00,5.000000000000000000e+00,5.000000000000000000e+00,5.000000000000000000e+00,5.000000000000000000e+00,5.000000000000000000e+00,5.000000000000000000e+00,5.000000000000000000e+00,5.000000000000000000e+00,5.000000000000000000e+00,5.000000000000000000e+00,5.000000000000000000e+00,5.000000000000000000e+00,5.000000000000000000e+00,5.000000000000000000e+00,5.000000000000000000e+00,5.000000000000000000e+00,5.000000000000000000e+00,5.000000000000000000e+00,5.000000000000000000e+00,5.000000000000000000e+00,5.000000000000000000e+00,5.000000000000000000e+00,5.000000000000000000e+00,5.000000000000000000e+00,5.000000000000000000e+00,5.000000000000000000e+00,5.000000000000000000e+00,5.000000000000000000e+00,5.000000000000000000e+00,5.000000000000000000e+00,5.000000000000000000e+00,5.000000000000000000e+00,5.000000000000000000e+00,5.000000000000000000e+00,5.000000000000000000e+00,5.000000000000000000e+00,5.000000000000000000e+00,5.000000000000000000e+00,4.878265380859375000e+00,4.684643268585205078e+00,2.008936643600463867e+00,1.946358799934387207e+00,1.601080298423767090e+00,1.580484747886657715e+00,1.570069193840026855e+00,1.602477908134460449e+00,3.666071653366088867e+00,3.555629491806030273e+00,3.451646804809570312e+00,3.353573322296142578e+00,3.260918855667114258e+00,3.173246860504150391e+00,3.090165376663208008e+00,3.011323451995849609e+00,2.936404466629028320e+00,2.865123033523559570e+00,2.797219991683959961e+00,2.732461452484130859e+00,2.670633316040039062e+00,2.611541271209716797e+00,2.555007696151733398e+00,2.500869750976562500e+00,2.448978662490844727e+00,2.399196863174438477e+00,2.351398706436157227e+00,2.305468082427978516e+00,2.261297464370727539e+00,2.218787431716918945e+00,2.177846193313598633e+00,2.138388395309448242e+00,2.100335121154785156e+00,2.063612461090087891e+00,2.028151750564575195e+00,1.993889212608337402e+00,1.960765123367309570e+00,1.928723573684692383e+00,1.897712349891662598e+00,1.867682695388793945e+00
5.000000000000000000e+00,5.000000000000000000e+00,5.000000000000000000e+00,5.000000000000000000e+00,5.000000000000000000e+00,5.000000000000000000e+00,5.000000000000000000e+00,5.000000000000000000e+00,5.000000000000000000e+00,5.000000000000000000e+00,5.000000000000000000e+00,5.000000000000000000e+00,5.000000000000000000e+00,5.000000000000000000e+00,5.000000000000000000e+00,5.000000000000000000e+00,5.000000000000000000e+00,5.000000000000000000e+00,5.000000000000000000e+00,5.000000000000000000e+00,5.000000000000000000e+00,5.000000000000000000e+00,5.000000000000000000e+00,5.000000000000000000e+00,5.000000000000000000e+00,5.000000000000000000e+00,5.000000000000000000e+00,5.000000000000000000e+00,5.000000000000000000e+00,5.000000000000000000e+00,5.000000000000000000e+00,5.000000000000000000e+00,5.000000000000000000e+00,5.000000000000000000e+00,5.000000000000000000e+00,5.000000000000000000e+00,5.000000000000000000e+00,5.000000000000000000e+00,5.000000000000000000e+00,5.000000000000000000e+00,4.878406047821044922e+00,4.684772968292236328e+00,1.988929033279418945e+00,1.954396247863769531e+00,1.608785867691040039e+00,1.588109016418457031e+00,1.579535484313964844e+00,1.606135487556457520e+00,3.666151762008666992e+00,3.555704832077026367e+00,3.451717853546142578e+00,3.353640317916870117e+00,3.260982275009155273e+00,3.173306941986083984e+00,3.090222358703613281e+00,3.011377334594726562e+00,2.936455965042114258e+00,2.865171909332275391e+00,2.797266721725463867e+00,2.732505798339843750e+00,2.670675754547119141e+00,2.611581802368164062e+00,2.555046558380126953e+00,2.500906944274902344e+00,2.449014425277709961e+00,2.399230957031250000e+00,2.351431608200073242e+00,2.305499792098999023e+00,2.261327981948852539e+00,2.218816757202148438e+00,2.177874326705932617e+00,2.138415813446044922e+00,2.100361347198486328e+00,2.063637733459472656e+00,2.028176307678222656e+00,1.993912935256958008e+00,1.960788011550903320e+00,1.928745746612548828e+00,1.897733807563781738e+00,1.867703437805175781e+00
4.871092319488525391e+00,4.869886875152587891e+00,4.868681430816650391e+00,4.867476940155029297e+00,4.866272926330566406e+00,4.865069866180419922e+00,4.863866806030273438e+00,4.862664699554443359e+00,4.861463069915771484e+00,4.860262393951416016e+00,4.859061717987060547e+00,4.857861995697021484e+00,4.856663227081298828e+00,4.855464458465576172e+00,4.854266643524169922e+00,4.853069305419921875e+00,4.851872444152832031e+00,4.850676536560058594e+00,4.849480628967285156e+00,4.848285675048828125e+00,4.847091197967529297e+00,4.845897674560546875e+00,4.844704151153564453e+00,4.843511581420898438e+00,4.842319488525390625e+00,4.841127872467041016e+00,4.839936733245849609e+00,4.838746547698974609e+00,4.837556838989257812e+00,4.836367607116699219e+00,4.835178852081298828e+00,4.833991050720214844e+00,4.832803249359130859e+00,4.831616401672363281e+00,4.830430507659912109e+00,4.829244613647460938e+00,4.828059673309326172e+00,4.826875209808349609e+00,4.825691223144531250e+00,4.824507713317871094e+00,4.823325157165527344e+00,4.684902191162109375e+00,1.992799639701843262e+00,1.955491542816162109e+00,1.616565823554992676e+00,1.595873355865478516e+00,1.589116811752319336e+00,1.611754536628723145e+00,3.666231870651245117e+00,3.555780172348022461e+00,3.451788902282714844e+00,3.353707313537597656e+00,3.261045694351196289e+00,3.173366785049438477e+00,3.090279340744018555e+00,3.011431455612182617e+00,2.936507225036621094e+00,2.865220785140991211e+00,2.797313451766967773e+00,2.732550382614135742e+00,2.670718431472778320e+00,2.611622571945190430e+00,2.555085420608520508e+00,2.500944375991821289e+00,2.449050188064575195e+00,2.399265289306640625e+00,2.351464748382568359e+00,2.305531501770019531e+00,2.261358261108398438e+00,2.218846082687377930e+00,2.177902698516845703e+00,2.138442993164062500e+00,2.100387573242187500e+00,2.063663244247436523e+00,2.028200864791870117e+00,1.993936657905578613e+00,1.960810899734497070e+00,1.928767919540405273e+00,1.897755265235900879e+00,1.867724299430847168e+00
3.775803327560424805e+00,3.775078535079956055e+00,3.774354696273803711e+00,3.773630380630493164e+00,3.772907018661499023e+00,3.772183418273925781e+00,3.771460533142089844e+00,3.770737409591674805e+00,3.770015001296997070e+00,3.769293069839477539e+00,3.768570899963378906e+00,3.767849445343017578e+00,3.767127752304077148e+00,3.766406774520874023e+00,3.765685558319091797e+00,3.764965295791625977e+00,3.764244556427001953e+00,3.763524770736694336e+00,3.762804746627807617e+00,3.762085437774658203e+00,3.761366128921508789e+00,3.760647296905517578e+00,3.759928464889526367e+00,3.759210109710693359e+00,3.758491754531860352e+00,3.757774114608764648e+00,3.757056236267089844e+00,3.756339311599731445e+00,3.755621910095214844e+00,3.754905462265014648e+00,3.754188776016235352e+00,3.753472566604614258e+00,3.752756595611572266e+00,3.752041101455688477e+00,3.751325368881225586e+00,3.750610589981079102e+00,3.749895334243774414e+00,3.749181032180786133e+00,3.748466491699218750e+00,3.747752666473388672e+00,3.747038602828979492e+00,3.746325254440307617e+00,1.960097789764404297e+00,1.955250382423400879e+00,1.624421477317810059e+00,1.603713989257812500e+00,1.594540715217590332e+00,1.619661450386047363e+00,3.666311979293823242e+00,3.555855512619018555e+00,3.451859951019287109e+00,3.353774309158325195e+00,3.261109113693237305e+00,3.173426866531372070e+00,3.090336322784423828e+00,3.011485576629638672e+00,2.936558723449707031e+00,2.865269660949707031e+00,2.797359943389892578e+00,2.732594966888427734e+00,2.670760869979858398e+00,2.611663341522216797e+00,2.555124282836914062e+00,2.500981569290161133e+00,2.449085712432861328e+00,2.399299621582031250e+00,2.351497650146484375e+00,2.305562973022460938e+00,2.261388778686523438e+00,2.218875408172607422e+00,2.177930831909179688e+00,2.138470172882080078e+00,2.100414037704467773e+00,2.063688516616821289e+00,2.028225421905517578e+00,1.993960261344909668e+00,1.960833907127380371e+00,1.928790092468261719e+00,1.897776842117309570e+00,1.867745041847229004e+00
3.082653284072875977e+00,3.082170486450195312e+00,3.081687927246093750e+00,3.081205129623413086e+00,3.080722808837890625e+00,3.080240488052368164e+00,3.079758405685424805e+00,3.079276323318481445e+00,3.078794479370117188e+00,3.078312635421752930e+00,3.077831268310546875e+00,3.077349662780761719e+00,3.076868534088134766e+00,3.076387166976928711e+00,3.075906276702880859e+00,3.075425386428833008e+00,3.074944972991943359e+00,3.074464321136474609e+00,3.073983907699584961e+00,3.073503732681274414e+00,3.073023796081542969e+00,3.072543621063232422e+00,3.072063922882080078e+00,3.071584224700927734e+00,3.071105003356933594e+00,3.070625543594360352e+00,3.070146560668945312e+00,3.069667339324951172e+00,3.069188594818115234e+00,3.068709611892700195e+00,3.068231344223022461e+00,3.067752599716186523e+00,3.067274570465087891e+00,3.066796541213989258e+00,3.066318511962890625e+00,3.065840959548950195e+00,3.065363168716430664e+00,3.064885616302490234e+00,3.064408063888549805e+00,3.063930988311767578e+00,3.063453912734985352e+00,3.062977075576782227e+00,1.951182842254638672e+00,1.955863356590270996e+00,1.632353782653808594e+00,1.611631870269775391e+00,1.599210381507873535e+00,3.060118675231933594e+00,3.059642553329467773e+00,3.059166908264160156e+00,3.058691263198852539e+00,3.058215856552124023e+00,3.057740449905395508e+00,3.057265281677246094e+00,3.056790351867675781e+00,3.011539459228515625e+00,2.936610221862792969e+00,2.865318775177001953e+00,2.797406673431396484e+00,2.732639312744140625e+00,2.670803308486938477e+00,2.611703872680664062e+00,2.555163383483886719e+00,2.501018762588500977e+00,2.449121475219726562e+00,2.399333953857421875e+00,2.351530551910400391e+00,2.305594682693481445e+00,2.261419296264648438e+00,2.218904733657836914e+00,2.177959203720092773e+00,2.138497591018676758e+00,2.100440263748168945e+00,2.063714027404785156e+00,2.028249740600585938e+00,1.993983983993530273e+00,1.960856795310974121e+00,1.928812265396118164e+00,1.897798299789428711e+00,1.867765784263610840e+00
2.604523420333862305e+00,2.604178667068481445e+00,2.603833913803100586e+00,2.603489637374877930e+00,2.603144884109497070e+00,2.602800607681274414e+00,2.602456331253051758e+00,2.602112293243408203e+00,2.601768016815185547e+00,2.601423978805541992e+00,2.601079940795898438e+00,2.600736379623413086e+00,2.600392580032348633e+00,2.600049018859863281e+00,2.599705219268798828e+00,2.599361896514892578e+00,2.599018335342407227e+00,2.598675251007080078e+00,2.598331928253173828e+00,2.597988843917846680e+00,2.597645759582519531e+00,2.597302913665771484e+00,2.596960067749023438e+00,2.596617221832275391e+00,2.596274614334106445e+00,2.595932006835937500e+00,2.595589637756347656e+00,2.595247268676757812e+00,2.594905138015747070e+00,2.594562768936157227e+00,2.594220638275146484e+00,2.593878507614135742e+00,2.593536853790283203e+00,2.593194723129272461e+00,2.592853069305419922e+00,2.592511415481567383e+00,2.592170000076293945e+00,2.591828346252441406e+00,2.591486930847167969e+00,2.591145515441894531e+00,2.590804576873779297e+00,2.590463399887084961e+00,1.935946226119995117e+00,1.939520955085754395e+00,1.974748730659484863e+00,1.627678513526916504e+00,1.616070389747619629e+00,2.588418483734130859e+00,2.588078022003173828e+00,2.587737560272216797e+00,2.587397336959838867e+00,2.587056875228881836e+00,2.586716890335083008e+00,2.586376905441284180e+00,2.586036920547485352e+00,2.585697174072265625e+00,2.585357427597045898e+00,2.585017681121826172e+00,2.584677934646606445e+00,2.584338665008544922e+00,2.583999156951904297e+00,2.583659887313842773e+00,2.555202245712280273e+00,2.501056194305419922e+00,2.449157238006591797e+00,2.399368286132812500e+00,2.351563453674316406e+00,2.305626392364501953e+00,2.261449813842773438e+00,2.218934059143066406e+00,2.177987575531005859e+00,2.138524770736694336e+00,2.100466489791870117e+00,2.063739299774169922e+00,2.028274297714233398e+00,1.994007706642150879e+00,1.960879683494567871e+00,1.928834438323974609e+00,1.897819757461547852e+00,1.867786645889282227e+00
2.254796028137207031e+00,2.254537820816040039e+00,2.254279613494873047e+00,2.254021406173706055e+00,2.253763198852539062e+00,2.253504991531372070e+00,2.253247022628784180e+00,2.252989053726196289e+00,2.252731084823608398e+00,2.252473354339599609e+00,2.252215623855590820e+00,2.251957893371582031e+00,2.251700162887573242e+00,2.251442432403564453e+00,2.251184940338134766e+00,2.250927209854125977e+00,2.250669717788696289e+00,2.250412464141845703e+00,2.250154972076416016e+00,2.249897718429565430e+00,2.249640464782714844e+00,2.249383211135864258e+00,2.249125957489013672e+00,2.248868942260742188e+00,2.248611927032470703e+00,2.248355150222778320e+00,2.248098134994506836e+00,2.247841358184814453e+00,2.247584342956542969e+00,2.247327804565429688e+00,2.247071027755737305e+00,2.246814489364624023e+00,2.246557950973510742e+00,2.246301412582397461e+00,2.246044874191284180e+00,2.245788574218750000e+00,2.245532274246215820e+00,2.245275974273681641e+00,2.245019674301147461e+00,2.244763612747192383e+00,2.244507551193237305e+00,2.244251489639282227e+00,2.243995428085327148e+00,2.243739604949951172e+00,2.243483781814575195e+00,1.628715515136718750e+00,1.610051870346069336e+00,1.606089591979980469e+00,2.242460966110229492e+00,2.242205381393432617e+00,2.241949796676635742e+00,2.241694450378417969e+00,2.241439104080200195e+00,2.241183757781982422e+00,2.240928411483764648e+00,2.240673065185546875e+00,2.240418195724487305e+00,2.240162849426269531e+00,2.239907979965209961e+00,2.239652872085571289e+00,2.239398002624511719e+00,2.239143133163452148e+00,2.238888263702392578e+00,2.238633632659912109e+00,2.238379001617431641e+00,2.238124132156372070e+00,2.237869739532470703e+00,2.237615108489990234e+00,2.237360715866088867e+00,2.218963384628295898e+00,2.178015708923339844e+00,2.138551950454711914e+00,2.100492954254150391e+00,2.063764572143554688e+00,2.028298854827880859e+00,1.994031429290771484e+00,1.960902571678161621e+00,1.928856611251831055e+00,1.897841215133666992e+00,1.867807388305664062e+00
1.987867474555969238e+00,1.987666606903076172e+00,1.987465977668762207e+00,1.987265110015869141e+00,1.987064599990844727e+00,1.986863851547241211e+00,1.986663460731506348e+00,1.986462831497192383e+00,1.986262440681457520e+00,1.986061811447143555e+00,1.985861539840698242e+00,1.985661149024963379e+00,1.985460877418518066e+00,1.985260486602783203e+00,1.985060334205627441e+00,1.984860062599182129e+00,1.984660029411315918e+00,1.984459757804870605e+00,1.984259724617004395e+00,1.984059572219848633e+00,1.983859777450561523e+00,1.983659625053405762e+00,1.983459591865539551e+00,1.983259916305541992e+00,1.983059883117675781e+00,1.982860207557678223e+00,1.982660293579101562e+00,1.982460737228393555e+00,1.982260942459106445e+00,1.982061386108398438e+00,1.981861710548400879e+00,1.981662273406982422e+00,1.981462597846984863e+00,1.981263279914855957e+00,1.981063723564147949e+00,1.980864405632019043e+00,1.980664968490600586e+00,1.980465769767761230e+00,1.980266332626342773e+00,1.980067133903503418e+00,1.979867815971374512e+00,1.979668855667114258e+00,1.979469537734985352e+00,1.979270577430725098e+00,1.979071497917175293e+00,1.623557806015014648e+00,1.593834280967712402e+00,1.580744624137878418e+00,1.581790328025817871e+00,1.978076696395874023e+00,1.977878093719482422e+00,1.977679133415222168e+00,1.977480530738830566e+00,1.977281808853149414e+00,1.977083206176757812e+00,1.976884484291076660e+00,1.976686120033264160e+00,1.976487398147583008e+00,1.976289033889770508e+00,1.976090550422668457e+00,1.975892186164855957e+00,1.975693702697753906e+00,1.975495576858520508e+00,1.975297093391418457e+00,1.975098967552185059e+00,1.974900722503662109e+00,1.974702596664428711e+00,1.974504351615905762e+00,1.974306464195251465e+00,1.974108219146728516e+00,1.973910331726074219e+00,1.973712325096130371e+00,1.973514437675476074e+00,1.973316431045532227e+00,1.973118782043457031e+00,1.972920775413513184e+00,1.960925579071044922e+00,1.928878784179687500e+00,1.897862672805786133e+00,1.867828249931335449e+00
1.777448534965515137e+00,1.777287960052490234e+00,1.777127504348754883e+00,1.776967048645019531e+00,1.776806712150573730e+00,1.776646137237548828e+00,1.776485919952392578e+00,1.776325464248657227e+00,1.776165246963500977e+00,1.776004791259765625e+00,1.775844693183898926e+00,1.775684356689453125e+00,1.775524020195007324e+00,1.775363922119140625e+00,1.775203704833984375e+00,1.775043725967407227e+00,1.774883508682250977e+00,1.774723529815673828e+00,1.774563431739807129e+00,1.774403572082519531e+00,1.774243474006652832e+00,1.774083614349365234e+00,1.773923635482788086e+00,1.773763895034790039e+00,1.773603916168212891e+00,1.773444175720214844e+00,1.773284316062927246e+00,1.773124575614929199e+00,1.772964715957641602e+00,1.772805094718933105e+00,1.772645354270935059e+00,1.772485733032226562e+00,1.772326111793518066e+00,1.772166609764099121e+00,1.772006869316101074e+00,1.771847486495971680e+00,1.771687865257263184e+00,1.771528482437133789e+00,1.771368861198425293e+00,1.771209359169006348e+00,1.771050095558166504e+00,1.770890593528747559e+00,1.770731329917907715e+00,1.770571947097778320e+00,1.770412802696228027e+00,1.626192331314086914e+00,1.572346925735473633e+00,1.558039188385009766e+00,1.550145030021667480e+00,1.548919796943664551e+00,1.769457697868347168e+00,1.769298553466796875e+00,1.769139528274536133e+00,1.768980383872985840e+00,1.768821477890014648e+00,1.768662452697753906e+00,1.768503665924072266e+00,1.768344640731811523e+00,1.768185853958129883e+00,1.768026828765869141e+00,1.767868161201477051e+00,1.767709255218505859e+00,1.767550587654113770e+00,1.767391800880432129e+00,1.767233133316040039e+00,1.767074346542358398e+00,1.766915678977966309e+00,1.766757130622863770e+00,1.766598463058471680e+00,1.766439914703369141e+00,1.766281366348266602e+00,1.766122937202453613e+00,1.765964269638061523e+00,1.765805959701538086e+00,1.765647411346435547e+00,1.765489220619201660e+00,1.765330672264099121e+00,1.765172481536865234e+00,1.765014052391052246e+00,1.764855861663818359e+00
1.607312083244323730e+00,1.607180714607238770e+00,1.607049345970153809e+00,1.606918215751647949e+00,1.606786966323852539e+00,1.606655836105346680e+00,1.606524586677551270e+00,1.606393575668334961e+00,1.606262445449829102e+00,1.606131315231323242e+00,1.606000185012817383e+00,1.605869293212890625e+00,1.605738162994384766e+00,1.605607271194458008e+00,1.605476140975952148e+00,1.605345249176025391e+00,1.605214238166809082e+00,1.605083465576171875e+00,1.604952454566955566e+00,1.604821681976318359e+00,1.604690670967102051e+00,1.604559898376464844e+00,1.604429006576538086e+00,1.604298353195190430e+00,1.604167461395263672e+00,1.604036808013916016e+00,1.603906035423278809e+00,1.603775382041931152e+00,1.603644609451293945e+00,1.603513836860656738e+00,1.603383302688598633e+00,1.603252649307250977e+00,1.603122115135192871e+00,1.602991461753845215e+00,1.602860927581787109e+00,1.602730393409729004e+00,1.602599859237670898e+00,1.602469325065612793e+00,1.602338910102844238e+00,1.602208375930786133e+00,1.602078080177307129e+00,1.601947546005249023e+00,1.601817250251770020e+00,1.601686835289001465e+00,1.601556539535522461e+00,1.601426124572753906e+00,1.558344006538391113e+00,1.525609374046325684e+00,1.517947196960449219e+00,1.516054272651672363e+00,1.510523200035095215e+00,1.600644707679748535e+00,1.600514531135559082e+00,1.600384354591369629e+00,1.600254297256469727e+00,1.600124120712280273e+00,1.599993944168090820e+00,1.599863886833190918e+00,1.599733829498291016e+00,1.599603891372680664e+00,1.599473714828491211e+00,1.599343895912170410e+00,1.599213838577270508e+00,1.599083900451660156e+00,1.598953962326049805e+00,1.598824143409729004e+00,1.598694205284118652e+00,1.598564386367797852e+00,1.598434448242187500e+00,1.598304748535156250e+00,1.598174810409545898e+00,1.598045229911804199e+00,1.597915291786193848e+00,1.597785711288452148e+00,1.597655892372131348e+00,1.597526311874389648e+00,1.597396492958068848e+00,1.597267031669616699e+00,1.597137212753295898e+00,1.597007751464843750e+00
1.466900825500488281e+00,1.466791629791259766e+00,1.466682195663452148e+00,1.466572999954223633e+00,1.466463565826416016e+00,1.466354370117187500e+00,1.466245055198669434e+00,1.466135978698730469e+00,1.466026663780212402e+00,1.465917468070983887e+00,1.465808272361755371e+00,1.465699195861816406e+00,1.465589880943298340e+00,1.465480804443359375e+00,1.465371727943420410e+00,1.465262651443481445e+00,1.465153455734252930e+00,1.465044498443603516e+00,1.464935302734375000e+00,1.464826226234436035e+00,1.464717268943786621e+00,1.464608192443847656e+00,1.464499235153198242e+00,1.464390277862548828e+00,1.464281320571899414e+00,1.464172363281250000e+00,1.464063525199890137e+00,1.463954567909240723e+00,1.463845729827880859e+00,1.463736772537231445e+00,1.463627934455871582e+00,1.463519096374511719e+00,1.463410258293151855e+00,1.463301420211791992e+00,1.463192701339721680e+00,1.463083863258361816e+00,1.462975144386291504e+00,1.462866306304931641e+00,1.462757706642150879e+00,1.462648868560791016e+00,1.462540268898010254e+00,1.462431550025939941e+00,1.462322950363159180e+00,1.462214231491088867e+00,1.462105631828308105e+00,1.461996912956237793e+00,1.461888313293457031e+00,1.461779713630676270e+00,1.461671113967895508e+00,1.461562633514404297e+00,1.461454033851623535e+00,1.461345553398132324e+00,1.461237072944641113e+00,1.461128592491149902e+00,1.461020112037658691e+00,1.460911631584167480e+00,1.460803151130676270e+00,1.460694789886474609e+00,1.460586309432983398e+00,1.460477948188781738e+00,1.460369586944580078e+00,1.460261225700378418e+00,1.460152864456176758e+00,1.460044622421264648e+00,1.459936261177062988e+00,1.459828019142150879e+00,1.459719657897949219e+00,1.459611415863037109e+00,1.459503173828125000e+00,1.459394931793212891e+00,1.459286689758300781e+00,1.459178566932678223e+00,1.459070324897766113e+00,1.458962082862854004e+00,1.458853960037231445e+00,1.458745837211608887e+00,1.458637714385986328e+00,1.458529591560363770e+00,1.458421587944030762e+00,1.458313465118408203e+00
1.349050879478454590e+00,1.348958373069763184e+00,1.348865866661071777e+00,1.348773479461669922e+00,1.348681092262268066e+00,1.348588705062866211e+00,1.348496198654174805e+00,1.348403930664062500e+00,1.348311424255371094e+00,1.348219037055969238e+00,1.348126769065856934e+00,1.348034262657165527e+00,1.347941994667053223e+00,1.347849726676940918e+00,1.347757458686828613e+00,1.347665071487426758e+00,1.347572803497314453e+00,1.347480535507202148e+00,1.347388386726379395e+00,1.347296118736267090e+00,1.347203850746154785e+00,1.347111582756042480e+00,1.347019433975219727e+00,1.346927285194396973e+00,1.346835136413574219e+00,1.346742868423461914e+00,1.346650838851928711e+00,1.346558570861816406e+00,1.346466541290283203e+00,1.346374392509460449e+00,1.346282243728637695e+00,1.346190214157104492e+00,1.346098184585571289e+00,1.346006035804748535e+00,1.345914006233215332e+00,1.345821857452392578e+00,1.345729827880859375e+00,1.345637917518615723e+00,1.345545768737792969e+00,1.345453858375549316e+00,1.345361828804016113e+00,1.345269918441772461e+00,1.345177888870239258e+00,1.345086097717285156e+00,1.344994068145751953e+00,1.344902157783508301e+00,1.344810247421264648e+00,1.344718456268310547e+00,1.344626426696777344e+00,1.344534635543823242e+00,1.344442725181579590e+00,1.344350934028625488e+00,1.344259142875671387e+00,1.344167351722717285e+00,1.344075441360473633e+00,1.343983769416809082e+00,1.343891859054565430e+00,1.343800187110900879e+00,1.343708395957946777e+00,1.343616724014282227e+00,1.343524932861328125e+00,1.343433260917663574e+00,1.343341469764709473e+00,1.343249797821044922e+00,1.343158125877380371e+00,1.343066453933715820e+00,1.342974781990051270e+00,1.342883110046386719e+00,1.342791557312011719e+00,1.342699885368347168e+00,1.342608332633972168e+00,1.342516660690307617e+00,1.342425107955932617e+00,1.342333555221557617e+00,1.342242002487182617e+00,1.342150449752807617e+00,1.342059016227722168e+00,1.341967344284057617e+00,1.341875910758972168e+00,1.341784358024597168e+00
1.248728752136230469e+00,1.248649477958679199e+00,1.248570322990417480e+00,1.248491048812866211e+00,1.248411893844604492e+00,1.248332619667053223e+00,1.248253464698791504e+00,1.248174309730529785e+00,1.248095154762268066e+00,1.248015999794006348e+00,1.247936844825744629e+00,1.247857689857482910e+00,1.247778654098510742e+00,1.247699499130249023e+00,1.247620463371276855e+00,1.247541308403015137e+00,1.247462272644042969e+00,1.247383117675781250e+00,1.247304081916809082e+00,1.247225046157836914e+00,1.247146010398864746e+00,1.247066974639892578e+00,1.246988058090209961e+00,1.246908903121948242e+00,1.246829986572265625e+00,1.246750950813293457e+00,1.246671915054321289e+00,1.246592998504638672e+00,1.246513962745666504e+00,1.246435165405273438e+00,1.246356129646301270e+00,1.246277213096618652e+00,1.246198296546936035e+00,1.246119379997253418e+00,1.246040463447570801e+00,1.245961666107177734e+00,1.245882749557495117e+00,1.245803833007812500e+00,1.245725035667419434e+00,1.245646119117736816e+00,1.245567321777343750e+00,1.245488524436950684e+00,1.245409607887268066e+00,1.245330929756164551e+00,1.245252013206481934e+00,1.245173335075378418e+00,1.245094418525695801e+00,1.245015740394592285e+00,1.244936943054199219e+00,1.244858264923095703e+00,1.244779467582702637e+00,1.244700789451599121e+00,1.244621992111206055e+00,1.244543194770812988e+00,1.244464635848999023e+00,1.244385838508605957e+00,1.244307279586791992e+00,1.244228482246398926e+00,1.244149923324584961e+00,1.244071245193481445e+00,1.243992567062377930e+00,1.243913888931274414e+00,1.243835330009460449e+00,1.243756771087646484e+00,1.243678212165832520e+00,1.243599534034729004e+00,1.243520975112915039e+00,1.243442416191101074e+00,1.243363857269287109e+00,1.243285298347473145e+00,1.243206739425659180e+00,1.243128180503845215e+00,1.243049740791320801e+00,1.242971181869506836e+00,1.242892742156982422e+00,1.242814183235168457e+00,1.242735743522644043e+00,1.242657303810119629e+00,1.242578864097595215e+00,1.242500305175781250e+00
1.162294745445251465e+00,1.162226080894470215e+00,1.162157416343688965e+00,1.162088751792907715e+00,1.162020206451416016e+00,1.161951541900634766e+00,1.161882996559143066e+00,1.161814332008361816e+00,1.161745786666870117e+00,1.161677241325378418e+00,1.161608695983886719e+00,1.161540031433105469e+00,1.161471605300903320e+00,1.161402940750122070e+00,1.161334514617919922e+00,1.161265969276428223e+00,1.161197304725646973e+00,1.161128878593444824e+00,1.161060333251953125e+00,1.160991907119750977e+00,1.160923361778259277e+00,1.160854935646057129e+00,1.160786390304565430e+00,1.160717964172363281e+00,1.160649538040161133e+00,1.160581111907958984e+00,1.160512566566467285e+00,1.160444259643554688e+00,1.160375714302062988e+00,1.160307407379150391e+00,1.160238981246948242e+00,1.160170555114746094e+00,1.160102128982543945e+00,1.160033822059631348e+00,1.159965395927429199e+00,1.159897089004516602e+00,1.159828662872314453e+00,1.159760355949401855e+00,1.159691929817199707e+00,1.159623622894287109e+00,1.159555315971374512e+00,1.159487009048461914e+00,1.159418702125549316e+00,1.159350275993347168e+00,1.159282088279724121e+00,1.159213781356811523e+00,1.159145474433898926e+00,1.159077167510986328e+00,1.159008979797363281e+00,1.158940672874450684e+00,1.158872485160827637e+00,1.158804178237915039e+00,1.158735990524291992e+00,1.158667683601379395e+00,1.158599615097045898e+00,1.158531308174133301e+00,1.158463120460510254e+00,1.158394932746887207e+00,1.158326864242553711e+00,1.158258557319641113e+00,1.158190488815307617e+00,1.158122301101684570e+00,1.158054113388061523e+00,1.157986044883728027e+00,1.157917857170104980e+00,1.157849788665771484e+00,1.157781720161437988e+00,1.157713532447814941e+00,1.157645463943481445e+00,1.157577276229858398e+00,1.157509207725524902e+00,1.157441139221191406e+00,1.157373070716857910e+00,1.157305002212524414e+00,1.157236933708190918e+00,1.157168984413146973e+00,1.157100915908813477e+00,1.157032847404479980e+00,1.156964778900146484e+00,1.156896829605102539e+00
1.087051630020141602e+00,1.086991548538208008e+00,1.086931467056274414e+00,1.086871385574340820e+00,1.086811423301696777e+00,1.086751461029052734e+00,1.086691379547119141e+00,1.086631417274475098e+00,1.086571335792541504e+00,1.086511373519897461e+00,1.086451411247253418e+00,1.086391448974609375e+00,1.086331486701965332e+00,1.086271524429321289e+00,1.086211562156677246e+00,1.086151599884033203e+00,1.086091637611389160e+00,1.086031794548034668e+00,1.085971832275390625e+00,1.085911870002746582e+00,1.085851907730102539e+00,1.085792064666748047e+00,1.085732102394104004e+00,1.085672259330749512e+00,1.085612416267395020e+00,1.085552573204040527e+00,1.085492610931396484e+00,1.085432767868041992e+00,1.085372924804687500e+00,1.085313081741333008e+00,1.085253119468688965e+00,1.085193395614624023e+00,1.085133552551269531e+00,1.085073590278625488e+00,1.085013866424560547e+00,1.084954023361206055e+00,1.084894180297851562e+00,1.084834337234497070e+00,1.084774613380432129e+00,1.084714770317077637e+00,1.084655046463012695e+00,1.084595203399658203e+00,1.084535479545593262e+00,1.084475636482238770e+00,1.084415912628173828e+00,1.084356188774108887e+00,1.084296464920043945e+00,1.084236741065979004e+00,1.084177017211914062e+00,1.084117293357849121e+00,1.084057569503784180e+00,1.083997845649719238e+00,1.083938121795654297e+00,1.083878397941589355e+00,1.083818793296813965e+00,1.083759069442749023e+00,1.083699345588684082e+00,1.083639740943908691e+00,1.083580017089843750e+00,1.083520412445068359e+00,1.083460688591003418e+00,1.083401083946228027e+00,1.083341360092163086e+00,1.083281755447387695e+00,1.083222150802612305e+00,1.083162546157836914e+00,1.083102941513061523e+00,1.083043336868286133e+00,1.082983732223510742e+00,1.082924127578735352e+00,1.082864522933959961e+00,1.082805037498474121e+00,1.082745313644409180e+00,1.082685828208923340e+00,1.082626223564147949e+00,1.082566738128662109e+00,1.082507133483886719e+00,1.082447648048400879e+00,1.082388043403625488e+00,1.082328557968139648e+00
1.020958065986633301e+00,1.020905137062072754e+00,1.020852088928222656e+00,1.020799279212951660e+00,1.020746231079101562e+00,1.020693302154541016e+00,1.020640373229980469e+00,1.020587444305419922e+00,1.020534515380859375e+00,1.020481586456298828e+00,1.020428657531738281e+00,1.020375847816467285e+00,1.020322918891906738e+00,1.020269989967346191e+00,1.020217061042785645e+00,1.020164251327514648e+00,1.020111322402954102e+00,1.020058512687683105e+00,1.020005583763122559e+00,1.019952774047851562e+00,1.019899845123291016e+00,1.019847035408020020e+00,1.019794225692749023e+00,1.019741296768188477e+00,1.019688487052917480e+00,1.019635677337646484e+00,1.019582867622375488e+00,1.019529938697814941e+00,1.019477248191833496e+00,1.019424319267272949e+00,1.019371628761291504e+00,1.019318819046020508e+00,1.019266009330749512e+00,1.019213199615478516e+00,1.019160389900207520e+00,1.019107580184936523e+00,1.019054889678955078e+00,1.019002079963684082e+00,1.018949389457702637e+00,1.018896579742431641e+00,1.018843889236450195e+00,1.018791079521179199e+00,1.018738389015197754e+00,1.018685579299926758e+00,1.018632888793945312e+00,1.018580198287963867e+00,1.018527507781982422e+00,1.018474698066711426e+00,1.018422126770019531e+00,1.018369317054748535e+00,1.018316626548767090e+00,1.018263936042785645e+00,1.018211245536804199e+00,1.018158555030822754e+00,1.018105864524841309e+00,1.018053293228149414e+00,1.018000602722167969e+00,1.017947912216186523e+00,1.017895221710205078e+00,1.017842650413513184e+00,1.017789959907531738e+00,1.017737388610839844e+00,1.017684698104858398e+00,1.017632126808166504e+00,1.017579436302185059e+00,1.017526865005493164e+00,1.017474293708801270e+00,1.017421722412109375e+00,1.017369031906127930e+00,1.017316460609436035e+00,1.017263889312744141e+00,1.017211318016052246e+00,1.017158746719360352e+00,1.017106175422668457e+00,1.017053604125976562e+00,1.017001032829284668e+00,1.016948461532592773e+00,1.016895890235900879e+00,1.016843438148498535e+00,1.016790866851806641e+00
9.624410271644592285e-01,9.623939990997314453e-01,9.623469710350036621e-01,9.622999429702758789e-01,9.622527956962585449e-01,9.622057676315307617e-01,9.621587395668029785e-01,9.621117711067199707e-01,9.620646238327026367e-01,9.620176553726196289e-01,9.619706273078918457e-01,9.619236588478088379e-01,9.618765711784362793e-01,9.618295431137084961e-01,9.617825746536254883e-01,9.617354869842529297e-01,9.616885185241699219e-01,9.616415500640869141e-01,9.615946412086486816e-01,9.615475535392761230e-01,9.615005850791931152e-01,9.614536762237548828e-01,9.614067077636718750e-01,9.613596796989440918e-01,9.613127112388610840e-01,9.612658023834228516e-01,9.612188935279846191e-01,9.611718654632568359e-01,9.611249566078186035e-01,9.610780477523803711e-01,9.610311388969421387e-01,9.609841108322143555e-01,9.609372019767761230e-01,9.608903527259826660e-01,9.608434438705444336e-01,9.607964754104614258e-01,9.607495665550231934e-01,9.607027173042297363e-01,9.606558680534362793e-01,9.606088399887084961e-01,9.605619907379150391e-01,9.605151414871215820e-01,9.604681730270385742e-01,9.604213237762451172e-01,9.603745341300964355e-01,9.603276848793029785e-01,9.602807164192199707e-01,9.602339267730712891e-01,9.601870775222778320e-01,9.601402878761291504e-01,9.600933194160461426e-01,9.600465297698974609e-01,9.599997401237487793e-01,9.599529504776000977e-01,9.599060416221618652e-01,9.598592519760131836e-01,9.598124623298645020e-01,9.597656726837158203e-01,9.597187638282775879e-01,9.596720337867736816e-01,9.596252441406250000e-01,9.595784544944763184e-01,9.595316052436828613e-01,9.594848752021789551e-01,9.594380855560302734e-01,9.593913555145263672e-01,9.593445062637329102e-01,9.592977762222290039e-01,9.592510461807250977e-01,9.592041969299316406e-01,9.591574668884277344e-01,9.591107368469238281e-01,9.590640664100646973e-01,9.590172171592712402e-01,9.589705467224121094e-01,9.589238166809082031e-01,9.588771462440490723e-01,9.588303565979003906e-01,9.587836265563964844e-01,9.587369561195373535e-01
9.102682471275329590e-01,9.102261662483215332e-01,9.101840853691101074e-01,9.101419448852539062e-01,9.100998640060424805e-01,9.100577831268310547e-01,9.100157618522644043e-01,9.099736213684082031e-01,9.099315404891967773e-01,9.098895192146301270e-01,9.098474383354187012e-01,9.098052978515625000e-01,9.097632765769958496e-01,9.097212553024291992e-01,9.096792340278625488e-01,9.096370935440063477e-01,9.095950722694396973e-01,9.095531105995178223e-01,9.095110893249511719e-01,9.094689488410949707e-01,9.094269871711730957e-01,9.093849658966064453e-01,9.093429446220397949e-01,9.093008637428283691e-01,9.092589020729064941e-01,9.092169404029846191e-01,9.091749191284179688e-01,9.091328382492065430e-01,9.090908765792846680e-01,9.090489149093627930e-01,9.090068340301513672e-01,9.089648723602294922e-01,9.089229702949523926e-01,9.088810086250305176e-01,9.088389277458190918e-01,9.087970256805419922e-01,9.087550640106201172e-01,9.087131023406982422e-01,9.086710810661315918e-01,9.086291790008544922e-01,9.085872173309326172e-01,9.085453152656555176e-01,9.085032939910888672e-01,9.084613919258117676e-01,9.084194898605346680e-01,9.083775877952575684e-01,9.083355665206909180e-01,9.082936644554138184e-01,9.082517623901367188e-01,9.082099199295043945e-01,9.081678986549377441e-01,9.081260561943054199e-01,9.080841541290283203e-01,9.080422520637512207e-01,9.080002903938293457e-01,9.079584479331970215e-01,9.079166054725646973e-01,9.078746438026428223e-01,9.078328013420104980e-01,9.077908992767333984e-01,9.077490568161010742e-01,9.077070951461791992e-01,9.076653122901916504e-01,9.076234698295593262e-01,9.075816273689270020e-01,9.075396656990051270e-01,9.074978828430175781e-01,9.074560403823852539e-01,9.074142575263977051e-01,9.073722958564758301e-01,9.073305130004882812e-01,9.072887301445007324e-01,9.072468876838684082e-01,9.072049856185913086e-01,9.071632027626037598e-01,9.071214199066162109e-01,9.070796370506286621e-01,9.070377349853515625e-01,9.069960117340087891e-01,9.069542288780212402e-01
8.634610772132873535e-01,8.634232282638549805e-01,8.633853197097778320e-01,8.633474111557006836e-01,8.633095622062683105e-01,8.632717132568359375e-01,8.632338643074035645e-01,8.631959557533264160e-01,8.631581068038940430e-01,8.631202578544616699e-01,8.630824089050292969e-01,8.630445003509521484e-01,8.630067110061645508e-01,8.629688620567321777e-01,8.629310727119445801e-01,8.628931641578674316e-01,8.628553152084350586e-01,8.628175258636474609e-01,8.627797365188598633e-01,8.627418279647827148e-01,8.627040386199951172e-01,8.626662492752075195e-01,8.626283407211303711e-01,8.625905513763427734e-01,8.625528216361999512e-01,8.625150322914123535e-01,8.624771237373352051e-01,8.624393939971923828e-01,8.624016046524047852e-01,8.623638153076171875e-01,8.623259663581848145e-01,8.622882366180419922e-01,8.622504472732543945e-01,8.622127175331115723e-01,8.621748685836791992e-01,8.621371388435363770e-01,8.620993494987487793e-01,8.620616197586059570e-01,8.620238304138183594e-01,8.619861006736755371e-01,8.619483709335327148e-01,8.619106411933898926e-01,8.618727922439575195e-01,8.618350625038146973e-01,8.617973327636718750e-01,8.617596626281738281e-01,8.617218732833862305e-01,8.616841435432434082e-01,8.616464138031005859e-01,8.616086244583129883e-01,8.615709543228149414e-01,8.615332245826721191e-01,8.614955544471740723e-01,8.614577651023864746e-01,8.614200949668884277e-01,8.613824248313903809e-01,8.613447546958923340e-01,8.613069653511047363e-01,8.612692952156066895e-01,8.612316250801086426e-01,8.611939549446105957e-01,8.611562252044677734e-01,8.611185550689697266e-01,8.610808849334716797e-01,8.610432744026184082e-01,8.610054850578308105e-01,8.609678745269775391e-01,8.609302043914794922e-01,8.608925938606262207e-01,8.608548641204833984e-01,8.608172535896301270e-01,8.607795834541320801e-01,8.607419729232788086e-01,8.607042431831359863e-01,8.606666326522827148e-01,8.606290221214294434e-01,8.605913519859313965e-01,8.605537414550781250e-01,8.605161309242248535e-01,8.604785203933715820e-01
8.212321996688842773e-01,8.211979866027832031e-01,8.211637139320373535e-01,8.211293816566467285e-01,8.210951685905456543e-01,8.210609555244445801e-01,8.210266828536987305e-01,8.209924101829528809e-01,8.209581375122070312e-01,8.209239244461059570e-01,8.208896517753601074e-01,8.208554387092590332e-01,8.208212256431579590e-01,8.207870125770568848e-01,8.207526803016662598e-01,8.207184672355651855e-01,8.206843137741088867e-01,8.206501007080078125e-01,8.206158280372619629e-01,8.205816149711608887e-01,8.205474019050598145e-01,8.205132484436035156e-01,8.204789757728576660e-01,8.204447627067565918e-01,8.204106092453002930e-01,8.203763961791992188e-01,8.203421831130981445e-01,8.203079700469970703e-01,8.202738165855407715e-01,8.202396631240844727e-01,8.202053904533386230e-01,8.201712369918823242e-01,8.201370835304260254e-01,8.201029300689697266e-01,8.200687170028686523e-01,8.200345635414123535e-01,8.200004100799560547e-01,8.199661970138549805e-01,8.199320435523986816e-01,8.198978900909423828e-01,8.198637366294860840e-01,8.198295235633850098e-01,8.197954297065734863e-01,8.197612762451171875e-01,8.197271823883056641e-01,8.196929693222045898e-01,8.196588158607482910e-01,8.196247220039367676e-01,8.195906281471252441e-01,8.195564150810241699e-01,8.195223212242126465e-01,8.194881677627563477e-01,8.194540739059448242e-01,8.194199204444885254e-01,8.193858265876770020e-01,8.193517327308654785e-01,8.193176388740539551e-01,8.192834854125976562e-01,8.192493915557861328e-01,8.192152976989746094e-01,8.191812038421630859e-01,8.191470503807067871e-01,8.191129565238952637e-01,8.190789222717285156e-01,8.190447688102722168e-01,8.190106749534606934e-01,8.189766407012939453e-01,8.189425468444824219e-01,8.189084529876708984e-01,8.188743591308593750e-01,8.188403248786926270e-01,8.188062906265258789e-01,8.187721371650695801e-01,8.187381029129028320e-01,8.187040686607360840e-01,8.186700344085693359e-01,8.186359405517578125e-01,8.186019062995910645e-01,8.185678720474243164e-01,8.185338377952575684e-01
7.829413414001464844e-01,7.829102277755737305e-01,7.828789949417114258e-01,7.828478813171386719e-01,7.828167676925659180e-01,7.827856540679931641e-01,7.827544808387756348e-01,7.827233672142028809e-01,7.826922535896301270e-01,7.826611399650573730e-01,7.826299667358398438e-01,7.825988531112670898e-01,7.825677394866943359e-01,7.825366258621215820e-01,7.825054526329040527e-01,7.824743986129760742e-01,7.824432849884033203e-01,7.824121713638305664e-01,7.823810577392578125e-01,7.823499441146850586e-01,7.823188900947570801e-01,7.822877764701843262e-01,7.822566628456115723e-01,7.822255492210388184e-01,7.821944952011108398e-01,7.821634411811828613e-01,7.821322679519653320e-01,7.821012139320373535e-01,7.820701599121093750e-01,7.820390462875366211e-01,7.820079326629638672e-01,7.819768786430358887e-01,7.819458246231079102e-01,7.819147109985351562e-01,7.818836569786071777e-01,7.818526625633239746e-01,7.818216085433959961e-01,7.817904949188232422e-01,7.817594408988952637e-01,7.817283868789672852e-01,7.816973924636840820e-01,7.816662788391113281e-01,7.816352248191833496e-01,7.816042304039001465e-01,7.815731763839721680e-01,7.815421223640441895e-01,7.815110683441162109e-01,7.814800739288330078e-01,7.814490795135498047e-01,7.814179658889770508e-01,7.813869714736938477e-01,7.813559770584106445e-01,7.813249826431274414e-01,7.812938690185546875e-01,7.812628746032714844e-01,7.812318801879882812e-01,7.812008261680603027e-01,7.811698317527770996e-01,7.811388373374938965e-01,7.811078429222106934e-01,7.810767889022827148e-01,7.810458540916442871e-01,7.810148596763610840e-01,7.809838652610778809e-01,7.809528112411499023e-01,7.809218764305114746e-01,7.808908820152282715e-01,7.808598875999450684e-01,7.808288931846618652e-01,7.807978987693786621e-01,7.807669639587402344e-01,7.807360291481018066e-01,7.807049751281738281e-01,7.806740403175354004e-01,7.806431055068969727e-01,7.806121110916137695e-01,7.805811166763305664e-01,7.805501818656921387e-01,7.805192470550537109e-01,7.804883122444152832e-01
7.480620741844177246e-01,7.480336427688598633e-01,7.480052113533020020e-01,7.479767799377441406e-01,7.479483485221862793e-01,7.479199767112731934e-01,7.478914856910705566e-01,7.478630542755126953e-01,7.478346824645996094e-01,7.478062510490417480e-01,7.477778196334838867e-01,7.477493882179260254e-01,7.477210164070129395e-01,7.476926445960998535e-01,7.476641535758972168e-01,7.476357817649841309e-01,7.476074099540710449e-01,7.475789785385131836e-01,7.475505471229553223e-01,7.475221753120422363e-01,7.474938035011291504e-01,7.474653720855712891e-01,7.474370002746582031e-01,7.474086284637451172e-01,7.473802566528320312e-01,7.473518252372741699e-01,7.473234534263610840e-01,7.472951412200927734e-01,7.472667694091796875e-01,7.472383379936218262e-01,7.472099661827087402e-01,7.471815943717956543e-01,7.471532821655273438e-01,7.471248507499694824e-01,7.470965385437011719e-01,7.470681667327880859e-01,7.470398545265197754e-01,7.470114231109619141e-01,7.469831109046936035e-01,7.469547390937805176e-01,7.469264268875122070e-01,7.468979954719543457e-01,7.468696832656860352e-01,7.468413710594177246e-01,7.468129992485046387e-01,7.467846274375915527e-01,7.467563152313232422e-01,7.467280030250549316e-01,7.466996312141418457e-01,7.466713190078735352e-01,7.466430068016052246e-01,7.466146945953369141e-01,7.465863227844238281e-01,7.465580105781555176e-01,7.465296983718872070e-01,7.465013861656188965e-01,7.464730143547058105e-01,7.464447617530822754e-01,7.464164495468139648e-01,7.463881373405456543e-01,7.463598251342773438e-01,7.463315129280090332e-01,7.463032007217407227e-01,7.462749481201171875e-01,7.462465763092041016e-01,7.462183237075805664e-01,7.461900115013122559e-01,7.461617588996887207e-01,7.461334466934204102e-01,7.461051344871520996e-01,7.460768818855285645e-01,7.460485696792602539e-01,7.460202574729919434e-01,7.459920048713684082e-01,7.459637522697448730e-01,7.459354400634765625e-01,7.459071874618530273e-01,7.458789348602294922e-01,7.458506822586059570e-01,7.458223700523376465e-01
7.161579728126525879e-01,7.161319255828857422e-01,7.161058187484741211e-01,7.160797715187072754e-01,7.160537242889404297e-01,7.160276174545288086e-01,7.160015702247619629e-01,7.159755825996398926e-01,7.159495353698730469e-01,7.159234285354614258e-01,7.158973813056945801e-01,7.158713936805725098e-01,7.158453464508056641e-01,7.158192992210388184e-01,7.157932519912719727e-01,7.157672643661499023e-01,7.157412171363830566e-01,7.157151699066162109e-01,7.156891226768493652e-01,7.156631350517272949e-01,7.156370878219604492e-01,7.156110405921936035e-01,7.155850529670715332e-01,7.155590653419494629e-01,7.155330181121826172e-01,7.155069708824157715e-01,7.154809832572937012e-01,7.154549956321716309e-01,7.154290080070495605e-01,7.154029607772827148e-01,7.153769731521606445e-01,7.153509855270385742e-01,7.153249382972717285e-01,7.152989506721496582e-01,7.152729630470275879e-01,7.152469754219055176e-01,7.152209281921386719e-01,7.151949405670166016e-01,7.151689529418945312e-01,7.151430249214172363e-01,7.151169776916503906e-01,7.150909900665283203e-01,7.150650620460510254e-01,7.150390744209289551e-01,7.150130271911621094e-01,7.149870991706848145e-01,7.149611115455627441e-01,7.149351835250854492e-01,7.149091362953186035e-01,7.148832082748413086e-01,7.148572206497192383e-01,7.148312926292419434e-01,7.148053050041198730e-01,7.147793173789978027e-01,7.147533893585205078e-01,7.147274613380432129e-01,7.147014737129211426e-01,7.146754860877990723e-01,7.146495580673217773e-01,7.146236300468444824e-01,7.145976424217224121e-01,7.145717144012451172e-01,7.145457863807678223e-01,7.145197987556457520e-01,7.144938707351684570e-01,7.144679427146911621e-01,7.144420146942138672e-01,7.144160270690917969e-01,7.143900990486145020e-01,7.143642306327819824e-01,7.143383026123046875e-01,7.143123149871826172e-01,7.142863869667053223e-01,7.142605185508728027e-01,7.142345905303955078e-01,7.142086029052734375e-01,7.141827344894409180e-01,7.141568064689636230e-01,7.141309380531311035e-01,7.141049504280090332e-01
6.868638992309570312e-01,6.868398785591125488e-01,6.868159174919128418e-01,6.867919564247131348e-01,6.867679953575134277e-01,6.867439746856689453e-01,6.867200732231140137e-01,6.866961121559143066e-01,6.866721510887145996e-01,6.866481304168701172e-01,6.866242289543151855e-01,6.866002678871154785e-01,6.865763068199157715e-01,6.865523457527160645e-01,6.865283846855163574e-01,6.865044832229614258e-01,6.864805221557617188e-01,6.864565610885620117e-01,6.864326000213623047e-01,6.864086985588073730e-01,6.863847374916076660e-01,6.863607764244079590e-01,6.863368749618530273e-01,6.863129138946533203e-01,6.862889528274536133e-01,6.862650513648986816e-01,6.862411499023437500e-01,6.862171888351440430e-01,6.861932277679443359e-01,6.861693263053894043e-01,6.861454248428344727e-01,6.861215233802795410e-01,6.860975623130798340e-01,6.860736608505249023e-01,6.860497593879699707e-01,6.860258579254150391e-01,6.860018968582153320e-01,6.859779953956604004e-01,6.859540939331054688e-01,6.859301924705505371e-01,6.859062314033508301e-01,6.858823895454406738e-01,6.858584880828857422e-01,6.858345866203308105e-01,6.858106255531311035e-01,6.857867836952209473e-01,6.857628822326660156e-01,6.857389807701110840e-01,6.857150793075561523e-01,6.856911778450012207e-01,6.856672763824462891e-01,6.856433749198913574e-01,6.856194734573364258e-01,6.855956315994262695e-01,6.855717897415161133e-01,6.855478286743164062e-01,6.855239868164062500e-01,6.855000853538513184e-01,6.854762434959411621e-01,6.854523420333862305e-01,6.854284405708312988e-01,6.854045987129211426e-01,6.853807568550109863e-01,6.853568553924560547e-01,6.853330135345458984e-01,6.853091120719909668e-01,6.852852702140808105e-01,6.852613687515258789e-01,6.852375268936157227e-01,6.852136850357055664e-01,6.851898431777954102e-01,6.851659417152404785e-01,6.851420998573303223e-01,6.851182579994201660e-01,6.850944161415100098e-01,6.850705742835998535e-01,6.850467324256896973e-01,6.850228905677795410e-01,6.849989891052246094e-01,6.849752068519592285e-01
