5.000000000000000000e+00,5.000000000000000000e+00,5.000000000000000000e+00,5.000000000000000000e+00,5.000000000000000000e+00,5.000000000000000000e+00,5.000000000000000000e+00,5.000000000000000000e+00,5.000000000000000000e+00,5.000000000000000000e+00,5.000000000000000000e+00,5.000000000000000000e+00,5.000000000000000000e+00,5.000000000000000000e+00,5.000000000000000000e+00,5.000000000000000000e+00,5.000000000000000000e+00,5.000000000000000000e+00,5.000000000000000000e+00,5.000000000000000000e+00,5.000000000000000000e+00,5.000000000000000000e+00,5.000000000000000000e+00,5.000000000000000000e+00,5.000000000000000000e+00,5.000000000000000000e+00,5.000000000000000000e+00,5.000000000000000000e+00,5.000000000000000000e+00,5.000000000000000000e+00,5.000000000000000000e+00,5.000000000000000000e+00,5.000000000000000000e+00,5.000000000000000000e+00,5.000000000000000000e+00,5.000000000000000000e+00,5.000000000000000000e+00,5.000000000000000000e+00,5.000000000000000000e+00,4.846740245819091797e+00,4.657056808471679688e+00,4.481661319732666016e+00,4.318998336791992188e+00,4.167728900909423828e+00,4.026697635650634766e+00,3.894898176193237305e+00,3.771453619003295898e+00,3.655593395233154297e+00,3.546639680862426758e+00,3.443992614746093750e+00,3.347119808197021484e+00,3.255548000335693359e+00,3.168852806091308594e+00,3.086655616760253906e+00,3.008614540100097656e+00,2.934422731399536133e+00,2.863801717758178711e+00,2.796500205993652344e+00,2.732289075851440430e+00,2.670960903167724609e+00,2.612325191497802734e+00,2.556208610534667969e+00,2.502452135086059570e+00,2.450910329818725586e+00,2.401448726654052734e+00,2.353944063186645508e+00,2.308282136917114258e+00,2.264358282089233398e+00,2.222074747085571289e+00,2.181341409683227539e+00,2.142074346542358398e+00,2.104196071624755859e+00,2.067634344100952148e+00,2.032321453094482422e+00,1.998194456100463867e+00,1.965194702148437500e+00,1.933267354965209961e+00,1.902360558509826660e+00,1.872426509857177734e+00,1.843419790267944336e+00
5.000000000000000000e+00,5.000000000000000000e+00,5.000000000000000000e+00,5.000000000000000000e+00,5.000000000000000000e+00,5.000000000000000000e+00,5.000000000000000000e+00,5.000000000000000000e+00,5.000000000000000000e+00,5.000000000000000000e+00,5.000000000000000000e+00,5.000000000000000000e+00,5.000000000000000000e+00,5.000000000000000000e+00,5.000000000000000000e+00,5.000000000000000000e+00,5.000000000000000000e+00,5.000000000000000000e+00,5.000000000000000000e+00,5.000000000000000000e+00,5.000000000000000000e+00,5.000000000000000000e+00,5.000000000000000000e+00,5.000000000000000000e+00,5.000000000000000000e+00,5.000000000000000000e+00,5.000000000000000000e+00,5.000000000000000000e+00,5.000000000000000000e+00,5.000000000000000000e+00,5.000000000000000000e+00,5.000000000000000000e+00,5.000000000000000000e+00,5.000000000000000000e+00,5.000000000000000000e+00,5.000000000000000000e+00,5.000000000000000000e+00,5.000000000000000000e+00,5.000000000000000000e+00,4.846877098083496094e+00,4.657183170318603516e+00,4.481778621673583984e+00,4.319107055664062500e+00,4.167830467224121094e+00,4.026792049407958984e+00,3.894986867904663086e+00,3.771536827087402344e+00,3.655671358108520508e+00,3.546713113784790039e+00,3.444061517715454102e+00,3.347185373306274414e+00,3.255609750747680664e+00,3.168911457061767578e+00,3.086710929870605469e+00,3.008667469024658203e+00,2.934472799301147461e+00,2.863849639892578125e+00,2.796545743942260742e+00,2.732332706451416016e+00,2.671002626419067383e+00,2.612365007400512695e+00,2.556246757507324219e+00,2.502488613128662109e+00,2.450945377349853516e+00,2.401482105255126953e+00,2.353976249694824219e+00,2.308313131332397461e+00,2.264388084411621094e+00,2.222103357315063477e+00,2.181368827819824219e+00,2.142101049423217773e+00,2.104222059249877930e+00,2.067659139633178711e+00,2.032345533370971680e+00,1.998217821121215820e+00,1.965217351913452148e+00,1.933289170265197754e+00,1.902381777763366699e+00,1.872447013854980469e+00,1.843439698219299316e+00
5.000000000000000000e+00,5.000000000000000000e+00,5.000000000000000000e+00,5.000000000000000000e+00,5.000000000000000000e+00,5.000000000000000000e+00,5.000000000000000000e+00,5.000000000000000000e+00,5.000000000000000000e+00,5.000000000000000000e+00,5.000000000000000000e+00,5.000000000000000000e+00,5.000000000000000000e+00,5.000000000000000000e+00,5.000000000000000000e+00,5.000000000000000000e+00,5.000000000000000000e+00,5.000000000000000000e+00,5.000000000000000000e+00,5.000000000000000000e+00,5.000000000000000000e+00,5.000000000000000000e+00,5.000000000000000000e+00,5.000000000000000000e+00,5.000000000000000000e+00,5.000000000000000000e+00,5.000000000000000000e+00,5.000000000000000000e+00,5.000000000000000000e+00,5.000000000000000000e+00,5.000000000000000000e+00,5.000000000000000000e+00,5.000000000000000000e+00,5.000000000000000000e+00,5.000000000000000000e+00,5.000000000000000000e+00,5.000000000000000000e+00,5.000000000000000000e+00,5.000000000000000000e+00,4.847014427185058594e+00,4.657310009002685547e+00,4.481895923614501953e+00,4.319215774536132812e+00,4.167931556701660156e+00,4.026886463165283203e+00,3.895075559616088867e+00,3.771619558334350586e+00,3.655749559402465820e+00,3.546786308288574219e+00,3.444130897521972656e+00,3.347250461578369141e+00,3.255671501159667969e+00,3.168970108032226562e+00,3.086766719818115234e+00,3.008720397949218750e+00,2.934523105621337891e+00,2.863897562026977539e+00,2.796591281890869141e+00,2.732376337051391602e+00,2.671044111251831055e+00,2.612404823303222656e+00,2.556284666061401367e+00,2.502525329589843750e+00,2.450980186462402344e+00,2.401515960693359375e+00,2.354008436203002930e+00,2.308344364166259766e+00,2.264418125152587891e+00,2.222131967544555664e+00,2.181396722793579102e+00,2.142127752304077148e+00,2.104247808456420898e+00,2.067684173583984375e+00,2.032369613647460938e+00,1.998241186141967773e+00,1.965239882469177246e+00,1.933310747146606445e+00,1.902402877807617188e+00,1.872467398643493652e+00,1.843459486961364746e+00
5.000000000000000000e+00,5.000000000000000000e+00,5.000000000000000000e+00,5.000000000000000000e+00,5.000000000000000000e+00,5.000000000000000000e+00,5.000000000000000000e+00,5.000000000000000000e+00,5.000000000000000000e+00,5.000000000000000000e+00,5.000000000000000000e+00,5.000000000000000000e+00,5.000000000000000000e+00,5.000000000000000000e+00,5.000000000000000000e+00,5.000000000000000000e+00,5.000000000000000000e+00,5.000000000000000000e+00,5.000000000000000000e+00,5.000000000000000000e+00,5.000000000000000000e+00,5.000000000000000000e+00,5.000000000000000000e+00,5.000000000000000000e+00,5.000000000000000000e+00,5.000000000000000000e+00,5.000000000000000000e+00,5.000000000000000000e+00,5.000000000000000000e+00,5.000000000000000000e+00,5.000000000000000000e+00,5.000000000000000000e+00,5.000000000000000000e+00,5.000000000000000000e+00,5.000000000000000000e+00,5.000000000000000000e+00,5.000000000000000000e+00,5.000000000000000000e+00,5.000000000000000000e+00,4.847151279449462891e+00,4.657436370849609375e+00,4.482012748718261719e+00,4.319324493408203125e+00,4.168032646179199219e+00,4.026980876922607422e+00,3.895164012908935547e+00,3.771702527999877930e+00,3.655827522277832031e+00,3.546859741210937500e+00,3.444200277328491211e+00,3.347315788269042969e+00,3.255733489990234375e+00,3.169028520584106445e+00,3.086822271347045898e+00,3.008773088455200195e+00,2.934573411941528320e+00,2.863945245742797852e+00,2.796637058258056641e+00,2.732419729232788086e+00,2.671085596084594727e+00,2.612444400787353516e+00,2.556322813034057617e+00,2.502561807632446289e+00,2.451015472412109375e+00,2.401549577713012695e+00,2.354040861129760742e+00,2.308375358581542969e+00,2.264447689056396484e+00,2.222160816192626953e+00,2.181424379348754883e+00,2.142154455184936523e+00,2.104273557662963867e+00,2.067708969116210938e+00,2.032393693923950195e+00,1.998264431953430176e+00,1.965262413024902344e+00,1.933332681655883789e+00,1.902423977851867676e+00,1.872487902641296387e+00,1.843479394912719727e+00
5.000000000000000000e+00,5.000000000000000000e+00,5.000000000000000000e+00,5.000000000000000000e+00,5.000000000000000000e+00,5.000000000000000000e+00,5.000000000000000000e+00,5.000000000000000000e+00,5.000000000000000000e+00,5.000000000000000000e+00,5.000000000000000000e+00,5.000000000000000000e+00,5.000000000000000000e+00,5.000000000000000000e+00,5.000000000000000000e+00,5.000000000000000000e+00,5.000000000000000000e+00,5.000000000000000000e+00,5.000000000000000000e+00,5.000000000000000000e+00,5.000000000000000000e+00,5.000000000000000000e+00,5.000000000000000000e+00,5.000000000000000000e+00,5.000000000000000000e+00,5.000000000000000000e+00,5.000000000000000000e+00,5.000000000000000000e+00,5.000000000000000000e+00,5.000000000000000000e+00,5.000000000000000000e+00,5.000000000000000000e+00,5.000000000000000000e+00,5.000000000000000000e+00,5.000000000000000000e+00,5.000000000000000000e+00,5.000000000000000000e+00,5.000000000000000000e+00,5.000000000000000000e+00,4.847288608551025391e+00,4.657563209533691406e+00,4.482130050659179688e+00,4.319433689117431641e+00,4.168134212493896484e+00,4.027075767517089844e+00,3.895252227783203125e+00,3.771785736083984375e+00,3.655905246734619141e+00,3.546933174133300781e+00,3.444269180297851562e+00,3.347381353378295898e+00,3.255795001983642578e+00,3.169087171554565430e+00,3.086877822875976562e+00,3.008826017379760742e+00,2.934623718261718750e+00,2.863993167877197266e+00,2.796682596206665039e+00,2.732463359832763672e+00,2.671127319335937500e+00,2.612484455108642578e+00,2.556361198425292969e+00,2.502598285675048828e+00,2.451050519943237305e+00,2.401583194732666016e+00,2.354073286056518555e+00,2.308406114578247070e+00,2.264477729797363281e+00,2.222189664840698242e+00,2.181452035903930664e+00,2.142181396484375000e+00,2.104299545288085938e+00,2.067734003067016602e+00,2.032417774200439453e+00,1.998287796974182129e+00,1.965284943580627441e+00,1.933354496955871582e+00,1.902444958686828613e+00,1.872508406639099121e+00,1.843499183654785156e+00
5.000000000000000000e+00,5.000000000000000000e+00,5.000000000000000000e+00,5.000000000000000000e+00,5.000000000000000000e+00,5.000000000000000000e+00,5.000000000000000000e+00,5.000000000000000000e+00,5.000000000000000000e+00,5.000000000000000000e+00,5.000000000000000000e+00,5.000000000000000000e+00,5.000000000000000000e+00,5.000000000000000000e+00,5.000000000000000000e+00,5.000000000000000000e+00,5.000000000000000000e+00,5.000000000000000000e+00,5.000000000000000000e+00,5.000000000000000000e+00,5.000000000000000000e+00,5.000000000000000000e+00,5.000000000000000000e+00,5.000000000000000000e+00,5.000000000000000000e+00,5.000000000000000000e+00,5.000000000000000000e+00,5.000000000000000000e+00,5.000000000000000000e+00,5.000000000000000000e+00,5.000000000000000000e+00,5.000000000000000000e+00,5.000000000000000000e+00,5.000000000000000000e+00,5.000000000000000000e+00,5.000000000000000000e+00,5.000000000000000000e+00,5.000000000000000000e+00,5.000000000000000000e+00,4.847425460815429688e+00,4.657689571380615234e+00,4.482247352600097656e+00,4.319541931152343750e+00,4.168235778808593750e+00,4.027170181274414062e+00,3.895340919494628906e+00,3.771868228912353516e+00,3.655983209609985352e+00,3.547006845474243164e+00,3.444338560104370117e+00,3.347446680068969727e+00,3.255856990814208984e+00,3.169145822525024414e+00,3.086933374404907227e+00,3.008878707885742188e+00,2.934673786163330078e+00,2.864041090011596680e+00,2.796728134155273438e+00,2.732506990432739258e+00,2.671168804168701172e+00,2.612524271011352539e+00,2.556399106979370117e+00,2.502634763717651367e+00,2.451085567474365234e+00,2.401616811752319336e+00,2.354105472564697266e+00,2.308437347412109375e+00,2.264507532119750977e+00,2.222218513488769531e+00,2.181479930877685547e+00,2.142208099365234375e+00,2.104325294494628906e+00,2.067758798599243164e+00,2.032441854476928711e+00,1.998310923576354980e+00,1.965307593345642090e+00,1.933376312255859375e+00,1.902466058731079102e+00,1.872528672218322754e+00,1.843519091606140137e+00
5.000000000000000000e+00,5.000000000000000000e+00,5.000000000000000000e+00,5.000000000000000000e+00,5.000000000000000000e+00,5.000000000000000000e+00,5.000000000000000000e+00,5.000000000000000000e+00,5.000000000000000000e+00,5.000000000000000000e+00,5.000000000000000000e+00,5.000000000000000000e+00,5.000000000000000000e+00,5.000000000000000000e+00,5.000000000000000000e+00,5.000000000000000000e+00,5.000000000000000000e+00,5.000000000000000000e+00,5.000000000000000000e+00,5.000000000000000000e+00,5.000000000000000000e+00,5.000000000000000000e+00,5.000000000000000000e+00,5.000000000000000000e+00,5.000000000000000000e+00,5.000000000000000000e+00,5.000000000000000000e+00,5.000000000000000000e+00,5.000000000000000000e+00,5.000000000000000000e+00,5.000000000000000000e+00,5.000000000000000000e+00,5.000000000000000000e+00,5.000000000000000000e+00,5.000000000000000000e+00,5.000000000000000000e+00,5.000000000000000000e+00,5.000000000000000000e+00,5.000000000000000000e+00,4.847562313079833984e+00,4.657815933227539062e+00,4.482364654541015625e+00,4.319651126861572266e+00,4.168336868286132812e+00,4.027265071868896484e+00,3.895429611206054688e+00,3.771951436996459961e+00,3.656061410903930664e+00,3.547079801559448242e+00,3.444407701492309570e+00,3.347512006759643555e+00,3.255918979644775391e+00,3.169204235076904297e+00,3.086988925933837891e+00,3.008931398391723633e+00,2.934724092483520508e+00,2.864089012145996094e+00,2.796773910522460938e+00,2.732550621032714844e+00,2.671210527420043945e+00,2.612564086914062500e+00,2.556437253952026367e+00,2.502671480178833008e+00,2.451120376586914062e+00,2.401650190353393555e+00,2.354137659072875977e+00,2.308468341827392578e+00,2.264537334442138672e+00,2.222247123718261719e+00,2.181507587432861328e+00,2.142234802246093750e+00,2.104351043701171875e+00,2.067783832550048828e+00,2.032465934753417969e+00,1.998334169387817383e+00,1.965330123901367188e+00,1.933398127555847168e+00,1.902487277984619141e+00,1.872549176216125488e+00,1.843538999557495117e+00
5.000000000000000000e+00,5.000000000000000000e+00,5.000000000000000000e+00,5.000000000000000000e+00,5.000000000000000000e+00,5.000000000000000000e+00,5.000000000000000000e+00,5.000000000000000000e+00,5.000000000000000000e+00,5.000000000000000000e+00,5.000000000000000000e+00,5.000000000000000000e+00,5.000000000000000000e+00,5.000000000000000000e+00,5.000000000000000000e+00,5.000000000000000000e+00,5.000000000000000000e+00,5.000000000000000000e+00,5.000000000000000000e+00,5.000000000000000000e+00,5.000000000000000000e+00,5.000000000000000000e+00,5.000000000000000000e+00,5.000000000000000000e+00,5.000000000000000000e+00,5.000000000000000000e+00,4.656824588775634766e+00,4.666204452514648438e+00,5.000000000000000000e+00,5.000000000000000000e+00,5.000000000000000000e+00,5.000000000000000000e+00,5.000000000000000000e+00,5.000000000000000000e+00,5.000000000000000000e+00,5.000000000000000000e+00,5.000000000000000000e+00,5.000000000000000000e+00,5.000000000000000000e+00,4.847699642181396484e+00,4.657942295074462891e+00,4.482481479644775391e+00,4.319759845733642578e+00,4.168438434600830078e+00,4.027359485626220703e+00,3.895517826080322266e+00,3.772034645080566406e+00,3.656139135360717773e+00,3.547153472900390625e+00,3.444476604461669922e+00,3.347577333450317383e+00,3.255980968475341797e+00,3.169262886047363281e+00,3.087044715881347656e+00,3.008984327316284180e+00,2.934774398803710938e+00,2.864136695861816406e+00,2.796819448471069336e+00,2.732594013214111328e+00,2.671252250671386719e+00,2.612603664398193359e+00,2.556475400924682617e+00,2.502707719802856445e+00,2.451155424118041992e+00,2.401683807373046875e+00,2.354170083999633789e+00,2.308499574661254883e+00,2.264567375183105469e+00,2.222275972366333008e+00,2.181535482406616211e+00,2.142261743545532227e+00,2.104377031326293945e+00,2.067808866500854492e+00,2.032490015029907227e+00,1.998357534408569336e+00,1.965352416038513184e+00,1.933419942855834961e+00,1.902508378028869629e+00,1.872569680213928223e+00,1.843558549880981445e+00
5.000000000000000000e+00,5.000000000000000000e+00,5.000000000000000000e+00,5.000000000000000000e+00,5.000000000000000000e+00,5.000000000000000000e+00,5.000000000000000000e+00,5.000000000000000000e+00,5.000000000000000000e+00,5.000000000000000000e+00,5.000000000000000000e+00,5.000000000000000000e+00,5.000000000000000000e+00,5.000000000000000000e+00,5.000000000000000000e+00,5.000000000000000000e+00,5.000000000000000000e+00,5.000000000000000000e+00,5.000000000000000000e+00,5.000000000000000000e+00,5.000000000000000000e+00,5.000000000000000000e+00,5.000000000000000000e+00,5.000000000000000000e+00,5.000000000000000000e+00,5.000000000000000000e+00,4.622618198394775391e+00,4.633505821228027344e+00,5.000000000000000000e+00,5.000000000000000000e+00,5.000000000000000000e+00,5.000000000000000000e+00,5.000000000000000000e+00,5.000000000000000000e+00,5.000000000000000000e+00,5.000000000000000000e+00,5.000000000000000000e+00,5.000000000000000000e+00,5.000000000000000000e+00,4.847836494445800781e+00,4.658069133758544922e+00,4.482598781585693359e+00,4.319868564605712891e+00,4.168540000915527344e+00,4.027454376220703125e+00,3.895606517791748047e+00,3.772117614746093750e+00,3.656217098236083984e+00,3.547226905822753906e+00,3.444545984268188477e+00,3.347642898559570312e+00,3.256042480468750000e+00,3.169321537017822266e+00,3.087100028991699219e+00,3.009037256240844727e+00,2.934824466705322266e+00,2.864184617996215820e+00,2.796864986419677734e+00,2.732637643814086914e+00,2.671293973922729492e+00,2.612643718719482422e+00,2.556513547897338867e+00,2.502744197845458984e+00,2.451190471649169922e+00,2.401717424392700195e+00,2.354202270507812500e+00,2.308530569076538086e+00,2.264597415924072266e+00,2.222304821014404297e+00,2.181563138961791992e+00,2.142288446426391602e+00,2.104402780532836914e+00,2.067833662033081055e+00,2.032514095306396484e+00,1.998380899429321289e+00,1.965375065803527832e+00,1.933441758155822754e+00,1.902529478073120117e+00,1.872590065002441406e+00,1.843578457832336426e+00
5.000000000000000000e+00,5.000000000000000000e+00,5.000000000000000000e+00,5.000000000000000000e+00,5.000000000000000000e+00,5.000000000000000000e+00,5.000000000000000000e+00,5.000000000000000000e+00,5.000000000000000000e+00,5.000000000000000000e+00,5.000000000000000000e+00,5.000000000000000000e+00,5.000000000000000000e+00,5.000000000000000000e+00,5.000000000000000000e+00,5.000000000000000000e+00,5.000000000000000000e+00,5.000000000000000000e+00,5.000000000000000000e+00,5.000000000000000000e+00,5.000000000000000000e+00,5.000000000000000000e+00,5.000000000000000000e+00,5.000000000000000000e+00,5.000000000000000000e+00,5.000000000000000000e+00,4.668698787689208984e+00,4.651361465454101562e+00,5.000000000000000000e+00,5.000000000000000000e+00,5.000000000000000000e+00,5.000000000000000000e+00,5.000000000000000000e+00,5.000000000000000000e+00,5.000000000000000000e+00,5.000000000000000000e+00,5.000000000000000000e+00,5.000000000000000000e+00,5.000000000000000000e+00,4.847973823547363281e+00,4.658195495605468750e+00,4.482716083526611328e+00,4.319977760314941406e+00,4.168641090393066406e+00,4.027548789978027344e+00,3.895694971084594727e+00,3.772200345993041992e+00,3.656295299530029297e+00,3.547300100326538086e+00,3.444615364074707031e+00,3.347707986831665039e+00,3.256104469299316406e+00,3.169380187988281250e+00,3.087155818939208984e+00,3.009089946746826172e+00,2.934874773025512695e+00,2.864232540130615234e+00,2.796910762786865234e+00,2.732681274414062500e+00,2.671335458755493164e+00,2.612683534622192383e+00,2.556551694869995117e+00,2.502780675888061523e+00,2.451225280761718750e+00,2.401751041412353516e+00,2.354234457015991211e+00,2.308561563491821289e+00,2.264627218246459961e+00,2.222333669662475586e+00,2.181591033935546875e+00,2.142315149307250977e+00,2.104428768157958984e+00,2.067858695983886719e+00,2.032538414001464844e+00,1.998404264450073242e+00,1.965397596359252930e+00,1.933463454246520996e+00,1.902550697326660156e+00,1.872610569000244141e+00,1.843598246574401855e+00
5.000000000000000000e+00,5.000000000000000000e+00,5.000000000000000000e+00,5.000000000000000000e+00,5.000000000000000000e+00,5.000000000000000000e+00,5.000000000000000000e+00,5.000000000000000000e+00,5.000000000000000000e+00,5.000000000000000000e+00,5.000000000000000000e+00,5.000000000000000000e+00,5.000000000000000000e+00,5.000000000000000000e+00,5.000000000000000000e+00,5.000000000000000000e+00,5.000000000000000000e+00,5.000000000000000000e+00,5.000000000000000000e+00,5.000000000000000000e+00,5.000000000000000000e+00,5.000000000000000000e+00,5.000000000000000000e+00,5.000000000000000000e+00,5.000000000000000000e+00,4.693112850189208984e+00,4.720574378967285156e+00,4.727932453155517578e+00,4.765953540802001953e+00,5.000000000000000000e+00,5.000000000000000000e+00,5.000000000000000000e+00,5.000000000000000000e+00,5.000000000000000000e+00,5.000000000000000000e+00,5.000000000000000000e+00,5.000000000000000000e+00,5.000000000000000000e+00,5.000000000000000000e+00,4.848110675811767578e+00,4.658322334289550781e+00,4.482833385467529297e+00,4.320086479187011719e+00,4.168742179870605469e+00,4.027643203735351562e+00,3.895783185958862305e+00,3.772283554077148438e+00,3.656373262405395508e+00,3.547373533248901367e+00,3.444684743881225586e+00,3.347773313522338867e+00,3.256166219711303711e+00,3.169438600540161133e+00,3.087211370468139648e+00,3.009142637252807617e+00,2.934925079345703125e+00,2.864280223846435547e+00,2.796956300735473633e+00,2.732724666595458984e+00,2.671376943588256836e+00,2.612722873687744141e+00,2.556589603424072266e+00,2.502817392349243164e+00,2.451260328292846680e+00,2.401784896850585938e+00,2.354266881942749023e+00,2.308592796325683594e+00,2.264657020568847656e+00,2.222362518310546875e+00,2.181618690490722656e+00,2.142342090606689453e+00,2.104454278945922852e+00,2.067883729934692383e+00,2.032562255859375000e+00,1.998427510261535645e+00,1.965420126914978027e+00,1.933485269546508789e+00,1.902571558952331543e+00,1.872631072998046875e+00,1.843618154525756836e+00
5.000000000000000000e+00,5.000000000000000000e+00,5.000000000000000000e+00,5.000000000000000000e+00,5.000000000000000000e+00,5.000000000000000000e+00,5.000000000000000000e+00,5.000000000000000000e+00,5.000000000000000000e+00,5.000000000000000000e+00,5.000000000000000000e+00,5.000000000000000000e+00,5.000000000000000000e+00,5.000000000000000000e+00,5.000000000000000000e+00,5.000000000000000000e+00,5.000000000000000000e+00,5.000000000000000000e+00,5.000000000000000000e+00,5.000000000000000000e+00,5.000000000000000000e+00,5.000000000000000000e+00,5.000000000000000000e+00,5.000000000000000000e+00,4.626262664794921875e+00,4.616057872772216797e+00,4.624364852905273438e+00,4.643482685089111328e+00,4.679287910461425781e+00,4.761691570281982422e+00,5.000000000000000000e+00,5.000000000000000000e+00,5.000000000000000000e+00,5.000000000000000000e+00,5.000000000000000000e+00,5.000000000000000000e+00,5.000000000000000000e+00,5.000000000000000000e+00,5.000000000000000000e+00,4.848248004913330078e+00,4.658448696136474609e+00,4.482950687408447266e+00,4.320195198059082031e+00,4.168843746185302734e+00,4.027738094329833984e+00,3.895871877670288086e+00,3.772366523742675781e+00,3.656450986862182617e+00,3.547446966171264648e+00,3.444753646850585938e+00,3.347838878631591797e+00,3.256227970123291016e+00,3.169497251510620117e+00,3.087266921997070312e+00,3.009195566177368164e+00,2.934975385665893555e+00,2.864328145980834961e+00,2.797002077102661133e+00,2.732768297195434570e+00,2.671418666839599609e+00,2.612762689590454102e+00,2.556627750396728516e+00,2.502853870391845703e+00,2.451295614242553711e+00,2.401818275451660156e+00,2.354299306869506836e+00,2.308623790740966797e+00,2.264687061309814453e+00,2.222391128540039062e+00,2.181646347045898438e+00,2.142368555068969727e+00,2.104480266571044922e+00,2.067908525466918945e+00,2.032586336135864258e+00,1.998450875282287598e+00,1.965442657470703125e+00,1.933507084846496582e+00,1.902592778205871582e+00,1.872651576995849609e+00,1.843638062477111816e+00
5.000000000000000000e+00,5.000000000000000000e+00,5.000000000000000000e+00,5.000000000000000000e+00,5.000000000000000000e+00,5.000000000000000000e+00,5.000000000000000000e+00,5.000000000000000000e+00,5.000000000000000000e+00,5.000000000000000000e+00,5.000000000000000000e+00,5.000000000000000000e+00,5.000000000000000000e+00,5.000000000000000000e+00,5.000000000000000000e+00,5.000000000000000000e+00,5.000000000000000000e+00,5.000000000000000000e+00,5.000000000000000000e+00,5.000000000000000000e+00,5.000000000000000000e+00,5.000000000000000000e+00,5.000000000000000000e+00,5.000000000000000000e+00,4.654255390167236328e+00,4.613917350769042969e+00,4.597286224365234375e+00,4.624752998352050781e+00,4.666872024536132812e+00,4.760090351104736328e+00,5.000000000000000000e+00,5.000000000000000000e+00,5.000000000000000000e+00,5.000000000000000000e+00,5.000000000000000000e+00,5.000000000000000000e+00,5.000000000000000000e+00,5.000000000000000000e+00,5.000000000000000000e+00,4.848384857177734375e+00,4.658575534820556641e+00,4.483067512512207031e+00,4.320303916931152344e+00,4.168945312500000000e+00,4.027832508087158203e+00,3.895960569381713867e+00,3.772449254989624023e+00,3.656529188156127930e+00,3.547520637512207031e+00,3.444822788238525391e+00,3.347904443740844727e+00,3.256289958953857422e+00,3.169555902481079102e+00,3.087322473526000977e+00,3.009248495101928711e+00,2.935025453567504883e+00,2.864376068115234375e+00,2.797047615051269531e+00,2.732811689376831055e+00,2.671459913253784180e+00,2.612802743911743164e+00,2.556665658950805664e+00,2.502890348434448242e+00,2.451330423355102539e+00,2.401852130889892578e+00,2.354331731796264648e+00,2.308654785156250000e+00,2.264717102050781250e+00,2.222419977188110352e+00,2.181674242019653320e+00,2.142395496368408203e+00,2.104506254196166992e+00,2.067933559417724609e+00,2.032610654830932617e+00,1.998474001884460449e+00,1.965465307235717773e+00,1.933528900146484375e+00,1.902613878250122070e+00,1.872671842575073242e+00,1.843657851219177246e+00
5.000000000000000000e+00,5.000000000000000000e+00,5.000000000000000000e+00,5.000000000000000000e+00,5.000000000000000000e+00,5.000000000000000000e+00,5.000000000000000000e+00,5.000000000000000000e+00,5.000000000000000000e+00,5.000000000000000000e+00,5.000000000000000000e+00,5.000000000000000000e+00,5.000000000000000000e+00,5.000000000000000000e+00,5.000000000000000000e+00,5.000000000000000000e+00,5.000000000000000000e+00,5.000000000000000000e+00,5.000000000000000000e+00,5.000000000000000000e+00,5.000000000000000000e+00,5.000000000000000000e+00,5.000000000000000000e+00,5.000000000000000000e+00,4.674991130828857422e+00,4.628301143646240234e+00,4.597641944885253906e+00,4.614769458770751953e+00,4.679203510284423828e+00,4.749255180358886719e+00,5.000000000000000000e+00,5.000000000000000000e+00,5.000000000000000000e+00,5.000000000000000000e+00,5.000000000000000000e+00,5.000000000000000000e+00,5.000000000000000000e+00,5.000000000000000000e+00,5.000000000000000000e+00,4.848521709442138672e+00,4.658701896667480469e+00,4.483184814453125000e+00,4.320413112640380859e+00,4.169046401977539062e+00,4.027927398681640625e+00,3.896049261093139648e+00,3.772532463073730469e+00,3.656607151031494141e+00,3.547593593597412109e+00,3.444892168045043945e+00,3.347969532012939453e+00,3.256351947784423828e+00,3.169614315032958984e+00,3.087378263473510742e+00,3.009301185607910156e+00,2.935075759887695312e+00,2.864423751831054688e+00,2.797093152999877930e+00,2.732855319976806641e+00,2.671501636505126953e+00,2.612842559814453125e+00,2.556703805923461914e+00,2.502926826477050781e+00,2.451365470886230469e+00,2.401885747909545898e+00,2.354363918304443359e+00,2.308686017990112305e+00,2.264746904373168945e+00,2.222448825836181641e+00,2.181701898574829102e+00,2.142422199249267578e+00,2.104531764984130859e+00,2.067958354949951172e+00,2.032634496688842773e+00,1.998497247695922852e+00,1.965487837791442871e+00,1.933550715446472168e+00,1.902634978294372559e+00,1.872692346572875977e+00,1.843677759170532227e+00
5.000000000000000000e+00,5.000000000000000000e+00,5.000000000000000000e+00,5.000000000000000000e+00,5.000000000000000000e+00,5.000000000000000000e+00,5.000000000000000000e+00,5.000000000000000000e+00,5.000000000000000000e+00,5.000000000000000000e+00,5.000000000000000000e+00,5.000000000000000000e+00,5.000000000000000000e+00,5.000000000000000000e+00,5.000000000000000000e+00,5.000000000000000000e+00,5.000000000000000000e+00,5.000000000000000000e+00,5.000000000000000000e+00,5.000000000000000000e+00,5.000000000000000000e+00,5.000000000000000000e+00,5.000000000000000000e+00,5.000000000000000000e+00,4.696877956390380859e+00,4.630976200103759766e+00,4.590842247009277344e+00,4.619050025939941406e+00,4.673229217529296875e+00,4.776238918304443359e+00,4.806633472442626953e+00,5.000000000000000000e+00,5.000000000000000000e+00,5.000000000000000000e+00,5.000000000000000000e+00,5.000000000000000000e+00,5.000000000000000000e+00,5.000000000000000000e+00,5.000000000000000000e+00,4.848659038543701172e+00,4.658828735351562500e+00,4.483302116394042969e+00,4.320521831512451172e+00,4.169147968292236328e+00,4.028021812438964844e+00,3.896137475967407227e+00,3.772615671157836914e+00,3.656684875488281250e+00,3.547667264938354492e+00,3.444961071014404297e+00,3.348034858703613281e+00,3.256413698196411133e+00,3.169672966003417969e+00,3.087433815002441406e+00,3.009353876113891602e+00,2.935126066207885742e+00,2.864471435546875000e+00,2.797138690948486328e+00,2.732898712158203125e+00,2.671543359756469727e+00,2.612882137298583984e+00,2.556741952896118164e+00,2.502963304519653320e+00,2.451400756835937500e+00,2.401919364929199219e+00,2.354396343231201172e+00,2.308717012405395508e+00,2.264776706695556641e+00,2.222477674484252930e+00,2.181729793548583984e+00,2.142449140548706055e+00,2.104557752609252930e+00,2.067983388900756836e+00,2.032658815383911133e+00,1.998520612716674805e+00,1.965510129928588867e+00,1.933572649955749512e+00,1.902656197547912598e+00,1.872712850570678711e+00,1.843697309494018555e+00
5.000000000000000000e+00,5.000000000000000000e+00,5.000000000000000000e+00,5.000000000000000000e+00,5.000000000000000000e+00,5.000000000000000000e+00,5.000000000000000000e+00,5.000000000000000000e+00,5.000000000000000000e+00,5.000000000000000000e+00,5.000000000000000000e+00,5.000000000000000000e+00,5.000000000000000000e+00,5.000000000000000000e+00,5.000000000000000000e+00,5.000000000000000000e+00,5.000000000000000000e+00,5.000000000000000000e+00,5.000000000000000000e+00,5.000000000000000000e+00,5.000000000000000000e+00,5.000000000000000000e+00,5.000000000000000000e+00,5.000000000000000000e+00,4.710851192474365234e+00,4.624493598937988281e+00,4.596551418304443359e+00,4.612703323364257812e+00,4.674144268035888672e+00,4.771538257598876953e+00,4.756958961486816406e+00,5.000000000000000000e+00,5.000000000000000000e+00,5.000000000000000000e+00,5.000000000000000000e+00,5.000000000000000000e+00,5.000000000000000000e+00,5.000000000000000000e+00,5.000000000000000000e+00,4.848796367645263672e+00,4.658955097198486328e+00,4.483419418334960938e+00,4.320630550384521484e+00,4.169249057769775391e+00,4.028116703033447266e+00,3.896226167678833008e+00,3.772698640823364258e+00,3.656763076782226562e+00,3.547740697860717773e+00,3.445030450820922852e+00,3.348100423812866211e+00,3.256475448608398438e+00,3.169731855392456055e+00,3.087489128112792969e+00,3.009406805038452148e+00,2.935176134109497070e+00,2.864519357681274414e+00,2.797184228897094727e+00,2.732942342758178711e+00,2.671584844589233398e+00,2.612922191619873047e+00,2.556780338287353516e+00,2.503000020980834961e+00,2.451435804367065430e+00,2.401952981948852539e+00,2.354428768157958984e+00,2.308748006820678711e+00,2.264806747436523438e+00,2.222506523132324219e+00,2.181757450103759766e+00,2.142475843429565430e+00,2.104583501815795898e+00,2.068008184432983398e+00,2.032682895660400391e+00,1.998543977737426758e+00,1.965532779693603516e+00,1.933594465255737305e+00,1.902677297592163086e+00,1.872733354568481445e+00,1.843717217445373535e+00
5.000000000000000000e+00,5.000000000000000000e+00,5.000000000000000000e+00,5.000000000000000000e+00,5.000000000000000000e+00,5.000000000000000000e+00,5.000000000000000000e+00,5.000000000000000000e+00,5.000000000000000000e+00,5.000000000000000000e+00,5.000000000000000000e+00,5.000000000000000000e+00,5.000000000000000000e+00,5.000000000000000000e+00,5.000000000000000000e+00,5.000000000000000000e+00,5.000000000000000000e+00,5.000000000000000000e+00,5.000000000000000000e+00,5.000000000000000000e+00,5.000000000000000000e+00,5.000000000000000000e+00,5.000000000000000000e+00,5.000000000000000000e+00,4.679731845855712891e+00,4.582561969757080078e+00,4.598211288452148438e+00,4.637989044189453125e+00,4.662753105163574219e+00,5.000000000000000000e+00,4.715382575988769531e+00,5.000000000000000000e+00,5.000000000000000000e+00,5.000000000000000000e+00,5.000000000000000000e+00,5.000000000000000000e+00,5.000000000000000000e+00,5.000000000000000000e+00,5.000000000000000000e+00,4.848933696746826172e+00,4.659081935882568359e+00,4.483536720275878906e+00,4.320739269256591797e+00,4.169350624084472656e+00,4.028211116790771484e+00,3.896314859390258789e+00,3.772781372070312500e+00,3.656841039657592773e+00,3.547813892364501953e+00,3.445099830627441406e+00,3.348165512084960938e+00,3.256537437438964844e+00,3.169790029525756836e+00,3.087544918060302734e+00,3.009459733963012695e+00,2.935226202011108398e+00,2.864567279815673828e+00,2.797229766845703125e+00,2.732985973358154297e+00,2.671626567840576172e+00,2.612962007522583008e+00,2.556818246841430664e+00,2.503036499023437500e+00,2.451470613479614258e+00,2.401986598968505859e+00,2.354460954666137695e+00,2.308779239654541016e+00,2.264836549758911133e+00,2.222535371780395508e+00,2.181785345077514648e+00,2.142502546310424805e+00,2.104609489440917969e+00,2.068033218383789062e+00,2.032706975936889648e+00,1.998567223548889160e+00,1.965555310249328613e+00,1.933616042137145996e+00,1.902698516845703125e+00,1.872753739356994629e+00,1.843737125396728516e+00
5.000000000000000000e+00,5.000000000000000000e+00,5.000000000000000000e+00,5.000000000000000000e+00,5.000000000000000000e+00,5.000000000000000000e+00,5.000000000000000000e+00,5.000000000000000000e+00,5.000000000000000000e+00,5.000000000000000000e+00,5.000000000000000000e+00,5.000000000000000000e+00,5.000000000000000000e+00,5.000000000000000000e+00,5.000000000000000000e+00,5.000000000000000000e+00,5.000000000000000000e+00,5.000000000000000000e+00,5.000000000000000000e+00,5.000000000000000000e+00,5.000000000000000000e+00,5.000000000000000000e+00,5.000000000000000000e+00,5.000000000000000000e+00,4.653773307800292969e+00,4.519685268402099609e+00,4.517704010009765625e+00,4.649408340454101562e+00,4.644770145416259766e+00,5.000000000000000000e+00,4.683711528778076172e+00,5.000000000000000000e+00,5.000000000000000000e+00,5.000000000000000000e+00,5.000000000000000000e+00,5.000000000000000000e+00,5.000000000000000000e+00,5.000000000000000000e+00,5.000000000000000000e+00,4.849070549011230469e+00,4.659208297729492188e+00,4.483654022216796875e+00,4.320848464965820312e+00,4.169452190399169922e+00,4.028305530548095703e+00,3.896403074264526367e+00,3.772864580154418945e+00,3.656919240951538086e+00,3.547887325286865234e+00,3.445169210433959961e+00,3.348231077194213867e+00,3.256599187850952148e+00,3.169848918914794922e+00,3.087600708007812500e+00,3.009512186050415039e+00,2.935276746749877930e+00,2.864614963531494141e+00,2.797275543212890625e+00,2.733029365539550781e+00,2.671668291091918945e+00,2.613001585006713867e+00,2.556856393814086914e+00,2.503072977066040039e+00,2.451505899429321289e+00,2.402020454406738281e+00,2.354493141174316406e+00,2.308810472488403320e+00,2.264866590499877930e+00,2.222564220428466797e+00,2.181813001632690430e+00,2.142529487609863281e+00,2.104635238647460938e+00,2.068058252334594727e+00,2.032731056213378906e+00,1.998590588569641113e+00,1.965577840805053711e+00,1.933637857437133789e+00,1.902719378471374512e+00,1.872774243354797363e+00,1.843756914138793945e+00
5.000000000000000000e+00,5.000000000000000000e+00,5.000000000000000000e+00,5.000000000000000000e+00,5.000000000000000000e+00,5.000000000000000000e+00,5.000000000000000000e+00,5.000000000000000000e+00,5.000000000000000000e+00,5.000000000000000000e+00,5.000000000000000000e+00,5.000000000000000000e+00,5.000000000000000000e+00,5.000000000000000000e+00,5.000000000000000000e+00,5.000000000000000000e+00,5.000000000000000000e+00,5.000000000000000000e+00,5.000000000000000000e+00,5.000000000000000000e+00,5.000000000000000000e+00,5.000000000000000000e+00,5.000000000000000000e+00,5.000000000000000000e+00,4.631632804870605469e+00,4.483042716979980469e+00,4.477691173553466797e+00,4.645512580871582031e+00,4.644791603088378906e+00,5.000000000000000000e+00,4.639900207519531250e+00,5.000000000000000000e+00,5.000000000000000000e+00,5.000000000000000000e+00,5.000000000000000000e+00,5.000000000000000000e+00,5.000000000000000000e+00,5.000000000000000000e+00,5.000000000000000000e+00,4.849207401275634766e+00,4.659335136413574219e+00,4.483771324157714844e+00,4.320957183837890625e+00,4.169553756713867188e+00,4.028400421142578125e+00,3.896491765975952148e+00,3.772947788238525391e+00,3.656996965408325195e+00,3.547960996627807617e+00,3.445238113403320312e+00,3.348296642303466797e+00,3.256660938262939453e+00,3.169907569885253906e+00,3.087655782699584961e+00,3.009565114974975586e+00,2.935326814651489258e+00,2.864662885665893555e+00,2.797321319580078125e+00,2.733072996139526367e+00,2.671710014343261719e+00,2.613041639328002930e+00,2.556894540786743164e+00,2.503109455108642578e+00,2.451540946960449219e+00,2.402053833007812500e+00,2.354525566101074219e+00,2.308841228485107422e+00,2.264896392822265625e+00,2.222592830657958984e+00,2.181840896606445312e+00,2.142556190490722656e+00,2.104661226272583008e+00,2.068083286285400391e+00,2.032755136489868164e+00,1.998613953590393066e+00,1.965600371360778809e+00,1.933659791946411133e+00,1.902740597724914551e+00,1.872794747352600098e+00,1.843776822090148926e+00
5.000000000000000000e+00,5.000000000000000000e+00,5.000000000000000000e+00,5.000000000000000000e+00,5.000000000000000000e+00,5.000000000000000000e+00,5.000000000000000000e+00,5.000000000000000000e+00,5.000000000000000000e+00,5.000000000000000000e+00,5.000000000000000000e+00,5.000000000000000000e+00,5.000000000000000000e+00,5.000000000000000000e+00,5.000000000000000000e+00,5.000000000000000000e+00,5.000000000000000000e+00,5.000000000000000000e+00,5.000000000000000000e+00,5.000000000000000000e+00,5.000000000000000000e+00,5.000000000000000000e+00,5.000000000000000000e+00,5.000000000000000000e+00,4.600678920745849609e+00,4.469163417816162109e+00,4.435623645782470703e+00,4.646661758422851562e+00,4.652022838592529297e+00,5.000000000000000000e+00,5.000000000000000000e+00,5.000000000000000000e+00,5.000000000000000000e+00,5.000000000000000000e+00,5.000000000000000000e+00,5.000000000000000000e+00,5.000000000000000000e+00,5.000000000000000000e+00,5.000000000000000000e+00,4.849344730377197266e+00,4.659461498260498047e+00,4.483888626098632812e+00,4.321065902709960938e+00,4.169654846191406250e+00,4.028494834899902344e+00,3.896580457687377930e+00,3.773030519485473633e+00,3.657075166702270508e+00,3.548034191131591797e+00,3.445307493209838867e+00,3.348361968994140625e+00,3.256722927093505859e+00,3.169965982437133789e+00,3.087711572647094727e+00,3.009618043899536133e+00,2.935377120971679688e+00,2.864710807800292969e+00,2.797366857528686523e+00,2.733116626739501953e+00,2.671751499176025391e+00,2.613081455230712891e+00,2.556932687759399414e+00,2.503146171569824219e+00,2.451575756072998047e+00,2.402087688446044922e+00,2.354557752609252930e+00,2.308872461318969727e+00,2.264926433563232422e+00,2.222621679306030273e+00,2.181868553161621094e+00,2.142582893371582031e+00,2.104686975479125977e+00,2.068108081817626953e+00,2.032779216766357422e+00,1.998637080192565918e+00,1.965623021125793457e+00,1.933681607246398926e+00,1.902761697769165039e+00,1.872815012931823730e+00,1.843796610832214355e+00
5.000000000000000000e+00,5.000000000000000000e+00,5.000000000000000000e+00,5.000000000000000000e+00,5.000000000000000000e+00,5.000000000000000000e+00,5.000000000000000000e+00,5.000000000000000000e+00,5.000000000000000000e+00,5.000000000000000000e+00,5.000000000000000000e+00,5.000000000000000000e+00,5.000000000000000000e+00,5.000000000000000000e+00,5.000000000000000000e+00,5.000000000000000000e+00,5.000000000000000000e+00,5.000000000000000000e+00,5.000000000000000000e+00,5.000000000000000000e+00,5.000000000000000000e+00,5.000000000000000000e+00,5.000000000000000000e+00,5.000000000000000000e+00,5.000000000000000000e+00,5.000000000000000000e+00,4.398496150970458984e+00,4.648371696472167969e+00,4.654092788696289062e+00,5.000000000000000000e+00,5.000000000000000000e+00,5.000000000000000000e+00,5.000000000000000000e+00,5.000000000000000000e+00,5.000000000000000000e+00,5.000000000000000000e+00,5.000000000000000000e+00,5.000000000000000000e+00,5.000000000000000000e+00,4.849482059478759766e+00,4.659587860107421875e+00,4.484005451202392578e+00,4.321175098419189453e+00,4.169756412506103516e+00,4.028589725494384766e+00,3.896669149398803711e+00,3.773113727569580078e+00,3.657153367996215820e+00,3.548107624053955078e+00,3.445376873016357422e+00,3.348427295684814453e+00,3.256784677505493164e+00,3.170024394989013672e+00,3.087767124176025391e+00,3.009670734405517578e+00,2.935427427291870117e+00,2.864758491516113281e+00,2.797412395477294922e+00,2.733160018920898438e+00,2.671792984008789062e+00,2.613121271133422852e+00,2.556970834732055664e+00,2.503182649612426758e+00,2.451611042022705078e+00,2.402121305465698242e+00,2.354590177536010742e+00,2.308903694152832031e+00,2.264956235885620117e+00,2.222650527954101562e+00,2.181896209716796875e+00,2.142609596252441406e+00,2.104712724685668945e+00,2.068133115768432617e+00,2.032803297042846680e+00,1.998660326004028320e+00,1.965645551681518555e+00,1.933703422546386719e+00,1.902782797813415527e+00,1.872835516929626465e+00,1.843816518783569336e+00
5.000000000000000000e+00,5.000000000000000000e+00,5.000000000000000000e+00,5.000000000000000000e+00,5.000000000000000000e+00,5.000000000000000000e+00,5.000000000000000000e+00,5.000000000000000000e+00,5.000000000000000000e+00,5.000000000000000000e+00,5.000000000000000000e+00,5.000000000000000000e+00,5.000000000000000000e+00,5.000000000000000000e+00,5.000000000000000000e+00,5.000000000000000000e+00,5.000000000000000000e+00,5.000000000000000000e+00,5.000000000000000000e+00,5.000000000000000000e+00,5.000000000000000000e+00,5.000000000000000000e+00,5.000000000000000000e+00,5.000000000000000000e+00,5.000000000000000000e+00,5.000000000000000000e+00,4.420539379119873047e+00,4.652806282043457031e+00,4.662669658660888672e+00,5.000000000000000000e+00,5.000000000000000000e+00,5.000000000000000000e+00,5.000000000000000000e+00,5.000000000000000000e+00,5.000000000000000000e+00,5.000000000000000000e+00,5.000000000000000000e+00,5.000000000000000000e+00,5.000000000000000000e+00,4.849618434906005859e+00,4.659714698791503906e+00,4.484123229980468750e+00,4.321283817291259766e+00,4.169857501983642578e+00,4.028684616088867188e+00,3.896757364273071289e+00,3.773196697235107422e+00,3.657231092453002930e+00,3.548181056976318359e+00,3.445445775985717773e+00,3.348492383956909180e+00,3.256846189498901367e+00,3.170083045959472656e+00,3.087822914123535156e+00,3.009723663330078125e+00,2.935477733612060547e+00,2.864806413650512695e+00,2.797458171844482422e+00,2.733203649520874023e+00,2.671834707260131836e+00,2.613161087036132812e+00,2.557008981704711914e+00,2.503219127655029297e+00,2.451646089553833008e+00,2.402154922485351562e+00,2.354622602462768555e+00,2.308934688568115234e+00,2.264986276626586914e+00,2.222679376602172852e+00,2.181924104690551758e+00,2.142636537551879883e+00,2.104738712310791016e+00,2.068158149719238281e+00,2.032827377319335938e+00,1.998683691024780273e+00,1.965667963027954102e+00,1.933725237846374512e+00,1.902804017066955566e+00,1.872856020927429199e+00,1.843836188316345215e+00
5.000000000000000000e+00,5.000000000000000000e+00,5.000000000000000000e+00,5.000000000000000000e+00,5.000000000000000000e+00,5.000000000000000000e+00,5.000000000000000000e+00,5.000000000000000000e+00,5.000000000000000000e+00,5.000000000000000000e+00,5.000000000000000000e+00,5.000000000000000000e+00,5.000000000000000000e+00,5.000000000000000000e+00,5.000000000000000000e+00,5.000000000000000000e+00,5.000000000000000000e+00,5.000000000000000000e+00,5.000000000000000000e+00,5.000000000000000000e+00,5.000000000000000000e+00,5.000000000000000000e+00,5.000000000000000000e+00,5.000000000000000000e+00,5.000000000000000000e+00,5.000000000000000000e+00,4.463512897491455078e+00,4.696893692016601562e+00,4.761604785919189453e+00,5.000000000000000000e+00,5.000000000000000000e+00,5.000000000000000000e+00,5.000000000000000000e+00,5.000000000000000000e+00,5.000000000000000000e+00,5.000000000000000000e+00,5.000000000000000000e+00,5.000000000000000000e+00,5.000000000000000000e+00,4.849756240844726562e+00,4.659841537475585938e+00,4.484240055084228516e+00,4.321392536163330078e+00,4.169959068298339844e+00,4.028779029846191406e+00,3.896846055984497070e+00,3.773279905319213867e+00,3.657309055328369141e+00,3.548254728317260742e+00,3.445514917373657227e+00,3.348557949066162109e+00,3.256908178329467773e+00,3.170141696929931641e+00,3.087878227233886719e+00,3.009776353836059570e+00,2.935527801513671875e+00,2.864854335784912109e+00,2.797503709793090820e+00,2.733247280120849609e+00,2.671876192092895508e+00,2.613200902938842773e+00,2.557047128677368164e+00,2.503255844116210938e+00,2.451681137084960938e+00,2.402188539505004883e+00,2.354655027389526367e+00,2.308965682983398438e+00,2.265016078948974609e+00,2.222708225250244141e+00,2.181951999664306641e+00,2.142663240432739258e+00,2.104764461517333984e+00,2.068182945251464844e+00,2.032851457595825195e+00,1.998707056045532227e+00,1.965690493583679199e+00,1.933746933937072754e+00,1.902825117111206055e+00,1.872876524925231934e+00,1.843855977058410645e+00
5.000000000000000000e+00,5.000000000000000000e+00,5.000000000000000000e+00,5.000000000000000000e+00,5.000000000000000000e+00,5.000000000000000000e+00,5.000000000000000000e+00,5.000000000000000000e+00,5.000000000000000000e+00,5.000000000000000000e+00,5.000000000000000000e+00,5.000000000000000000e+00,5.000000000000000000e+00,5.000000000000000000e+00,5.000000000000000000e+00,5.000000000000000000e+00,5.000000000000000000e+00,5.000000000000000000e+00,5.000000000000000000e+00,5.000000000000000000e+00,5.000000000000000000e+00,5.000000000000000000e+00,5.000000000000000000e+00,5.000000000000000000e+00,5.000000000000000000e+00,5.000000000000000000e+00,4.478928089141845703e+00,4.744764328002929688e+00,5.000000000000000000e+00,5.000000000000000000e+00,5.000000000000000000e+00,5.000000000000000000e+00,5.000000000000000000e+00,5.000000000000000000e+00,5.000000000000000000e+00,5.000000000000000000e+00,5.000000000000000000e+00,5.000000000000000000e+00,5.000000000000000000e+00,4.849894046783447266e+00,4.659967899322509766e+00,4.484357833862304688e+00,4.321501731872558594e+00,4.170060634613037109e+00,4.028873920440673828e+00,3.896934747695922852e+00,3.773362636566162109e+00,3.657387256622314453e+00,3.548327684402465820e+00,3.445584297180175781e+00,3.348623037338256836e+00,3.256970167160034180e+00,3.170200109481811523e+00,3.087934017181396484e+00,3.009829044342041016e+00,2.935578107833862305e+00,2.864902257919311523e+00,2.797549486160278320e+00,2.733290910720825195e+00,2.671917915344238281e+00,2.613240718841552734e+00,2.557085275650024414e+00,2.503292322158813477e+00,2.451716184616088867e+00,2.402222394943237305e+00,2.354687213897705078e+00,2.308996915817260742e+00,2.265045881271362305e+00,2.222737073898315430e+00,2.181979656219482422e+00,2.142689943313598633e+00,2.104790449142456055e+00,2.068207979202270508e+00,2.032875776290893555e+00,1.998730421066284180e+00,1.965713024139404297e+00,1.933768749237060547e+00,1.902846336364746094e+00,1.872897028923034668e+00,1.843875885009765625e+00
5.000000000000000000e+00,5.000000000000000000e+00,5.000000000000000000e+00,5.000000000000000000e+00,5.000000000000000000e+00,5.000000000000000000e+00,5.000000000000000000e+00,5.000000000000000000e+00,5.000000000000000000e+00,5.000000000000000000e+00,5.000000000000000000e+00,5.000000000000000000e+00,5.000000000000000000e+00,5.000000000000000000e+00,5.000000000000000000e+00,5.000000000000000000e+00,5.000000000000000000e+00,5.000000000000000000e+00,5.000000000000000000e+00,5.000000000000000000e+00,5.000000000000000000e+00,5.000000000000000000e+00,5.000000000000000000e+00,5.000000000000000000e+00,5.000000000000000000e+00,5.000000000000000000e+00,4.494379043579101562e+00,4.769072532653808594e+00,5.000000000000000000e+00,5.000000000000000000e+00,5.000000000000000000e+00,5.000000000000000000e+00,5.000000000000000000e+00,5.000000000000000000e+00,5.000000000000000000e+00,5.000000000000000000e+00,5.000000000000000000e+00,5.000000000000000000e+00,5.000000000000000000e+00,4.850031852722167969e+00,4.660094738006591797e+00,4.484474182128906250e+00,4.321610450744628906e+00,4.170161724090576172e+00,4.028968334197998047e+00,3.897022962570190430e+00,3.773445844650268555e+00,3.657464742660522461e+00,3.548401117324829102e+00,3.445653676986694336e+00,3.348688602447509766e+00,3.257032155990600586e+00,3.170258998870849609e+00,3.087989568710327148e+00,3.009881973266601562e+00,2.935628414154052734e+00,2.864949941635131836e+00,2.797595024108886719e+00,2.733334302902221680e+00,2.671959638595581055e+00,2.613280534744262695e+00,2.557123422622680664e+00,2.503328800201416016e+00,2.451751232147216797e+00,2.402256011962890625e+00,2.354719638824462891e+00,2.309028148651123047e+00,2.265075922012329102e+00,2.222765922546386719e+00,2.182007312774658203e+00,2.142716884613037109e+00,2.104816198348999023e+00,2.068232774734497070e+00,2.032899618148803711e+00,1.998753666877746582e+00,1.965735673904418945e+00,1.933790564537048340e+00,1.902867197990417480e+00,1.872917532920837402e+00,1.843895792961120605e+00
5.000000000000000000e+00,5.000000000000000000e+00,5.000000000000000000e+00,5.000000000000000000e+00,5.000000000000000000e+00,5.000000000000000000e+00,5.000000000000000000e+00,5.000000000000000000e+00,5.000000000000000000e+00,5.000000000000000000e+00,5.000000000000000000e+00,5.000000000000000000e+00,5.000000000000000000e+00,5.000000000000000000e+00,5.000000000000000000e+00,5.000000000000000000e+00,5.000000000000000000e+00,5.000000000000000000e+00,5.000000000000000000e+00,5.000000000000000000e+00,5.000000000000000000e+00,5.000000000000000000e+00,5.000000000000000000e+00,5.000000000000000000e+00,5.000000000000000000e+00,5.000000000000000000e+00,4.519457817077636719e+00,4.801616668701171875e+00,5.000000000000000000e+00,5.000000000000000000e+00,5.000000000000000000e+00,5.000000000000000000e+00,5.000000000000000000e+00,5.000000000000000000e+00,5.000000000000000000e+00,5.000000000000000000e+00,5.000000000000000000e+00,5.000000000000000000e+00,5.000000000000000000e+00,4.850169181823730469e+00,4.660222053527832031e+00,4.484591960906982422e+00,4.321719169616699219e+00,4.170263290405273438e+00,4.029063224792480469e+00,3.897111654281616211e+00,3.773528814315795898e+00,3.657542943954467773e+00,3.548474788665771484e+00,3.445722579956054688e+00,3.348754167556762695e+00,3.257093667984008789e+00,3.170317649841308594e+00,3.088045120239257812e+00,3.009934902191162109e+00,2.935678482055664062e+00,2.864997863769531250e+00,2.797640800476074219e+00,2.733377933502197266e+00,2.672001361846923828e+00,2.613320350646972656e+00,2.557161569595336914e+00,2.503365278244018555e+00,2.451786279678344727e+00,2.402289628982543945e+00,2.354752063751220703e+00,2.309058904647827148e+00,2.265105962753295898e+00,2.222794532775878906e+00,2.182035207748413086e+00,2.142743587493896484e+00,2.104841947555541992e+00,2.068257808685302734e+00,2.032923936843872070e+00,1.998777031898498535e+00,1.965758204460144043e+00,1.933812379837036133e+00,1.902888417243957520e+00,1.872938036918640137e+00,1.843915581703186035e+00
5.000000000000000000e+00,5.000000000000000000e+00,5.000000000000000000e+00,5.000000000000000000e+00,5.000000000000000000e+00,5.000000000000000000e+00,5.000000000000000000e+00,5.000000000000000000e+00,5.000000000000000000e+00,5.000000000000000000e+00,5.000000000000000000e+00,5.000000000000000000e+00,5.000000000000000000e+00,5.000000000000000000e+00,5.000000000000000000e+00,5.000000000000000000e+00,5.000000000000000000e+00,5.000000000000000000e+00,5.000000000000000000e+00,5.000000000000000000e+00,5.000000000000000000e+00,5.000000000000000000e+00,5.000000000000000000e+00,5.000000000000000000e+00,5.000000000000000000e+00,5.000000000000000000e+00,4.510672569274902344e+00,4.866747379302978516e+00,5.000000000000000000e+00,5.000000000000000000e+00,5.000000000000000000e+00,5.000000000000000000e+00,5.000000000000000000e+00,5.000000000000000000e+00,5.000000000000000000e+00,5.000000000000000000e+00,5.000000000000000000e+00,5.000000000000000000e+00,5.000000000000000000e+00,4.850306987762451172e+00,4.660349369049072266e+00,4.484709739685058594e+00,4.321828365325927734e+00,4.170364856719970703e+00,4.029157638549804688e+00,3.897200107574462891e+00,3.773611545562744141e+00,3.657621145248413086e+00,3.548547983169555664e+00,3.445791959762573242e+00,3.348819255828857422e+00,3.257155656814575195e+00,3.170376300811767578e+00,3.088100671768188477e+00,3.009987831115722656e+00,2.935728788375854492e+00,2.865046024322509766e+00,2.797686338424682617e+00,2.733421564102172852e+00,2.672042846679687500e+00,2.613360166549682617e+00,2.557199478149414062e+00,2.503401994705200195e+00,2.451821327209472656e+00,2.402323246002197266e+00,2.354784250259399414e+00,2.309090137481689453e+00,2.265135765075683594e+00,2.222823381423950195e+00,2.182063102722167969e+00,2.142770290374755859e+00,2.104867935180664062e+00,2.068282842636108398e+00,2.032948017120361328e+00,1.998800158500671387e+00,1.965780735015869141e+00,1.933834314346313477e+00,1.902909517288208008e+00,1.872958302497863770e+00,1.843935489654541016e+00
4.874271869659423828e+00,4.873074531555175781e+00,4.871878147125244141e+00,4.870682239532470703e+00,4.869486808776855469e+00,4.868292331695556641e+00,4.867097854614257812e+00,4.865904331207275391e+00,4.864711284637451172e+00,4.863519191741943359e+00,4.862327098846435547e+00,4.861135959625244141e+00,4.859945297241210938e+00,4.858755588531494141e+00,4.857565879821777344e+00,4.856377124786376953e+00,4.855188846588134766e+00,4.854001522064208984e+00,4.852813720703125000e+00,4.851627349853515625e+00,4.850441455841064453e+00,4.849256038665771484e+00,4.848071575164794922e+00,4.846887111663818359e+00,4.845703601837158203e+00,4.844520568847656250e+00,4.417581081390380859e+00,4.744724273681640625e+00,4.840974807739257812e+00,4.839793682098388672e+00,4.838613510131835938e+00,4.837433815002441406e+00,4.836255073547363281e+00,4.835076332092285156e+00,4.833898544311523438e+00,4.832721233367919922e+00,4.831544399261474609e+00,4.830368518829345703e+00,4.829192638397216797e+00,4.828017711639404297e+00,4.660476684570312500e+00,4.484827518463134766e+00,4.321937561035156250e+00,4.170465946197509766e+00,4.029252529144287109e+00,3.897289037704467773e+00,3.773694753646850586e+00,3.657699108123779297e+00,3.548621416091918945e+00,3.445861339569091797e+00,3.348884820938110352e+00,3.257217645645141602e+00,3.170434713363647461e+00,3.088156461715698242e+00,3.010040521621704102e+00,2.935779333114624023e+00,2.865093708038330078e+00,2.797732114791870117e+00,2.733464956283569336e+00,2.672084569931030273e+00,2.613400220870971680e+00,2.557237863540649414e+00,2.503438711166381836e+00,2.451856374740600586e+00,2.402356863021850586e+00,2.354816675186157227e+00,2.309121370315551758e+00,2.265165805816650391e+00,2.222852230072021484e+00,2.182090759277343750e+00,2.142797231674194336e+00,2.104893684387207031e+00,2.068307638168334961e+00,2.032972097396850586e+00,1.998823523521423340e+00,1.965803146362304688e+00,1.933856129646301270e+00,1.902930736541748047e+00,1.872978806495666504e+00,1.843955278396606445e+00
3.777315378189086914e+00,3.776596307754516602e+00,3.775877714157104492e+00,3.775159358978271484e+00,3.774441242218017578e+00,3.773723363876342773e+00,3.773005962371826172e+00,3.772288560867309570e+00,3.771571636199951172e+00,3.770854949951171875e+00,3.770138263702392578e+00,3.769422292709350586e+00,3.768706321716308594e+00,3.767990589141845703e+00,3.767275333404541016e+00,3.766560316085815430e+00,3.765845298767089844e+00,3.765130758285522461e+00,3.764416456222534180e+00,3.763702392578125000e+00,3.762988805770874023e+00,3.762275218963623047e+00,3.761562108993530273e+00,3.760849237442016602e+00,3.760136127471923828e+00,3.759423732757568359e+00,3.758711576461791992e+00,3.757999658584594727e+00,3.757288217544555664e+00,3.756576776504516602e+00,3.755865812301635742e+00,3.755155086517333984e+00,3.754444599151611328e+00,3.753734350204467773e+00,3.753024339675903320e+00,3.752314567565917969e+00,3.751605272293090820e+00,3.750895977020263672e+00,3.750187158584594727e+00,3.749478578567504883e+00,3.748770236968994141e+00,3.748061895370483398e+00,3.747354269027709961e+00,3.746646642684936523e+00,3.745939254760742188e+00,3.745232343673706055e+00,3.744525671005249023e+00,3.657777070999145508e+00,3.548695087432861328e+00,3.445930242538452148e+00,3.348950386047363281e+00,3.257279396057128906e+00,3.170493364334106445e+00,3.088212251663208008e+00,3.010093450546264648e+00,2.935829639434814453e+00,2.865141630172729492e+00,2.797777652740478516e+00,2.733508586883544922e+00,2.672126293182373047e+00,2.613439798355102539e+00,2.557276010513305664e+00,2.503474950790405273e+00,2.451891422271728516e+00,2.402390480041503906e+00,2.354849100112915039e+00,2.309152364730834961e+00,2.265195608139038086e+00,2.222881078720092773e+00,2.182118415832519531e+00,2.142823934555053711e+00,2.104919433593750000e+00,2.068332672119140625e+00,2.032996177673339844e+00,1.998846769332885742e+00,1.965825676918029785e+00,1.933877944946289062e+00,1.902951836585998535e+00,1.872999191284179688e+00,1.843974947929382324e+00
3.083396434783935547e+00,3.082917451858520508e+00,3.082438468933105469e+00,3.081959724426269531e+00,3.081480979919433594e+00,3.081002712249755859e+00,3.080523967742919922e+00,3.080045938491821289e+00,3.079567909240722656e+00,3.079090118408203125e+00,3.078612327575683594e+00,3.078134775161743164e+00,3.077657222747802734e+00,3.077179908752441406e+00,3.076702833175659180e+00,3.076225996017456055e+00,3.075749158859252930e+00,3.075272321701049805e+00,3.074795722961425781e+00,3.074319362640380859e+00,3.073843240737915039e+00,3.073367118835449219e+00,3.072891235351562500e+00,3.072415351867675781e+00,3.071939706802368164e+00,3.071464300155639648e+00,3.070988893508911133e+00,3.070513725280761719e+00,3.070038557052612305e+00,3.069563388824462891e+00,3.069088697433471680e+00,3.068614006042480469e+00,3.068139553070068359e+00,3.067665100097656250e+00,3.067191123962402344e+00,3.066716909408569336e+00,3.066243171691894531e+00,3.065769433975219727e+00,3.065295934677124023e+00,3.064822435379028320e+00,3.064349174499511719e+00,3.063875913619995117e+00,3.063402891159057617e+00,3.062930107116699219e+00,3.062457323074340820e+00,3.061984777450561523e+00,3.061512470245361328e+00,3.061040163040161133e+00,3.060567855834960938e+00,3.060096025466918945e+00,3.059624195098876953e+00,3.059152364730834961e+00,3.058680772781372070e+00,3.058209180831909180e+00,3.010146379470825195e+00,2.935879707336425781e+00,2.865189552307128906e+00,2.797823429107666016e+00,2.733552455902099609e+00,2.672167778015136719e+00,2.613479852676391602e+00,2.557313919067382812e+00,2.503511667251586914e+00,2.451926469802856445e+00,2.402424097061157227e+00,2.354881286621093750e+00,2.309183359146118164e+00,2.265225648880004883e+00,2.222909927368164062e+00,2.182146310806274414e+00,2.142850637435913086e+00,2.104945421218872070e+00,2.068357467651367188e+00,2.033020257949829102e+00,1.998870134353637695e+00,1.965848207473754883e+00,1.933899521827697754e+00,1.902972936630249023e+00,1.873019695281982422e+00,1.843994855880737305e+00
2.604864597320556641e+00,2.604522705078125000e+00,2.604180812835693359e+00,2.603839159011840820e+00,2.603497505187988281e+00,2.603155851364135742e+00,2.602814435958862305e+00,2.602473020553588867e+00,2.602131843566894531e+00,2.601790666580200195e+00,2.601449489593505859e+00,2.601108551025390625e+00,2.600767374038696289e+00,2.600426435470581055e+00,2.600085735321044922e+00,2.599745035171508789e+00,2.599404573440551758e+00,2.599064111709594727e+00,2.598723649978637695e+00,2.598383426666259766e+00,2.598043203353881836e+00,2.597702980041503906e+00,2.597362995147705078e+00,2.597023010253906250e+00,2.596683263778686523e+00,2.596343517303466797e+00,2.596003770828247070e+00,2.595664262771606445e+00,2.595324754714965820e+00,2.594985246658325195e+00,2.594645977020263672e+00,2.594306707382202148e+00,2.593967676162719727e+00,2.593628644943237305e+00,2.593289613723754883e+00,2.592950582504272461e+00,2.592611789703369141e+00,2.592272996902465820e+00,2.591934442520141602e+00,2.591595888137817383e+00,2.591257572174072266e+00,2.590919017791748047e+00,2.590580940246582031e+00,2.590242624282836914e+00,2.589904546737670898e+00,2.589566707611083984e+00,2.589228868484497070e+00,2.588891029357910156e+00,2.588553190231323242e+00,2.588215589523315430e+00,2.587877988815307617e+00,2.587540626525878906e+00,2.587203264236450195e+00,2.586865901947021484e+00,2.586528778076171875e+00,2.586191654205322266e+00,2.585854530334472656e+00,2.585517644882202148e+00,2.585180759429931641e+00,2.584843873977661133e+00,2.584507226943969727e+00,2.557352066040039062e+00,2.503548145294189453e+00,2.451961517333984375e+00,2.402457952499389648e+00,2.354913711547851562e+00,2.309214591979980469e+00,2.265255451202392578e+00,2.222938776016235352e+00,2.182173967361450195e+00,2.142877578735351562e+00,2.104971170425415039e+00,2.068382501602172852e+00,2.033044338226318359e+00,1.998893499374389648e+00,1.965870857238769531e+00,1.933921456336975098e+00,1.902994155883789062e+00,1.873040199279785156e+00,1.844014763832092285e+00
2.254951000213623047e+00,2.254693031311035156e+00,2.254435300827026367e+00,2.254177331924438477e+00,2.253919601440429688e+00,2.253661870956420898e+00,2.253404140472412109e+00,2.253146648406982422e+00,2.252889156341552734e+00,2.252631664276123047e+00,2.252374172210693359e+00,2.252116918563842773e+00,2.251859664916992188e+00,2.251602411270141602e+00,2.251345396041870117e+00,2.251088142395019531e+00,2.250831127166748047e+00,2.250574111938476562e+00,2.250317335128784180e+00,2.250060319900512695e+00,2.249803543090820312e+00,2.249546766281127930e+00,2.249289989471435547e+00,2.249033451080322266e+00,2.248777389526367188e+00,2.248522520065307617e+00,2.248267889022827148e+00,2.248013019561767578e+00,2.247758388519287109e+00,2.247503995895385742e+00,2.247249364852905273e+00,2.246994972229003906e+00,2.246740579605102539e+00,2.246486186981201172e+00,2.246231794357299805e+00,2.245977640151977539e+00,2.245723485946655273e+00,2.245469093322753906e+00,2.245215177536010742e+00,2.244961023330688477e+00,2.244707107543945312e+00,2.244453191757202148e+00,2.244199275970458984e+00,2.243945598602294922e+00,2.243691682815551758e+00,2.243438005447387695e+00,2.243184566497802734e+00,2.242930889129638672e+00,2.242677450180053711e+00,2.242424011230468750e+00,2.242170572280883789e+00,2.241917371749877930e+00,2.241663932800292969e+00,2.241410732269287109e+00,2.241157531738281250e+00,2.240904569625854492e+00,2.240651369094848633e+00,2.240398406982421875e+00,2.240145683288574219e+00,2.239892721176147461e+00,2.239639997482299805e+00,2.239387035369873047e+00,2.239134311676025391e+00,2.238881826400756836e+00,2.238629102706909180e+00,2.238376617431640625e+00,2.238124132156372070e+00,2.237871646881103516e+00,2.222967624664306641e+00,2.182201862335205078e+00,2.142904281616210938e+00,2.104996919631958008e+00,2.068407535552978516e+00,2.033068418502807617e+00,1.998916864395141602e+00,1.965893387794494629e+00,1.933943271636962891e+00,1.903015017509460449e+00,1.873060703277587891e+00,1.844034552574157715e+00
1.987987160682678223e+00,1.987786650657653809e+00,1.987586259841918945e+00,1.987385869026184082e+00,1.987185359001159668e+00,1.986985087394714355e+00,1.986784815788269043e+00,1.986584663391113281e+00,1.986384510993957520e+00,1.986184358596801758e+00,1.985984086990356445e+00,1.985784053802490234e+00,1.985584020614624023e+00,1.985384106636047363e+00,1.985184192657470703e+00,1.984984278678894043e+00,1.984784483909606934e+00,1.984584450721740723e+00,1.984384655952453613e+00,1.984184861183166504e+00,1.983985304832458496e+00,1.983785629272460938e+00,1.983586072921752930e+00,1.983386516571044922e+00,1.983186721801757812e+00,1.982987284660339355e+00,1.982787847518920898e+00,1.982588410377502441e+00,1.982389092445373535e+00,1.982189774513244629e+00,1.981990218162536621e+00,1.981791019439697266e+00,1.981591820716857910e+00,1.981392621994018555e+00,1.981193542480468750e+00,1.980994462966918945e+00,1.980795383453369141e+00,1.980596184730529785e+00,1.980397224426269531e+00,1.980198264122009277e+00,1.979999423027038574e+00,1.979800581932067871e+00,1.979601740837097168e+00,1.979403018951416016e+00,1.979204058647155762e+00,1.979005455970764160e+00,1.978806734085083008e+00,1.978608131408691406e+00,1.978409647941589355e+00,1.978211045265197754e+00,1.978012561798095703e+00,1.977813959121704102e+00,1.977615475654602051e+00,1.977417111396789551e+00,1.977218866348266602e+00,1.977020502090454102e+00,1.976822376251220703e+00,1.976623892784118652e+00,1.976425766944885254e+00,1.976227641105651855e+00,1.976029515266418457e+00,1.975831508636474609e+00,1.975633502006530762e+00,1.975435495376586914e+00,1.975237369537353516e+00,1.975039482116699219e+00,1.974841594696044922e+00,1.974643826484680176e+00,1.974446058273315430e+00,1.974248290061950684e+00,1.974050641059875488e+00,1.973852753639221191e+00,1.973655223846435547e+00,1.973457574844360352e+00,1.973260045051574707e+00,1.965915918350219727e+00,1.933965086936950684e+00,1.903036236763000488e+00,1.873081207275390625e+00,1.844054460525512695e+00
1.777543663978576660e+00,1.777383208274841309e+00,1.777222990989685059e+00,1.777062773704528809e+00,1.776902675628662109e+00,1.776742458343505859e+00,1.776582360267639160e+00,1.776422142982482910e+00,1.776262044906616211e+00,1.776102066040039062e+00,1.775942087173461914e+00,1.775782108306884766e+00,1.775622129440307617e+00,1.775462269783020020e+00,1.775302171707153320e+00,1.775142312049865723e+00,1.774982452392578125e+00,1.774822711944580078e+00,1.774662971496582031e+00,1.774503231048583984e+00,1.774343490600585938e+00,1.774183630943298340e+00,1.774024009704589844e+00,1.773864388465881348e+00,1.773704767227172852e+00,1.773545145988464355e+00,1.773385643959045410e+00,1.773226022720336914e+00,1.773066520690917969e+00,1.772907018661499023e+00,1.772747635841369629e+00,1.772588253021240234e+00,1.772428870201110840e+00,1.772269487380981445e+00,1.772109985351562500e+00,1.771950721740722656e+00,1.771791458129882812e+00,1.771632313728332520e+00,1.771473050117492676e+00,1.771313905715942383e+00,1.771154761314392090e+00,1.770995497703552246e+00,1.770836472511291504e+00,1.770677328109741211e+00,1.770518302917480469e+00,1.770359396934509277e+00,1.770200371742248535e+00,1.770041465759277344e+00,1.769882321357727051e+00,1.769723534584045410e+00,1.769564628601074219e+00,1.769405841827392578e+00,1.769247055053710938e+00,1.769088268280029297e+00,1.768929362297058105e+00,1.768770575523376465e+00,1.768611907958984375e+00,1.768453240394592285e+00,1.768294692039489746e+00,1.768136024475097656e+00,1.767977476119995117e+00,1.767818808555603027e+00,1.767660260200500488e+00,1.767501831054687500e+00,1.767343401908874512e+00,1.767184972763061523e+00,1.767026543617248535e+00,1.766868233680725098e+00,1.766709685325622559e+00,1.766551375389099121e+00,1.766393065452575684e+00,1.766234874725341797e+00,1.766076564788818359e+00,1.765918374061584473e+00,1.765760064125061035e+00,1.765601873397827148e+00,1.765443801879882812e+00,1.765285730361938477e+00,1.765127778053283691e+00,1.764969706535339355e+00
1.607389211654663086e+00,1.607258200645446777e+00,1.607127070426940918e+00,1.606996059417724609e+00,1.606864929199218750e+00,1.606734037399291992e+00,1.606603145599365234e+00,1.606472134590148926e+00,1.606341242790222168e+00,1.606210350990295410e+00,1.606079578399658203e+00,1.605948567390441895e+00,1.605817794799804688e+00,1.605687022209167480e+00,1.605556249618530273e+00,1.605425477027893066e+00,1.605294704437255859e+00,1.605164051055908203e+00,1.605033159255981445e+00,1.604902505874633789e+00,1.604771852493286133e+00,1.604641318321228027e+00,1.604510664939880371e+00,1.604380130767822266e+00,1.604249596595764160e+00,1.604118824005126953e+00,1.603988409042358398e+00,1.603857874870300293e+00,1.603727459907531738e+00,1.603596925735473633e+00,1.603466510772705078e+00,1.603335976600646973e+00,1.603205561637878418e+00,1.603075265884399414e+00,1.602944850921630859e+00,1.602814555168151855e+00,1.602684259414672852e+00,1.602553963661193848e+00,1.602423548698425293e+00,1.602293372154235840e+00,1.602163076400756836e+00,1.602032899856567383e+00,1.601902723312377930e+00,1.601772665977478027e+00,1.601642489433288574e+00,1.601512193679809570e+00,1.601382136344909668e+00,1.601252079010009766e+00,1.601122021675109863e+00,1.600991964340209961e+00,1.600862026214599609e+00,1.600731849670410156e+00,1.600601911544799805e+00,1.600471973419189453e+00,1.600342035293579102e+00,1.600212216377258301e+00,1.600082278251647949e+00,1.599952340126037598e+00,1.599822402000427246e+00,1.599692583084106445e+00,1.599562764167785645e+00,1.599433064460754395e+00,1.599303245544433594e+00,1.599173545837402344e+00,1.599043846130371094e+00,1.598914027214050293e+00,1.598784327507019043e+00,1.598654747009277344e+00,1.598525047302246094e+00,1.598395466804504395e+00,1.598265886306762695e+00,1.598136305809020996e+00,1.598006606101989746e+00,1.597877144813537598e+00,1.597747683525085449e+00,1.597618222236633301e+00,1.597488760948181152e+00,1.597359299659729004e+00,1.597229719161987305e+00,1.597100377082824707e+00
1.466964840888977051e+00,1.466855525970458984e+00,1.466746449470520020e+00,1.466637372970581055e+00,1.466528177261352539e+00,1.466419100761413574e+00,1.466310024261474609e+00,1.466201066970825195e+00,1.466091871261596680e+00,1.465982794761657715e+00,1.465873837471008301e+00,1.465764880180358887e+00,1.465655922889709473e+00,1.465546965599060059e+00,1.465438008308410645e+00,1.465328931808471680e+00,1.465219974517822266e+00,1.465111136436462402e+00,1.465002298355102539e+00,1.464893341064453125e+00,1.464784502983093262e+00,1.464675784111022949e+00,1.464566826820373535e+00,1.464457988739013672e+00,1.464349269866943359e+00,1.464240431785583496e+00,1.464131712913513184e+00,1.464022994041442871e+00,1.463914155960083008e+00,1.463805437088012695e+00,1.463696718215942383e+00,1.463588118553161621e+00,1.463479518890380859e+00,1.463370800018310547e+00,1.463262200355529785e+00,1.463153481483459473e+00,1.463044881820678711e+00,1.462936401367187500e+00,1.462827801704406738e+00,1.462719321250915527e+00,1.462610721588134766e+00,1.462502241134643555e+00,1.462393641471862793e+00,1.462285161018371582e+00,1.462176680564880371e+00,1.462068319320678711e+00,1.461959838867187500e+00,1.461851477622985840e+00,1.461742997169494629e+00,1.461634635925292969e+00,1.461526274681091309e+00,1.461417913436889648e+00,1.461309552192687988e+00,1.461201310157775879e+00,1.461092948913574219e+00,1.460984587669372559e+00,1.460876345634460449e+00,1.460768103599548340e+00,1.460659861564636230e+00,1.460551619529724121e+00,1.460443377494812012e+00,1.460335254669189453e+00,1.460227012634277344e+00,1.460118770599365234e+00,1.460010647773742676e+00,1.459902524948120117e+00,1.459794402122497559e+00,1.459686398506164551e+00,1.459578275680541992e+00,1.459470152854919434e+00,1.459362149238586426e+00,1.459254026412963867e+00,1.459146022796630859e+00,1.459038138389587402e+00,1.458930134773254395e+00,1.458822011947631836e+00,1.458714127540588379e+00,1.458606123924255371e+00,1.458498239517211914e+00,1.458390355110168457e+00
1.349104523658752441e+00,1.349012255668640137e+00,1.348919868469238281e+00,1.348827600479125977e+00,1.348735332489013672e+00,1.348642945289611816e+00,1.348550677299499512e+00,1.348458528518676758e+00,1.348366260528564453e+00,1.348274111747741699e+00,1.348181843757629395e+00,1.348089694976806641e+00,1.347997426986694336e+00,1.347905278205871582e+00,1.347813129425048828e+00,1.347720980644226074e+00,1.347628831863403320e+00,1.347536683082580566e+00,1.347444653511047363e+00,1.347352385520935059e+00,1.347260355949401855e+00,1.347168326377868652e+00,1.347076296806335449e+00,1.346984267234802246e+00,1.346892237663269043e+00,1.346800088882446289e+00,1.346708059310913086e+00,1.346616148948669434e+00,1.346524119377136230e+00,1.346432209014892578e+00,1.346340179443359375e+00,1.346248269081115723e+00,1.346156239509582520e+00,1.346064329147338867e+00,1.345972418785095215e+00,1.345880508422851562e+00,1.345788717269897461e+00,1.345696806907653809e+00,1.345604896545410156e+00,1.345512986183166504e+00,1.345421195030212402e+00,1.345329403877258301e+00,1.345237612724304199e+00,1.345145821571350098e+00,1.345054030418395996e+00,1.344962239265441895e+00,1.344870448112487793e+00,1.344778656959533691e+00,1.344686985015869141e+00,1.344595193862915039e+00,1.344503521919250488e+00,1.344411849975585938e+00,1.344320058822631836e+00,1.344228386878967285e+00,1.344136714935302734e+00,1.344045162200927734e+00,1.343953490257263184e+00,1.343861818313598633e+00,1.343770265579223633e+00,1.343678593635559082e+00,1.343587040901184082e+00,1.343495488166809082e+00,1.343403935432434082e+00,1.343312382698059082e+00,1.343220829963684082e+00,1.343129277229309082e+00,1.343037724494934082e+00,1.342946171760559082e+00,1.342854738235473633e+00,1.342763304710388184e+00,1.342671871185302734e+00,1.342580437660217285e+00,1.342488884925842285e+00,1.342397451400756836e+00,1.342306017875671387e+00,1.342214703559875488e+00,1.342123270034790039e+00,1.342031955718994141e+00,1.341940522193908691e+00,1.341849088668823242e+00
1.248774409294128418e+00,1.248695373535156250e+00,1.248616218566894531e+00,1.248537063598632812e+00,1.248458027839660645e+00,1.248378992080688477e+00,1.248299956321716309e+00,1.248220920562744141e+00,1.248141884803771973e+00,1.248062729835510254e+00,1.247983813285827637e+00,1.247904777526855469e+00,1.247825741767883301e+00,1.247746825218200684e+00,1.247667789459228516e+00,1.247588872909545898e+00,1.247509837150573730e+00,1.247430920600891113e+00,1.247352004051208496e+00,1.247273087501525879e+00,1.247194170951843262e+00,1.247115254402160645e+00,1.247036337852478027e+00,1.246957421302795410e+00,1.246878504753112793e+00,1.246799707412719727e+00,1.246720910072326660e+00,1.246641993522644043e+00,1.246563196182250977e+00,1.246484279632568359e+00,1.246405482292175293e+00,1.246326684951782227e+00,1.246247887611389160e+00,1.246169090270996094e+00,1.246090412139892578e+00,1.246011614799499512e+00,1.245932698249816895e+00,1.245854020118713379e+00,1.245775341987609863e+00,1.245696544647216797e+00,1.245617866516113281e+00,1.245539188385009766e+00,1.245460510253906250e+00,1.245381712913513184e+00,1.245303034782409668e+00,1.245224356651306152e+00,1.245145797729492188e+00,1.245067119598388672e+00,1.244988441467285156e+00,1.244909763336181641e+00,1.244831204414367676e+00,1.244752526283264160e+00,1.244673967361450195e+00,1.244595408439636230e+00,1.244516849517822266e+00,1.244438290596008301e+00,1.244359612464904785e+00,1.244281172752380371e+00,1.244202613830566406e+00,1.244124054908752441e+00,1.244045615196228027e+00,1.243967056274414062e+00,1.243888616561889648e+00,1.243810057640075684e+00,1.243731498718261719e+00,1.243653059005737305e+00,1.243574619293212891e+00,1.243496179580688477e+00,1.243417739868164062e+00,1.243339300155639648e+00,1.243260860443115234e+00,1.243182420730590820e+00,1.243104100227355957e+00,1.243025660514831543e+00,1.242947340011596680e+00,1.242869019508361816e+00,1.242790579795837402e+00,1.242712259292602539e+00,1.242633819580078125e+00,1.242555618286132812e+00
1.162333965301513672e+00,1.162265539169311523e+00,1.162196993827819824e+00,1.162128448486328125e+00,1.162060022354125977e+00,1.161991477012634277e+00,1.161922931671142578e+00,1.161854386329650879e+00,1.161785960197448730e+00,1.161717534065246582e+00,1.161649107933044434e+00,1.161580562591552734e+00,1.161512136459350586e+00,1.161443710327148438e+00,1.161375284194946289e+00,1.161306858062744141e+00,1.161238431930541992e+00,1.161170005798339844e+00,1.161101698875427246e+00,1.161033272743225098e+00,1.160964846611022949e+00,1.160896420478820801e+00,1.160828113555908203e+00,1.160759687423706055e+00,1.160691380500793457e+00,1.160623073577880859e+00,1.160554647445678711e+00,1.160486340522766113e+00,1.160418033599853516e+00,1.160349726676940918e+00,1.160281419754028320e+00,1.160213112831115723e+00,1.160144925117492676e+00,1.160076498985290527e+00,1.160008311271667480e+00,1.159940004348754883e+00,1.159871816635131836e+00,1.159803509712219238e+00,1.159735321998596191e+00,1.159667134284973145e+00,1.159598827362060547e+00,1.159530639648437500e+00,1.159462451934814453e+00,1.159394264221191406e+00,1.159326076507568359e+00,1.159257888793945312e+00,1.159189581871032715e+00,1.159121513366699219e+00,1.159053325653076172e+00,1.158985137939453125e+00,1.158917069435119629e+00,1.158848881721496582e+00,1.158780813217163086e+00,1.158712625503540039e+00,1.158644556999206543e+00,1.158576488494873047e+00,1.158508300781250000e+00,1.158440232276916504e+00,1.158372163772583008e+00,1.158304214477539062e+00,1.158236026763916016e+00,1.158167958259582520e+00,1.158100008964538574e+00,1.158031940460205078e+00,1.157963991165161133e+00,1.157895922660827637e+00,1.157827854156494141e+00,1.157759904861450195e+00,1.157691836357116699e+00,1.157623887062072754e+00,1.157555937767028809e+00,1.157487988471984863e+00,1.157420039176940918e+00,1.157351970672607422e+00,1.157284021377563477e+00,1.157216072082519531e+00,1.157148241996765137e+00,1.157080292701721191e+00,1.157012343406677246e+00,1.156944513320922852e+00
1.087085723876953125e+00,1.087025761604309082e+00,1.086965918540954590e+00,1.086905837059020996e+00,1.086845993995666504e+00,1.086786031723022461e+00,1.086726188659667969e+00,1.086666226387023926e+00,1.086606383323669434e+00,1.086546421051025391e+00,1.086486458778381348e+00,1.086426615715026855e+00,1.086366772651672363e+00,1.086306929588317871e+00,1.086247086524963379e+00,1.086187243461608887e+00,1.086127400398254395e+00,1.086067438125610352e+00,1.086007595062255859e+00,1.085947871208190918e+00,1.085888028144836426e+00,1.085828185081481934e+00,1.085768342018127441e+00,1.085708498954772949e+00,1.085648775100708008e+00,1.085588932037353516e+00,1.085529208183288574e+00,1.085469484329223633e+00,1.085409641265869141e+00,1.085349917411804199e+00,1.085290074348449707e+00,1.085230350494384766e+00,1.085170626640319824e+00,1.085110902786254883e+00,1.085051178932189941e+00,1.084991455078125000e+00,1.084931731224060059e+00,1.084872007369995117e+00,1.084812283515930176e+00,1.084752559661865234e+00,1.084692835807800293e+00,1.084633231163024902e+00,1.084573507308959961e+00,1.084513783454895020e+00,1.084454178810119629e+00,1.084394574165344238e+00,1.084334850311279297e+00,1.084275245666503906e+00,1.084215641021728516e+00,1.084156036376953125e+00,1.084096312522888184e+00,1.084036707878112793e+00,1.083977103233337402e+00,1.083917498588562012e+00,1.083857893943786621e+00,1.083798289299011230e+00,1.083738684654235840e+00,1.083679080009460449e+00,1.083619594573974609e+00,1.083559989929199219e+00,1.083500385284423828e+00,1.083440899848937988e+00,1.083381295204162598e+00,1.083321809768676758e+00,1.083262205123901367e+00,1.083202719688415527e+00,1.083143234252929688e+00,1.083083629608154297e+00,1.083024144172668457e+00,1.082964658737182617e+00,1.082905173301696777e+00,1.082845687866210938e+00,1.082786202430725098e+00,1.082726716995239258e+00,1.082667231559753418e+00,1.082607746124267578e+00,1.082548379898071289e+00,1.082488894462585449e+00,1.082429409027099609e+00,1.082369923591613770e+00
1.020987987518310547e+00,1.020935177803039551e+00,1.020882248878479004e+00,1.020829439163208008e+00,1.020776510238647461e+00,1.020723700523376465e+00,1.020670890808105469e+00,1.020617961883544922e+00,1.020565152168273926e+00,1.020512342453002930e+00,1.020459413528442383e+00,1.020406603813171387e+00,1.020353794097900391e+00,1.020300984382629395e+00,1.020248174667358398e+00,1.020195364952087402e+00,1.020142555236816406e+00,1.020089864730834961e+00,1.020037055015563965e+00,1.019984245300292969e+00,1.019931435585021973e+00,1.019878625869750977e+00,1.019825935363769531e+00,1.019773125648498535e+00,1.019720435142517090e+00,1.019667625427246094e+00,1.019614934921264648e+00,1.019562125205993652e+00,1.019509434700012207e+00,1.019456744194030762e+00,1.019403934478759766e+00,1.019351243972778320e+00,1.019298553466796875e+00,1.019245862960815430e+00,1.019193172454833984e+00,1.019140481948852539e+00,1.019087791442871094e+00,1.019035100936889648e+00,1.018982410430908203e+00,1.018929719924926758e+00,1.018877029418945312e+00,1.018824338912963867e+00,1.018771767616271973e+00,1.018719077110290527e+00,1.018666386604309082e+00,1.018613815307617188e+00,1.018561244010925293e+00,1.018508553504943848e+00,1.018455862998962402e+00,1.018403291702270508e+00,1.018350720405578613e+00,1.018298029899597168e+00,1.018245458602905273e+00,1.018192887306213379e+00,1.018140196800231934e+00,1.018087625503540039e+00,1.018035054206848145e+00,1.017982482910156250e+00,1.017929911613464355e+00,1.017877459526062012e+00,1.017824888229370117e+00,1.017772197723388672e+00,1.017719745635986328e+00,1.017667174339294434e+00,1.017614603042602539e+00,1.017562150955200195e+00,1.017509579658508301e+00,1.017457008361816406e+00,1.017404556274414062e+00,1.017351984977722168e+00,1.017299532890319824e+00,1.017247080802917480e+00,1.017194509506225586e+00,1.017142057418823242e+00,1.017089486122131348e+00,1.017037034034729004e+00,1.016984581947326660e+00,1.016932129859924316e+00,1.016879677772521973e+00,1.016827225685119629e+00
9.624675512313842773e-01,9.624205231666564941e-01,9.623735547065734863e-01,9.623265266418457031e-01,9.622794985771179199e-01,9.622325897216796875e-01,9.621855616569519043e-01,9.621386528015136719e-01,9.620916843414306641e-01,9.620447754859924316e-01,9.619977474212646484e-01,9.619507789611816406e-01,9.619038701057434082e-01,9.618569016456604004e-01,9.618100523948669434e-01,9.617630839347839355e-01,9.617162346839904785e-01,9.616692662239074707e-01,9.616222977638244629e-01,9.615754485130310059e-01,9.615284800529479980e-01,9.614816308021545410e-01,9.614347219467163086e-01,9.613878726959228516e-01,9.613409638404846191e-01,9.612939953804016113e-01,9.612472057342529297e-01,9.612002968788146973e-01,9.611534476280212402e-01,9.611065387725830078e-01,9.610597491264343262e-01,9.610128402709960938e-01,9.609659314155578613e-01,9.609192013740539551e-01,9.608722925186157227e-01,9.608255028724670410e-01,9.607786536216735840e-01,9.607318639755249023e-01,9.606850147247314453e-01,9.606381058692932129e-01,9.605913758277893066e-01,9.605445265769958496e-01,9.604977965354919434e-01,9.604509472846984863e-01,9.604040980339050293e-01,9.603573679924011230e-01,9.603105187416076660e-01,9.602637887001037598e-01,9.602169990539550781e-01,9.601702690124511719e-01,9.601234793663024902e-01,9.600766301155090332e-01,9.600299596786499023e-01,9.599831104278564453e-01,9.599364399909973145e-01,9.598896503448486328e-01,9.598429799079895020e-01,9.597961902618408203e-01,9.597494006156921387e-01,9.597027301788330078e-01,9.596560001373291016e-01,9.596093297004699707e-01,9.595625400543212891e-01,9.595159292221069336e-01,9.594691395759582520e-01,9.594224095344543457e-01,9.593757987022399902e-01,9.593290090560913086e-01,9.592823982238769531e-01,9.592356681823730469e-01,9.591890573501586914e-01,9.591423273086547852e-01,9.590956568717956543e-01,9.590490460395812988e-01,9.590023159980773926e-01,9.589557051658630371e-01,9.589090347290039062e-01,9.588624238967895508e-01,9.588157534599304199e-01,9.587690830230712891e-01
9.102917909622192383e-01,9.102497100830078125e-01,9.102076888084411621e-01,9.101656079292297363e-01,9.101236462593078613e-01,9.100816249847412109e-01,9.100396633148193359e-01,9.099975824356079102e-01,9.099555611610412598e-01,9.099135994911193848e-01,9.098715186119079590e-01,9.098296165466308594e-01,9.097875356674194336e-01,9.097456336021423340e-01,9.097036123275756836e-01,9.096615910530090332e-01,9.096196293830871582e-01,9.095776677131652832e-01,9.095357060432434082e-01,9.094937443733215332e-01,9.094517827033996582e-01,9.094098210334777832e-01,9.093677997589111328e-01,9.093258976936340332e-01,9.092839360237121582e-01,9.092420339584350586e-01,9.092000722885131836e-01,9.091581702232360840e-01,9.091162085533142090e-01,9.090742468833923340e-01,9.090323448181152344e-01,9.089903831481933594e-01,9.089485406875610352e-01,9.089065790176391602e-01,9.088647365570068359e-01,9.088227748870849609e-01,9.087808728218078613e-01,9.087390303611755371e-01,9.086970686912536621e-01,9.086552262306213379e-01,9.086133241653442383e-01,9.085714221000671387e-01,9.085295796394348145e-01,9.084876775741577148e-01,9.084458351135253906e-01,9.084039330482482910e-01,9.083621501922607422e-01,9.083202481269836426e-01,9.082783460617065430e-01,9.082365632057189941e-01,9.081946611404418945e-01,9.081528782844543457e-01,9.081109762191772461e-01,9.080691933631896973e-01,9.080273509025573730e-01,9.079854488372802734e-01,9.079437255859375000e-01,9.079018235206604004e-01,9.078601002693176270e-01,9.078182578086853027e-01,9.077764749526977539e-01,9.077346324920654297e-01,9.076927900314331055e-01,9.076510667800903320e-01,9.076092243194580078e-01,9.075675010681152344e-01,9.075256586074829102e-01,9.074839353561401367e-01,9.074420928955078125e-01,9.074003100395202637e-01,9.073585867881774902e-01,9.073167443275451660e-01,9.072750806808471680e-01,9.072332978248596191e-01,9.071915745735168457e-01,9.071497917175292969e-01,9.071080088615417480e-01,9.070662856101989746e-01,9.070245027542114258e-01,9.069828391075134277e-01
8.634820580482482910e-01,8.634442687034606934e-01,8.634064197540283203e-01,8.633686304092407227e-01,8.633307814598083496e-01,8.632929325103759766e-01,8.632552027702331543e-01,8.632173538208007812e-01,8.631795644760131836e-01,8.631417751312255859e-01,8.631039857864379883e-01,8.630661964416503906e-01,8.630283474922180176e-01,8.629906177520751953e-01,8.629528284072875977e-01,8.629150986671447754e-01,8.628772497177124023e-01,8.628395199775695801e-01,8.628017306327819824e-01,8.627639412879943848e-01,8.627262115478515625e-01,8.626884222030639648e-01,8.626506924629211426e-01,8.626129031181335449e-01,8.625752329826354980e-01,8.625374436378479004e-01,8.624996542930603027e-01,8.624619841575622559e-01,8.624241948127746582e-01,8.623865246772766113e-01,8.623487353324890137e-01,8.623110651969909668e-01,8.622733354568481445e-01,8.622355461120605469e-01,8.621979355812072754e-01,8.621601462364196777e-01,8.621224761009216309e-01,8.620847463607788086e-01,8.620470166206359863e-01,8.620093464851379395e-01,8.619716167449951172e-01,8.619340062141418457e-01,8.618962764739990234e-01,8.618586063385009766e-01,8.618209362030029297e-01,8.617832064628601074e-01,8.617455959320068359e-01,8.617078661918640137e-01,8.616702556610107422e-01,8.616325259208679199e-01,8.615949153900146484e-01,8.615572452545166016e-01,8.615195155143737793e-01,8.614819049835205078e-01,8.614442348480224609e-01,8.614066243171691895e-01,8.613689541816711426e-01,8.613314032554626465e-01,8.612937331199645996e-01,8.612560629844665527e-01,8.612184524536132812e-01,8.611807823181152344e-01,8.611432313919067383e-01,8.611055612564086914e-01,8.610680103302001953e-01,8.610303401947021484e-01,8.609926700592041016e-01,8.609551191329956055e-01,8.609175086021423340e-01,8.608799576759338379e-01,8.608422875404357910e-01,8.608047962188720703e-01,8.607671260833740234e-01,8.607295155525207520e-01,8.606919646263122559e-01,8.606543540954589844e-01,8.606168627738952637e-01,8.605792522430419922e-01,8.605417013168334961e-01,8.605040907859802246e-01
8.212510943412780762e-01,8.212168812751770020e-01,8.211826086044311523e-01,8.211484551429748535e-01,8.211142420768737793e-01,8.210800886154174805e-01,8.210458159446716309e-01,8.210116624832153320e-01,8.209774494171142578e-01,8.209432363510131836e-01,8.209090828895568848e-01,8.208748698234558105e-01,8.208407163619995117e-01,8.208065032958984375e-01,8.207723498344421387e-01,8.207381963729858398e-01,8.207039833068847656e-01,8.206698298454284668e-01,8.206356167793273926e-01,8.206015229225158691e-01,8.205673098564147949e-01,8.205332159996032715e-01,8.204990029335021973e-01,8.204648494720458984e-01,8.204307556152343750e-01,8.203965425491333008e-01,8.203624486923217773e-01,8.203282952308654785e-01,8.202942013740539551e-01,8.202600479125976562e-01,8.202258348464965820e-01,8.201918005943298340e-01,8.201575875282287598e-01,8.201235532760620117e-01,8.200893998146057129e-01,8.200552463531494141e-01,8.200211524963378906e-01,8.199869990348815918e-01,8.199529647827148438e-01,8.199188113212585449e-01,8.198847770690917969e-01,8.198506236076354980e-01,8.198164701461791992e-01,8.197824358940124512e-01,8.197482824325561523e-01,8.197142481803894043e-01,8.196801543235778809e-01,8.196461200714111328e-01,8.196119666099548340e-01,8.195778727531433105e-01,8.195438385009765625e-01,8.195097446441650391e-01,8.194757103919982910e-01,8.194416165351867676e-01,8.194075822830200195e-01,8.193734884262084961e-01,8.193393945693969727e-01,8.193053603172302246e-01,8.192713260650634766e-01,8.192372918128967285e-01,8.192031979560852051e-01,8.191692233085632324e-01,8.191351294517517090e-01,8.191010951995849609e-01,8.190670609474182129e-01,8.190330266952514648e-01,8.189989924430847168e-01,8.189649581909179688e-01,8.189309835433959961e-01,8.188969492912292480e-01,8.188628554344177246e-01,8.188288807868957520e-01,8.187948465347290039e-01,8.187608718872070312e-01,8.187268376350402832e-01,8.186928629875183105e-01,8.186588287353515625e-01,8.186247944831848145e-01,8.185908794403076172e-01,8.185568451881408691e-01
7.829583883285522461e-01,7.829272150993347168e-01,7.828961610794067383e-01,7.828650474548339844e-01,7.828339934349060059e-01,7.828028798103332520e-01,7.827717661857604980e-01,7.827407121658325195e-01,7.827095985412597656e-01,7.826786041259765625e-01,7.826474905014038086e-01,7.826164364814758301e-01,7.825853228569030762e-01,7.825542092323303223e-01,7.825232148170471191e-01,7.824921011924743652e-01,7.824611067771911621e-01,7.824299931526184082e-01,7.823989987373352051e-01,7.823678851127624512e-01,7.823368310928344727e-01,7.823057770729064941e-01,7.822747230529785156e-01,7.822437286376953125e-01,7.822126746177673340e-01,7.821816802024841309e-01,7.821505665779113770e-01,7.821195125579833984e-01,7.820885181427001953e-01,7.820574641227722168e-01,7.820264697074890137e-01,7.819954156875610352e-01,7.819643616676330566e-01,7.819333672523498535e-01,7.819023132324218750e-01,7.818713784217834473e-01,7.818403244018554688e-01,7.818093299865722656e-01,7.817783355712890625e-01,7.817472815513610840e-01,7.817163467407226562e-01,7.816852927207946777e-01,7.816543579101562500e-01,7.816233038902282715e-01,7.815923690795898438e-01,7.815613150596618652e-01,7.815303206443786621e-01,7.814993858337402344e-01,7.814683318138122559e-01,7.814373970031738281e-01,7.814064025878906250e-01,7.813754677772521973e-01,7.813444733619689941e-01,7.813134789466857910e-01,7.812825441360473633e-01,7.812515497207641602e-01,7.812206149101257324e-01,7.811896204948425293e-01,7.811586856842041016e-01,7.811276912689208984e-01,7.810967564582824707e-01,7.810658216476440430e-01,7.810348272323608398e-01,7.810039520263671875e-01,7.809729576110839844e-01,7.809420824050903320e-01,7.809110879898071289e-01,7.808801531791687012e-01,7.808492183685302734e-01,7.808182835578918457e-01,7.807874083518981934e-01,7.807564139366149902e-01,7.807255387306213379e-01,7.806946039199829102e-01,7.806636095046997070e-01,7.806327939033508301e-01,7.806017994880676270e-01,7.805709242820739746e-01,7.805399894714355469e-01,7.805090546607971191e-01
7.480775117874145508e-01,7.480491399765014648e-01,7.480207085609436035e-01,7.479923367500305176e-01,7.479639649391174316e-01,7.479355335235595703e-01,7.479072213172912598e-01,7.478787899017333984e-01,7.478504776954650879e-01,7.478220462799072266e-01,7.477936744689941406e-01,7.477653622627258301e-01,7.477369308471679688e-01,7.477086186408996582e-01,7.476802468299865723e-01,7.476519346237182617e-01,7.476235032081604004e-01,7.475951313972473145e-01,7.475668191909790039e-01,7.475384473800659180e-01,7.475101351737976074e-01,7.474817633628845215e-01,7.474534511566162109e-01,7.474250793457031250e-01,7.473967075347900391e-01,7.473683953285217285e-01,7.473400235176086426e-01,7.473117709159851074e-01,7.472833991050720215e-01,7.472550868988037109e-01,7.472267746925354004e-01,7.471984028816223145e-01,7.471700906753540039e-01,7.471417784690856934e-01,7.471134662628173828e-01,7.470851540565490723e-01,7.470567822456359863e-01,7.470285296440124512e-01,7.470001578330993652e-01,7.469719052314758301e-01,7.469435930252075195e-01,7.469152808189392090e-01,7.468869686126708984e-01,7.468586564064025879e-01,7.468304038047790527e-01,7.468020915985107422e-01,7.467738389968872070e-01,7.467454671859741211e-01,7.467172145843505859e-01,7.466889023780822754e-01,7.466605901718139648e-01,7.466323375701904297e-01,7.466040849685668945e-01,7.465758323669433594e-01,7.465475201606750488e-01,7.465192675590515137e-01,7.464909553527832031e-01,7.464627027511596680e-01,7.464344501495361328e-01,7.464061379432678223e-01,7.463779449462890625e-01,7.463496327400207520e-01,7.463214397430419922e-01,7.462931275367736816e-01,7.462648749351501465e-01,7.462366223335266113e-01,7.462083697319030762e-01,7.461801767349243164e-01,7.461518645286560059e-01,7.461236715316772461e-01,7.460954189300537109e-01,7.460671067237854004e-01,7.460389137268066406e-01,7.460106611251831055e-01,7.459824681282043457e-01,7.459542155265808105e-01,7.459259629249572754e-01,7.458977699279785156e-01,7.458695173263549805e-01,7.458413243293762207e-01
