5.000000000000000000e+00,5.000000000000000000e+00,5.000000000000000000e+00,5.000000000000000000e+00,5.000000000000000000e+00,5.000000000000000000e+00,5.000000000000000000e+00,5.000000000000000000e+00,5.000000000000000000e+00,5.000000000000000000e+00,5.000000000000000000e+00,5.000000000000000000e+00,5.000000000000000000e+00,5.000000000000000000e+00,5.000000000000000000e+00,5.000000000000000000e+00,5.000000000000000000e+00,5.000000000000000000e+00,5.000000000000000000e+00,5.000000000000000000e+00,5.000000000000000000e+00,5.000000000000000000e+00,5.000000000000000000e+00,5.000000000000000000e+00,5.000000000000000000e+00,5.000000000000000000e+00,5.000000000000000000e+00,5.000000000000000000e+00,5.000000000000000000e+00,5.000000000000000000e+00,5.000000000000000000e+00,5.000000000000000000e+00,5.000000000000000000e+00,5.000000000000000000e+00,5.000000000000000000e+00,5.000000000000000000e+00,5.000000000000000000e+00,5.000000000000000000e+00,5.000000000000000000e+00,5.000000000000000000e+00,4.664556503295898438e+00,4.488549232482910156e+00,4.325341224670410156e+00,4.173585414886474609e+00,4.032117843627929688e+00,3.899926424026489258e+00,3.776126623153686523e+00,3.659945487976074219e+00,3.550700187683105469e+00,3.447787284851074219e+00,3.350672245025634766e+00,3.258878231048583984e+00,1.214838266372680664e+00,1.167352080345153809e+00,9.921375513076782227e-01,9.643922448158264160e-01,9.429172873497009277e-01,9.450644850730895996e-01,9.154521226882934570e-01,9.008885025978088379e-01,9.288607239723205566e-01,1.108670473098754883e+00,1.146774172782897949e+00,1.127549648284912109e+00,1.108558654785156250e+00,1.092121124267578125e+00,1.075844049453735352e+00,1.064875602722167969e+00,1.061669945716857910e+00,1.058483481407165527e+00,1.055316209793090820e+00,1.106361865997314453e+00,2.068721055984497070e+00,2.033359527587890625e+00,1.999186515808105469e+00,1.966143488883972168e+00,1.934174537658691406e+00,1.903228878974914551e+00,1.873257637023925781e+00,1.844215750694274902e+00
5.000000000000000000e+00,5.000000000000000000e+00,5.000000000000000000e+00,5.000000000000000000e+00,5.000000000000000000e+00,5.000000000000000000e+00,5.000000000000000000e+00,5.000000000000000000e+00,5.000000000000000000e+00,5.000000000000000000e+00,5.000000000000000000e+00,5.000000000000000000e+00,5.000000000000000000e+00,5.000000000000000000e+00,5.000000000000000000e+00,5.000000000000000000e+00,5.000000000000000000e+00,5.000000000000000000e+00,5.000000000000000000e+00,5.000000000000000000e+00,5.000000000000000000e+00,5.000000000000000000e+00,5.000000000000000000e+00,5.000000000000000000e+00,5.000000000000000000e+00,5.000000000000000000e+00,5.000000000000000000e+00,5.000000000000000000e+00,5.000000000000000000e+00,5.000000000000000000e+00,5.000000000000000000e+00,5.000000000000000000e+00,5.000000000000000000e+00,5.000000000000000000e+00,5.000000000000000000e+00,5.000000000000000000e+00,5.000000000000000000e+00,5.000000000000000000e+00,5.000000000000000000e+00,4.855070590972900391e+00,4.664685726165771484e+00,4.488668918609619141e+00,4.325451850891113281e+00,4.173688888549804688e+00,4.032214164733886719e+00,3.900016546249389648e+00,3.776211261749267578e+00,3.660024881362915039e+00,3.550774812698364258e+00,3.447857856750488281e+00,3.350738763809204102e+00,3.258941173553466797e+00,1.214900255203247070e+00,1.166273951530456543e+00,9.894985556602478027e-01,9.625425338745117188e-01,9.386439919471740723e-01,9.243452548980712891e-01,1.089915037155151367e+00,8.928661942481994629e-01,1.084976315498352051e+00,1.106327772140502930e+00,1.147049903869628906e+00,1.124551177024841309e+00,1.107900023460388184e+00,1.091187119483947754e+00,1.074531078338623047e+00,1.058212280273437500e+00,1.055618524551391602e+00,1.053009986877441406e+00,1.049875259399414062e+00,1.046759128570556641e+00,2.068746328353881836e+00,2.033384084701538086e+00,1.999210357666015625e+00,1.966166257858276367e+00,1.934196949005126953e+00,1.903250336647033691e+00,1.873278379440307617e+00,1.844236016273498535e+00
5.000000000000000000e+00,5.000000000000000000e+00,5.000000000000000000e+00,5.000000000000000000e+00,5.000000000000000000e+00,5.000000000000000000e+00,5.000000000000000000e+00,5.000000000000000000e+00,5.000000000000000000e+00,5.000000000000000000e+00,5.000000000000000000e+00,5.000000000000000000e+00,5.000000000000000000e+00,5.000000000000000000e+00,5.000000000000000000e+00,5.000000000000000000e+00,5.000000000000000000e+00,5.000000000000000000e+00,5.000000000000000000e+00,5.000000000000000000e+00,5.000000000000000000e+00,5.000000000000000000e+00,5.000000000000000000e+00,5.000000000000000000e+00,5.000000000000000000e+00,5.000000000000000000e+00,5.000000000000000000e+00,5.000000000000000000e+00,5.000000000000000000e+00,5.000000000000000000e+00,5.000000000000000000e+00,5.000000000000000000e+00,5.000000000000000000e+00,5.000000000000000000e+00,5.000000000000000000e+00,5.000000000000000000e+00,5.000000000000000000e+00,5.000000000000000000e+00,5.000000000000000000e+00,4.855210304260253906e+00,4.664814472198486328e+00,4.488788127899169922e+00,4.325562953948974609e+00,4.173792362213134766e+00,4.032310485839843750e+00,3.900106906890869141e+00,3.776295900344848633e+00,3.660104513168334961e+00,3.550849676132202148e+00,3.447928428649902344e+00,3.350805282592773438e+00,3.259004116058349609e+00,1.214049458503723145e+00,1.164222717285156250e+00,9.905015826225280762e-01,9.562659859657287598e-01,9.504518508911132812e-01,9.145970940589904785e-01,1.091984272003173828e+00,1.089320659637451172e+00,1.086820840835571289e+00,1.109022855758666992e+00,1.154620528221130371e+00,1.127498865127563477e+00,1.106910824775695801e+00,1.089775085449218750e+00,1.073161721229553223e+00,1.056839942932128906e+00,1.048104643821716309e+00,1.046420574188232422e+00,1.044490098953247070e+00,1.041405797004699707e+00,2.068771839141845703e+00,2.033408641815185547e+00,1.999233961105346680e+00,1.966189384460449219e+00,1.934219002723693848e+00,1.903271913528442383e+00,1.873299241065979004e+00,1.844256043434143066e+00
5.000000000000000000e+00,5.000000000000000000e+00,5.000000000000000000e+00,5.000000000000000000e+00,5.000000000000000000e+00,5.000000000000000000e+00,5.000000000000000000e+00,5.000000000000000000e+00,5.000000000000000000e+00,5.000000000000000000e+00,5.000000000000000000e+00,5.000000000000000000e+00,5.000000000000000000e+00,5.000000000000000000e+00,5.000000000000000000e+00,5.000000000000000000e+00,5.000000000000000000e+00,5.000000000000000000e+00,5.000000000000000000e+00,5.000000000000000000e+00,5.000000000000000000e+00,5.000000000000000000e+00,5.000000000000000000e+00,5.000000000000000000e+00,5.000000000000000000e+00,5.000000000000000000e+00,5.000000000000000000e+00,5.000000000000000000e+00,5.000000000000000000e+00,5.000000000000000000e+00,5.000000000000000000e+00,5.000000000000000000e+00,5.000000000000000000e+00,5.000000000000000000e+00,5.000000000000000000e+00,5.000000000000000000e+00,5.000000000000000000e+00,5.000000000000000000e+00,5.000000000000000000e+00,4.855350494384765625e+00,4.664943695068359375e+00,4.488907814025878906e+00,4.325674057006835938e+00,4.173895359039306641e+00,4.032406806945800781e+00,3.900197029113769531e+00,3.776380777359008789e+00,3.660183906555175781e+00,3.550924539566040039e+00,3.447998762130737305e+00,3.350871801376342773e+00,3.259067058563232422e+00,1.213199019432067871e+00,1.162591218948364258e+00,9.888848662376403809e-01,9.794200062751770020e-01,9.345459938049316406e-01,9.118888974189758301e-01,8.964584469795227051e-01,1.091716766357421875e+00,1.088829636573791504e+00,1.113700628280639648e+00,1.159892082214355469e+00,1.130946278572082520e+00,1.105457782745361328e+00,1.088366627693176270e+00,1.071754455566406250e+00,1.055471181869506836e+00,1.040696978569030762e+00,1.039036631584167480e+00,1.037381410598754883e+00,1.035731554031372070e+00,1.075901508331298828e+00,2.033433198928833008e+00,1.999257802963256836e+00,1.966212153434753418e+00,1.934241294860839844e+00,1.903293251991271973e+00,1.873320221900939941e+00,1.844276309013366699e+00
5.000000000000000000e+00,5.000000000000000000e+00,5.000000000000000000e+00,5.000000000000000000e+00,5.000000000000000000e+00,5.000000000000000000e+00,5.000000000000000000e+00,5.000000000000000000e+00,5.000000000000000000e+00,5.000000000000000000e+00,5.000000000000000000e+00,5.000000000000000000e+00,5.000000000000000000e+00,5.000000000000000000e+00,5.000000000000000000e+00,5.000000000000000000e+00,5.000000000000000000e+00,5.000000000000000000e+00,5.000000000000000000e+00,5.000000000000000000e+00,5.000000000000000000e+00,5.000000000000000000e+00,5.000000000000000000e+00,5.000000000000000000e+00,5.000000000000000000e+00,5.000000000000000000e+00,5.000000000000000000e+00,5.000000000000000000e+00,5.000000000000000000e+00,5.000000000000000000e+00,5.000000000000000000e+00,5.000000000000000000e+00,5.000000000000000000e+00,5.000000000000000000e+00,5.000000000000000000e+00,5.000000000000000000e+00,5.000000000000000000e+00,5.000000000000000000e+00,5.000000000000000000e+00,4.855490207672119141e+00,4.665072917938232422e+00,4.489027023315429688e+00,4.325785160064697266e+00,4.173998832702636719e+00,4.032503604888916016e+00,3.900287151336669922e+00,3.776465415954589844e+00,3.660263299942016602e+00,3.550999164581298828e+00,3.448069334030151367e+00,3.350938558578491211e+00,3.259130001068115234e+00,1.212349772453308105e+00,1.167820334434509277e+00,1.137961506843566895e+00,9.654712677001953125e-01,9.255795478820800781e-01,1.100800275802612305e+00,1.097864866256713867e+00,1.094945311546325684e+00,1.092041134834289551e+00,1.120510816574096680e+00,1.162205934524536133e+00,1.132747769355773926e+00,1.104831337928771973e+00,1.086961865425109863e+00,1.070346832275390625e+00,1.054105877876281738e+00,1.038350462913513184e+00,1.031756162643432617e+00,1.030124068260192871e+00,1.028618931770324707e+00,1.027183890342712402e+00,2.033457756042480469e+00,1.999281406402587891e+00,1.966235160827636719e+00,1.934263348579406738e+00,1.903314828872680664e+00,1.873340845108032227e+00,1.844296336174011230e+00
5.000000000000000000e+00,5.000000000000000000e+00,5.000000000000000000e+00,5.000000000000000000e+00,5.000000000000000000e+00,5.000000000000000000e+00,5.000000000000000000e+00,5.000000000000000000e+00,5.000000000000000000e+00,5.000000000000000000e+00,5.000000000000000000e+00,5.000000000000000000e+00,5.000000000000000000e+00,5.000000000000000000e+00,5.000000000000000000e+00,5.000000000000000000e+00,5.000000000000000000e+00,5.000000000000000000e+00,5.000000000000000000e+00,5.000000000000000000e+00,5.000000000000000000e+00,5.000000000000000000e+00,5.000000000000000000e+00,5.000000000000000000e+00,5.000000000000000000e+00,5.000000000000000000e+00,5.000000000000000000e+00,5.000000000000000000e+00,5.000000000000000000e+00,5.000000000000000000e+00,5.000000000000000000e+00,5.000000000000000000e+00,5.000000000000000000e+00,5.000000000000000000e+00,5.000000000000000000e+00,5.000000000000000000e+00,5.000000000000000000e+00,5.000000000000000000e+00,5.000000000000000000e+00,4.855630397796630859e+00,4.665201663970947266e+00,4.489146709442138672e+00,4.325896263122558594e+00,4.174102306365966797e+00,4.032599925994873047e+00,3.900377511978149414e+00,3.776550054550170898e+00,3.660343170166015625e+00,3.551074028015136719e+00,3.448139905929565430e+00,3.351005077362060547e+00,3.259193181991577148e+00,1.218023538589477539e+00,1.173853874206542969e+00,1.142949819564819336e+00,1.118587613105773926e+00,1.107770085334777832e+00,1.104082822799682617e+00,1.101130008697509766e+00,1.098193049430847168e+00,1.099257588386535645e+00,1.129611968994140625e+00,1.164013743400573730e+00,1.134554982185363770e+00,1.106550574302673340e+00,1.085560679435729980e+00,1.068942785263061523e+00,1.052744150161743164e+00,1.036803841590881348e+00,1.024361610412597656e+00,1.023674726486206055e+00,1.022253274917602539e+00,1.020835757255554199e+00,2.033482313156127930e+00,1.999305248260498047e+00,1.966258049011230469e+00,1.934285640716552734e+00,1.903336286544799805e+00,1.873361825942993164e+00,1.844316720962524414e+00
5.000000000000000000e+00,5.000000000000000000e+00,5.000000000000000000e+00,5.000000000000000000e+00,5.000000000000000000e+00,5.000000000000000000e+00,5.000000000000000000e+00,5.000000000000000000e+00,5.000000000000000000e+00,5.000000000000000000e+00,5.000000000000000000e+00,5.000000000000000000e+00,5.000000000000000000e+00,5.000000000000000000e+00,5.000000000000000000e+00,5.000000000000000000e+00,5.000000000000000000e+00,5.000000000000000000e+00,5.000000000000000000e+00,5.000000000000000000e+00,5.000000000000000000e+00,5.000000000000000000e+00,5.000000000000000000e+00,5.000000000000000000e+00,5.000000000000000000e+00,5.000000000000000000e+00,5.000000000000000000e+00,5.000000000000000000e+00,5.000000000000000000e+00,5.000000000000000000e+00,5.000000000000000000e+00,5.000000000000000000e+00,5.000000000000000000e+00,5.000000000000000000e+00,5.000000000000000000e+00,5.000000000000000000e+00,5.000000000000000000e+00,5.000000000000000000e+00,5.000000000000000000e+00,4.855770111083984375e+00,4.665330886840820312e+00,4.489266395568847656e+00,4.326006889343261719e+00,4.174205780029296875e+00,4.032696247100830078e+00,3.900467634201049805e+00,3.776634693145751953e+00,3.660422563552856445e+00,3.551148891448974609e+00,3.448210477828979492e+00,3.351071596145629883e+00,3.259256124496459961e+00,3.172337532043457031e+00,1.179950118064880371e+00,1.147982001304626465e+00,1.122930645942687988e+00,1.111561417579650879e+00,1.107641935348510742e+00,1.104414701461791992e+00,1.101460099220275879e+00,1.108015418052673340e+00,1.137884140014648438e+00,2.504446029663085938e+00,1.136873602867126465e+00,1.108275175094604492e+00,1.084163188934326172e+00,1.067542552947998047e+00,1.050774335861206055e+00,1.034316539764404297e+00,1.020738363265991211e+00,1.015911459922790527e+00,1.015965819358825684e+00,1.014565706253051758e+00,1.013169407844543457e+00,1.999328851699829102e+00,1.966281056404113770e+00,1.934307694435119629e+00,1.903357863426208496e+00,1.873382568359375000e+00,1.844336986541748047e+00
5.000000000000000000e+00,5.000000000000000000e+00,5.000000000000000000e+00,5.000000000000000000e+00,5.000000000000000000e+00,5.000000000000000000e+00,5.000000000000000000e+00,5.000000000000000000e+00,5.000000000000000000e+00,5.000000000000000000e+00,5.000000000000000000e+00,5.000000000000000000e+00,5.000000000000000000e+00,5.000000000000000000e+00,5.000000000000000000e+00,5.000000000000000000e+00,5.000000000000000000e+00,5.000000000000000000e+00,5.000000000000000000e+00,5.000000000000000000e+00,5.000000000000000000e+00,5.000000000000000000e+00,5.000000000000000000e+00,5.000000000000000000e+00,5.000000000000000000e+00,5.000000000000000000e+00,5.000000000000000000e+00,5.000000000000000000e+00,5.000000000000000000e+00,5.000000000000000000e+00,5.000000000000000000e+00,5.000000000000000000e+00,5.000000000000000000e+00,5.000000000000000000e+00,5.000000000000000000e+00,5.000000000000000000e+00,5.000000000000000000e+00,5.000000000000000000e+00,5.000000000000000000e+00,4.855909824371337891e+00,4.665460586547851562e+00,4.489385604858398438e+00,4.326117992401123047e+00,4.174309253692626953e+00,4.032793045043945312e+00,3.900557994842529297e+00,3.776719093322753906e+00,3.660502195358276367e+00,3.551223993301391602e+00,3.448280811309814453e+00,3.351138353347778320e+00,3.259319067001342773e+00,3.172397136688232422e+00,1.186110019683837891e+00,1.153058767318725586e+00,1.127307415008544922e+00,1.115378737449645996e+00,1.111432433128356934e+00,1.107718944549560547e+00,1.104746580123901367e+00,1.116913914680480957e+00,1.144523501396179199e+00,2.504483222961425781e+00,1.141577601432800293e+00,1.111802339553833008e+00,1.083433032035827637e+00,1.065126538276672363e+00,1.048219680786132812e+00,1.031841158866882324e+00,1.018864035606384277e+00,1.006663918495178223e+00,1.007599472999572754e+00,1.008372068405151367e+00,1.006992936134338379e+00,1.999352574348449707e+00,1.966303825378417969e+00,1.934329986572265625e+00,1.903379201889038086e+00,1.873403429985046387e+00,1.844357013702392578e+00
5.000000000000000000e+00,5.000000000000000000e+00,5.000000000000000000e+00,5.000000000000000000e+00,5.000000000000000000e+00,5.000000000000000000e+00,5.000000000000000000e+00,5.000000000000000000e+00,5.000000000000000000e+00,5.000000000000000000e+00,5.000000000000000000e+00,5.000000000000000000e+00,5.000000000000000000e+00,5.000000000000000000e+00,5.000000000000000000e+00,5.000000000000000000e+00,5.000000000000000000e+00,5.000000000000000000e+00,5.000000000000000000e+00,5.000000000000000000e+00,5.000000000000000000e+00,5.000000000000000000e+00,5.000000000000000000e+00,5.000000000000000000e+00,5.000000000000000000e+00,5.000000000000000000e+00,5.000000000000000000e+00,5.000000000000000000e+00,5.000000000000000000e+00,5.000000000000000000e+00,5.000000000000000000e+00,5.000000000000000000e+00,5.000000000000000000e+00,5.000000000000000000e+00,5.000000000000000000e+00,5.000000000000000000e+00,5.000000000000000000e+00,5.000000000000000000e+00,5.000000000000000000e+00,4.856049537658691406e+00,4.665589332580566406e+00,4.489505290985107422e+00,4.326229095458984375e+00,4.174412250518798828e+00,4.032889366149902344e+00,3.900648117065429688e+00,3.776803731918334961e+00,3.660581588745117188e+00,3.551298856735229492e+00,3.448351383209228516e+00,3.351204872131347656e+00,3.259382009506225586e+00,3.172456741333007812e+00,1.192023038864135742e+00,1.157932162284851074e+00,1.131718397140502930e+00,1.119222402572631836e+00,1.115248918533325195e+00,1.111303448677062988e+00,1.108052849769592285e+00,1.125285863876342773e+00,1.151240587234497070e+00,2.504520416259765625e+00,2.452877044677734375e+00,1.116300821304321289e+00,1.086909770965576172e+00,1.062501668930053711e+00,1.045677304267883301e+00,1.029450058937072754e+00,1.016996741294860840e+00,1.004840970039367676e+00,9.981147050857543945e-01,9.994224905967712402e-01,1.000733971595764160e+00,9.995322823524475098e-01,1.966326951980590820e+00,1.934352159500122070e+00,1.903400778770446777e+00,1.873424172401428223e+00,1.844377279281616211e+00
5.000000000000000000e+00,5.000000000000000000e+00,5.000000000000000000e+00,5.000000000000000000e+00,5.000000000000000000e+00,5.000000000000000000e+00,5.000000000000000000e+00,5.000000000000000000e+00,5.000000000000000000e+00,5.000000000000000000e+00,5.000000000000000000e+00,5.000000000000000000e+00,5.000000000000000000e+00,5.000000000000000000e+00,5.000000000000000000e+00,5.000000000000000000e+00,5.000000000000000000e+00,5.000000000000000000e+00,5.000000000000000000e+00,5.000000000000000000e+00,5.000000000000000000e+00,5.000000000000000000e+00,5.000000000000000000e+00,5.000000000000000000e+00,5.000000000000000000e+00,5.000000000000000000e+00,5.000000000000000000e+00,5.000000000000000000e+00,5.000000000000000000e+00,5.000000000000000000e+00,5.000000000000000000e+00,5.000000000000000000e+00,5.000000000000000000e+00,5.000000000000000000e+00,5.000000000000000000e+00,5.000000000000000000e+00,5.000000000000000000e+00,5.000000000000000000e+00,5.000000000000000000e+00,4.856189727783203125e+00,4.665718555450439453e+00,4.489624977111816406e+00,4.326340198516845703e+00,4.174515724182128906e+00,4.032986164093017578e+00,3.900738477706909180e+00,3.776888370513916016e+00,3.660660982131958008e+00,3.551373481750488281e+00,3.448422193527221680e+00,3.351271390914916992e+00,3.259445190429687500e+00,3.172516584396362305e+00,1.197401881217956543e+00,1.162586569786071777e+00,1.136164069175720215e+00,1.123092651367187500e+00,1.119091629981994629e+00,1.115118980407714844e+00,1.111379027366638184e+00,1.131778478622436523e+00,2.558423995971679688e+00,2.504557609558105469e+00,2.452912569046020508e+00,1.120482087135314941e+00,1.090409040451049805e+00,1.061908125877380371e+00,1.043147325515747070e+00,1.027543783187866211e+00,1.015136122703552246e+00,1.003024458885192871e+00,9.911985993385314941e-01,9.900902509689331055e-01,9.913772940635681152e-01,9.926676154136657715e-01,1.966349720954895020e+00,1.934374451637268066e+00,1.903422117233276367e+00,1.873445034027099609e+00,1.844397306442260742e+00
5.000000000000000000e+00,5.000000000000000000e+00,5.000000000000000000e+00,5.000000000000000000e+00,5.000000000000000000e+00,5.000000000000000000e+00,5.000000000000000000e+00,5.000000000000000000e+00,5.000000000000000000e+00,5.000000000000000000e+00,5.000000000000000000e+00,5.000000000000000000e+00,5.000000000000000000e+00,5.000000000000000000e+00,5.000000000000000000e+00,5.000000000000000000e+00,5.000000000000000000e+00,5.000000000000000000e+00,5.000000000000000000e+00,5.000000000000000000e+00,5.000000000000000000e+00,5.000000000000000000e+00,5.000000000000000000e+00,5.000000000000000000e+00,5.000000000000000000e+00,5.000000000000000000e+00,5.000000000000000000e+00,5.000000000000000000e+00,5.000000000000000000e+00,5.000000000000000000e+00,5.000000000000000000e+00,5.000000000000000000e+00,5.000000000000000000e+00,5.000000000000000000e+00,5.000000000000000000e+00,5.000000000000000000e+00,5.000000000000000000e+00,5.000000000000000000e+00,5.000000000000000000e+00,4.856329441070556641e+00,4.665847778320312500e+00,4.489744663238525391e+00,4.326451301574707031e+00,4.174619197845458984e+00,4.033082485198974609e+00,3.900828599929809570e+00,3.776973009109497070e+00,3.660740613937377930e+00,3.551448345184326172e+00,3.448492765426635742e+00,3.351338148117065430e+00,3.259508132934570312e+00,3.172576189041137695e+00,1.203369855880737305e+00,1.167670965194702148e+00,1.141130447387695312e+00,1.125586152076721191e+00,1.121819615364074707e+00,1.118078112602233887e+00,1.114361643791198730e+00,1.138346433639526367e+00,2.558462858200073242e+00,2.504594802856445312e+00,2.452948331832885742e+00,2.403388738632202148e+00,1.094376564025878906e+00,1.065248012542724609e+00,1.040629506111145020e+00,1.025644421577453613e+00,1.013282299041748047e+00,1.001214623451232910e+00,9.894311428070068359e-01,9.819087386131286621e-01,9.835944771766662598e-01,9.852072000503540039e-01,9.868252873420715332e-01,1.934396505355834961e+00,1.903443813323974609e+00,1.873465776443481445e+00,1.844417691230773926e+00
5.000000000000000000e+00,5.000000000000000000e+00,5.000000000000000000e+00,5.000000000000000000e+00,5.000000000000000000e+00,5.000000000000000000e+00,5.000000000000000000e+00,5.000000000000000000e+00,5.000000000000000000e+00,5.000000000000000000e+00,5.000000000000000000e+00,5.000000000000000000e+00,5.000000000000000000e+00,5.000000000000000000e+00,5.000000000000000000e+00,5.000000000000000000e+00,5.000000000000000000e+00,5.000000000000000000e+00,5.000000000000000000e+00,5.000000000000000000e+00,5.000000000000000000e+00,5.000000000000000000e+00,5.000000000000000000e+00,5.000000000000000000e+00,5.000000000000000000e+00,5.000000000000000000e+00,5.000000000000000000e+00,5.000000000000000000e+00,5.000000000000000000e+00,5.000000000000000000e+00,5.000000000000000000e+00,5.000000000000000000e+00,5.000000000000000000e+00,5.000000000000000000e+00,5.000000000000000000e+00,5.000000000000000000e+00,5.000000000000000000e+00,5.000000000000000000e+00,5.000000000000000000e+00,4.856469154357910156e+00,4.665977001190185547e+00,4.489864349365234375e+00,4.326562404632568359e+00,4.174722671508789062e+00,4.033178806304931641e+00,3.900918960571289062e+00,3.777057647705078125e+00,3.660820007324218750e+00,3.551523208618164062e+00,3.448563337326049805e+00,3.351405143737792969e+00,3.259571075439453125e+00,3.172636032104492188e+00,1.210628271102905273e+00,1.173024892807006836e+00,1.146243214607238770e+00,1.128034949302673340e+00,1.124001145362854004e+00,1.120245218276977539e+00,1.119844317436218262e+00,1.145362138748168945e+00,2.558501720428466797e+00,2.504631996154785156e+00,2.452984094619750977e+00,2.403423070907592773e+00,1.104665279388427734e+00,1.071918606758117676e+00,1.041221976280212402e+00,1.023752093315124512e+00,1.011206388473510742e+00,9.988952875137329102e-01,9.877733588218688965e-01,9.769027233123779297e-01,9.779750108718872070e-01,9.803079366683959961e-01,9.821398854255676270e-01,1.934418797492980957e+00,1.903465151786804199e+00,1.873486757278442383e+00,1.844437718391418457e+00
5.000000000000000000e+00,5.000000000000000000e+00,5.000000000000000000e+00,5.000000000000000000e+00,5.000000000000000000e+00,5.000000000000000000e+00,5.000000000000000000e+00,5.000000000000000000e+00,5.000000000000000000e+00,5.000000000000000000e+00,5.000000000000000000e+00,5.000000000000000000e+00,5.000000000000000000e+00,5.000000000000000000e+00,5.000000000000000000e+00,5.000000000000000000e+00,5.000000000000000000e+00,5.000000000000000000e+00,5.000000000000000000e+00,5.000000000000000000e+00,5.000000000000000000e+00,5.000000000000000000e+00,5.000000000000000000e+00,5.000000000000000000e+00,5.000000000000000000e+00,5.000000000000000000e+00,5.000000000000000000e+00,5.000000000000000000e+00,5.000000000000000000e+00,5.000000000000000000e+00,5.000000000000000000e+00,5.000000000000000000e+00,5.000000000000000000e+00,5.000000000000000000e+00,5.000000000000000000e+00,5.000000000000000000e+00,5.000000000000000000e+00,5.000000000000000000e+00,5.000000000000000000e+00,4.856609344482421875e+00,4.666105747222900391e+00,4.489984035491943359e+00,4.326673507690429688e+00,4.174825668334960938e+00,4.033275604248046875e+00,3.901009082794189453e+00,3.777142286300659180e+00,3.660899400711059570e+00,3.551598072052001953e+00,3.448633909225463867e+00,3.351471662521362305e+00,3.259634017944335938e+00,3.172695636749267578e+00,1.217938423156738281e+00,1.178428173065185547e+00,1.151401996612548828e+00,1.131807208061218262e+00,1.126191258430480957e+00,1.122420668601989746e+00,1.126655697822570801e+00,1.152443408966064453e+00,2.558540582656860352e+00,2.504669189453125000e+00,2.453019618988037109e+00,2.403457403182983398e+00,2.355858087539672852e+00,1.081787467002868652e+00,1.050364017486572266e+00,1.021079301834106445e+00,1.008848667144775391e+00,9.975118637084960938e-01,9.868590235710144043e-01,9.763863682746887207e-01,9.749845266342163086e-01,9.773797392845153809e-01,9.797866344451904297e-01,1.934440851211547852e+00,1.903486728668212891e+00,1.873507380485534668e+00,1.844457983970642090e+00
5.000000000000000000e+00,5.000000000000000000e+00,5.000000000000000000e+00,5.000000000000000000e+00,5.000000000000000000e+00,5.000000000000000000e+00,5.000000000000000000e+00,5.000000000000000000e+00,5.000000000000000000e+00,5.000000000000000000e+00,5.000000000000000000e+00,5.000000000000000000e+00,5.000000000000000000e+00,5.000000000000000000e+00,5.000000000000000000e+00,5.000000000000000000e+00,5.000000000000000000e+00,5.000000000000000000e+00,5.000000000000000000e+00,5.000000000000000000e+00,5.000000000000000000e+00,5.000000000000000000e+00,5.000000000000000000e+00,5.000000000000000000e+00,5.000000000000000000e+00,5.000000000000000000e+00,5.000000000000000000e+00,5.000000000000000000e+00,5.000000000000000000e+00,5.000000000000000000e+00,5.000000000000000000e+00,5.000000000000000000e+00,5.000000000000000000e+00,5.000000000000000000e+00,5.000000000000000000e+00,5.000000000000000000e+00,5.000000000000000000e+00,5.000000000000000000e+00,5.000000000000000000e+00,4.856749057769775391e+00,4.666234970092773438e+00,4.490103244781494141e+00,4.326784610748291016e+00,4.174929141998291016e+00,4.033371925354003906e+00,3.901099443435668945e+00,3.777226924896240234e+00,3.660979032516479492e+00,3.551672697067260742e+00,3.448704481124877930e+00,3.351538181304931641e+00,3.259697198867797852e+00,3.172755241394042969e+00,1.222896218299865723e+00,1.183881402015686035e+00,1.156216859817504883e+00,1.135604619979858398e+00,1.128389835357666016e+00,1.124604582786560059e+00,1.133550286293029785e+00,1.156324386596679688e+00,2.558579444885253906e+00,2.504706382751464844e+00,2.453055381774902344e+00,2.403491497039794922e+00,2.355890989303588867e+00,1.091839671134948730e+00,1.058348178863525391e+00,1.020817756652832031e+00,1.009907245635986328e+00,9.990906715393066406e-01,9.879409670829772949e-01,9.770374298095703125e-01,9.778746962547302246e-01,9.794110655784606934e-01,9.814878702163696289e-01,1.934463143348693848e+00,1.903508186340332031e+00,1.873528361320495605e+00,1.844478011131286621e+00
5.000000000000000000e+00,5.000000000000000000e+00,5.000000000000000000e+00,5.000000000000000000e+00,5.000000000000000000e+00,5.000000000000000000e+00,5.000000000000000000e+00,5.000000000000000000e+00,5.000000000000000000e+00,5.000000000000000000e+00,5.000000000000000000e+00,5.000000000000000000e+00,5.000000000000000000e+00,5.000000000000000000e+00,5.000000000000000000e+00,5.000000000000000000e+00,5.000000000000000000e+00,5.000000000000000000e+00,5.000000000000000000e+00,5.000000000000000000e+00,5.000000000000000000e+00,5.000000000000000000e+00,5.000000000000000000e+00,5.000000000000000000e+00,5.000000000000000000e+00,5.000000000000000000e+00,5.000000000000000000e+00,5.000000000000000000e+00,5.000000000000000000e+00,5.000000000000000000e+00,5.000000000000000000e+00,5.000000000000000000e+00,5.000000000000000000e+00,5.000000000000000000e+00,5.000000000000000000e+00,5.000000000000000000e+00,5.000000000000000000e+00,5.000000000000000000e+00,5.000000000000000000e+00,4.856889247894287109e+00,4.666364192962646484e+00,4.490222930908203125e+00,4.326895713806152344e+00,4.175032615661621094e+00,4.033468246459960938e+00,3.901189565658569336e+00,3.777311563491821289e+00,3.661058425903320312e+00,3.551747560501098633e+00,3.448775053024291992e+00,3.351604938507080078e+00,3.259760379791259766e+00,3.172815084457397461e+00,1.227894544601440430e+00,1.190835833549499512e+00,1.160948634147644043e+00,1.139427661895751953e+00,1.130824446678161621e+00,1.126796960830688477e+00,1.140529990196228027e+00,1.160231709480285645e+00,2.558618068695068359e+00,2.504743576049804688e+00,2.453091144561767578e+00,2.403525829315185547e+00,2.355923891067504883e+00,2.310170888900756836e+00,1.064791440963745117e+00,1.022864103317260742e+00,1.011587023735046387e+00,1.000672698020935059e+00,9.899915456771850586e-01,9.810361266136169434e-01,9.822158217430114746e-01,9.836038351058959961e-01,9.849957227706909180e-01,1.934485197067260742e+00,1.903529763221740723e+00,1.873548984527587891e+00,1.844498395919799805e+00
5.000000000000000000e+00,5.000000000000000000e+00,5.000000000000000000e+00,5.000000000000000000e+00,5.000000000000000000e+00,5.000000000000000000e+00,5.000000000000000000e+00,5.000000000000000000e+00,5.000000000000000000e+00,5.000000000000000000e+00,5.000000000000000000e+00,5.000000000000000000e+00,5.000000000000000000e+00,5.000000000000000000e+00,5.000000000000000000e+00,5.000000000000000000e+00,5.000000000000000000e+00,5.000000000000000000e+00,5.000000000000000000e+00,5.000000000000000000e+00,5.000000000000000000e+00,5.000000000000000000e+00,5.000000000000000000e+00,5.000000000000000000e+00,5.000000000000000000e+00,5.000000000000000000e+00,5.000000000000000000e+00,5.000000000000000000e+00,5.000000000000000000e+00,5.000000000000000000e+00,5.000000000000000000e+00,5.000000000000000000e+00,5.000000000000000000e+00,5.000000000000000000e+00,5.000000000000000000e+00,5.000000000000000000e+00,5.000000000000000000e+00,5.000000000000000000e+00,5.000000000000000000e+00,4.857029438018798828e+00,4.666493415832519531e+00,4.490342617034912109e+00,4.327006340026855469e+00,4.175136089324951172e+00,4.033565044403076172e+00,3.901279926300048828e+00,3.777395963668823242e+00,3.661138057708740234e+00,3.551822423934936523e+00,3.448845624923706055e+00,3.351671457290649414e+00,3.259823560714721680e+00,3.172874689102172852e+00,1.232933998107910156e+00,1.197943329811096191e+00,1.165719151496887207e+00,1.143276691436767578e+00,1.134615302085876465e+00,1.128998041152954102e+00,1.145388364791870117e+00,1.164165377616882324e+00,2.558656930923461914e+00,2.504780769348144531e+00,2.453126668930053711e+00,2.403560161590576172e+00,2.355956792831420898e+00,2.310202360153198242e+00,1.063308119773864746e+00,1.026725530624389648e+00,1.015483975410461426e+00,1.004485845565795898e+00,9.926604032516479492e-01,9.869920611381530762e-01,9.877157807350158691e-01,9.891194105148315430e-01,1.966487526893615723e+00,1.934507608413696289e+00,1.903551101684570312e+00,1.873569965362548828e+00,1.844518423080444336e+00
5.000000000000000000e+00,5.000000000000000000e+00,5.000000000000000000e+00,5.000000000000000000e+00,5.000000000000000000e+00,5.000000000000000000e+00,5.000000000000000000e+00,5.000000000000000000e+00,5.000000000000000000e+00,5.000000000000000000e+00,5.000000000000000000e+00,5.000000000000000000e+00,5.000000000000000000e+00,5.000000000000000000e+00,5.000000000000000000e+00,5.000000000000000000e+00,5.000000000000000000e+00,5.000000000000000000e+00,5.000000000000000000e+00,5.000000000000000000e+00,5.000000000000000000e+00,5.000000000000000000e+00,5.000000000000000000e+00,5.000000000000000000e+00,5.000000000000000000e+00,5.000000000000000000e+00,5.000000000000000000e+00,5.000000000000000000e+00,5.000000000000000000e+00,5.000000000000000000e+00,5.000000000000000000e+00,5.000000000000000000e+00,5.000000000000000000e+00,5.000000000000000000e+00,5.000000000000000000e+00,5.000000000000000000e+00,5.000000000000000000e+00,5.000000000000000000e+00,5.000000000000000000e+00,4.857169151306152344e+00,4.666622638702392578e+00,4.490462303161621094e+00,4.327117443084716797e+00,4.175239562988281250e+00,4.033661365509033203e+00,3.901370048522949219e+00,3.777480602264404297e+00,3.661217451095581055e+00,3.551897287368774414e+00,3.448915958404541016e+00,3.351738214492797852e+00,3.259886503219604492e+00,3.172934770584106445e+00,1.238231182098388672e+00,1.203135251998901367e+00,1.170529127120971680e+00,1.147151708602905273e+00,1.138431668281555176e+00,1.131207585334777832e+00,1.149222016334533691e+00,2.614942550659179688e+00,2.558695793151855469e+00,2.504817962646484375e+00,2.453162431716918945e+00,2.403594255447387695e+00,2.355989694595336914e+00,2.310234069824218750e+00,1.056452631950378418e+00,1.030740022659301758e+00,1.019410967826843262e+00,1.007638454437255859e+00,9.969614148139953613e-01,9.930207729339599609e-01,9.932777285575866699e-01,9.946972131729125977e-01,1.966510415077209473e+00,1.934529900550842285e+00,1.903572678565979004e+00,1.873590707778930664e+00,1.844538688659667969e+00
5.000000000000000000e+00,5.000000000000000000e+00,5.000000000000000000e+00,5.000000000000000000e+00,5.000000000000000000e+00,5.000000000000000000e+00,5.000000000000000000e+00,5.000000000000000000e+00,5.000000000000000000e+00,5.000000000000000000e+00,5.000000000000000000e+00,5.000000000000000000e+00,5.000000000000000000e+00,5.000000000000000000e+00,5.000000000000000000e+00,5.000000000000000000e+00,5.000000000000000000e+00,5.000000000000000000e+00,5.000000000000000000e+00,5.000000000000000000e+00,5.000000000000000000e+00,5.000000000000000000e+00,5.000000000000000000e+00,5.000000000000000000e+00,5.000000000000000000e+00,5.000000000000000000e+00,5.000000000000000000e+00,5.000000000000000000e+00,5.000000000000000000e+00,5.000000000000000000e+00,5.000000000000000000e+00,5.000000000000000000e+00,5.000000000000000000e+00,5.000000000000000000e+00,5.000000000000000000e+00,5.000000000000000000e+00,5.000000000000000000e+00,5.000000000000000000e+00,5.000000000000000000e+00,4.857308864593505859e+00,4.666751861572265625e+00,4.490581512451171875e+00,4.327228546142578125e+00,4.175343036651611328e+00,4.033758163452148438e+00,3.901460409164428711e+00,3.777565240859985352e+00,3.661296844482421875e+00,3.551972150802612305e+00,3.448986530303955078e+00,3.351804733276367188e+00,3.259949445724487305e+00,3.172994375228881836e+00,1.244674682617187500e+00,1.208694458007812500e+00,1.175844907760620117e+00,1.151803374290466309e+00,1.142526268959045410e+00,1.136595964431762695e+00,1.154820919036865234e+00,2.614983081817626953e+00,2.558734655380249023e+00,2.504855155944824219e+00,2.453198194503784180e+00,2.403628587722778320e+00,2.356022834777832031e+00,1.099879145622253418e+00,1.049685001373291016e+00,1.034786224365234375e+00,1.023075580596923828e+00,1.009132862091064453e+00,1.003112792968750000e+00,9.991235733032226562e-01,9.989026784896850586e-01,1.999589681625366211e+00,1.966533422470092773e+00,1.934551954269409180e+00,1.903594136238098145e+00,1.873611569404602051e+00,1.844558715820312500e+00
5.000000000000000000e+00,5.000000000000000000e+00,5.000000000000000000e+00,5.000000000000000000e+00,5.000000000000000000e+00,5.000000000000000000e+00,5.000000000000000000e+00,5.000000000000000000e+00,5.000000000000000000e+00,5.000000000000000000e+00,5.000000000000000000e+00,5.000000000000000000e+00,5.000000000000000000e+00,5.000000000000000000e+00,5.000000000000000000e+00,5.000000000000000000e+00,5.000000000000000000e+00,5.000000000000000000e+00,5.000000000000000000e+00,5.000000000000000000e+00,5.000000000000000000e+00,5.000000000000000000e+00,5.000000000000000000e+00,5.000000000000000000e+00,5.000000000000000000e+00,5.000000000000000000e+00,5.000000000000000000e+00,5.000000000000000000e+00,5.000000000000000000e+00,5.000000000000000000e+00,5.000000000000000000e+00,5.000000000000000000e+00,5.000000000000000000e+00,5.000000000000000000e+00,5.000000000000000000e+00,5.000000000000000000e+00,5.000000000000000000e+00,5.000000000000000000e+00,5.000000000000000000e+00,4.857449054718017578e+00,4.666881084442138672e+00,4.490701675415039062e+00,4.327339649200439453e+00,4.175446510314941406e+00,4.033854484558105469e+00,3.901551246643066406e+00,3.777649879455566406e+00,3.661376476287841797e+00,3.552047014236450195e+00,3.449057102203369141e+00,3.351871490478515625e+00,3.260012626647949219e+00,1.279500961303710938e+00,1.241145014762878418e+00,1.210623860359191895e+00,1.181323409080505371e+00,1.158921718597412109e+00,1.147020220756530762e+00,1.148411273956298828e+00,1.165587186813354492e+00,2.615023612976074219e+00,2.558773756027221680e+00,2.504892349243164062e+00,2.453233957290649414e+00,2.403662919998168945e+00,2.356055736541748047e+00,1.092873096466064453e+00,1.050632476806640625e+00,1.038864254951477051e+00,1.024616241455078125e+00,1.013412356376647949e+00,1.009340643882751465e+00,1.005301594734191895e+00,1.004591703414916992e+00,1.999613523483276367e+00,1.966556191444396973e+00,1.934574246406555176e+00,1.903615713119506836e+00,1.873632311820983887e+00,1.844579100608825684e+00
5.000000000000000000e+00,5.000000000000000000e+00,5.000000000000000000e+00,5.000000000000000000e+00,5.000000000000000000e+00,5.000000000000000000e+00,5.000000000000000000e+00,5.000000000000000000e+00,5.000000000000000000e+00,5.000000000000000000e+00,5.000000000000000000e+00,5.000000000000000000e+00,5.000000000000000000e+00,5.000000000000000000e+00,5.000000000000000000e+00,5.000000000000000000e+00,5.000000000000000000e+00,5.000000000000000000e+00,5.000000000000000000e+00,5.000000000000000000e+00,5.000000000000000000e+00,5.000000000000000000e+00,5.000000000000000000e+00,5.000000000000000000e+00,5.000000000000000000e+00,5.000000000000000000e+00,5.000000000000000000e+00,5.000000000000000000e+00,5.000000000000000000e+00,5.000000000000000000e+00,5.000000000000000000e+00,5.000000000000000000e+00,5.000000000000000000e+00,5.000000000000000000e+00,5.000000000000000000e+00,5.000000000000000000e+00,5.000000000000000000e+00,5.000000000000000000e+00,5.000000000000000000e+00,4.857588768005371094e+00,4.667010307312011719e+00,4.490821361541748047e+00,4.327450752258300781e+00,4.175549983978271484e+00,4.033951282501220703e+00,3.901641368865966797e+00,3.777734518051147461e+00,3.661455869674682617e+00,3.552121639251708984e+00,3.449127674102783203e+00,3.351938009262084961e+00,3.260075569152832031e+00,1.268385648727416992e+00,1.236200571060180664e+00,1.209854483604431152e+00,1.184202075004577637e+00,1.166990756988525391e+00,1.153615236282348633e+00,1.161571860313415527e+00,1.180106639862060547e+00,2.615064144134521484e+00,2.558812379837036133e+00,2.504929780960083008e+00,2.453269481658935547e+00,2.403697252273559570e+00,2.356088638305664062e+00,1.085955739021301270e+00,1.054836630821228027e+00,1.040582060813903809e+00,1.026161551475524902e+00,1.019769191741943359e+00,1.015646338462829590e+00,1.011556744575500488e+00,1.010345816612243652e+00,1.999637126922607422e+00,1.966579318046569824e+00,1.934596300125122070e+00,1.903637290000915527e+00,1.873653292655944824e+00,1.844599127769470215e+00
5.000000000000000000e+00,5.000000000000000000e+00,5.000000000000000000e+00,5.000000000000000000e+00,5.000000000000000000e+00,5.000000000000000000e+00,5.000000000000000000e+00,5.000000000000000000e+00,5.000000000000000000e+00,5.000000000000000000e+00,5.000000000000000000e+00,5.000000000000000000e+00,5.000000000000000000e+00,5.000000000000000000e+00,5.000000000000000000e+00,5.000000000000000000e+00,5.000000000000000000e+00,5.000000000000000000e+00,5.000000000000000000e+00,5.000000000000000000e+00,5.000000000000000000e+00,5.000000000000000000e+00,5.000000000000000000e+00,5.000000000000000000e+00,5.000000000000000000e+00,5.000000000000000000e+00,5.000000000000000000e+00,5.000000000000000000e+00,5.000000000000000000e+00,5.000000000000000000e+00,5.000000000000000000e+00,5.000000000000000000e+00,5.000000000000000000e+00,5.000000000000000000e+00,5.000000000000000000e+00,5.000000000000000000e+00,5.000000000000000000e+00,5.000000000000000000e+00,5.000000000000000000e+00,4.857728958129882812e+00,4.667139530181884766e+00,4.490940570831298828e+00,4.327562332153320312e+00,4.175652980804443359e+00,4.034047603607177734e+00,3.901731729507446289e+00,3.777819633483886719e+00,3.661535501480102539e+00,3.552196502685546875e+00,3.449198246002197266e+00,3.352004766464233398e+00,1.298210620880126953e+00,1.264123201370239258e+00,1.238051533699035645e+00,1.214678883552551270e+00,1.197227239608764648e+00,1.177032113075256348e+00,1.170314908027648926e+00,1.190436840057373047e+00,2.673887014389038086e+00,2.615104675292968750e+00,2.558851242065429688e+00,2.504966974258422852e+00,2.453305244445800781e+00,2.403731346130371094e+00,2.356121540069580078e+00,1.079125404357910156e+00,1.057053327560424805e+00,1.041714191436767578e+00,1.027756094932556152e+00,1.024488687515258789e+00,1.021132707595825195e+00,1.017798781394958496e+00,2.033850193023681641e+00,1.999660968780517578e+00,1.966602087020874023e+00,1.934618592262268066e+00,1.903658628463745117e+00,1.873674154281616211e+00,1.844619393348693848e+00
5.000000000000000000e+00,5.000000000000000000e+00,5.000000000000000000e+00,5.000000000000000000e+00,5.000000000000000000e+00,5.000000000000000000e+00,5.000000000000000000e+00,5.000000000000000000e+00,5.000000000000000000e+00,5.000000000000000000e+00,5.000000000000000000e+00,5.000000000000000000e+00,5.000000000000000000e+00,5.000000000000000000e+00,5.000000000000000000e+00,5.000000000000000000e+00,5.000000000000000000e+00,5.000000000000000000e+00,5.000000000000000000e+00,5.000000000000000000e+00,5.000000000000000000e+00,5.000000000000000000e+00,5.000000000000000000e+00,5.000000000000000000e+00,5.000000000000000000e+00,5.000000000000000000e+00,5.000000000000000000e+00,5.000000000000000000e+00,5.000000000000000000e+00,5.000000000000000000e+00,5.000000000000000000e+00,5.000000000000000000e+00,5.000000000000000000e+00,5.000000000000000000e+00,5.000000000000000000e+00,5.000000000000000000e+00,5.000000000000000000e+00,5.000000000000000000e+00,5.000000000000000000e+00,4.857868671417236328e+00,4.667268753051757812e+00,4.491060256958007812e+00,4.327672958374023438e+00,4.175756454467773438e+00,4.034143924713134766e+00,3.901822090148925781e+00,3.777904272079467773e+00,3.661614894866943359e+00,3.552271366119384766e+00,3.449268817901611328e+00,1.361013531684875488e+00,1.296503186225891113e+00,1.271883368492126465e+00,1.248181104660034180e+00,1.231837868690490723e+00,1.215575218200683594e+00,1.195477724075317383e+00,1.223585247993469238e+00,2.735417127609252930e+00,2.673929452896118164e+00,2.615145206451416016e+00,2.558890104293823242e+00,2.505004405975341797e+00,2.453341007232666016e+00,2.403765678405761719e+00,2.356154441833496094e+00,1.078232049942016602e+00,1.056396722793579102e+00,1.041061401367187500e+00,1.027350544929504395e+00,1.024526000022888184e+00,1.021169781684875488e+00,1.017835617065429688e+00,2.033874750137329102e+00,1.999684572219848633e+00,1.966625213623046875e+00,1.934640765190124512e+00,1.903680324554443359e+00,1.873694896697998047e+00,1.844639539718627930e+00
5.000000000000000000e+00,5.000000000000000000e+00,5.000000000000000000e+00,5.000000000000000000e+00,5.000000000000000000e+00,5.000000000000000000e+00,5.000000000000000000e+00,5.000000000000000000e+00,5.000000000000000000e+00,5.000000000000000000e+00,5.000000000000000000e+00,5.000000000000000000e+00,5.000000000000000000e+00,5.000000000000000000e+00,5.000000000000000000e+00,5.000000000000000000e+00,5.000000000000000000e+00,5.000000000000000000e+00,5.000000000000000000e+00,5.000000000000000000e+00,5.000000000000000000e+00,5.000000000000000000e+00,5.000000000000000000e+00,5.000000000000000000e+00,5.000000000000000000e+00,5.000000000000000000e+00,5.000000000000000000e+00,5.000000000000000000e+00,5.000000000000000000e+00,5.000000000000000000e+00,5.000000000000000000e+00,5.000000000000000000e+00,5.000000000000000000e+00,5.000000000000000000e+00,5.000000000000000000e+00,5.000000000000000000e+00,5.000000000000000000e+00,5.000000000000000000e+00,5.000000000000000000e+00,4.858009338378906250e+00,4.667397975921630859e+00,4.491179943084716797e+00,4.327784061431884766e+00,4.175860404968261719e+00,4.034240722656250000e+00,3.901912212371826172e+00,3.777988910675048828e+00,3.661695003509521484e+00,3.552346229553222656e+00,3.449339389801025391e+00,1.338326573371887207e+00,1.308411121368408203e+00,1.283583879470825195e+00,1.265932798385620117e+00,1.253919482231140137e+00,1.234494328498840332e+00,2.867333889007568359e+00,2.799845695495605469e+00,2.735461473464965820e+00,2.673971891403198242e+00,2.615185976028442383e+00,2.558928966522216797e+00,2.505041599273681641e+00,2.453376770019531250e+00,2.403800010681152344e+00,2.356187343597412109e+00,1.079050660133361816e+00,1.055725455284118652e+00,1.040409564971923828e+00,1.026945352554321289e+00,1.024527788162231445e+00,1.021206855773925781e+00,1.017872452735900879e+00,2.033899307250976562e+00,1.999708414077758789e+00,1.966647982597351074e+00,1.934663057327270508e+00,1.903701663017272949e+00,1.873715758323669434e+00,1.844659805297851562e+00
5.000000000000000000e+00,5.000000000000000000e+00,5.000000000000000000e+00,5.000000000000000000e+00,5.000000000000000000e+00,5.000000000000000000e+00,5.000000000000000000e+00,5.000000000000000000e+00,5.000000000000000000e+00,5.000000000000000000e+00,5.000000000000000000e+00,5.000000000000000000e+00,5.000000000000000000e+00,5.000000000000000000e+00,5.000000000000000000e+00,5.000000000000000000e+00,5.000000000000000000e+00,5.000000000000000000e+00,5.000000000000000000e+00,5.000000000000000000e+00,5.000000000000000000e+00,5.000000000000000000e+00,5.000000000000000000e+00,5.000000000000000000e+00,5.000000000000000000e+00,5.000000000000000000e+00,5.000000000000000000e+00,5.000000000000000000e+00,5.000000000000000000e+00,5.000000000000000000e+00,5.000000000000000000e+00,5.000000000000000000e+00,5.000000000000000000e+00,5.000000000000000000e+00,5.000000000000000000e+00,5.000000000000000000e+00,5.000000000000000000e+00,5.000000000000000000e+00,5.000000000000000000e+00,4.858149051666259766e+00,4.667527198791503906e+00,4.491299629211425781e+00,4.327895164489746094e+00,4.175963878631591797e+00,4.034337043762207031e+00,3.902002573013305664e+00,3.778073549270629883e+00,3.661774396896362305e+00,3.552421092987060547e+00,1.417141556739807129e+00,1.346560835838317871e+00,1.320358395576477051e+00,1.296535015106201172e+00,1.286697506904602051e+00,1.276807308197021484e+00,2.938207387924194336e+00,2.867382526397705078e+00,2.799892187118530273e+00,2.735505819320678711e+00,2.674014329910278320e+00,2.615226507186889648e+00,2.558967828750610352e+00,2.505078792572021484e+00,2.453412532806396484e+00,2.403834104537963867e+00,2.356220245361328125e+00,1.079870581626892090e+00,1.055055022239685059e+00,1.039956092834472656e+00,1.026540279388427734e+00,1.024124860763549805e+00,1.021243929862976074e+00,1.017909288406372070e+00,2.033923864364624023e+00,1.999732017517089844e+00,1.966670989990234375e+00,1.934685111045837402e+00,1.903723239898681641e+00,1.873736500740051270e+00,1.844680070877075195e+00
5.000000000000000000e+00,5.000000000000000000e+00,5.000000000000000000e+00,5.000000000000000000e+00,5.000000000000000000e+00,5.000000000000000000e+00,5.000000000000000000e+00,5.000000000000000000e+00,5.000000000000000000e+00,5.000000000000000000e+00,5.000000000000000000e+00,5.000000000000000000e+00,5.000000000000000000e+00,5.000000000000000000e+00,5.000000000000000000e+00,5.000000000000000000e+00,5.000000000000000000e+00,5.000000000000000000e+00,5.000000000000000000e+00,5.000000000000000000e+00,5.000000000000000000e+00,5.000000000000000000e+00,5.000000000000000000e+00,5.000000000000000000e+00,5.000000000000000000e+00,5.000000000000000000e+00,5.000000000000000000e+00,5.000000000000000000e+00,5.000000000000000000e+00,5.000000000000000000e+00,5.000000000000000000e+00,5.000000000000000000e+00,5.000000000000000000e+00,5.000000000000000000e+00,5.000000000000000000e+00,5.000000000000000000e+00,5.000000000000000000e+00,5.000000000000000000e+00,5.000000000000000000e+00,4.858299732208251953e+00,4.667656421661376953e+00,4.491419315338134766e+00,4.328006267547607422e+00,4.176066875457763672e+00,4.034433841705322266e+00,3.902092933654785156e+00,3.778158187866210938e+00,3.661854028701782227e+00,3.552495956420898438e+00,1.403867244720458984e+00,1.359218358993530273e+00,1.332887411117553711e+00,1.312740206718444824e+00,1.303074955940246582e+00,1.334031224250793457e+00,2.938258409500122070e+00,2.867431402206420898e+00,2.799938678741455078e+00,2.735550165176391602e+00,2.674056768417358398e+00,2.615267038345336914e+00,2.559006690979003906e+00,2.505115985870361328e+00,2.453448295593261719e+00,2.403868436813354492e+00,2.356253147125244141e+00,1.080691576004028320e+00,1.054385423660278320e+00,1.039656639099121094e+00,1.026135683059692383e+00,1.023722171783447266e+00,1.021281003952026367e+00,1.017946124076843262e+00,2.033948421478271484e+00,1.999755859375000000e+00,1.966693878173828125e+00,1.934707403182983398e+00,1.903744697570800781e+00,1.873757481575012207e+00,1.844700098037719727e+00
5.000000000000000000e+00,5.000000000000000000e+00,5.000000000000000000e+00,5.000000000000000000e+00,5.000000000000000000e+00,5.000000000000000000e+00,5.000000000000000000e+00,5.000000000000000000e+00,5.000000000000000000e+00,5.000000000000000000e+00,5.000000000000000000e+00,5.000000000000000000e+00,5.000000000000000000e+00,5.000000000000000000e+00,5.000000000000000000e+00,5.000000000000000000e+00,5.000000000000000000e+00,5.000000000000000000e+00,5.000000000000000000e+00,5.000000000000000000e+00,5.000000000000000000e+00,5.000000000000000000e+00,5.000000000000000000e+00,5.000000000000000000e+00,5.000000000000000000e+00,5.000000000000000000e+00,5.000000000000000000e+00,5.000000000000000000e+00,5.000000000000000000e+00,5.000000000000000000e+00,5.000000000000000000e+00,5.000000000000000000e+00,5.000000000000000000e+00,5.000000000000000000e+00,5.000000000000000000e+00,5.000000000000000000e+00,5.000000000000000000e+00,5.000000000000000000e+00,5.000000000000000000e+00,4.858472824096679688e+00,4.667785644531250000e+00,4.491539001464843750e+00,4.328117370605468750e+00,4.176170349121093750e+00,4.034530639648437500e+00,3.902183294296264648e+00,3.778242826461791992e+00,3.661933422088623047e+00,3.552571058273315430e+00,1.400450229644775391e+00,1.372581243515014648e+00,1.345799803733825684e+00,1.329791545867919922e+00,1.327846050262451172e+00,3.012726545333862305e+00,2.938309669494628906e+00,2.867480278015136719e+00,2.799985170364379883e+00,2.735594511032104492e+00,2.674099206924438477e+00,2.615307569503784180e+00,2.559045553207397461e+00,2.505153179168701172e+00,2.453483819961547852e+00,2.403903007507324219e+00,2.356286048889160156e+00,1.081551671028137207e+00,1.053716659545898438e+00,1.039357423782348633e+00,1.025731563568115234e+00,1.023319840431213379e+00,1.020919442176818848e+00,1.017982959747314453e+00,2.033972978591918945e+00,1.999779462814331055e+00,1.966716885566711426e+00,1.934729576110839844e+00,1.903766274452209473e+00,1.873778223991394043e+00,1.844720363616943359e+00
5.000000000000000000e+00,5.000000000000000000e+00,5.000000000000000000e+00,5.000000000000000000e+00,5.000000000000000000e+00,5.000000000000000000e+00,5.000000000000000000e+00,5.000000000000000000e+00,5.000000000000000000e+00,5.000000000000000000e+00,5.000000000000000000e+00,5.000000000000000000e+00,5.000000000000000000e+00,5.000000000000000000e+00,5.000000000000000000e+00,5.000000000000000000e+00,5.000000000000000000e+00,5.000000000000000000e+00,5.000000000000000000e+00,5.000000000000000000e+00,5.000000000000000000e+00,5.000000000000000000e+00,5.000000000000000000e+00,5.000000000000000000e+00,5.000000000000000000e+00,5.000000000000000000e+00,5.000000000000000000e+00,5.000000000000000000e+00,5.000000000000000000e+00,5.000000000000000000e+00,5.000000000000000000e+00,5.000000000000000000e+00,5.000000000000000000e+00,5.000000000000000000e+00,5.000000000000000000e+00,5.000000000000000000e+00,5.000000000000000000e+00,5.000000000000000000e+00,5.000000000000000000e+00,4.858645915985107422e+00,4.667944908142089844e+00,4.491658687591552734e+00,4.328228473663330078e+00,4.176273822784423828e+00,4.034626960754394531e+00,3.902273416519165039e+00,3.778327703475952148e+00,3.662013053894042969e+00,1.477546930313110352e+00,1.415497183799743652e+00,1.386278033256530762e+00,1.361860871315002441e+00,1.347291827201843262e+00,1.389654159545898438e+00,3.012780427932739258e+00,2.938360929489135742e+00,2.867529153823852539e+00,2.800031661987304688e+00,2.735639095306396484e+00,2.674141645431518555e+00,2.615348100662231445e+00,2.559084415435791016e+00,2.505190372467041016e+00,2.453519582748413086e+00,2.403937101364135742e+00,2.356318950653076172e+00,1.082439899444580078e+00,1.053231954574584961e+00,1.039058208465576172e+00,1.025327563285827637e+00,1.022917747497558594e+00,1.020519256591796875e+00,1.018019795417785645e+00,2.033997535705566406e+00,1.999803304672241211e+00,1.966739773750305176e+00,1.934751868247985840e+00,1.903787612915039062e+00,1.873799085617065430e+00,1.844740509986877441e+00
5.000000000000000000e+00,5.000000000000000000e+00,5.000000000000000000e+00,5.000000000000000000e+00,5.000000000000000000e+00,5.000000000000000000e+00,5.000000000000000000e+00,5.000000000000000000e+00,5.000000000000000000e+00,5.000000000000000000e+00,5.000000000000000000e+00,5.000000000000000000e+00,5.000000000000000000e+00,5.000000000000000000e+00,5.000000000000000000e+00,5.000000000000000000e+00,5.000000000000000000e+00,5.000000000000000000e+00,5.000000000000000000e+00,5.000000000000000000e+00,5.000000000000000000e+00,5.000000000000000000e+00,5.000000000000000000e+00,5.000000000000000000e+00,5.000000000000000000e+00,5.000000000000000000e+00,5.000000000000000000e+00,5.000000000000000000e+00,5.000000000000000000e+00,5.000000000000000000e+00,5.000000000000000000e+00,5.000000000000000000e+00,5.000000000000000000e+00,5.000000000000000000e+00,5.000000000000000000e+00,5.000000000000000000e+00,5.000000000000000000e+00,5.000000000000000000e+00,5.000000000000000000e+00,4.858818531036376953e+00,4.668104648590087891e+00,4.491796493530273438e+00,4.328339576721191406e+00,4.176377296447753906e+00,4.034723281860351562e+00,3.902363777160644531e+00,3.778412342071533203e+00,3.662092447280883789e+00,1.465885996818542480e+00,1.431408286094665527e+00,1.401544809341430664e+00,1.381560683250427246e+00,1.388744950294494629e+00,3.091124296188354492e+00,3.012834310531616211e+00,2.938412189483642578e+00,2.867577791213989258e+00,2.800078392028808594e+00,2.735683441162109375e+00,2.674183845520019531e+00,2.615388631820678711e+00,2.559123277664184570e+00,2.505227565765380859e+00,2.453555345535278320e+00,2.403971433639526367e+00,2.356352090835571289e+00,1.083329558372497559e+00,1.053117036819458008e+00,1.038864850997924805e+00,1.024992823600769043e+00,1.022516012191772461e+00,1.020119428634643555e+00,1.017734050750732422e+00,2.034022092819213867e+00,1.999826908111572266e+00,1.966762781143188477e+00,1.934773921966552734e+00,1.903809189796447754e+00,1.873819828033447266e+00,1.844760775566101074e+00
5.000000000000000000e+00,5.000000000000000000e+00,5.000000000000000000e+00,5.000000000000000000e+00,5.000000000000000000e+00,5.000000000000000000e+00,5.000000000000000000e+00,5.000000000000000000e+00,5.000000000000000000e+00,5.000000000000000000e+00,5.000000000000000000e+00,5.000000000000000000e+00,5.000000000000000000e+00,5.000000000000000000e+00,5.000000000000000000e+00,5.000000000000000000e+00,5.000000000000000000e+00,5.000000000000000000e+00,5.000000000000000000e+00,5.000000000000000000e+00,5.000000000000000000e+00,5.000000000000000000e+00,5.000000000000000000e+00,5.000000000000000000e+00,5.000000000000000000e+00,5.000000000000000000e+00,5.000000000000000000e+00,5.000000000000000000e+00,5.000000000000000000e+00,5.000000000000000000e+00,5.000000000000000000e+00,5.000000000000000000e+00,5.000000000000000000e+00,5.000000000000000000e+00,5.000000000000000000e+00,5.000000000000000000e+00,5.000000000000000000e+00,5.000000000000000000e+00,5.000000000000000000e+00,4.858991622924804688e+00,4.668263912200927734e+00,4.491944789886474609e+00,4.328458786010742188e+00,4.176480770111083984e+00,4.034820079803466797e+00,3.902454137802124023e+00,3.778496980667114258e+00,3.662172079086303711e+00,1.479684591293334961e+00,1.448014616966247559e+00,1.420445203781127930e+00,1.406677842140197754e+00,3.173651456832885742e+00,3.091180801391601562e+00,3.012887954711914062e+00,2.938463211059570312e+00,2.867626667022705078e+00,2.800124883651733398e+00,2.735727787017822266e+00,2.674226284027099609e+00,2.615429162979125977e+00,2.559162139892578125e+00,2.505264759063720703e+00,2.453591108322143555e+00,2.404005765914916992e+00,2.356384992599487305e+00,1.084769129753112793e+00,1.054055571556091309e+00,1.039778113365173340e+00,1.025795698165893555e+00,1.022533416748046875e+00,1.020051717758178711e+00,1.017582058906555176e+00,2.034046649932861328e+00,1.999850749969482422e+00,1.966785669326782227e+00,1.934796214103698730e+00,1.903830647468566895e+00,1.873840689659118652e+00,1.844780921936035156e+00
5.000000000000000000e+00,5.000000000000000000e+00,5.000000000000000000e+00,5.000000000000000000e+00,5.000000000000000000e+00,5.000000000000000000e+00,5.000000000000000000e+00,5.000000000000000000e+00,5.000000000000000000e+00,5.000000000000000000e+00,5.000000000000000000e+00,5.000000000000000000e+00,5.000000000000000000e+00,5.000000000000000000e+00,5.000000000000000000e+00,5.000000000000000000e+00,5.000000000000000000e+00,5.000000000000000000e+00,5.000000000000000000e+00,5.000000000000000000e+00,5.000000000000000000e+00,5.000000000000000000e+00,5.000000000000000000e+00,5.000000000000000000e+00,5.000000000000000000e+00,5.000000000000000000e+00,5.000000000000000000e+00,5.000000000000000000e+00,5.000000000000000000e+00,5.000000000000000000e+00,5.000000000000000000e+00,5.000000000000000000e+00,5.000000000000000000e+00,5.000000000000000000e+00,5.000000000000000000e+00,5.000000000000000000e+00,5.000000000000000000e+00,5.000000000000000000e+00,5.000000000000000000e+00,4.859164714813232422e+00,4.668423652648925781e+00,4.492092609405517578e+00,4.328596115112304688e+00,4.176584243774414062e+00,4.034916400909423828e+00,3.902544498443603516e+00,3.778581619262695312e+00,1.584071993827819824e+00,1.497671723365783691e+00,1.465368509292602539e+00,1.449774742126464844e+00,1.470128178596496582e+00,3.173711061477661133e+00,3.091237545013427734e+00,3.012941837310791016e+00,2.938514471054077148e+00,2.867675542831420898e+00,2.800171375274658203e+00,2.735772371292114258e+00,2.674268722534179688e+00,2.615469932556152344e+00,2.559200763702392578e+00,2.505301952362060547e+00,2.453626632690429688e+00,2.404040098190307617e+00,2.356417894363403320e+00,1.086261630058288574e+00,1.054995775222778320e+00,1.040693044662475586e+00,1.026599764823913574e+00,1.022626280784606934e+00,1.020143985748291016e+00,1.017673969268798828e+00,2.034071207046508789e+00,1.999874591827392578e+00,1.966808676719665527e+00,1.934818387031555176e+00,1.903852224349975586e+00,1.873861432075500488e+00,1.844801187515258789e+00
4.874774932861328125e+00,4.873563766479492188e+00,4.872353076934814453e+00,4.871143817901611328e+00,4.869934558868408203e+00,4.868725776672363281e+00,4.867517948150634766e+00,4.866310596466064453e+00,4.865103721618652344e+00,4.863897800445556641e+00,4.862691879272460938e+00,4.861486911773681641e+00,4.860282421112060547e+00,4.859078884124755859e+00,4.857875347137451172e+00,4.856672763824462891e+00,4.855471134185791016e+00,4.854269504547119141e+00,4.853068828582763672e+00,4.851868629455566406e+00,4.850668907165527344e+00,4.849470138549804688e+00,4.848271369934082031e+00,4.847074031829833984e+00,4.845876693725585938e+00,4.844679832458496094e+00,4.843483924865722656e+00,4.842288494110107422e+00,4.841093063354492188e+00,4.839899063110351562e+00,4.838705539703369141e+00,4.837512016296386719e+00,4.836319446563720703e+00,4.835127830505371094e+00,4.833936214447021484e+00,4.832745075225830078e+00,4.831555366516113281e+00,4.830365657806396484e+00,4.829176425933837891e+00,4.827988147735595703e+00,4.668583869934082031e+00,4.492240428924560547e+00,4.328733921051025391e+00,4.176711559295654297e+00,4.035013198852539062e+00,3.902634859085083008e+00,3.778666257858276367e+00,1.569009900093078613e+00,1.520496487617492676e+00,1.503500342369079590e+00,1.480340957641601562e+00,3.260769128799438477e+00,3.173770904541015625e+00,3.091294288635253906e+00,3.012995719909667969e+00,2.938565731048583984e+00,2.867724180221557617e+00,2.800217866897583008e+00,2.735816717147827148e+00,2.674311161041259766e+00,2.615510463714599609e+00,2.559239625930786133e+00,2.505339384078979492e+00,2.453662395477294922e+00,2.404074192047119141e+00,2.356451034545898438e+00,1.087758421897888184e+00,1.055937528610229492e+00,1.041609406471252441e+00,1.027405142784118652e+00,1.022719025611877441e+00,1.020236372947692871e+00,1.017765879631042480e+00,2.034095764160156250e+00,1.999898195266723633e+00,1.966831564903259277e+00,1.934840679168701172e+00,1.903873562812805176e+00,1.873882412910461426e+00,1.844821214675903320e+00
3.777555942535400391e+00,3.776828765869140625e+00,3.776102066040039062e+00,3.775375127792358398e+00,3.774648904800415039e+00,3.773922920227050781e+00,3.773196697235107422e+00,3.772471427917480469e+00,3.771745920181274414e+00,3.771020889282226562e+00,3.770296335220336914e+00,3.769571781158447266e+00,3.768847703933715820e+00,3.768123865127563477e+00,3.767400026321411133e+00,3.766676902770996094e+00,3.765954017639160156e+00,3.765230894088745117e+00,3.764508485794067383e+00,3.763786554336547852e+00,3.763064384460449219e+00,3.762342691421508789e+00,3.761621475219726562e+00,3.760900259017944336e+00,3.760179519653320312e+00,3.759459018707275391e+00,3.758738517761230469e+00,3.758018732070922852e+00,3.757298707962036133e+00,3.756579399108886719e+00,3.755860328674316406e+00,3.755141258239746094e+00,3.754422664642333984e+00,3.753704547882080078e+00,3.752986192703247070e+00,3.752268552780151367e+00,3.751551151275634766e+00,3.750833511352539062e+00,3.750116586685180664e+00,3.749400138854980469e+00,3.748683452606201172e+00,3.747967481613159180e+00,3.747251749038696289e+00,3.746535778045654297e+00,3.745820522308349609e+00,3.745105743408203125e+00,3.744390487670898438e+00,1.560177683830261230e+00,1.528717398643493652e+00,1.515684723854064941e+00,3.352738142013549805e+00,3.260832548141479492e+00,3.173830509185791016e+00,3.091351032257080078e+00,3.013049602508544922e+00,2.938616991043090820e+00,2.867773056030273438e+00,2.800264596939086914e+00,2.735861063003540039e+00,2.674353837966918945e+00,2.615550994873046875e+00,2.559278488159179688e+00,2.505376577377319336e+00,2.453698158264160156e+00,2.404108524322509766e+00,2.356483936309814453e+00,1.089259266853332520e+00,1.056881070137023926e+00,1.042487263679504395e+00,1.028211712837219238e+00,1.022811889648437500e+00,1.020328760147094727e+00,2.069508314132690430e+00,2.034120321273803711e+00,1.999922037124633789e+00,1.966854572296142578e+00,1.934862732887268066e+00,1.903895258903503418e+00,1.873903155326843262e+00,1.844841480255126953e+00
3.083515644073486328e+00,3.083031177520751953e+00,3.082546710968017578e+00,3.082062482833862305e+00,3.081578493118286133e+00,3.081094264984130859e+00,3.080610513687133789e+00,3.080126762390136719e+00,3.079643249511718750e+00,3.079159975051879883e+00,3.078676700592041016e+00,3.078193664550781250e+00,3.077710866928100586e+00,3.077228069305419922e+00,3.076745510101318359e+00,3.076263189315795898e+00,3.075780630111694336e+00,3.075298547744750977e+00,3.074816703796386719e+00,3.074334621429443359e+00,3.073853015899658203e+00,3.073371648788452148e+00,3.072890043258666992e+00,3.072408914566040039e+00,3.071927785873413086e+00,3.071446895599365234e+00,3.070966005325317383e+00,3.070485353469848633e+00,3.070004940032958984e+00,3.069524526596069336e+00,3.069044351577758789e+00,3.068564414978027344e+00,3.068084478378295898e+00,3.067604541778564453e+00,3.067125082015991211e+00,3.066645860671997070e+00,3.066166400909423828e+00,3.065687417984008789e+00,3.065208435058593750e+00,3.064729452133178711e+00,3.064250946044921875e+00,3.063772439956665039e+00,3.063293933868408203e+00,3.062815666198730469e+00,3.062337875366210938e+00,3.061859607696533203e+00,3.061381816864013672e+00,1.552720665931701660e+00,1.528351783752441406e+00,1.517139673233032227e+00,1.535208344459533691e+00,3.058995246887207031e+00,3.058518409729003906e+00,3.058041334152221680e+00,3.013103485107421875e+00,2.938668251037597656e+00,2.867821693420410156e+00,2.800311088562011719e+00,2.735905647277832031e+00,2.674396276473999023e+00,2.615591526031494141e+00,2.559317350387573242e+00,2.505413770675659180e+00,2.453733921051025391e+00,2.404142856597900391e+00,2.356516838073730469e+00,1.092671036720275879e+00,1.057826280593872070e+00,1.043317794799804688e+00,1.029019594192504883e+00,1.022904753684997559e+00,1.020421147346496582e+00,2.069533824920654297e+00,2.034144878387451172e+00,1.999945640563964844e+00,1.966877579689025879e+00,1.934885025024414062e+00,1.903916597366333008e+00,1.873924016952514648e+00,1.844861626625061035e+00
2.604920625686645508e+00,2.604574680328369141e+00,2.604228973388671875e+00,2.603883028030395508e+00,2.603537559509277344e+00,2.603192329406738281e+00,2.602846622467041016e+00,2.602501630783081055e+00,2.602156400680541992e+00,2.601811170578002930e+00,2.601466178894042969e+00,2.601121425628662109e+00,2.600776433944702148e+00,2.600431680679321289e+00,2.600087165832519531e+00,2.599742412567138672e+00,2.599398136138916016e+00,2.599053859710693359e+00,2.598709344863891602e+00,2.598365306854248047e+00,2.598021268844604492e+00,2.597676992416381836e+00,2.597333192825317383e+00,2.596989393234252930e+00,2.596645593643188477e+00,2.596302032470703125e+00,2.595958471298217773e+00,2.595614910125732422e+00,2.595271825790405273e+00,2.594928264617919922e+00,2.594585180282592773e+00,2.594242095947265625e+00,2.593899011611938477e+00,2.593556165695190430e+00,2.593213558197021484e+00,2.592870473861694336e+00,2.592528104782104492e+00,2.592185497283935547e+00,2.591842889785766602e+00,2.591500759124755859e+00,2.591158390045166016e+00,2.590816020965576172e+00,2.590474128723144531e+00,2.590131998062133789e+00,2.589790105819702148e+00,2.589448451995849609e+00,2.589106559753417969e+00,1.544996261596679688e+00,1.526228904724121094e+00,1.519247889518737793e+00,1.525851964950561523e+00,2.587399244308471680e+00,2.587058067321777344e+00,2.586716890335083008e+00,2.586375951766967773e+00,2.586035013198852539e+00,2.585694313049316406e+00,2.585353612899780273e+00,2.585012674331665039e+00,2.584672212600708008e+00,2.584331750869750977e+00,2.559356212615966797e+00,2.505450963973999023e+00,2.453769445419311523e+00,2.404177188873291016e+00,2.356549739837646484e+00,1.096176862716674805e+00,1.058773279190063477e+00,1.044149637222290039e+00,1.029828786849975586e+00,1.023422956466674805e+00,1.020513653755187988e+00,2.069559097290039062e+00,2.034169435501098633e+00,1.999969482421875000e+00,1.966900467872619629e+00,1.934907317161560059e+00,1.903938174247741699e+00,1.873944759368896484e+00,1.844881892204284668e+00
2.254976749420166016e+00,2.254715681076049805e+00,2.254454374313354492e+00,2.254193305969238281e+00,2.253932476043701172e+00,2.253671407699584961e+00,2.253410816192626953e+00,2.253149747848510742e+00,2.252889156341552734e+00,2.252628564834594727e+00,2.252367734909057617e+00,2.252107381820678711e+00,2.251846790313720703e+00,2.251586437225341797e+00,2.251325845718383789e+00,2.251065492630004883e+00,2.250805377960205078e+00,2.250545024871826172e+00,2.250285148620605469e+00,2.250025033950805664e+00,2.249764919281005859e+00,2.249505043029785156e+00,2.249244928359985352e+00,2.248985290527343750e+00,2.248727560043334961e+00,2.248469829559326172e+00,2.248212099075317383e+00,2.247954607009887695e+00,2.247696876525878906e+00,2.247439384460449219e+00,2.247182130813598633e+00,2.246924638748168945e+00,2.246667385101318359e+00,2.246410131454467773e+00,2.246152877807617188e+00,2.245895862579345703e+00,2.245638847351074219e+00,2.245381593704223633e+00,2.245124578475952148e+00,2.244867801666259766e+00,2.244611024856567383e+00,2.244354248046875000e+00,2.244097471237182617e+00,2.243840694427490234e+00,2.243584156036376953e+00,2.243327617645263672e+00,2.243071079254150391e+00,2.242814779281616211e+00,1.520193815231323242e+00,1.517759680747985840e+00,1.521464109420776367e+00,2.241789579391479492e+00,2.241533517837524414e+00,2.241277456283569336e+00,2.241021156311035156e+00,2.240765333175659180e+00,2.240509510040283203e+00,2.240253448486328125e+00,2.239997863769531250e+00,2.239742040634155273e+00,2.239486455917358398e+00,2.239230871200561523e+00,2.238975048065185547e+00,2.238719701766967773e+00,2.238464355468750000e+00,2.238208770751953125e+00,1.099705338478088379e+00,1.059721946716308594e+00,1.044982671737670898e+00,1.030639171600341797e+00,1.024077177047729492e+00,1.026924729347229004e+00,2.069584608078002930e+00,2.034193992614746094e+00,1.999993085861206055e+00,1.966923475265502930e+00,1.934929490089416504e+00,1.903959631919860840e+00,1.873965740203857422e+00,1.844901919364929199e+00
1.988008260726928711e+00,1.987805485725402832e+00,1.987602472305297852e+00,1.987399578094482422e+00,1.987196683883666992e+00,1.986993789672851562e+00,1.986791133880615234e+00,1.986588358879089355e+00,1.986385703086853027e+00,1.986182928085327148e+00,1.985980272293090820e+00,1.985777854919433594e+00,1.985575318336486816e+00,1.985372781753540039e+00,1.985170364379882812e+00,1.984968066215515137e+00,1.984765648841857910e+00,1.984563350677490234e+00,1.984360933303833008e+00,1.984158635139465332e+00,1.983956575393676758e+00,1.983754396438598633e+00,1.983552217483520508e+00,1.983350157737731934e+00,1.983147978782653809e+00,1.982946276664733887e+00,1.982744216918945312e+00,1.982542276382446289e+00,1.982340335845947266e+00,1.982138395309448242e+00,1.981936812400817871e+00,1.981734991073608398e+00,1.981533288955688477e+00,1.981331586837768555e+00,1.981129884719848633e+00,1.980928421020507812e+00,1.980726838111877441e+00,1.980525374412536621e+00,1.980323791503906250e+00,1.980122566223144531e+00,1.979921102523803711e+00,1.979719758033752441e+00,1.979518413543701172e+00,1.979317069053649902e+00,1.979116082191467285e+00,1.978914856910705566e+00,1.978713631629943848e+00,1.978512525558471680e+00,1.513725399971008301e+00,1.515487194061279297e+00,1.522661328315734863e+00,1.977708578109741211e+00,1.977507591247558594e+00,1.977306723594665527e+00,1.977106094360351562e+00,1.976905226707458496e+00,1.976704478263854980e+00,1.976503729820251465e+00,1.976303219795227051e+00,1.976102590560913086e+00,1.975901961326599121e+00,1.975701451301574707e+00,1.975500822067260742e+00,1.975300550460815430e+00,1.975100159645080566e+00,1.974899768829345703e+00,1.974699378013610840e+00,1.060589313507080078e+00,1.045817136764526367e+00,1.045697331428527832e+00,1.024732232093811035e+00,1.028865933418273926e+00,1.973498225212097168e+00,1.973298311233520508e+00,1.973098278045654297e+00,1.966946363449096680e+00,1.934951782226562500e+00,1.903981208801269531e+00,1.873986363410949707e+00,1.844922304153442383e+00
1.777561545372009277e+00,1.777399420738220215e+00,1.777237057685852051e+00,1.777074813842773438e+00,1.776912569999694824e+00,1.776750445365905762e+00,1.776588439941406250e+00,1.776426196098327637e+00,1.776264071464538574e+00,1.776102066040039062e+00,1.775940179824829102e+00,1.775778174400329590e+00,1.775616168975830078e+00,1.775454163551330566e+00,1.775292158126831055e+00,1.775130510330200195e+00,1.774968624114990234e+00,1.774806737899780273e+00,1.774644970893859863e+00,1.774483084678649902e+00,1.774321556091308594e+00,1.774159789085388184e+00,1.773998141288757324e+00,1.773836374282836914e+00,1.773674726486206055e+00,1.773513317108154297e+00,1.773351788520812988e+00,1.773190140724182129e+00,1.773028612136840820e+00,1.772867321968078613e+00,1.772705793380737305e+00,1.772544384002685547e+00,1.772382974624633789e+00,1.772221565246582031e+00,1.772060394287109375e+00,1.771899104118347168e+00,1.771737813949584961e+00,1.771576523780822754e+00,1.771415352821350098e+00,1.771254301071166992e+00,1.771093130111694336e+00,1.770931959152221680e+00,1.770770788192749023e+00,1.770609736442565918e+00,1.770448803901672363e+00,1.770287752151489258e+00,1.770126819610595703e+00,1.769965767860412598e+00,1.515279173851013184e+00,1.511719942092895508e+00,1.505772233009338379e+00,1.515421867370605469e+00,1.769161581993103027e+00,1.769001007080078125e+00,1.768840193748474121e+00,1.768679380416870117e+00,1.768518686294555664e+00,1.768357992172241211e+00,1.768197536468505859e+00,1.768036961555480957e+00,1.767876386642456055e+00,1.767715811729431152e+00,1.767555236816406250e+00,1.767394900321960449e+00,1.767234444618225098e+00,1.767073988914489746e+00,1.766913533210754395e+00,1.072603225708007812e+00,1.052906632423400879e+00,1.042593836784362793e+00,1.033496856689453125e+00,1.766112089157104492e+00,1.765952110290527344e+00,1.765791893005371094e+00,1.765631675720214844e+00,1.765471577644348145e+00,1.765311360359191895e+00,1.765151500701904297e+00,1.764991402626037598e+00,1.764831423759460449e+00
1.607404947280883789e+00,1.607272148132324219e+00,1.607139468193054199e+00,1.607006788253784180e+00,1.606874108314514160e+00,1.606741547584533691e+00,1.606608986854553223e+00,1.606476306915283203e+00,1.606343746185302734e+00,1.606211185455322266e+00,1.606078743934631348e+00,1.605946302413940430e+00,1.605813741683959961e+00,1.605681300163269043e+00,1.605548858642578125e+00,1.605416536331176758e+00,1.605284094810485840e+00,1.605151772499084473e+00,1.605019330978393555e+00,1.604887008666992188e+00,1.604754924774169922e+00,1.604622602462768555e+00,1.604490280151367188e+00,1.604358077049255371e+00,1.604225993156433105e+00,1.604093670845031738e+00,1.603961586952209473e+00,1.603829383850097656e+00,1.603697180747985840e+00,1.603565216064453125e+00,1.603433132171630859e+00,1.603301048278808594e+00,1.603168964385986328e+00,1.603036880493164062e+00,1.602905035018920898e+00,1.602773070335388184e+00,1.602641105651855469e+00,1.602509140968322754e+00,1.602377176284790039e+00,1.602245450019836426e+00,1.602113604545593262e+00,1.601981639862060547e+00,1.601849794387817383e+00,1.601718187332153320e+00,1.601586341857910156e+00,1.601454615592956543e+00,1.601322889328002930e+00,1.601191163063049316e+00,1.601059556007385254e+00,1.600927829742431641e+00,1.600796222686767578e+00,1.600664496421813965e+00,1.600532889366149902e+00,1.600401401519775391e+00,1.600269913673400879e+00,1.600138306617736816e+00,1.600006818771362305e+00,1.599875211715698242e+00,1.599743843078613281e+00,1.599612355232238770e+00,1.599480867385864258e+00,1.599349498748779297e+00,1.599218130111694336e+00,1.599086880683898926e+00,1.598955512046813965e+00,1.598824143409729004e+00,1.121483445167541504e+00,1.069769978523254395e+00,1.049070358276367188e+00,1.036641240119934082e+00,1.028921484947204590e+00,1.598036646842956543e+00,1.597905635833740234e+00,1.597774386405944824e+00,1.597643256187438965e+00,1.597512125968933105e+00,1.597380995750427246e+00,1.597250103950500488e+00,1.597118973731994629e+00,1.596987962722778320e+00
1.466978549957275391e+00,1.466868042945861816e+00,1.466757416725158691e+00,1.466646909713745117e+00,1.466536402702331543e+00,1.466426014900207520e+00,1.466315627098083496e+00,1.466205120086669922e+00,1.466094613075256348e+00,1.465984225273132324e+00,1.465873956680297852e+00,1.465763568878173828e+00,1.465653181076049805e+00,1.465542793273925781e+00,1.465432524681091309e+00,1.465322256088256836e+00,1.465211987495422363e+00,1.465101599693298340e+00,1.464991331100463867e+00,1.464881300926208496e+00,1.464771032333374023e+00,1.464660763740539551e+00,1.464550495147705078e+00,1.464440345764160156e+00,1.464330315589904785e+00,1.464220166206359863e+00,1.464110016822814941e+00,1.463999867439270020e+00,1.463889718055725098e+00,1.463779807090759277e+00,1.463669657707214355e+00,1.463559627532958984e+00,1.463449597358703613e+00,1.463339567184448242e+00,1.463229656219482422e+00,1.463119626045227051e+00,1.463009715080261230e+00,1.462899684906005859e+00,1.462789893150329590e+00,1.462679982185363770e+00,1.462570071220397949e+00,1.462460160255432129e+00,1.462350249290466309e+00,1.462240576744079590e+00,1.462130784988403320e+00,1.462020874023437500e+00,1.461911082267761230e+00,1.461801290512084961e+00,1.461691617965698242e+00,1.461581826210021973e+00,1.461472153663635254e+00,1.461362361907958984e+00,1.461252689361572266e+00,1.461143136024475098e+00,1.461033463478088379e+00,1.460923790931701660e+00,1.460814118385314941e+00,1.460704565048217773e+00,1.460595011711120605e+00,1.460485339164733887e+00,1.460375785827636719e+00,1.460266232490539551e+00,1.460156798362731934e+00,1.460047245025634766e+00,1.459937691688537598e+00,1.459828257560729980e+00,1.103549361228942871e+00,1.068523168563842773e+00,1.043095946311950684e+00,1.028542637825012207e+00,1.017428517341613770e+00,1.018282532691955566e+00,1.459062457084655762e+00,1.458953022956848145e+00,1.458843708038330078e+00,1.458734393119812012e+00,1.458625078201293945e+00,1.458515882492065430e+00,1.458406567573547363e+00,1.458297371864318848e+00
1.349116802215576172e+00,1.349023342132568359e+00,1.348929762840270996e+00,1.348836302757263184e+00,1.348742842674255371e+00,1.348649501800537109e+00,1.348556041717529297e+00,1.348462581634521484e+00,1.348369240760803223e+00,1.348275899887084961e+00,1.348182559013366699e+00,1.348089098930358887e+00,1.347995758056640625e+00,1.347902417182922363e+00,1.347809195518493652e+00,1.347715854644775391e+00,1.347622513771057129e+00,1.347529292106628418e+00,1.347435951232910156e+00,1.347342848777770996e+00,1.347249507904052734e+00,1.347156286239624023e+00,1.347063064575195312e+00,1.346969842910766602e+00,1.346876740455627441e+00,1.346783518791198730e+00,1.346690297126770020e+00,1.346597194671630859e+00,1.346503973007202148e+00,1.346410989761352539e+00,1.346317887306213379e+00,1.346224665641784668e+00,1.346131563186645508e+00,1.346038579940795898e+00,1.345945596694946289e+00,1.345852494239807129e+00,1.345759391784667969e+00,1.345666408538818359e+00,1.345573425292968750e+00,1.345480442047119141e+00,1.345387458801269531e+00,1.345294475555419922e+00,1.345201492309570312e+00,1.345108628273010254e+00,1.345015645027160645e+00,1.344922661781311035e+00,1.344829797744750977e+00,1.344736814498901367e+00,1.344644069671630859e+00,1.344551205635070801e+00,1.344458222389221191e+00,1.344365358352661133e+00,1.344272613525390625e+00,1.344179868698120117e+00,1.344087004661560059e+00,1.343994140625000000e+00,1.343901395797729492e+00,1.343808650970458984e+00,1.343715906143188477e+00,1.343623161315917969e+00,1.343530416488647461e+00,1.343437671661376953e+00,1.343345046043395996e+00,1.343252301216125488e+00,1.343159675598144531e+00,1.343066930770874023e+00,1.097807884216308594e+00,1.068588733673095703e+00,1.038651347160339355e+00,1.020075678825378418e+00,1.002264976501464844e+00,9.940302968025207520e-01,1.001979112625122070e+00,1.342326164245605469e+00,1.342233538627624512e+00,1.342141032218933105e+00,1.342048525810241699e+00,1.341956019401550293e+00,1.341863512992858887e+00,1.341771006584167480e+00
1.248785376548767090e+00,1.248705267906188965e+00,1.248625159263610840e+00,1.248545050621032715e+00,1.248465061187744141e+00,1.248385071754455566e+00,1.248304963111877441e+00,1.248224854469299316e+00,1.248144865036010742e+00,1.248064875602722168e+00,1.247984886169433594e+00,1.247904896736145020e+00,1.247824907302856445e+00,1.247744917869567871e+00,1.247664928436279297e+00,1.247584939002990723e+00,1.247505068778991699e+00,1.247425079345703125e+00,1.247345089912414551e+00,1.247265338897705078e+00,1.247185349464416504e+00,1.247105479240417480e+00,1.247025489807128906e+00,1.246945738792419434e+00,1.246865868568420410e+00,1.246785998344421387e+00,1.246706128120422363e+00,1.246626257896423340e+00,1.246546506881713867e+00,1.246466636657714844e+00,1.246386885643005371e+00,1.246307015419006348e+00,1.246227264404296875e+00,1.246147513389587402e+00,1.246067762374877930e+00,1.245988011360168457e+00,1.245908260345458984e+00,1.245828509330749512e+00,1.245748877525329590e+00,1.245669126510620117e+00,1.245589375495910645e+00,1.245509624481201172e+00,1.245429992675781250e+00,1.245350360870361328e+00,1.245270729064941406e+00,1.245190978050231934e+00,1.245111346244812012e+00,1.245031833648681641e+00,1.244952201843261719e+00,1.244872570037841797e+00,1.244792938232421875e+00,1.244713306427001953e+00,1.244633793830871582e+00,1.244554281234741211e+00,1.244474649429321289e+00,1.244395136833190918e+00,1.244315505027770996e+00,1.244236111640930176e+00,1.244156599044799805e+00,1.244076967239379883e+00,1.243997454643249512e+00,1.243918061256408691e+00,1.243838548660278320e+00,1.243759155273437500e+00,1.243679642677307129e+00,1.243600130081176758e+00,1.097133874893188477e+00,1.069768786430358887e+00,1.045624017715454102e+00,1.017987847328186035e+00,9.919249415397644043e-01,9.769935011863708496e-01,9.704068303108215332e-01,1.242964982986450195e+00,1.242885589599609375e+00,1.242806315422058105e+00,1.242727041244506836e+00,1.242647647857666016e+00,1.242568373680114746e+00,1.242488980293273926e+00
1.162343978881835938e+00,1.162274599075317383e+00,1.162205219268798828e+00,1.162135839462280273e+00,1.162066459655761719e+00,1.161997079849243164e+00,1.161927700042724609e+00,1.161858320236206055e+00,1.161789059638977051e+00,1.161719799041748047e+00,1.161650419235229492e+00,1.161581039428710938e+00,1.161511778831481934e+00,1.161442518234252930e+00,1.161373257637023926e+00,1.161303997039794922e+00,1.161234617233276367e+00,1.161165356636047363e+00,1.161096215248107910e+00,1.161026954650878906e+00,1.160957694053649902e+00,1.160888433456420898e+00,1.160819172859191895e+00,1.160750031471252441e+00,1.160680770874023438e+00,1.160611629486083984e+00,1.160542368888854980e+00,1.160473227500915527e+00,1.160404086112976074e+00,1.160334944725036621e+00,1.160265684127807617e+00,1.160196542739868164e+00,1.160127401351928711e+00,1.160058379173278809e+00,1.159989237785339355e+00,1.159920096397399902e+00,1.159850955009460449e+00,1.159781932830810547e+00,1.159712791442871094e+00,1.159643650054931641e+00,1.159574627876281738e+00,1.159505486488342285e+00,1.159436583518981934e+00,1.159367442131042480e+00,1.159298419952392578e+00,1.159229397773742676e+00,1.159160375595092773e+00,1.159091353416442871e+00,1.159022331237792969e+00,1.158953309059143066e+00,1.158884286880493164e+00,1.158815264701843262e+00,1.158746361732482910e+00,1.158677458763122559e+00,1.158608436584472656e+00,1.158539414405822754e+00,1.158470511436462402e+00,1.158401608467102051e+00,1.158332705497741699e+00,1.158263802528381348e+00,1.158194899559020996e+00,1.158125996589660645e+00,1.158057093620300293e+00,1.157988190650939941e+00,1.157919287681579590e+00,1.157850503921508789e+00,1.157781720161437988e+00,1.157712817192077637e+00,1.157643914222717285e+00,1.033493280410766602e+00,9.855611920356750488e-01,9.641377925872802734e-01,9.510866403579711914e-01,9.509818553924560547e-01,9.659746885299682617e-01,1.157162189483642578e+00,1.157093524932861328e+00,1.157024741172790527e+00,1.156955957412719727e+00,1.156887173652648926e+00
1.087094783782958984e+00,1.087034106254577637e+00,1.086973428726196289e+00,1.086912751197814941e+00,1.086852073669433594e+00,1.086791396141052246e+00,1.086730718612670898e+00,1.086670041084289551e+00,1.086609363555908203e+00,1.086548805236816406e+00,1.086488127708435059e+00,1.086427450180053711e+00,1.086366891860961914e+00,1.086306333541870117e+00,1.086245656013488770e+00,1.086184978485107422e+00,1.086124420166015625e+00,1.086063861846923828e+00,1.086003303527832031e+00,1.085942745208740234e+00,1.085882067680358887e+00,1.085821509361267090e+00,1.085760951042175293e+00,1.085700511932373047e+00,1.085639953613281250e+00,1.085579395294189453e+00,1.085518836975097656e+00,1.085458278656005859e+00,1.085397839546203613e+00,1.085337281227111816e+00,1.085276722908020020e+00,1.085216283798217773e+00,1.085155844688415527e+00,1.085095286369323730e+00,1.085034847259521484e+00,1.084974288940429688e+00,1.084913849830627441e+00,1.084853410720825195e+00,1.084792971611022949e+00,1.084732532501220703e+00,1.084672093391418457e+00,1.084611654281616211e+00,1.084551215171813965e+00,1.084490776062011719e+00,1.084430456161499023e+00,1.084370017051696777e+00,1.084309577941894531e+00,1.084249258041381836e+00,1.084188818931579590e+00,1.084128499031066895e+00,1.084068059921264648e+00,1.084007740020751953e+00,1.083947420120239258e+00,1.083886981010437012e+00,1.083826661109924316e+00,1.083766341209411621e+00,1.083706021308898926e+00,1.083645701408386230e+00,1.083585381507873535e+00,1.083525061607360840e+00,1.083464741706848145e+00,1.083404541015625000e+00,1.083344221115112305e+00,1.083283901214599609e+00,1.083223581314086914e+00,1.083163380622863770e+00,1.083103179931640625e+00,1.083042860031127930e+00,1.082982540130615234e+00,1.082922339439392090e+00,1.082862019538879395e+00,9.566347002983093262e-01,9.407479166984558105e-01,9.255524277687072754e-01,9.144675731658935547e-01,9.224339127540588379e-01,1.082500815391540527e+00,1.082440614700317383e+00,1.082380414009094238e+00,1.082320213317871094e+00
1.020996451377868652e+00,1.020942807197570801e+00,1.020889282226562500e+00,1.020835757255554199e+00,1.020782232284545898e+00,1.020728707313537598e+00,1.020675182342529297e+00,1.020621657371520996e+00,1.020568251609802246e+00,1.020514726638793945e+00,1.020461201667785645e+00,1.020407676696777344e+00,1.020354270935058594e+00,1.020300745964050293e+00,1.020247340202331543e+00,1.020193815231323242e+00,1.020140409469604492e+00,1.020086884498596191e+00,1.020033478736877441e+00,1.019980072975158691e+00,1.019926548004150391e+00,1.019873142242431641e+00,1.019819736480712891e+00,1.019766330718994141e+00,1.019712924957275391e+00,1.019659519195556641e+00,1.019606113433837891e+00,1.019552707672119141e+00,1.019499301910400391e+00,1.019445896148681641e+00,1.019392490386962891e+00,1.019339084625244141e+00,1.019285798072814941e+00,1.019232392311096191e+00,1.019179105758666992e+00,1.019125699996948242e+00,1.019072294235229492e+00,1.019019007682800293e+00,1.018965721130371094e+00,1.018912315368652344e+00,1.018859028816223145e+00,1.018805742263793945e+00,1.018752455711364746e+00,1.018699049949645996e+00,1.018645763397216797e+00,1.018592476844787598e+00,1.018539190292358398e+00,1.018485903739929199e+00,1.018432617187500000e+00,1.018379330635070801e+00,1.018326044082641602e+00,1.018272876739501953e+00,1.018219590187072754e+00,1.018166303634643555e+00,1.018113017082214355e+00,1.018059849739074707e+00,1.018006563186645508e+00,1.017953395843505859e+00,1.017900109291076660e+00,1.017846941947937012e+00,1.017793655395507812e+00,1.017740488052368164e+00,1.017687320709228516e+00,1.017634153366088867e+00,1.017580866813659668e+00,1.017527699470520020e+00,1.017474532127380371e+00,1.017421364784240723e+00,1.017368197441101074e+00,1.017315030097961426e+00,1.017261862754821777e+00,1.017208695411682129e+00,9.391998648643493652e-01,9.183756113052368164e-01,9.013536572456359863e-01,8.896896243095397949e-01,8.854138255119323730e-01,1.016889929771423340e+00,1.016836762428283691e+00,1.016783714294433594e+00
9.624752402305603027e-01,9.624276757240295410e-01,9.623800516128540039e-01,9.623324871063232422e-01,9.622849225997924805e-01,9.622373580932617188e-01,9.621897339820861816e-01,9.621422290802001953e-01,9.620947241783142090e-01,9.620472192764282227e-01,9.619996547698974609e-01,9.619520902633666992e-01,9.619045853614807129e-01,9.618570208549499512e-01,9.618095159530639648e-01,9.617619514465332031e-01,9.617144465446472168e-01,9.616670608520507812e-01,9.616194963455200195e-01,9.615719914436340332e-01,9.615244865417480469e-01,9.614770412445068359e-01,9.614295363426208496e-01,9.613820314407348633e-01,9.613345265388488770e-01,9.612870812416076660e-01,9.612395763397216797e-01,9.611922502517700195e-01,9.611447453498840332e-01,9.610973000526428223e-01,9.610498547554016113e-01,9.610024094581604004e-01,9.609549641609191895e-01,9.609075188636779785e-01,9.608600735664367676e-01,9.608126282691955566e-01,9.607651829719543457e-01,9.607179164886474609e-01,9.606704711914062500e-01,9.606230854988098145e-01,9.605756402015686035e-01,9.605282545089721680e-01,9.604808688163757324e-01,9.604334235191345215e-01,9.603860378265380859e-01,9.603386521339416504e-01,9.602913856506347656e-01,9.602439999580383301e-01,9.601966738700866699e-01,9.601492881774902344e-01,9.601019024848937988e-01,9.600545763969421387e-01,9.600071907043457031e-01,9.599598646163940430e-01,9.599124789237976074e-01,9.598651528358459473e-01,9.598179459571838379e-01,9.597706198692321777e-01,9.597232937812805176e-01,9.596759676933288574e-01,9.596286416053771973e-01,9.595813155174255371e-01,9.595340490341186523e-01,9.594867229461669922e-01,9.594393968582153320e-01,9.593922495841979980e-01,9.593449234962463379e-01,9.592976570129394531e-01,9.592503905296325684e-01,9.592031240463256836e-01,9.591558575630187988e-01,9.591085910797119141e-01,9.590613245964050293e-01,9.590140581130981445e-01,9.589667916297912598e-01,8.913425207138061523e-01,9.588724374771118164e-01,9.588251709938049316e-01,9.587779641151428223e-01,9.587306976318359375e-01
9.102989435195922852e-01,9.102563858032226562e-01,9.102138280868530273e-01,9.101712703704833984e-01,9.101287126541137695e-01,9.100861549377441406e-01,9.100435972213745117e-01,9.100010395050048828e-01,9.099586009979248047e-01,9.099160432815551758e-01,9.098734855651855469e-01,9.098309874534606934e-01,9.097884297370910645e-01,9.097459316253662109e-01,9.097034335136413574e-01,9.096608757972717285e-01,9.096183776855468750e-01,9.095759391784667969e-01,9.095334410667419434e-01,9.094909429550170898e-01,9.094484448432922363e-01,9.094059467315673828e-01,9.093634486198425293e-01,9.093210101127624512e-01,9.092785120010375977e-01,9.092360138893127441e-01,9.091935753822326660e-01,9.091511964797973633e-01,9.091086983680725098e-01,9.090662598609924316e-01,9.090238213539123535e-01,9.089813232421875000e-01,9.089388847351074219e-01,9.088964462280273438e-01,9.088540077209472656e-01,9.088115692138671875e-01,9.087692499160766602e-01,9.087268114089965820e-01,9.086843729019165039e-01,9.086419343948364258e-01,9.085995554924011230e-01,9.085571169853210449e-01,9.085147380828857422e-01,9.084722995758056641e-01,9.084299206733703613e-01,9.083875417709350586e-01,9.083452224731445312e-01,9.083028435707092285e-01,9.082604646682739258e-01,9.082180857658386230e-01,9.081757068634033203e-01,9.081333279609680176e-01,9.080909490585327148e-01,9.080485701560974121e-01,9.080061912536621094e-01,9.079639315605163574e-01,9.079216122627258301e-01,9.078792333602905273e-01,9.078369140625000000e-01,9.077945351600646973e-01,9.077522158622741699e-01,9.077098965644836426e-01,9.076675176620483398e-01,9.076251983642578125e-01,9.075828790664672852e-01,9.075406789779663086e-01,9.074983596801757812e-01,9.074560403823852539e-01,9.074137210845947266e-01,9.073714613914489746e-01,9.073291420936584473e-01,9.072868227958679199e-01,9.072445631027221680e-01,9.072022438049316406e-01,9.071599841117858887e-01,9.071177840232849121e-01,9.070755243301391602e-01,9.070332646369934082e-01,9.069910049438476562e-01,9.069487452507019043e-01
8.634887933731079102e-01,8.634504675865173340e-01,8.634122014045715332e-01,8.633738756179809570e-01,8.633356094360351562e-01,8.632972836494445801e-01,8.632590174674987793e-01,8.632208108901977539e-01,8.631825447082519531e-01,8.631442189216613770e-01,8.631059527397155762e-01,8.630676865577697754e-01,8.630294203758239746e-01,8.629911541938781738e-01,8.629528880119323730e-01,8.629146218299865723e-01,8.628763556480407715e-01,8.628382086753845215e-01,8.627999424934387207e-01,8.627617359161376953e-01,8.627234697341918945e-01,8.626852035522460938e-01,8.626469969749450684e-01,8.626087903976440430e-01,8.625705242156982422e-01,8.625323176383972168e-01,8.624941706657409668e-01,8.624559640884399414e-01,8.624177575111389160e-01,8.623795509338378906e-01,8.623413443565368652e-01,8.623031377792358398e-01,8.622649312019348145e-01,8.622267246246337891e-01,8.621885180473327637e-01,8.621503114700317383e-01,8.621122241020202637e-01,8.620740175247192383e-01,8.620358705520629883e-01,8.619976639747619629e-01,8.619595170021057129e-01,8.619213104248046875e-01,8.618831634521484375e-01,8.618450164794921875e-01,8.618068099021911621e-01,8.617686629295349121e-01,8.617306351661682129e-01,8.616924285888671875e-01,8.616542816162109375e-01,8.616161346435546875e-01,8.615780472755432129e-01,8.615399003028869629e-01,8.615017533302307129e-01,8.614636063575744629e-01,8.614255189895629883e-01,8.613874316215515137e-01,8.613493442535400391e-01,8.613111972808837891e-01,8.612731099128723145e-01,8.612349629402160645e-01,8.611968755722045898e-01,8.611587882041931152e-01,8.611207008361816406e-01,8.610825538635253906e-01,8.610444664955139160e-01,8.610064983367919922e-01,8.609684109687805176e-01,8.609303236007690430e-01,8.608922362327575684e-01,8.608541488647460938e-01,8.608160614967346191e-01,8.607780337333679199e-01,8.607399463653564453e-01,8.607018589973449707e-01,8.606638908386230469e-01,8.606258630752563477e-01,8.605877757072448730e-01,8.605497479438781738e-01,8.605117201805114746e-01,8.604736328125000000e-01
