5.000000000000000000e+00,5.000000000000000000e+00,5.000000000000000000e+00,5.000000000000000000e+00,5.000000000000000000e+00,5.000000000000000000e+00,5.000000000000000000e+00,5.000000000000000000e+00,5.000000000000000000e+00,5.000000000000000000e+00,5.000000000000000000e+00,5.000000000000000000e+00,5.000000000000000000e+00,5.000000000000000000e+00,5.000000000000000000e+00,5.000000000000000000e+00,5.000000000000000000e+00,5.000000000000000000e+00,5.000000000000000000e+00,5.000000000000000000e+00,5.000000000000000000e+00,5.000000000000000000e+00,5.000000000000000000e+00,5.000000000000000000e+00,5.000000000000000000e+00,5.000000000000000000e+00,5.000000000000000000e+00,5.000000000000000000e+00,5.000000000000000000e+00,5.000000000000000000e+00,5.000000000000000000e+00,5.000000000000000000e+00,5.000000000000000000e+00,5.000000000000000000e+00,5.000000000000000000e+00,5.000000000000000000e+00,5.000000000000000000e+00,5.000000000000000000e+00,5.000000000000000000e+00,5.000000000000000000e+00,4.661274433135986328e+00,4.485536098480224609e+00,4.322566509246826172e+00,4.171024322509765625e+00,4.029747962951660156e+00,3.897728681564331055e+00,3.774085044860839844e+00,3.658044338226318359e+00,3.548926830291748047e+00,3.446130514144897461e+00,3.349121332168579102e+00,3.257424831390380859e+00,3.170615434646606445e+00,3.088312387466430664e+00,3.010174751281738281e+00,2.935893297195434570e+00,2.865189313888549805e+00,2.797810792922973633e+00,2.733528852462768555e+00,2.672133922576904297e+00,2.613436698913574219e+00,2.557262659072875977e+00,2.503452539443969727e+00,2.451860189437866211e+00,2.402351617813110352e+00,2.354802846908569336e+00,2.309099435806274414e+00,2.265136718750000000e+00,2.222816705703735352e+00,2.182048797607421875e+00,2.142749547958374023e+00,2.104840755462646484e+00,2.068249702453613281e+00,2.032909631729125977e+00,1.998756885528564453e+00,1.965732455253601074e+00,1.933781623840332031e+00,1.902853012084960938e+00,1.872898101806640625e+00,1.843871593475341797e+00
5.000000000000000000e+00,5.000000000000000000e+00,5.000000000000000000e+00,5.000000000000000000e+00,5.000000000000000000e+00,5.000000000000000000e+00,5.000000000000000000e+00,5.000000000000000000e+00,5.000000000000000000e+00,5.000000000000000000e+00,5.000000000000000000e+00,5.000000000000000000e+00,5.000000000000000000e+00,5.000000000000000000e+00,5.000000000000000000e+00,5.000000000000000000e+00,5.000000000000000000e+00,5.000000000000000000e+00,5.000000000000000000e+00,5.000000000000000000e+00,5.000000000000000000e+00,5.000000000000000000e+00,5.000000000000000000e+00,5.000000000000000000e+00,5.000000000000000000e+00,5.000000000000000000e+00,5.000000000000000000e+00,5.000000000000000000e+00,5.000000000000000000e+00,5.000000000000000000e+00,5.000000000000000000e+00,5.000000000000000000e+00,5.000000000000000000e+00,5.000000000000000000e+00,5.000000000000000000e+00,5.000000000000000000e+00,5.000000000000000000e+00,5.000000000000000000e+00,5.000000000000000000e+00,4.851484298706054688e+00,4.661402702331542969e+00,4.485654354095458984e+00,4.322676658630371094e+00,4.171127319335937500e+00,4.029843807220458984e+00,3.897818326950073242e+00,3.774168729782104492e+00,3.658123254776000977e+00,3.549001216888427734e+00,3.446200132369995117e+00,3.349187612533569336e+00,3.257487297058105469e+00,3.170674324035644531e+00,3.088368654251098633e+00,3.010228157043457031e+00,2.935943841934204102e+00,2.865237712860107422e+00,2.797857284545898438e+00,2.733572721481323242e+00,2.672176122665405273e+00,2.613476991653442383e+00,2.557301044464111328e+00,2.503489255905151367e+00,2.451895713806152344e+00,2.402385473251342773e+00,2.354835271835327148e+00,2.309130907058715820e+00,2.265166997909545898e+00,2.222845554351806641e+00,2.182076930999755859e+00,2.142776489257812500e+00,2.104866743087768555e+00,2.068274974822998047e+00,2.032934188842773438e+00,1.998780250549316406e+00,1.965755343437194824e+00,1.933803677558898926e+00,1.902874350547790527e+00,1.872918725013732910e+00,1.843891739845275879e+00
5.000000000000000000e+00,5.000000000000000000e+00,5.000000000000000000e+00,5.000000000000000000e+00,5.000000000000000000e+00,5.000000000000000000e+00,5.000000000000000000e+00,5.000000000000000000e+00,5.000000000000000000e+00,5.000000000000000000e+00,5.000000000000000000e+00,5.000000000000000000e+00,5.000000000000000000e+00,5.000000000000000000e+00,5.000000000000000000e+00,5.000000000000000000e+00,5.000000000000000000e+00,5.000000000000000000e+00,5.000000000000000000e+00,5.000000000000000000e+00,5.000000000000000000e+00,5.000000000000000000e+00,5.000000000000000000e+00,5.000000000000000000e+00,5.000000000000000000e+00,5.000000000000000000e+00,5.000000000000000000e+00,5.000000000000000000e+00,5.000000000000000000e+00,5.000000000000000000e+00,5.000000000000000000e+00,5.000000000000000000e+00,5.000000000000000000e+00,5.000000000000000000e+00,5.000000000000000000e+00,5.000000000000000000e+00,5.000000000000000000e+00,5.000000000000000000e+00,5.000000000000000000e+00,4.851623058319091797e+00,4.661530494689941406e+00,4.485772609710693359e+00,4.322786808013916016e+00,4.171229362487792969e+00,4.029939174652099609e+00,3.897907495498657227e+00,3.774252653121948242e+00,3.658202171325683594e+00,3.549075126647949219e+00,3.446270227432250977e+00,3.349253654479980469e+00,3.257549762725830078e+00,3.170733690261840820e+00,3.088425159454345703e+00,3.010281324386596680e+00,2.935994625091552734e+00,2.865286111831665039e+00,2.797903060913085938e+00,2.733616828918457031e+00,2.672218322753906250e+00,2.613517045974731445e+00,2.557339429855346680e+00,2.503526210784912109e+00,2.451931238174438477e+00,2.402419567108154297e+00,2.354868173599243164e+00,2.309162378311157227e+00,2.265197038650512695e+00,2.222874879837036133e+00,2.182105064392089844e+00,2.142803430557250977e+00,2.104892969131469727e+00,2.068300247192382812e+00,2.032958269119262695e+00,1.998803853988647461e+00,1.965778112411499023e+00,1.933825850486755371e+00,1.902895689010620117e+00,1.872939467430114746e+00,1.843911767005920410e+00
5.000000000000000000e+00,5.000000000000000000e+00,5.000000000000000000e+00,5.000000000000000000e+00,5.000000000000000000e+00,5.000000000000000000e+00,5.000000000000000000e+00,5.000000000000000000e+00,5.000000000000000000e+00,5.000000000000000000e+00,5.000000000000000000e+00,5.000000000000000000e+00,5.000000000000000000e+00,5.000000000000000000e+00,5.000000000000000000e+00,5.000000000000000000e+00,5.000000000000000000e+00,5.000000000000000000e+00,5.000000000000000000e+00,5.000000000000000000e+00,5.000000000000000000e+00,5.000000000000000000e+00,5.000000000000000000e+00,5.000000000000000000e+00,5.000000000000000000e+00,5.000000000000000000e+00,5.000000000000000000e+00,3.166874647140502930e+00,3.177969932556152344e+00,5.000000000000000000e+00,5.000000000000000000e+00,5.000000000000000000e+00,5.000000000000000000e+00,5.000000000000000000e+00,5.000000000000000000e+00,5.000000000000000000e+00,5.000000000000000000e+00,5.000000000000000000e+00,5.000000000000000000e+00,4.851761817932128906e+00,4.661658763885498047e+00,4.485891342163085938e+00,4.322896957397460938e+00,4.171331882476806641e+00,4.030035018920898438e+00,3.897997379302978516e+00,3.774336814880371094e+00,3.658280849456787109e+00,3.549149513244628906e+00,3.446340322494506836e+00,3.349319696426391602e+00,3.257612228393554688e+00,3.170793056488037109e+00,3.088480949401855469e+00,3.010334730148315430e+00,2.936045646667480469e+00,2.865334272384643555e+00,2.797949314117431641e+00,2.733660697937011719e+00,2.672260284423828125e+00,2.613557338714599609e+00,2.557378053665161133e+00,2.503563165664672852e+00,2.451966524124145508e+00,2.402453422546386719e+00,2.354900836944580078e+00,2.309193611145019531e+00,2.265227317810058594e+00,2.222903966903686523e+00,2.182132959365844727e+00,2.142830610275268555e+00,2.104918956756591797e+00,2.068325519561767578e+00,2.032982826232910156e+00,1.998827457427978516e+00,1.965800881385803223e+00,1.933847904205322266e+00,1.902917027473449707e+00,1.872960090637207031e+00,1.843931555747985840e+00
5.000000000000000000e+00,5.000000000000000000e+00,5.000000000000000000e+00,5.000000000000000000e+00,5.000000000000000000e+00,5.000000000000000000e+00,5.000000000000000000e+00,5.000000000000000000e+00,5.000000000000000000e+00,5.000000000000000000e+00,5.000000000000000000e+00,5.000000000000000000e+00,5.000000000000000000e+00,5.000000000000000000e+00,5.000000000000000000e+00,5.000000000000000000e+00,5.000000000000000000e+00,5.000000000000000000e+00,5.000000000000000000e+00,5.000000000000000000e+00,5.000000000000000000e+00,5.000000000000000000e+00,5.000000000000000000e+00,5.000000000000000000e+00,5.000000000000000000e+00,5.000000000000000000e+00,5.000000000000000000e+00,3.178000688552856445e+00,3.185002326965332031e+00,5.000000000000000000e+00,5.000000000000000000e+00,5.000000000000000000e+00,5.000000000000000000e+00,5.000000000000000000e+00,5.000000000000000000e+00,5.000000000000000000e+00,5.000000000000000000e+00,5.000000000000000000e+00,5.000000000000000000e+00,4.851900577545166016e+00,4.661787033081054688e+00,4.486010074615478516e+00,4.323006629943847656e+00,4.171434402465820312e+00,4.030130863189697266e+00,3.898086547851562500e+00,3.774420499801635742e+00,3.658359766006469727e+00,3.549223661422729492e+00,3.446410179138183594e+00,3.349385738372802734e+00,3.257674932479858398e+00,3.170851945877075195e+00,3.088537216186523438e+00,3.010388374328613281e+00,2.936096191406250000e+00,2.865382909774780273e+00,2.797995567321777344e+00,2.733704805374145508e+00,2.672302246093750000e+00,2.613597631454467773e+00,2.557416439056396484e+00,2.503600120544433594e+00,2.452001810073852539e+00,2.402487516403198242e+00,2.354933261871337891e+00,2.309225082397460938e+00,2.265257596969604492e+00,2.222932815551757812e+00,2.182161092758178711e+00,2.142857789993286133e+00,2.104945182800292969e+00,2.068350553512573242e+00,2.033007144927978516e+00,1.998850941658020020e+00,1.965823769569396973e+00,1.933869957923889160e+00,1.902938246726989746e+00,1.872980594635009766e+00,1.843951702117919922e+00
5.000000000000000000e+00,5.000000000000000000e+00,5.000000000000000000e+00,5.000000000000000000e+00,5.000000000000000000e+00,5.000000000000000000e+00,5.000000000000000000e+00,5.000000000000000000e+00,5.000000000000000000e+00,5.000000000000000000e+00,5.000000000000000000e+00,5.000000000000000000e+00,5.000000000000000000e+00,5.000000000000000000e+00,5.000000000000000000e+00,5.000000000000000000e+00,5.000000000000000000e+00,5.000000000000000000e+00,5.000000000000000000e+00,5.000000000000000000e+00,5.000000000000000000e+00,5.000000000000000000e+00,5.000000000000000000e+00,5.000000000000000000e+00,5.000000000000000000e+00,5.000000000000000000e+00,5.000000000000000000e+00,3.186025619506835938e+00,3.189234972000122070e+00,5.000000000000000000e+00,5.000000000000000000e+00,5.000000000000000000e+00,5.000000000000000000e+00,5.000000000000000000e+00,5.000000000000000000e+00,5.000000000000000000e+00,5.000000000000000000e+00,5.000000000000000000e+00,5.000000000000000000e+00,4.852039337158203125e+00,4.661914825439453125e+00,4.486128330230712891e+00,4.323117256164550781e+00,4.171536922454833984e+00,4.030226230621337891e+00,3.898176193237304688e+00,3.774504423141479492e+00,3.658438682556152344e+00,3.549297809600830078e+00,3.446480274200439453e+00,3.349452018737792969e+00,3.257737159729003906e+00,3.170911312103271484e+00,3.088593721389770508e+00,3.010441541671752930e+00,2.936146974563598633e+00,2.865431308746337891e+00,2.798041582107543945e+00,2.733748674392700195e+00,2.672344446182250977e+00,2.613637685775756836e+00,2.557455062866210938e+00,2.503637075424194336e+00,2.452037334442138672e+00,2.402521371841430664e+00,2.354966163635253906e+00,2.309256553649902344e+00,2.265287876129150391e+00,2.222962141036987305e+00,2.182189226150512695e+00,2.142884731292724609e+00,2.104971170425415039e+00,2.068375825881958008e+00,2.033031463623046875e+00,1.998874545097351074e+00,1.965846538543701172e+00,1.933891773223876953e+00,1.902959585189819336e+00,1.873001337051391602e+00,1.843971729278564453e+00
5.000000000000000000e+00,5.000000000000000000e+00,5.000000000000000000e+00,5.000000000000000000e+00,5.000000000000000000e+00,5.000000000000000000e+00,5.000000000000000000e+00,5.000000000000000000e+00,5.000000000000000000e+00,5.000000000000000000e+00,5.000000000000000000e+00,5.000000000000000000e+00,5.000000000000000000e+00,5.000000000000000000e+00,5.000000000000000000e+00,5.000000000000000000e+00,5.000000000000000000e+00,5.000000000000000000e+00,5.000000000000000000e+00,5.000000000000000000e+00,5.000000000000000000e+00,5.000000000000000000e+00,5.000000000000000000e+00,5.000000000000000000e+00,5.000000000000000000e+00,5.000000000000000000e+00,5.000000000000000000e+00,3.260663032531738281e+00,3.220502614974975586e+00,5.000000000000000000e+00,5.000000000000000000e+00,5.000000000000000000e+00,5.000000000000000000e+00,5.000000000000000000e+00,5.000000000000000000e+00,5.000000000000000000e+00,5.000000000000000000e+00,5.000000000000000000e+00,5.000000000000000000e+00,4.852177619934082031e+00,4.662042617797851562e+00,4.486247062683105469e+00,4.323226928710937500e+00,4.171639442443847656e+00,4.030322074890136719e+00,3.898265838623046875e+00,3.774588584899902344e+00,3.658517360687255859e+00,3.549371957778930664e+00,3.446550369262695312e+00,3.349517822265625000e+00,3.257799863815307617e+00,3.170970678329467773e+00,3.088649511337280273e+00,3.010494947433471680e+00,2.936197996139526367e+00,2.865479469299316406e+00,2.798087596893310547e+00,2.733792781829833984e+00,2.672386407852172852e+00,2.613677978515625000e+00,2.557493686676025391e+00,2.503674030303955078e+00,2.452072620391845703e+00,2.402555465698242188e+00,2.354998826980590820e+00,2.309288024902343750e+00,2.265318155288696289e+00,2.222991228103637695e+00,2.182217121124267578e+00,2.142911911010742188e+00,2.104997396469116211e+00,2.068401098251342773e+00,2.033055782318115234e+00,1.998898148536682129e+00,1.965869069099426270e+00,1.933913826942443848e+00,1.902980923652648926e+00,1.873022079467773438e+00,1.843991756439208984e+00
5.000000000000000000e+00,5.000000000000000000e+00,5.000000000000000000e+00,5.000000000000000000e+00,5.000000000000000000e+00,5.000000000000000000e+00,5.000000000000000000e+00,5.000000000000000000e+00,5.000000000000000000e+00,5.000000000000000000e+00,5.000000000000000000e+00,5.000000000000000000e+00,5.000000000000000000e+00,5.000000000000000000e+00,5.000000000000000000e+00,5.000000000000000000e+00,5.000000000000000000e+00,5.000000000000000000e+00,5.000000000000000000e+00,5.000000000000000000e+00,5.000000000000000000e+00,5.000000000000000000e+00,5.000000000000000000e+00,5.000000000000000000e+00,3.201851606369018555e+00,3.222854137420654297e+00,3.183646440505981445e+00,3.250277042388916016e+00,3.264824390411376953e+00,3.227521896362304688e+00,3.283164024353027344e+00,5.000000000000000000e+00,5.000000000000000000e+00,5.000000000000000000e+00,5.000000000000000000e+00,5.000000000000000000e+00,5.000000000000000000e+00,5.000000000000000000e+00,5.000000000000000000e+00,4.852316379547119141e+00,4.662170886993408203e+00,4.486365795135498047e+00,4.323337078094482422e+00,4.171741962432861328e+00,4.030417919158935547e+00,3.898355007171630859e+00,3.774672269821166992e+00,3.658596277236938477e+00,3.549446344375610352e+00,3.446619987487792969e+00,3.349584102630615234e+00,3.257862567901611328e+00,3.171029806137084961e+00,3.088706016540527344e+00,3.010548591613769531e+00,2.936248540878295898e+00,2.865527868270874023e+00,2.798133850097656250e+00,2.733836650848388672e+00,2.672428607940673828e+00,2.613718271255493164e+00,2.557532072067260742e+00,2.503710746765136719e+00,2.452108144760131836e+00,2.402589559555053711e+00,2.355031490325927734e+00,2.309319496154785156e+00,2.265348434448242188e+00,2.223020315170288086e+00,2.182245254516601562e+00,2.142938852310180664e+00,2.105023384094238281e+00,2.068426370620727539e+00,2.033080101013183594e+00,1.998921513557434082e+00,1.965891957283020020e+00,1.933935880661010742e+00,1.903002381324768066e+00,1.873042702674865723e+00,1.844011902809143066e+00
5.000000000000000000e+00,5.000000000000000000e+00,5.000000000000000000e+00,5.000000000000000000e+00,5.000000000000000000e+00,5.000000000000000000e+00,5.000000000000000000e+00,5.000000000000000000e+00,5.000000000000000000e+00,5.000000000000000000e+00,5.000000000000000000e+00,5.000000000000000000e+00,5.000000000000000000e+00,5.000000000000000000e+00,5.000000000000000000e+00,5.000000000000000000e+00,5.000000000000000000e+00,5.000000000000000000e+00,5.000000000000000000e+00,5.000000000000000000e+00,5.000000000000000000e+00,5.000000000000000000e+00,5.000000000000000000e+00,3.193941593170166016e+00,3.180309295654296875e+00,3.164299011230468750e+00,3.163817644119262695e+00,3.166807651519775391e+00,3.179423570632934570e+00,3.201097726821899414e+00,3.227695941925048828e+00,3.270363807678222656e+00,5.000000000000000000e+00,5.000000000000000000e+00,5.000000000000000000e+00,5.000000000000000000e+00,5.000000000000000000e+00,5.000000000000000000e+00,5.000000000000000000e+00,4.852455139160156250e+00,4.662298679351806641e+00,4.486484050750732422e+00,4.323447227478027344e+00,4.171844482421875000e+00,4.030513286590576172e+00,3.898444652557373047e+00,3.774756193161010742e+00,3.658675432205200195e+00,3.549520254135131836e+00,3.446690082550048828e+00,3.349650382995605469e+00,3.257924795150756836e+00,3.171089172363281250e+00,3.088762283325195312e+00,3.010601758956909180e+00,2.936299562454223633e+00,2.865576267242431641e+00,2.798179864883422852e+00,2.733880758285522461e+00,2.672470569610595703e+00,2.613758563995361328e+00,2.557570695877075195e+00,2.503747701644897461e+00,2.452143669128417969e+00,2.402623414993286133e+00,2.355064153671264648e+00,2.309350967407226562e+00,2.265378475189208984e+00,2.223049402236938477e+00,2.182273149490356445e+00,2.142965793609619141e+00,2.105049610137939453e+00,2.068451404571533203e+00,2.033104419708251953e+00,1.998944997787475586e+00,1.965914726257324219e+00,1.933957934379577637e+00,1.903023719787597656e+00,1.873063445091247559e+00,1.844031929969787598e+00
5.000000000000000000e+00,5.000000000000000000e+00,5.000000000000000000e+00,5.000000000000000000e+00,5.000000000000000000e+00,5.000000000000000000e+00,5.000000000000000000e+00,5.000000000000000000e+00,5.000000000000000000e+00,5.000000000000000000e+00,5.000000000000000000e+00,5.000000000000000000e+00,5.000000000000000000e+00,5.000000000000000000e+00,5.000000000000000000e+00,5.000000000000000000e+00,5.000000000000000000e+00,5.000000000000000000e+00,5.000000000000000000e+00,5.000000000000000000e+00,5.000000000000000000e+00,5.000000000000000000e+00,5.000000000000000000e+00,3.210854053497314453e+00,3.193719625473022461e+00,3.165867090225219727e+00,3.140721082687377930e+00,3.145010232925415039e+00,3.155850648880004883e+00,3.172807931900024414e+00,3.221884012222290039e+00,3.300012588500976562e+00,3.316971778869628906e+00,5.000000000000000000e+00,5.000000000000000000e+00,5.000000000000000000e+00,5.000000000000000000e+00,5.000000000000000000e+00,5.000000000000000000e+00,4.852593898773193359e+00,4.662426948547363281e+00,4.486602783203125000e+00,4.323557376861572266e+00,4.171947002410888672e+00,4.030609130859375000e+00,3.898534297943115234e+00,3.774839878082275391e+00,3.658753871917724609e+00,3.549594640731811523e+00,3.446760177612304688e+00,3.349716186523437500e+00,3.257987499237060547e+00,3.171148300170898438e+00,3.088818311691284180e+00,3.010655164718627930e+00,2.936350345611572266e+00,2.865624666213989258e+00,2.798226118087768555e+00,2.733924865722656250e+00,2.672512531280517578e+00,2.613798856735229492e+00,2.557609319686889648e+00,2.503784656524658203e+00,2.452178955078125000e+00,2.402657508850097656e+00,2.355096817016601562e+00,2.309382200241088867e+00,2.265408754348754883e+00,2.223078489303588867e+00,2.182301282882690430e+00,2.142992973327636719e+00,2.105075597763061523e+00,2.068476676940917969e+00,2.033128738403320312e+00,1.998968601226806641e+00,1.965937495231628418e+00,1.933980107307434082e+00,1.903045058250427246e+00,1.873083949089050293e+00,1.844051837921142578e+00
5.000000000000000000e+00,5.000000000000000000e+00,5.000000000000000000e+00,5.000000000000000000e+00,5.000000000000000000e+00,5.000000000000000000e+00,5.000000000000000000e+00,5.000000000000000000e+00,5.000000000000000000e+00,5.000000000000000000e+00,5.000000000000000000e+00,5.000000000000000000e+00,5.000000000000000000e+00,5.000000000000000000e+00,5.000000000000000000e+00,5.000000000000000000e+00,5.000000000000000000e+00,5.000000000000000000e+00,5.000000000000000000e+00,5.000000000000000000e+00,5.000000000000000000e+00,5.000000000000000000e+00,5.000000000000000000e+00,5.000000000000000000e+00,3.197379350662231445e+00,3.179636478424072266e+00,3.152056455612182617e+00,3.137252092361450195e+00,3.149027585983276367e+00,3.179360628128051758e+00,3.221997499465942383e+00,3.300126552581787109e+00,3.344609022140502930e+00,5.000000000000000000e+00,5.000000000000000000e+00,5.000000000000000000e+00,5.000000000000000000e+00,5.000000000000000000e+00,5.000000000000000000e+00,4.852732658386230469e+00,4.662555217742919922e+00,4.486721515655517578e+00,4.323667526245117188e+00,4.172049522399902344e+00,4.030704975128173828e+00,3.898623704910278320e+00,3.774924039840698242e+00,3.658833026885986328e+00,3.549669027328491211e+00,3.446830034255981445e+00,3.349782466888427734e+00,3.258049964904785156e+00,3.171207427978515625e+00,3.088874578475952148e+00,3.010708570480346680e+00,2.936400890350341797e+00,2.865673065185546875e+00,2.798272371292114258e+00,2.733968973159790039e+00,2.672554731369018555e+00,2.613839149475097656e+00,2.557647705078125000e+00,2.503821611404418945e+00,2.452214479446411133e+00,2.402691602706909180e+00,2.355129480361938477e+00,2.309413671493530273e+00,2.265439033508300781e+00,2.223107576370239258e+00,2.182329416275024414e+00,2.143020153045654297e+00,2.105101585388183594e+00,2.068501949310302734e+00,2.033153295516967773e+00,1.998992204666137695e+00,1.965960264205932617e+00,1.934002161026000977e+00,1.903066277503967285e+00,1.873104572296142578e+00,1.844071865081787109e+00
5.000000000000000000e+00,5.000000000000000000e+00,5.000000000000000000e+00,5.000000000000000000e+00,5.000000000000000000e+00,5.000000000000000000e+00,5.000000000000000000e+00,5.000000000000000000e+00,5.000000000000000000e+00,5.000000000000000000e+00,5.000000000000000000e+00,5.000000000000000000e+00,5.000000000000000000e+00,5.000000000000000000e+00,5.000000000000000000e+00,5.000000000000000000e+00,5.000000000000000000e+00,5.000000000000000000e+00,5.000000000000000000e+00,5.000000000000000000e+00,5.000000000000000000e+00,5.000000000000000000e+00,5.000000000000000000e+00,5.000000000000000000e+00,3.198064088821411133e+00,3.208799123764038086e+00,3.149738073348999023e+00,3.135516643524169922e+00,3.144604444503784180e+00,3.170312881469726562e+00,3.224706172943115234e+00,3.302658796310424805e+00,3.358385562896728516e+00,5.000000000000000000e+00,5.000000000000000000e+00,5.000000000000000000e+00,5.000000000000000000e+00,5.000000000000000000e+00,5.000000000000000000e+00,4.852871417999267578e+00,4.662683010101318359e+00,4.486839771270751953e+00,4.323777675628662109e+00,4.172152042388916016e+00,4.030800342559814453e+00,3.898713350296020508e+00,3.775008201599121094e+00,3.658911943435668945e+00,3.549742937088012695e+00,3.446900129318237305e+00,3.349848508834838867e+00,3.258112430572509766e+00,3.171266794204711914e+00,3.088930845260620117e+00,3.010761976242065430e+00,2.936451911926269531e+00,2.865721464157104492e+00,2.798318147659301758e+00,2.734013080596923828e+00,2.672596931457519531e+00,2.613879203796386719e+00,2.557686328887939453e+00,2.503858566284179688e+00,2.452250003814697266e+00,2.402725458145141602e+00,2.355162143707275391e+00,2.309445142745971680e+00,2.265469312667846680e+00,2.223136663436889648e+00,2.182357549667358398e+00,2.143047094345092773e+00,2.105127811431884766e+00,2.068527221679687500e+00,2.033177375793457031e+00,1.999015808105468750e+00,1.965983152389526367e+00,1.934023976325988770e+00,1.903087615966796875e+00,1.873125314712524414e+00,1.844091892242431641e+00
5.000000000000000000e+00,5.000000000000000000e+00,5.000000000000000000e+00,5.000000000000000000e+00,5.000000000000000000e+00,5.000000000000000000e+00,5.000000000000000000e+00,5.000000000000000000e+00,5.000000000000000000e+00,5.000000000000000000e+00,5.000000000000000000e+00,5.000000000000000000e+00,5.000000000000000000e+00,5.000000000000000000e+00,5.000000000000000000e+00,5.000000000000000000e+00,5.000000000000000000e+00,5.000000000000000000e+00,5.000000000000000000e+00,5.000000000000000000e+00,5.000000000000000000e+00,5.000000000000000000e+00,5.000000000000000000e+00,5.000000000000000000e+00,3.196333646774291992e+00,3.209305047988891602e+00,3.153052568435668945e+00,3.140295267105102539e+00,3.147303581237792969e+00,3.171030044555664062e+00,3.242053270339965820e+00,3.312615156173706055e+00,3.371493101119995117e+00,5.000000000000000000e+00,5.000000000000000000e+00,5.000000000000000000e+00,5.000000000000000000e+00,5.000000000000000000e+00,5.000000000000000000e+00,4.853010177612304688e+00,4.662810802459716797e+00,4.486958503723144531e+00,4.323887825012207031e+00,4.172254562377929688e+00,4.030896186828613281e+00,3.898802995681762695e+00,3.775091886520385742e+00,3.658990621566772461e+00,3.549817323684692383e+00,3.446970224380493164e+00,3.349914550781250000e+00,3.258174896240234375e+00,3.171326160430908203e+00,3.088986873626708984e+00,3.010815382003784180e+00,2.936502695083618164e+00,2.865769624710083008e+00,2.798364400863647461e+00,2.734057188034057617e+00,2.672638893127441406e+00,2.613919496536254883e+00,2.557724952697753906e+00,2.503895521163940430e+00,2.452285289764404297e+00,2.402759552001953125e+00,2.355194807052612305e+00,2.309476375579833984e+00,2.265499353408813477e+00,2.223165988922119141e+00,2.182385444641113281e+00,2.143074035644531250e+00,2.105154037475585938e+00,2.068552255630493164e+00,2.033201932907104492e+00,1.999039411544799805e+00,1.966005682945251465e+00,1.934046030044555664e+00,1.903108954429626465e+00,1.873146057128906250e+00,1.844112038612365723e+00
5.000000000000000000e+00,5.000000000000000000e+00,5.000000000000000000e+00,5.000000000000000000e+00,5.000000000000000000e+00,5.000000000000000000e+00,5.000000000000000000e+00,5.000000000000000000e+00,5.000000000000000000e+00,5.000000000000000000e+00,5.000000000000000000e+00,5.000000000000000000e+00,5.000000000000000000e+00,5.000000000000000000e+00,5.000000000000000000e+00,5.000000000000000000e+00,5.000000000000000000e+00,5.000000000000000000e+00,5.000000000000000000e+00,5.000000000000000000e+00,5.000000000000000000e+00,5.000000000000000000e+00,5.000000000000000000e+00,5.000000000000000000e+00,3.200871944427490234e+00,3.218432188034057617e+00,3.135744810104370117e+00,3.130494117736816406e+00,3.137257337570190430e+00,3.154579162597656250e+00,3.219954729080200195e+00,3.336836099624633789e+00,5.000000000000000000e+00,5.000000000000000000e+00,5.000000000000000000e+00,5.000000000000000000e+00,5.000000000000000000e+00,5.000000000000000000e+00,5.000000000000000000e+00,4.853148937225341797e+00,4.662939071655273438e+00,4.487077236175537109e+00,4.323997974395751953e+00,4.172357559204101562e+00,4.030992031097412109e+00,3.898892164230346680e+00,3.775175809860229492e+00,3.659069538116455078e+00,3.549891710281372070e+00,3.447040081024169922e+00,3.349980592727661133e+00,3.258237600326538086e+00,3.171385288238525391e+00,3.089043140411376953e+00,3.010868787765502930e+00,2.936553239822387695e+00,2.865818262100219727e+00,2.798410654067993164e+00,2.734101057052612305e+00,2.672681093215942383e+00,2.613959789276123047e+00,2.557763338088989258e+00,2.503932476043701172e+00,2.452320814132690430e+00,2.402793645858764648e+00,2.355227470397949219e+00,2.309507846832275391e+00,2.265529632568359375e+00,2.223194837570190430e+00,2.182413578033447266e+00,2.143101215362548828e+00,2.105180025100708008e+00,2.068577527999877930e+00,2.033226251602172852e+00,1.999062657356262207e+00,1.966028571128845215e+00,1.934068083763122559e+00,1.903130292892456055e+00,1.873166799545288086e+00,1.844132065773010254e+00
5.000000000000000000e+00,5.000000000000000000e+00,5.000000000000000000e+00,5.000000000000000000e+00,5.000000000000000000e+00,5.000000000000000000e+00,5.000000000000000000e+00,5.000000000000000000e+00,5.000000000000000000e+00,5.000000000000000000e+00,5.000000000000000000e+00,5.000000000000000000e+00,5.000000000000000000e+00,5.000000000000000000e+00,5.000000000000000000e+00,5.000000000000000000e+00,5.000000000000000000e+00,5.000000000000000000e+00,5.000000000000000000e+00,5.000000000000000000e+00,5.000000000000000000e+00,5.000000000000000000e+00,5.000000000000000000e+00,5.000000000000000000e+00,3.177531242370605469e+00,3.207010507583618164e+00,3.148690938949584961e+00,3.136675596237182617e+00,3.143274307250976562e+00,3.166488409042358398e+00,3.223443508148193359e+00,3.346784114837646484e+00,5.000000000000000000e+00,5.000000000000000000e+00,5.000000000000000000e+00,5.000000000000000000e+00,5.000000000000000000e+00,5.000000000000000000e+00,5.000000000000000000e+00,4.853287220001220703e+00,4.663067340850830078e+00,4.487195491790771484e+00,4.324108123779296875e+00,4.172460079193115234e+00,4.031087875366210938e+00,3.898982048034667969e+00,3.775259971618652344e+00,3.659148216247558594e+00,3.549965858459472656e+00,3.447110176086425781e+00,3.350046873092651367e+00,3.258300065994262695e+00,3.171444654464721680e+00,3.089099407196044922e+00,3.010922193527221680e+00,2.936604261398315430e+00,2.865866661071777344e+00,2.798456668853759766e+00,2.734145164489746094e+00,2.672723054885864258e+00,2.614000082015991211e+00,2.557801961898803711e+00,2.503969430923461914e+00,2.452356100082397461e+00,2.402827501296997070e+00,2.355260133743286133e+00,2.309539318084716797e+00,2.265559673309326172e+00,2.223224163055419922e+00,2.182441711425781250e+00,2.143128156661987305e+00,2.105206251144409180e+00,2.068602800369262695e+00,2.033250570297241211e+00,1.999086260795593262e+00,1.966051340103149414e+00,1.934090137481689453e+00,1.903151750564575195e+00,1.873187422752380371e+00,1.844151973724365234e+00
5.000000000000000000e+00,5.000000000000000000e+00,5.000000000000000000e+00,5.000000000000000000e+00,5.000000000000000000e+00,5.000000000000000000e+00,5.000000000000000000e+00,5.000000000000000000e+00,5.000000000000000000e+00,5.000000000000000000e+00,5.000000000000000000e+00,5.000000000000000000e+00,5.000000000000000000e+00,5.000000000000000000e+00,5.000000000000000000e+00,5.000000000000000000e+00,5.000000000000000000e+00,5.000000000000000000e+00,5.000000000000000000e+00,5.000000000000000000e+00,5.000000000000000000e+00,5.000000000000000000e+00,5.000000000000000000e+00,5.000000000000000000e+00,3.140012264251708984e+00,3.181934833526611328e+00,3.148830890655517578e+00,3.146328687667846680e+00,3.156424283981323242e+00,3.170944929122924805e+00,3.205005407333374023e+00,3.340243101119995117e+00,3.386697769165039062e+00,5.000000000000000000e+00,5.000000000000000000e+00,5.000000000000000000e+00,5.000000000000000000e+00,5.000000000000000000e+00,5.000000000000000000e+00,4.853426456451416016e+00,4.663195133209228516e+00,4.487314701080322266e+00,4.324218273162841797e+00,4.172562122344970703e+00,4.031183719635009766e+00,3.899071693420410156e+00,3.775343656539916992e+00,3.659227132797241211e+00,3.550040006637573242e+00,3.447180271148681641e+00,3.350112676620483398e+00,3.258362531661987305e+00,3.171503782272338867e+00,3.089155435562133789e+00,3.010975599288940430e+00,2.936655044555664062e+00,2.865914821624755859e+00,2.798502922058105469e+00,2.734189271926879883e+00,2.672765016555786133e+00,2.614040374755859375e+00,2.557840585708618164e+00,2.504006147384643555e+00,2.452391386032104492e+00,2.402861595153808594e+00,2.355292797088623047e+00,2.309570789337158203e+00,2.265590190887451172e+00,2.223253250122070312e+00,2.182469606399536133e+00,2.143155336380004883e+00,2.105232238769531250e+00,2.068627834320068359e+00,2.033274888992309570e+00,1.999109864234924316e+00,1.966074109077453613e+00,1.934112310409545898e+00,1.903173089027404785e+00,1.873207926750183105e+00,1.844172000885009766e+00
5.000000000000000000e+00,5.000000000000000000e+00,5.000000000000000000e+00,5.000000000000000000e+00,5.000000000000000000e+00,5.000000000000000000e+00,5.000000000000000000e+00,5.000000000000000000e+00,5.000000000000000000e+00,5.000000000000000000e+00,5.000000000000000000e+00,5.000000000000000000e+00,5.000000000000000000e+00,5.000000000000000000e+00,5.000000000000000000e+00,5.000000000000000000e+00,5.000000000000000000e+00,5.000000000000000000e+00,5.000000000000000000e+00,5.000000000000000000e+00,5.000000000000000000e+00,5.000000000000000000e+00,5.000000000000000000e+00,5.000000000000000000e+00,3.101695775985717773e+00,3.170354843139648438e+00,3.148821353912353516e+00,3.177942037582397461e+00,3.160497426986694336e+00,3.113055467605590820e+00,3.154048442840576172e+00,3.342011451721191406e+00,3.376209497451782227e+00,5.000000000000000000e+00,5.000000000000000000e+00,5.000000000000000000e+00,5.000000000000000000e+00,5.000000000000000000e+00,5.000000000000000000e+00,4.853565216064453125e+00,4.663323402404785156e+00,4.487432956695556641e+00,4.324328422546386719e+00,4.172665119171142578e+00,4.031279087066650391e+00,3.899160861968994141e+00,3.775427818298339844e+00,3.659306049346923828e+00,3.550114393234252930e+00,3.447249889373779297e+00,3.350178956985473633e+00,3.258425235748291016e+00,3.171562910079956055e+00,3.089211702346801758e+00,3.011029005050659180e+00,2.936705827713012695e+00,2.865963220596313477e+00,2.798548936843872070e+00,2.734233140945434570e+00,2.672807216644287109e+00,2.614080667495727539e+00,2.557878971099853516e+00,2.504043340682983398e+00,2.452426910400390625e+00,2.402895689010620117e+00,2.355325460433959961e+00,2.309602260589599609e+00,2.265620470046997070e+00,2.223282337188720703e+00,2.182497739791870117e+00,2.143182277679443359e+00,2.105258464813232422e+00,2.068653106689453125e+00,2.033299446105957031e+00,1.999133467674255371e+00,1.966096997261047363e+00,1.934134364128112793e+00,1.903194308280944824e+00,1.873228669166564941e+00,1.844192028045654297e+00
5.000000000000000000e+00,5.000000000000000000e+00,5.000000000000000000e+00,5.000000000000000000e+00,5.000000000000000000e+00,5.000000000000000000e+00,5.000000000000000000e+00,5.000000000000000000e+00,5.000000000000000000e+00,5.000000000000000000e+00,5.000000000000000000e+00,5.000000000000000000e+00,5.000000000000000000e+00,5.000000000000000000e+00,5.000000000000000000e+00,5.000000000000000000e+00,5.000000000000000000e+00,5.000000000000000000e+00,5.000000000000000000e+00,5.000000000000000000e+00,5.000000000000000000e+00,5.000000000000000000e+00,5.000000000000000000e+00,5.000000000000000000e+00,3.068741083145141602e+00,3.159857749938964844e+00,3.141496181488037109e+00,3.173228979110717773e+00,3.111719369888305664e+00,3.089222908020019531e+00,3.129912614822387695e+00,3.352866411209106445e+00,3.355590581893920898e+00,5.000000000000000000e+00,5.000000000000000000e+00,5.000000000000000000e+00,5.000000000000000000e+00,5.000000000000000000e+00,5.000000000000000000e+00,4.853703498840332031e+00,4.663451671600341797e+00,4.487551689147949219e+00,4.324438571929931641e+00,4.172767639160156250e+00,4.031374931335449219e+00,3.899250745773315430e+00,3.775511980056762695e+00,3.659384727478027344e+00,3.550188541412353516e+00,3.447320222854614258e+00,3.350245237350463867e+00,3.258487701416015625e+00,3.171622276306152344e+00,3.089268207550048828e+00,3.011082410812377930e+00,2.936756610870361328e+00,2.866011857986450195e+00,2.798594951629638672e+00,2.734277248382568359e+00,2.672849416732788086e+00,2.614120721817016602e+00,2.557917594909667969e+00,2.504080295562744141e+00,2.452462196350097656e+00,2.402929544448852539e+00,2.355358123779296875e+00,2.309633731842041016e+00,2.265650510787963867e+00,2.223311424255371094e+00,2.182525873184204102e+00,2.143209457397460938e+00,2.105284452438354492e+00,2.068678379058837891e+00,2.033323526382446289e+00,1.999157071113586426e+00,1.966119766235351562e+00,1.934156179428100586e+00,1.903215646743774414e+00,1.873249411582946777e+00,1.844212174415588379e+00
5.000000000000000000e+00,5.000000000000000000e+00,5.000000000000000000e+00,5.000000000000000000e+00,5.000000000000000000e+00,5.000000000000000000e+00,5.000000000000000000e+00,5.000000000000000000e+00,5.000000000000000000e+00,5.000000000000000000e+00,5.000000000000000000e+00,5.000000000000000000e+00,5.000000000000000000e+00,5.000000000000000000e+00,5.000000000000000000e+00,5.000000000000000000e+00,5.000000000000000000e+00,5.000000000000000000e+00,5.000000000000000000e+00,5.000000000000000000e+00,5.000000000000000000e+00,5.000000000000000000e+00,5.000000000000000000e+00,3.041655063629150391e+00,3.015091896057128906e+00,3.164281606674194336e+00,3.141172885894775391e+00,3.170845508575439453e+00,3.091171503067016602e+00,3.070811748504638672e+00,3.112395763397216797e+00,3.323293209075927734e+00,3.358534812927246094e+00,5.000000000000000000e+00,5.000000000000000000e+00,5.000000000000000000e+00,5.000000000000000000e+00,5.000000000000000000e+00,5.000000000000000000e+00,4.853842735290527344e+00,4.663579463958740234e+00,4.487670421600341797e+00,4.324548721313476562e+00,4.172870159149169922e+00,4.031470775604248047e+00,3.899340391159057617e+00,3.775595664978027344e+00,3.659463882446289062e+00,3.550262928009033203e+00,3.447390317916870117e+00,3.350311040878295898e+00,3.258550167083740234e+00,3.171681642532348633e+00,3.089324235916137695e+00,3.011135816574096680e+00,2.936807632446289062e+00,2.866060018539428711e+00,2.798641204833984375e+00,2.734321355819702148e+00,2.672891378402709961e+00,2.614161014556884766e+00,2.557956218719482422e+00,2.504117012023925781e+00,2.452497720718383789e+00,2.402963638305664062e+00,2.355391025543212891e+00,2.309664964675903320e+00,2.265680789947509766e+00,2.223340749740600586e+00,2.182553768157958984e+00,2.143236398696899414e+00,2.105310678482055664e+00,2.068703413009643555e+00,2.033348083496093750e+00,1.999180555343627930e+00,1.966142296791076660e+00,1.934178233146667480e+00,1.903236985206604004e+00,1.873270034790039062e+00,1.844232201576232910e+00
5.000000000000000000e+00,5.000000000000000000e+00,5.000000000000000000e+00,5.000000000000000000e+00,5.000000000000000000e+00,5.000000000000000000e+00,5.000000000000000000e+00,5.000000000000000000e+00,5.000000000000000000e+00,5.000000000000000000e+00,5.000000000000000000e+00,5.000000000000000000e+00,5.000000000000000000e+00,5.000000000000000000e+00,5.000000000000000000e+00,5.000000000000000000e+00,5.000000000000000000e+00,5.000000000000000000e+00,5.000000000000000000e+00,5.000000000000000000e+00,5.000000000000000000e+00,5.000000000000000000e+00,5.000000000000000000e+00,2.976229906082153320e+00,5.000000000000000000e+00,3.174215316772460938e+00,3.148957729339599609e+00,3.178660392761230469e+00,3.070000648498535156e+00,3.053632020950317383e+00,3.097060441970825195e+00,3.300158262252807617e+00,3.338213443756103516e+00,5.000000000000000000e+00,5.000000000000000000e+00,5.000000000000000000e+00,5.000000000000000000e+00,5.000000000000000000e+00,5.000000000000000000e+00,4.853981494903564453e+00,4.663707733154296875e+00,4.487789154052734375e+00,4.324658870697021484e+00,4.172972679138183594e+00,4.031566619873046875e+00,3.899429559707641602e+00,3.775679826736450195e+00,3.659542798995971680e+00,3.550336837768554688e+00,3.447459936141967773e+00,3.350377321243286133e+00,3.258612871170043945e+00,3.171740770339965820e+00,3.089380502700805664e+00,3.011189222335815430e+00,2.936858177185058594e+00,2.866108417510986328e+00,2.798687458038330078e+00,2.734365224838256836e+00,2.672933578491210938e+00,2.614201307296752930e+00,2.557994604110717773e+00,2.504153966903686523e+00,2.452533245086669922e+00,2.402997493743896484e+00,2.355423450469970703e+00,2.309696435928344727e+00,2.265711069107055664e+00,2.223369598388671875e+00,2.182581901550292969e+00,2.143263578414916992e+00,2.105336666107177734e+00,2.068728685379028320e+00,2.033372402191162109e+00,1.999203920364379883e+00,1.966165184974670410e+00,1.934200286865234375e+00,1.903258442878723145e+00,1.873290777206420898e+00,1.844252228736877441e+00
5.000000000000000000e+00,5.000000000000000000e+00,5.000000000000000000e+00,5.000000000000000000e+00,5.000000000000000000e+00,5.000000000000000000e+00,5.000000000000000000e+00,5.000000000000000000e+00,5.000000000000000000e+00,5.000000000000000000e+00,5.000000000000000000e+00,5.000000000000000000e+00,5.000000000000000000e+00,5.000000000000000000e+00,5.000000000000000000e+00,5.000000000000000000e+00,5.000000000000000000e+00,5.000000000000000000e+00,5.000000000000000000e+00,5.000000000000000000e+00,5.000000000000000000e+00,5.000000000000000000e+00,5.000000000000000000e+00,5.000000000000000000e+00,5.000000000000000000e+00,3.185525655746459961e+00,3.157773494720458984e+00,3.185839891433715820e+00,3.046998977661132812e+00,3.035308122634887695e+00,3.082330226898193359e+00,5.000000000000000000e+00,3.333287239074707031e+00,5.000000000000000000e+00,5.000000000000000000e+00,5.000000000000000000e+00,5.000000000000000000e+00,5.000000000000000000e+00,5.000000000000000000e+00,4.854120254516601562e+00,4.663836002349853516e+00,4.487907409667968750e+00,4.324769496917724609e+00,4.173075199127197266e+00,4.031661987304687500e+00,3.899519443511962891e+00,3.775763750076293945e+00,3.659621477127075195e+00,3.550411224365234375e+00,3.447530269622802734e+00,3.350443601608276367e+00,3.258675336837768555e+00,3.171800136566162109e+00,3.089436769485473633e+00,3.011242628097534180e+00,2.936908960342407227e+00,2.866157054901123047e+00,2.798733472824096680e+00,2.734409332275390625e+00,2.672975540161132812e+00,2.614241600036621094e+00,2.558033227920532227e+00,2.504191160202026367e+00,2.452568531036376953e+00,2.403031587600708008e+00,2.355456352233886719e+00,2.309727907180786133e+00,2.265741109848022461e+00,2.223398923873901367e+00,2.182610034942626953e+00,2.143290519714355469e+00,2.105362892150878906e+00,2.068753957748413086e+00,2.033396720886230469e+00,1.999227523803710938e+00,1.966187953948974609e+00,1.934222459793090820e+00,1.903279781341552734e+00,1.873311519622802734e+00,1.844272136688232422e+00
5.000000000000000000e+00,5.000000000000000000e+00,5.000000000000000000e+00,5.000000000000000000e+00,5.000000000000000000e+00,5.000000000000000000e+00,5.000000000000000000e+00,5.000000000000000000e+00,5.000000000000000000e+00,5.000000000000000000e+00,5.000000000000000000e+00,5.000000000000000000e+00,5.000000000000000000e+00,5.000000000000000000e+00,5.000000000000000000e+00,5.000000000000000000e+00,5.000000000000000000e+00,5.000000000000000000e+00,5.000000000000000000e+00,5.000000000000000000e+00,5.000000000000000000e+00,5.000000000000000000e+00,5.000000000000000000e+00,5.000000000000000000e+00,5.000000000000000000e+00,5.000000000000000000e+00,3.164642095565795898e+00,3.193156003952026367e+00,3.026997804641723633e+00,3.015503883361816406e+00,3.162988901138305664e+00,5.000000000000000000e+00,5.000000000000000000e+00,5.000000000000000000e+00,5.000000000000000000e+00,5.000000000000000000e+00,5.000000000000000000e+00,5.000000000000000000e+00,5.000000000000000000e+00,4.854259014129638672e+00,4.663963794708251953e+00,4.488026142120361328e+00,4.324879169464111328e+00,4.173177719116210938e+00,4.031757831573486328e+00,3.899609088897705078e+00,3.775847434997558594e+00,3.659700393676757812e+00,3.550485610961914062e+00,3.447600364685058594e+00,3.350509643554687500e+00,3.258737802505493164e+00,3.171859502792358398e+00,3.089492797851562500e+00,3.011296033859252930e+00,2.936959981918334961e+00,2.866205215454101562e+00,2.798779726028442383e+00,2.734453439712524414e+00,2.673017501831054688e+00,2.614281892776489258e+00,2.558071851730346680e+00,2.504227876663208008e+00,2.452604055404663086e+00,2.403065681457519531e+00,2.355489015579223633e+00,2.309759378433227539e+00,2.265771627426147461e+00,2.223428010940551758e+00,2.182637929916381836e+00,2.143317699432373047e+00,2.105388879776000977e+00,2.068779230117797852e+00,2.033421039581298828e+00,1.999251127243041992e+00,1.966210722923278809e+00,1.934244513511657715e+00,1.903301119804382324e+00,1.873332023620605469e+00,1.844292163848876953e+00
5.000000000000000000e+00,5.000000000000000000e+00,5.000000000000000000e+00,5.000000000000000000e+00,5.000000000000000000e+00,5.000000000000000000e+00,5.000000000000000000e+00,5.000000000000000000e+00,5.000000000000000000e+00,5.000000000000000000e+00,5.000000000000000000e+00,5.000000000000000000e+00,5.000000000000000000e+00,5.000000000000000000e+00,5.000000000000000000e+00,5.000000000000000000e+00,5.000000000000000000e+00,5.000000000000000000e+00,5.000000000000000000e+00,5.000000000000000000e+00,5.000000000000000000e+00,5.000000000000000000e+00,5.000000000000000000e+00,5.000000000000000000e+00,5.000000000000000000e+00,5.000000000000000000e+00,3.172527313232421875e+00,3.197305202484130859e+00,3.020905017852783203e+00,3.008789062500000000e+00,5.000000000000000000e+00,5.000000000000000000e+00,5.000000000000000000e+00,5.000000000000000000e+00,5.000000000000000000e+00,5.000000000000000000e+00,5.000000000000000000e+00,5.000000000000000000e+00,5.000000000000000000e+00,4.854397773742675781e+00,4.664092063903808594e+00,4.488144874572753906e+00,4.324989318847656250e+00,4.173280715942382812e+00,4.031853675842285156e+00,3.899698495864868164e+00,3.775931596755981445e+00,3.659779548645019531e+00,3.550559520721435547e+00,3.447669982910156250e+00,3.350575685501098633e+00,3.258800506591796875e+00,3.171918630599975586e+00,3.089549064636230469e+00,3.011349678039550781e+00,2.937010526657104492e+00,2.866253614425659180e+00,2.798825979232788086e+00,2.734497308731079102e+00,2.673059701919555664e+00,2.614322185516357422e+00,2.558110237121582031e+00,2.504264831542968750e+00,2.452639579772949219e+00,2.403099536895751953e+00,2.355521678924560547e+00,2.309790849685668945e+00,2.265801906585693359e+00,2.223457098007202148e+00,2.182666063308715820e+00,2.143344640731811523e+00,2.105415105819702148e+00,2.068804502487182617e+00,2.033445596694946289e+00,1.999274730682373047e+00,1.966233611106872559e+00,1.934266567230224609e+00,1.903322339057922363e+00,1.873352646827697754e+00,1.844312310218811035e+00
5.000000000000000000e+00,5.000000000000000000e+00,5.000000000000000000e+00,5.000000000000000000e+00,5.000000000000000000e+00,5.000000000000000000e+00,5.000000000000000000e+00,5.000000000000000000e+00,5.000000000000000000e+00,5.000000000000000000e+00,5.000000000000000000e+00,5.000000000000000000e+00,5.000000000000000000e+00,5.000000000000000000e+00,5.000000000000000000e+00,5.000000000000000000e+00,5.000000000000000000e+00,5.000000000000000000e+00,5.000000000000000000e+00,5.000000000000000000e+00,5.000000000000000000e+00,5.000000000000000000e+00,5.000000000000000000e+00,5.000000000000000000e+00,5.000000000000000000e+00,5.000000000000000000e+00,3.180175542831420898e+00,3.204297065734863281e+00,3.041342973709106445e+00,3.023521184921264648e+00,5.000000000000000000e+00,5.000000000000000000e+00,5.000000000000000000e+00,5.000000000000000000e+00,5.000000000000000000e+00,5.000000000000000000e+00,5.000000000000000000e+00,5.000000000000000000e+00,5.000000000000000000e+00,4.854536533355712891e+00,4.664220333099365234e+00,4.488263607025146484e+00,4.325099945068359375e+00,4.173383235931396484e+00,4.031949520111083984e+00,3.899788141250610352e+00,3.776015758514404297e+00,3.659858226776123047e+00,3.550634145736694336e+00,3.447740316390991211e+00,3.350641965866088867e+00,3.258862972259521484e+00,3.171977996826171875e+00,3.089605569839477539e+00,3.011402845382690430e+00,2.937061548233032227e+00,2.866302251815795898e+00,2.798871994018554688e+00,2.734541416168212891e+00,2.673101902008056641e+00,2.614362239837646484e+00,2.558148860931396484e+00,2.504301786422729492e+00,2.452674865722656250e+00,2.403133630752563477e+00,2.355554342269897461e+00,2.309822320938110352e+00,2.265831947326660156e+00,2.223486185073852539e+00,2.182694196701049805e+00,2.143371820449829102e+00,2.105441093444824219e+00,2.068829536437988281e+00,2.033469676971435547e+00,1.999298334121704102e+00,1.966256380081176758e+00,1.934288382530212402e+00,1.903343677520751953e+00,1.873373389244079590e+00,1.844332337379455566e+00
5.000000000000000000e+00,5.000000000000000000e+00,5.000000000000000000e+00,5.000000000000000000e+00,5.000000000000000000e+00,5.000000000000000000e+00,5.000000000000000000e+00,5.000000000000000000e+00,5.000000000000000000e+00,5.000000000000000000e+00,5.000000000000000000e+00,5.000000000000000000e+00,5.000000000000000000e+00,5.000000000000000000e+00,5.000000000000000000e+00,5.000000000000000000e+00,5.000000000000000000e+00,5.000000000000000000e+00,5.000000000000000000e+00,5.000000000000000000e+00,5.000000000000000000e+00,5.000000000000000000e+00,5.000000000000000000e+00,5.000000000000000000e+00,5.000000000000000000e+00,5.000000000000000000e+00,3.207018852233886719e+00,3.231463193893432617e+00,3.066410779953002930e+00,3.046689748764038086e+00,5.000000000000000000e+00,5.000000000000000000e+00,5.000000000000000000e+00,5.000000000000000000e+00,5.000000000000000000e+00,5.000000000000000000e+00,5.000000000000000000e+00,5.000000000000000000e+00,5.000000000000000000e+00,4.854673385620117188e+00,4.664348602294921875e+00,4.488381862640380859e+00,4.325210094451904297e+00,4.173485755920410156e+00,4.032045364379882812e+00,3.899877786636352539e+00,3.776099443435668945e+00,3.659937143325805664e+00,3.550708532333374023e+00,3.447809934616088867e+00,3.350708007812500000e+00,3.258925676345825195e+00,3.172037363052368164e+00,3.089661598205566406e+00,3.011456251144409180e+00,2.937112331390380859e+00,2.866350412368774414e+00,2.798918008804321289e+00,2.734585523605346680e+00,2.673143863677978516e+00,2.614402532577514648e+00,2.558187484741210938e+00,2.504338741302490234e+00,2.452710390090942383e+00,2.403167724609375000e+00,2.355587005615234375e+00,2.309853553771972656e+00,2.265862226486206055e+00,2.223515272140502930e+00,2.182722091674804688e+00,2.143398761749267578e+00,2.105467319488525391e+00,2.068854808807373047e+00,2.033494234085083008e+00,1.999321937561035156e+00,1.966279029846191406e+00,1.934310555458068848e+00,1.903365015983581543e+00,1.873394131660461426e+00,1.844352483749389648e+00
5.000000000000000000e+00,5.000000000000000000e+00,5.000000000000000000e+00,5.000000000000000000e+00,5.000000000000000000e+00,5.000000000000000000e+00,5.000000000000000000e+00,5.000000000000000000e+00,5.000000000000000000e+00,5.000000000000000000e+00,5.000000000000000000e+00,5.000000000000000000e+00,5.000000000000000000e+00,5.000000000000000000e+00,5.000000000000000000e+00,5.000000000000000000e+00,5.000000000000000000e+00,5.000000000000000000e+00,5.000000000000000000e+00,5.000000000000000000e+00,5.000000000000000000e+00,5.000000000000000000e+00,5.000000000000000000e+00,5.000000000000000000e+00,5.000000000000000000e+00,5.000000000000000000e+00,3.338755607604980469e+00,3.356132507324218750e+00,3.072005987167358398e+00,3.054977416992187500e+00,5.000000000000000000e+00,5.000000000000000000e+00,5.000000000000000000e+00,5.000000000000000000e+00,5.000000000000000000e+00,5.000000000000000000e+00,5.000000000000000000e+00,5.000000000000000000e+00,5.000000000000000000e+00,4.854811668395996094e+00,4.664476394653320312e+00,4.488501071929931641e+00,4.325320243835449219e+00,4.173588275909423828e+00,4.032141208648681641e+00,3.899967193603515625e+00,3.776183605194091797e+00,3.660016298294067383e+00,3.550782442092895508e+00,3.447880029678344727e+00,3.350774288177490234e+00,3.258988380432128906e+00,3.172096252441406250e+00,3.089717864990234375e+00,3.011509895324707031e+00,2.937163114547729492e+00,2.866398811340332031e+00,2.798964262008666992e+00,2.734629392623901367e+00,2.673186063766479492e+00,2.614443063735961914e+00,2.558225870132446289e+00,2.504375696182250977e+00,2.452745914459228516e+00,2.403201580047607422e+00,2.355619668960571289e+00,2.309885025024414062e+00,2.265892505645751953e+00,2.223544359207153320e+00,2.182750225067138672e+00,2.143425941467285156e+00,2.105493307113647461e+00,2.068880081176757812e+00,2.033518552780151367e+00,1.999345183372497559e+00,1.966301798820495605e+00,1.934332609176635742e+00,1.903386473655700684e+00,1.873414874076843262e+00,1.844372510910034180e+00
5.000000000000000000e+00,5.000000000000000000e+00,5.000000000000000000e+00,5.000000000000000000e+00,5.000000000000000000e+00,5.000000000000000000e+00,5.000000000000000000e+00,5.000000000000000000e+00,5.000000000000000000e+00,5.000000000000000000e+00,5.000000000000000000e+00,5.000000000000000000e+00,5.000000000000000000e+00,5.000000000000000000e+00,5.000000000000000000e+00,5.000000000000000000e+00,5.000000000000000000e+00,5.000000000000000000e+00,5.000000000000000000e+00,5.000000000000000000e+00,5.000000000000000000e+00,5.000000000000000000e+00,5.000000000000000000e+00,5.000000000000000000e+00,5.000000000000000000e+00,5.000000000000000000e+00,3.432915925979614258e+00,3.418326616287231445e+00,3.071514368057250977e+00,3.056057453155517578e+00,5.000000000000000000e+00,5.000000000000000000e+00,5.000000000000000000e+00,5.000000000000000000e+00,5.000000000000000000e+00,5.000000000000000000e+00,5.000000000000000000e+00,5.000000000000000000e+00,5.000000000000000000e+00,4.854949951171875000e+00,4.664602279663085938e+00,4.488619327545166016e+00,4.325430393218994141e+00,4.173690795898437500e+00,4.032236576080322266e+00,3.900056838989257812e+00,3.776267766952514648e+00,3.660094976425170898e+00,3.550856828689575195e+00,3.447950363159179688e+00,3.350840091705322266e+00,3.259050607681274414e+00,3.172155618667602539e+00,3.089774131774902344e+00,3.011563062667846680e+00,2.937213897705078125e+00,2.866447448730468750e+00,2.799010276794433594e+00,2.734673738479614258e+00,2.673228263854980469e+00,2.614483118057250977e+00,2.558264493942260742e+00,2.504412651062011719e+00,2.452781200408935547e+00,2.403235673904418945e+00,2.355652332305908203e+00,2.309916257858276367e+00,2.265922784805297852e+00,2.223573684692382812e+00,2.182778358459472656e+00,2.143452882766723633e+00,2.105519533157348633e+00,2.068905353546142578e+00,2.033542871475219727e+00,1.999368786811828613e+00,1.966324567794799805e+00,1.934354662895202637e+00,1.903407812118530273e+00,1.873435497283935547e+00,1.844392418861389160e+00
5.000000000000000000e+00,5.000000000000000000e+00,5.000000000000000000e+00,5.000000000000000000e+00,5.000000000000000000e+00,5.000000000000000000e+00,5.000000000000000000e+00,5.000000000000000000e+00,5.000000000000000000e+00,5.000000000000000000e+00,5.000000000000000000e+00,5.000000000000000000e+00,5.000000000000000000e+00,5.000000000000000000e+00,5.000000000000000000e+00,5.000000000000000000e+00,5.000000000000000000e+00,5.000000000000000000e+00,5.000000000000000000e+00,5.000000000000000000e+00,5.000000000000000000e+00,5.000000000000000000e+00,5.000000000000000000e+00,5.000000000000000000e+00,5.000000000000000000e+00,5.000000000000000000e+00,5.000000000000000000e+00,3.485226631164550781e+00,3.071587085723876953e+00,3.061150312423706055e+00,5.000000000000000000e+00,5.000000000000000000e+00,5.000000000000000000e+00,5.000000000000000000e+00,5.000000000000000000e+00,5.000000000000000000e+00,5.000000000000000000e+00,5.000000000000000000e+00,5.000000000000000000e+00,4.855088233947753906e+00,4.664730072021484375e+00,4.488736629486083984e+00,4.325540542602539062e+00,4.173793315887451172e+00,4.032332420349121094e+00,3.900146722793579102e+00,3.776351451873779297e+00,3.660173892974853516e+00,3.550931215286254883e+00,3.448019981384277344e+00,3.350906372070312500e+00,3.259113311767578125e+00,3.172214984893798828e+00,3.089830160140991211e+00,3.011616706848144531e+00,2.937264919281005859e+00,2.866495609283447266e+00,2.799056529998779297e+00,2.734717845916748047e+00,2.673270225524902344e+00,2.614523410797119141e+00,2.558303117752075195e+00,2.504449605941772461e+00,2.452816724777221680e+00,2.403269767761230469e+00,2.355684995651245117e+00,2.309947967529296875e+00,2.265953063964843750e+00,2.223602771759033203e+00,2.182806253433227539e+00,2.143480062484741211e+00,2.105545759201049805e+00,2.068930387496948242e+00,2.033567190170288086e+00,1.999392390251159668e+00,1.966347455978393555e+00,1.934376716613769531e+00,1.903429150581359863e+00,1.873456001281738281e+00,1.844412446022033691e+00
5.000000000000000000e+00,5.000000000000000000e+00,5.000000000000000000e+00,5.000000000000000000e+00,5.000000000000000000e+00,5.000000000000000000e+00,5.000000000000000000e+00,5.000000000000000000e+00,5.000000000000000000e+00,5.000000000000000000e+00,5.000000000000000000e+00,5.000000000000000000e+00,5.000000000000000000e+00,5.000000000000000000e+00,5.000000000000000000e+00,5.000000000000000000e+00,5.000000000000000000e+00,5.000000000000000000e+00,5.000000000000000000e+00,5.000000000000000000e+00,5.000000000000000000e+00,5.000000000000000000e+00,5.000000000000000000e+00,5.000000000000000000e+00,5.000000000000000000e+00,5.000000000000000000e+00,5.000000000000000000e+00,3.575950145721435547e+00,3.074906110763549805e+00,3.075045347213745117e+00,5.000000000000000000e+00,5.000000000000000000e+00,5.000000000000000000e+00,5.000000000000000000e+00,5.000000000000000000e+00,5.000000000000000000e+00,5.000000000000000000e+00,5.000000000000000000e+00,5.000000000000000000e+00,4.855226993560791016e+00,4.664857864379882812e+00,4.488854885101318359e+00,4.325649261474609375e+00,4.173896312713623047e+00,4.032428264617919922e+00,3.900235891342163086e+00,3.776435613632202148e+00,3.660253047943115234e+00,3.551005363464355469e+00,3.448090314865112305e+00,3.350972652435302734e+00,3.259176015853881836e+00,3.172274112701416016e+00,3.089886665344238281e+00,3.011670112609863281e+00,2.937315464019775391e+00,2.866544008255004883e+00,2.799102783203125000e+00,2.734761714935302734e+00,2.673312425613403320e+00,2.614563703536987305e+00,2.558341503143310547e+00,2.504486560821533203e+00,2.452852249145507812e+00,2.403303861618041992e+00,2.355717658996582031e+00,2.309979438781738281e+00,2.265983343124389648e+00,2.223631858825683594e+00,2.182834386825561523e+00,2.143507003784179688e+00,2.105571746826171875e+00,2.068955659866333008e+00,2.033591747283935547e+00,1.999415993690490723e+00,1.966370224952697754e+00,1.934398770332336426e+00,1.903450369834899902e+00,1.873476743698120117e+00,1.844432473182678223e+00
5.000000000000000000e+00,5.000000000000000000e+00,5.000000000000000000e+00,5.000000000000000000e+00,5.000000000000000000e+00,5.000000000000000000e+00,5.000000000000000000e+00,5.000000000000000000e+00,5.000000000000000000e+00,5.000000000000000000e+00,5.000000000000000000e+00,5.000000000000000000e+00,5.000000000000000000e+00,5.000000000000000000e+00,5.000000000000000000e+00,5.000000000000000000e+00,5.000000000000000000e+00,5.000000000000000000e+00,5.000000000000000000e+00,5.000000000000000000e+00,5.000000000000000000e+00,5.000000000000000000e+00,5.000000000000000000e+00,5.000000000000000000e+00,5.000000000000000000e+00,5.000000000000000000e+00,5.000000000000000000e+00,3.595740556716918945e+00,3.079822063446044922e+00,3.082421541213989258e+00,5.000000000000000000e+00,5.000000000000000000e+00,5.000000000000000000e+00,5.000000000000000000e+00,5.000000000000000000e+00,5.000000000000000000e+00,5.000000000000000000e+00,5.000000000000000000e+00,5.000000000000000000e+00,4.855365276336669922e+00,4.664985656738281250e+00,4.488973140716552734e+00,4.325758934020996094e+00,4.173998832702636719e+00,4.032524108886718750e+00,3.900325775146484375e+00,3.776519775390625000e+00,3.660331726074218750e+00,3.551079750061035156e+00,3.448160409927368164e+00,3.351038455963134766e+00,3.259238243103027344e+00,3.172333478927612305e+00,3.089942932128906250e+00,3.011723279953002930e+00,2.937366485595703125e+00,2.866592645645141602e+00,2.799148797988891602e+00,2.734805822372436523e+00,2.673354625701904297e+00,2.614603996276855469e+00,2.558380126953125000e+00,2.504523515701293945e+00,2.452887535095214844e+00,2.403337717056274414e+00,2.355750560760498047e+00,2.310010671615600586e+00,2.266013383865356445e+00,2.223660945892333984e+00,2.182862520217895508e+00,2.143534183502197266e+00,2.105597972869873047e+00,2.068980932235717773e+00,2.033615827560424805e+00,1.999439597129821777e+00,1.966393113136291504e+00,1.934420704841613770e+00,1.903471708297729492e+00,1.873497486114501953e+00,1.844452619552612305e+00
4.875593185424804688e+00,4.874382972717285156e+00,4.873173236846923828e+00,4.871963977813720703e+00,4.870755195617675781e+00,4.869546890258789062e+00,4.868339538574218750e+00,4.867132663726806641e+00,4.865926265716552734e+00,4.864720344543457031e+00,4.863515377044677734e+00,4.862310886383056641e+00,4.861107349395751953e+00,4.859903812408447266e+00,4.858701229095458984e+00,4.857499122619628906e+00,4.856297492980957031e+00,4.855096817016601562e+00,4.853896617889404297e+00,4.852696895599365234e+00,4.851497650146484375e+00,4.850298881530761719e+00,4.849101066589355469e+00,4.847903728485107422e+00,4.846706867218017578e+00,4.845510959625244141e+00,4.844315052032470703e+00,3.597586631774902344e+00,3.099845886230468750e+00,3.108957290649414062e+00,4.839538574218750000e+00,4.838346004486083984e+00,4.837153911590576172e+00,4.835962772369384766e+00,4.834771156311035156e+00,4.833580970764160156e+00,4.832391262054443359e+00,4.831202507019042969e+00,4.830013751983642578e+00,4.828825950622558594e+00,4.665113449096679688e+00,4.489090919494628906e+00,4.325869083404541016e+00,4.174099445343017578e+00,4.032619953155517578e+00,3.900415420532226562e+00,3.776603698730468750e+00,3.660410642623901367e+00,3.551154136657714844e+00,3.448230266571044922e+00,3.351104736328125000e+00,3.259300947189331055e+00,3.172392845153808594e+00,3.089998960494995117e+00,3.011776924133300781e+00,2.937417268753051758e+00,2.866640806198120117e+00,2.799195051193237305e+00,2.734849929809570312e+00,2.673396587371826172e+00,2.614644289016723633e+00,2.558418750762939453e+00,2.504560470581054688e+00,2.452923059463500977e+00,2.403371810913085938e+00,2.355782985687255859e+00,2.310042142868041992e+00,2.266043663024902344e+00,2.223690032958984375e+00,2.182890653610229492e+00,2.143561124801635742e+00,2.105623960494995117e+00,2.069005966186523438e+00,2.033640384674072266e+00,1.999463200569152832e+00,1.966415643692016602e+00,1.934442758560180664e+00,1.903493165969848633e+00,1.873518109321594238e+00,1.844472646713256836e+00
3.778442382812500000e+00,3.777715444564819336e+00,3.776988744735717773e+00,3.776262283325195312e+00,3.775536060333251953e+00,3.774810314178466797e+00,3.774084568023681641e+00,3.773359298706054688e+00,3.772634267807006836e+00,3.771909475326538086e+00,3.771184921264648438e+00,3.770460844039916992e+00,3.769736766815185547e+00,3.769013166427612305e+00,3.768289327621459961e+00,3.767566204071044922e+00,3.766843557357788086e+00,3.766120910644531250e+00,3.765398740768432617e+00,3.764676570892333984e+00,3.763954877853393555e+00,3.763233423233032227e+00,3.762512445449829102e+00,3.761791467666625977e+00,3.761070966720581055e+00,3.760350704193115234e+00,3.759630441665649414e+00,3.758910417556762695e+00,3.011738538742065430e+00,3.068245410919189453e+00,3.756752729415893555e+00,3.756033897399902344e+00,3.755315542221069336e+00,3.754597425460815430e+00,3.753879547119140625e+00,3.753161907196044922e+00,3.752444744110107422e+00,3.751727581024169922e+00,3.751010894775390625e+00,3.750294446945190430e+00,3.749578237533569336e+00,3.748861789703369141e+00,3.748146057128906250e+00,3.747430801391601562e+00,3.746715545654296875e+00,3.746000766754150391e+00,3.745286226272583008e+00,3.660489797592163086e+00,3.551228046417236328e+00,3.448300361633300781e+00,3.351171016693115234e+00,3.259363651275634766e+00,3.172451972961425781e+00,3.090055227279663086e+00,3.011830329895019531e+00,2.937468051910400391e+00,2.866689205169677734e+00,2.799241304397583008e+00,2.734893798828125000e+00,2.673438549041748047e+00,2.614684581756591797e+00,2.558457136154174805e+00,2.504597425460815430e+00,2.452958583831787109e+00,2.403405904769897461e+00,2.355815887451171875e+00,2.310073614120483398e+00,2.266073942184448242e+00,2.223719120025634766e+00,2.182918548583984375e+00,2.143588304519653320e+00,2.105649948120117188e+00,2.069031238555908203e+00,2.033664703369140625e+00,1.999486565589904785e+00,1.966438412666320801e+00,1.934464812278747559e+00,1.903514504432678223e+00,1.873538851737976074e+00,1.844492793083190918e+00
3.084369421005249023e+00,3.083884954452514648e+00,3.083400726318359375e+00,3.082916498184204102e+00,3.082432508468627930e+00,3.081948757171630859e+00,3.081465005874633789e+00,3.080981492996215820e+00,3.080497980117797852e+00,3.080014705657958984e+00,3.079531669616699219e+00,3.079048633575439453e+00,3.078565835952758789e+00,3.078083276748657227e+00,3.077600479125976562e+00,3.077118158340454102e+00,3.076636075973510742e+00,3.076153993606567383e+00,3.075672149658203125e+00,3.075190305709838867e+00,3.074708700180053711e+00,3.074227333068847656e+00,3.073745965957641602e+00,3.073264837265014648e+00,3.072783946990966797e+00,3.072303056716918945e+00,3.071822404861450195e+00,3.071341514587402344e+00,3.070861339569091797e+00,3.070380926132202148e+00,3.069900989532470703e+00,3.069421052932739258e+00,3.068941354751586914e+00,3.068461656570434570e+00,3.067982196807861328e+00,3.067502737045288086e+00,3.067023754119873047e+00,3.066544532775878906e+00,3.066065788269042969e+00,3.065587043762207031e+00,3.065108537673950195e+00,3.064629793167114258e+00,3.064151525497436523e+00,3.063673496246337891e+00,3.063195466995239258e+00,3.062717676162719727e+00,3.062239885330200195e+00,3.061762332916259766e+00,3.061285018920898438e+00,3.060807704925537109e+00,3.060330629348754883e+00,3.059853792190551758e+00,3.059376955032348633e+00,3.058900356292724609e+00,3.011883735656738281e+00,2.937518835067749023e+00,2.866737842559814453e+00,2.799287319183349609e+00,2.734937906265258789e+00,2.673480749130249023e+00,2.614724636077880859e+00,2.558495759963989258e+00,2.504634380340576172e+00,2.452993869781494141e+00,2.403439998626708984e+00,2.355848550796508789e+00,2.310105085372924805e+00,2.266104221343994141e+00,2.223748445510864258e+00,2.182946681976318359e+00,2.143615245819091797e+00,2.105676174163818359e+00,2.069056510925292969e+00,2.033689022064208984e+00,1.999510169029235840e+00,1.966461300849914551e+00,1.934486865997314453e+00,1.903535842895507812e+00,1.873559594154357910e+00,1.844512581825256348e+00
2.605717658996582031e+00,2.605371713638305664e+00,2.605026006698608398e+00,2.604680538177490234e+00,2.604335069656372070e+00,2.603989601135253906e+00,2.603644371032714844e+00,2.603299140930175781e+00,2.602953910827636719e+00,2.602608919143676758e+00,2.602263927459716797e+00,2.601919174194335938e+00,2.601574420928955078e+00,2.601229667663574219e+00,2.600884914398193359e+00,2.600540399551391602e+00,2.600195884704589844e+00,2.599851608276367188e+00,2.599507570266723633e+00,2.599163293838500977e+00,2.598819255828857422e+00,2.598475217819213867e+00,2.598131418228149414e+00,2.597787618637084961e+00,2.597444057464599609e+00,2.597100496292114258e+00,2.596756935119628906e+00,2.596413373947143555e+00,2.596070051193237305e+00,2.595726966857910156e+00,2.595383644104003906e+00,2.595040798187255859e+00,2.594697713851928711e+00,2.594354867935180664e+00,2.594012260437011719e+00,2.593669414520263672e+00,2.593326807022094727e+00,2.592984437942504883e+00,2.592642068862915039e+00,2.592299699783325195e+00,2.591957569122314453e+00,2.591615200042724609e+00,2.591273069381713867e+00,2.590931177139282227e+00,2.590589284896850586e+00,2.590247631072998047e+00,2.589905738830566406e+00,2.589564323425292969e+00,2.589222669601440430e+00,2.588881254196166992e+00,2.588540077209472656e+00,2.588198900222778320e+00,2.587857723236083984e+00,2.587516546249389648e+00,2.587175369262695312e+00,2.586834669113159180e+00,2.586493730545043945e+00,2.586153268814086914e+00,2.585812568664550781e+00,2.585472106933593750e+00,2.585131645202636719e+00,2.558534383773803711e+00,2.504671335220336914e+00,2.453029394149780273e+00,2.403474092483520508e+00,2.355881214141845703e+00,2.310136556625366211e+00,2.266134500503540039e+00,2.223777532577514648e+00,2.182974815368652344e+00,2.143642425537109375e+00,2.105702400207519531e+00,2.069081783294677734e+00,2.033713340759277344e+00,1.999533772468566895e+00,1.966484069824218750e+00,1.934509038925170898e+00,1.903557300567626953e+00,1.873580098152160645e+00,1.844532728195190430e+00
2.255672454833984375e+00,2.255413293838500977e+00,2.255153894424438477e+00,2.254894971847534180e+00,2.254635572433471680e+00,2.254376649856567383e+00,2.254117727279663086e+00,2.253858804702758789e+00,2.253599882125854492e+00,2.253341197967529297e+00,2.253082275390625000e+00,2.252823591232299805e+00,2.252564907073974609e+00,2.252306461334228516e+00,2.252048015594482422e+00,2.251789569854736328e+00,2.251531124114990234e+00,2.251272678375244141e+00,2.251014471054077148e+00,2.250756263732910156e+00,2.250498056411743164e+00,2.250239849090576172e+00,2.249981880187988281e+00,2.249723911285400391e+00,2.249466180801391602e+00,2.249208450317382812e+00,2.248950958251953125e+00,2.248693227767944336e+00,2.248435735702514648e+00,2.248178243637084961e+00,2.247920751571655273e+00,2.247663497924804688e+00,2.247406244277954102e+00,2.247148990631103516e+00,2.246891736984252930e+00,2.246634721755981445e+00,2.246377706527709961e+00,2.246120691299438477e+00,2.245863676071166992e+00,2.245606899261474609e+00,2.245350122451782227e+00,2.245093107223510742e+00,2.244836568832397461e+00,2.244579792022705078e+00,2.244323253631591797e+00,2.244066715240478516e+00,2.243810176849365234e+00,2.243553876876831055e+00,2.243297576904296875e+00,2.243041276931762695e+00,2.242784976959228516e+00,2.242528915405273438e+00,2.242272853851318359e+00,2.242016792297363281e+00,2.241760492324829102e+00,2.241504669189453125e+00,2.241248846054077148e+00,2.240993022918701172e+00,2.240737199783325195e+00,2.240481615066528320e+00,2.240225791931152344e+00,2.239970207214355469e+00,2.239714860916137695e+00,2.239459276199340820e+00,2.239203929901123047e+00,2.238948583602905273e+00,2.238693237304687500e+00,2.238437891006469727e+00,2.223806619644165039e+00,2.183002948760986328e+00,2.143669605255126953e+00,2.105728387832641602e+00,2.069107055664062500e+00,2.033737897872924805e+00,1.999557256698608398e+00,1.966506958007812500e+00,1.934531092643737793e+00,1.903578400611877441e+00,1.873600840568542480e+00,1.844552755355834961e+00
1.988544821739196777e+00,1.988343358039855957e+00,1.988141894340515137e+00,1.987940192222595215e+00,1.987738847732543945e+00,1.987537503242492676e+00,1.987336277961730957e+00,1.987134933471679688e+00,1.986933827400207520e+00,1.986732602119445801e+00,1.986531496047973633e+00,1.986330389976501465e+00,1.986129403114318848e+00,1.985928297042846680e+00,1.985727429389953613e+00,1.985526442527770996e+00,1.985325574874877930e+00,1.985124468803405762e+00,1.984923720359802246e+00,1.984722971916198730e+00,1.984522223472595215e+00,1.984321475028991699e+00,1.984120845794677734e+00,1.983920216560363770e+00,1.983719706535339355e+00,1.983519196510314941e+00,1.983318686485290527e+00,1.983118295669555664e+00,1.982917904853820801e+00,1.982717514038085938e+00,1.982517242431640625e+00,1.982316732406616211e+00,1.982116460800170898e+00,1.981916189193725586e+00,1.981716036796569824e+00,1.981516003608703613e+00,1.981315851211547852e+00,1.981115818023681641e+00,1.980915904045104980e+00,1.980715870857238770e+00,1.980515956878662109e+00,1.980316162109375000e+00,1.980116248130798340e+00,1.979916453361511230e+00,1.979716658592224121e+00,1.979516744613647461e+00,1.979317069053649902e+00,1.979117512702941895e+00,1.978917837142944336e+00,1.978718280792236328e+00,1.978518843650817871e+00,1.978319287300109863e+00,1.978119850158691406e+00,1.977920532226562500e+00,1.977721095085144043e+00,1.977521777153015137e+00,1.977322578430175781e+00,1.977123260498046875e+00,1.976924061775207520e+00,1.976724743843078613e+00,1.976525664329528809e+00,1.976326584815979004e+00,1.976127505302429199e+00,1.975928544998168945e+00,1.975729584693908691e+00,1.975530624389648438e+00,1.975331783294677734e+00,1.975132942199707031e+00,1.974934101104736328e+00,1.974735379219055176e+00,1.974536657333374023e+00,1.974338054656982422e+00,1.974139332771301270e+00,1.973940610885620117e+00,1.973742008209228516e+00,1.966529726982116699e+00,1.934552907943725586e+00,1.903599739074707031e+00,1.873621582984924316e+00,1.844572901725769043e+00
1.777986884117126465e+00,1.777825832366943359e+00,1.777664780616760254e+00,1.777503728866577148e+00,1.777342677116394043e+00,1.777181744575500488e+00,1.777020812034606934e+00,1.776859879493713379e+00,1.776699066162109375e+00,1.776538014411926270e+00,1.776377201080322266e+00,1.776216387748718262e+00,1.776055574417114258e+00,1.775894880294799805e+00,1.775734186172485352e+00,1.775573492050170898e+00,1.775412797927856445e+00,1.775252223014831543e+00,1.775091648101806641e+00,1.774931073188781738e+00,1.774770498275756836e+00,1.774610042572021484e+00,1.774449586868286133e+00,1.774288892745971680e+00,1.774128437042236328e+00,1.773968100547790527e+00,1.773807764053344727e+00,1.773647427558898926e+00,1.773487091064453125e+00,1.773326754570007324e+00,1.773166537284851074e+00,1.773006319999694824e+00,1.772846102714538574e+00,1.772686004638671875e+00,1.772525906562805176e+00,1.772365808486938477e+00,1.772205710411071777e+00,1.772045493125915527e+00,1.771885395050048828e+00,1.771725416183471680e+00,1.771565556526184082e+00,1.771405577659606934e+00,1.771245718002319336e+00,1.771085739135742188e+00,1.770925998687744141e+00,1.770766139030456543e+00,1.770606398582458496e+00,1.770446658134460449e+00,1.770286917686462402e+00,1.770127177238464355e+00,1.769967555999755859e+00,1.769807696342468262e+00,1.769648075103759766e+00,1.769488453865051270e+00,1.769328951835632324e+00,1.769169449806213379e+00,1.769009947776794434e+00,1.768850445747375488e+00,1.768690943717956543e+00,1.768531560897827148e+00,1.768372178077697754e+00,1.768212914466857910e+00,1.768053531646728516e+00,1.767894268035888672e+00,1.767735004425048828e+00,1.767575502395629883e+00,1.767416357994079590e+00,1.767257213592529297e+00,1.767098069190979004e+00,1.766938924789428711e+00,1.766779780387878418e+00,1.766620755195617676e+00,1.766461730003356934e+00,1.766302704811096191e+00,1.766143679618835449e+00,1.765984773635864258e+00,1.765825867652893066e+00,1.765666961669921875e+00,1.765508174896240234e+00,1.765349149703979492e+00
1.607749819755554199e+00,1.607617855072021484e+00,1.607486248016357422e+00,1.607354521751403809e+00,1.607222914695739746e+00,1.607091307640075684e+00,1.606959581375122070e+00,1.606828093528747559e+00,1.606696486473083496e+00,1.606564998626708984e+00,1.606433391571044922e+00,1.606301903724670410e+00,1.606170415878295898e+00,1.606038928031921387e+00,1.605907559394836426e+00,1.605775952339172363e+00,1.605644583702087402e+00,1.605513215065002441e+00,1.605381846427917480e+00,1.605250477790832520e+00,1.605119228363037109e+00,1.604987859725952148e+00,1.604856610298156738e+00,1.604725360870361328e+00,1.604594230651855469e+00,1.604462981224060059e+00,1.604331731796264648e+00,1.604200601577758789e+00,1.604069471359252930e+00,1.603938221931457520e+00,1.603807091712951660e+00,1.603676080703735352e+00,1.603544950485229492e+00,1.603413939476013184e+00,1.603282928466796875e+00,1.603151917457580566e+00,1.603021025657653809e+00,1.602890014648437500e+00,1.602759122848510742e+00,1.602628231048583984e+00,1.602497339248657227e+00,1.602366447448730469e+00,1.602235674858093262e+00,1.602104663848876953e+00,1.601973891258239746e+00,1.601843118667602539e+00,1.601712346076965332e+00,1.601581692695617676e+00,1.601450920104980469e+00,1.601320266723632812e+00,1.601189613342285156e+00,1.601058959960937500e+00,1.600928306579589844e+00,1.600797653198242188e+00,1.600667119026184082e+00,1.600536584854125977e+00,1.600406050682067871e+00,1.600275397300720215e+00,1.600144863128662109e+00,1.600014448165893555e+00,1.599883913993835449e+00,1.599753499031066895e+00,1.599623084068298340e+00,1.599492669105529785e+00,1.599362254142761230e+00,1.599231958389282227e+00,1.599101662635803223e+00,1.598971366882324219e+00,1.598841071128845215e+00,1.598710775375366211e+00,1.598580479621887207e+00,1.598450183868408203e+00,1.598320007324218750e+00,1.598189830780029297e+00,1.598059654235839844e+00,1.597929477691650391e+00,1.597799420356750488e+00,1.597669243812561035e+00,1.597539186477661133e+00,1.597409129142761230e+00
1.467263340950012207e+00,1.467153668403625488e+00,1.467043995857238770e+00,1.466934323310852051e+00,1.466824650764465332e+00,1.466714978218078613e+00,1.466605424880981445e+00,1.466495633125305176e+00,1.466386079788208008e+00,1.466276526451110840e+00,1.466166973114013672e+00,1.466057419776916504e+00,1.465947866439819336e+00,1.465838313102722168e+00,1.465728878974914551e+00,1.465619325637817383e+00,1.465509891510009766e+00,1.465400457382202148e+00,1.465291023254394531e+00,1.465181589126586914e+00,1.465072274208068848e+00,1.464962720870971680e+00,1.464853405952453613e+00,1.464743971824645996e+00,1.464634656906127930e+00,1.464525341987609863e+00,1.464416027069091797e+00,1.464306831359863281e+00,1.464197516441345215e+00,1.464088320732116699e+00,1.463979005813598633e+00,1.463869810104370117e+00,1.463760614395141602e+00,1.463651418685913086e+00,1.463542222976684570e+00,1.463433027267456055e+00,1.463323831558227539e+00,1.463214755058288574e+00,1.463105678558349609e+00,1.462996602058410645e+00,1.462887525558471680e+00,1.462778449058532715e+00,1.462669372558593750e+00,1.462560415267944336e+00,1.462451338768005371e+00,1.462342381477355957e+00,1.462233424186706543e+00,1.462124466896057129e+00,1.462015509605407715e+00,1.461906552314758301e+00,1.461797595024108887e+00,1.461688756942749023e+00,1.461579799652099609e+00,1.461470961570739746e+00,1.461362123489379883e+00,1.461253285408020020e+00,1.461144447326660156e+00,1.461035728454589844e+00,1.460926890373229980e+00,1.460818171501159668e+00,1.460709452629089355e+00,1.460600733757019043e+00,1.460492014884948730e+00,1.460383176803588867e+00,1.460274457931518555e+00,1.460165858268737793e+00,1.460057139396667480e+00,1.459948539733886719e+00,1.459839940071105957e+00,1.459731340408325195e+00,1.459622740745544434e+00,1.459514141082763672e+00,1.459405660629272461e+00,1.459297060966491699e+00,1.459188580513000488e+00,1.459080100059509277e+00,1.458971619606018066e+00,1.458863019943237305e+00,1.458754539489746094e+00,1.458646059036254883e+00
1.349355578422546387e+00,1.349262833595275879e+00,1.349170088768005371e+00,1.349077343940734863e+00,1.348984599113464355e+00,1.348891854286193848e+00,1.348799109458923340e+00,1.348706364631652832e+00,1.348613739013671875e+00,1.348520994186401367e+00,1.348428368568420410e+00,1.348335742950439453e+00,1.348243117332458496e+00,1.348150491714477539e+00,1.348057746887207031e+00,1.347965121269226074e+00,1.347872495651245117e+00,1.347779989242553711e+00,1.347687363624572754e+00,1.347594857215881348e+00,1.347502231597900391e+00,1.347409725189208984e+00,1.347317218780517578e+00,1.347224831581115723e+00,1.347132325172424316e+00,1.347039818763732910e+00,1.346947312355041504e+00,1.346854805946350098e+00,1.346762299537658691e+00,1.346669912338256836e+00,1.346577525138854980e+00,1.346485137939453125e+00,1.346392750740051270e+00,1.346300363540649414e+00,1.346207976341247559e+00,1.346115589141845703e+00,1.346023321151733398e+00,1.345930933952331543e+00,1.345838665962219238e+00,1.345746397972106934e+00,1.345654010772705078e+00,1.345561623573303223e+00,1.345469474792480469e+00,1.345377206802368164e+00,1.345284938812255859e+00,1.345192670822143555e+00,1.345100522041320801e+00,1.345008254051208496e+00,1.344916105270385742e+00,1.344823956489562988e+00,1.344731807708740234e+00,1.344639658927917480e+00,1.344547510147094727e+00,1.344455361366271973e+00,1.344363212585449219e+00,1.344271063804626465e+00,1.344178915023803711e+00,1.344086885452270508e+00,1.343994855880737305e+00,1.343902826309204102e+00,1.343810796737670898e+00,1.343718767166137695e+00,1.343626737594604492e+00,1.343534708023071289e+00,1.343442678451538086e+00,1.343350768089294434e+00,1.343258738517761230e+00,1.343166828155517578e+00,1.343074917793273926e+00,1.342982888221740723e+00,1.342890977859497070e+00,1.342799067497253418e+00,1.342707157135009766e+00,1.342615365982055664e+00,1.342523455619812012e+00,1.342431545257568359e+00,1.342339754104614258e+00,1.342247962951660156e+00,1.342156171798706055e+00,1.342064380645751953e+00
1.248988389968872070e+00,1.248908877372741699e+00,1.248829364776611328e+00,1.248749971389770508e+00,1.248670458793640137e+00,1.248590946197509766e+00,1.248511433601379395e+00,1.248432040214538574e+00,1.248352646827697754e+00,1.248273134231567383e+00,1.248193740844726562e+00,1.248114347457885742e+00,1.248034954071044922e+00,1.247955679893493652e+00,1.247876286506652832e+00,1.247796893119812012e+00,1.247717618942260742e+00,1.247638225555419922e+00,1.247558951377868652e+00,1.247479557991027832e+00,1.247400164604187012e+00,1.247320890426635742e+00,1.247241616249084473e+00,1.247162342071533203e+00,1.247083067893981934e+00,1.247003912925720215e+00,1.246924638748168945e+00,1.246845364570617676e+00,1.246766209602355957e+00,1.246686935424804688e+00,1.246607780456542969e+00,1.246528506278991699e+00,1.246449351310729980e+00,1.246370196342468262e+00,1.246290922164916992e+00,1.246211767196655273e+00,1.246132612228393555e+00,1.246053576469421387e+00,1.245974421501159668e+00,1.245895266532897949e+00,1.245816230773925781e+00,1.245737075805664062e+00,1.245658040046691895e+00,1.245578885078430176e+00,1.245499849319458008e+00,1.245420813560485840e+00,1.245341777801513672e+00,1.245262622833251953e+00,1.245183587074279785e+00,1.245104670524597168e+00,1.245025634765625000e+00,1.244946599006652832e+00,1.244867682456970215e+00,1.244788646697998047e+00,1.244709730148315430e+00,1.244630813598632812e+00,1.244551897048950195e+00,1.244472861289978027e+00,1.244393944740295410e+00,1.244315028190612793e+00,1.244236230850219727e+00,1.244157195091247559e+00,1.244078278541564941e+00,1.243999481201171875e+00,1.243920564651489258e+00,1.243841767311096191e+00,1.243762850761413574e+00,1.243684053421020508e+00,1.243605256080627441e+00,1.243526458740234375e+00,1.243447661399841309e+00,1.243368864059448242e+00,1.243290066719055176e+00,1.243211269378662109e+00,1.243132591247558594e+00,1.243053674697875977e+00,1.242974996566772461e+00,1.242896199226379395e+00,1.242817521095275879e+00,1.242738842964172363e+00
1.162518262863159180e+00,1.162449479103088379e+00,1.162380576133728027e+00,1.162311673164367676e+00,1.162242889404296875e+00,1.162173986434936523e+00,1.162105202674865723e+00,1.162036418914794922e+00,1.161967515945434570e+00,1.161898732185363770e+00,1.161829948425292969e+00,1.161761164665222168e+00,1.161692380905151367e+00,1.161623597145080566e+00,1.161554813385009766e+00,1.161486029624938965e+00,1.161417245864868164e+00,1.161348581314086914e+00,1.161279797554016113e+00,1.161211133003234863e+00,1.161142349243164062e+00,1.161073684692382812e+00,1.161005020141601562e+00,1.160936236381530762e+00,1.160867571830749512e+00,1.160798907279968262e+00,1.160730242729187012e+00,1.160661578178405762e+00,1.160592913627624512e+00,1.160524249076843262e+00,1.160455584526062012e+00,1.160387039184570312e+00,1.160318374633789062e+00,1.160249710083007812e+00,1.160181164741516113e+00,1.160112619400024414e+00,1.160043954849243164e+00,1.159975409507751465e+00,1.159906864166259766e+00,1.159838318824768066e+00,1.159769654273986816e+00,1.159701108932495117e+00,1.159632563591003418e+00,1.159564018249511719e+00,1.159495472908020020e+00,1.159427046775817871e+00,1.159358501434326172e+00,1.159289956092834473e+00,1.159221529960632324e+00,1.159152984619140625e+00,1.159084558486938477e+00,1.159016132354736328e+00,1.158947587013244629e+00,1.158879160881042480e+00,1.158810615539550781e+00,1.158742189407348633e+00,1.158673763275146484e+00,1.158605456352233887e+00,1.158537030220031738e+00,1.158468604087829590e+00,1.158400177955627441e+00,1.158331871032714844e+00,1.158263444900512695e+00,1.158195137977600098e+00,1.158126711845397949e+00,1.158058404922485352e+00,1.157990097999572754e+00,1.157921671867370605e+00,1.157853364944458008e+00,1.157785058021545410e+00,1.157716751098632812e+00,1.157648444175720215e+00,1.157580137252807617e+00,1.157511830329895020e+00,1.157443523406982422e+00,1.157375335693359375e+00,1.157307028770446777e+00,1.157238721847534180e+00,1.157170534133911133e+00,1.157102346420288086e+00
1.087246060371398926e+00,1.087185740470886230e+00,1.087125539779663086e+00,1.087065339088439941e+00,1.087005019187927246e+00,1.086944818496704102e+00,1.086884617805480957e+00,1.086824417114257812e+00,1.086764216423034668e+00,1.086704015731811523e+00,1.086643815040588379e+00,1.086583733558654785e+00,1.086523532867431641e+00,1.086463332176208496e+00,1.086403250694274902e+00,1.086343050003051758e+00,1.086282968521118164e+00,1.086222767829895020e+00,1.086162567138671875e+00,1.086102485656738281e+00,1.086042404174804688e+00,1.085982203483581543e+00,1.085922122001647949e+00,1.085862040519714355e+00,1.085801959037780762e+00,1.085741877555847168e+00,1.085681796073913574e+00,1.085621714591979980e+00,1.085561752319335938e+00,1.085501670837402344e+00,1.085441589355468750e+00,1.085381627082824707e+00,1.085321426391601562e+00,1.085261464118957520e+00,1.085201382637023926e+00,1.085141420364379883e+00,1.085081458091735840e+00,1.085021376609802246e+00,1.084961414337158203e+00,1.084901452064514160e+00,1.084841489791870117e+00,1.084781527519226074e+00,1.084721565246582031e+00,1.084661602973937988e+00,1.084601640701293945e+00,1.084541678428649902e+00,1.084481596946716309e+00,1.084421753883361816e+00,1.084361791610717773e+00,1.084301829338073730e+00,1.084241986274719238e+00,1.084182024002075195e+00,1.084122180938720703e+00,1.084062218666076660e+00,1.084002375602722168e+00,1.083942532539367676e+00,1.083882570266723633e+00,1.083822727203369141e+00,1.083762884140014648e+00,1.083703041076660156e+00,1.083643078804016113e+00,1.083583235740661621e+00,1.083523511886596680e+00,1.083463668823242188e+00,1.083403825759887695e+00,1.083343982696533203e+00,1.083284139633178711e+00,1.083224415779113770e+00,1.083164572715759277e+00,1.083104848861694336e+00,1.083045005798339844e+00,1.082985281944274902e+00,1.082925438880920410e+00,1.082865715026855469e+00,1.082805871963500977e+00,1.082746148109436035e+00,1.082686424255371094e+00,1.082626700401306152e+00,1.082566976547241211e+00,1.082507252693176270e+00
1.021128535270690918e+00,1.021075487136840820e+00,1.021022319793701172e+00,1.020969152450561523e+00,1.020916104316711426e+00,1.020862936973571777e+00,1.020809888839721680e+00,1.020756721496582031e+00,1.020703673362731934e+00,1.020650506019592285e+00,1.020597457885742188e+00,1.020544290542602539e+00,1.020491242408752441e+00,1.020438194274902344e+00,1.020385146141052246e+00,1.020332098007202148e+00,1.020279049873352051e+00,1.020226001739501953e+00,1.020172953605651855e+00,1.020119905471801758e+00,1.020066857337951660e+00,1.020013809204101562e+00,1.019960761070251465e+00,1.019907832145690918e+00,1.019854784011840820e+00,1.019801735877990723e+00,1.019748687744140625e+00,1.019695758819580078e+00,1.019642710685729980e+00,1.019589781761169434e+00,1.019536852836608887e+00,1.019483804702758789e+00,1.019430875778198242e+00,1.019377946853637695e+00,1.019324898719787598e+00,1.019271969795227051e+00,1.019219040870666504e+00,1.019166111946105957e+00,1.019113183021545410e+00,1.019060254096984863e+00,1.019007325172424316e+00,1.018954396247863770e+00,1.018901467323303223e+00,1.018848538398742676e+00,1.018795609474182129e+00,1.018742799758911133e+00,1.018689870834350586e+00,1.018637061119079590e+00,1.018584132194519043e+00,1.018531203269958496e+00,1.018478393554687500e+00,1.018425583839416504e+00,1.018372654914855957e+00,1.018319725990295410e+00,1.018266916275024414e+00,1.018214106559753418e+00,1.018161296844482422e+00,1.018108367919921875e+00,1.018055558204650879e+00,1.018002748489379883e+00,1.017949938774108887e+00,1.017897129058837891e+00,1.017844319343566895e+00,1.017791628837585449e+00,1.017738819122314453e+00,1.017686009407043457e+00,1.017633199691772461e+00,1.017580389976501465e+00,1.017527580261230469e+00,1.017474889755249023e+00,1.017422080039978027e+00,1.017369389533996582e+00,1.017316579818725586e+00,1.017263889312744141e+00,1.017211198806762695e+00,1.017158389091491699e+00,1.017105698585510254e+00,1.017053008079528809e+00,1.017000317573547363e+00,1.016947507858276367e+00
9.625916481018066406e-01,9.625445008277893066e-01,9.624972343444824219e-01,9.624499678611755371e-01,9.624028205871582031e-01,9.623555541038513184e-01,9.623084068298339844e-01,9.622611999511718750e-01,9.622140526771545410e-01,9.621667861938476562e-01,9.621196985244750977e-01,9.620724320411682129e-01,9.620253443717956543e-01,9.619781374931335449e-01,9.619310498237609863e-01,9.618838429450988770e-01,9.618366360664367676e-01,9.617895483970642090e-01,9.617423415184020996e-01,9.616952538490295410e-01,9.616481065750122070e-01,9.616010189056396484e-01,9.615538120269775391e-01,9.615067839622497559e-01,9.614596366882324219e-01,9.614125490188598633e-01,9.613654017448425293e-01,9.613183736801147461e-01,9.612712264060974121e-01,9.612241983413696289e-01,9.611770510673522949e-01,9.611299037933349609e-01,9.610828757286071777e-01,9.610357880592346191e-01,9.609887599945068359e-01,9.609416127204895020e-01,9.608946442604064941e-01,9.608474969863891602e-01,9.608005285263061523e-01,9.607534408569335938e-01,9.607064723968505859e-01,9.606593847274780273e-01,9.606124162673950195e-01,9.605653285980224609e-01,9.605182409286499023e-01,9.604712724685668945e-01,9.604241847991943359e-01,9.603772759437561035e-01,9.603301882743835449e-01,9.602832794189453125e-01,9.602361917495727539e-01,9.601892828941345215e-01,9.601422548294067383e-01,9.600953459739685059e-01,9.600483179092407227e-01,9.600013494491577148e-01,9.599543809890747070e-01,9.599074721336364746e-01,9.598604440689086914e-01,9.598134160041809082e-01,9.597665667533874512e-01,9.597195386886596680e-01,9.596726894378662109e-01,9.596256613731384277e-01,9.595788121223449707e-01,9.595318436622619629e-01,9.594849348068237305e-01,9.594379663467407227e-01,9.593911170959472656e-01,9.593441486358642578e-01,9.592973589897155762e-01,9.592503905296325684e-01,9.592034220695495605e-01,9.591565728187561035e-01,9.591096639633178711e-01,9.590628147125244141e-01,9.590159058570861816e-01,9.589691162109375000e-01,9.589222073554992676e-01,9.588753581047058105e-01
9.104022383689880371e-01,9.103599190711975098e-01,9.103177189826965332e-01,9.102754592895507812e-01,9.102332592010498047e-01,9.101909995079040527e-01,9.101488590240478516e-01,9.101065993309020996e-01,9.100643396377563477e-01,9.100221395492553711e-01,9.099799394607543945e-01,9.099377393722534180e-01,9.098955392837524414e-01,9.098533987998962402e-01,9.098111391067504883e-01,9.097689986228942871e-01,9.097267985343933105e-01,9.096846580505371094e-01,9.096424579620361328e-01,9.096003174781799316e-01,9.095581173896789551e-01,9.095159769058227539e-01,9.094737768173217773e-01,9.094315767288208008e-01,9.093894958496093750e-01,9.093472957611083984e-01,9.093052148818969727e-01,9.092630147933959961e-01,9.092209339141845703e-01,9.091787934303283691e-01,9.091367125511169434e-01,9.090945124626159668e-01,9.090524911880493164e-01,9.090102910995483398e-01,9.089682698249816895e-01,9.089260697364807129e-01,9.088839292526245117e-01,9.088419079780578613e-01,9.087997674942016602e-01,9.087577462196350098e-01,9.087156057357788086e-01,9.086735248565673828e-01,9.086314439773559570e-01,9.085894227027893066e-01,9.085472822189331055e-01,9.085052609443664551e-01,9.084631800651550293e-01,9.084211587905883789e-01,9.083790779113769531e-01,9.083370566368103027e-01,9.082949757575988770e-01,9.082528948783874512e-01,9.082108736038208008e-01,9.081687927246093750e-01,9.081268310546875000e-01,9.080847501754760742e-01,9.080427885055541992e-01,9.080007076263427734e-01,9.079587459564208984e-01,9.079166650772094727e-01,9.078747034072875977e-01,9.078326821327209473e-01,9.077907204627990723e-01,9.077486991882324219e-01,9.077066183090209961e-01,9.076647162437438965e-01,9.076226353645324707e-01,9.075807332992553711e-01,9.075387120246887207e-01,9.074968099594116211e-01,9.074547886848449707e-01,9.074128270149230957e-01,9.073708653450012207e-01,9.073289632797241211e-01,9.072869420051574707e-01,9.072450399398803711e-01,9.072030186653137207e-01,9.071611762046813965e-01,9.071191549301147461e-01,9.070771932601928711e-01
8.635808229446411133e-01,8.635428547859191895e-01,8.635047674179077148e-01,8.634668588638305664e-01,8.634288311004638672e-01,8.633908629417419434e-01,8.633528351783752441e-01,8.633148670196533203e-01,8.632768392562866211e-01,8.632389307022094727e-01,8.632009029388427734e-01,8.631629943847656250e-01,8.631249666213989258e-01,8.630870580673217773e-01,8.630490303039550781e-01,8.630110621452331543e-01,8.629731535911560059e-01,8.629351258277893066e-01,8.628972172737121582e-01,8.628592491149902344e-01,8.628213405609130859e-01,8.627833724021911621e-01,8.627454638481140137e-01,8.627074956893920898e-01,8.626696467399597168e-01,8.626316785812377930e-01,8.625937700271606445e-01,8.625558018684387207e-01,8.625178337097167969e-01,8.624799847602844238e-01,8.624420166015625000e-01,8.624041676521301270e-01,8.623661994934082031e-01,8.623283505439758301e-01,8.622904419898986816e-01,8.622525930404663086e-01,8.622146844863891602e-01,8.621768355369567871e-01,8.621388673782348633e-01,8.621010780334472656e-01,8.620631098747253418e-01,8.620253205299377441e-01,8.619874119758605957e-01,8.619495034217834473e-01,8.619116544723510742e-01,8.618737459182739258e-01,8.618359565734863281e-01,8.617980480194091797e-01,8.617602586746215820e-01,8.617223501205444336e-01,8.616845607757568359e-01,8.616467118263244629e-01,8.616089224815368652e-01,8.615710139274597168e-01,8.615332245826721191e-01,8.614953756332397461e-01,8.614575266838073730e-01,8.614197373390197754e-01,8.613818883895874023e-01,8.613440990447998047e-01,8.613062500953674316e-01,8.612685203552246094e-01,8.612306714057922363e-01,8.611928820610046387e-01,8.611550927162170410e-01,8.611173033714294434e-01,8.610795140266418457e-01,8.610417246818542480e-01,8.610039353370666504e-01,8.609662055969238281e-01,8.609283566474914551e-01,8.608905673027038574e-01,8.608528375625610352e-01,8.608150482177734375e-01,8.607773184776306152e-01,8.607394695281982422e-01,8.607017993927001953e-01,8.606640100479125977e-01,8.606262803077697754e-01,8.605884909629821777e-01
