5.000000000000000000e+00,5.000000000000000000e+00,5.000000000000000000e+00,5.000000000000000000e+00,5.000000000000000000e+00,5.000000000000000000e+00,5.000000000000000000e+00,5.000000000000000000e+00,5.000000000000000000e+00,5.000000000000000000e+00,5.000000000000000000e+00,5.000000000000000000e+00,5.000000000000000000e+00,5.000000000000000000e+00,5.000000000000000000e+00,5.000000000000000000e+00,5.000000000000000000e+00,5.000000000000000000e+00,5.000000000000000000e+00,5.000000000000000000e+00,5.000000000000000000e+00,5.000000000000000000e+00,5.000000000000000000e+00,5.000000000000000000e+00,5.000000000000000000e+00,5.000000000000000000e+00,5.000000000000000000e+00,5.000000000000000000e+00,5.000000000000000000e+00,5.000000000000000000e+00,5.000000000000000000e+00,5.000000000000000000e+00,5.000000000000000000e+00,5.000000000000000000e+00,5.000000000000000000e+00,1.717679619789123535e+00,1.700689077377319336e+00,1.702554345130920410e+00,1.652630567550659180e+00,1.616128563880920410e+00,1.603770017623901367e+00,1.600307583808898926e+00,1.604493141174316406e+00,1.607696652412414551e+00,1.617465853691101074e+00,1.633307695388793945e+00,1.660667777061462402e+00,3.664528608322143555e+00,1.738029479980468750e+00,1.721485972404479980e+00,1.729205846786499023e+00,3.262398719787597656e+00,3.175287961959838867e+00,3.092708349227905273e+00,3.014314889907836914e+00,2.939797639846801758e+00,2.868875503540039062e+00,2.801295042037963867e+00,2.736825227737426758e+00,2.675256013870239258e+00,2.616395950317382812e+00,2.560070037841796875e+00,2.506118535995483398e+00,2.454393863677978516e+00,2.404761314392089844e+00,2.357096195220947266e+00,2.311283826828002930e+00,2.267218351364135742e+00,2.224801778793334961e+00,2.183943271636962891e+00,2.144558191299438477e+00,2.106568574905395508e+00,2.069901466369628906e+00,2.034488916397094727e+00,2.000267744064331055e+00,1.967178821563720703e+00,1.935166954994201660e+00,1.904180049896240234e+00,1.874169826507568359e+00,1.845090866088867188e+00
5.000000000000000000e+00,5.000000000000000000e+00,5.000000000000000000e+00,5.000000000000000000e+00,5.000000000000000000e+00,5.000000000000000000e+00,5.000000000000000000e+00,5.000000000000000000e+00,5.000000000000000000e+00,5.000000000000000000e+00,5.000000000000000000e+00,5.000000000000000000e+00,5.000000000000000000e+00,5.000000000000000000e+00,5.000000000000000000e+00,5.000000000000000000e+00,5.000000000000000000e+00,5.000000000000000000e+00,5.000000000000000000e+00,5.000000000000000000e+00,5.000000000000000000e+00,5.000000000000000000e+00,5.000000000000000000e+00,5.000000000000000000e+00,5.000000000000000000e+00,5.000000000000000000e+00,5.000000000000000000e+00,5.000000000000000000e+00,5.000000000000000000e+00,5.000000000000000000e+00,5.000000000000000000e+00,5.000000000000000000e+00,5.000000000000000000e+00,5.000000000000000000e+00,5.000000000000000000e+00,1.726314425468444824e+00,1.705033183097839355e+00,1.708634257316589355e+00,1.639315962791442871e+00,1.606063723564147949e+00,1.595693707466125488e+00,1.592195630073547363e+00,1.596969008445739746e+00,1.611561059951782227e+00,1.614041924476623535e+00,1.627203226089477539e+00,1.662149786949157715e+00,3.664607763290405273e+00,1.747279882431030273e+00,1.728772640228271484e+00,1.730255842208862305e+00,1.757318854331970215e+00,3.175347328186035156e+00,3.092764616012573242e+00,3.014368295669555664e+00,2.939848661422729492e+00,2.868924140930175781e+00,2.801341295242309570e+00,2.736869096755981445e+00,2.675298213958740234e+00,2.616436243057250977e+00,2.560108900070190430e+00,2.506155490875244141e+00,2.454429388046264648e+00,2.404795408248901367e+00,2.357128858566284180e+00,2.311315298080444336e+00,2.267248630523681641e+00,2.224830865859985352e+00,2.183971405029296875e+00,2.144585371017456055e+00,2.106594800949096680e+00,2.069926500320434570e+00,2.034513473510742188e+00,2.000291347503662109e+00,1.967201709747314453e+00,1.935188770294189453e+00,1.904201269149780273e+00,1.874190568923950195e+00,1.845110893249511719e+00
5.000000000000000000e+00,5.000000000000000000e+00,5.000000000000000000e+00,5.000000000000000000e+00,5.000000000000000000e+00,5.000000000000000000e+00,5.000000000000000000e+00,5.000000000000000000e+00,5.000000000000000000e+00,5.000000000000000000e+00,5.000000000000000000e+00,5.000000000000000000e+00,5.000000000000000000e+00,5.000000000000000000e+00,5.000000000000000000e+00,5.000000000000000000e+00,5.000000000000000000e+00,5.000000000000000000e+00,5.000000000000000000e+00,5.000000000000000000e+00,5.000000000000000000e+00,5.000000000000000000e+00,5.000000000000000000e+00,5.000000000000000000e+00,5.000000000000000000e+00,5.000000000000000000e+00,5.000000000000000000e+00,5.000000000000000000e+00,5.000000000000000000e+00,5.000000000000000000e+00,5.000000000000000000e+00,5.000000000000000000e+00,5.000000000000000000e+00,5.000000000000000000e+00,5.000000000000000000e+00,1.737265706062316895e+00,1.712908148765563965e+00,1.684090018272399902e+00,1.632083058357238770e+00,1.604084253311157227e+00,1.592172622680664062e+00,1.589884757995605469e+00,1.592636823654174805e+00,1.604351043701171875e+00,1.608119249343872070e+00,1.621583104133605957e+00,1.649449944496154785e+00,3.664687156677246094e+00,1.756542921066284180e+00,1.738686203956604004e+00,1.737221240997314453e+00,1.756521463394165039e+00,3.175406932830810547e+00,3.092820882797241211e+00,3.014421939849853516e+00,2.939899444580078125e+00,2.868972539901733398e+00,2.801387548446655273e+00,2.736913442611694336e+00,2.675340175628662109e+00,2.616476535797119141e+00,2.560147523880004883e+00,2.506192684173583984e+00,2.454464912414550781e+00,2.404829263687133789e+00,2.357161521911621094e+00,2.311346769332885742e+00,2.267278909683227539e+00,2.224860191345214844e+00,2.183999300003051758e+00,2.144612312316894531e+00,2.106621026992797852e+00,2.069951772689819336e+00,2.034537792205810547e+00,2.000314950942993164e+00,1.967224478721618652e+00,1.935210943222045898e+00,1.904222607612609863e+00,1.874211072921752930e+00,1.845131039619445801e+00
5.000000000000000000e+00,5.000000000000000000e+00,5.000000000000000000e+00,5.000000000000000000e+00,5.000000000000000000e+00,5.000000000000000000e+00,5.000000000000000000e+00,5.000000000000000000e+00,5.000000000000000000e+00,5.000000000000000000e+00,5.000000000000000000e+00,5.000000000000000000e+00,5.000000000000000000e+00,5.000000000000000000e+00,5.000000000000000000e+00,5.000000000000000000e+00,5.000000000000000000e+00,5.000000000000000000e+00,5.000000000000000000e+00,5.000000000000000000e+00,5.000000000000000000e+00,5.000000000000000000e+00,5.000000000000000000e+00,5.000000000000000000e+00,5.000000000000000000e+00,5.000000000000000000e+00,5.000000000000000000e+00,5.000000000000000000e+00,5.000000000000000000e+00,5.000000000000000000e+00,5.000000000000000000e+00,5.000000000000000000e+00,5.000000000000000000e+00,5.000000000000000000e+00,5.000000000000000000e+00,1.748412966728210449e+00,1.724250674247741699e+00,1.669834494590759277e+00,1.632270216941833496e+00,1.602542638778686523e+00,1.603551626205444336e+00,1.600226044654846191e+00,1.590627908706665039e+00,1.596717476844787598e+00,1.605693221092224121e+00,1.617163658142089844e+00,1.640415191650390625e+00,3.664765834808349609e+00,1.782544255256652832e+00,1.740904211997985840e+00,1.717158079147338867e+00,1.709231972694396973e+00,3.175466060638427734e+00,3.092877149581909180e+00,3.014475584030151367e+00,2.939950466156005859e+00,2.869021177291870117e+00,2.801433563232421875e+00,2.736957550048828125e+00,2.675382375717163086e+00,2.616516828536987305e+00,2.560185909271240234e+00,2.506229400634765625e+00,2.454500436782836914e+00,2.404863357543945312e+00,2.357194423675537109e+00,2.311378240585327148e+00,2.267309188842773438e+00,2.224889278411865234e+00,2.184027433395385742e+00,2.144639492034912109e+00,2.106647014617919922e+00,2.069977045059204102e+00,2.034562110900878906e+00,2.000338554382324219e+00,1.967247366905212402e+00,1.935232996940612793e+00,1.904244065284729004e+00,1.874231815338134766e+00,1.845150947570800781e+00
5.000000000000000000e+00,5.000000000000000000e+00,5.000000000000000000e+00,5.000000000000000000e+00,5.000000000000000000e+00,5.000000000000000000e+00,5.000000000000000000e+00,5.000000000000000000e+00,5.000000000000000000e+00,5.000000000000000000e+00,5.000000000000000000e+00,5.000000000000000000e+00,5.000000000000000000e+00,5.000000000000000000e+00,5.000000000000000000e+00,5.000000000000000000e+00,5.000000000000000000e+00,5.000000000000000000e+00,5.000000000000000000e+00,5.000000000000000000e+00,5.000000000000000000e+00,5.000000000000000000e+00,5.000000000000000000e+00,5.000000000000000000e+00,5.000000000000000000e+00,5.000000000000000000e+00,5.000000000000000000e+00,5.000000000000000000e+00,5.000000000000000000e+00,5.000000000000000000e+00,5.000000000000000000e+00,5.000000000000000000e+00,5.000000000000000000e+00,5.000000000000000000e+00,5.000000000000000000e+00,1.758994579315185547e+00,1.735744476318359375e+00,1.670408606529235840e+00,1.635340452194213867e+00,1.617907285690307617e+00,1.607096195220947266e+00,1.601200461387634277e+00,1.603022694587707520e+00,1.604154348373413086e+00,1.616383790969848633e+00,1.630890488624572754e+00,1.667344570159912109e+00,3.664845228195190430e+00,1.791397452354431152e+00,1.724503874778747559e+00,1.696368694305419922e+00,1.687954664230346680e+00,1.720406770706176758e+00,3.092933654785156250e+00,3.014528989791870117e+00,2.940001010894775391e+00,2.869069576263427734e+00,2.801480054855346680e+00,2.737001419067382812e+00,2.675424575805664062e+00,2.616557359695434570e+00,2.560224533081054688e+00,2.506266593933105469e+00,2.454535722732543945e+00,2.404897451400756836e+00,2.357227087020874023e+00,2.311409711837768555e+00,2.267339468002319336e+00,2.224918365478515625e+00,2.184055566787719727e+00,2.144666671752929688e+00,2.106673240661621094e+00,2.070002317428588867e+00,2.034586429595947266e+00,2.000362157821655273e+00,1.967270135879516602e+00,1.935255050659179688e+00,1.904265403747558594e+00,1.874252557754516602e+00,1.845170974731445312e+00
5.000000000000000000e+00,5.000000000000000000e+00,5.000000000000000000e+00,5.000000000000000000e+00,5.000000000000000000e+00,5.000000000000000000e+00,5.000000000000000000e+00,5.000000000000000000e+00,5.000000000000000000e+00,5.000000000000000000e+00,5.000000000000000000e+00,5.000000000000000000e+00,5.000000000000000000e+00,5.000000000000000000e+00,5.000000000000000000e+00,5.000000000000000000e+00,5.000000000000000000e+00,5.000000000000000000e+00,5.000000000000000000e+00,5.000000000000000000e+00,5.000000000000000000e+00,5.000000000000000000e+00,5.000000000000000000e+00,5.000000000000000000e+00,5.000000000000000000e+00,5.000000000000000000e+00,5.000000000000000000e+00,5.000000000000000000e+00,5.000000000000000000e+00,5.000000000000000000e+00,5.000000000000000000e+00,5.000000000000000000e+00,5.000000000000000000e+00,5.000000000000000000e+00,5.000000000000000000e+00,1.765336513519287109e+00,1.737278699874877930e+00,1.683115482330322266e+00,1.635249614715576172e+00,1.623566627502441406e+00,1.611567854881286621e+00,1.609938383102416992e+00,1.607188701629638672e+00,1.605957150459289551e+00,1.620074748992919922e+00,1.635113477706909180e+00,1.658866524696350098e+00,3.664923906326293945e+00,3.555352449417114258e+00,1.723876595497131348e+00,1.689060688018798828e+00,1.664707779884338379e+00,1.657414078712463379e+00,3.092989921569824219e+00,3.014582633972167969e+00,2.940052032470703125e+00,2.869117975234985352e+00,2.801526308059692383e+00,2.737045764923095703e+00,2.675466775894165039e+00,2.616597414016723633e+00,2.560263156890869141e+00,2.506303548812866211e+00,2.454571247100830078e+00,2.404931545257568359e+00,2.357259750366210938e+00,2.311441183090209961e+00,2.267369747161865234e+00,2.224947452545166016e+00,2.184083700180053711e+00,2.144693613052368164e+00,2.106699466705322266e+00,2.070027589797973633e+00,2.034610986709594727e+00,2.000385761260986328e+00,1.967292785644531250e+00,1.935277223587036133e+00,1.904286861419677734e+00,1.874273180961608887e+00,1.845191121101379395e+00
5.000000000000000000e+00,5.000000000000000000e+00,5.000000000000000000e+00,5.000000000000000000e+00,5.000000000000000000e+00,5.000000000000000000e+00,5.000000000000000000e+00,5.000000000000000000e+00,5.000000000000000000e+00,5.000000000000000000e+00,5.000000000000000000e+00,5.000000000000000000e+00,5.000000000000000000e+00,5.000000000000000000e+00,5.000000000000000000e+00,5.000000000000000000e+00,5.000000000000000000e+00,5.000000000000000000e+00,5.000000000000000000e+00,5.000000000000000000e+00,5.000000000000000000e+00,5.000000000000000000e+00,5.000000000000000000e+00,5.000000000000000000e+00,5.000000000000000000e+00,5.000000000000000000e+00,5.000000000000000000e+00,5.000000000000000000e+00,5.000000000000000000e+00,5.000000000000000000e+00,5.000000000000000000e+00,5.000000000000000000e+00,5.000000000000000000e+00,5.000000000000000000e+00,5.000000000000000000e+00,1.752192497253417969e+00,1.727313041687011719e+00,1.680650353431701660e+00,1.624561429023742676e+00,1.614720821380615234e+00,1.604653596878051758e+00,1.620116591453552246e+00,1.620272755622863770e+00,1.613814353942871094e+00,1.627975344657897949e+00,1.639465808868408203e+00,1.661448597908020020e+00,3.665003299713134766e+00,3.555426597595214844e+00,3.452212095260620117e+00,1.688571691513061523e+00,1.652594804763793945e+00,1.629819393157958984e+00,1.666595935821533203e+00,3.014635801315307617e+00,2.940103054046630859e+00,2.869166612625122070e+00,2.801572322845458984e+00,2.737089633941650391e+00,2.675508975982666016e+00,2.616637945175170898e+00,2.560301780700683594e+00,2.506340503692626953e+00,2.454606771469116211e+00,2.404965639114379883e+00,2.357292652130126953e+00,2.311472654342651367e+00,2.267400026321411133e+00,2.224976778030395508e+00,2.184111833572387695e+00,2.144720792770385742e+00,2.106725454330444336e+00,2.070052623748779297e+00,2.034635305404663086e+00,2.000409364700317383e+00,1.967315554618835449e+00,1.935299038887023926e+00,1.904307961463928223e+00,1.874293923377990723e+00,1.845211148262023926e+00
5.000000000000000000e+00,5.000000000000000000e+00,5.000000000000000000e+00,5.000000000000000000e+00,5.000000000000000000e+00,5.000000000000000000e+00,5.000000000000000000e+00,5.000000000000000000e+00,5.000000000000000000e+00,5.000000000000000000e+00,5.000000000000000000e+00,5.000000000000000000e+00,5.000000000000000000e+00,5.000000000000000000e+00,5.000000000000000000e+00,5.000000000000000000e+00,5.000000000000000000e+00,5.000000000000000000e+00,5.000000000000000000e+00,5.000000000000000000e+00,5.000000000000000000e+00,5.000000000000000000e+00,5.000000000000000000e+00,5.000000000000000000e+00,5.000000000000000000e+00,5.000000000000000000e+00,5.000000000000000000e+00,5.000000000000000000e+00,5.000000000000000000e+00,5.000000000000000000e+00,5.000000000000000000e+00,5.000000000000000000e+00,5.000000000000000000e+00,5.000000000000000000e+00,5.000000000000000000e+00,1.737961649894714355e+00,1.720674395561218262e+00,1.670225381851196289e+00,1.583007216453552246e+00,1.570145010948181152e+00,1.558633685111999512e+00,1.581109881401062012e+00,1.635004639625549316e+00,1.624393820762634277e+00,1.645714759826660156e+00,1.651135802268981934e+00,1.663745403289794922e+00,1.695264935493469238e+00,3.555501222610473633e+00,3.452282428741455078e+00,1.719700217247009277e+00,1.655972361564636230e+00,1.635256171226501465e+00,1.633161067962646484e+00,3.014689445495605469e+00,2.940153837203979492e+00,2.869215011596679688e+00,2.801618576049804688e+00,2.737133979797363281e+00,2.675550937652587891e+00,2.616677999496459961e+00,2.560340404510498047e+00,2.506377458572387695e+00,2.454642295837402344e+00,2.404999494552612305e+00,2.357325315475463867e+00,2.311504125595092773e+00,2.267430305480957031e+00,2.225005865097045898e+00,2.184139728546142578e+00,2.144747972488403320e+00,2.106751680374145508e+00,2.070077896118164062e+00,2.034659624099731445e+00,2.000432729721069336e+00,1.967338442802429199e+00,1.935321211814880371e+00,1.904329419136047363e+00,1.874314427375793457e+00,1.845231294631958008e+00
5.000000000000000000e+00,5.000000000000000000e+00,5.000000000000000000e+00,5.000000000000000000e+00,5.000000000000000000e+00,5.000000000000000000e+00,5.000000000000000000e+00,5.000000000000000000e+00,5.000000000000000000e+00,5.000000000000000000e+00,5.000000000000000000e+00,5.000000000000000000e+00,5.000000000000000000e+00,5.000000000000000000e+00,5.000000000000000000e+00,5.000000000000000000e+00,5.000000000000000000e+00,5.000000000000000000e+00,5.000000000000000000e+00,5.000000000000000000e+00,5.000000000000000000e+00,5.000000000000000000e+00,5.000000000000000000e+00,5.000000000000000000e+00,5.000000000000000000e+00,5.000000000000000000e+00,5.000000000000000000e+00,5.000000000000000000e+00,5.000000000000000000e+00,5.000000000000000000e+00,5.000000000000000000e+00,5.000000000000000000e+00,5.000000000000000000e+00,5.000000000000000000e+00,5.000000000000000000e+00,1.733902454376220703e+00,1.715285301208496094e+00,1.646322011947631836e+00,1.565915107727050781e+00,1.554919242858886719e+00,1.544076561927795410e+00,1.537850737571716309e+00,1.570620417594909668e+00,1.653623223304748535e+00,1.663844943046569824e+00,1.659434914588928223e+00,1.667919158935546875e+00,1.696859121322631836e+00,3.555575609207153320e+00,3.452352762222290039e+00,3.354954004287719727e+00,3.262900114059448242e+00,1.580941438674926758e+00,1.580548524856567383e+00,3.014743089675903320e+00,2.940204858779907227e+00,2.869263410568237305e+00,2.801664829254150391e+00,2.737178087234497070e+00,2.675593137741088867e+00,2.616718530654907227e+00,2.560379028320312500e+00,2.506414413452148438e+00,2.454677820205688477e+00,2.405033826828002930e+00,2.357357978820800781e+00,2.311535596847534180e+00,2.267460584640502930e+00,2.225034952163696289e+00,2.184167861938476562e+00,2.144774913787841797e+00,2.106777667999267578e+00,2.070103406906127930e+00,2.034684181213378906e+00,2.000456333160400391e+00,1.967361330986022949e+00,1.935343265533447266e+00,1.904350757598876953e+00,1.874335169792175293e+00,1.845251202583312988e+00
5.000000000000000000e+00,5.000000000000000000e+00,5.000000000000000000e+00,5.000000000000000000e+00,5.000000000000000000e+00,5.000000000000000000e+00,5.000000000000000000e+00,5.000000000000000000e+00,5.000000000000000000e+00,5.000000000000000000e+00,5.000000000000000000e+00,5.000000000000000000e+00,5.000000000000000000e+00,5.000000000000000000e+00,5.000000000000000000e+00,5.000000000000000000e+00,5.000000000000000000e+00,5.000000000000000000e+00,5.000000000000000000e+00,5.000000000000000000e+00,5.000000000000000000e+00,5.000000000000000000e+00,5.000000000000000000e+00,5.000000000000000000e+00,5.000000000000000000e+00,5.000000000000000000e+00,5.000000000000000000e+00,5.000000000000000000e+00,5.000000000000000000e+00,5.000000000000000000e+00,5.000000000000000000e+00,5.000000000000000000e+00,5.000000000000000000e+00,5.000000000000000000e+00,5.000000000000000000e+00,1.730815649032592773e+00,1.709379315376281738e+00,1.621927976608276367e+00,1.552714943885803223e+00,1.542393445968627930e+00,1.532208323478698730e+00,1.522156596183776855e+00,1.549991607666015625e+00,1.679842591285705566e+00,1.667314291000366211e+00,1.661371946334838867e+00,1.672922968864440918e+00,1.698935508728027344e+00,3.555650234222412109e+00,3.452422857284545898e+00,3.355020046234130859e+00,3.262963056564331055e+00,1.563796639442443848e+00,1.580034255981445312e+00,1.548051834106445312e+00,2.940255641937255859e+00,2.869312047958374023e+00,2.801711082458496094e+00,2.737222194671630859e+00,2.675635337829589844e+00,2.616758823394775391e+00,2.560417652130126953e+00,2.506451368331909180e+00,2.454713106155395508e+00,2.405067682266235352e+00,2.357390880584716797e+00,2.311567068099975586e+00,2.267490863800048828e+00,2.225064039230346680e+00,2.184195995330810547e+00,2.144802093505859375e+00,2.106803894042968750e+00,2.070128440856933594e+00,2.034708261489868164e+00,2.000479936599731445e+00,1.967384099960327148e+00,1.935365438461303711e+00,1.904372215270996094e+00,1.874355912208557129e+00,1.845271229743957520e+00
5.000000000000000000e+00,5.000000000000000000e+00,4.495539665222167969e+00,5.000000000000000000e+00,5.000000000000000000e+00,5.000000000000000000e+00,5.000000000000000000e+00,5.000000000000000000e+00,5.000000000000000000e+00,5.000000000000000000e+00,5.000000000000000000e+00,5.000000000000000000e+00,5.000000000000000000e+00,5.000000000000000000e+00,5.000000000000000000e+00,5.000000000000000000e+00,5.000000000000000000e+00,5.000000000000000000e+00,5.000000000000000000e+00,5.000000000000000000e+00,5.000000000000000000e+00,5.000000000000000000e+00,5.000000000000000000e+00,5.000000000000000000e+00,5.000000000000000000e+00,5.000000000000000000e+00,5.000000000000000000e+00,5.000000000000000000e+00,5.000000000000000000e+00,5.000000000000000000e+00,5.000000000000000000e+00,5.000000000000000000e+00,5.000000000000000000e+00,5.000000000000000000e+00,5.000000000000000000e+00,1.717924475669860840e+00,1.698507428169250488e+00,1.620248794555664062e+00,1.543323516845703125e+00,1.531788229942321777e+00,1.521742105484008789e+00,1.511826872825622559e+00,1.535797953605651855e+00,1.675450563430786133e+00,1.668365836143493652e+00,1.662048578262329102e+00,1.677860856056213379e+00,1.700110197067260742e+00,3.555724620819091797e+00,3.452493190765380859e+00,3.355086565017700195e+00,3.263025522232055664e+00,3.175881624221801758e+00,3.093271732330322266e+00,1.537545323371887207e+00,1.559748888015747070e+00,2.869360446929931641e+00,2.801757335662841797e+00,2.737266302108764648e+00,2.675677537918090820e+00,2.616799116134643555e+00,2.560456037521362305e+00,2.506488561630249023e+00,2.454748868942260742e+00,2.405101776123046875e+00,2.357423305511474609e+00,2.311598539352416992e+00,2.267521142959594727e+00,2.225093364715576172e+00,2.184224128723144531e+00,2.144829034805297852e+00,2.106830120086669922e+00,2.070153713226318359e+00,2.034732818603515625e+00,2.000503540039062500e+00,1.967406749725341797e+00,1.935387492179870605e+00,1.904393553733825684e+00,1.874376654624938965e+00,1.845291376113891602e+00
5.000000000000000000e+00,5.000000000000000000e+00,4.444506645202636719e+00,4.501631736755371094e+00,5.000000000000000000e+00,5.000000000000000000e+00,5.000000000000000000e+00,5.000000000000000000e+00,5.000000000000000000e+00,5.000000000000000000e+00,5.000000000000000000e+00,5.000000000000000000e+00,5.000000000000000000e+00,5.000000000000000000e+00,5.000000000000000000e+00,5.000000000000000000e+00,5.000000000000000000e+00,5.000000000000000000e+00,5.000000000000000000e+00,5.000000000000000000e+00,5.000000000000000000e+00,5.000000000000000000e+00,5.000000000000000000e+00,5.000000000000000000e+00,5.000000000000000000e+00,5.000000000000000000e+00,5.000000000000000000e+00,5.000000000000000000e+00,5.000000000000000000e+00,5.000000000000000000e+00,5.000000000000000000e+00,5.000000000000000000e+00,5.000000000000000000e+00,5.000000000000000000e+00,5.000000000000000000e+00,1.709466576576232910e+00,1.697167396545410156e+00,1.655070900917053223e+00,1.549306154251098633e+00,1.522781610488891602e+00,1.511487483978271484e+00,1.501636385917663574e+00,1.521994113922119141e+00,1.547156214714050293e+00,1.670368075370788574e+00,1.662548899650573730e+00,1.679329872131347656e+00,1.704610705375671387e+00,3.555799007415771484e+00,3.452563047409057617e+00,3.355152845382690430e+00,3.263088464736938477e+00,3.175941228866577148e+00,3.093327999114990234e+00,3.014903545379638672e+00,1.539049267768859863e+00,2.869408845901489258e+00,2.801803588867187500e+00,2.737310409545898438e+00,2.675719738006591797e+00,2.616839408874511719e+00,2.560494899749755859e+00,2.506525516510009766e+00,2.454784154891967773e+00,2.405135869979858398e+00,2.357456207275390625e+00,2.311630010604858398e+00,2.267551422119140625e+00,2.225122451782226562e+00,2.184252262115478516e+00,2.144856214523315430e+00,2.106856107711791992e+00,2.070178985595703125e+00,2.034757137298583984e+00,2.000527143478393555e+00,1.967429518699645996e+00,1.935409426689147949e+00,1.904415011405944824e+00,1.874397397041320801e+00,1.845311403274536133e+00
5.000000000000000000e+00,5.000000000000000000e+00,4.458519458770751953e+00,4.508350849151611328e+00,5.000000000000000000e+00,5.000000000000000000e+00,5.000000000000000000e+00,5.000000000000000000e+00,5.000000000000000000e+00,5.000000000000000000e+00,5.000000000000000000e+00,5.000000000000000000e+00,5.000000000000000000e+00,5.000000000000000000e+00,5.000000000000000000e+00,5.000000000000000000e+00,5.000000000000000000e+00,5.000000000000000000e+00,5.000000000000000000e+00,5.000000000000000000e+00,5.000000000000000000e+00,5.000000000000000000e+00,5.000000000000000000e+00,5.000000000000000000e+00,5.000000000000000000e+00,5.000000000000000000e+00,5.000000000000000000e+00,5.000000000000000000e+00,5.000000000000000000e+00,5.000000000000000000e+00,5.000000000000000000e+00,5.000000000000000000e+00,5.000000000000000000e+00,5.000000000000000000e+00,5.000000000000000000e+00,1.721110105514526367e+00,1.708724856376647949e+00,5.000000000000000000e+00,1.556989550590515137e+00,1.513943195343017578e+00,1.502779364585876465e+00,1.491778850555419922e+00,1.506444334983825684e+00,1.530959725379943848e+00,1.674679994583129883e+00,1.666954994201660156e+00,1.688507676124572754e+00,1.714931368827819824e+00,3.555873632431030273e+00,3.452633380889892578e+00,3.355219125747680664e+00,3.263150930404663086e+00,3.176000833511352539e+00,3.093384265899658203e+00,3.014957189559936523e+00,1.598079562187194824e+00,2.869457483291625977e+00,2.801849842071533203e+00,2.737354516983032227e+00,2.675761699676513672e+00,2.616879701614379883e+00,2.560533523559570312e+00,2.506562471389770508e+00,2.454819679260253906e+00,2.405169963836669922e+00,2.357489109039306641e+00,2.311661481857299805e+00,2.267581701278686523e+00,2.225151538848876953e+00,2.184280157089233398e+00,2.144883394241333008e+00,2.106882333755493164e+00,2.070204257965087891e+00,2.034781455993652344e+00,2.000550508499145508e+00,1.967452406883239746e+00,1.935431480407714844e+00,1.904436230659484863e+00,1.874417901039123535e+00,1.845331549644470215e+00
5.000000000000000000e+00,4.495154857635498047e+00,4.531644821166992188e+00,4.567254066467285156e+00,5.000000000000000000e+00,5.000000000000000000e+00,5.000000000000000000e+00,5.000000000000000000e+00,5.000000000000000000e+00,5.000000000000000000e+00,5.000000000000000000e+00,5.000000000000000000e+00,5.000000000000000000e+00,5.000000000000000000e+00,5.000000000000000000e+00,5.000000000000000000e+00,5.000000000000000000e+00,5.000000000000000000e+00,5.000000000000000000e+00,5.000000000000000000e+00,5.000000000000000000e+00,5.000000000000000000e+00,5.000000000000000000e+00,5.000000000000000000e+00,5.000000000000000000e+00,5.000000000000000000e+00,5.000000000000000000e+00,5.000000000000000000e+00,5.000000000000000000e+00,5.000000000000000000e+00,5.000000000000000000e+00,5.000000000000000000e+00,5.000000000000000000e+00,5.000000000000000000e+00,5.000000000000000000e+00,1.705854535102844238e+00,1.687879204750061035e+00,5.000000000000000000e+00,1.564031839370727539e+00,1.503632545471191406e+00,1.491643786430358887e+00,1.479903459548950195e+00,1.491242885589599609e+00,1.515125274658203125e+00,1.681203603744506836e+00,1.672801733016967773e+00,1.699251651763916016e+00,1.726600289344787598e+00,3.555947780609130859e+00,3.452703714370727539e+00,3.355285406112670898e+00,3.263213634490966797e+00,3.176059961318969727e+00,3.093440532684326172e+00,3.015010833740234375e+00,2.940459489822387695e+00,2.869505882263183594e+00,2.801895856857299805e+00,2.737398624420166016e+00,2.675804138183593750e+00,2.616920232772827148e+00,2.560571908950805664e+00,2.506599426269531250e+00,2.454855203628540039e+00,2.405204057693481445e+00,2.357521533966064453e+00,2.311692953109741211e+00,2.267611980438232422e+00,2.225180864334106445e+00,2.184308528900146484e+00,2.144910335540771484e+00,2.106908321380615234e+00,2.070229530334472656e+00,2.034806013107299805e+00,2.000574111938476562e+00,1.967475295066833496e+00,1.935453534126281738e+00,1.904457569122314453e+00,1.874438643455505371e+00,1.845351457595825195e+00
4.427776336669921875e+00,4.440216064453125000e+00,4.465806484222412109e+00,4.503057003021240234e+00,4.544159889221191406e+00,4.594876289367675781e+00,5.000000000000000000e+00,5.000000000000000000e+00,5.000000000000000000e+00,5.000000000000000000e+00,5.000000000000000000e+00,5.000000000000000000e+00,5.000000000000000000e+00,5.000000000000000000e+00,5.000000000000000000e+00,5.000000000000000000e+00,5.000000000000000000e+00,5.000000000000000000e+00,5.000000000000000000e+00,5.000000000000000000e+00,5.000000000000000000e+00,5.000000000000000000e+00,5.000000000000000000e+00,5.000000000000000000e+00,5.000000000000000000e+00,5.000000000000000000e+00,5.000000000000000000e+00,5.000000000000000000e+00,5.000000000000000000e+00,5.000000000000000000e+00,5.000000000000000000e+00,5.000000000000000000e+00,5.000000000000000000e+00,5.000000000000000000e+00,5.000000000000000000e+00,1.685530900955200195e+00,1.684549927711486816e+00,1.677781462669372559e+00,1.583280324935913086e+00,1.506152033805847168e+00,1.478971362113952637e+00,1.467428803443908691e+00,1.476473927497863770e+00,1.498693585395812988e+00,1.690357923507690430e+00,1.685385823249816895e+00,1.712238192558288574e+00,3.665636301040649414e+00,3.556022405624389648e+00,3.452773809432983398e+00,3.355351686477661133e+00,3.263276576995849609e+00,3.176119565963745117e+00,3.093497037887573242e+00,3.015064239501953125e+00,2.940510511398315430e+00,2.869554519653320312e+00,2.801942110061645508e+00,2.737442731857299805e+00,2.675846099853515625e+00,2.616960525512695312e+00,2.560610771179199219e+00,2.506636381149291992e+00,2.454890727996826172e+00,2.405238151550292969e+00,2.357554435729980469e+00,2.311724424362182617e+00,2.267642259597778320e+00,2.225209951400756836e+00,2.184336662292480469e+00,2.144937515258789062e+00,2.106934547424316406e+00,2.070254564285278320e+00,2.034830331802368164e+00,2.000597715377807617e+00,1.967498064041137695e+00,1.935475707054138184e+00,1.904479026794433594e+00,1.874459385871887207e+00,1.845371484756469727e+00
4.423810958862304688e+00,4.410664558410644531e+00,4.435036659240722656e+00,4.467725276947021484e+00,4.518710136413574219e+00,4.610822200775146484e+00,4.654596805572509766e+00,5.000000000000000000e+00,5.000000000000000000e+00,5.000000000000000000e+00,5.000000000000000000e+00,5.000000000000000000e+00,5.000000000000000000e+00,5.000000000000000000e+00,5.000000000000000000e+00,5.000000000000000000e+00,5.000000000000000000e+00,5.000000000000000000e+00,5.000000000000000000e+00,5.000000000000000000e+00,5.000000000000000000e+00,5.000000000000000000e+00,5.000000000000000000e+00,5.000000000000000000e+00,5.000000000000000000e+00,5.000000000000000000e+00,5.000000000000000000e+00,5.000000000000000000e+00,5.000000000000000000e+00,5.000000000000000000e+00,5.000000000000000000e+00,5.000000000000000000e+00,5.000000000000000000e+00,5.000000000000000000e+00,5.000000000000000000e+00,1.680209875106811523e+00,5.000000000000000000e+00,1.672562599182128906e+00,1.609765172004699707e+00,1.514859914779663086e+00,1.471316933631896973e+00,1.455162763595581055e+00,1.461994767189025879e+00,1.480937957763671875e+00,1.699835896492004395e+00,1.698160529136657715e+00,1.726166844367980957e+00,3.665715217590332031e+00,3.556097030639648438e+00,3.452844142913818359e+00,3.355417966842651367e+00,3.263339042663574219e+00,3.176178693771362305e+00,3.093553543090820312e+00,3.015117883682250977e+00,2.940561294555664062e+00,2.869602918624877930e+00,2.801988601684570312e+00,2.737486839294433594e+00,2.675888299942016602e+00,2.617000818252563477e+00,2.560649156570434570e+00,2.506673574447631836e+00,2.454926252365112305e+00,2.405272245407104492e+00,2.357587099075317383e+00,2.311755895614624023e+00,2.267672538757324219e+00,2.225239038467407227e+00,2.184364557266235352e+00,2.144964456558227539e+00,2.106960773468017578e+00,2.070279836654663086e+00,2.034854650497436523e+00,2.000621318817138672e+00,1.967520952224731445e+00,1.935497760772705078e+00,1.904500365257263184e+00,1.874480128288269043e+00,1.845391631126403809e+00
4.463192462921142578e+00,4.418232917785644531e+00,4.426463603973388672e+00,4.463526248931884766e+00,4.532060623168945312e+00,4.619105339050292969e+00,4.655647277832031250e+00,5.000000000000000000e+00,5.000000000000000000e+00,5.000000000000000000e+00,5.000000000000000000e+00,5.000000000000000000e+00,5.000000000000000000e+00,5.000000000000000000e+00,5.000000000000000000e+00,5.000000000000000000e+00,5.000000000000000000e+00,5.000000000000000000e+00,5.000000000000000000e+00,5.000000000000000000e+00,5.000000000000000000e+00,5.000000000000000000e+00,5.000000000000000000e+00,5.000000000000000000e+00,5.000000000000000000e+00,5.000000000000000000e+00,5.000000000000000000e+00,5.000000000000000000e+00,5.000000000000000000e+00,5.000000000000000000e+00,5.000000000000000000e+00,5.000000000000000000e+00,5.000000000000000000e+00,5.000000000000000000e+00,5.000000000000000000e+00,1.668905258178710938e+00,5.000000000000000000e+00,5.000000000000000000e+00,5.000000000000000000e+00,1.523489594459533691e+00,1.465349316596984863e+00,1.446126580238342285e+00,1.446074724197387695e+00,1.463598251342773438e+00,1.709358930587768555e+00,1.711130499839782715e+00,1.742226958274841309e+00,3.665794372558593750e+00,3.556171178817749023e+00,3.452914237976074219e+00,3.355484485626220703e+00,3.263401985168457031e+00,3.176238298416137695e+00,3.093609571456909180e+00,3.015171527862548828e+00,2.940612316131591797e+00,2.869651317596435547e+00,2.802034616470336914e+00,2.737530946731567383e+00,2.675930500030517578e+00,2.617041110992431641e+00,2.560687780380249023e+00,2.506710529327392578e+00,2.454961776733398438e+00,2.405306339263916016e+00,2.357619762420654297e+00,2.311787366867065430e+00,2.267702817916870117e+00,2.225268363952636719e+00,2.184392690658569336e+00,2.144991636276245117e+00,2.106986761093139648e+00,2.070305109024047852e+00,2.034879207611083984e+00,2.000644922256469727e+00,1.967543601989746094e+00,1.935519695281982422e+00,1.904521822929382324e+00,1.874500870704650879e+00,1.845411777496337891e+00
4.465350627899169922e+00,4.413481712341308594e+00,4.428944110870361328e+00,4.465544223785400391e+00,4.527892589569091797e+00,4.631990432739257812e+00,4.655821800231933594e+00,5.000000000000000000e+00,5.000000000000000000e+00,5.000000000000000000e+00,5.000000000000000000e+00,5.000000000000000000e+00,5.000000000000000000e+00,5.000000000000000000e+00,5.000000000000000000e+00,5.000000000000000000e+00,5.000000000000000000e+00,5.000000000000000000e+00,5.000000000000000000e+00,5.000000000000000000e+00,5.000000000000000000e+00,5.000000000000000000e+00,5.000000000000000000e+00,5.000000000000000000e+00,5.000000000000000000e+00,5.000000000000000000e+00,5.000000000000000000e+00,5.000000000000000000e+00,5.000000000000000000e+00,5.000000000000000000e+00,5.000000000000000000e+00,5.000000000000000000e+00,5.000000000000000000e+00,5.000000000000000000e+00,5.000000000000000000e+00,1.660323858261108398e+00,5.000000000000000000e+00,5.000000000000000000e+00,5.000000000000000000e+00,1.544400334358215332e+00,1.463655710220336914e+00,1.439207196235656738e+00,1.434635281562805176e+00,1.449865698814392090e+00,1.717605113983154297e+00,1.725733757019042969e+00,1.757920384407043457e+00,3.665873765945434570e+00,3.556246042251586914e+00,3.452984571456909180e+00,3.355550527572631836e+00,3.263464450836181641e+00,3.176297903060913086e+00,3.093666076660156250e+00,3.015224695205688477e+00,2.940663099288940430e+00,2.869699954986572266e+00,2.802080869674682617e+00,2.737575054168701172e+00,2.675972700119018555e+00,2.617081403732299805e+00,2.560726642608642578e+00,2.506747484207153320e+00,2.454997062683105469e+00,2.405340194702148438e+00,2.357652664184570312e+00,2.311818838119506836e+00,2.267733097076416016e+00,2.225297451019287109e+00,2.184420824050903320e+00,2.145018815994262695e+00,2.107012987136840820e+00,2.070330381393432617e+00,2.034903526306152344e+00,2.000668525695800781e+00,1.967566370964050293e+00,1.935541749000549316e+00,1.904542922973632812e+00,1.874521374702453613e+00,1.845431804656982422e+00
4.448586463928222656e+00,4.396388530731201172e+00,4.420135974884033203e+00,4.458592891693115234e+00,4.522001743316650391e+00,5.000000000000000000e+00,4.655550956726074219e+00,5.000000000000000000e+00,5.000000000000000000e+00,5.000000000000000000e+00,5.000000000000000000e+00,5.000000000000000000e+00,5.000000000000000000e+00,5.000000000000000000e+00,5.000000000000000000e+00,5.000000000000000000e+00,5.000000000000000000e+00,5.000000000000000000e+00,5.000000000000000000e+00,5.000000000000000000e+00,5.000000000000000000e+00,5.000000000000000000e+00,5.000000000000000000e+00,5.000000000000000000e+00,5.000000000000000000e+00,5.000000000000000000e+00,5.000000000000000000e+00,5.000000000000000000e+00,5.000000000000000000e+00,5.000000000000000000e+00,5.000000000000000000e+00,5.000000000000000000e+00,5.000000000000000000e+00,5.000000000000000000e+00,5.000000000000000000e+00,5.000000000000000000e+00,5.000000000000000000e+00,5.000000000000000000e+00,5.000000000000000000e+00,1.556102871894836426e+00,1.475155234336853027e+00,1.437531828880310059e+00,1.429909586906433105e+00,1.442594647407531738e+00,1.519304156303405762e+00,1.736698508262634277e+00,3.782559633255004883e+00,3.665952682495117188e+00,3.556320190429687500e+00,3.453054904937744141e+00,3.355617046356201172e+00,3.263527154922485352e+00,3.176357030868530273e+00,3.093722581863403320e+00,3.015278339385986328e+00,2.940714120864868164e+00,2.869748353958129883e+00,2.802127122879028320e+00,2.737619400024414062e+00,2.676014900207519531e+00,2.617121696472167969e+00,2.560765027999877930e+00,2.506784677505493164e+00,2.455032825469970703e+00,2.405374526977539062e+00,2.357685327529907227e+00,2.311850309371948242e+00,2.267763614654541016e+00,2.225326538085937500e+00,2.184448957443237305e+00,2.145045757293701172e+00,2.107038974761962891e+00,2.070355653762817383e+00,2.034927845001220703e+00,2.000692129135131836e+00,1.967589259147644043e+00,1.935563921928405762e+00,1.904564380645751953e+00,1.874542117118835449e+00,1.845451712608337402e+00
4.431994438171386719e+00,4.408476829528808594e+00,4.427439212799072266e+00,4.469073295593261719e+00,4.531910896301269531e+00,5.000000000000000000e+00,4.620248794555664062e+00,5.000000000000000000e+00,5.000000000000000000e+00,5.000000000000000000e+00,5.000000000000000000e+00,5.000000000000000000e+00,5.000000000000000000e+00,5.000000000000000000e+00,5.000000000000000000e+00,5.000000000000000000e+00,5.000000000000000000e+00,5.000000000000000000e+00,5.000000000000000000e+00,5.000000000000000000e+00,5.000000000000000000e+00,5.000000000000000000e+00,5.000000000000000000e+00,5.000000000000000000e+00,5.000000000000000000e+00,5.000000000000000000e+00,5.000000000000000000e+00,5.000000000000000000e+00,5.000000000000000000e+00,5.000000000000000000e+00,5.000000000000000000e+00,5.000000000000000000e+00,5.000000000000000000e+00,5.000000000000000000e+00,5.000000000000000000e+00,5.000000000000000000e+00,5.000000000000000000e+00,5.000000000000000000e+00,5.000000000000000000e+00,4.866146564483642578e+00,1.482957959175109863e+00,1.440264463424682617e+00,1.432514667510986328e+00,1.445861697196960449e+00,1.508432745933532715e+00,1.747407555580139160e+00,3.782644033432006836e+00,3.666032075881958008e+00,3.556394815444946289e+00,3.453124761581420898e+00,3.355683088302612305e+00,3.263590097427368164e+00,3.176416635513305664e+00,3.093778848648071289e+00,3.015331745147705078e+00,2.940765142440795898e+00,2.869796991348266602e+00,2.802173376083374023e+00,2.737663507461547852e+00,2.676056861877441406e+00,2.617162227630615234e+00,2.560803651809692383e+00,2.506821393966674805e+00,2.455068111419677734e+00,2.405408620834350586e+00,2.357717990875244141e+00,2.311881780624389648e+00,2.267793655395507812e+00,2.225355625152587891e+00,2.184477090835571289e+00,2.145072937011718750e+00,2.107065200805664062e+00,2.070380926132202148e+00,2.034952402114868164e+00,2.000715732574462891e+00,1.967612028121948242e+00,1.935585975646972656e+00,1.904585838317871094e+00,1.874562859535217285e+00,1.845471858978271484e+00
4.386435508728027344e+00,4.379940986633300781e+00,4.448938846588134766e+00,4.492954730987548828e+00,4.526819229125976562e+00,5.000000000000000000e+00,4.581010818481445312e+00,5.000000000000000000e+00,5.000000000000000000e+00,5.000000000000000000e+00,5.000000000000000000e+00,5.000000000000000000e+00,5.000000000000000000e+00,5.000000000000000000e+00,5.000000000000000000e+00,5.000000000000000000e+00,5.000000000000000000e+00,5.000000000000000000e+00,5.000000000000000000e+00,5.000000000000000000e+00,5.000000000000000000e+00,5.000000000000000000e+00,5.000000000000000000e+00,5.000000000000000000e+00,5.000000000000000000e+00,5.000000000000000000e+00,5.000000000000000000e+00,5.000000000000000000e+00,5.000000000000000000e+00,5.000000000000000000e+00,5.000000000000000000e+00,5.000000000000000000e+00,5.000000000000000000e+00,5.000000000000000000e+00,5.000000000000000000e+00,5.000000000000000000e+00,5.000000000000000000e+00,5.000000000000000000e+00,5.000000000000000000e+00,4.866286277770996094e+00,1.476995587348937988e+00,1.448724746704101562e+00,1.437766432762145996e+00,1.451212048530578613e+00,1.745868444442749023e+00,1.760143280029296875e+00,3.782728195190429688e+00,3.666110992431640625e+00,3.556469440460205078e+00,3.453195095062255859e+00,3.355749607086181641e+00,3.263652563095092773e+00,3.176476001739501953e+00,3.093835353851318359e+00,3.015385389328002930e+00,2.940815925598144531e+00,2.869845390319824219e+00,2.802219867706298828e+00,2.737707614898681641e+00,2.676099061965942383e+00,2.617202520370483398e+00,2.560842275619506836e+00,2.506858587265014648e+00,2.455103635787963867e+00,2.405442476272583008e+00,2.357750654220581055e+00,2.311913251876831055e+00,2.267823934555053711e+00,2.225384950637817383e+00,2.184504985809326172e+00,2.145099878311157227e+00,2.107091426849365234e+00,2.070406198501586914e+00,2.034976720809936523e+00,2.000739097595214844e+00,1.967634916305541992e+00,1.935608148574829102e+00,1.904607176780700684e+00,1.874583601951599121e+00,1.845491886138916016e+00
4.355811595916748047e+00,4.361414909362792969e+00,4.412312030792236328e+00,4.476765632629394531e+00,4.509436130523681641e+00,5.000000000000000000e+00,4.549528598785400391e+00,5.000000000000000000e+00,5.000000000000000000e+00,5.000000000000000000e+00,5.000000000000000000e+00,5.000000000000000000e+00,5.000000000000000000e+00,5.000000000000000000e+00,5.000000000000000000e+00,5.000000000000000000e+00,5.000000000000000000e+00,5.000000000000000000e+00,5.000000000000000000e+00,5.000000000000000000e+00,5.000000000000000000e+00,5.000000000000000000e+00,5.000000000000000000e+00,5.000000000000000000e+00,5.000000000000000000e+00,5.000000000000000000e+00,5.000000000000000000e+00,5.000000000000000000e+00,5.000000000000000000e+00,5.000000000000000000e+00,5.000000000000000000e+00,5.000000000000000000e+00,5.000000000000000000e+00,5.000000000000000000e+00,5.000000000000000000e+00,5.000000000000000000e+00,5.000000000000000000e+00,5.000000000000000000e+00,5.000000000000000000e+00,4.866425514221191406e+00,1.474158644676208496e+00,1.455751061439514160e+00,1.443057060241699219e+00,1.458712935447692871e+00,1.753949522972106934e+00,1.786153078079223633e+00,3.782812595367431641e+00,3.666190147399902344e+00,3.556543588638305664e+00,3.453265190124511719e+00,3.355816125869750977e+00,3.263715505599975586e+00,3.176535367965698242e+00,3.093891382217407227e+00,3.015439033508300781e+00,2.940866947174072266e+00,2.869893789291381836e+00,2.802265882492065430e+00,2.737751722335815430e+00,2.676141500473022461e+00,2.617242813110351562e+00,2.560880899429321289e+00,2.506895542144775391e+00,2.455139160156250000e+00,2.405476570129394531e+00,2.357783555984497070e+00,2.311944723129272461e+00,2.267854213714599609e+00,2.225414037704467773e+00,2.184533357620239258e+00,2.145127058029174805e+00,2.107117414474487305e+00,2.070431470870971680e+00,2.035001039505004883e+00,2.000762701034545898e+00,1.967657566070556641e+00,1.935629963874816895e+00,1.904628634452819824e+00,1.874604344367980957e+00,1.845512032508850098e+00
4.438758850097656250e+00,4.351898193359375000e+00,4.398363590240478516e+00,4.479081153869628906e+00,4.509365081787109375e+00,5.000000000000000000e+00,5.000000000000000000e+00,5.000000000000000000e+00,5.000000000000000000e+00,5.000000000000000000e+00,5.000000000000000000e+00,5.000000000000000000e+00,5.000000000000000000e+00,5.000000000000000000e+00,5.000000000000000000e+00,5.000000000000000000e+00,5.000000000000000000e+00,5.000000000000000000e+00,5.000000000000000000e+00,5.000000000000000000e+00,5.000000000000000000e+00,5.000000000000000000e+00,5.000000000000000000e+00,5.000000000000000000e+00,5.000000000000000000e+00,5.000000000000000000e+00,5.000000000000000000e+00,5.000000000000000000e+00,5.000000000000000000e+00,5.000000000000000000e+00,5.000000000000000000e+00,5.000000000000000000e+00,5.000000000000000000e+00,5.000000000000000000e+00,5.000000000000000000e+00,5.000000000000000000e+00,5.000000000000000000e+00,5.000000000000000000e+00,5.000000000000000000e+00,4.866564750671386719e+00,1.477359175682067871e+00,1.459431767463684082e+00,1.448386549949645996e+00,1.469568848609924316e+00,1.765205383300781250e+00,3.907187700271606445e+00,3.782896518707275391e+00,3.666269540786743164e+00,3.556618452072143555e+00,3.453335523605346680e+00,3.355882167816162109e+00,3.263778448104858398e+00,3.176594972610473633e+00,3.093947887420654297e+00,3.015492439270019531e+00,2.940917730331420898e+00,2.869942426681518555e+00,2.802312135696411133e+00,2.737795829772949219e+00,2.676183462142944336e+00,2.617283105850219727e+00,2.560919761657714844e+00,2.506932497024536133e+00,2.455174684524536133e+00,2.405510663986206055e+00,2.357816219329833984e+00,2.311976194381713867e+00,2.267884492874145508e+00,2.225443124771118164e+00,2.184561252593994141e+00,2.145154237747192383e+00,2.107143640518188477e+00,2.070456504821777344e+00,2.035025358200073242e+00,2.000786304473876953e+00,1.967680335044860840e+00,1.935652136802673340e+00,1.904649734497070312e+00,1.874624848365783691e+00,1.845532059669494629e+00
5.000000000000000000e+00,4.339785575866699219e+00,4.383159637451171875e+00,4.481841564178466797e+00,4.512916564941406250e+00,5.000000000000000000e+00,5.000000000000000000e+00,5.000000000000000000e+00,5.000000000000000000e+00,5.000000000000000000e+00,5.000000000000000000e+00,5.000000000000000000e+00,5.000000000000000000e+00,5.000000000000000000e+00,5.000000000000000000e+00,5.000000000000000000e+00,5.000000000000000000e+00,5.000000000000000000e+00,5.000000000000000000e+00,5.000000000000000000e+00,5.000000000000000000e+00,5.000000000000000000e+00,5.000000000000000000e+00,5.000000000000000000e+00,5.000000000000000000e+00,5.000000000000000000e+00,5.000000000000000000e+00,5.000000000000000000e+00,5.000000000000000000e+00,5.000000000000000000e+00,5.000000000000000000e+00,5.000000000000000000e+00,5.000000000000000000e+00,5.000000000000000000e+00,5.000000000000000000e+00,5.000000000000000000e+00,5.000000000000000000e+00,5.000000000000000000e+00,5.000000000000000000e+00,4.866704463958740234e+00,1.480573534965515137e+00,1.463131308555603027e+00,1.453755617141723633e+00,1.480587244033813477e+00,1.785678982734680176e+00,3.907277822494506836e+00,3.782980918884277344e+00,3.666348457336425781e+00,3.556692600250244141e+00,3.453405857086181641e+00,3.355948686599731445e+00,3.263840913772583008e+00,3.176654100418090820e+00,3.094004392623901367e+00,3.015546083450317383e+00,2.940968751907348633e+00,2.869990825653076172e+00,2.802358388900756836e+00,2.737840175628662109e+00,2.676225662231445312e+00,2.617323398590087891e+00,2.560958147048950195e+00,2.506969690322875977e+00,2.455210208892822266e+00,2.405544757843017578e+00,2.357848882675170898e+00,2.312007665634155273e+00,2.267915010452270508e+00,2.225472450256347656e+00,2.184589385986328125e+00,2.145181179046630859e+00,2.107169866561889648e+00,2.070482015609741211e+00,2.035049915313720703e+00,2.000809907913208008e+00,1.967703223228454590e+00,1.935674190521240234e+00,1.904671192169189453e+00,1.874645590782165527e+00,1.845551967620849609e+00
5.000000000000000000e+00,4.331034183502197266e+00,4.364025592803955078e+00,4.483981132507324219e+00,4.511572360992431641e+00,5.000000000000000000e+00,5.000000000000000000e+00,5.000000000000000000e+00,5.000000000000000000e+00,5.000000000000000000e+00,5.000000000000000000e+00,5.000000000000000000e+00,5.000000000000000000e+00,5.000000000000000000e+00,5.000000000000000000e+00,5.000000000000000000e+00,5.000000000000000000e+00,5.000000000000000000e+00,5.000000000000000000e+00,5.000000000000000000e+00,5.000000000000000000e+00,5.000000000000000000e+00,5.000000000000000000e+00,5.000000000000000000e+00,5.000000000000000000e+00,5.000000000000000000e+00,5.000000000000000000e+00,5.000000000000000000e+00,5.000000000000000000e+00,5.000000000000000000e+00,5.000000000000000000e+00,5.000000000000000000e+00,5.000000000000000000e+00,5.000000000000000000e+00,5.000000000000000000e+00,5.000000000000000000e+00,5.000000000000000000e+00,5.000000000000000000e+00,5.000000000000000000e+00,4.866844177246093750e+00,1.483484148979187012e+00,1.462980508804321289e+00,1.452200293540954590e+00,1.477943658828735352e+00,1.865678906440734863e+00,3.907367467880249023e+00,3.783065319061279297e+00,3.666427850723266602e+00,3.556767225265502930e+00,3.453475952148437500e+00,3.356014966964721680e+00,3.263903856277465820e+00,3.176713705062866211e+00,3.094060659408569336e+00,3.015599489212036133e+00,2.941019773483276367e+00,2.870039463043212891e+00,2.802404642105102539e+00,2.737884044647216797e+00,2.676267862319946289e+00,2.617363929748535156e+00,2.560996770858764648e+00,2.507006645202636719e+00,2.455245494842529297e+00,2.405578851699829102e+00,2.357881784439086914e+00,2.312039136886596680e+00,2.267945051193237305e+00,2.225501537322998047e+00,2.184617519378662109e+00,2.145208358764648438e+00,2.107195854187011719e+00,2.070507049560546875e+00,2.035074234008789062e+00,2.000833511352539062e+00,1.967726111412048340e+00,1.935696363449096680e+00,1.904692649841308594e+00,1.874666333198547363e+00,1.845572113990783691e+00
5.000000000000000000e+00,4.349659442901611328e+00,4.371343612670898438e+00,4.489456176757812500e+00,4.515618324279785156e+00,5.000000000000000000e+00,5.000000000000000000e+00,5.000000000000000000e+00,5.000000000000000000e+00,5.000000000000000000e+00,5.000000000000000000e+00,5.000000000000000000e+00,5.000000000000000000e+00,5.000000000000000000e+00,5.000000000000000000e+00,5.000000000000000000e+00,5.000000000000000000e+00,5.000000000000000000e+00,5.000000000000000000e+00,5.000000000000000000e+00,5.000000000000000000e+00,5.000000000000000000e+00,5.000000000000000000e+00,5.000000000000000000e+00,5.000000000000000000e+00,5.000000000000000000e+00,5.000000000000000000e+00,5.000000000000000000e+00,5.000000000000000000e+00,5.000000000000000000e+00,5.000000000000000000e+00,5.000000000000000000e+00,5.000000000000000000e+00,5.000000000000000000e+00,5.000000000000000000e+00,5.000000000000000000e+00,5.000000000000000000e+00,5.000000000000000000e+00,5.000000000000000000e+00,4.866982936859130859e+00,1.485782146453857422e+00,1.460384607315063477e+00,1.449642419815063477e+00,1.472965121269226074e+00,4.040212154388427734e+00,3.907457590103149414e+00,3.783149480819702148e+00,3.666506767272949219e+00,3.556841850280761719e+00,3.453546285629272461e+00,3.356081247329711914e+00,3.263966321945190430e+00,3.176773309707641602e+00,3.094117164611816406e+00,3.015653133392333984e+00,2.941070556640625000e+00,2.870087862014770508e+00,2.802450895309448242e+00,2.737928390502929688e+00,2.676310062408447266e+00,2.617404222488403320e+00,2.561035633087158203e+00,2.507043600082397461e+00,2.455281257629394531e+00,2.405612945556640625e+00,2.357914447784423828e+00,2.312070608139038086e+00,2.267975568771362305e+00,2.225530862808227539e+00,2.184645652770996094e+00,2.145235538482666016e+00,2.107222080230712891e+00,2.070532321929931641e+00,2.035098552703857422e+00,2.000857114791870117e+00,1.967748880386352539e+00,1.935718417167663574e+00,1.904713988304138184e+00,1.874687075614929199e+00,1.845592260360717773e+00
5.000000000000000000e+00,4.374294757843017578e+00,4.403963088989257812e+00,4.579935550689697266e+00,4.599662303924560547e+00,5.000000000000000000e+00,5.000000000000000000e+00,5.000000000000000000e+00,5.000000000000000000e+00,5.000000000000000000e+00,5.000000000000000000e+00,5.000000000000000000e+00,5.000000000000000000e+00,5.000000000000000000e+00,5.000000000000000000e+00,5.000000000000000000e+00,5.000000000000000000e+00,5.000000000000000000e+00,5.000000000000000000e+00,5.000000000000000000e+00,5.000000000000000000e+00,5.000000000000000000e+00,5.000000000000000000e+00,5.000000000000000000e+00,5.000000000000000000e+00,5.000000000000000000e+00,5.000000000000000000e+00,5.000000000000000000e+00,5.000000000000000000e+00,5.000000000000000000e+00,5.000000000000000000e+00,5.000000000000000000e+00,5.000000000000000000e+00,5.000000000000000000e+00,5.000000000000000000e+00,5.000000000000000000e+00,5.000000000000000000e+00,5.000000000000000000e+00,5.000000000000000000e+00,4.867121696472167969e+00,1.488087296485900879e+00,1.459469795227050781e+00,1.447093486785888672e+00,1.467610836029052734e+00,4.040307998657226562e+00,3.907547712326049805e+00,3.783233880996704102e+00,3.666585922241210938e+00,3.556916236877441406e+00,3.453616857528686523e+00,3.356147766113281250e+00,3.264029264450073242e+00,3.176832437515258789e+00,3.094173431396484375e+00,3.015707015991210938e+00,2.941121578216552734e+00,2.870136499404907227e+00,2.802497148513793945e+00,2.737972497940063477e+00,2.676352262496948242e+00,2.617444515228271484e+00,2.561074018478393555e+00,2.507080554962158203e+00,2.455316781997680664e+00,2.405647039413452148e+00,2.357947111129760742e+00,2.312102079391479492e+00,2.268005609512329102e+00,2.225559949874877930e+00,2.184673786163330078e+00,2.145262718200683594e+00,2.107248306274414062e+00,2.070557594299316406e+00,2.035123109817504883e+00,2.000880718231201172e+00,1.967771530151367188e+00,1.935740351676940918e+00,1.904735445976257324e+00,1.874707818031311035e+00,1.845612287521362305e+00
5.000000000000000000e+00,4.399468421936035156e+00,4.408602714538574219e+00,4.675621032714843750e+00,4.697786808013916016e+00,5.000000000000000000e+00,5.000000000000000000e+00,5.000000000000000000e+00,5.000000000000000000e+00,5.000000000000000000e+00,5.000000000000000000e+00,5.000000000000000000e+00,5.000000000000000000e+00,5.000000000000000000e+00,5.000000000000000000e+00,5.000000000000000000e+00,5.000000000000000000e+00,5.000000000000000000e+00,5.000000000000000000e+00,5.000000000000000000e+00,5.000000000000000000e+00,5.000000000000000000e+00,5.000000000000000000e+00,5.000000000000000000e+00,5.000000000000000000e+00,5.000000000000000000e+00,5.000000000000000000e+00,5.000000000000000000e+00,5.000000000000000000e+00,5.000000000000000000e+00,5.000000000000000000e+00,5.000000000000000000e+00,5.000000000000000000e+00,5.000000000000000000e+00,5.000000000000000000e+00,5.000000000000000000e+00,5.000000000000000000e+00,5.000000000000000000e+00,5.000000000000000000e+00,4.867260456085205078e+00,1.490399479866027832e+00,1.458951711654663086e+00,1.444553613662719727e+00,1.462106108665466309e+00,4.040404319763183594e+00,3.907637357711791992e+00,3.783318042755126953e+00,3.666665315628051758e+00,3.556990861892700195e+00,3.453686714172363281e+00,3.356213808059692383e+00,3.264091968536376953e+00,3.176892042160034180e+00,3.094229936599731445e+00,3.015760183334350586e+00,2.941172361373901367e+00,2.870185136795043945e+00,2.802543401718139648e+00,2.738016605377197266e+00,2.676394462585449219e+00,2.617485046386718750e+00,2.561112880706787109e+00,2.507117509841918945e+00,2.455352067947387695e+00,2.405681133270263672e+00,2.357980012893676758e+00,2.312133550643920898e+00,2.268036127090454102e+00,2.225589036941528320e+00,2.184701681137084961e+00,2.145289659500122070e+00,2.107274532318115234e+00,2.070582866668701172e+00,2.035147428512573242e+00,2.000904321670532227e+00,1.967794418334960938e+00,1.935762405395507812e+00,1.904756665229797363e+00,1.874728322029113770e+00,1.845632433891296387e+00
5.000000000000000000e+00,4.425045967102050781e+00,4.408940792083740234e+00,4.786598205566406250e+00,4.828322887420654297e+00,5.000000000000000000e+00,5.000000000000000000e+00,5.000000000000000000e+00,5.000000000000000000e+00,5.000000000000000000e+00,5.000000000000000000e+00,5.000000000000000000e+00,5.000000000000000000e+00,5.000000000000000000e+00,5.000000000000000000e+00,5.000000000000000000e+00,5.000000000000000000e+00,5.000000000000000000e+00,5.000000000000000000e+00,5.000000000000000000e+00,5.000000000000000000e+00,5.000000000000000000e+00,5.000000000000000000e+00,5.000000000000000000e+00,5.000000000000000000e+00,5.000000000000000000e+00,5.000000000000000000e+00,5.000000000000000000e+00,5.000000000000000000e+00,5.000000000000000000e+00,5.000000000000000000e+00,5.000000000000000000e+00,5.000000000000000000e+00,5.000000000000000000e+00,5.000000000000000000e+00,5.000000000000000000e+00,5.000000000000000000e+00,5.000000000000000000e+00,5.000000000000000000e+00,4.867398738861083984e+00,1.492719054222106934e+00,1.460959672927856445e+00,1.442652702331542969e+00,1.456642746925354004e+00,4.040500640869140625e+00,3.907727241516113281e+00,3.783402442932128906e+00,3.666744232177734375e+00,3.557065486907958984e+00,3.453757047653198242e+00,3.356280326843261719e+00,3.264154672622680664e+00,3.176951408386230469e+00,3.094286441802978516e+00,3.015814065933227539e+00,2.941223382949829102e+00,2.870233297348022461e+00,2.802589654922485352e+00,2.738060951232910156e+00,2.676436662673950195e+00,2.617525100708007812e+00,2.561151266098022461e+00,2.507154703140258789e+00,2.455387592315673828e+00,2.405715227127075195e+00,2.358012676239013672e+00,2.312165021896362305e+00,2.268066406250000000e+00,2.225618362426757812e+00,2.184730052947998047e+00,2.145316839218139648e+00,2.107300519943237305e+00,2.070608139038085938e+00,2.035171747207641602e+00,2.000927686691284180e+00,1.967817187309265137e+00,1.935784578323364258e+00,1.904778003692626953e+00,1.874749064445495605e+00,1.845652341842651367e+00
5.000000000000000000e+00,5.000000000000000000e+00,4.414290904998779297e+00,4.825879096984863281e+00,5.000000000000000000e+00,5.000000000000000000e+00,5.000000000000000000e+00,5.000000000000000000e+00,5.000000000000000000e+00,5.000000000000000000e+00,5.000000000000000000e+00,5.000000000000000000e+00,5.000000000000000000e+00,5.000000000000000000e+00,5.000000000000000000e+00,5.000000000000000000e+00,5.000000000000000000e+00,5.000000000000000000e+00,5.000000000000000000e+00,5.000000000000000000e+00,5.000000000000000000e+00,5.000000000000000000e+00,5.000000000000000000e+00,5.000000000000000000e+00,5.000000000000000000e+00,5.000000000000000000e+00,5.000000000000000000e+00,5.000000000000000000e+00,5.000000000000000000e+00,5.000000000000000000e+00,5.000000000000000000e+00,5.000000000000000000e+00,5.000000000000000000e+00,5.000000000000000000e+00,5.000000000000000000e+00,5.000000000000000000e+00,5.000000000000000000e+00,5.000000000000000000e+00,5.000000000000000000e+00,4.867537498474121094e+00,1.495128154754638672e+00,1.463583111763000488e+00,1.444515943527221680e+00,1.452142596244812012e+00,4.040596485137939453e+00,3.907817125320434570e+00,3.783486843109130859e+00,3.666823625564575195e+00,3.557139873504638672e+00,3.453827142715454102e+00,3.356346607208251953e+00,3.264217376708984375e+00,3.177010774612426758e+00,3.094342470169067383e+00,3.015867471694946289e+00,2.941274404525756836e+00,2.870281934738159180e+00,2.802635908126831055e+00,2.738104820251464844e+00,2.676478862762451172e+00,2.617565631866455078e+00,2.561189889907836914e+00,2.507191658020019531e+00,2.455423116683959961e+00,2.405749320983886719e+00,2.358045578002929688e+00,2.312196493148803711e+00,2.268096685409545898e+00,2.225647449493408203e+00,2.184758186340332031e+00,2.145344018936157227e+00,2.107326745986938477e+00,2.070633411407470703e+00,2.035196304321289062e+00,2.000951290130615234e+00,1.967840075492858887e+00,1.935806632041931152e+00,1.904799461364746094e+00,1.874769806861877441e+00,1.845672369003295898e+00
5.000000000000000000e+00,5.000000000000000000e+00,4.436458110809326172e+00,4.823220252990722656e+00,5.000000000000000000e+00,5.000000000000000000e+00,5.000000000000000000e+00,5.000000000000000000e+00,5.000000000000000000e+00,5.000000000000000000e+00,5.000000000000000000e+00,5.000000000000000000e+00,5.000000000000000000e+00,5.000000000000000000e+00,5.000000000000000000e+00,5.000000000000000000e+00,5.000000000000000000e+00,5.000000000000000000e+00,5.000000000000000000e+00,5.000000000000000000e+00,5.000000000000000000e+00,5.000000000000000000e+00,5.000000000000000000e+00,5.000000000000000000e+00,5.000000000000000000e+00,5.000000000000000000e+00,5.000000000000000000e+00,5.000000000000000000e+00,5.000000000000000000e+00,5.000000000000000000e+00,5.000000000000000000e+00,5.000000000000000000e+00,5.000000000000000000e+00,5.000000000000000000e+00,5.000000000000000000e+00,5.000000000000000000e+00,5.000000000000000000e+00,5.000000000000000000e+00,5.000000000000000000e+00,4.867676258087158203e+00,2.006691455841064453e+00,1.466995477676391602e+00,1.448361277580261230e+00,1.448009848594665527e+00,4.040692806243896484e+00,3.907907247543334961e+00,3.783571004867553711e+00,3.666903018951416016e+00,3.557214498519897461e+00,3.453897476196289062e+00,3.356412887573242188e+00,3.264280080795288086e+00,3.177070379257202148e+00,3.094398975372314453e+00,3.015921115875244141e+00,2.941325187683105469e+00,2.870330333709716797e+00,2.802682161331176758e+00,2.738149166107177734e+00,2.676521062850952148e+00,2.617605924606323242e+00,2.561228752136230469e+00,2.507228612899780273e+00,2.455458641052246094e+00,2.405783414840698242e+00,2.358078241348266602e+00,2.312228202819824219e+00,2.268126964569091797e+00,2.225676536560058594e+00,2.184786081314086914e+00,2.145371198654174805e+00,2.107352972030639648e+00,2.070658683776855469e+00,2.035220623016357422e+00,2.000974893569946289e+00,1.967862963676452637e+00,1.935828804969787598e+00,1.904820799827575684e+00,1.874790549278259277e+00,1.845692515373229980e+00
4.875560760498046875e+00,4.874349594116210938e+00,4.367197036743164062e+00,4.397439479827880859e+00,4.870718955993652344e+00,4.869510173797607422e+00,4.868301868438720703e+00,4.867094516754150391e+00,4.865887165069580078e+00,4.864680767059326172e+00,4.863474845886230469e+00,4.862269401550292969e+00,4.861064910888671875e+00,4.859860897064208984e+00,4.858657360076904297e+00,4.857454299926757812e+00,4.856252193450927734e+00,4.855050086975097656e+00,4.853849411010742188e+00,4.852648735046386719e+00,4.851449012756347656e+00,4.850249290466308594e+00,4.849050998687744141e+00,4.847852706909179688e+00,4.846655368804931641e+00,4.845458030700683594e+00,4.844261646270751953e+00,4.843066215515136719e+00,4.841870784759521484e+00,4.840676307678222656e+00,4.839482307434082031e+00,4.838288784027099609e+00,4.837095737457275391e+00,4.835903644561767578e+00,4.834711551666259766e+00,4.833520889282226562e+00,4.832330226898193359e+00,4.831140518188476562e+00,4.829950809478759766e+00,4.828762531280517578e+00,2.020210027694702148e+00,1.470423936843872070e+00,1.448756098747253418e+00,1.443900823593139648e+00,4.040788650512695312e+00,3.907997131347656250e+00,3.783655405044555664e+00,3.666981935501098633e+00,3.557288646697998047e+00,3.453968048095703125e+00,3.356479406356811523e+00,3.264342784881591797e+00,3.177129745483398438e+00,3.094455242156982422e+00,3.015974760055541992e+00,2.941376209259033203e+00,2.870378971099853516e+00,2.802728414535522461e+00,2.738193511962890625e+00,2.676563262939453125e+00,2.617646217346191406e+00,2.561267137527465820e+00,2.507265567779541016e+00,2.455494165420532227e+00,2.405817508697509766e+00,2.358110904693603516e+00,2.312259435653686523e+00,2.268157243728637695e+00,2.225705862045288086e+00,2.184814214706420898e+00,2.145398139953613281e+00,2.107378959655761719e+00,2.070683956146240234e+00,2.035244941711425781e+00,2.000998497009277344e+00,1.967885613441467285e+00,1.935850620269775391e+00,1.904842257499694824e+00,1.874811291694641113e+00,1.845712661743164062e+00
3.778353452682495117e+00,3.777625799179077148e+00,3.776898622512817383e+00,3.776171684265136719e+00,3.775445222854614258e+00,3.774718523025512695e+00,3.773992538452148438e+00,3.773266792297363281e+00,3.772541284561157227e+00,3.771815776824951172e+00,3.771090984344482422e+00,3.770366191864013672e+00,3.769641876220703125e+00,3.768918037414550781e+00,3.768193721771240234e+00,3.767470359802246094e+00,3.766746997833251953e+00,3.766024112701416016e+00,3.765300989151000977e+00,3.764578580856323242e+00,3.763856649398803711e+00,3.763134717941284180e+00,3.762412786483764648e+00,3.761691570281982422e+00,3.760970592498779297e+00,3.760249853134155273e+00,3.759529113769531250e+00,3.758808851242065430e+00,3.758089065551757812e+00,3.757369279861450195e+00,3.756649971008300781e+00,3.755930662155151367e+00,3.755211830139160156e+00,3.754493236541748047e+00,3.753775119781494141e+00,3.753056526184082031e+00,3.752338886260986328e+00,3.751621484756469727e+00,3.750904321670532227e+00,3.750187158584594727e+00,2.049666166305541992e+00,1.473885655403137207e+00,1.446939945220947266e+00,1.441030502319335938e+00,3.746606588363647461e+00,3.745891332626342773e+00,3.745176315307617188e+00,3.667061328887939453e+00,3.557363510131835938e+00,3.454037904739379883e+00,3.356545448303222656e+00,3.264405727386474609e+00,3.177189350128173828e+00,3.094511747360229492e+00,3.016028165817260742e+00,2.941426992416381836e+00,2.870427608489990234e+00,2.802774667739868164e+00,2.738237380981445312e+00,2.676605224609375000e+00,2.617686748504638672e+00,2.561305999755859375e+00,2.507302761077880859e+00,2.455529689788818359e+00,2.405851364135742188e+00,2.358143806457519531e+00,2.312291145324707031e+00,2.268187522888183594e+00,2.225734949111938477e+00,2.184842586517333984e+00,2.145425319671630859e+00,2.107405185699462891e+00,2.070708990097045898e+00,2.035269260406494141e+00,2.001022100448608398e+00,1.967908382415771484e+00,1.935872793197631836e+00,1.904863476753234863e+00,1.874832034111022949e+00,1.845732688903808594e+00
3.084263563156127930e+00,3.083778858184814453e+00,3.083294153213500977e+00,3.082809686660766602e+00,3.082325458526611328e+00,3.081841468811035156e+00,3.081357240676879883e+00,3.080873250961303711e+00,3.080389738082885742e+00,3.079906225204467773e+00,3.079422712326049805e+00,3.078939437866210938e+00,3.078456401824951172e+00,3.077973365783691406e+00,3.077490806579589844e+00,3.077007770538330078e+00,3.076525449752807617e+00,3.076043128967285156e+00,3.075561046600341797e+00,3.075078725814819336e+00,3.074596881866455078e+00,3.074115276336669922e+00,3.073633670806884766e+00,3.073152065277099609e+00,3.072670936584472656e+00,3.072189807891845703e+00,3.071708917617797852e+00,3.071228027343750000e+00,3.070747137069702148e+00,3.070266723632812500e+00,3.069786310195922852e+00,3.069306135177612305e+00,3.068825960159301758e+00,3.068346023559570312e+00,3.067866325378417969e+00,3.067386627197265625e+00,3.066906929016113281e+00,3.066427707672119141e+00,3.065948724746704102e+00,3.065469741821289062e+00,2.025598764419555664e+00,1.477449893951416016e+00,1.448109269142150879e+00,1.444322109222412109e+00,3.063076496124267578e+00,3.062598466873168945e+00,3.062120676040649414e+00,3.061642885208129883e+00,3.061165094375610352e+00,3.060687541961669922e+00,3.060210227966308594e+00,3.059732913970947266e+00,3.059255838394165039e+00,3.058778762817382812e+00,3.016081809997558594e+00,2.941478013992309570e+00,2.870476007461547852e+00,2.802821159362792969e+00,2.738281726837158203e+00,2.676647663116455078e+00,2.617727041244506836e+00,2.561344385147094727e+00,2.507339715957641602e+00,2.455565214157104492e+00,2.405885696411132812e+00,2.358176469802856445e+00,2.312322378158569336e+00,2.268217802047729492e+00,2.225764036178588867e+00,2.184870481491088867e+00,2.145452260971069336e+00,2.107431411743164062e+00,2.070734500885009766e+00,2.035293817520141602e+00,2.001045703887939453e+00,1.967931270599365234e+00,1.935894846916198730e+00,1.904884815216064453e+00,1.874852538108825684e+00,1.845752596855163574e+00
2.605608940124511719e+00,2.605262994766235352e+00,2.604917049407958984e+00,2.604571104049682617e+00,2.604225397109985352e+00,2.603879928588867188e+00,2.603534460067749023e+00,2.603188753128051758e+00,2.602843523025512695e+00,2.602498292922973633e+00,2.602153062820434570e+00,2.601808071136474609e+00,2.601463079452514648e+00,2.601118087768554688e+00,2.600773334503173828e+00,2.600428819656372070e+00,2.600084066390991211e+00,2.599739551544189453e+00,2.599395036697387695e+00,2.599050760269165039e+00,2.598706245422363281e+00,2.598362207412719727e+00,2.598018169403076172e+00,2.597674369812011719e+00,2.597330331802368164e+00,2.596986532211303711e+00,2.596642732620239258e+00,2.596299171447753906e+00,2.595955848693847656e+00,2.595612287521362305e+00,2.595268964767456055e+00,2.594925642013549805e+00,2.594582557678222656e+00,2.594239473342895508e+00,2.593896389007568359e+00,2.593553543090820312e+00,2.593210935592651367e+00,2.592868089675903320e+00,2.592525482177734375e+00,2.592182874679565430e+00,1.992440462112426758e+00,1.481031298637390137e+00,1.451549768447875977e+00,1.442517042160034180e+00,2.590471744537353516e+00,2.590129852294921875e+00,2.589787721633911133e+00,2.589445829391479492e+00,2.589104175567626953e+00,2.588762760162353516e+00,2.588421106338500977e+00,2.588079690933227539e+00,2.587738275527954102e+00,2.587397098541259766e+00,2.587055683135986328e+00,2.586714744567871094e+00,2.586373805999755859e+00,2.586032867431640625e+00,2.585691928863525391e+00,2.585351228713989258e+00,2.585010766983032227e+00,2.561383247375488281e+00,2.507376670837402344e+00,2.455600738525390625e+00,2.405919790267944336e+00,2.358209133148193359e+00,2.312354087829589844e+00,2.268248081207275391e+00,2.225793361663818359e+00,2.184898614883422852e+00,2.145479440689086914e+00,2.107457399368286133e+00,2.070759534835815430e+00,2.035318136215209961e+00,2.001069307327270508e+00,1.967954158782958984e+00,1.935917019844055176e+00,1.904906272888183594e+00,1.874873280525207520e+00,1.845772743225097656e+00
2.255573987960815430e+00,2.255314111709594727e+00,2.255054473876953125e+00,2.254794836044311523e+00,2.254535198211669922e+00,2.254275560379028320e+00,2.254016160964965820e+00,2.253756761550903320e+00,2.253497362136840820e+00,2.253237962722778320e+00,2.252978801727294922e+00,2.252719640731811523e+00,2.252460479736328125e+00,2.252201318740844727e+00,2.251942396163940430e+00,2.251683473587036133e+00,2.251424551010131836e+00,2.251165628433227539e+00,2.250906944274902344e+00,2.250648260116577148e+00,2.250389575958251953e+00,2.250130891799926758e+00,2.249872446060180664e+00,2.249614238739013672e+00,2.249356269836425781e+00,2.249098300933837891e+00,2.248840570449829102e+00,2.248582839965820312e+00,2.248325347900390625e+00,2.248067617416381836e+00,2.247809886932373047e+00,2.247552633285522461e+00,2.247295141220092773e+00,2.247037887573242188e+00,2.246780395507812500e+00,2.246523141860961914e+00,2.246265888214111328e+00,2.246008872985839844e+00,2.245751619338989258e+00,2.245494604110717773e+00,1.946301937103271484e+00,1.964712023735046387e+00,1.465312719345092773e+00,1.449666500091552734e+00,2.244210481643676758e+00,2.243953704833984375e+00,2.243697166442871094e+00,2.243440389633178711e+00,2.243184089660644531e+00,2.242927551269531250e+00,2.242671251296997070e+00,2.242414712905883789e+00,2.242158651351928711e+00,2.241902351379394531e+00,2.241646289825439453e+00,2.241390228271484375e+00,2.241134166717529297e+00,2.240878105163574219e+00,2.240622282028198242e+00,2.240366220474243164e+00,2.240110635757446289e+00,2.239854812622070312e+00,2.239599227905273438e+00,2.239343643188476562e+00,2.239088058471679688e+00,2.238832473754882812e+00,2.238577127456665039e+00,2.238321781158447266e+00,2.225822448730468750e+00,2.184926748275756836e+00,2.145506620407104492e+00,2.107483625411987305e+00,2.070784807205200195e+00,2.035342454910278320e+00,2.001092910766601562e+00,1.967976927757263184e+00,1.935939073562622070e+00,1.904927730560302734e+00,1.874894022941589355e+00,1.845792770385742188e+00
1.988470554351806641e+00,1.988268613815307617e+00,1.988066792488098145e+00,1.987864851951599121e+00,1.987663030624389648e+00,1.987461447715759277e+00,1.987259745597839355e+00,1.987058043479919434e+00,1.986856341361999512e+00,1.986654758453369141e+00,1.986453413963317871e+00,1.986251831054687500e+00,1.986050367355346680e+00,1.985848903656005859e+00,1.985647439956665039e+00,1.985446333885192871e+00,1.985244989395141602e+00,1.985043764114379883e+00,1.984842419624328613e+00,1.984641194343566895e+00,1.984440207481384277e+00,1.984239101409912109e+00,1.984037995338439941e+00,1.983837008476257324e+00,1.983636021614074707e+00,1.983435034751892090e+00,1.983234286308288574e+00,1.983033418655395508e+00,1.982832551002502441e+00,1.982631802558898926e+00,1.982430934906005859e+00,1.982230424880981445e+00,1.982029795646667480e+00,1.981829166412353516e+00,1.981628537178039551e+00,1.981428027153015137e+00,1.981227636337280273e+00,1.981027245521545410e+00,1.980826735496520996e+00,1.980626344680786133e+00,1.980425953865051270e+00,1.980225920677185059e+00,1.458503365516662598e+00,1.426702499389648438e+00,1.425014615058898926e+00,1.979424953460693359e+00,1.979224801063537598e+00,1.979025006294250488e+00,1.978824973106384277e+00,1.978624939918518066e+00,1.978425025939941406e+00,1.978225111961364746e+00,1.978025436401367188e+00,1.977825641632080078e+00,1.977625727653503418e+00,1.977426052093505859e+00,1.977226257324218750e+00,1.977026820182800293e+00,1.976827263832092285e+00,1.976627588272094727e+00,1.976428031921386719e+00,1.976228594779968262e+00,1.976029276847839355e+00,1.975829839706420898e+00,1.975630402565002441e+00,1.975431084632873535e+00,1.975231766700744629e+00,1.975032448768615723e+00,1.974833488464355469e+00,1.974634289741516113e+00,1.974435091018676758e+00,1.974236011505126953e+00,1.974036931991577148e+00,1.973838090896606445e+00,1.973639130592346191e+00,1.967999577522277832e+00,1.935961008071899414e+00,1.904949069023132324e+00,1.874914765357971191e+00,1.845812916755676270e+00
1.777929425239562988e+00,1.777768015861511230e+00,1.777606606483459473e+00,1.777445316314697266e+00,1.777284026145935059e+00,1.777122616767883301e+00,1.776961326599121094e+00,1.776800036430358887e+00,1.776638865470886230e+00,1.776477813720703125e+00,1.776316642761230469e+00,1.776155471801757812e+00,1.775994300842285156e+00,1.775833249092102051e+00,1.775672316551208496e+00,1.775511264801025391e+00,1.775350213050842285e+00,1.775189280509948730e+00,1.775028347969055176e+00,1.774867534637451172e+00,1.774706721305847168e+00,1.774545788764953613e+00,1.774384975433349609e+00,1.774224162101745605e+00,1.774063587188720703e+00,1.773902773857116699e+00,1.773742079734802246e+00,1.773581385612487793e+00,1.773420691490173340e+00,1.773260235786437988e+00,1.773099660873413086e+00,1.772939085960388184e+00,1.772778511047363281e+00,1.772618055343627930e+00,1.772457480430603027e+00,1.772297263145446777e+00,1.772136807441711426e+00,1.771976351737976074e+00,1.771816015243530273e+00,1.771655678749084473e+00,1.771495580673217773e+00,1.771335244178771973e+00,1.438810586929321289e+00,1.402383089065551758e+00,1.386751055717468262e+00,1.387669682502746582e+00,1.770534396171569824e+00,1.770374298095703125e+00,1.770214200019836426e+00,1.770054101943969727e+00,1.769894123077392578e+00,1.769734263420104980e+00,1.769574284553527832e+00,1.769414424896240234e+00,1.769254446029663086e+00,1.769094586372375488e+00,1.768934965133666992e+00,1.768775105476379395e+00,1.768615245819091797e+00,1.768455505371093750e+00,1.768295764923095703e+00,1.768136262893676758e+00,1.767976641654968262e+00,1.767816901206970215e+00,1.767657279968261719e+00,1.767497658729553223e+00,1.767338395118713379e+00,1.767178773880004883e+00,1.767019271850585938e+00,1.766859769821166992e+00,1.766700387001037598e+00,1.766541123390197754e+00,1.766381740570068359e+00,1.766222357749938965e+00,1.766062974929809570e+00,1.765903711318969727e+00,1.765744447708129883e+00,1.765585422515869141e+00,1.765426158905029297e+00,1.765267014503479004e+00
1.607704162597656250e+00,1.607572197914123535e+00,1.607440352439880371e+00,1.607308387756347656e+00,1.607176423072814941e+00,1.607044458389282227e+00,1.606912493705749512e+00,1.606780767440795898e+00,1.606648921966552734e+00,1.606517076492309570e+00,1.606385231018066406e+00,1.606253504753112793e+00,1.606121659278869629e+00,1.605990052223205566e+00,1.605858325958251953e+00,1.605726599693298340e+00,1.605594873428344727e+00,1.605463266372680664e+00,1.605331778526306152e+00,1.605200171470642090e+00,1.605068564414978027e+00,1.604936957359313965e+00,1.604805350303649902e+00,1.604673981666564941e+00,1.604542493820190430e+00,1.604411005973815918e+00,1.604279518127441406e+00,1.604148030281066895e+00,1.604016780853271484e+00,1.603885293006896973e+00,1.603753924369812012e+00,1.603622555732727051e+00,1.603491187095642090e+00,1.603360056877136230e+00,1.603228688240051270e+00,1.603097438812255859e+00,1.602966189384460449e+00,1.602834939956665039e+00,1.602703690528869629e+00,1.602572679519653320e+00,1.602441549301147461e+00,1.602310299873352051e+00,1.397204756736755371e+00,1.367519617080688477e+00,1.354356288909912109e+00,1.322699904441833496e+00,1.304902195930480957e+00,1.601523995399475098e+00,1.601392984390258789e+00,1.601262211799621582e+00,1.601131200790405273e+00,1.601000308990478516e+00,1.600869297981262207e+00,1.600738406181335449e+00,1.600607752799987793e+00,1.600476861000061035e+00,1.600346088409423828e+00,1.600215196609497070e+00,1.600084424018859863e+00,1.599953651428222656e+00,1.599822998046875000e+00,1.599692344665527344e+00,1.599561572074890137e+00,1.599430918693542480e+00,1.599300265312194824e+00,1.599169731140136719e+00,1.599039077758789062e+00,1.598908543586730957e+00,1.598778009414672852e+00,1.598647356033325195e+00,1.598517060279846191e+00,1.598386526107788086e+00,1.598255991935729980e+00,1.598125576972961426e+00,1.597995042800903320e+00,1.597864866256713867e+00,1.597734451293945312e+00,1.597604036331176758e+00,1.597473621368408203e+00,1.597343325614929199e+00
1.467226743698120117e+00,1.467116832733154297e+00,1.467006921768188477e+00,1.466897010803222656e+00,1.466787099838256836e+00,1.466677188873291016e+00,1.466567397117614746e+00,1.466457605361938477e+00,1.466347694396972656e+00,1.466237902641296387e+00,1.466128110885620117e+00,1.466018438339233398e+00,1.465908646583557129e+00,1.465798854827880859e+00,1.465689182281494141e+00,1.465579390525817871e+00,1.465469837188720703e+00,1.465360164642333984e+00,1.465250492095947266e+00,1.465140819549560547e+00,1.465031147003173828e+00,1.464921593666076660e+00,1.464812040328979492e+00,1.464702486991882324e+00,1.464592933654785156e+00,1.464483261108398438e+00,1.464373707771301270e+00,1.464264392852783203e+00,1.464154839515686035e+00,1.464045405387878418e+00,1.463935852050781250e+00,1.463826417922973633e+00,1.463717103004455566e+00,1.463607668876647949e+00,1.463498234748840332e+00,1.463388800621032715e+00,1.463279485702514648e+00,1.463170170783996582e+00,1.463060855865478516e+00,1.462951540946960449e+00,1.462842226028442383e+00,1.462732911109924316e+00,1.462623596191406250e+00,1.328364968299865723e+00,1.318866968154907227e+00,1.342343211174011230e+00,1.319137930870056152e+00,1.462077617645263672e+00,1.461968541145324707e+00,1.461859345436096191e+00,1.461750268936157227e+00,1.461641073226928711e+00,1.461531996726989746e+00,1.461422920227050781e+00,1.461313843727111816e+00,1.461204767227172852e+00,1.461095809936523438e+00,1.460986733436584473e+00,1.460877776145935059e+00,1.460768818855285645e+00,1.460659861564636230e+00,1.460550904273986816e+00,1.460441946983337402e+00,1.460332989692687988e+00,1.460224151611328125e+00,1.460115194320678711e+00,1.460006356239318848e+00,1.459897518157958984e+00,1.459788560867309570e+00,1.459679961204528809e+00,1.459571123123168945e+00,1.459462285041809082e+00,1.459353446960449219e+00,1.459244728088378906e+00,1.459136009216308594e+00,1.459027290344238281e+00,1.458918571472167969e+00,1.458809852600097656e+00,1.458701133728027344e+00,1.458592653274536133e+00
1.349325776100158691e+00,1.349232792854309082e+00,1.349139809608459473e+00,1.349046826362609863e+00,1.348953843116760254e+00,1.348860979080200195e+00,1.348768115043640137e+00,1.348675131797790527e+00,1.348582267761230469e+00,1.348489403724670410e+00,1.348396658897399902e+00,1.348303794860839844e+00,1.348210930824279785e+00,1.348118066787719727e+00,1.348025202751159668e+00,1.347932457923889160e+00,1.347839713096618652e+00,1.347746968269348145e+00,1.347654104232788086e+00,1.347561359405517578e+00,1.347468733787536621e+00,1.347375988960266113e+00,1.347283363342285156e+00,1.347190618515014648e+00,1.347097873687744141e+00,1.347005248069763184e+00,1.346912622451782227e+00,1.346819996833801270e+00,1.346727371215820312e+00,1.346634626388549805e+00,1.346542000770568848e+00,1.346449613571166992e+00,1.346356987953186035e+00,1.346264362335205078e+00,1.346171736717224121e+00,1.346079230308532715e+00,1.345986843109130859e+00,1.345894217491149902e+00,1.345801711082458496e+00,1.345709204673767090e+00,1.345616698265075684e+00,1.345524311065673828e+00,1.345431923866271973e+00,1.345339417457580566e+00,1.345246911048889160e+00,1.345154523849487305e+00,1.345062136650085449e+00,1.344969749450683594e+00,1.344877362251281738e+00,1.344784975051879883e+00,1.344692707061767578e+00,1.344600319862365723e+00,1.344508051872253418e+00,1.344415664672851562e+00,1.344323396682739258e+00,1.344231128692626953e+00,1.344138741493225098e+00,1.344046592712402344e+00,1.343954324722290039e+00,1.343862056732177734e+00,1.343769788742065430e+00,1.343677639961242676e+00,1.343585491180419922e+00,1.343493342399597168e+00,1.343401074409484863e+00,1.343308925628662109e+00,1.343216776847839355e+00,1.343124628067016602e+00,1.343032598495483398e+00,1.342940449714660645e+00,1.342848300933837891e+00,1.342756152153015137e+00,1.342664122581481934e+00,1.342572093009948730e+00,1.342480063438415527e+00,1.342388033866882324e+00,1.342295885086059570e+00,1.342203974723815918e+00,1.342112064361572266e+00,1.342020034790039062e+00
1.248963594436645508e+00,1.248883962631225586e+00,1.248804211616516113e+00,1.248724699020385742e+00,1.248645067214965820e+00,1.248565435409545898e+00,1.248485803604125977e+00,1.248406171798706055e+00,1.248326539993286133e+00,1.248247146606445312e+00,1.248167514801025391e+00,1.248087882995605469e+00,1.248008370399475098e+00,1.247928857803344727e+00,1.247849345207214355e+00,1.247769832611083984e+00,1.247690320014953613e+00,1.247610807418823242e+00,1.247531294822692871e+00,1.247451901435852051e+00,1.247372388839721680e+00,1.247292876243591309e+00,1.247213482856750488e+00,1.247133970260620117e+00,1.247054696083068848e+00,1.246975183486938477e+00,1.246895790100097656e+00,1.246816396713256836e+00,1.246737003326416016e+00,1.246657729148864746e+00,1.246578335762023926e+00,1.246498942375183105e+00,1.246419548988342285e+00,1.246340155601501465e+00,1.246260881423950195e+00,1.246181607246398926e+00,1.246102333068847656e+00,1.246022939682006836e+00,1.245943665504455566e+00,1.245864391326904297e+00,1.245785236358642578e+00,1.245705962181091309e+00,1.245626688003540039e+00,1.245547413825988770e+00,1.245468139648437500e+00,1.245388984680175781e+00,1.245309829711914062e+00,1.245230555534362793e+00,1.245151400566101074e+00,1.245072245597839355e+00,1.244992971420288086e+00,1.244913935661315918e+00,1.244834780693054199e+00,1.244755625724792480e+00,1.244676470756530762e+00,1.244597315788269043e+00,1.244518280029296875e+00,1.244439244270324707e+00,1.244360089302062988e+00,1.244281053543090820e+00,1.244201898574829102e+00,1.244122982025146484e+00,1.244043946266174316e+00,1.243964910507202148e+00,1.243885874748229980e+00,1.243806838989257812e+00,1.243727803230285645e+00,1.243648886680603027e+00,1.243569850921630859e+00,1.243490815162658691e+00,1.243411898612976074e+00,1.243332982063293457e+00,1.243254065513610840e+00,1.243175148963928223e+00,1.243096113204956055e+00,1.243017196655273438e+00,1.242938280105590820e+00,1.242859482765197754e+00,1.242780566215515137e+00,1.242701768875122070e+00
1.162497639656066895e+00,1.162428617477416992e+00,1.162359714508056641e+00,1.162290692329406738e+00,1.162221670150756836e+00,1.162152647972106934e+00,1.162083745002746582e+00,1.162014842033386230e+00,1.161945819854736328e+00,1.161876916885375977e+00,1.161807894706726074e+00,1.161738991737365723e+00,1.161670088768005371e+00,1.161601185798645020e+00,1.161532282829284668e+00,1.161463379859924316e+00,1.161394476890563965e+00,1.161325573921203613e+00,1.161256790161132812e+00,1.161187887191772461e+00,1.161118984222412109e+00,1.161050081253051758e+00,1.160981297492980957e+00,1.160912513732910156e+00,1.160843729972839355e+00,1.160774827003479004e+00,1.160706043243408203e+00,1.160637259483337402e+00,1.160568475723266602e+00,1.160499691963195801e+00,1.160430908203125000e+00,1.160362124443054199e+00,1.160293340682983398e+00,1.160224676132202148e+00,1.160155892372131348e+00,1.160087108612060547e+00,1.160018444061279297e+00,1.159949660301208496e+00,1.159880876541137695e+00,1.159812331199645996e+00,1.159743547439575195e+00,1.159674882888793945e+00,1.159606218338012695e+00,1.159537553787231445e+00,1.159468889236450195e+00,1.159400224685668945e+00,1.159331560134887695e+00,1.159262895584106445e+00,1.159194231033325195e+00,1.159125685691833496e+00,1.159057140350341797e+00,1.158988475799560547e+00,1.158919811248779297e+00,1.158851265907287598e+00,1.158782720565795898e+00,1.158714175224304199e+00,1.158645510673522949e+00,1.158576965332031250e+00,1.158508419990539551e+00,1.158439874649047852e+00,1.158371448516845703e+00,1.158302903175354004e+00,1.158234357833862305e+00,1.158165812492370605e+00,1.158097386360168457e+00,1.158028960227966309e+00,1.157960414886474609e+00,1.157891869544982910e+00,1.157823443412780762e+00,1.157755017280578613e+00,1.157686591148376465e+00,1.157618165016174316e+00,1.157549738883972168e+00,1.157481193542480469e+00,1.157412767410278320e+00,1.157344460487365723e+00,1.157276034355163574e+00,1.157207608222961426e+00,1.157139301300048828e+00,1.157070875167846680e+00
1.087228655815124512e+00,1.087168335914611816e+00,1.087107896804809570e+00,1.087047576904296875e+00,1.086987257003784180e+00,1.086926817893981934e+00,1.086866617202758789e+00,1.086806297302246094e+00,1.086745858192443848e+00,1.086685538291931152e+00,1.086625218391418457e+00,1.086565017700195312e+00,1.086504697799682617e+00,1.086444377899169922e+00,1.086384177207946777e+00,1.086323857307434082e+00,1.086263656616210938e+00,1.086203336715698242e+00,1.086143136024475098e+00,1.086082816123962402e+00,1.086022615432739258e+00,1.085962414741516113e+00,1.085902214050292969e+00,1.085842013359069824e+00,1.085781693458557129e+00,1.085721492767333984e+00,1.085661292076110840e+00,1.085601210594177246e+00,1.085541009902954102e+00,1.085480809211730957e+00,1.085420608520507812e+00,1.085360407829284668e+00,1.085300326347351074e+00,1.085240125656127930e+00,1.085180044174194336e+00,1.085119843482971191e+00,1.085059762001037598e+00,1.084999680519104004e+00,1.084939599037170410e+00,1.084879398345947266e+00,1.084819316864013672e+00,1.084759235382080078e+00,1.084699034690856934e+00,1.084639072418212891e+00,1.084578990936279297e+00,1.084518909454345703e+00,1.084458827972412109e+00,1.084398746490478516e+00,1.084338784217834473e+00,1.084278702735900879e+00,1.084218621253967285e+00,1.084158539772033691e+00,1.084098577499389648e+00,1.084038615226745605e+00,1.083978533744812012e+00,1.083918571472167969e+00,1.083858489990234375e+00,1.083798527717590332e+00,1.083738565444946289e+00,1.083678603172302246e+00,1.083618640899658203e+00,1.083558678627014160e+00,1.083498716354370117e+00,1.083438754081726074e+00,1.083378791809082031e+00,1.083318829536437988e+00,1.083258986473083496e+00,1.083199024200439453e+00,1.083139061927795410e+00,1.083079218864440918e+00,1.083019256591796875e+00,1.082959413528442383e+00,1.082899451255798340e+00,1.082839608192443848e+00,1.082779765129089355e+00,1.082719922065734863e+00,1.082659959793090820e+00,1.082600116729736328e+00,1.082540273666381836e+00,1.082480430603027344e+00
1.021113872528076172e+00,1.021060705184936523e+00,1.021007418632507324e+00,1.020954132080078125e+00,1.020900964736938477e+00,1.020847678184509277e+00,1.020794510841369629e+00,1.020741224288940430e+00,1.020688056945800781e+00,1.020634889602661133e+00,1.020581722259521484e+00,1.020528554916381836e+00,1.020475268363952637e+00,1.020422101020812988e+00,1.020368933677673340e+00,1.020315766334533691e+00,1.020262598991394043e+00,1.020209431648254395e+00,1.020156264305114746e+00,1.020103096961975098e+00,1.020050048828125000e+00,1.019996881484985352e+00,1.019943714141845703e+00,1.019890666007995605e+00,1.019837498664855957e+00,1.019784331321716309e+00,1.019731283187866211e+00,1.019678235054016113e+00,1.019625067710876465e+00,1.019572019577026367e+00,1.019518852233886719e+00,1.019465923309326172e+00,1.019412755966186523e+00,1.019359707832336426e+00,1.019306659698486328e+00,1.019253611564636230e+00,1.019200563430786133e+00,1.019147515296936035e+00,1.019094467163085938e+00,1.019041419029235840e+00,1.018988370895385742e+00,1.018935322761535645e+00,1.018882393836975098e+00,1.018829345703125000e+00,1.018776297569274902e+00,1.018723249435424805e+00,1.018670320510864258e+00,1.018617391586303711e+00,1.018564343452453613e+00,1.018511295318603516e+00,1.018458366394042969e+00,1.018405437469482422e+00,1.018352508544921875e+00,1.018299460411071777e+00,1.018246531486511230e+00,1.018193602561950684e+00,1.018140673637390137e+00,1.018087744712829590e+00,1.018034815788269043e+00,1.017981886863708496e+00,1.017928957939147949e+00,1.017876029014587402e+00,1.017823100090026855e+00,1.017770171165466309e+00,1.017717361450195312e+00,1.017664432525634766e+00,1.017611503601074219e+00,1.017558574676513672e+00,1.017505764961242676e+00,1.017452955245971680e+00,1.017400026321411133e+00,1.017347097396850586e+00,1.017294287681579590e+00,1.017241477966308594e+00,1.017188668251037598e+00,1.017135739326477051e+00,1.017082929611206055e+00,1.017030119895935059e+00,1.016977310180664062e+00,1.016924500465393066e+00
9.625791907310485840e-01,9.625318050384521484e-01,9.624845385551452637e-01,9.624372720718383789e-01,9.623898863792419434e-01,9.623426198959350586e-01,9.622952938079833984e-01,9.622480273246765137e-01,9.622007012367248535e-01,9.621534347534179688e-01,9.621062278747558594e-01,9.620589017868041992e-01,9.620116949081420898e-01,9.619643688201904297e-01,9.619171619415283203e-01,9.618699550628662109e-01,9.618226289749145508e-01,9.617754220962524414e-01,9.617280960083007812e-01,9.616809487342834473e-01,9.616337418556213379e-01,9.615864753723144531e-01,9.615392684936523438e-01,9.614920020103454590e-01,9.614448547363281250e-01,9.613977074623107910e-01,9.613504409790039062e-01,9.613032341003417969e-01,9.612560272216796875e-01,9.612088799476623535e-01,9.611617326736450195e-01,9.611144661903381348e-01,9.610673785209655762e-01,9.610201120376586914e-01,9.609730243682861328e-01,9.609258770942687988e-01,9.608786702156066895e-01,9.608315825462341309e-01,9.607843756675720215e-01,9.607372879981994629e-01,9.606901407241821289e-01,9.606429934501647949e-01,9.605959057807922363e-01,9.605486989021301270e-01,9.605016112327575684e-01,9.604545831680297852e-01,9.604073762893676758e-01,9.603603482246398926e-01,9.603131413459777832e-01,9.602661132812500000e-01,9.602189660072326660e-01,9.601719379425048828e-01,9.601249098777770996e-01,9.600777626037597656e-01,9.600307345390319824e-01,9.599835872650146484e-01,9.599365592002868652e-01,9.598895311355590820e-01,9.598424434661865234e-01,9.597954154014587402e-01,9.597483277320861816e-01,9.597012996673583984e-01,9.596543312072753906e-01,9.596072435379028320e-01,9.595602750778198242e-01,9.595131874084472656e-01,9.594662189483642578e-01,9.594192504882812500e-01,9.593721628189086914e-01,9.593251943588256836e-01,9.592781066894531250e-01,9.592311978340148926e-01,9.591842293739318848e-01,9.591372013092041016e-01,9.590902328491210938e-01,9.590432047843933105e-01,9.589962959289550781e-01,9.589493870735168457e-01,9.589023590087890625e-01,9.588554501533508301e-01
9.103914499282836914e-01,9.103491306304931641e-01,9.103068709373474121e-01,9.102644920349121094e-01,9.102222323417663574e-01,9.101798534393310547e-01,9.101375937461853027e-01,9.100953340530395508e-01,9.100529551506042480e-01,9.100106954574584961e-01,9.099683761596679688e-01,9.099261164665222168e-01,9.098837971687316895e-01,9.098415374755859375e-01,9.097993373870849609e-01,9.097569584846496582e-01,9.097147583961486816e-01,9.096724390983581543e-01,9.096301794052124023e-01,9.095879793167114258e-01,9.095456600189208984e-01,9.095034599304199219e-01,9.094612002372741699e-01,9.094190001487731934e-01,9.093768000602722168e-01,9.093344807624816895e-01,9.092922806739807129e-01,9.092500209808349609e-01,9.092078208923339844e-01,9.091656804084777832e-01,9.091234207153320312e-01,9.090812206268310547e-01,9.090389609336853027e-01,9.089968204498291016e-01,9.089546799659729004e-01,9.089124202728271484e-01,9.088702797889709473e-01,9.088280200958251953e-01,9.087858796119689941e-01,9.087437391281127930e-01,9.087014794349670410e-01,9.086593985557556152e-01,9.086171388626098633e-01,9.085750579833984375e-01,9.085329174995422363e-01,9.084907174110412598e-01,9.084485769271850586e-01,9.084063768386840820e-01,9.083642959594726562e-01,9.083222150802612305e-01,9.082800149917602539e-01,9.082379341125488281e-01,9.081957340240478516e-01,9.081536531448364258e-01,9.081115722656250000e-01,9.080694317817687988e-01,9.080273509025573730e-01,9.079851508140563965e-01,9.079431295394897461e-01,9.079009890556335449e-01,9.078589081764221191e-01,9.078168272972106934e-01,9.077746868133544922e-01,9.077326655387878418e-01,9.076905250549316406e-01,9.076485037803649902e-01,9.076064825057983398e-01,9.075643420219421387e-01,9.075223207473754883e-01,9.074801802635192871e-01,9.074381589889526367e-01,9.073961973190307617e-01,9.073540568351745605e-01,9.073120355606079102e-01,9.072699546813964844e-01,9.072279930114746094e-01,9.071859717369079590e-01,9.071438908576965332e-01,9.071019291877746582e-01,9.070598483085632324e-01
