5.000000000000000000e+00,5.000000000000000000e+00,5.000000000000000000e+00,5.000000000000000000e+00,5.000000000000000000e+00,5.000000000000000000e+00,5.000000000000000000e+00,5.000000000000000000e+00,5.000000000000000000e+00,5.000000000000000000e+00,5.000000000000000000e+00,5.000000000000000000e+00,5.000000000000000000e+00,5.000000000000000000e+00,5.000000000000000000e+00,5.000000000000000000e+00,5.000000000000000000e+00,5.000000000000000000e+00,5.000000000000000000e+00,5.000000000000000000e+00,5.000000000000000000e+00,5.000000000000000000e+00,5.000000000000000000e+00,5.000000000000000000e+00,5.000000000000000000e+00,5.000000000000000000e+00,5.000000000000000000e+00,5.000000000000000000e+00,5.000000000000000000e+00,5.000000000000000000e+00,5.000000000000000000e+00,5.000000000000000000e+00,1.901660084724426270e+00,1.906987428665161133e+00,1.946298122406005859e+00,1.943855643272399902e+00,1.943185448646545410e+00,1.976951003074645996e+00,1.970889687538146973e+00,2.004351615905761719e+00,2.009822130203247070e+00,2.055413484573364258e+00,2.162291049957275391e+00,2.175964117050170898e+00,4.028701782226562500e+00,3.896762847900390625e+00,3.773191690444946289e+00,3.657217025756835938e+00,3.548159122467041016e+00,3.445416688919067383e+00,3.348456859588623047e+00,3.256805419921875000e+00,3.170037269592285156e+00,3.087772607803344727e+00,3.009669542312622070e+00,2.935420274734497070e+00,2.864746093750000000e+00,2.797394990921020508e+00,2.733138084411621094e+00,2.671766996383666992e+00,2.613091468811035156e+00,2.556937694549560547e+00,2.503146648406982422e+00,2.451572179794311523e+00,2.402080059051513672e+00,2.354546785354614258e+00,2.308857679367065430e+00,2.264908552169799805e+00,2.222601175308227539e+00,2.181845426559448242e+00,2.142557382583618164e+00,2.104659318923950195e+00,2.068078279495239258e+00,2.032747745513916016e+00,1.998603582382202148e+00,1.965587615966796875e+00,1.933644890785217285e+00,1.902723670005798340e+00,1.872775912284851074e+00,1.843756079673767090e+00
5.000000000000000000e+00,5.000000000000000000e+00,5.000000000000000000e+00,5.000000000000000000e+00,5.000000000000000000e+00,5.000000000000000000e+00,5.000000000000000000e+00,5.000000000000000000e+00,5.000000000000000000e+00,5.000000000000000000e+00,5.000000000000000000e+00,5.000000000000000000e+00,5.000000000000000000e+00,5.000000000000000000e+00,5.000000000000000000e+00,5.000000000000000000e+00,5.000000000000000000e+00,5.000000000000000000e+00,5.000000000000000000e+00,5.000000000000000000e+00,5.000000000000000000e+00,5.000000000000000000e+00,5.000000000000000000e+00,5.000000000000000000e+00,5.000000000000000000e+00,5.000000000000000000e+00,5.000000000000000000e+00,5.000000000000000000e+00,5.000000000000000000e+00,5.000000000000000000e+00,5.000000000000000000e+00,5.000000000000000000e+00,1.887986302375793457e+00,1.886174917221069336e+00,1.941820383071899414e+00,1.936063170433044434e+00,1.938337922096252441e+00,1.976693987846374512e+00,2.011732101440429688e+00,1.981172442436218262e+00,1.968649983406066895e+00,1.961329460144042969e+00,2.017216920852661133e+00,2.164834976196289062e+00,4.028796672821044922e+00,3.896852016448974609e+00,3.773275375366210938e+00,3.657295703887939453e+00,3.548233032226562500e+00,3.445486545562744141e+00,3.348523139953613281e+00,3.256867885589599609e+00,3.170096158981323242e+00,3.087828397750854492e+00,3.009722709655761719e+00,2.935470819473266602e+00,2.864794254302978516e+00,2.797441005706787109e+00,2.733181953430175781e+00,2.671808958053588867e+00,2.613131523132324219e+00,2.556976079940795898e+00,2.503183364868164062e+00,2.451607465744018555e+00,2.402113914489746094e+00,2.354579210281372070e+00,2.308889150619506836e+00,2.264938831329345703e+00,2.222630262374877930e+00,2.181873321533203125e+00,2.142584323883056641e+00,2.104685306549072266e+00,2.068103551864624023e+00,2.032771825790405273e+00,1.998627185821533203e+00,1.965610504150390625e+00,1.933666825294494629e+00,1.902745008468627930e+00,1.872796297073364258e+00,1.843776106834411621e+00
5.000000000000000000e+00,5.000000000000000000e+00,5.000000000000000000e+00,5.000000000000000000e+00,5.000000000000000000e+00,5.000000000000000000e+00,5.000000000000000000e+00,5.000000000000000000e+00,5.000000000000000000e+00,5.000000000000000000e+00,5.000000000000000000e+00,5.000000000000000000e+00,5.000000000000000000e+00,5.000000000000000000e+00,5.000000000000000000e+00,5.000000000000000000e+00,5.000000000000000000e+00,5.000000000000000000e+00,5.000000000000000000e+00,5.000000000000000000e+00,5.000000000000000000e+00,5.000000000000000000e+00,5.000000000000000000e+00,5.000000000000000000e+00,5.000000000000000000e+00,5.000000000000000000e+00,5.000000000000000000e+00,5.000000000000000000e+00,5.000000000000000000e+00,5.000000000000000000e+00,5.000000000000000000e+00,5.000000000000000000e+00,1.883558511734008789e+00,1.985488414764404297e+00,1.939367890357971191e+00,1.931307435035705566e+00,1.931893467903137207e+00,1.955178976058959961e+00,2.003314971923828125e+00,1.965399146080017090e+00,1.945424199104309082e+00,1.943549156188964844e+00,1.963425517082214355e+00,2.145361423492431641e+00,4.028892517089843750e+00,3.896941661834716797e+00,3.773359298706054688e+00,3.657374143600463867e+00,3.548306941986083984e+00,3.445556163787841797e+00,3.348588943481445312e+00,3.256930351257324219e+00,3.170155525207519531e+00,3.087884664535522461e+00,3.009776115417480469e+00,2.935521364212036133e+00,2.864842414855957031e+00,2.797486782073974609e+00,2.733225822448730469e+00,2.671850919723510742e+00,2.613171815872192383e+00,2.557014703750610352e+00,2.503220319747924805e+00,2.451642751693725586e+00,2.402147769927978516e+00,2.354611873626708984e+00,2.308920621871948242e+00,2.264969110488891602e+00,2.222659349441528320e+00,2.181901454925537109e+00,2.142611503601074219e+00,2.104711294174194336e+00,2.068128585815429688e+00,2.032796144485473633e+00,1.998650431632995605e+00,1.965633273124694824e+00,1.933688879013061523e+00,1.902766346931457520e+00,1.872817039489746094e+00,1.843796014785766602e+00
5.000000000000000000e+00,5.000000000000000000e+00,5.000000000000000000e+00,5.000000000000000000e+00,5.000000000000000000e+00,5.000000000000000000e+00,5.000000000000000000e+00,5.000000000000000000e+00,5.000000000000000000e+00,5.000000000000000000e+00,5.000000000000000000e+00,5.000000000000000000e+00,5.000000000000000000e+00,5.000000000000000000e+00,5.000000000000000000e+00,5.000000000000000000e+00,5.000000000000000000e+00,5.000000000000000000e+00,5.000000000000000000e+00,5.000000000000000000e+00,5.000000000000000000e+00,5.000000000000000000e+00,5.000000000000000000e+00,5.000000000000000000e+00,5.000000000000000000e+00,5.000000000000000000e+00,5.000000000000000000e+00,5.000000000000000000e+00,5.000000000000000000e+00,5.000000000000000000e+00,5.000000000000000000e+00,5.000000000000000000e+00,1.864411592483520508e+00,1.852687597274780273e+00,1.932104706764221191e+00,1.932301163673400879e+00,1.932497978210449219e+00,1.946609735488891602e+00,2.001837253570556641e+00,1.964613080024719238e+00,1.930853843688964844e+00,1.931470632553100586e+00,1.931006550788879395e+00,2.011440277099609375e+00,4.028987884521484375e+00,3.897030830383300781e+00,3.773442983627319336e+00,3.657453060150146484e+00,3.548381090164184570e+00,3.445625782012939453e+00,3.348654747009277344e+00,3.256992578506469727e+00,3.170214414596557617e+00,3.087940692901611328e+00,3.009829282760620117e+00,2.935572147369384766e+00,2.864890813827514648e+00,2.797532796859741211e+00,2.733269691467285156e+00,2.671892881393432617e+00,2.613211870193481445e+00,2.557053089141845703e+00,2.503257036209106445e+00,2.451678276062011719e+00,2.402181863784790039e+00,2.354644298553466797e+00,2.308951854705810547e+00,2.264999151229858398e+00,2.222688436508178711e+00,2.181929349899291992e+00,2.142638444900512695e+00,2.104737281799316406e+00,2.068153858184814453e+00,2.032820463180541992e+00,1.998674035072326660e+00,1.965655803680419922e+00,1.933710932731628418e+00,1.902787446975708008e+00,1.872837781906127930e+00,1.843816041946411133e+00
5.000000000000000000e+00,5.000000000000000000e+00,5.000000000000000000e+00,5.000000000000000000e+00,5.000000000000000000e+00,5.000000000000000000e+00,5.000000000000000000e+00,5.000000000000000000e+00,5.000000000000000000e+00,5.000000000000000000e+00,5.000000000000000000e+00,5.000000000000000000e+00,5.000000000000000000e+00,5.000000000000000000e+00,5.000000000000000000e+00,5.000000000000000000e+00,5.000000000000000000e+00,5.000000000000000000e+00,5.000000000000000000e+00,5.000000000000000000e+00,5.000000000000000000e+00,5.000000000000000000e+00,5.000000000000000000e+00,5.000000000000000000e+00,5.000000000000000000e+00,5.000000000000000000e+00,5.000000000000000000e+00,5.000000000000000000e+00,5.000000000000000000e+00,5.000000000000000000e+00,5.000000000000000000e+00,5.000000000000000000e+00,1.844004869461059570e+00,1.829966187477111816e+00,1.843087315559387207e+00,1.935074687004089355e+00,1.934977889060974121e+00,1.946266651153564453e+00,2.023917198181152344e+00,1.963013172149658203e+00,1.928700923919677734e+00,1.917711257934570312e+00,1.919166803359985352e+00,1.970723390579223633e+00,4.029083251953125000e+00,3.897119760513305664e+00,3.773526430130004883e+00,3.657531499862670898e+00,3.548454999923706055e+00,3.445695877075195312e+00,3.348721027374267578e+00,3.257054805755615234e+00,3.170273542404174805e+00,3.087996721267700195e+00,3.009882450103759766e+00,2.935622692108154297e+00,2.864938974380493164e+00,2.797579050064086914e+00,2.733313798904418945e+00,2.671934843063354492e+00,2.613251924514770508e+00,2.557091474533081055e+00,2.503293991088867188e+00,2.451713562011718750e+00,2.402215719223022461e+00,2.354676961898803711e+00,2.308983325958251953e+00,2.265029191970825195e+00,2.222717285156250000e+00,2.181957483291625977e+00,2.142665386199951172e+00,2.104763507843017578e+00,2.068178892135620117e+00,2.032844781875610352e+00,1.998697638511657715e+00,1.965678572654724121e+00,1.933732748031616211e+00,1.902808904647827148e+00,1.872858285903930664e+00,1.843836069107055664e+00
5.000000000000000000e+00,5.000000000000000000e+00,5.000000000000000000e+00,5.000000000000000000e+00,5.000000000000000000e+00,5.000000000000000000e+00,5.000000000000000000e+00,5.000000000000000000e+00,5.000000000000000000e+00,5.000000000000000000e+00,5.000000000000000000e+00,5.000000000000000000e+00,5.000000000000000000e+00,5.000000000000000000e+00,5.000000000000000000e+00,5.000000000000000000e+00,5.000000000000000000e+00,5.000000000000000000e+00,5.000000000000000000e+00,5.000000000000000000e+00,5.000000000000000000e+00,5.000000000000000000e+00,5.000000000000000000e+00,5.000000000000000000e+00,5.000000000000000000e+00,5.000000000000000000e+00,5.000000000000000000e+00,5.000000000000000000e+00,5.000000000000000000e+00,5.000000000000000000e+00,5.000000000000000000e+00,5.000000000000000000e+00,1.834475517272949219e+00,1.809802770614624023e+00,1.835632205009460449e+00,1.938894271850585938e+00,1.938326716423034668e+00,1.949654817581176758e+00,2.035850524902343750e+00,1.961018323898315430e+00,1.926602602005004883e+00,1.902449369430541992e+00,1.904830813407897949e+00,1.931375384330749512e+00,2.124218702316284180e+00,3.897209405899047852e+00,3.773610115051269531e+00,3.657610177993774414e+00,3.548528909683227539e+00,3.445765733718872070e+00,3.348786830902099609e+00,3.257117509841918945e+00,3.170332908630371094e+00,3.088052988052368164e+00,3.009935617446899414e+00,2.935673475265502930e+00,2.864987134933471680e+00,2.797625064849853516e+00,2.733357667922973633e+00,2.671977043151855469e+00,2.613292217254638672e+00,2.557130098342895508e+00,2.503330707550048828e+00,2.451748847961425781e+00,2.402249574661254883e+00,2.354709625244140625e+00,2.309014558792114258e+00,2.265059471130371094e+00,2.222746610641479492e+00,2.181985378265380859e+00,2.142692327499389648e+00,2.104789495468139648e+00,2.068204164505004883e+00,2.032869100570678711e+00,1.998721003532409668e+00,1.965701460838317871e+00,1.933754801750183105e+00,1.902830243110656738e+00,1.872878909111022949e+00,1.843855977058410645e+00
5.000000000000000000e+00,5.000000000000000000e+00,5.000000000000000000e+00,5.000000000000000000e+00,5.000000000000000000e+00,5.000000000000000000e+00,5.000000000000000000e+00,5.000000000000000000e+00,5.000000000000000000e+00,5.000000000000000000e+00,5.000000000000000000e+00,5.000000000000000000e+00,5.000000000000000000e+00,5.000000000000000000e+00,5.000000000000000000e+00,5.000000000000000000e+00,5.000000000000000000e+00,5.000000000000000000e+00,5.000000000000000000e+00,5.000000000000000000e+00,5.000000000000000000e+00,5.000000000000000000e+00,5.000000000000000000e+00,5.000000000000000000e+00,5.000000000000000000e+00,5.000000000000000000e+00,5.000000000000000000e+00,5.000000000000000000e+00,5.000000000000000000e+00,5.000000000000000000e+00,5.000000000000000000e+00,5.000000000000000000e+00,1.838457345962524414e+00,5.000000000000000000e+00,1.971460103988647461e+00,1.943451642990112305e+00,1.941687345504760742e+00,1.953054666519165039e+00,5.000000000000000000e+00,1.970137953758239746e+00,1.924508690834045410e+00,1.890941143035888672e+00,1.891767740249633789e+00,1.894603490829467773e+00,2.103227138519287109e+00,3.897298574447631836e+00,3.773694038391113281e+00,3.657689094543457031e+00,3.548602819442749023e+00,3.445835351943969727e+00,3.348852634429931641e+00,3.257179737091064453e+00,3.170391798019409180e+00,3.088109016418457031e+00,3.009989261627197266e+00,2.935724258422851562e+00,2.865035295486450195e+00,2.797670841217041016e+00,2.733401536941528320e+00,2.672018766403198242e+00,2.613332509994506836e+00,2.557168483734130859e+00,2.503367662429809570e+00,2.451784133911132812e+00,2.402283430099487305e+00,2.354742050170898438e+00,2.309045791625976562e+00,2.265089750289916992e+00,2.222775459289550781e+00,2.182013511657714844e+00,2.142719507217407227e+00,2.104815483093261719e+00,2.068229198455810547e+00,2.032893419265747070e+00,1.998744487762451172e+00,1.965723991394042969e+00,1.933776855468750000e+00,1.902851343154907227e+00,1.872899651527404785e+00,1.843876004219055176e+00
5.000000000000000000e+00,5.000000000000000000e+00,5.000000000000000000e+00,5.000000000000000000e+00,5.000000000000000000e+00,5.000000000000000000e+00,5.000000000000000000e+00,5.000000000000000000e+00,5.000000000000000000e+00,5.000000000000000000e+00,5.000000000000000000e+00,5.000000000000000000e+00,5.000000000000000000e+00,5.000000000000000000e+00,5.000000000000000000e+00,5.000000000000000000e+00,5.000000000000000000e+00,5.000000000000000000e+00,5.000000000000000000e+00,5.000000000000000000e+00,5.000000000000000000e+00,5.000000000000000000e+00,5.000000000000000000e+00,5.000000000000000000e+00,5.000000000000000000e+00,5.000000000000000000e+00,5.000000000000000000e+00,5.000000000000000000e+00,5.000000000000000000e+00,5.000000000000000000e+00,5.000000000000000000e+00,5.000000000000000000e+00,1.830248475074768066e+00,5.000000000000000000e+00,1.985953688621520996e+00,1.948030471801757812e+00,1.946190357208251953e+00,1.955358028411865234e+00,5.000000000000000000e+00,1.987894296646118164e+00,1.919309735298156738e+00,1.886650562286376953e+00,1.875352025032043457e+00,1.881679892539978027e+00,2.092429876327514648e+00,3.897387742996215820e+00,3.773777723312377930e+00,3.657767534255981445e+00,3.548677206039428711e+00,3.445905447006225586e+00,3.348918914794921875e+00,3.257241964340209961e+00,3.170450925827026367e+00,3.088165044784545898e+00,3.010042428970336914e+00,2.935774803161621094e+00,2.865083932876586914e+00,2.797717094421386719e+00,2.733445644378662109e+00,2.672060728073120117e+00,2.613372564315795898e+00,2.557206869125366211e+00,2.503404378890991211e+00,2.451819419860839844e+00,2.402317523956298828e+00,2.354774951934814453e+00,2.309077262878417969e+00,2.265119791030883789e+00,2.222804546356201172e+00,2.182041406631469727e+00,2.142746448516845703e+00,2.104841470718383789e+00,2.068254470825195312e+00,2.032917737960815430e+00,1.998768091201782227e+00,1.965746760368347168e+00,1.933798670768737793e+00,1.902872800827026367e+00,1.872920155525207520e+00,1.843896031379699707e+00
5.000000000000000000e+00,5.000000000000000000e+00,5.000000000000000000e+00,5.000000000000000000e+00,5.000000000000000000e+00,5.000000000000000000e+00,5.000000000000000000e+00,5.000000000000000000e+00,5.000000000000000000e+00,5.000000000000000000e+00,5.000000000000000000e+00,5.000000000000000000e+00,5.000000000000000000e+00,5.000000000000000000e+00,5.000000000000000000e+00,5.000000000000000000e+00,5.000000000000000000e+00,5.000000000000000000e+00,5.000000000000000000e+00,5.000000000000000000e+00,5.000000000000000000e+00,5.000000000000000000e+00,5.000000000000000000e+00,5.000000000000000000e+00,5.000000000000000000e+00,5.000000000000000000e+00,5.000000000000000000e+00,5.000000000000000000e+00,5.000000000000000000e+00,5.000000000000000000e+00,5.000000000000000000e+00,5.000000000000000000e+00,5.000000000000000000e+00,5.000000000000000000e+00,2.005351305007934570e+00,1.951144814491271973e+00,1.947479724884033203e+00,1.956606149673461914e+00,5.000000000000000000e+00,4.850833415985107422e+00,1.920199394226074219e+00,1.882379770278930664e+00,1.859543204307556152e+00,1.865073084831237793e+00,1.875416040420532227e+00,3.897476911544799805e+00,3.773861408233642578e+00,3.657846212387084961e+00,3.548751115798950195e+00,3.445975065231323242e+00,3.348984718322753906e+00,3.257304668426513672e+00,3.170510053634643555e+00,3.088221073150634766e+00,3.010095596313476562e+00,2.935825347900390625e+00,2.865132093429565430e+00,2.797763109207153320e+00,2.733489513397216797e+00,2.672102928161621094e+00,2.613412857055664062e+00,2.557245254516601562e+00,2.503441333770751953e+00,2.451854705810546875e+00,2.402351379394531250e+00,2.354807376861572266e+00,2.309108734130859375e+00,2.265150070190429688e+00,2.222833633422851562e+00,2.182069301605224609e+00,2.142773389816284180e+00,2.104867458343505859e+00,2.068279504776000977e+00,2.032942056655883789e+00,1.998791456222534180e+00,1.965769648551940918e+00,1.933820724487304688e+00,1.902893900871276855e+00,1.872940778732299805e+00,1.843915939331054688e+00
5.000000000000000000e+00,5.000000000000000000e+00,5.000000000000000000e+00,5.000000000000000000e+00,5.000000000000000000e+00,5.000000000000000000e+00,5.000000000000000000e+00,5.000000000000000000e+00,5.000000000000000000e+00,5.000000000000000000e+00,5.000000000000000000e+00,5.000000000000000000e+00,5.000000000000000000e+00,5.000000000000000000e+00,5.000000000000000000e+00,5.000000000000000000e+00,5.000000000000000000e+00,5.000000000000000000e+00,5.000000000000000000e+00,5.000000000000000000e+00,5.000000000000000000e+00,5.000000000000000000e+00,5.000000000000000000e+00,5.000000000000000000e+00,5.000000000000000000e+00,5.000000000000000000e+00,5.000000000000000000e+00,5.000000000000000000e+00,5.000000000000000000e+00,5.000000000000000000e+00,5.000000000000000000e+00,5.000000000000000000e+00,5.000000000000000000e+00,5.000000000000000000e+00,2.031787872314453125e+00,1.961645007133483887e+00,1.948385238647460938e+00,1.957925319671630859e+00,5.000000000000000000e+00,4.850971698760986328e+00,1.953743338584899902e+00,1.878092646598815918e+00,1.855944037437438965e+00,1.853577494621276855e+00,1.862850666046142578e+00,3.897566556930541992e+00,3.773945331573486328e+00,3.657924652099609375e+00,3.548825025558471680e+00,3.446044921875000000e+00,3.349050521850585938e+00,3.257366895675659180e+00,3.170569181442260742e+00,3.088277339935302734e+00,3.010149002075195312e+00,2.935876131057739258e+00,2.865180253982543945e+00,2.797809123992919922e+00,2.733533382415771484e+00,2.672144889831542969e+00,2.613452911376953125e+00,2.557283878326416016e+00,2.503478288650512695e+00,2.451889991760253906e+00,2.402385234832763672e+00,2.354840040206909180e+00,2.309139966964721680e+00,2.265180110931396484e+00,2.222862720489501953e+00,2.182097434997558594e+00,2.142800331115722656e+00,2.104893684387207031e+00,2.068304538726806641e+00,2.032966136932373047e+00,1.998815059661865234e+00,1.965792179107666016e+00,1.933842897415161133e+00,1.902915239334106445e+00,1.872961521148681641e+00,1.843935966491699219e+00
5.000000000000000000e+00,5.000000000000000000e+00,5.000000000000000000e+00,5.000000000000000000e+00,5.000000000000000000e+00,5.000000000000000000e+00,5.000000000000000000e+00,5.000000000000000000e+00,5.000000000000000000e+00,5.000000000000000000e+00,5.000000000000000000e+00,5.000000000000000000e+00,5.000000000000000000e+00,5.000000000000000000e+00,5.000000000000000000e+00,5.000000000000000000e+00,5.000000000000000000e+00,5.000000000000000000e+00,5.000000000000000000e+00,5.000000000000000000e+00,5.000000000000000000e+00,5.000000000000000000e+00,5.000000000000000000e+00,5.000000000000000000e+00,5.000000000000000000e+00,5.000000000000000000e+00,5.000000000000000000e+00,5.000000000000000000e+00,5.000000000000000000e+00,5.000000000000000000e+00,5.000000000000000000e+00,5.000000000000000000e+00,5.000000000000000000e+00,5.000000000000000000e+00,2.048712730407714844e+00,1.978179574012756348e+00,1.951839923858642578e+00,1.959246516227722168e+00,5.000000000000000000e+00,4.851109981536865234e+00,4.661076068878173828e+00,1.876526951789855957e+00,1.857183814048767090e+00,1.849490284919738770e+00,1.860130906105041504e+00,3.897655963897705078e+00,3.774029016494750977e+00,3.658003568649291992e+00,3.548899412155151367e+00,3.446115016937255859e+00,3.349116325378417969e+00,3.257429122924804688e+00,3.170628309249877930e+00,3.088333129882812500e+00,3.010202169418334961e+00,2.935926914215087891e+00,2.865228652954101562e+00,2.797855377197265625e+00,2.733577251434326172e+00,2.672186851501464844e+00,2.613492965698242188e+00,2.557322263717651367e+00,2.503515005111694336e+00,2.451925516128540039e+00,2.402419328689575195e+00,2.354872703552246094e+00,2.309171199798583984e+00,2.265210390090942383e+00,2.222891807556152344e+00,2.182125329971313477e+00,2.142827272415161133e+00,2.104919672012329102e+00,2.068329811096191406e+00,2.032990694046020508e+00,1.998838305473327637e+00,1.965814948081970215e+00,1.933864712715148926e+00,1.902936577796936035e+00,1.872982025146484375e+00,1.843955993652343750e+00
5.000000000000000000e+00,5.000000000000000000e+00,5.000000000000000000e+00,5.000000000000000000e+00,5.000000000000000000e+00,5.000000000000000000e+00,5.000000000000000000e+00,5.000000000000000000e+00,5.000000000000000000e+00,5.000000000000000000e+00,5.000000000000000000e+00,5.000000000000000000e+00,5.000000000000000000e+00,5.000000000000000000e+00,5.000000000000000000e+00,5.000000000000000000e+00,5.000000000000000000e+00,5.000000000000000000e+00,5.000000000000000000e+00,5.000000000000000000e+00,5.000000000000000000e+00,5.000000000000000000e+00,5.000000000000000000e+00,5.000000000000000000e+00,5.000000000000000000e+00,5.000000000000000000e+00,5.000000000000000000e+00,5.000000000000000000e+00,5.000000000000000000e+00,5.000000000000000000e+00,5.000000000000000000e+00,5.000000000000000000e+00,5.000000000000000000e+00,5.000000000000000000e+00,5.000000000000000000e+00,1.994995117187500000e+00,1.957802176475524902e+00,1.958677649497985840e+00,5.000000000000000000e+00,4.851248741149902344e+00,4.661203861236572266e+00,1.888519287109375000e+00,1.865191817283630371e+00,1.859749197959899902e+00,1.868002295494079590e+00,3.897745132446289062e+00,3.774112701416015625e+00,3.658082246780395508e+00,3.548973321914672852e+00,3.446184635162353516e+00,3.349182605743408203e+00,3.257491827011108398e+00,3.170687198638916016e+00,3.088389158248901367e+00,3.010255336761474609e+00,2.935977458953857422e+00,2.865276813507080078e+00,2.797901391983032227e+00,2.733621358871459961e+00,2.672228813171386719e+00,2.613533020019531250e+00,2.557360649108886719e+00,2.503551959991455078e+00,2.451960802078247070e+00,2.402453184127807617e+00,2.354905366897583008e+00,2.309202671051025391e+00,2.265240669250488281e+00,2.222920656204223633e+00,2.182153463363647461e+00,2.142854213714599609e+00,2.104945659637451172e+00,2.068355083465576172e+00,2.033014774322509766e+00,1.998861908912658691e+00,1.965837836265563965e+00,1.933886766433715820e+00,1.902957797050476074e+00,1.873002648353576660e+00,1.843975901603698730e+00
5.000000000000000000e+00,5.000000000000000000e+00,5.000000000000000000e+00,5.000000000000000000e+00,5.000000000000000000e+00,5.000000000000000000e+00,5.000000000000000000e+00,5.000000000000000000e+00,5.000000000000000000e+00,5.000000000000000000e+00,5.000000000000000000e+00,5.000000000000000000e+00,5.000000000000000000e+00,5.000000000000000000e+00,5.000000000000000000e+00,5.000000000000000000e+00,5.000000000000000000e+00,5.000000000000000000e+00,5.000000000000000000e+00,5.000000000000000000e+00,5.000000000000000000e+00,5.000000000000000000e+00,5.000000000000000000e+00,5.000000000000000000e+00,5.000000000000000000e+00,5.000000000000000000e+00,5.000000000000000000e+00,5.000000000000000000e+00,5.000000000000000000e+00,5.000000000000000000e+00,5.000000000000000000e+00,5.000000000000000000e+00,5.000000000000000000e+00,5.000000000000000000e+00,5.000000000000000000e+00,2.012293100357055664e+00,1.966963768005371094e+00,1.965402841567993164e+00,5.000000000000000000e+00,4.851387023925781250e+00,4.661331653594970703e+00,1.907505273818969727e+00,1.881241202354431152e+00,1.881687283515930176e+00,4.029847145080566406e+00,3.897834777832031250e+00,3.774196624755859375e+00,3.658160924911499023e+00,3.549047231674194336e+00,3.446254491806030273e+00,3.349248409271240234e+00,3.257554054260253906e+00,3.170746564865112305e+00,3.088445425033569336e+00,3.010308980941772461e+00,2.936028242111206055e+00,2.865324974060058594e+00,2.797947168350219727e+00,2.733665227890014648e+00,2.672270774841308594e+00,2.613573312759399414e+00,2.557399272918701172e+00,2.503588914871215820e+00,2.451996088027954102e+00,2.402487039566040039e+00,2.354937791824340820e+00,2.309234142303466797e+00,2.265270709991455078e+00,2.222949981689453125e+00,2.182181358337402344e+00,2.142881393432617188e+00,2.104971647262573242e+00,2.068380117416381836e+00,2.033039093017578125e+00,1.998885512351989746e+00,1.965860366821289062e+00,1.933908820152282715e+00,1.902979135513305664e+00,1.873023390769958496e+00,1.843995928764343262e+00
5.000000000000000000e+00,5.000000000000000000e+00,5.000000000000000000e+00,5.000000000000000000e+00,5.000000000000000000e+00,5.000000000000000000e+00,5.000000000000000000e+00,5.000000000000000000e+00,5.000000000000000000e+00,5.000000000000000000e+00,5.000000000000000000e+00,5.000000000000000000e+00,5.000000000000000000e+00,5.000000000000000000e+00,5.000000000000000000e+00,5.000000000000000000e+00,5.000000000000000000e+00,5.000000000000000000e+00,5.000000000000000000e+00,5.000000000000000000e+00,5.000000000000000000e+00,5.000000000000000000e+00,5.000000000000000000e+00,5.000000000000000000e+00,5.000000000000000000e+00,5.000000000000000000e+00,5.000000000000000000e+00,5.000000000000000000e+00,5.000000000000000000e+00,5.000000000000000000e+00,5.000000000000000000e+00,5.000000000000000000e+00,5.000000000000000000e+00,5.000000000000000000e+00,5.000000000000000000e+00,2.012864828109741211e+00,1.985220193862915039e+00,1.991305589675903320e+00,5.000000000000000000e+00,4.851525306701660156e+00,1.969249963760375977e+00,1.920681238174438477e+00,1.905159115791320801e+00,1.904149174690246582e+00,4.029942512512207031e+00,3.897923946380615234e+00,3.774280309677124023e+00,3.658239841461181641e+00,3.549121618270874023e+00,3.446324110031127930e+00,3.349314212799072266e+00,3.257616281509399414e+00,3.170805692672729492e+00,3.088501453399658203e+00,3.010362148284912109e+00,2.936079025268554688e+00,2.865373611450195312e+00,2.797993183135986328e+00,2.733709096908569336e+00,2.672312736511230469e+00,2.613613605499267578e+00,2.557437658309936523e+00,2.503625631332397461e+00,2.452031612396240234e+00,2.402521133422851562e+00,2.354970455169677734e+00,2.309265375137329102e+00,2.265300750732421875e+00,2.222978830337524414e+00,2.182209491729736328e+00,2.142908334732055664e+00,2.104997873306274414e+00,2.068405389785766602e+00,2.033063411712646484e+00,1.998908877372741699e+00,1.965883135795593262e+00,1.933930635452270508e+00,1.903000473976135254e+00,1.873043894767761230e+00,1.844016075134277344e+00
5.000000000000000000e+00,5.000000000000000000e+00,5.000000000000000000e+00,5.000000000000000000e+00,5.000000000000000000e+00,5.000000000000000000e+00,5.000000000000000000e+00,5.000000000000000000e+00,5.000000000000000000e+00,5.000000000000000000e+00,5.000000000000000000e+00,5.000000000000000000e+00,5.000000000000000000e+00,5.000000000000000000e+00,5.000000000000000000e+00,5.000000000000000000e+00,5.000000000000000000e+00,5.000000000000000000e+00,5.000000000000000000e+00,5.000000000000000000e+00,5.000000000000000000e+00,5.000000000000000000e+00,5.000000000000000000e+00,5.000000000000000000e+00,5.000000000000000000e+00,5.000000000000000000e+00,5.000000000000000000e+00,5.000000000000000000e+00,5.000000000000000000e+00,5.000000000000000000e+00,5.000000000000000000e+00,5.000000000000000000e+00,5.000000000000000000e+00,5.000000000000000000e+00,2.084514141082763672e+00,2.023370742797851562e+00,2.009897947311401367e+00,2.022907733917236328e+00,5.000000000000000000e+00,4.851663589477539062e+00,1.962549805641174316e+00,1.929273843765258789e+00,1.927500605583190918e+00,1.943757176399230957e+00,4.030037879943847656e+00,3.898013114929199219e+00,3.774363994598388672e+00,3.658318281173706055e+00,3.549195528030395508e+00,3.446394205093383789e+00,3.349380493164062500e+00,3.257678747177124023e+00,3.170864582061767578e+00,3.088557481765747070e+00,3.010415315628051758e+00,2.936129570007324219e+00,2.865421772003173828e+00,2.798039436340332031e+00,2.733753204345703125e+00,2.672354698181152344e+00,2.613653659820556641e+00,2.557476043701171875e+00,2.503662347793579102e+00,2.452066898345947266e+00,2.402554988861083984e+00,2.355003118515014648e+00,2.309296846389770508e+00,2.265331029891967773e+00,2.223007917404174805e+00,2.182237386703491211e+00,2.142935276031494141e+00,2.105023860931396484e+00,2.068430423736572266e+00,2.033087730407714844e+00,1.998932480812072754e+00,1.965905785560607910e+00,1.933952689170837402e+00,1.903021693229675293e+00,1.873064637184143066e+00,1.844035863876342773e+00
5.000000000000000000e+00,5.000000000000000000e+00,5.000000000000000000e+00,5.000000000000000000e+00,5.000000000000000000e+00,5.000000000000000000e+00,5.000000000000000000e+00,5.000000000000000000e+00,5.000000000000000000e+00,5.000000000000000000e+00,5.000000000000000000e+00,5.000000000000000000e+00,5.000000000000000000e+00,5.000000000000000000e+00,5.000000000000000000e+00,5.000000000000000000e+00,5.000000000000000000e+00,5.000000000000000000e+00,5.000000000000000000e+00,5.000000000000000000e+00,5.000000000000000000e+00,5.000000000000000000e+00,5.000000000000000000e+00,5.000000000000000000e+00,5.000000000000000000e+00,5.000000000000000000e+00,5.000000000000000000e+00,5.000000000000000000e+00,5.000000000000000000e+00,5.000000000000000000e+00,5.000000000000000000e+00,5.000000000000000000e+00,5.000000000000000000e+00,5.000000000000000000e+00,2.069638490676879883e+00,2.038612842559814453e+00,2.032301425933837891e+00,2.079179048538208008e+00,5.000000000000000000e+00,4.851801872253417969e+00,1.968180656433105469e+00,1.939134359359741211e+00,1.938466668128967285e+00,1.966332674026489258e+00,4.030133724212646484e+00,3.898102760314941406e+00,3.774447679519653320e+00,3.658396959304809570e+00,3.549269676208496094e+00,3.446463823318481445e+00,3.349446296691894531e+00,3.257741212844848633e+00,3.170923948287963867e+00,3.088613748550415039e+00,3.010468482971191406e+00,2.936180353164672852e+00,2.865469932556152344e+00,2.798085451126098633e+00,2.733797073364257812e+00,2.672396898269653320e+00,2.613693952560424805e+00,2.557514667510986328e+00,2.503699302673339844e+00,2.452102184295654297e+00,2.402588844299316406e+00,2.355035781860351562e+00,2.309328079223632812e+00,2.265361309051513672e+00,2.223037004470825195e+00,2.182265520095825195e+00,2.142962217330932617e+00,2.105049848556518555e+00,2.068455696105957031e+00,2.033112049102783203e+00,1.998955965042114258e+00,1.965928554534912109e+00,1.933974862098693848e+00,1.903043031692504883e+00,1.873085141181945801e+00,1.844056010246276855e+00
5.000000000000000000e+00,5.000000000000000000e+00,5.000000000000000000e+00,5.000000000000000000e+00,5.000000000000000000e+00,5.000000000000000000e+00,5.000000000000000000e+00,5.000000000000000000e+00,5.000000000000000000e+00,5.000000000000000000e+00,5.000000000000000000e+00,5.000000000000000000e+00,5.000000000000000000e+00,5.000000000000000000e+00,5.000000000000000000e+00,5.000000000000000000e+00,5.000000000000000000e+00,5.000000000000000000e+00,5.000000000000000000e+00,5.000000000000000000e+00,5.000000000000000000e+00,5.000000000000000000e+00,5.000000000000000000e+00,5.000000000000000000e+00,5.000000000000000000e+00,5.000000000000000000e+00,5.000000000000000000e+00,5.000000000000000000e+00,5.000000000000000000e+00,5.000000000000000000e+00,5.000000000000000000e+00,5.000000000000000000e+00,5.000000000000000000e+00,5.000000000000000000e+00,2.084418058395385742e+00,2.053376197814941406e+00,2.046607971191406250e+00,2.092889308929443359e+00,5.000000000000000000e+00,4.851939201354980469e+00,1.973843455314636230e+00,1.949537634849548340e+00,1.949558019638061523e+00,4.171525001525878906e+00,4.030229091644287109e+00,3.898191928863525391e+00,3.774531602859497070e+00,3.658475875854492188e+00,3.549343585968017578e+00,3.446533679962158203e+00,3.349512100219726562e+00,3.257803678512573242e+00,3.170983076095581055e+00,3.088669776916503906e+00,3.010521888732910156e+00,2.936231136322021484e+00,2.865518093109130859e+00,2.798131227493286133e+00,2.733840942382812500e+00,2.672438621520996094e+00,2.613734006881713867e+00,2.557553052902221680e+00,2.503736257553100586e+00,2.452137708663940430e+00,2.402622699737548828e+00,2.355068206787109375e+00,2.309359550476074219e+00,2.265391349792480469e+00,2.223066091537475586e+00,2.182293415069580078e+00,2.142989397048950195e+00,2.105076074600219727e+00,2.068480730056762695e+00,2.033136367797851562e+00,1.998979330062866211e+00,1.965951323509216309e+00,1.933996677398681641e+00,1.903064370155334473e+00,1.873105764389038086e+00,1.844076037406921387e+00
5.000000000000000000e+00,5.000000000000000000e+00,5.000000000000000000e+00,5.000000000000000000e+00,5.000000000000000000e+00,5.000000000000000000e+00,5.000000000000000000e+00,5.000000000000000000e+00,5.000000000000000000e+00,5.000000000000000000e+00,5.000000000000000000e+00,5.000000000000000000e+00,5.000000000000000000e+00,5.000000000000000000e+00,5.000000000000000000e+00,5.000000000000000000e+00,5.000000000000000000e+00,5.000000000000000000e+00,5.000000000000000000e+00,5.000000000000000000e+00,5.000000000000000000e+00,5.000000000000000000e+00,5.000000000000000000e+00,5.000000000000000000e+00,5.000000000000000000e+00,5.000000000000000000e+00,5.000000000000000000e+00,5.000000000000000000e+00,5.000000000000000000e+00,5.000000000000000000e+00,5.000000000000000000e+00,5.000000000000000000e+00,5.000000000000000000e+00,5.000000000000000000e+00,2.099210977554321289e+00,2.068039417266845703e+00,2.057512044906616211e+00,2.106122255325317383e+00,5.000000000000000000e+00,4.852077007293701172e+00,1.980696678161621094e+00,1.960053086280822754e+00,1.960568547248840332e+00,4.171627044677734375e+00,4.030324459075927734e+00,3.898281335830688477e+00,3.774615287780761719e+00,3.658554553985595703e+00,3.549417734146118164e+00,3.446603775024414062e+00,3.349578380584716797e+00,3.257865905761718750e+00,3.171041965484619141e+00,3.088725805282592773e+00,3.010575294494628906e+00,2.936281681060791016e+00,2.865566492080688477e+00,2.798177480697631836e+00,2.733885049819946289e+00,2.672480583190917969e+00,2.613774061203002930e+00,2.557591438293457031e+00,2.503772974014282227e+00,2.452172994613647461e+00,2.402656793594360352e+00,2.355100870132446289e+00,2.309391021728515625e+00,2.265421390533447266e+00,2.223095178604125977e+00,2.182321310043334961e+00,2.143016338348388672e+00,2.105102062225341797e+00,2.068506002426147461e+00,2.033160686492919922e+00,1.999002933502197266e+00,1.965973973274230957e+00,1.934018731117248535e+00,1.903085589408874512e+00,1.873126506805419922e+00,1.844095945358276367e+00
5.000000000000000000e+00,5.000000000000000000e+00,5.000000000000000000e+00,5.000000000000000000e+00,5.000000000000000000e+00,5.000000000000000000e+00,5.000000000000000000e+00,5.000000000000000000e+00,5.000000000000000000e+00,5.000000000000000000e+00,5.000000000000000000e+00,5.000000000000000000e+00,5.000000000000000000e+00,5.000000000000000000e+00,5.000000000000000000e+00,5.000000000000000000e+00,5.000000000000000000e+00,5.000000000000000000e+00,5.000000000000000000e+00,5.000000000000000000e+00,5.000000000000000000e+00,5.000000000000000000e+00,5.000000000000000000e+00,5.000000000000000000e+00,5.000000000000000000e+00,5.000000000000000000e+00,5.000000000000000000e+00,5.000000000000000000e+00,5.000000000000000000e+00,5.000000000000000000e+00,5.000000000000000000e+00,5.000000000000000000e+00,5.000000000000000000e+00,5.000000000000000000e+00,2.130708456039428711e+00,2.082913637161254883e+00,2.068532943725585938e+00,5.000000000000000000e+00,5.000000000000000000e+00,4.852213859558105469e+00,1.990976452827453613e+00,1.971303224563598633e+00,1.971517205238342285e+00,4.171729564666748047e+00,4.030420303344726562e+00,3.898370504379272461e+00,3.774698972702026367e+00,3.658632993698120117e+00,3.549491882324218750e+00,3.446673631668090820e+00,3.349644184112548828e+00,3.257928609848022461e+00,3.171101331710815430e+00,3.088781833648681641e+00,3.010628461837768555e+00,2.936332464218139648e+00,2.865614891052246094e+00,2.798223495483398438e+00,2.733928918838500977e+00,2.672522783279418945e+00,2.613814353942871094e+00,2.557629823684692383e+00,2.503809928894042969e+00,2.452208280563354492e+00,2.402690649032592773e+00,2.355133533477783203e+00,2.309422254562377930e+00,2.265451669692993164e+00,2.223124265670776367e+00,2.182349443435668945e+00,2.143043279647827148e+00,2.105128049850463867e+00,2.068531036376953125e+00,2.033185005187988281e+00,1.999026536941528320e+00,1.965996742248535156e+00,1.934040784835815430e+00,1.903106927871704102e+00,1.873147010803222656e+00,1.844115972518920898e+00
5.000000000000000000e+00,5.000000000000000000e+00,5.000000000000000000e+00,5.000000000000000000e+00,5.000000000000000000e+00,5.000000000000000000e+00,5.000000000000000000e+00,5.000000000000000000e+00,5.000000000000000000e+00,5.000000000000000000e+00,5.000000000000000000e+00,5.000000000000000000e+00,5.000000000000000000e+00,5.000000000000000000e+00,5.000000000000000000e+00,5.000000000000000000e+00,5.000000000000000000e+00,5.000000000000000000e+00,5.000000000000000000e+00,5.000000000000000000e+00,5.000000000000000000e+00,5.000000000000000000e+00,5.000000000000000000e+00,5.000000000000000000e+00,5.000000000000000000e+00,5.000000000000000000e+00,5.000000000000000000e+00,5.000000000000000000e+00,5.000000000000000000e+00,5.000000000000000000e+00,5.000000000000000000e+00,5.000000000000000000e+00,5.000000000000000000e+00,5.000000000000000000e+00,2.163336753845214844e+00,2.098382472991943359e+00,2.081064462661743164e+00,5.000000000000000000e+00,5.000000000000000000e+00,4.852351665496826172e+00,2.001501321792602539e+00,1.983174562454223633e+00,2.005662918090820312e+00,4.171831607818603516e+00,4.030515670776367188e+00,3.898460149765014648e+00,3.774783134460449219e+00,3.658711671829223633e+00,3.549565792083740234e+00,3.446743249893188477e+00,3.349710226058959961e+00,3.257990837097167969e+00,3.171160459518432617e+00,3.088838100433349609e+00,3.010681867599487305e+00,2.936383008956909180e+00,2.865663051605224609e+00,2.798269510269165039e+00,2.733972787857055664e+00,2.672564744949340820e+00,2.613854646682739258e+00,2.557668447494506836e+00,2.503846883773803711e+00,2.452243566513061523e+00,2.402724742889404297e+00,2.355166196823120117e+00,2.309453487396240234e+00,2.265481948852539062e+00,2.223153352737426758e+00,2.182377338409423828e+00,2.143070459365844727e+00,2.105154037475585938e+00,2.068556308746337891e+00,2.033209323883056641e+00,1.999049782752990723e+00,1.966019511222839355e+00,1.934062719345092773e+00,1.903128266334533691e+00,1.873167753219604492e+00,1.844135880470275879e+00
5.000000000000000000e+00,5.000000000000000000e+00,5.000000000000000000e+00,5.000000000000000000e+00,5.000000000000000000e+00,5.000000000000000000e+00,5.000000000000000000e+00,5.000000000000000000e+00,5.000000000000000000e+00,5.000000000000000000e+00,5.000000000000000000e+00,5.000000000000000000e+00,5.000000000000000000e+00,5.000000000000000000e+00,5.000000000000000000e+00,5.000000000000000000e+00,5.000000000000000000e+00,5.000000000000000000e+00,5.000000000000000000e+00,5.000000000000000000e+00,5.000000000000000000e+00,5.000000000000000000e+00,5.000000000000000000e+00,5.000000000000000000e+00,5.000000000000000000e+00,5.000000000000000000e+00,5.000000000000000000e+00,5.000000000000000000e+00,5.000000000000000000e+00,5.000000000000000000e+00,5.000000000000000000e+00,5.000000000000000000e+00,5.000000000000000000e+00,5.000000000000000000e+00,5.000000000000000000e+00,2.115523576736450195e+00,2.101941823959350586e+00,5.000000000000000000e+00,5.000000000000000000e+00,4.852488517761230469e+00,2.011831760406494141e+00,1.995189547538757324e+00,4.323526382446289062e+00,4.171934127807617188e+00,4.030611038208007812e+00,3.898549318313598633e+00,3.774866819381713867e+00,3.658790588378906250e+00,3.549640178680419922e+00,3.446813344955444336e+00,3.349776029586791992e+00,3.258053302764892578e+00,3.171219348907470703e+00,3.088894128799438477e+00,3.010735034942626953e+00,2.936433792114257812e+00,2.865711450576782227e+00,2.798315763473510742e+00,2.734016656875610352e+00,2.672606706619262695e+00,2.613894701004028320e+00,2.557706832885742188e+00,2.503883600234985352e+00,2.452279090881347656e+00,2.402758598327636719e+00,2.355198860168457031e+00,2.309484958648681641e+00,2.265511989593505859e+00,2.223182201385498047e+00,2.182405471801757812e+00,2.143097400665283203e+00,2.105180263519287109e+00,2.068581342697143555e+00,2.033233642578125000e+00,1.999073386192321777e+00,1.966042160987854004e+00,1.934084773063659668e+00,1.903149485588073730e+00,1.873188376426696777e+00,1.844155907630920410e+00
4.875672817230224609e+00,4.874462604522705078e+00,4.873252391815185547e+00,4.872043132781982422e+00,4.870834827423095703e+00,4.869626522064208984e+00,4.868419170379638672e+00,4.867212295532226562e+00,4.866005897521972656e+00,4.864800453186035156e+00,4.863595485687255859e+00,4.862390995025634766e+00,4.861186981201171875e+00,4.859983921051025391e+00,4.858781337738037109e+00,4.857579231262207031e+00,4.856377601623535156e+00,4.855176925659179688e+00,4.853976726531982422e+00,4.852777004241943359e+00,4.851578235626220703e+00,4.850379467010498047e+00,4.849181652069091797e+00,4.847984313964843750e+00,4.846787452697753906e+00,4.845591068267822266e+00,4.844396114349365234e+00,4.843201160430908203e+00,4.842006683349609375e+00,4.840812683105468750e+00,4.839619636535644531e+00,4.838427066802978516e+00,4.837234973907470703e+00,4.836043357849121094e+00,4.834852695465087891e+00,2.133217811584472656e+00,2.123242139816284180e+00,4.831283569335937500e+00,4.830095291137695312e+00,4.828907012939453125e+00,2.022224664688110352e+00,2.007351160049438477e+00,4.323635101318359375e+00,4.172035694122314453e+00,4.030706405639648438e+00,3.898638486862182617e+00,3.774950265884399414e+00,3.658869266510009766e+00,3.549714088439941406e+00,3.446883201599121094e+00,3.349842309951782227e+00,3.258115768432617188e+00,3.171278476715087891e+00,3.088950157165527344e+00,3.010788440704345703e+00,2.936484575271606445e+00,2.865759611129760742e+00,2.798361539840698242e+00,2.734060764312744141e+00,2.672648906707763672e+00,2.613934755325317383e+00,2.557745218276977539e+00,2.503920555114746094e+00,2.452314376831054688e+00,2.402792692184448242e+00,2.355231523513793945e+00,2.309516429901123047e+00,2.265542268753051758e+00,2.223211288452148438e+00,2.182433366775512695e+00,2.143124341964721680e+00,2.105206251144409180e+00,2.068606615066528320e+00,2.033257961273193359e+00,1.999096989631652832e+00,1.966064929962158203e+00,1.934106588363647461e+00,1.903170824050903320e+00,1.873208880424499512e+00,1.844175934791564941e+00
3.778519868850708008e+00,3.777792930603027344e+00,3.777066230773925781e+00,3.776340007781982422e+00,3.775613784790039062e+00,3.774888038635253906e+00,3.774162292480468750e+00,3.773437023162841797e+00,3.772711753845214844e+00,3.771986961364746094e+00,3.771262645721435547e+00,3.770538330078125000e+00,3.769814252853393555e+00,3.769090652465820312e+00,3.768367290496826172e+00,3.767644166946411133e+00,3.766921281814575195e+00,3.766198635101318359e+00,3.765476465225219727e+00,3.764754533767700195e+00,3.764033079147338867e+00,3.763311624526977539e+00,3.762590408325195312e+00,3.761869430541992188e+00,3.761148929595947266e+00,3.760428428649902344e+00,3.759708404541015625e+00,3.758988618850708008e+00,3.758269071578979492e+00,3.757549762725830078e+00,3.756830930709838867e+00,3.756112098693847656e+00,3.755393743515014648e+00,3.754675626754760742e+00,3.753957748413085938e+00,2.151210546493530273e+00,2.139670372009277344e+00,3.751806020736694336e+00,3.751089334487915039e+00,2.105201482772827148e+00,2.037270307540893555e+00,2.044762849807739258e+00,3.748224973678588867e+00,3.747509479522705078e+00,3.746794223785400391e+00,3.746079444885253906e+00,3.745364904403686523e+00,3.658947944641113281e+00,3.549787998199462891e+00,3.446952819824218750e+00,3.349908113479614258e+00,3.258178234100341797e+00,3.171337842941284180e+00,3.089006423950195312e+00,3.010841608047485352e+00,2.936535120010375977e+00,2.865808010101318359e+00,2.798407554626464844e+00,2.734104633331298828e+00,2.672690868377685547e+00,2.613975048065185547e+00,2.557783842086791992e+00,2.503957271575927734e+00,2.452349662780761719e+00,2.402826547622680664e+00,2.355263948440551758e+00,2.309547662734985352e+00,2.265572309494018555e+00,2.223240375518798828e+00,2.182461500167846680e+00,2.143151283264160156e+00,2.105232238769531250e+00,2.068631649017333984e+00,2.033282279968261719e+00,1.999120354652404785e+00,1.966087698936462402e+00,1.934128642082214355e+00,1.903192162513732910e+00,1.873229622840881348e+00,1.844195842742919922e+00
3.084440946578979492e+00,3.083956480026245117e+00,3.083472013473510742e+00,3.082987785339355469e+00,3.082503795623779297e+00,3.082020282745361328e+00,3.081536531448364258e+00,3.081053018569946289e+00,3.080569505691528320e+00,3.080086231231689453e+00,3.079603195190429688e+00,3.079120159149169922e+00,3.078637361526489258e+00,3.078154802322387695e+00,3.077672243118286133e+00,3.077189922332763672e+00,3.076707601547241211e+00,3.076225519180297852e+00,3.075743675231933594e+00,3.075261831283569336e+00,3.074780464172363281e+00,3.074298858642578125e+00,3.073817968368530273e+00,3.073336601257324219e+00,3.072855710983276367e+00,3.072374820709228516e+00,3.071894168853759766e+00,3.071413516998291016e+00,3.070933103561401367e+00,3.070452928543090820e+00,3.069972753524780273e+00,3.069492816925048828e+00,3.069013118743896484e+00,3.068533420562744141e+00,3.068053960800170898e+00,2.172420024871826172e+00,2.159447669982910156e+00,3.066616296768188477e+00,3.066137552261352539e+00,2.088761806488037109e+00,2.029223918914794922e+00,2.005553007125854492e+00,3.064223766326904297e+00,3.063745498657226562e+00,3.063267707824707031e+00,3.062789678573608398e+00,3.062312126159667969e+00,3.061834573745727539e+00,3.061357021331787109e+00,3.060879707336425781e+00,3.060402631759643555e+00,3.059925794601440430e+00,3.059448957443237305e+00,3.058972358703613281e+00,3.010895013809204102e+00,2.936585903167724609e+00,2.865856409072875977e+00,2.798453569412231445e+00,2.734148740768432617e+00,2.672732830047607422e+00,2.614015340805053711e+00,2.557822227478027344e+00,2.503994226455688477e+00,2.452385187149047852e+00,2.402860641479492188e+00,2.355296611785888672e+00,2.309578895568847656e+00,2.265602350234985352e+00,2.223269462585449219e+00,2.182489395141601562e+00,2.143178462982177734e+00,2.105258464813232422e+00,2.068656921386718750e+00,2.033306598663330078e+00,1.999143958091735840e+00,1.966110348701477051e+00,1.934150695800781250e+00,1.903213381767272949e+00,1.873250365257263184e+00,1.844215869903564453e+00
2.605782747268676758e+00,2.605437040328979492e+00,2.605091333389282227e+00,2.604745626449584961e+00,2.604400157928466797e+00,2.604054689407348633e+00,2.603709459304809570e+00,2.603364229202270508e+00,2.603019237518310547e+00,2.602674007415771484e+00,2.602329254150390625e+00,2.601984262466430664e+00,2.601639509201049805e+00,2.601294755935668945e+00,2.600950241088867188e+00,2.600605726242065430e+00,2.600261211395263672e+00,2.599916934967041016e+00,2.599572658538818359e+00,2.599228620529174805e+00,2.598884582519531250e+00,2.598540544509887695e+00,2.598196744918823242e+00,2.597852945327758789e+00,2.597509384155273438e+00,2.597165822982788086e+00,2.596822261810302734e+00,2.596478939056396484e+00,2.596135616302490234e+00,2.595792293548583984e+00,2.595449209213256836e+00,2.595106124877929688e+00,2.594763278961181641e+00,2.594420194625854492e+00,2.594077587127685547e+00,2.160661697387695312e+00,2.128691196441650391e+00,2.124268531799316406e+00,2.592707395553588867e+00,2.592365026473999023e+00,2.592022657394409180e+00,1.979520559310913086e+00,1.982560396194458008e+00,2.590996742248535156e+00,2.590654850006103516e+00,2.590313196182250977e+00,2.589971303939819336e+00,2.589629888534545898e+00,2.589288234710693359e+00,2.588946819305419922e+00,2.588605642318725586e+00,2.588264226913452148e+00,2.587923049926757812e+00,2.587582111358642578e+00,2.587241172790527344e+00,2.586900234222412109e+00,2.586559534072875977e+00,2.586218833923339844e+00,2.585878372192382812e+00,2.585537910461425781e+00,2.585197448730468750e+00,2.557860612869262695e+00,2.504031181335449219e+00,2.452420473098754883e+00,2.402894496917724609e+00,2.355329275131225586e+00,2.309610366821289062e+00,2.265632629394531250e+00,2.223298549652099609e+00,2.182517528533935547e+00,2.143205404281616211e+00,2.105284452438354492e+00,2.068682193756103516e+00,2.033330917358398438e+00,1.999167561531066895e+00,1.966133117675781250e+00,1.934172630310058594e+00,1.903234720230102539e+00,1.873270869255065918e+00,1.844236016273498535e+00
2.255728960037231445e+00,2.255469799041748047e+00,2.255210638046264648e+00,2.254951477050781250e+00,2.254692554473876953e+00,2.254433631896972656e+00,2.254174947738647461e+00,2.253916025161743164e+00,2.253657341003417969e+00,2.253398656845092773e+00,2.253139972686767578e+00,2.252881526947021484e+00,2.252623081207275391e+00,2.252364397048950195e+00,2.252106189727783203e+00,2.251847743988037109e+00,2.251589536666870117e+00,2.251331329345703125e+00,2.251073360443115234e+00,2.250815153121948242e+00,2.250556945800781250e+00,2.250299215316772461e+00,2.250041246414184570e+00,2.249783515930175781e+00,2.249525547027587891e+00,2.249268054962158203e+00,2.249010562896728516e+00,2.248752832412719727e+00,2.248495340347290039e+00,2.248237848281860352e+00,2.247980356216430664e+00,2.247723102569580078e+00,2.247465848922729492e+00,2.247208595275878906e+00,2.246951341629028320e+00,2.246694326400756836e+00,2.088841915130615234e+00,2.071905136108398438e+00,2.076276779174804688e+00,2.245666503906250000e+00,2.245409488677978516e+00,1.970543742179870605e+00,1.929828166961669922e+00,1.941741943359375000e+00,2.244383096694946289e+00,2.244126558303833008e+00,2.243870019912719727e+00,2.243613481521606445e+00,2.243357181549072266e+00,2.243100881576538086e+00,2.242844820022583008e+00,2.242588520050048828e+00,2.242332458496093750e+00,2.242076396942138672e+00,2.241820335388183594e+00,2.241564512252807617e+00,2.241308450698852539e+00,2.241052627563476562e+00,2.240796804428100586e+00,2.240541219711303711e+00,2.240285634994506836e+00,2.240030050277709961e+00,2.239774465560913086e+00,2.239519119262695312e+00,2.239263772964477539e+00,2.239008426666259766e+00,2.238753080368041992e+00,2.238497734069824219e+00,2.223327636718750000e+00,2.182545423507690430e+00,2.143232345581054688e+00,2.105310440063476562e+00,2.068707227706909180e+00,2.033355236053466797e+00,1.999190807342529297e+00,1.966155886650085449e+00,1.934194684028625488e+00,1.903256177902221680e+00,1.873291492462158203e+00,1.844255805015563965e+00
1.988588929176330566e+00,1.988387584686279297e+00,1.988186240196228027e+00,1.987984776496887207e+00,1.987783670425415039e+00,1.987582325935363770e+00,1.987381219863891602e+00,1.987179994583129883e+00,1.986978769302368164e+00,1.986777782440185547e+00,1.986576676368713379e+00,1.986375808715820312e+00,1.986174702644348145e+00,1.985973715782165527e+00,1.985772967338562012e+00,1.985572099685668945e+00,1.985371351242065430e+00,1.985170602798461914e+00,1.984969973564147949e+00,1.984769225120544434e+00,1.984568476676940918e+00,1.984367966651916504e+00,1.984167337417602539e+00,1.983966946601867676e+00,1.983766436576843262e+00,1.983565807342529297e+00,1.983365535736083984e+00,1.983165144920349121e+00,1.982964992523193359e+00,1.982764601707458496e+00,1.982564568519592285e+00,1.982364177703857422e+00,1.982164025306701660e+00,1.981963992118835449e+00,1.981763839721679688e+00,1.981563925743103027e+00,1.981363892555236816e+00,1.981163859367370605e+00,1.980964064598083496e+00,1.980764031410217285e+00,1.980564355850219727e+00,1.980364441871643066e+00,1.980164647102355957e+00,1.979965090751647949e+00,1.979765295982360840e+00,1.979565858840942383e+00,1.979366183280944824e+00,1.979166746139526367e+00,1.978967070579528809e+00,1.978767514228820801e+00,1.978568315505981445e+00,1.978368759155273438e+00,1.978169560432434082e+00,1.977970123291015625e+00,1.977770805358886719e+00,1.977571725845336914e+00,1.977372407913208008e+00,1.977173447608947754e+00,1.976974248886108398e+00,1.976775288581848145e+00,1.976576209068298340e+00,1.976377010345458984e+00,1.976178288459777832e+00,1.975979208946228027e+00,1.975780487060546875e+00,1.975581645965576172e+00,1.975382685661315918e+00,1.975184082984924316e+00,1.974985361099243164e+00,1.974786758422851562e+00,1.974588036537170410e+00,1.974389553070068359e+00,1.974190950393676758e+00,1.973992347717285156e+00,1.973793983459472656e+00,1.966178536415100098e+00,1.934216737747192383e+00,1.903277277946472168e+00,1.873312234878540039e+00,1.844275951385498047e+00
1.778022527694702148e+00,1.777861595153808594e+00,1.777700543403625488e+00,1.777539491653442383e+00,1.777378678321838379e+00,1.777217745780944824e+00,1.777056932449340820e+00,1.776895999908447266e+00,1.776735186576843262e+00,1.776574492454528809e+00,1.776413679122924805e+00,1.776252985000610352e+00,1.776092290878295898e+00,1.775931477546691895e+00,1.775771021842956543e+00,1.775610327720642090e+00,1.775449872016906738e+00,1.775289177894592285e+00,1.775128841400146484e+00,1.774968266487121582e+00,1.774807691574096680e+00,1.774647355079650879e+00,1.774486899375915527e+00,1.774326562881469727e+00,1.774166226387023926e+00,1.774005770683288574e+00,1.773845553398132324e+00,1.773685216903686523e+00,1.773525118827819824e+00,1.773364901542663574e+00,1.773204803466796875e+00,1.773044586181640625e+00,1.772884368896484375e+00,1.772724390029907227e+00,1.772564291954040527e+00,1.772404313087463379e+00,1.772244215011596680e+00,1.772084236145019531e+00,1.771924376487731934e+00,1.771764397621154785e+00,1.771604657173156738e+00,1.771444678306579590e+00,1.771284699440002441e+00,1.771125078201293945e+00,1.770965218544006348e+00,1.770805597305297852e+00,1.770645737648010254e+00,1.770486235618591309e+00,1.770326495170593262e+00,1.770166754722595215e+00,1.770007252693176270e+00,1.769847631454467773e+00,1.769688248634338379e+00,1.769528627395629883e+00,1.769369006156921387e+00,1.769209742546081543e+00,1.769050240516662598e+00,1.768890857696533203e+00,1.768731474876403809e+00,1.768572211265563965e+00,1.768412828445434570e+00,1.768253445625305176e+00,1.768094301223754883e+00,1.767935037612915039e+00,1.767776012420654297e+00,1.767616748809814453e+00,1.767457485198974609e+00,1.767298460006713867e+00,1.767139315605163574e+00,1.766980409622192383e+00,1.766821265220642090e+00,1.766662359237670898e+00,1.766503334045410156e+00,1.766344308853149414e+00,1.766185522079467773e+00,1.766026616096496582e+00,1.765867829322814941e+00,1.765708923339843750e+00,1.765550136566162109e+00,1.765391469001770020e+00
1.607779026031494141e+00,1.607647538185119629e+00,1.607515811920166016e+00,1.607384085655212402e+00,1.607252597808837891e+00,1.607120990753173828e+00,1.606989502906799316e+00,1.606857895851135254e+00,1.606726288795471191e+00,1.606594920158386230e+00,1.606463432312011719e+00,1.606332063674926758e+00,1.606200575828552246e+00,1.606069087982177734e+00,1.605937838554382324e+00,1.605806350708007812e+00,1.605675101280212402e+00,1.605543732643127441e+00,1.605412602424621582e+00,1.605281233787536621e+00,1.605149865150451660e+00,1.605018734931945801e+00,1.604887485504150391e+00,1.604756355285644531e+00,1.604625225067138672e+00,1.604493975639343262e+00,1.604362964630126953e+00,1.604231715202331543e+00,1.604100823402404785e+00,1.603969693183898926e+00,1.603838682174682617e+00,1.603707671165466309e+00,1.603576540946960449e+00,1.603445649147033691e+00,1.603314638137817383e+00,1.603183865547180176e+00,1.603052854537963867e+00,1.602921962738037109e+00,1.602791190147399902e+00,1.602660179138183594e+00,1.602529525756835938e+00,1.602398633956909180e+00,1.602267742156982422e+00,1.602137088775634766e+00,1.602006316184997559e+00,1.601875662803649902e+00,1.601744890213012695e+00,1.601614356040954590e+00,1.601483702659606934e+00,1.601352930068969727e+00,1.601222395896911621e+00,1.601091742515563965e+00,1.600961327552795410e+00,1.600830674171447754e+00,1.600700139999389648e+00,1.600569725036621094e+00,1.600439190864562988e+00,1.600308775901794434e+00,1.600178241729736328e+00,1.600047945976257324e+00,1.599917411804199219e+00,1.599786996841430664e+00,1.599656701087951660e+00,1.599526405334472656e+00,1.599396109580993652e+00,1.599265813827514648e+00,1.599135518074035645e+00,1.599005341529846191e+00,1.598875045776367188e+00,1.598744869232177734e+00,1.598614692687988281e+00,1.598484635353088379e+00,1.598354339599609375e+00,1.598224163055419922e+00,1.598094224929809570e+00,1.597964048385620117e+00,1.597834110260009766e+00,1.597703933715820312e+00,1.597573876380920410e+00,1.597443938255310059e+00
1.467288017272949219e+00,1.467178463935852051e+00,1.467068791389465332e+00,1.466959118843078613e+00,1.466849565505981445e+00,1.466739892959594727e+00,1.466630339622497559e+00,1.466520786285400391e+00,1.466411232948303223e+00,1.466301679611206055e+00,1.466192126274108887e+00,1.466082692146301270e+00,1.465973258018493652e+00,1.465863704681396484e+00,1.465754389762878418e+00,1.465644836425781250e+00,1.465535521507263184e+00,1.465426087379455566e+00,1.465316772460937500e+00,1.465207338333129883e+00,1.465097904205322266e+00,1.464988708496093750e+00,1.464879274368286133e+00,1.464770078659057617e+00,1.464660763740539551e+00,1.464551448822021484e+00,1.464442253112792969e+00,1.464332938194274902e+00,1.464223861694335938e+00,1.464114546775817871e+00,1.464005470275878906e+00,1.463896274566650391e+00,1.463787078857421875e+00,1.463678002357482910e+00,1.463568806648254395e+00,1.463459849357604980e+00,1.463350653648376465e+00,1.463241577148437500e+00,1.463132619857788086e+00,1.463023424148559570e+00,1.462914586067199707e+00,1.462805509567260742e+00,1.462696433067321777e+00,1.462587594985961914e+00,1.462478518486022949e+00,1.462369680404663086e+00,1.462260723114013672e+00,1.462151885032653809e+00,1.462042927742004395e+00,1.461933970451354980e+00,1.461825251579284668e+00,1.461716294288635254e+00,1.461607575416564941e+00,1.461498737335205078e+00,1.461389899253845215e+00,1.461281180381774902e+00,1.461172342300415039e+00,1.461063742637634277e+00,1.460954904556274414e+00,1.460846304893493652e+00,1.460737586021423340e+00,1.460628867149353027e+00,1.460520267486572266e+00,1.460411548614501953e+00,1.460302948951721191e+00,1.460194349288940430e+00,1.460085630416870117e+00,1.459977149963378906e+00,1.459868550300598145e+00,1.459760069847106934e+00,1.459651470184326172e+00,1.459542989730834961e+00,1.459434509277343750e+00,1.459325909614562988e+00,1.459217548370361328e+00,1.459109067916870117e+00,1.459000706672668457e+00,1.458892226219177246e+00,1.458783745765686035e+00,1.458675384521484375e+00
1.349376678466796875e+00,1.349284052848815918e+00,1.349191188812255859e+00,1.349098443984985352e+00,1.349005818367004395e+00,1.348913073539733887e+00,1.348820447921752930e+00,1.348727822303771973e+00,1.348635077476501465e+00,1.348542451858520508e+00,1.348449826240539551e+00,1.348357319831848145e+00,1.348264575004577637e+00,1.348171949386596680e+00,1.348079442977905273e+00,1.347986936569213867e+00,1.347894430160522461e+00,1.347801804542541504e+00,1.347709298133850098e+00,1.347616791725158691e+00,1.347524285316467285e+00,1.347431778907775879e+00,1.347339391708374023e+00,1.347247004508972168e+00,1.347154498100280762e+00,1.347061991691589355e+00,1.346969604492187500e+00,1.346877217292785645e+00,1.346784830093383789e+00,1.346692442893981934e+00,1.346600055694580078e+00,1.346507668495178223e+00,1.346415281295776367e+00,1.346323013305664062e+00,1.346230626106262207e+00,1.346138477325439453e+00,1.346046090126037598e+00,1.345953702926635742e+00,1.345861554145812988e+00,1.345769286155700684e+00,1.345677018165588379e+00,1.345584750175476074e+00,1.345492482185363770e+00,1.345400333404541016e+00,1.345308065414428711e+00,1.345216035842895508e+00,1.345123767852783203e+00,1.345031738281250000e+00,1.344939470291137695e+00,1.344847321510314941e+00,1.344755291938781738e+00,1.344663143157958984e+00,1.344571113586425781e+00,1.344478964805603027e+00,1.344386816024780273e+00,1.344294905662536621e+00,1.344202756881713867e+00,1.344110846519470215e+00,1.344018697738647461e+00,1.343926787376403809e+00,1.343834757804870605e+00,1.343742728233337402e+00,1.343650817871093750e+00,1.343558788299560547e+00,1.343466877937316895e+00,1.343374967575073242e+00,1.343282938003540039e+00,1.343191146850585938e+00,1.343099236488342285e+00,1.343007326126098633e+00,1.342915415763854980e+00,1.342823624610900879e+00,1.342731833457946777e+00,1.342639923095703125e+00,1.342548131942749023e+00,1.342456340789794922e+00,1.342364549636840820e+00,1.342272758483886719e+00,1.342180967330932617e+00,1.342089295387268066e+00
1.249006509780883789e+00,1.248927116394042969e+00,1.248847603797912598e+00,1.248768091201782227e+00,1.248688817024230957e+00,1.248609304428100586e+00,1.248529911041259766e+00,1.248450517654418945e+00,1.248371124267578125e+00,1.248291730880737305e+00,1.248212337493896484e+00,1.248133063316345215e+00,1.248053669929504395e+00,1.247974276542663574e+00,1.247895002365112305e+00,1.247815728187561035e+00,1.247736454010009766e+00,1.247657060623168945e+00,1.247577905654907227e+00,1.247498512268066406e+00,1.247419238090515137e+00,1.247340083122253418e+00,1.247260689735412598e+00,1.247181534767150879e+00,1.247102260589599609e+00,1.247022986412048340e+00,1.246943831443786621e+00,1.246864676475524902e+00,1.246785521507263184e+00,1.246706366539001465e+00,1.246627211570739746e+00,1.246548056602478027e+00,1.246468782424926758e+00,1.246389746665954590e+00,1.246310591697692871e+00,1.246231555938720703e+00,1.246152400970458984e+00,1.246073246002197266e+00,1.245994210243225098e+00,1.245915055274963379e+00,1.245836019515991211e+00,1.245756983757019043e+00,1.245677947998046875e+00,1.245598912239074707e+00,1.245519876480102539e+00,1.245440840721130371e+00,1.245361804962158203e+00,1.245282888412475586e+00,1.245203852653503418e+00,1.245124816894531250e+00,1.245045900344848633e+00,1.244966983795166016e+00,1.244888067245483398e+00,1.244809150695800781e+00,1.244730114936828613e+00,1.244651317596435547e+00,1.244572281837463379e+00,1.244493484497070312e+00,1.244414567947387695e+00,1.244335770606994629e+00,1.244256854057312012e+00,1.244177937507629395e+00,1.244099140167236328e+00,1.244020342826843262e+00,1.243941545486450195e+00,1.243862628936767578e+00,1.243783831596374512e+00,1.243705034255981445e+00,1.243626236915588379e+00,1.243547558784484863e+00,1.243468761444091797e+00,1.243390083312988281e+00,1.243311285972595215e+00,1.243232488632202148e+00,1.243153810501098633e+00,1.243075013160705566e+00,1.242996454238891602e+00,1.242917656898498535e+00,1.242838978767395020e+00,1.242760300636291504e+00
1.162534117698669434e+00,1.162465333938598633e+00,1.162396550178527832e+00,1.162327647209167480e+00,1.162258863449096680e+00,1.162190079689025879e+00,1.162121295928955078e+00,1.162052512168884277e+00,1.161983728408813477e+00,1.161914944648742676e+00,1.161846160888671875e+00,1.161777496337890625e+00,1.161708712577819824e+00,1.161639928817749023e+00,1.161571145057678223e+00,1.161502480506896973e+00,1.161433815956115723e+00,1.161365032196044922e+00,1.161296367645263672e+00,1.161227703094482422e+00,1.161158919334411621e+00,1.161090373992919922e+00,1.161021590232849121e+00,1.160953044891357422e+00,1.160884380340576172e+00,1.160815596580505371e+00,1.160747051239013672e+00,1.160678386688232422e+00,1.160609841346740723e+00,1.160541176795959473e+00,1.160472631454467773e+00,1.160403966903686523e+00,1.160335421562194824e+00,1.160266876220703125e+00,1.160198211669921875e+00,1.160129785537719727e+00,1.160061120986938477e+00,1.159992575645446777e+00,1.159924030303955078e+00,1.159855484962463379e+00,1.159787058830261230e+00,1.159718513488769531e+00,1.159649968147277832e+00,1.159581542015075684e+00,1.159512996673583984e+00,1.159444570541381836e+00,1.159376025199890137e+00,1.159307599067687988e+00,1.159239172935485840e+00,1.159170627593994141e+00,1.159102201461791992e+00,1.159033775329589844e+00,1.158965468406677246e+00,1.158896923065185547e+00,1.158828496932983398e+00,1.158760190010070801e+00,1.158691763877868652e+00,1.158623456954956055e+00,1.158555030822753906e+00,1.158486723899841309e+00,1.158418297767639160e+00,1.158349871635437012e+00,1.158281683921813965e+00,1.158213257789611816e+00,1.158144950866699219e+00,1.158076643943786621e+00,1.158008337020874023e+00,1.157940030097961426e+00,1.157871723175048828e+00,1.157803416252136230e+00,1.157735109329223633e+00,1.157666921615600586e+00,1.157598614692687988e+00,1.157530307769775391e+00,1.157462120056152344e+00,1.157393932342529297e+00,1.157325744628906250e+00,1.157257437705993652e+00,1.157189249992370605e+00,1.157121062278747559e+00
1.087260007858276367e+00,1.087199807167053223e+00,1.087139606475830078e+00,1.087079286575317383e+00,1.087019205093383789e+00,1.086959004402160645e+00,1.086898803710937500e+00,1.086838603019714355e+00,1.086778402328491211e+00,1.086718320846557617e+00,1.086658120155334473e+00,1.086598038673400879e+00,1.086537837982177734e+00,1.086477756500244141e+00,1.086417675018310547e+00,1.086357474327087402e+00,1.086297392845153809e+00,1.086237311363220215e+00,1.086177229881286621e+00,1.086117148399353027e+00,1.086056947708129883e+00,1.085996985435485840e+00,1.085936903953552246e+00,1.085876822471618652e+00,1.085816740989685059e+00,1.085756659507751465e+00,1.085696697235107422e+00,1.085636615753173828e+00,1.085576653480529785e+00,1.085516571998596191e+00,1.085456609725952148e+00,1.085396528244018555e+00,1.085336446762084961e+00,1.085276603698730469e+00,1.085216522216796875e+00,1.085156559944152832e+00,1.085096597671508789e+00,1.085036635398864746e+00,1.084976673126220703e+00,1.084916710853576660e+00,1.084856748580932617e+00,1.084796786308288574e+00,1.084736824035644531e+00,1.084676861763000488e+00,1.084616899490356445e+00,1.084557056427001953e+00,1.084497094154357910e+00,1.084437251091003418e+00,1.084377288818359375e+00,1.084317445755004883e+00,1.084257602691650391e+00,1.084197640419006348e+00,1.084137797355651855e+00,1.084077954292297363e+00,1.084018111228942871e+00,1.083958268165588379e+00,1.083898425102233887e+00,1.083838582038879395e+00,1.083778738975524902e+00,1.083718895912170410e+00,1.083659052848815918e+00,1.083599209785461426e+00,1.083539485931396484e+00,1.083479642868041992e+00,1.083419919013977051e+00,1.083360075950622559e+00,1.083300232887268066e+00,1.083240509033203125e+00,1.083180785179138184e+00,1.083121061325073242e+00,1.083061218261718750e+00,1.083001494407653809e+00,1.082941770553588867e+00,1.082882046699523926e+00,1.082822322845458984e+00,1.082762598991394043e+00,1.082702875137329102e+00,1.082643151283264160e+00,1.082583427429199219e+00,1.082523822784423828e+00
1.021141052246093750e+00,1.021087884902954102e+00,1.021034836769104004e+00,1.020981669425964355e+00,1.020928621292114258e+00,1.020875453948974609e+00,1.020822405815124512e+00,1.020769357681274414e+00,1.020716309547424316e+00,1.020663261413574219e+00,1.020610094070434570e+00,1.020557165145874023e+00,1.020503997802734375e+00,1.020450949668884277e+00,1.020398020744323730e+00,1.020344853401184082e+00,1.020291924476623535e+00,1.020238876342773438e+00,1.020185947418212891e+00,1.020132899284362793e+00,1.020079851150512695e+00,1.020026803016662598e+00,1.019973874092102051e+00,1.019920825958251953e+00,1.019867897033691406e+00,1.019814848899841309e+00,1.019761919975280762e+00,1.019708991050720215e+00,1.019656062126159668e+00,1.019603013992309570e+00,1.019550085067749023e+00,1.019497156143188477e+00,1.019444227218627930e+00,1.019391298294067383e+00,1.019338369369506836e+00,1.019285440444946289e+00,1.019232511520385742e+00,1.019179582595825195e+00,1.019126653671264648e+00,1.019073724746704102e+00,1.019020915031433105e+00,1.018967986106872559e+00,1.018915057182312012e+00,1.018862247467041016e+00,1.018809318542480469e+00,1.018756508827209473e+00,1.018703579902648926e+00,1.018650770187377930e+00,1.018597960472106934e+00,1.018545031547546387e+00,1.018492221832275391e+00,1.018439412117004395e+00,1.018386602401733398e+00,1.018333792686462402e+00,1.018280863761901855e+00,1.018228054046630859e+00,1.018175244331359863e+00,1.018122553825378418e+00,1.018069744110107422e+00,1.018016934394836426e+00,1.017964124679565430e+00,1.017911314964294434e+00,1.017858624458312988e+00,1.017805814743041992e+00,1.017753005027770996e+00,1.017700314521789551e+00,1.017647504806518555e+00,1.017594814300537109e+00,1.017542004585266113e+00,1.017489314079284668e+00,1.017436504364013672e+00,1.017383813858032227e+00,1.017331123352050781e+00,1.017278432846069336e+00,1.017225742340087891e+00,1.017172932624816895e+00,1.017120361328125000e+00,1.017067551612854004e+00,1.017014861106872559e+00,1.016962170600891113e+00
9.626028537750244141e-01,9.625556468963623047e-01,9.625083804130554199e-01,9.624612331390380859e-01,9.624140858650207520e-01,9.623668193817138672e-01,9.623196721076965332e-01,9.622725248336791992e-01,9.622253179550170898e-01,9.621781706809997559e-01,9.621310830116271973e-01,9.620839357376098633e-01,9.620367288589477539e-01,9.619895815849304199e-01,9.619424939155578613e-01,9.618952870368957520e-01,9.618481993675231934e-01,9.618011116981506348e-01,9.617540240287780762e-01,9.617068171501159668e-01,9.616597890853881836e-01,9.616127014160156250e-01,9.615654945373535156e-01,9.615184664726257324e-01,9.614713788032531738e-01,9.614242315292358398e-01,9.613772034645080566e-01,9.613301157951354980e-01,9.612830877304077148e-01,9.612359404563903809e-01,9.611889123916625977e-01,9.611418843269348145e-01,9.610947966575622559e-01,9.610477685928344727e-01,9.610007405281066895e-01,9.609537124633789062e-01,9.609066247940063477e-01,9.608596563339233398e-01,9.608126282691955566e-01,9.607655405998229980e-01,9.607185721397399902e-01,9.606715440750122070e-01,9.606245160102844238e-01,9.605775475502014160e-01,9.605305790901184082e-01,9.604836106300354004e-01,9.604365229606628418e-01,9.603895545005798340e-01,9.603426456451416016e-01,9.602955579757690430e-01,9.602486491203308105e-01,9.602016806602478027e-01,9.601547718048095703e-01,9.601077437400817871e-01,9.600608348846435547e-01,9.600139260292053223e-01,9.599668979644775391e-01,9.599199891090393066e-01,9.598730802536010742e-01,9.598261713981628418e-01,9.597791433334350586e-01,9.597322940826416016e-01,9.596853852272033691e-01,9.596384167671203613e-01,9.595915079116821289e-01,9.595446586608886719e-01,9.594976902008056641e-01,9.594508409500122070e-01,9.594039916992187500e-01,9.593571424484252930e-01,9.593101739883422852e-01,9.592633247375488281e-01,9.592164754867553711e-01,9.591695666313171387e-01,9.591227173805236816e-01,9.590758681297302246e-01,9.590290784835815430e-01,9.589821696281433105e-01,9.589353203773498535e-01,9.588885307312011719e-01
9.104121923446655273e-01,9.103699922561645508e-01,9.103277921676635742e-01,9.102855324745178223e-01,9.102433323860168457e-01,9.102011919021606445e-01,9.101589918136596680e-01,9.101167321205139160e-01,9.100745916366577148e-01,9.100324511528015137e-01,9.099901914596557617e-01,9.099480509757995605e-01,9.099059104919433594e-01,9.098636507987976074e-01,9.098215103149414062e-01,9.097793698310852051e-01,9.097372293472290039e-01,9.096950292587280273e-01,9.096528887748718262e-01,9.096108078956604004e-01,9.095685482025146484e-01,9.095264673233032227e-01,9.094843268394470215e-01,9.094422459602355957e-01,9.094000458717346191e-01,9.093579649925231934e-01,9.093158841133117676e-01,9.092736840248107910e-01,9.092316031455993652e-01,9.091895222663879395e-01,9.091474413871765137e-01,9.091052412986755371e-01,9.090632200241088867e-01,9.090211391448974609e-01,9.089789986610412598e-01,9.089369177818298340e-01,9.088948965072631836e-01,9.088527560234069824e-01,9.088106751441955566e-01,9.087686538696289062e-01,9.087266325950622559e-01,9.086844921112060547e-01,9.086424708366394043e-01,9.086004495620727539e-01,9.085583090782165527e-01,9.085162878036499023e-01,9.084742665290832520e-01,9.084322452545166016e-01,9.083901643753051758e-01,9.083481431007385254e-01,9.083061814308166504e-01,9.082641005516052246e-01,9.082220792770385742e-01,9.081801176071166992e-01,9.081380367279052734e-01,9.080960750579833984e-01,9.080540537834167480e-01,9.080120921134948730e-01,9.079700708389282227e-01,9.079280495643615723e-01,9.078861474990844727e-01,9.078440666198730469e-01,9.078021049499511719e-01,9.077601432800292969e-01,9.077182412147521973e-01,9.076761603355407715e-01,9.076342582702636719e-01,9.075922966003417969e-01,9.075502753257751465e-01,9.075083732604980469e-01,9.074664711952209473e-01,9.074245095252990723e-01,9.073825478553771973e-01,9.073406457901000977e-01,9.072987437248229980e-01,9.072567224502563477e-01,9.072148203849792480e-01,9.071729183197021484e-01,9.071309566497802734e-01,9.070890545845031738e-01
8.635899424552917480e-01,8.635519742965698242e-01,8.635139465332031250e-01,8.634759783744812012e-01,8.634380698204040527e-01,8.633999824523925781e-01,8.633620738983154297e-01,8.633241057395935059e-01,8.632860779762268066e-01,8.632481694221496582e-01,8.632102608680725098e-01,8.631722927093505859e-01,8.631342649459838867e-01,8.630963563919067383e-01,8.630584478378295898e-01,8.630204796791076660e-01,8.629825711250305176e-01,8.629446625709533691e-01,8.629067540168762207e-01,8.628687262535095215e-01,8.628308176994323730e-01,8.627929687500000000e-01,8.627549409866333008e-01,8.627170920372009277e-01,8.626791834831237793e-01,8.626412153244018555e-01,8.626033663749694824e-01,8.625654578208923340e-01,8.625276088714599609e-01,8.624896407127380371e-01,8.624517917633056641e-01,8.624139428138732910e-01,8.623759746551513672e-01,8.623381257057189941e-01,8.623002767562866211e-01,8.622624278068542480e-01,8.622245192527770996e-01,8.621866703033447266e-01,8.621488213539123535e-01,8.621109127998352051e-01,8.620730638504028320e-01,8.620352149009704590e-01,8.619973063468933105e-01,8.619595170021057129e-01,8.619216680526733398e-01,8.618838787078857422e-01,8.618459701538085938e-01,8.618081808090209961e-01,8.617703318595886230e-01,8.617324829101562500e-01,8.616946935653686523e-01,8.616569042205810547e-01,8.616190552711486816e-01,8.615812063217163086e-01,8.615434169769287109e-01,8.615056276321411133e-01,8.614677786827087402e-01,8.614299893379211426e-01,8.613922595977783203e-01,8.613544702529907227e-01,8.613166213035583496e-01,8.612788319587707520e-01,8.612411022186279297e-01,8.612032532691955566e-01,8.611655235290527344e-01,8.611277341842651367e-01,8.610899448394775391e-01,8.610521554946899414e-01,8.610144257545471191e-01,8.609766960144042969e-01,8.609389066696166992e-01,8.609011769294738770e-01,8.608634471893310547e-01,8.608255982398986816e-01,8.607879281044006348e-01,8.607501983642578125e-01,8.607124686241149902e-01,8.606746792793273926e-01,8.606369495391845703e-01,8.605992794036865234e-01
8.213481903076171875e-01,8.213138580322265625e-01,8.212795257568359375e-01,8.212450742721557617e-01,8.212107419967651367e-01,8.211764097213745117e-01,8.211421370506286621e-01,8.211076855659484863e-01,8.210734128952026367e-01,8.210390806198120117e-01,8.210046887397766113e-01,8.209703564643859863e-01,8.209360837936401367e-01,8.209016919136047363e-01,8.208674192428588867e-01,8.208330869674682617e-01,8.207988142967224121e-01,8.207644224166870117e-01,8.207301497459411621e-01,8.206958770751953125e-01,8.206614851951599121e-01,8.206272125244140625e-01,8.205929398536682129e-01,8.205586671829223633e-01,8.205243349075317383e-01,8.204900622367858887e-01,8.204557895660400391e-01,8.204214572906494141e-01,8.203871846199035645e-01,8.203529119491577148e-01,8.203186392784118652e-01,8.202843070030212402e-01,8.202500939369201660e-01,8.202158212661743164e-01,8.201814889907836914e-01,8.201472759246826172e-01,8.201130032539367676e-01,8.200787305831909180e-01,8.200444579124450684e-01,8.200102448463439941e-01,8.199760317802429199e-01,8.199416995048522949e-01,8.199074864387512207e-01,8.198732733726501465e-01,8.198390007019042969e-01,8.198047876358032227e-01,8.197705745697021484e-01,8.197363615036010742e-01,8.197020888328552246e-01,8.196678757667541504e-01,8.196336627006530762e-01,8.195993900299072266e-01,8.195652365684509277e-01,8.195310235023498535e-01,8.194967508316040039e-01,8.194625973701477051e-01,8.194283843040466309e-01,8.193942308425903320e-01,8.193599581718444824e-01,8.193258047103881836e-01,8.192916512489318848e-01,8.192573785781860352e-01,8.192232251167297363e-01,8.191890716552734375e-01,8.191549181938171387e-01,8.191206455230712891e-01,8.190864920616149902e-01,8.190523386001586914e-01,8.190181255340576172e-01,8.189839720726013184e-01,8.189498782157897949e-01,8.189157247543334961e-01,8.188815116882324219e-01,8.188473582267761230e-01,8.188132047653198242e-01,8.187790513038635254e-01,8.187448978424072266e-01,8.187108039855957031e-01,8.186765909194946289e-01,8.186424970626831055e-01
7.830462455749511719e-01,7.830150127410888672e-01,7.829837203025817871e-01,7.829525470733642578e-01,7.829213142395019531e-01,7.828900218009948730e-01,7.828588485717773438e-01,7.828276753425598145e-01,7.827963829040527344e-01,7.827652096748352051e-01,7.827340364456176758e-01,7.827028036117553711e-01,7.826715707778930664e-01,7.826403975486755371e-01,7.826092243194580078e-01,7.825779318809509277e-01,7.825467586517333984e-01,7.825156450271606445e-01,7.824844717979431152e-01,7.824531793594360352e-01,7.824220657348632812e-01,7.823908925056457520e-01,7.823596596717834473e-01,7.823284864425659180e-01,7.822973728179931641e-01,7.822661399841308594e-01,7.822349667549133301e-01,7.822038531303405762e-01,7.821726799011230469e-01,7.821414470672607422e-01,7.821103334426879883e-01,7.820792198181152344e-01,7.820479869842529297e-01,7.820168733596801758e-01,7.819857001304626465e-01,7.819545865058898926e-01,7.819234132766723633e-01,7.818922996520996094e-01,7.818611860275268555e-01,7.818299531936645508e-01,7.817988395690917969e-01,7.817677259445190430e-01,7.817365527153015137e-01,7.817054390907287598e-01,7.816743850708007812e-01,7.816432714462280273e-01,7.816120982170104980e-01,7.815809845924377441e-01,7.815498709678649902e-01,7.815187573432922363e-01,7.814876437187194824e-01,7.814565300941467285e-01,7.814254760742187500e-01,7.813943028450012207e-01,7.813632488250732422e-01,7.813321948051452637e-01,7.813010215759277344e-01,7.812699675559997559e-01,7.812388539314270020e-01,7.812077999114990234e-01,7.811766862869262695e-01,7.811456322669982910e-01,7.811145782470703125e-01,7.810834050178527832e-01,7.810523509979248047e-01,7.810212969779968262e-01,7.809901833534240723e-01,7.809591293334960938e-01,7.809281349182128906e-01,7.808970808982849121e-01,7.808659672737121582e-01,7.808349132537841797e-01,7.808038592338562012e-01,7.807728052139282227e-01,7.807417511940002441e-01,7.807106971740722656e-01,7.806797027587890625e-01,7.806485891342163086e-01,7.806175947189331055e-01,7.805865406990051270e-01
7.481572628021240234e-01,7.481287717819213867e-01,7.481002807617187500e-01,7.480717301368713379e-01,7.480432987213134766e-01,7.480148077011108398e-01,7.479863166809082031e-01,7.479577660560607910e-01,7.479292750358581543e-01,7.479008436203002930e-01,7.478722929954528809e-01,7.478438019752502441e-01,7.478153705596923828e-01,7.477868199348449707e-01,7.477583289146423340e-01,7.477298974990844727e-01,7.477014064788818359e-01,7.476729154586791992e-01,7.476444244384765625e-01,7.476159930229187012e-01,7.475875020027160645e-01,7.475590109825134277e-01,7.475305795669555664e-01,7.475021481513977051e-01,7.474736571311950684e-01,7.474452257156372070e-01,7.474167346954345703e-01,7.473882436752319336e-01,7.473598122596740723e-01,7.473313808441162109e-01,7.473029494285583496e-01,7.472744584083557129e-01,7.472460269927978516e-01,7.472176551818847656e-01,7.471891641616821289e-01,7.471607327461242676e-01,7.471323013305664062e-01,7.471038103103637695e-01,7.470754384994506836e-01,7.470470070838928223e-01,7.470185756683349609e-01,7.469901442527770996e-01,7.469617128372192383e-01,7.469333410263061523e-01,7.469048500061035156e-01,7.468764781951904297e-01,7.468481063842773438e-01,7.468196749687194824e-01,7.467912435531616211e-01,7.467628717422485352e-01,7.467344403266906738e-01,7.467060089111328125e-01,7.466776371002197266e-01,7.466492652893066406e-01,7.466208338737487793e-01,7.465924024581909180e-01,7.465640306472778320e-01,7.465356588363647461e-01,7.465072274208068848e-01,7.464789152145385742e-01,7.464505434036254883e-01,7.464221119880676270e-01,7.463937401771545410e-01,7.463653683662414551e-01,7.463369965553283691e-01,7.463086247444152832e-01,7.462802529335021973e-01,7.462518811225891113e-01,7.462235093116760254e-01,7.461951375007629395e-01,7.461668252944946289e-01,7.461384534835815430e-01,7.461100816726684570e-01,7.460817098617553711e-01,7.460533976554870605e-01,7.460250258445739746e-01,7.459966540336608887e-01,7.459683418273925781e-01,7.459399700164794922e-01,7.459116578102111816e-01
7.162447571754455566e-01,7.162186503410339355e-01,7.161924839019775391e-01,7.161663770675659180e-01,7.161402702331542969e-01,7.161141037940979004e-01,7.160879969596862793e-01,7.160618901252746582e-01,7.160357832908630371e-01,7.160096764564514160e-01,7.159835696220397949e-01,7.159574627876281738e-01,7.159312963485717773e-01,7.159052491188049316e-01,7.158791422843933105e-01,7.158529758453369141e-01,7.158269286155700684e-01,7.158008217811584473e-01,7.157747745513916016e-01,7.157486081123352051e-01,7.157225608825683594e-01,7.156964540481567383e-01,7.156703472137451172e-01,7.156442403793334961e-01,7.156181931495666504e-01,7.155920863151550293e-01,7.155659794807434082e-01,7.155399322509765625e-01,7.155138850212097168e-01,7.154877781867980957e-01,7.154616713523864746e-01,7.154356241226196289e-01,7.154095172882080078e-01,7.153834700584411621e-01,7.153574228286743164e-01,7.153313755989074707e-01,7.153052687644958496e-01,7.152792215347290039e-01,7.152531743049621582e-01,7.152270674705505371e-01,7.152010202407836914e-01,7.151750326156616211e-01,7.151489257812500000e-01,7.151228785514831543e-01,7.150968313217163086e-01,7.150708436965942383e-01,7.150447368621826172e-01,7.150186896324157715e-01,7.149927020072937012e-01,7.149665951728820801e-01,7.149406075477600098e-01,7.149145603179931641e-01,7.148885726928710938e-01,7.148624658584594727e-01,7.148364782333374023e-01,7.148104906082153320e-01,7.147843837738037109e-01,7.147583961486816406e-01,7.147324085235595703e-01,7.147063612937927246e-01,7.146803140640258789e-01,7.146543264389038086e-01,7.146283388137817383e-01,7.146022915840148926e-01,7.145763039588928223e-01,7.145503163337707520e-01,7.145242691040039062e-01,7.144982814788818359e-01,7.144722938537597656e-01,7.144463062286376953e-01,7.144202589988708496e-01,7.143942713737487793e-01,7.143682837486267090e-01,7.143422365188598633e-01,7.143162488937377930e-01,7.142903208732604980e-01,7.142643332481384277e-01,7.142382860183715820e-01,7.142123579978942871e-01,7.141863703727722168e-01
6.869432926177978516e-01,6.869192719459533691e-01,6.868952512741088867e-01,6.868711709976196289e-01,6.868471503257751465e-01,6.868231892585754395e-01,6.867991685867309570e-01,6.867750883102416992e-01,6.867510676383972168e-01,6.867270469665527344e-01,6.867030262947082520e-01,6.866790056228637695e-01,6.866549849510192871e-01,6.866309642791748047e-01,6.866069436073303223e-01,6.865829825401306152e-01,6.865589618682861328e-01,6.865349411964416504e-01,6.865109205245971680e-01,6.864869594573974609e-01,6.864628791809082031e-01,6.864389181137084961e-01,6.864148974418640137e-01,6.863909363746643066e-01,6.863669157028198242e-01,6.863428950309753418e-01,6.863189339637756348e-01,6.862949132919311523e-01,6.862709522247314453e-01,6.862469911575317383e-01,6.862229704856872559e-01,6.861989498138427734e-01,6.861749887466430664e-01,6.861510276794433594e-01,6.861270070075988770e-01,6.861030459403991699e-01,6.860790848731994629e-01,6.860550642013549805e-01,6.860311031341552734e-01,6.860071420669555664e-01,6.859831809997558594e-01,6.859592199325561523e-01,6.859352588653564453e-01,6.859112977981567383e-01,6.858872771263122559e-01,6.858633756637573242e-01,6.858394145965576172e-01,6.858154535293579102e-01,6.857914924621582031e-01,6.857675313949584961e-01,6.857435703277587891e-01,6.857196092605590820e-01,6.856956481933593750e-01,6.856717467308044434e-01,6.856477260589599609e-01,6.856238245964050293e-01,6.855998635292053223e-01,6.855759620666503906e-01,6.855520009994506836e-01,6.855280399322509766e-01,6.855041384696960449e-01,6.854801774024963379e-01,6.854562759399414062e-01,6.854323148727416992e-01,6.854084134101867676e-01,6.853844523429870605e-01,6.853605508804321289e-01,6.853366494178771973e-01,6.853126883506774902e-01,6.852887868881225586e-01,6.852648854255676270e-01,6.852409839630126953e-01,6.852170228958129883e-01,6.851931214332580566e-01,6.851692199707031250e-01,6.851452589035034180e-01,6.851213574409484863e-01,6.850974559783935547e-01,6.850734949111938477e-01,6.850496530532836914e-01
6.599450707435607910e-01,6.599228978157043457e-01,6.599006652832031250e-01,6.598785519599914551e-01,6.598563790321350098e-01,6.598341464996337891e-01,6.598119735717773438e-01,6.597898602485656738e-01,6.597676277160644531e-01,6.597454547882080078e-01,6.597232818603515625e-01,6.597011685371398926e-01,6.596789360046386719e-01,6.596568226814270020e-01,6.596346497535705566e-01,6.596124768257141113e-01,6.595903038978576660e-01,6.595681905746459961e-01,6.595460176467895508e-01,6.595238447189331055e-01,6.595016717910766602e-01,6.594795584678649902e-01,6.594573855400085449e-01,6.594352126121520996e-01,6.594130992889404297e-01,6.593909263610839844e-01,6.593687534332275391e-01,6.593466401100158691e-01,6.593245267868041992e-01,6.593023538589477539e-01,6.592802405357360840e-01,6.592580676078796387e-01,6.592358946800231934e-01,6.592137813568115234e-01,6.591916680335998535e-01,6.591695547103881836e-01,6.591473817825317383e-01,6.591252684593200684e-01,6.591031551361083984e-01,6.590809822082519531e-01,6.590588688850402832e-01,6.590367555618286133e-01,6.590146422386169434e-01,6.589925289154052734e-01,6.589704155921936035e-01,6.589483022689819336e-01,6.589261293411254883e-01,6.589040756225585938e-01,6.588819622993469238e-01,6.588597893714904785e-01,6.588377356529235840e-01,6.588156223297119141e-01,6.587935090065002441e-01,6.587713956832885742e-01,6.587492823600769043e-01,6.587271690368652344e-01,6.587050557136535645e-01,6.586830019950866699e-01,6.586608886718750000e-01,6.586388349533081055e-01,6.586166620254516602e-01,6.585946083068847656e-01,6.585724949836730957e-01,6.585503816604614258e-01,6.585283279418945312e-01,6.585062146186828613e-01,6.584841012954711914e-01,6.584620475769042969e-01,6.584399938583374023e-01,6.584178805351257324e-01,6.583957672119140625e-01,6.583737134933471680e-01,6.583516597747802734e-01,6.583295464515686035e-01,6.583074927330017090e-01,6.582854390144348145e-01,6.582633852958679199e-01,6.582412719726562500e-01,6.582192182540893555e-01,6.581971645355224609e-01
6.349887251853942871e-01,6.349681615829467773e-01,6.349476575851440430e-01,6.349270939826965332e-01,6.349065899848937988e-01,6.348860859870910645e-01,6.348655223846435547e-01,6.348449587821960449e-01,6.348244547843933105e-01,6.348039507865905762e-01,6.347833871841430664e-01,6.347628831863403320e-01,6.347423791885375977e-01,6.347218155860900879e-01,6.347013115882873535e-01,6.346808075904846191e-01,6.346603035926818848e-01,6.346397399902343750e-01,6.346192359924316406e-01,6.345987319946289062e-01,6.345782279968261719e-01,6.345577239990234375e-01,6.345372200012207031e-01,6.345167160034179688e-01,6.344961524009704590e-01,6.344757080078125000e-01,6.344552040100097656e-01,6.344346404075622559e-01,6.344141960144042969e-01,6.343936920166015625e-01,6.343731880187988281e-01,6.343526840209960938e-01,6.343321800231933594e-01,6.343116760253906250e-01,6.342911720275878906e-01,6.342706680297851562e-01,6.342502236366271973e-01,6.342297196388244629e-01,6.342092156410217285e-01,6.341887712478637695e-01,6.341682672500610352e-01,6.341477632522583008e-01,6.341272592544555664e-01,6.341068148612976074e-01,6.340863108634948730e-01,6.340658664703369141e-01,6.340453624725341797e-01,6.340249180793762207e-01,6.340044140815734863e-01,6.339839696884155273e-01,6.339634656906127930e-01,6.339429616928100586e-01,6.339225172996520996e-01,6.339020729064941406e-01,6.338815689086914062e-01,6.338611245155334473e-01,6.338406801223754883e-01,6.338202357292175293e-01,6.337997317314147949e-01,6.337792873382568359e-01,6.337588429450988770e-01,6.337383389472961426e-01,6.337178945541381836e-01,6.336974501609802246e-01,6.336770057678222656e-01,6.336565017700195312e-01,6.336360573768615723e-01,6.336156129837036133e-01,6.335951685905456543e-01,6.335747241973876953e-01,6.335542798042297363e-01,6.335338354110717773e-01,6.335133910179138184e-01,6.334929466247558594e-01,6.334725022315979004e-01,6.334520578384399414e-01,6.334316134452819824e-01,6.334112286567687988e-01,6.333907246589660645e-01,6.333703398704528809e-01
6.118511557579040527e-01,6.118320822715759277e-01,6.118130087852478027e-01,6.117939352989196777e-01,6.117748618125915527e-01,6.117557883262634277e-01,6.117367148399353027e-01,6.117177009582519531e-01,6.116985678672790527e-01,6.116795539855957031e-01,6.116604804992675781e-01,6.116414666175842285e-01,6.116223931312561035e-01,6.116033196449279785e-01,6.115843057632446289e-01,6.115652322769165039e-01,6.115461587905883789e-01,6.115271449089050293e-01,6.115081310272216797e-01,6.114889979362487793e-01,6.114699840545654297e-01,6.114509701728820801e-01,6.114318966865539551e-01,6.114128828048706055e-01,6.113938093185424805e-01,6.113747358322143555e-01,6.113557219505310059e-01,6.113367080688476562e-01,6.113176941871643066e-01,6.112986207008361816e-01,6.112796068191528320e-01,6.112605929374694824e-01,6.112415194511413574e-01,6.112225055694580078e-01,6.112034916877746582e-01,6.111844778060913086e-01,6.111654043197631836e-01,6.111463904380798340e-01,6.111273765563964844e-01,6.111083030700683594e-01,6.110892891883850098e-01,6.110702753067016602e-01,6.110512614250183105e-01,6.110322475433349609e-01,6.110132336616516113e-01,6.109942197799682617e-01,6.109752058982849121e-01,6.109561920166015625e-01,6.109371781349182129e-01,6.109181642532348633e-01,6.108991503715515137e-01,6.108801364898681641e-01,6.108611822128295898e-01,6.108421087265014648e-01,6.108231544494628906e-01,6.108041405677795410e-01,6.107851266860961914e-01,6.107661128044128418e-01,6.107470989227294922e-01,6.107281446456909180e-01,6.107091307640075684e-01,6.106901168823242188e-01,6.106711626052856445e-01,6.106520891189575195e-01,6.106331348419189453e-01,6.106141805648803711e-01,6.105951070785522461e-01,6.105761528015136719e-01,6.105571985244750977e-01,6.105381846427917480e-01,6.105191707611083984e-01,6.105002164840698242e-01,6.104812622070312500e-01,6.104622483253479004e-01,6.104432344436645508e-01,6.104242801666259766e-01,6.104053258895874023e-01,6.103863120079040527e-01,6.103673577308654785e-01,6.103484034538269043e-01
5.903403759002685547e-01,5.903226137161254883e-01,5.903049111366271973e-01,5.902870893478393555e-01,5.902693867683410645e-01,5.902516245841979980e-01,5.902339220046997070e-01,5.902161598205566406e-01,5.901983976364135742e-01,5.901806950569152832e-01,5.901629328727722168e-01,5.901451706886291504e-01,5.901274681091308594e-01,5.901097059249877930e-01,5.900919437408447266e-01,5.900742411613464355e-01,5.900565385818481445e-01,5.900387167930603027e-01,5.900210142135620117e-01,5.900033116340637207e-01,5.899855494499206543e-01,5.899678468704223633e-01,5.899500846862792969e-01,5.899323821067810059e-01,5.899146199226379395e-01,5.898969173431396484e-01,5.898792147636413574e-01,5.898614525794982910e-01,5.898437500000000000e-01,5.898260474205017090e-01,5.898083448410034180e-01,5.897905826568603516e-01,5.897728800773620605e-01,5.897551774978637695e-01,5.897374749183654785e-01,5.897197723388671875e-01,5.897020697593688965e-01,5.896843075752258301e-01,5.896666049957275391e-01,5.896489024162292480e-01,5.896311998367309570e-01,5.896134972572326660e-01,5.895957946777343750e-01,5.895780920982360840e-01,5.895603299140930176e-01,5.895426273345947266e-01,5.895249843597412109e-01,5.895072817802429199e-01,5.894895195960998535e-01,5.894718766212463379e-01,5.894541740417480469e-01,5.894364118576049805e-01,5.894187688827514648e-01,5.894010663032531738e-01,5.893833637237548828e-01,5.893656611442565918e-01,5.893479585647583008e-01,5.893303155899047852e-01,5.893126130104064941e-01,5.892949104309082031e-01,5.892772078514099121e-01,5.892595052719116211e-01,5.892418622970581055e-01,5.892241597175598145e-01,5.892065167427062988e-01,5.891887545585632324e-01,5.891711115837097168e-01,5.891534686088562012e-01,5.891357660293579102e-01,5.891180634498596191e-01,5.891004204750061035e-01,5.890827178955078125e-01,5.890650153160095215e-01,5.890473723411560059e-01,5.890297293663024902e-01,5.890120267868041992e-01,5.889943242073059082e-01,5.889766812324523926e-01,5.889589786529541016e-01,5.889413356781005859e-01
