5.000000000000000000e+00,5.000000000000000000e+00,5.000000000000000000e+00,5.000000000000000000e+00,5.000000000000000000e+00,5.000000000000000000e+00,5.000000000000000000e+00,5.000000000000000000e+00,5.000000000000000000e+00,5.000000000000000000e+00,5.000000000000000000e+00,5.000000000000000000e+00,5.000000000000000000e+00,5.000000000000000000e+00,5.000000000000000000e+00,5.000000000000000000e+00,5.000000000000000000e+00,5.000000000000000000e+00,5.000000000000000000e+00,5.000000000000000000e+00,5.000000000000000000e+00,5.000000000000000000e+00,5.000000000000000000e+00,5.000000000000000000e+00,5.000000000000000000e+00,2.964947700500488281e+00,2.977448463439941406e+00,2.982065677642822266e+00,2.997400283813476562e+00,3.026837587356567383e+00,3.062539815902709961e+00,3.114423036575317383e+00,3.192666769027709961e+00,5.000000000000000000e+00,5.000000000000000000e+00,5.000000000000000000e+00,5.000000000000000000e+00,5.000000000000000000e+00,5.000000000000000000e+00,4.863177299499511719e+00,4.672122478485107422e+00,4.495511531829833984e+00,4.331766605377197266e+00,4.179531097412109375e+00,4.037632465362548828e+00,3.905052900314331055e+00,3.780902862548828125e+00,3.664403676986694336e+00,3.554869174957275391e+00,3.451693296432495117e+00,3.354337215423583984e+00,3.262322425842285156e+00,3.175221204757690430e+00,3.092650175094604492e+00,3.014264583587646484e+00,2.939754247665405273e+00,2.868838787078857422e+00,2.801264047622680664e+00,2.736799716949462891e+00,2.675235509872436523e+00,2.616379976272583008e+00,2.560058355331420898e+00,2.506110668182373047e+00,2.454389572143554688e+00,2.404760122299194336e+00,2.357098102569580078e+00,2.311288356781005859e+00,2.267225503921508789e+00,2.224811315536499023e+00,2.183954954147338867e+00,2.144571781158447266e+00,2.106584310531616211e+00,2.069918870925903320e+00,2.034507989883422852e+00,2.000288248062133789e+00,1.967200875282287598e+00,1.935190200805664062e+00,1.904204607009887695e+00,1.874195456504821777e+00,1.845117568969726562e+00
5.000000000000000000e+00,5.000000000000000000e+00,5.000000000000000000e+00,5.000000000000000000e+00,5.000000000000000000e+00,5.000000000000000000e+00,5.000000000000000000e+00,5.000000000000000000e+00,5.000000000000000000e+00,5.000000000000000000e+00,5.000000000000000000e+00,5.000000000000000000e+00,5.000000000000000000e+00,5.000000000000000000e+00,5.000000000000000000e+00,5.000000000000000000e+00,5.000000000000000000e+00,5.000000000000000000e+00,5.000000000000000000e+00,5.000000000000000000e+00,5.000000000000000000e+00,5.000000000000000000e+00,5.000000000000000000e+00,5.000000000000000000e+00,5.000000000000000000e+00,2.980766057968139648e+00,2.980804920196533203e+00,2.989129543304443359e+00,2.980951547622680664e+00,2.991688251495361328e+00,3.019159555435180664e+00,3.056776046752929688e+00,3.142148256301879883e+00,3.230804920196533203e+00,5.000000000000000000e+00,5.000000000000000000e+00,5.000000000000000000e+00,5.000000000000000000e+00,5.000000000000000000e+00,4.863317012786865234e+00,4.672251224517822266e+00,4.495631217956542969e+00,4.331877708435058594e+00,4.179634571075439453e+00,4.037728786468505859e+00,3.905142784118652344e+00,3.780987739562988281e+00,3.664483308792114258e+00,3.554944276809692383e+00,3.451763629913330078e+00,3.354403972625732422e+00,3.262385606765747070e+00,3.175281047821044922e+00,3.092706680297851562e+00,3.014318227767944336e+00,2.939805507659912109e+00,2.868887662887573242e+00,2.801310539245605469e+00,2.736843824386596680e+00,2.675277709960937500e+00,2.616420507431030273e+00,2.560097217559814453e+00,2.506147861480712891e+00,2.454425096511840820e+00,2.404794454574584961e+00,2.357130765914916992e+00,2.311320066452026367e+00,2.267256021499633789e+00,2.224840402603149414e+00,2.183983087539672852e+00,2.144599199295043945e+00,2.106610536575317383e+00,2.069944143295288086e+00,2.034532546997070312e+00,2.000312089920043945e+00,1.967223882675170898e+00,1.935212373733520508e+00,1.904225945472717285e+00,1.874216198921203613e+00,1.845137596130371094e+00
5.000000000000000000e+00,5.000000000000000000e+00,5.000000000000000000e+00,5.000000000000000000e+00,5.000000000000000000e+00,5.000000000000000000e+00,5.000000000000000000e+00,5.000000000000000000e+00,5.000000000000000000e+00,5.000000000000000000e+00,5.000000000000000000e+00,5.000000000000000000e+00,5.000000000000000000e+00,5.000000000000000000e+00,5.000000000000000000e+00,5.000000000000000000e+00,5.000000000000000000e+00,5.000000000000000000e+00,5.000000000000000000e+00,5.000000000000000000e+00,5.000000000000000000e+00,5.000000000000000000e+00,5.000000000000000000e+00,5.000000000000000000e+00,5.000000000000000000e+00,2.996050834655761719e+00,2.987513303756713867e+00,3.003558397293090820e+00,2.988760471343994141e+00,2.997886180877685547e+00,3.023290872573852539e+00,3.054924964904785156e+00,3.122428417205810547e+00,3.254453897476196289e+00,5.000000000000000000e+00,5.000000000000000000e+00,5.000000000000000000e+00,5.000000000000000000e+00,5.000000000000000000e+00,4.863457202911376953e+00,4.672380447387695312e+00,4.495750904083251953e+00,4.331988811492919922e+00,4.179738044738769531e+00,4.037825107574462891e+00,3.905233383178710938e+00,3.781072139739990234e+00,3.664562463760375977e+00,3.555019140243530273e+00,3.451834201812744141e+00,3.354470491409301758e+00,3.262448310852050781e+00,3.175340652465820312e+00,3.092763423919677734e+00,3.014372110366821289e+00,2.939856529235839844e+00,2.868936300277709961e+00,2.801357269287109375e+00,2.736888408660888672e+00,2.675320148468017578e+00,2.616461038589477539e+00,2.560135841369628906e+00,2.506185054779052734e+00,2.454460859298706055e+00,2.404828310012817383e+00,2.357163667678833008e+00,2.311351776123046875e+00,2.267286300659179688e+00,2.224869966506958008e+00,2.184011220932006836e+00,2.144626379013061523e+00,2.106636762619018555e+00,2.069969415664672852e+00,2.034557104110717773e+00,2.000335693359375000e+00,1.967246770858764648e+00,1.935234427452087402e+00,1.904247403144836426e+00,1.874236941337585449e+00,1.845157742500305176e+00
5.000000000000000000e+00,5.000000000000000000e+00,5.000000000000000000e+00,5.000000000000000000e+00,5.000000000000000000e+00,5.000000000000000000e+00,5.000000000000000000e+00,5.000000000000000000e+00,5.000000000000000000e+00,5.000000000000000000e+00,5.000000000000000000e+00,5.000000000000000000e+00,5.000000000000000000e+00,5.000000000000000000e+00,5.000000000000000000e+00,5.000000000000000000e+00,5.000000000000000000e+00,5.000000000000000000e+00,5.000000000000000000e+00,5.000000000000000000e+00,5.000000000000000000e+00,5.000000000000000000e+00,5.000000000000000000e+00,5.000000000000000000e+00,5.000000000000000000e+00,3.004462480545043945e+00,2.987855911254882812e+00,3.020327329635620117e+00,2.997752189636230469e+00,2.996778726577758789e+00,3.012450695037841797e+00,3.050235271453857422e+00,3.140328168869018555e+00,3.292985916137695312e+00,5.000000000000000000e+00,5.000000000000000000e+00,5.000000000000000000e+00,5.000000000000000000e+00,5.000000000000000000e+00,4.863596916198730469e+00,4.672509670257568359e+00,4.495870590209960938e+00,4.332099914550781250e+00,4.179841518402099609e+00,4.037921905517578125e+00,3.905323743820190430e+00,3.781156778335571289e+00,3.664642333984375000e+00,3.555093765258789062e+00,3.451904535293579102e+00,3.354537010192871094e+00,3.262511491775512695e+00,3.175400257110595703e+00,3.092819690704345703e+00,3.014425992965698242e+00,2.939907789230346680e+00,2.868984937667846680e+00,2.801403522491455078e+00,2.736932516098022461e+00,2.675362586975097656e+00,2.616501569747924805e+00,2.560174942016601562e+00,2.506222248077392578e+00,2.454496145248413086e+00,2.404862642288208008e+00,2.357196569442749023e+00,2.311383247375488281e+00,2.267316818237304688e+00,2.224899291992187500e+00,2.184039592742919922e+00,2.144653558731079102e+00,2.106662988662719727e+00,2.069994688034057617e+00,2.034581661224365234e+00,2.000359296798706055e+00,1.967269539833068848e+00,1.935256600379943848e+00,1.904268980026245117e+00,1.874257802963256836e+00,1.845178008079528809e+00
5.000000000000000000e+00,5.000000000000000000e+00,5.000000000000000000e+00,5.000000000000000000e+00,5.000000000000000000e+00,5.000000000000000000e+00,5.000000000000000000e+00,5.000000000000000000e+00,5.000000000000000000e+00,5.000000000000000000e+00,5.000000000000000000e+00,5.000000000000000000e+00,5.000000000000000000e+00,5.000000000000000000e+00,5.000000000000000000e+00,5.000000000000000000e+00,5.000000000000000000e+00,5.000000000000000000e+00,5.000000000000000000e+00,5.000000000000000000e+00,5.000000000000000000e+00,5.000000000000000000e+00,5.000000000000000000e+00,5.000000000000000000e+00,5.000000000000000000e+00,3.014371871948242188e+00,2.986726045608520508e+00,3.018273591995239258e+00,3.001971721649169922e+00,2.998144626617431641e+00,3.015249252319335938e+00,3.050327777862548828e+00,3.236143350601196289e+00,5.000000000000000000e+00,5.000000000000000000e+00,5.000000000000000000e+00,5.000000000000000000e+00,5.000000000000000000e+00,5.000000000000000000e+00,4.863737106323242188e+00,4.672639369964599609e+00,4.495990276336669922e+00,4.332211017608642578e+00,4.179944515228271484e+00,4.038018226623535156e+00,3.905413627624511719e+00,3.781241178512573242e+00,3.664721965789794922e+00,3.555168628692626953e+00,3.451975345611572266e+00,3.354603528976440430e+00,3.262574434280395508e+00,3.175460100173950195e+00,3.092876434326171875e+00,3.014479637145996094e+00,2.939958810806274414e+00,2.869033813476562500e+00,2.801450014114379883e+00,2.736976861953735352e+00,2.675404787063598633e+00,2.616542100906372070e+00,2.560213804244995117e+00,2.506259202957153320e+00,2.454531908035278320e+00,2.404896736145019531e+00,2.357229471206665039e+00,2.311414957046508789e+00,2.267347097396850586e+00,2.224928379058837891e+00,2.184067726135253906e+00,2.144680976867675781e+00,2.106689453125000000e+00,2.070020198822021484e+00,2.034605979919433594e+00,2.000383138656616211e+00,1.967292666435241699e+00,1.935278892517089844e+00,1.904290318489074707e+00,1.874278545379638672e+00,1.845198035240173340e+00
5.000000000000000000e+00,5.000000000000000000e+00,5.000000000000000000e+00,5.000000000000000000e+00,5.000000000000000000e+00,5.000000000000000000e+00,5.000000000000000000e+00,5.000000000000000000e+00,5.000000000000000000e+00,5.000000000000000000e+00,5.000000000000000000e+00,5.000000000000000000e+00,5.000000000000000000e+00,5.000000000000000000e+00,5.000000000000000000e+00,5.000000000000000000e+00,5.000000000000000000e+00,5.000000000000000000e+00,5.000000000000000000e+00,5.000000000000000000e+00,5.000000000000000000e+00,5.000000000000000000e+00,5.000000000000000000e+00,5.000000000000000000e+00,5.000000000000000000e+00,5.000000000000000000e+00,2.990074634552001953e+00,3.031425237655639648e+00,2.992424964904785156e+00,2.989506006240844727e+00,3.017603874206542969e+00,3.045154094696044922e+00,3.250230550765991211e+00,5.000000000000000000e+00,5.000000000000000000e+00,5.000000000000000000e+00,5.000000000000000000e+00,5.000000000000000000e+00,5.000000000000000000e+00,4.863876819610595703e+00,4.672768592834472656e+00,4.496109485626220703e+00,4.332322120666503906e+00,4.180047988891601562e+00,4.038114547729492188e+00,3.905504226684570312e+00,3.781326055526733398e+00,3.664801120758056641e+00,3.555243253707885742e+00,3.452045917510986328e+00,3.354670286178588867e+00,3.262637376785278320e+00,3.175519466400146484e+00,3.092932939529418945e+00,3.014533519744873047e+00,2.940010070800781250e+00,2.869082450866699219e+00,2.801496267318725586e+00,2.737021446228027344e+00,2.675447225570678711e+00,2.616582632064819336e+00,2.560252428054809570e+00,2.506296157836914062e+00,2.454567670822143555e+00,2.404931068420410156e+00,2.357262372970581055e+00,2.311446428298950195e+00,2.267377614974975586e+00,2.224957704544067383e+00,2.184096097946166992e+00,2.144707918167114258e+00,2.106715440750122070e+00,2.070045709609985352e+00,2.034630537033081055e+00,2.000406742095947266e+00,1.967315435409545898e+00,1.935300946235656738e+00,1.904311776161193848e+00,1.874299287796020508e+00,1.845218181610107422e+00
5.000000000000000000e+00,5.000000000000000000e+00,5.000000000000000000e+00,5.000000000000000000e+00,5.000000000000000000e+00,5.000000000000000000e+00,5.000000000000000000e+00,5.000000000000000000e+00,5.000000000000000000e+00,5.000000000000000000e+00,5.000000000000000000e+00,5.000000000000000000e+00,5.000000000000000000e+00,5.000000000000000000e+00,5.000000000000000000e+00,5.000000000000000000e+00,5.000000000000000000e+00,5.000000000000000000e+00,5.000000000000000000e+00,5.000000000000000000e+00,5.000000000000000000e+00,5.000000000000000000e+00,5.000000000000000000e+00,5.000000000000000000e+00,5.000000000000000000e+00,5.000000000000000000e+00,2.971659898757934570e+00,3.022524595260620117e+00,3.001885890960693359e+00,3.001863241195678711e+00,3.005116701126098633e+00,3.035911798477172852e+00,3.103979110717773438e+00,5.000000000000000000e+00,5.000000000000000000e+00,5.000000000000000000e+00,5.000000000000000000e+00,5.000000000000000000e+00,5.000000000000000000e+00,4.864017009735107422e+00,4.672897338867187500e+00,4.496229171752929688e+00,4.332433223724365234e+00,4.180151462554931641e+00,4.038211345672607422e+00,3.905594110488891602e+00,3.781410455703735352e+00,3.664880752563476562e+00,3.555318117141723633e+00,3.452116250991821289e+00,3.354736566543579102e+00,3.262700557708740234e+00,3.175579309463500977e+00,3.092989683151245117e+00,3.014587163925170898e+00,2.940061092376708984e+00,2.869131326675415039e+00,2.801542997360229492e+00,2.737065553665161133e+00,2.675489425659179688e+00,2.616622924804687500e+00,2.560291051864624023e+00,2.506333589553833008e+00,2.454603195190429688e+00,2.404965162277221680e+00,2.357295274734497070e+00,2.311478137969970703e+00,2.267408132553100586e+00,2.224987030029296875e+00,2.184124231338500977e+00,2.144735336303710938e+00,2.106741905212402344e+00,2.070070981979370117e+00,2.034654855728149414e+00,2.000430583953857422e+00,1.967338323593139648e+00,1.935323119163513184e+00,1.904333114624023438e+00,1.874320030212402344e+00,1.845238447189331055e+00
5.000000000000000000e+00,5.000000000000000000e+00,5.000000000000000000e+00,5.000000000000000000e+00,5.000000000000000000e+00,5.000000000000000000e+00,5.000000000000000000e+00,5.000000000000000000e+00,5.000000000000000000e+00,5.000000000000000000e+00,5.000000000000000000e+00,5.000000000000000000e+00,5.000000000000000000e+00,5.000000000000000000e+00,5.000000000000000000e+00,5.000000000000000000e+00,5.000000000000000000e+00,5.000000000000000000e+00,5.000000000000000000e+00,5.000000000000000000e+00,5.000000000000000000e+00,5.000000000000000000e+00,5.000000000000000000e+00,5.000000000000000000e+00,5.000000000000000000e+00,5.000000000000000000e+00,2.939791917800903320e+00,2.976412773132324219e+00,2.995624780654907227e+00,2.998634338378906250e+00,3.012538909912109375e+00,3.052939891815185547e+00,3.125627040863037109e+00,5.000000000000000000e+00,5.000000000000000000e+00,5.000000000000000000e+00,5.000000000000000000e+00,5.000000000000000000e+00,5.000000000000000000e+00,4.864157199859619141e+00,4.673026561737060547e+00,4.496348857879638672e+00,4.332544326782226562e+00,4.180254936218261719e+00,4.038307666778564453e+00,3.905684709548950195e+00,3.781495094299316406e+00,3.664960145950317383e+00,3.555392742156982422e+00,3.452186822891235352e+00,3.354803323745727539e+00,3.262763500213623047e+00,3.175638914108276367e+00,3.093046426773071289e+00,3.014641046524047852e+00,2.940112352371215820e+00,2.869179725646972656e+00,2.801589250564575195e+00,2.737109899520874023e+00,2.675532102584838867e+00,2.616663455963134766e+00,2.560329675674438477e+00,2.506370782852172852e+00,2.454638957977294922e+00,2.404999494552612305e+00,2.357328176498413086e+00,2.311509609222412109e+00,2.267438650131225586e+00,2.225016355514526367e+00,2.184152603149414062e+00,2.144762516021728516e+00,2.106768131256103516e+00,2.070096254348754883e+00,2.034679412841796875e+00,2.000454187393188477e+00,1.967361211776733398e+00,1.935345411300659180e+00,1.904354810714721680e+00,1.874341011047363281e+00,1.845258593559265137e+00
5.000000000000000000e+00,5.000000000000000000e+00,5.000000000000000000e+00,5.000000000000000000e+00,5.000000000000000000e+00,5.000000000000000000e+00,5.000000000000000000e+00,5.000000000000000000e+00,5.000000000000000000e+00,5.000000000000000000e+00,5.000000000000000000e+00,5.000000000000000000e+00,5.000000000000000000e+00,5.000000000000000000e+00,5.000000000000000000e+00,5.000000000000000000e+00,5.000000000000000000e+00,5.000000000000000000e+00,5.000000000000000000e+00,5.000000000000000000e+00,5.000000000000000000e+00,5.000000000000000000e+00,5.000000000000000000e+00,5.000000000000000000e+00,5.000000000000000000e+00,5.000000000000000000e+00,2.913128614425659180e+00,2.933254241943359375e+00,2.994547843933105469e+00,3.014698743820190430e+00,3.026155948638916016e+00,3.075775146484375000e+00,3.109191894531250000e+00,5.000000000000000000e+00,5.000000000000000000e+00,5.000000000000000000e+00,5.000000000000000000e+00,5.000000000000000000e+00,5.000000000000000000e+00,4.864296913146972656e+00,4.673155784606933594e+00,4.496469020843505859e+00,4.332655429840087891e+00,4.180357933044433594e+00,4.038404464721679688e+00,3.905774593353271484e+00,3.781579971313476562e+00,3.665039777755737305e+00,3.555467844009399414e+00,3.452257156372070312e+00,3.354870080947875977e+00,3.262826681137084961e+00,3.175698757171630859e+00,3.093102931976318359e+00,3.014694690704345703e+00,2.940163612365722656e+00,2.869228601455688477e+00,2.801635742187500000e+00,2.737154006958007812e+00,2.675574064254760742e+00,2.616703987121582031e+00,2.560368537902832031e+00,2.506407737731933594e+00,2.454674482345581055e+00,2.405033826828002930e+00,2.357361078262329102e+00,2.311541318893432617e+00,2.267468929290771484e+00,2.225045680999755859e+00,2.184180736541748047e+00,2.144789695739746094e+00,2.106794357299804688e+00,2.070121526718139648e+00,2.034703969955444336e+00,2.000477790832519531e+00,1.967384219169616699e+00,1.935367465019226074e+00,1.904376149177551270e+00,1.874361634254455566e+00,1.845278620719909668e+00
5.000000000000000000e+00,5.000000000000000000e+00,5.000000000000000000e+00,5.000000000000000000e+00,5.000000000000000000e+00,5.000000000000000000e+00,5.000000000000000000e+00,5.000000000000000000e+00,5.000000000000000000e+00,5.000000000000000000e+00,5.000000000000000000e+00,5.000000000000000000e+00,5.000000000000000000e+00,5.000000000000000000e+00,5.000000000000000000e+00,5.000000000000000000e+00,5.000000000000000000e+00,5.000000000000000000e+00,5.000000000000000000e+00,5.000000000000000000e+00,5.000000000000000000e+00,5.000000000000000000e+00,5.000000000000000000e+00,5.000000000000000000e+00,5.000000000000000000e+00,5.000000000000000000e+00,2.896911621093750000e+00,3.000181198120117188e+00,2.991499900817871094e+00,3.018906116485595703e+00,3.064086437225341797e+00,3.025424480438232422e+00,3.025581598281860352e+00,5.000000000000000000e+00,5.000000000000000000e+00,5.000000000000000000e+00,5.000000000000000000e+00,5.000000000000000000e+00,5.000000000000000000e+00,4.864437103271484375e+00,4.673285007476806641e+00,4.496588230133056641e+00,4.332766532897949219e+00,4.180461883544921875e+00,4.038500785827636719e+00,3.905865192413330078e+00,3.781664371490478516e+00,3.665118932723999023e+00,3.555542707443237305e+00,3.452327966690063477e+00,3.354936599731445312e+00,3.262889385223388672e+00,3.175758600234985352e+00,3.093159675598144531e+00,3.014748573303222656e+00,2.940214633941650391e+00,2.869277238845825195e+00,2.801682233810424805e+00,2.737198352813720703e+00,2.675616502761840820e+00,2.616744279861450195e+00,2.560407161712646484e+00,2.506445169448852539e+00,2.454710245132446289e+00,2.405067920684814453e+00,2.357393741607666016e+00,2.311573028564453125e+00,2.267499446868896484e+00,2.225075006484985352e+00,2.184208869934082031e+00,2.144816875457763672e+00,2.106820583343505859e+00,2.070147037506103516e+00,2.034728527069091797e+00,2.000501394271850586e+00,1.967407107353210449e+00,1.935389637947082520e+00,1.904397606849670410e+00,1.874382376670837402e+00,1.845298767089843750e+00
5.000000000000000000e+00,5.000000000000000000e+00,5.000000000000000000e+00,5.000000000000000000e+00,5.000000000000000000e+00,5.000000000000000000e+00,5.000000000000000000e+00,5.000000000000000000e+00,5.000000000000000000e+00,5.000000000000000000e+00,5.000000000000000000e+00,5.000000000000000000e+00,5.000000000000000000e+00,5.000000000000000000e+00,5.000000000000000000e+00,5.000000000000000000e+00,5.000000000000000000e+00,5.000000000000000000e+00,5.000000000000000000e+00,5.000000000000000000e+00,5.000000000000000000e+00,5.000000000000000000e+00,5.000000000000000000e+00,5.000000000000000000e+00,5.000000000000000000e+00,5.000000000000000000e+00,2.869804382324218750e+00,2.852660179138183594e+00,2.987902879714965820e+00,3.009168624877929688e+00,3.048073530197143555e+00,3.002750396728515625e+00,3.005985498428344727e+00,3.080652713775634766e+00,5.000000000000000000e+00,5.000000000000000000e+00,5.000000000000000000e+00,5.000000000000000000e+00,5.000000000000000000e+00,4.864576816558837891e+00,4.673414230346679688e+00,4.496707916259765625e+00,4.332877159118652344e+00,4.180565357208251953e+00,4.038597106933593750e+00,3.905955553054809570e+00,3.781749248504638672e+00,3.665198564529418945e+00,3.555617332458496094e+00,3.452398300170898438e+00,3.355003356933593750e+00,3.262952566146850586e+00,3.175817966461181641e+00,3.093216180801391602e+00,3.014802455902099609e+00,2.940265893936157227e+00,2.869326114654541016e+00,2.801728487014770508e+00,2.737242698669433594e+00,2.675658941268920898e+00,2.616785049438476562e+00,2.560446023941040039e+00,2.506482124328613281e+00,2.454745769500732422e+00,2.405102252960205078e+00,2.357426881790161133e+00,2.311604499816894531e+00,2.267529726028442383e+00,2.225104331970214844e+00,2.184237241744995117e+00,2.144844055175781250e+00,2.106846809387207031e+00,2.070172309875488281e+00,2.034753084182739258e+00,2.000525236129760742e+00,1.967429876327514648e+00,1.935411691665649414e+00,1.904419183731079102e+00,1.874403357505798340e+00,1.845319032669067383e+00
5.000000000000000000e+00,5.000000000000000000e+00,5.000000000000000000e+00,5.000000000000000000e+00,5.000000000000000000e+00,5.000000000000000000e+00,5.000000000000000000e+00,5.000000000000000000e+00,5.000000000000000000e+00,5.000000000000000000e+00,5.000000000000000000e+00,5.000000000000000000e+00,5.000000000000000000e+00,5.000000000000000000e+00,5.000000000000000000e+00,5.000000000000000000e+00,5.000000000000000000e+00,5.000000000000000000e+00,5.000000000000000000e+00,5.000000000000000000e+00,5.000000000000000000e+00,5.000000000000000000e+00,5.000000000000000000e+00,5.000000000000000000e+00,5.000000000000000000e+00,5.000000000000000000e+00,2.850317001342773438e+00,2.799241304397583008e+00,2.993641376495361328e+00,3.014255285263061523e+00,3.061482667922973633e+00,2.988620996475219727e+00,2.991137266159057617e+00,3.051778316497802734e+00,5.000000000000000000e+00,5.000000000000000000e+00,5.000000000000000000e+00,5.000000000000000000e+00,5.000000000000000000e+00,4.864717006683349609e+00,4.673543930053710938e+00,4.496827602386474609e+00,4.332988262176513672e+00,4.180668354034423828e+00,4.038693904876708984e+00,3.906045675277709961e+00,3.781833648681640625e+00,3.665278434753417969e+00,3.555692434310913086e+00,3.452468872070312500e+00,3.355069875717163086e+00,3.263015270233154297e+00,3.175877809524536133e+00,3.093272924423217773e+00,3.014856100082397461e+00,2.940316915512084961e+00,2.869374513626098633e+00,2.801774978637695312e+00,2.737287044525146484e+00,2.675701141357421875e+00,2.616825342178344727e+00,2.560485124588012695e+00,2.506519317626953125e+00,2.454781532287597656e+00,2.405136346817016602e+00,2.357459783554077148e+00,2.311636209487915039e+00,2.267560243606567383e+00,2.225133419036865234e+00,2.184265375137329102e+00,2.144871473312377930e+00,2.106873273849487305e+00,2.070197820663452148e+00,2.034777402877807617e+00,2.000548839569091797e+00,1.967453002929687500e+00,1.935433983802795410e+00,1.904440641403198242e+00,1.874424099922180176e+00,1.845339179039001465e+00
5.000000000000000000e+00,5.000000000000000000e+00,5.000000000000000000e+00,5.000000000000000000e+00,5.000000000000000000e+00,5.000000000000000000e+00,5.000000000000000000e+00,5.000000000000000000e+00,5.000000000000000000e+00,5.000000000000000000e+00,5.000000000000000000e+00,5.000000000000000000e+00,5.000000000000000000e+00,5.000000000000000000e+00,5.000000000000000000e+00,5.000000000000000000e+00,5.000000000000000000e+00,5.000000000000000000e+00,5.000000000000000000e+00,5.000000000000000000e+00,5.000000000000000000e+00,5.000000000000000000e+00,5.000000000000000000e+00,5.000000000000000000e+00,5.000000000000000000e+00,5.000000000000000000e+00,2.854167699813842773e+00,3.009488582611083984e+00,3.001939058303833008e+00,3.029199600219726562e+00,3.076726675033569336e+00,2.982819557189941406e+00,2.973119974136352539e+00,3.020974397659301758e+00,5.000000000000000000e+00,5.000000000000000000e+00,5.000000000000000000e+00,5.000000000000000000e+00,5.000000000000000000e+00,4.864857196807861328e+00,4.673673152923583984e+00,4.496947288513183594e+00,4.333099842071533203e+00,4.180771827697753906e+00,4.038790225982666016e+00,3.906136035919189453e+00,3.781918525695800781e+00,3.665357589721679688e+00,3.555766820907592773e+00,3.452539682388305664e+00,3.355136632919311523e+00,3.263078451156616211e+00,3.175937414169311523e+00,3.093329429626464844e+00,3.014909982681274414e+00,2.940367937088012695e+00,2.869423151016235352e+00,2.801821231842041016e+00,2.737331390380859375e+00,2.675743579864501953e+00,2.616866111755371094e+00,2.560523748397827148e+00,2.506556510925292969e+00,2.454817295074462891e+00,2.405170679092407227e+00,2.357492685317993164e+00,2.311667680740356445e+00,2.267590761184692383e+00,2.225162982940673828e+00,2.184293746948242188e+00,2.144898653030395508e+00,2.106899499893188477e+00,2.070223093032836914e+00,2.034801959991455078e+00,2.000572443008422852e+00,1.967475771903991699e+00,1.935456156730651855e+00,1.904461979866027832e+00,1.874444842338562012e+00,1.845359206199645996e+00
5.000000000000000000e+00,5.000000000000000000e+00,5.000000000000000000e+00,5.000000000000000000e+00,5.000000000000000000e+00,5.000000000000000000e+00,5.000000000000000000e+00,5.000000000000000000e+00,5.000000000000000000e+00,5.000000000000000000e+00,5.000000000000000000e+00,5.000000000000000000e+00,5.000000000000000000e+00,5.000000000000000000e+00,5.000000000000000000e+00,5.000000000000000000e+00,5.000000000000000000e+00,5.000000000000000000e+00,5.000000000000000000e+00,5.000000000000000000e+00,5.000000000000000000e+00,5.000000000000000000e+00,5.000000000000000000e+00,5.000000000000000000e+00,5.000000000000000000e+00,5.000000000000000000e+00,5.000000000000000000e+00,3.028225183486938477e+00,3.011344909667968750e+00,3.041270732879638672e+00,5.000000000000000000e+00,2.972071170806884766e+00,2.953981161117553711e+00,2.977832078933715820e+00,5.000000000000000000e+00,5.000000000000000000e+00,5.000000000000000000e+00,5.000000000000000000e+00,5.000000000000000000e+00,4.864996910095214844e+00,4.673802375793457031e+00,4.497066974639892578e+00,4.333210945129394531e+00,4.180875301361083984e+00,4.038887023925781250e+00,3.906226158142089844e+00,3.782002925872802734e+00,3.665437221527099609e+00,3.555841922760009766e+00,3.452610015869140625e+00,3.355202913284301758e+00,3.263141632080078125e+00,3.175997257232666016e+00,3.093386173248291016e+00,3.014963388442993164e+00,2.940418958663940430e+00,2.869472026824951172e+00,2.801867723464965820e+00,2.737375736236572266e+00,2.675785779953002930e+00,2.616906642913818359e+00,2.560562610626220703e+00,2.506593704223632812e+00,2.454852819442749023e+00,2.405204772949218750e+00,2.357525587081909180e+00,2.311699390411376953e+00,2.267621040344238281e+00,2.225192070007324219e+00,2.184321880340576172e+00,2.144925832748413086e+00,2.106925725936889648e+00,2.070248365402221680e+00,2.034826517105102539e+00,2.000596284866333008e+00,1.967498660087585449e+00,1.935478210449218750e+00,1.904483437538146973e+00,1.874465584754943848e+00,1.845379590988159180e+00
5.000000000000000000e+00,5.000000000000000000e+00,5.000000000000000000e+00,5.000000000000000000e+00,5.000000000000000000e+00,5.000000000000000000e+00,5.000000000000000000e+00,5.000000000000000000e+00,5.000000000000000000e+00,5.000000000000000000e+00,5.000000000000000000e+00,5.000000000000000000e+00,5.000000000000000000e+00,5.000000000000000000e+00,5.000000000000000000e+00,5.000000000000000000e+00,5.000000000000000000e+00,5.000000000000000000e+00,5.000000000000000000e+00,5.000000000000000000e+00,5.000000000000000000e+00,5.000000000000000000e+00,5.000000000000000000e+00,5.000000000000000000e+00,5.000000000000000000e+00,5.000000000000000000e+00,5.000000000000000000e+00,3.049806833267211914e+00,3.017011165618896484e+00,3.052867174148559570e+00,5.000000000000000000e+00,2.963284254074096680e+00,2.931466102600097656e+00,2.947413444519042969e+00,5.000000000000000000e+00,5.000000000000000000e+00,5.000000000000000000e+00,5.000000000000000000e+00,5.000000000000000000e+00,4.865137577056884766e+00,4.673931598663330078e+00,4.497186660766601562e+00,4.333322048187255859e+00,4.180978775024414062e+00,4.038983345031738281e+00,3.906316757202148438e+00,3.782087564468383789e+00,3.665516614913940430e+00,3.555917024612426758e+00,3.452680587768554688e+00,3.355269670486450195e+00,3.263204574584960938e+00,3.176056623458862305e+00,3.093442678451538086e+00,3.015017271041870117e+00,2.940470218658447266e+00,2.869520664215087891e+00,2.801914215087890625e+00,2.737420082092285156e+00,2.675828218460083008e+00,2.616946935653686523e+00,2.560601234436035156e+00,2.506630897521972656e+00,2.454888582229614258e+00,2.405239105224609375e+00,2.357558250427246094e+00,2.311731100082397461e+00,2.267651557922363281e+00,2.225221395492553711e+00,2.184350013732910156e+00,2.144953012466430664e+00,2.106951951980590820e+00,2.070273876190185547e+00,2.034851074218750000e+00,2.000619888305664062e+00,1.967521548271179199e+00,1.935500621795654297e+00,1.904505014419555664e+00,1.874486565589904785e+00,1.845399618148803711e+00
5.000000000000000000e+00,5.000000000000000000e+00,5.000000000000000000e+00,5.000000000000000000e+00,5.000000000000000000e+00,5.000000000000000000e+00,5.000000000000000000e+00,5.000000000000000000e+00,5.000000000000000000e+00,5.000000000000000000e+00,5.000000000000000000e+00,5.000000000000000000e+00,5.000000000000000000e+00,5.000000000000000000e+00,5.000000000000000000e+00,5.000000000000000000e+00,5.000000000000000000e+00,5.000000000000000000e+00,5.000000000000000000e+00,5.000000000000000000e+00,5.000000000000000000e+00,5.000000000000000000e+00,5.000000000000000000e+00,5.000000000000000000e+00,5.000000000000000000e+00,5.000000000000000000e+00,5.000000000000000000e+00,3.075455427169799805e+00,3.022109270095825195e+00,3.060099124908447266e+00,5.000000000000000000e+00,2.959409475326538086e+00,2.926578760147094727e+00,2.942611694335937500e+00,5.000000000000000000e+00,5.000000000000000000e+00,5.000000000000000000e+00,5.000000000000000000e+00,5.000000000000000000e+00,4.865277290344238281e+00,4.674060821533203125e+00,4.497306346893310547e+00,4.333433151245117188e+00,4.181082248687744141e+00,4.039080142974853516e+00,3.906406641006469727e+00,3.782172441482543945e+00,3.665596246719360352e+00,3.555991411209106445e+00,3.452750921249389648e+00,3.355336427688598633e+00,3.263267755508422852e+00,3.176116228103637695e+00,3.093498945236206055e+00,3.015070915222167969e+00,2.940521478652954102e+00,2.869569540023803711e+00,2.801960706710815430e+00,2.737464427947998047e+00,2.675870656967163086e+00,2.616987705230712891e+00,2.560640096664428711e+00,2.506668090820312500e+00,2.454924106597900391e+00,2.405273437500000000e+00,2.357591390609741211e+00,2.311762571334838867e+00,2.267681837081909180e+00,2.225250720977783203e+00,2.184378385543823242e+00,2.144980192184448242e+00,2.106978178024291992e+00,2.070299148559570312e+00,2.034875631332397461e+00,2.000643730163574219e+00,1.967544555664062500e+00,1.935522675514221191e+00,1.904526472091674805e+00,1.874507188796997070e+00,1.845419764518737793e+00
5.000000000000000000e+00,5.000000000000000000e+00,5.000000000000000000e+00,5.000000000000000000e+00,5.000000000000000000e+00,5.000000000000000000e+00,5.000000000000000000e+00,5.000000000000000000e+00,5.000000000000000000e+00,5.000000000000000000e+00,5.000000000000000000e+00,5.000000000000000000e+00,5.000000000000000000e+00,5.000000000000000000e+00,5.000000000000000000e+00,5.000000000000000000e+00,5.000000000000000000e+00,5.000000000000000000e+00,5.000000000000000000e+00,5.000000000000000000e+00,5.000000000000000000e+00,5.000000000000000000e+00,5.000000000000000000e+00,5.000000000000000000e+00,5.000000000000000000e+00,5.000000000000000000e+00,5.000000000000000000e+00,3.097784519195556641e+00,3.031602621078491211e+00,3.069474935531616211e+00,5.000000000000000000e+00,2.974152803421020508e+00,2.945202112197875977e+00,2.986355543136596680e+00,5.000000000000000000e+00,5.000000000000000000e+00,5.000000000000000000e+00,5.000000000000000000e+00,5.000000000000000000e+00,4.865417480468750000e+00,4.674190044403076172e+00,4.497426033020019531e+00,4.333544254302978516e+00,4.181185722351074219e+00,4.039176464080810547e+00,3.906497240066528320e+00,3.782256841659545898e+00,3.665675640106201172e+00,3.556066513061523438e+00,3.452821731567382812e+00,3.355402946472167969e+00,3.263330221176147461e+00,3.176176071166992188e+00,3.093555927276611328e+00,3.015124797821044922e+00,2.940572500228881836e+00,2.869617938995361328e+00,2.802007198333740234e+00,2.737508773803710938e+00,2.675913095474243164e+00,2.617027997970581055e+00,2.560678958892822266e+00,2.506705284118652344e+00,2.454959869384765625e+00,2.405307531356811523e+00,2.357624053955078125e+00,2.311794281005859375e+00,2.267712354660034180e+00,2.225280046463012695e+00,2.184406518936157227e+00,2.145007371902465820e+00,2.107004404067993164e+00,2.070324659347534180e+00,2.034899950027465820e+00,2.000667333602905273e+00,1.967567443847656250e+00,1.935544729232788086e+00,1.904547810554504395e+00,1.874527931213378906e+00,1.845439791679382324e+00
5.000000000000000000e+00,5.000000000000000000e+00,5.000000000000000000e+00,5.000000000000000000e+00,5.000000000000000000e+00,5.000000000000000000e+00,5.000000000000000000e+00,5.000000000000000000e+00,5.000000000000000000e+00,5.000000000000000000e+00,5.000000000000000000e+00,5.000000000000000000e+00,5.000000000000000000e+00,5.000000000000000000e+00,5.000000000000000000e+00,5.000000000000000000e+00,5.000000000000000000e+00,5.000000000000000000e+00,5.000000000000000000e+00,5.000000000000000000e+00,5.000000000000000000e+00,5.000000000000000000e+00,5.000000000000000000e+00,5.000000000000000000e+00,5.000000000000000000e+00,5.000000000000000000e+00,5.000000000000000000e+00,3.100769042968750000e+00,3.058202743530273438e+00,5.000000000000000000e+00,5.000000000000000000e+00,2.988469362258911133e+00,2.966831922531127930e+00,5.000000000000000000e+00,5.000000000000000000e+00,5.000000000000000000e+00,5.000000000000000000e+00,5.000000000000000000e+00,5.000000000000000000e+00,4.865555763244628906e+00,4.674319267272949219e+00,4.497545719146728516e+00,4.333655357360839844e+00,4.181289196014404297e+00,4.039273262023925781e+00,3.906587600708007812e+00,3.782341718673706055e+00,3.665755271911621094e+00,3.556141138076782227e+00,3.452892065048217773e+00,3.355469465255737305e+00,3.263393402099609375e+00,3.176235675811767578e+00,3.093612194061279297e+00,3.015178680419921875e+00,2.940623760223388672e+00,2.869666814804077148e+00,2.802053689956665039e+00,2.737553119659423828e+00,2.675955533981323242e+00,2.617068767547607422e+00,2.560717821121215820e+00,2.506742477416992188e+00,2.454995632171630859e+00,2.405341863632202148e+00,2.357656955718994141e+00,2.311825990676879883e+00,2.267742633819580078e+00,2.225309371948242188e+00,2.184434890747070312e+00,2.145034790039062500e+00,2.107030630111694336e+00,2.070349931716918945e+00,2.034924507141113281e+00,2.000690937042236328e+00,1.967590212821960449e+00,1.935566902160644531e+00,1.904569506645202637e+00,1.874548912048339844e+00,1.845460176467895508e+00
5.000000000000000000e+00,5.000000000000000000e+00,5.000000000000000000e+00,5.000000000000000000e+00,5.000000000000000000e+00,5.000000000000000000e+00,5.000000000000000000e+00,5.000000000000000000e+00,5.000000000000000000e+00,5.000000000000000000e+00,5.000000000000000000e+00,5.000000000000000000e+00,5.000000000000000000e+00,5.000000000000000000e+00,5.000000000000000000e+00,5.000000000000000000e+00,5.000000000000000000e+00,5.000000000000000000e+00,5.000000000000000000e+00,5.000000000000000000e+00,5.000000000000000000e+00,5.000000000000000000e+00,5.000000000000000000e+00,5.000000000000000000e+00,5.000000000000000000e+00,5.000000000000000000e+00,3.208516836166381836e+00,3.161320447921752930e+00,3.217365503311157227e+00,5.000000000000000000e+00,5.000000000000000000e+00,2.987479925155639648e+00,2.972262144088745117e+00,5.000000000000000000e+00,5.000000000000000000e+00,5.000000000000000000e+00,5.000000000000000000e+00,5.000000000000000000e+00,5.000000000000000000e+00,4.865694999694824219e+00,4.674447536468505859e+00,4.497665405273437500e+00,4.333766460418701172e+00,4.181392669677734375e+00,4.039369583129882812e+00,3.906677722930908203e+00,3.782426118850708008e+00,3.665834903717041016e+00,3.556216239929199219e+00,3.452962636947631836e+00,3.355535984039306641e+00,3.263456344604492188e+00,3.176295518875122070e+00,3.093668937683105469e+00,3.015232324600219727e+00,2.940674781799316406e+00,2.869715690612792969e+00,2.802100181579589844e+00,2.737597465515136719e+00,2.675997734069824219e+00,2.617109060287475586e+00,2.560756683349609375e+00,2.506779670715332031e+00,2.455031156539916992e+00,2.405376195907592773e+00,2.357690095901489258e+00,2.311857700347900391e+00,2.267773151397705078e+00,2.225338697433471680e+00,2.184463024139404297e+00,2.145061969757080078e+00,2.107057094573974609e+00,2.070375204086303711e+00,2.034949064254760742e+00,2.000714540481567383e+00,1.967613339424133301e+00,1.935589194297790527e+00,1.904590845108032227e+00,1.874569654464721680e+00,1.845480203628540039e+00
5.000000000000000000e+00,5.000000000000000000e+00,5.000000000000000000e+00,5.000000000000000000e+00,5.000000000000000000e+00,5.000000000000000000e+00,5.000000000000000000e+00,5.000000000000000000e+00,5.000000000000000000e+00,5.000000000000000000e+00,5.000000000000000000e+00,5.000000000000000000e+00,5.000000000000000000e+00,5.000000000000000000e+00,5.000000000000000000e+00,5.000000000000000000e+00,5.000000000000000000e+00,5.000000000000000000e+00,5.000000000000000000e+00,5.000000000000000000e+00,5.000000000000000000e+00,5.000000000000000000e+00,5.000000000000000000e+00,5.000000000000000000e+00,5.000000000000000000e+00,5.000000000000000000e+00,3.249160051345825195e+00,3.207594633102416992e+00,5.000000000000000000e+00,5.000000000000000000e+00,5.000000000000000000e+00,2.985307216644287109e+00,2.972331762313842773e+00,5.000000000000000000e+00,5.000000000000000000e+00,5.000000000000000000e+00,5.000000000000000000e+00,5.000000000000000000e+00,5.000000000000000000e+00,4.865833759307861328e+00,4.674575805664062500e+00,4.497785091400146484e+00,4.333877563476562500e+00,4.181496143341064453e+00,4.039466381072998047e+00,3.906768321990966797e+00,3.782510995864868164e+00,3.665914297103881836e+00,3.556290626525878906e+00,3.453033208847045898e+00,3.355602741241455078e+00,3.263519525527954102e+00,3.176355123519897461e+00,3.093725442886352539e+00,3.015286445617675781e+00,2.940726280212402344e+00,2.869764328002929688e+00,2.802146434783935547e+00,2.737641811370849609e+00,2.676040172576904297e+00,2.617149829864501953e+00,2.560795307159423828e+00,2.506816864013671875e+00,2.455066919326782227e+00,2.405410289764404297e+00,2.357722759246826172e+00,2.311889171600341797e+00,2.267803668975830078e+00,2.225368022918701172e+00,2.184491395950317383e+00,2.145089149475097656e+00,2.107083320617675781e+00,2.070400714874267578e+00,2.034973621368408203e+00,2.000738382339477539e+00,1.967636227607727051e+00,1.935611367225646973e+00,1.904612302780151367e+00,1.874590396881103516e+00,1.845500349998474121e+00
5.000000000000000000e+00,5.000000000000000000e+00,5.000000000000000000e+00,5.000000000000000000e+00,5.000000000000000000e+00,5.000000000000000000e+00,5.000000000000000000e+00,5.000000000000000000e+00,5.000000000000000000e+00,5.000000000000000000e+00,5.000000000000000000e+00,5.000000000000000000e+00,5.000000000000000000e+00,5.000000000000000000e+00,5.000000000000000000e+00,5.000000000000000000e+00,5.000000000000000000e+00,5.000000000000000000e+00,5.000000000000000000e+00,5.000000000000000000e+00,5.000000000000000000e+00,5.000000000000000000e+00,5.000000000000000000e+00,5.000000000000000000e+00,5.000000000000000000e+00,5.000000000000000000e+00,3.295527696609497070e+00,3.302901268005371094e+00,5.000000000000000000e+00,5.000000000000000000e+00,5.000000000000000000e+00,2.985889434814453125e+00,2.971755743026733398e+00,5.000000000000000000e+00,5.000000000000000000e+00,5.000000000000000000e+00,5.000000000000000000e+00,5.000000000000000000e+00,5.000000000000000000e+00,4.865972995758056641e+00,4.674704074859619141e+00,4.497903347015380859e+00,4.333988666534423828e+00,4.181599617004394531e+00,4.039563179016113281e+00,3.906858444213867188e+00,3.782595872879028320e+00,3.665993690490722656e+00,3.556365489959716797e+00,3.453103542327880859e+00,3.355669021606445312e+00,3.263582468032836914e+00,3.176414728164672852e+00,3.093782186508178711e+00,3.015340089797973633e+00,2.940777301788330078e+00,2.869813203811645508e+00,2.802193164825439453e+00,2.737686157226562500e+00,2.676082611083984375e+00,2.617190361022949219e+00,2.560834169387817383e+00,2.506854057312011719e+00,2.455102443695068359e+00,2.405444622039794922e+00,2.357755899429321289e+00,2.311920881271362305e+00,2.267834186553955078e+00,2.225397348403930664e+00,2.184519529342651367e+00,2.145116567611694336e+00,2.107109546661376953e+00,2.070425987243652344e+00,2.034997940063476562e+00,2.000761985778808594e+00,1.967658996582031250e+00,1.935633420944213867e+00,1.904633641242980957e+00,1.874611377716064453e+00,1.845520615577697754e+00
5.000000000000000000e+00,5.000000000000000000e+00,5.000000000000000000e+00,5.000000000000000000e+00,5.000000000000000000e+00,5.000000000000000000e+00,5.000000000000000000e+00,5.000000000000000000e+00,5.000000000000000000e+00,5.000000000000000000e+00,5.000000000000000000e+00,5.000000000000000000e+00,5.000000000000000000e+00,5.000000000000000000e+00,5.000000000000000000e+00,5.000000000000000000e+00,5.000000000000000000e+00,5.000000000000000000e+00,5.000000000000000000e+00,5.000000000000000000e+00,5.000000000000000000e+00,5.000000000000000000e+00,5.000000000000000000e+00,5.000000000000000000e+00,5.000000000000000000e+00,5.000000000000000000e+00,3.369001388549804688e+00,5.000000000000000000e+00,5.000000000000000000e+00,5.000000000000000000e+00,5.000000000000000000e+00,2.989792346954345703e+00,2.972406148910522461e+00,5.000000000000000000e+00,5.000000000000000000e+00,5.000000000000000000e+00,5.000000000000000000e+00,5.000000000000000000e+00,5.000000000000000000e+00,4.866112232208251953e+00,4.674832820892333984e+00,4.498022079467773438e+00,4.334098815917968750e+00,4.181703090667724609e+00,4.039659500122070312e+00,3.906948804855346680e+00,3.782680034637451172e+00,3.666073083877563477e+00,3.556440591812133789e+00,3.453174352645874023e+00,3.355736017227172852e+00,3.263645410537719727e+00,3.176474332809448242e+00,3.093838930130004883e+00,3.015393972396850586e+00,2.940828561782836914e+00,2.869861841201782227e+00,2.802239418029785156e+00,2.737730503082275391e+00,2.676125049591064453e+00,2.617230892181396484e+00,2.560872793197631836e+00,2.506891250610351562e+00,2.455138206481933594e+00,2.405478954315185547e+00,2.357788562774658203e+00,2.311952352523803711e+00,2.267864465713500977e+00,2.225426673889160156e+00,2.184547901153564453e+00,2.145143508911132812e+00,2.107136011123657227e+00,2.070451498031616211e+00,2.035022497177124023e+00,2.000785589218139648e+00,1.967681884765625000e+00,1.935655713081359863e+00,1.904655337333679199e+00,1.874632120132446289e+00,1.845540761947631836e+00
5.000000000000000000e+00,5.000000000000000000e+00,5.000000000000000000e+00,5.000000000000000000e+00,5.000000000000000000e+00,5.000000000000000000e+00,5.000000000000000000e+00,5.000000000000000000e+00,5.000000000000000000e+00,5.000000000000000000e+00,5.000000000000000000e+00,5.000000000000000000e+00,5.000000000000000000e+00,5.000000000000000000e+00,5.000000000000000000e+00,5.000000000000000000e+00,5.000000000000000000e+00,5.000000000000000000e+00,5.000000000000000000e+00,5.000000000000000000e+00,5.000000000000000000e+00,5.000000000000000000e+00,5.000000000000000000e+00,5.000000000000000000e+00,5.000000000000000000e+00,5.000000000000000000e+00,3.384465694427490234e+00,5.000000000000000000e+00,5.000000000000000000e+00,5.000000000000000000e+00,5.000000000000000000e+00,2.993540287017822266e+00,2.977710247039794922e+00,5.000000000000000000e+00,5.000000000000000000e+00,5.000000000000000000e+00,5.000000000000000000e+00,5.000000000000000000e+00,5.000000000000000000e+00,4.866250991821289062e+00,4.674961090087890625e+00,4.498140811920166016e+00,4.334208965301513672e+00,4.181805610656738281e+00,4.039755821228027344e+00,3.907038688659667969e+00,3.782764911651611328e+00,3.666152715682983398e+00,3.556515216827392578e+00,3.453244686126708984e+00,3.355802774429321289e+00,3.263708591461181641e+00,3.176534175872802734e+00,3.093895435333251953e+00,3.015447616577148438e+00,2.940879821777343750e+00,2.869910717010498047e+00,2.802285909652709961e+00,2.737774848937988281e+00,2.676167249679565430e+00,2.617271423339843750e+00,2.560911893844604492e+00,2.506928443908691406e+00,2.455173730850219727e+00,2.405513286590576172e+00,2.357821464538574219e+00,2.311984062194824219e+00,2.267894983291625977e+00,2.225455760955810547e+00,2.184576034545898438e+00,2.145170927047729492e+00,2.107161998748779297e+00,2.070476770401000977e+00,2.035047054290771484e+00,2.000809431076049805e+00,1.967705011367797852e+00,1.935677886009216309e+00,1.904676675796508789e+00,1.874652862548828125e+00,1.845560789108276367e+00
4.875377655029296875e+00,4.874166488647460938e+00,4.872955799102783203e+00,4.871746063232421875e+00,4.870536327362060547e+00,4.869327545166015625e+00,4.868119239807128906e+00,4.866911888122558594e+00,4.865705013275146484e+00,4.864498615264892578e+00,4.863292694091796875e+00,4.862087249755859375e+00,4.860882759094238281e+00,4.859678745269775391e+00,4.858475685119628906e+00,4.857272624969482422e+00,4.856070518493652344e+00,4.854868888854980469e+00,4.853667736053466797e+00,4.852467060089111328e+00,4.851267814636230469e+00,4.850068092346191406e+00,4.848869800567626953e+00,4.847671508789062500e+00,4.846474170684814453e+00,4.845277309417724609e+00,3.386876583099365234e+00,4.842885017395019531e+00,4.841690063476562500e+00,4.840495586395263672e+00,4.839301586151123047e+00,3.004435062408447266e+00,3.001959562301635742e+00,4.835722923278808594e+00,4.834531784057617188e+00,4.833340644836425781e+00,4.832150459289550781e+00,4.830960273742675781e+00,4.829771041870117188e+00,4.828582286834716797e+00,4.675089359283447266e+00,4.498260021209716797e+00,4.334319114685058594e+00,4.181908607482910156e+00,4.039852619171142578e+00,3.907129287719726562e+00,3.782849311828613281e+00,3.666232109069824219e+00,3.556590318679809570e+00,3.453315496444702148e+00,3.355869054794311523e+00,3.263771533966064453e+00,3.176594018936157227e+00,3.093952178955078125e+00,3.015501499176025391e+00,2.940930843353271484e+00,2.869959115982055664e+00,2.802332639694213867e+00,2.737819194793701172e+00,2.676209688186645508e+00,2.617311716079711914e+00,2.560950517654418945e+00,2.506965637207031250e+00,2.455209493637084961e+00,2.405547380447387695e+00,2.357854366302490234e+00,2.312015771865844727e+00,2.267925500869750977e+00,2.225485086441040039e+00,2.184604167938232422e+00,2.145198106765747070e+00,2.107188463211059570e+00,2.070502042770385742e+00,2.035071611404418945e+00,2.000833034515380859e+00,1.967727780342102051e+00,1.935699939727783203e+00,1.904698133468627930e+00,1.874673604965209961e+00,1.845580935478210449e+00
3.778185606002807617e+00,3.777457714080810547e+00,3.776730775833129883e+00,3.776003837585449219e+00,3.775277376174926758e+00,3.774551153182983398e+00,3.773824930191040039e+00,3.773099184036254883e+00,3.772373914718627930e+00,3.771648645401000977e+00,3.770923614501953125e+00,3.770199060440063477e+00,3.769474744796752930e+00,3.768750667572021484e+00,3.768026590347290039e+00,3.767303228378295898e+00,3.766580104827880859e+00,3.765857219696044922e+00,3.765134334564208984e+00,3.764411926269531250e+00,3.763689756393432617e+00,3.762968063354492188e+00,3.762246131896972656e+00,3.761524915695190430e+00,3.760804176330566406e+00,3.760083436965942383e+00,3.759362697601318359e+00,3.404727935791015625e+00,3.757922649383544922e+00,3.757203102111816406e+00,3.756483554840087891e+00,3.001677274703979492e+00,2.929444789886474609e+00,3.754327297210693359e+00,3.753608703613281250e+00,3.752890825271606445e+00,3.752173185348510742e+00,3.751455783843994141e+00,3.750738382339477539e+00,3.750021457672119141e+00,3.749305009841918945e+00,3.748588800430297852e+00,3.747872352600097656e+00,3.747156620025634766e+00,3.746441125869750977e+00,3.745726108551025391e+00,3.745011091232299805e+00,3.666311740875244141e+00,3.556664943695068359e+00,3.453385829925537109e+00,3.355936050415039062e+00,3.263834714889526367e+00,3.176653623580932617e+00,3.094008684158325195e+00,3.015555381774902344e+00,2.940982103347778320e+00,2.870007991790771484e+00,2.802378892898559570e+00,2.737863540649414062e+00,2.676252126693725586e+00,2.617352485656738281e+00,2.560989379882812500e+00,2.507002830505371094e+00,2.455245256423950195e+00,2.405581712722778320e+00,2.357887268066406250e+00,2.312047243118286133e+00,2.267955780029296875e+00,2.225514650344848633e+00,2.184632539749145508e+00,2.145225286483764648e+00,2.107214689254760742e+00,2.070527315139770508e+00,2.035096168518066406e+00,2.000856876373291016e+00,1.967750668525695801e+00,1.935722112655639648e+00,1.904719710350036621e+00,1.874694466590881348e+00,1.845601201057434082e+00
3.084112882614135742e+00,3.083628177642822266e+00,3.083143711090087891e+00,3.082659244537353516e+00,3.082174777984619141e+00,3.081690788269042969e+00,3.081206798553466797e+00,3.080723047256469727e+00,3.080239534378051758e+00,3.079755783081054688e+00,3.079272508621215820e+00,3.078789472579956055e+00,3.078306436538696289e+00,3.077823162078857422e+00,3.077340602874755859e+00,3.076858043670654297e+00,3.076375722885131836e+00,3.075893163681030273e+00,3.075411081314086914e+00,3.074929237365722656e+00,3.074447393417358398e+00,3.073965311050415039e+00,3.073483943939208984e+00,3.073002576828002930e+00,3.072521448135375977e+00,3.072040081024169922e+00,3.071559190750122070e+00,3.071078538894653320e+00,3.070597887039184570e+00,3.070117235183715820e+00,3.069637060165405273e+00,3.069156885147094727e+00,2.843274831771850586e+00,2.904080629348754883e+00,3.067717075347900391e+00,3.067237615585327148e+00,3.066758155822753906e+00,3.066278696060180664e+00,3.065799713134765625e+00,3.065320730209350586e+00,3.064841985702514648e+00,3.064363002777099609e+00,3.063884735107421875e+00,3.063406229019165039e+00,3.062928199768066406e+00,3.062450170516967773e+00,3.061971902847290039e+00,3.061494112014770508e+00,3.061016559600830078e+00,3.060539245605468750e+00,3.060061693191528320e+00,3.059584617614746094e+00,3.059107542037963867e+00,3.058630704879760742e+00,3.015609025955200195e+00,2.941033124923706055e+00,2.870056867599487305e+00,2.802425384521484375e+00,2.737907886505126953e+00,2.676294326782226562e+00,2.617392778396606445e+00,2.561028242111206055e+00,2.507040023803710938e+00,2.455281019210815430e+00,2.405615806579589844e+00,2.357920408248901367e+00,2.312078952789306641e+00,2.267986297607421875e+00,2.225543737411499023e+00,2.184660673141479492e+00,2.145252704620361328e+00,2.107240915298461914e+00,2.070552825927734375e+00,2.035120487213134766e+00,2.000880479812622070e+00,1.967773795127868652e+00,1.935744404792785645e+00,1.904741168022155762e+00,1.874715209007263184e+00,1.845621347427368164e+00
2.605473756790161133e+00,2.605127811431884766e+00,2.604782104492187500e+00,2.604436397552490234e+00,2.604090452194213867e+00,2.603744983673095703e+00,2.603399515151977539e+00,2.603054046630859375e+00,2.602708578109741211e+00,2.602363348007202148e+00,2.602018356323242188e+00,2.601673364639282227e+00,2.601328372955322266e+00,2.600983381271362305e+00,2.600638628005981445e+00,2.600294113159179688e+00,2.599949359893798828e+00,2.599604845046997070e+00,2.599260568618774414e+00,2.598916292190551758e+00,2.598572015762329102e+00,2.598227739334106445e+00,2.597883939743041992e+00,2.597539901733398438e+00,2.597195863723754883e+00,2.596852302551269531e+00,2.596508741378784180e+00,2.596165180206298828e+00,2.595821380615234375e+00,2.595478057861328125e+00,2.595134735107421875e+00,2.594791650772094727e+00,2.594448328018188477e+00,2.594105482101440430e+00,2.593762397766113281e+00,2.593419790267944336e+00,2.593076705932617188e+00,2.592734098434448242e+00,2.592391729354858398e+00,2.592049121856689453e+00,2.591706514358520508e+00,2.591364383697509766e+00,2.591022253036499023e+00,2.590680122375488281e+00,2.590337991714477539e+00,2.589996099472045898e+00,2.589654207229614258e+00,2.589312553405761719e+00,2.588970899581909180e+00,2.588629007339477539e+00,2.588287591934204102e+00,2.587946176528930664e+00,2.587604999542236328e+00,2.587263584136962891e+00,2.586922645568847656e+00,2.586581468582153320e+00,2.586240768432617188e+00,2.585899591445922852e+00,2.585558891296386719e+00,2.585218191146850586e+00,2.584877729415893555e+00,2.561067104339599609e+00,2.507077217102050781e+00,2.455316781997680664e+00,2.405650138854980469e+00,2.357953071594238281e+00,2.312110662460327148e+00,2.268016815185546875e+00,2.225573062896728516e+00,2.184689044952392578e+00,2.145279884338378906e+00,2.107267141342163086e+00,2.070578336715698242e+00,2.035145044326782227e+00,2.000904083251953125e+00,1.967796564102172852e+00,1.935766577720642090e+00,1.904762506484985352e+00,1.874735951423645020e+00,1.845641374588012695e+00
2.255457878112792969e+00,2.255197763442993164e+00,2.254937648773193359e+00,2.254677772521972656e+00,2.254418134689331055e+00,2.254158258438110352e+00,2.253898620605468750e+00,2.253638982772827148e+00,2.253379344940185547e+00,2.253119707107543945e+00,2.252860307693481445e+00,2.252600908279418945e+00,2.252341508865356445e+00,2.252082109451293945e+00,2.251822948455810547e+00,2.251563787460327148e+00,2.251304626464843750e+00,2.251045703887939453e+00,2.250786542892456055e+00,2.250527620315551758e+00,2.250268697738647461e+00,2.250009775161743164e+00,2.249751091003417969e+00,2.249492883682250977e+00,2.249234914779663086e+00,2.248977184295654297e+00,2.248719453811645508e+00,2.248461484909057617e+00,2.248203992843627930e+00,2.247946500778198242e+00,2.247689008712768555e+00,2.247431278228759766e+00,2.247174024581909180e+00,2.246916532516479492e+00,2.246659278869628906e+00,2.246402025222778320e+00,2.246145009994506836e+00,2.245887756347656250e+00,2.245630741119384766e+00,2.245373725891113281e+00,2.245116710662841797e+00,2.244859933853149414e+00,2.244603157043457031e+00,2.244346380233764648e+00,2.244089603424072266e+00,2.243832826614379883e+00,2.243576288223266602e+00,2.243319988250732422e+00,2.243063211441040039e+00,2.242806911468505859e+00,2.242550611495971680e+00,2.242294311523437500e+00,2.242038011550903320e+00,2.241781949996948242e+00,2.241525888442993164e+00,2.241269826889038086e+00,2.241013526916503906e+00,2.240757703781127930e+00,2.240501880645751953e+00,2.240246057510375977e+00,2.239990234375000000e+00,2.239734411239624023e+00,2.239478826522827148e+00,2.239223241806030273e+00,2.238967657089233398e+00,2.238712310791015625e+00,2.238456964492797852e+00,2.238201618194580078e+00,2.225602388381958008e+00,2.184717416763305664e+00,2.145307064056396484e+00,2.107293605804443359e+00,2.070603609085083008e+00,2.035169601440429688e+00,2.000927925109863281e+00,1.967819452285766602e+00,1.935788631439208984e+00,1.904783964157104492e+00,1.874756932258605957e+00,1.845661759376525879e+00
1.988379836082458496e+00,1.988177657127380371e+00,1.987975835800170898e+00,1.987773776054382324e+00,1.987571716308593750e+00,1.987369894981384277e+00,1.987167954444885254e+00,1.986966013908386230e+00,1.986764430999755859e+00,1.986562490463256836e+00,1.986360788345336914e+00,1.986159205436706543e+00,1.985957503318786621e+00,1.985755801200866699e+00,1.985554456710815430e+00,1.985352873802185059e+00,1.985151290893554688e+00,1.984949946403503418e+00,1.984748482704162598e+00,1.984547138214111328e+00,1.984345912933349609e+00,1.984144568443298340e+00,1.983943223953247070e+00,1.983742237091064453e+00,1.983541011810302734e+00,1.983340024948120117e+00,1.983138918876647949e+00,1.982937812805175781e+00,1.982736945152282715e+00,1.982535958290100098e+00,1.982334971427917480e+00,1.982134222984313965e+00,1.981933355331420898e+00,1.981732487678527832e+00,1.981531858444213867e+00,1.981331110000610352e+00,1.981130361557006836e+00,1.980929851531982422e+00,1.980729222297668457e+00,1.980528593063354492e+00,1.980328321456909180e+00,1.980127692222595215e+00,1.979927182197570801e+00,1.979727029800415039e+00,1.979526638984680176e+00,1.979326248168945312e+00,1.979126095771789551e+00,1.978925824165344238e+00,1.978725552558898926e+00,1.978525519371032715e+00,1.978325366973876953e+00,1.978125452995300293e+00,1.977925419807434082e+00,1.977725267410278320e+00,1.977525591850280762e+00,1.977325558662414551e+00,1.977125644683837891e+00,1.976925969123840332e+00,1.976726174354553223e+00,1.976526260375976562e+00,1.976326823234558105e+00,1.976127028465270996e+00,1.975927352905273438e+00,1.975727915763854980e+00,1.975528359413146973e+00,1.975328803062438965e+00,1.975129485130310059e+00,1.974929928779602051e+00,1.974730491638183594e+00,1.974531292915344238e+00,1.974331974983215332e+00,1.974132657051086426e+00,1.973933577537536621e+00,1.973734378814697266e+00,1.973535180091857910e+00,1.967842340469360352e+00,1.935811042785644531e+00,1.904805541038513184e+00,1.874777674674987793e+00,1.845681786537170410e+00
1.777856707572937012e+00,1.777695059776306152e+00,1.777533531188964844e+00,1.777372121810913086e+00,1.777210593223571777e+00,1.777049064636230469e+00,1.776887774467468262e+00,1.776726365089416504e+00,1.776564836502075195e+00,1.776403665542602539e+00,1.776242256164550781e+00,1.776080965995788574e+00,1.775919914245605469e+00,1.775758624076843262e+00,1.775597333908081055e+00,1.775436282157897949e+00,1.775275111198425293e+00,1.775113940238952637e+00,1.774953007698059082e+00,1.774791955947875977e+00,1.774630784988403320e+00,1.774469971656799316e+00,1.774308919906616211e+00,1.774148225784301758e+00,1.773987174034118652e+00,1.773826241493225098e+00,1.773665547370910645e+00,1.773504734039306641e+00,1.773343920707702637e+00,1.773183226585388184e+00,1.773022413253784180e+00,1.772861719131469727e+00,1.772701144218444824e+00,1.772540450096130371e+00,1.772379755973815918e+00,1.772219300270080566e+00,1.772058725357055664e+00,1.771898150444030762e+00,1.771737813949584961e+00,1.771577239036560059e+00,1.771416783332824707e+00,1.771256566047668457e+00,1.771096110343933105e+00,1.770935654640197754e+00,1.770775437355041504e+00,1.770615100860595703e+00,1.770454764366149902e+00,1.770294666290283203e+00,1.770134449005126953e+00,1.769974470138549805e+00,1.769814252853393555e+00,1.769654035568237305e+00,1.769494056701660156e+00,1.769333958625793457e+00,1.769173860549926758e+00,1.769014000892639160e+00,1.768854022026062012e+00,1.768693923950195312e+00,1.768534183502197266e+00,1.768374204635620117e+00,1.768214344978332520e+00,1.768054604530334473e+00,1.767894744873046875e+00,1.767735004425048828e+00,1.767575383186340332e+00,1.767415642738342285e+00,1.767255902290344238e+00,1.767096400260925293e+00,1.766936659812927246e+00,1.766777038574218750e+00,1.766617536544799805e+00,1.766458034515380859e+00,1.766298413276672363e+00,1.766139030456542969e+00,1.765979528427124023e+00,1.765820145606994629e+00,1.765660881996154785e+00,1.765501499176025391e+00,1.765342116355895996e+00,1.765182852745056152e+00
1.607644438743591309e+00,1.607512354850769043e+00,1.607380270957946777e+00,1.607248187065124512e+00,1.607116222381591797e+00,1.606984138488769531e+00,1.606852054595947266e+00,1.606720209121704102e+00,1.606588125228881836e+00,1.606456160545349121e+00,1.606324315071105957e+00,1.606192469596862793e+00,1.606060504913330078e+00,1.605928778648376465e+00,1.605796813964843750e+00,1.605664968490600586e+00,1.605533361434936523e+00,1.605401515960693359e+00,1.605269670486450195e+00,1.605138063430786133e+00,1.605006337165832520e+00,1.604874730110168457e+00,1.604743003845214844e+00,1.604611396789550781e+00,1.604479789733886719e+00,1.604348182678222656e+00,1.604216575622558594e+00,1.604085087776184082e+00,1.603953599929809570e+00,1.603821992874145508e+00,1.603690624237060547e+00,1.603559136390686035e+00,1.603427648544311523e+00,1.603296279907226562e+00,1.603164792060852051e+00,1.603033423423767090e+00,1.602902173995971680e+00,1.602770805358886719e+00,1.602639436721801758e+00,1.602508187294006348e+00,1.602376937866210938e+00,1.602245569229125977e+00,1.602114439010620117e+00,1.601983189582824707e+00,1.601851940155029297e+00,1.601720929145812988e+00,1.601589798927307129e+00,1.601458549499511719e+00,1.601327538490295410e+00,1.601196408271789551e+00,1.601065516471862793e+00,1.600934386253356934e+00,1.600803375244140625e+00,1.600672483444213867e+00,1.600541472434997559e+00,1.600410461425781250e+00,1.600279688835144043e+00,1.600148677825927734e+00,1.600017786026000977e+00,1.599886894226074219e+00,1.599756002426147461e+00,1.599625229835510254e+00,1.599494457244873047e+00,1.599363684654235840e+00,1.599232912063598633e+00,1.599102258682250977e+00,1.598971486091613770e+00,1.598840713500976562e+00,1.598710179328918457e+00,1.598579525947570801e+00,1.598448753356933594e+00,1.598318338394165039e+00,1.598187685012817383e+00,1.598057031631469727e+00,1.597926616668701172e+00,1.597796082496643066e+00,1.597665429115295410e+00,1.597535133361816406e+00,1.597404599189758301e+00,1.597274303436279297e+00
1.467176795005798340e+00,1.467066645622253418e+00,1.466956734657287598e+00,1.466846704483032227e+00,1.466736674308776855e+00,1.466626763343811035e+00,1.466516852378845215e+00,1.466406822204589844e+00,1.466297030448913574e+00,1.466187000274658203e+00,1.466077089309692383e+00,1.465967297554016113e+00,1.465857386589050293e+00,1.465747594833374023e+00,1.465637803077697754e+00,1.465528011322021484e+00,1.465418100357055664e+00,1.465308427810668945e+00,1.465198636054992676e+00,1.465088963508605957e+00,1.464979171752929688e+00,1.464869499206542969e+00,1.464759826660156250e+00,1.464650154113769531e+00,1.464540481567382812e+00,1.464430928230285645e+00,1.464321255683898926e+00,1.464211583137512207e+00,1.464102029800415039e+00,1.463992476463317871e+00,1.463882803916931152e+00,1.463773369789123535e+00,1.463663816452026367e+00,1.463554263114929199e+00,1.463444828987121582e+00,1.463335394859313965e+00,1.463225841522216797e+00,1.463116526603698730e+00,1.463006973266601562e+00,1.462897539138793945e+00,1.462788224220275879e+00,1.462678790092468262e+00,1.462569475173950195e+00,1.462460160255432129e+00,1.462350845336914062e+00,1.462241411209106445e+00,1.462132215499877930e+00,1.462022900581359863e+00,1.461913704872131348e+00,1.461804509162902832e+00,1.461695194244384766e+00,1.461586117744445801e+00,1.461476802825927734e+00,1.461367607116699219e+00,1.461258530616760254e+00,1.461149334907531738e+00,1.461040139198303223e+00,1.460931181907653809e+00,1.460821986198425293e+00,1.460712909698486328e+00,1.460603833198547363e+00,1.460494756698608398e+00,1.460385680198669434e+00,1.460276722908020020e+00,1.460167765617370605e+00,1.460058689117431641e+00,1.459949851036071777e+00,1.459840774536132812e+00,1.459731817245483398e+00,1.459622979164123535e+00,1.459514021873474121e+00,1.459405183792114258e+00,1.459296345710754395e+00,1.459187388420104980e+00,1.459078550338745117e+00,1.458969831466674805e+00,1.458860993385314941e+00,1.458752274513244629e+00,1.458643436431884766e+00,1.458534598350524902e+00
1.349283337593078613e+00,1.349190235137939453e+00,1.349097132682800293e+00,1.349004149436950684e+00,1.348911166191101074e+00,1.348818063735961914e+00,1.348725199699401855e+00,1.348632097244262695e+00,1.348539113998413086e+00,1.348446249961853027e+00,1.348353266716003418e+00,1.348260283470153809e+00,1.348167419433593750e+00,1.348074555397033691e+00,1.347981572151184082e+00,1.347888708114624023e+00,1.347795844078063965e+00,1.347703099250793457e+00,1.347610235214233398e+00,1.347517371177673340e+00,1.347424626350402832e+00,1.347331762313842773e+00,1.347238898277282715e+00,1.347146272659301758e+00,1.347053408622741699e+00,1.346960663795471191e+00,1.346867918968200684e+00,1.346775174140930176e+00,1.346682429313659668e+00,1.346589803695678711e+00,1.346497058868408203e+00,1.346404433250427246e+00,1.346311807632446289e+00,1.346219062805175781e+00,1.346126437187194824e+00,1.346033930778503418e+00,1.345941185951232910e+00,1.345848560333251953e+00,1.345756053924560547e+00,1.345663428306579590e+00,1.345570802688598633e+00,1.345478415489196777e+00,1.345385789871215820e+00,1.345293283462524414e+00,1.345200777053833008e+00,1.345108270645141602e+00,1.345015883445739746e+00,1.344923377037048340e+00,1.344830870628356934e+00,1.344738483428955078e+00,1.344645977020263672e+00,1.344553470611572266e+00,1.344461202621459961e+00,1.344368696212768555e+00,1.344276309013366699e+00,1.344184041023254395e+00,1.344091653823852539e+00,1.343999266624450684e+00,1.343906998634338379e+00,1.343814611434936523e+00,1.343722224235534668e+00,1.343630075454711914e+00,1.343537688255310059e+00,1.343445420265197754e+00,1.343353271484375000e+00,1.343260884284973145e+00,1.343168616294860840e+00,1.343076467514038086e+00,1.342984318733215332e+00,1.342892050743103027e+00,1.342799901962280273e+00,1.342707753181457520e+00,1.342615485191345215e+00,1.342523455619812012e+00,1.342431306838989258e+00,1.342339277267456055e+00,1.342247128486633301e+00,1.342154979705810547e+00,1.342062950134277344e+00,1.341970801353454590e+00
1.248927116394042969e+00,1.248847365379333496e+00,1.248767614364624023e+00,1.248687863349914551e+00,1.248608231544494629e+00,1.248528599739074707e+00,1.248448848724365234e+00,1.248369216918945312e+00,1.248289585113525391e+00,1.248209834098815918e+00,1.248130321502685547e+00,1.248050570487976074e+00,1.247970938682556152e+00,1.247891426086425781e+00,1.247811794281005859e+00,1.247732281684875488e+00,1.247652649879455566e+00,1.247573018074035645e+00,1.247493505477905273e+00,1.247413992881774902e+00,1.247334361076354980e+00,1.247254848480224609e+00,1.247175335884094238e+00,1.247095823287963867e+00,1.247016310691833496e+00,1.246936798095703125e+00,1.246857285499572754e+00,1.246777892112731934e+00,1.246698379516601562e+00,1.246618986129760742e+00,1.246539592742919922e+00,1.246460080146789551e+00,1.246380686759948730e+00,1.246301293373107910e+00,1.246221899986267090e+00,1.246142506599426270e+00,1.246063113212585449e+00,1.245983719825744629e+00,1.245904326438903809e+00,1.245825052261352539e+00,1.245745658874511719e+00,1.245666384696960449e+00,1.245587110519409180e+00,1.245507717132568359e+00,1.245428442955017090e+00,1.245349168777465820e+00,1.245269894599914551e+00,1.245190620422363281e+00,1.245111346244812012e+00,1.245032072067260742e+00,1.244952917098999023e+00,1.244873642921447754e+00,1.244794368743896484e+00,1.244715213775634766e+00,1.244636058807373047e+00,1.244556784629821777e+00,1.244477748870849609e+00,1.244398474693298340e+00,1.244319319725036621e+00,1.244240283966064453e+00,1.244161128997802734e+00,1.244081974029541016e+00,1.244002819061279297e+00,1.243923664093017578e+00,1.243844628334045410e+00,1.243765592575073242e+00,1.243686437606811523e+00,1.243607401847839355e+00,1.243528366088867188e+00,1.243449330329895020e+00,1.243370175361633301e+00,1.243291258811950684e+00,1.243212223052978516e+00,1.243133306503295898e+00,1.243054270744323730e+00,1.242975234985351562e+00,1.242896318435668945e+00,1.242817282676696777e+00,1.242738366127014160e+00,1.242659449577331543e+00
1.162465929985046387e+00,1.162396788597106934e+00,1.162327766418457031e+00,1.162258744239807129e+00,1.162189602851867676e+00,1.162120699882507324e+00,1.162051558494567871e+00,1.161982536315917969e+00,1.161913633346557617e+00,1.161844491958618164e+00,1.161775469779968262e+00,1.161706566810607910e+00,1.161637544631958008e+00,1.161568641662597656e+00,1.161499619483947754e+00,1.161430597305297852e+00,1.161361694335937500e+00,1.161292791366577148e+00,1.161223769187927246e+00,1.161154985427856445e+00,1.161085963249206543e+00,1.161017060279846191e+00,1.160948157310485840e+00,1.160879254341125488e+00,1.160810351371765137e+00,1.160741567611694336e+00,1.160672664642333984e+00,1.160603761672973633e+00,1.160534977912902832e+00,1.160466074943542480e+00,1.160397171974182129e+00,1.160328388214111328e+00,1.160259604454040527e+00,1.160190701484680176e+00,1.160121917724609375e+00,1.160053133964538574e+00,1.159984350204467773e+00,1.159915566444396973e+00,1.159846782684326172e+00,1.159777998924255371e+00,1.159709215164184570e+00,1.159640550613403320e+00,1.159571766853332520e+00,1.159503102302551270e+00,1.159434318542480469e+00,1.159365653991699219e+00,1.159296870231628418e+00,1.159228205680847168e+00,1.159159541130065918e+00,1.159090757369995117e+00,1.159022092819213867e+00,1.158953428268432617e+00,1.158884763717651367e+00,1.158816099166870117e+00,1.158747553825378418e+00,1.158678889274597168e+00,1.158610224723815918e+00,1.158541679382324219e+00,1.158473014831542969e+00,1.158404350280761719e+00,1.158335804939270020e+00,1.158267259597778320e+00,1.158198595046997070e+00,1.158130168914794922e+00,1.158061504364013672e+00,1.157992959022521973e+00,1.157924413681030273e+00,1.157855868339538574e+00,1.157787322998046875e+00,1.157718896865844727e+00,1.157650351524353027e+00,1.157581925392150879e+00,1.157513380050659180e+00,1.157444834709167480e+00,1.157376408576965332e+00,1.157307863235473633e+00,1.157239437103271484e+00,1.157171010971069336e+00,1.157102584838867188e+00,1.157034039497375488e+00
1.087200760841369629e+00,1.087140321731567383e+00,1.087079882621765137e+00,1.087019562721252441e+00,1.086959123611450195e+00,1.086898684501647949e+00,1.086838364601135254e+00,1.086777925491333008e+00,1.086717605590820312e+00,1.086657285690307617e+00,1.086596846580505371e+00,1.086536526679992676e+00,1.086476206779479980e+00,1.086415767669677734e+00,1.086355566978454590e+00,1.086295127868652344e+00,1.086234807968139648e+00,1.086174607276916504e+00,1.086114168167114258e+00,1.086053848266601562e+00,1.085993647575378418e+00,1.085933327674865723e+00,1.085873007774353027e+00,1.085812807083129883e+00,1.085752487182617188e+00,1.085692286491394043e+00,1.085632085800170898e+00,1.085571765899658203e+00,1.085511445999145508e+00,1.085451364517211914e+00,1.085391044616699219e+00,1.085330843925476074e+00,1.085270643234252930e+00,1.085210442543029785e+00,1.085150241851806641e+00,1.085090041160583496e+00,1.085029840469360352e+00,1.084969639778137207e+00,1.084909558296203613e+00,1.084849357604980469e+00,1.084789156913757324e+00,1.084728956222534180e+00,1.084668874740600586e+00,1.084608793258666992e+00,1.084548592567443848e+00,1.084488391876220703e+00,1.084428429603576660e+00,1.084368228912353516e+00,1.084308147430419922e+00,1.084248065948486328e+00,1.084187984466552734e+00,1.084127783775329590e+00,1.084067821502685547e+00,1.084007740020751953e+00,1.083947658538818359e+00,1.083887577056884766e+00,1.083827495574951172e+00,1.083767414093017578e+00,1.083707451820373535e+00,1.083647370338439941e+00,1.083587288856506348e+00,1.083527326583862305e+00,1.083467364311218262e+00,1.083407282829284668e+00,1.083347320556640625e+00,1.083287358283996582e+00,1.083227276802062988e+00,1.083167433738708496e+00,1.083107352256774902e+00,1.083047509193420410e+00,1.082987427711486816e+00,1.082927465438842773e+00,1.082867622375488281e+00,1.082807660102844238e+00,1.082747697830200195e+00,1.082687735557556152e+00,1.082627892494201660e+00,1.082567930221557617e+00,1.082508087158203125e+00,1.082448124885559082e+00
1.021089196205139160e+00,1.021035909652709961e+00,1.020982623100280762e+00,1.020929336547851562e+00,1.020876049995422363e+00,1.020822763442993164e+00,1.020769476890563965e+00,1.020716309547424316e+00,1.020663022994995117e+00,1.020609736442565918e+00,1.020556449890136719e+00,1.020503282546997070e+00,1.020449995994567871e+00,1.020396828651428223e+00,1.020343542098999023e+00,1.020290374755859375e+00,1.020237088203430176e+00,1.020183920860290527e+00,1.020130753517150879e+00,1.020077466964721680e+00,1.020024299621582031e+00,1.019971132278442383e+00,1.019917964935302734e+00,1.019864797592163086e+00,1.019811630249023438e+00,1.019758462905883789e+00,1.019705295562744141e+00,1.019652128219604492e+00,1.019598960876464844e+00,1.019545793533325195e+00,1.019492745399475098e+00,1.019439578056335449e+00,1.019386410713195801e+00,1.019333362579345703e+00,1.019280195236206055e+00,1.019227147102355957e+00,1.019174098968505859e+00,1.019120931625366211e+00,1.019067883491516113e+00,1.019014835357666016e+00,1.018961668014526367e+00,1.018908619880676270e+00,1.018855571746826172e+00,1.018802523612976074e+00,1.018749475479125977e+00,1.018696427345275879e+00,1.018643260002136230e+00,1.018590331077575684e+00,1.018537282943725586e+00,1.018484234809875488e+00,1.018431186676025391e+00,1.018378138542175293e+00,1.018325090408325195e+00,1.018272161483764648e+00,1.018219113349914551e+00,1.018166184425354004e+00,1.018113136291503906e+00,1.018060207366943359e+00,1.018007159233093262e+00,1.017954230308532715e+00,1.017901301383972168e+00,1.017848253250122070e+00,1.017795324325561523e+00,1.017742395401000977e+00,1.017689347267150879e+00,1.017636537551879883e+00,1.017583489418029785e+00,1.017530679702758789e+00,1.017477750778198242e+00,1.017424821853637695e+00,1.017371892929077148e+00,1.017318964004516602e+00,1.017266035079956055e+00,1.017213225364685059e+00,1.017160296440124512e+00,1.017107367515563965e+00,1.017054557800292969e+00,1.017001628875732422e+00,1.016948699951171875e+00,1.016895890235900879e+00
9.625570774078369141e-01,9.625097513198852539e-01,9.624624848365783691e-01,9.624150991439819336e-01,9.623677134513854980e-01,9.623203277587890625e-01,9.622730016708374023e-01,9.622257351875305176e-01,9.621784090995788574e-01,9.621310830116271973e-01,9.620836973190307617e-01,9.620363712310791016e-01,9.619890451431274414e-01,9.619418382644653320e-01,9.618945121765136719e-01,9.618471860885620117e-01,9.617999196052551270e-01,9.617525935173034668e-01,9.617052674293518066e-01,9.616581201553344727e-01,9.616107940673828125e-01,9.615635275840759277e-01,9.615162611007690430e-01,9.614689946174621582e-01,9.614217281341552734e-01,9.613745212554931641e-01,9.613272547721862793e-01,9.612799882888793945e-01,9.612327814102172852e-01,9.611855149269104004e-01,9.611382484436035156e-01,9.610911607742309570e-01,9.610438942909240723e-01,9.609966874122619629e-01,9.609494209289550781e-01,9.609022140502929688e-01,9.608550071716308594e-01,9.608079195022583008e-01,9.607607126235961914e-01,9.607135057449340820e-01,9.606662988662719727e-01,9.606190919876098633e-01,9.605720043182373047e-01,9.605248570442199707e-01,9.604776501655578613e-01,9.604305028915405273e-01,9.603832960128784180e-01,9.603361487388610840e-01,9.602890610694885254e-01,9.602419137954711914e-01,9.601947665214538574e-01,9.601476192474365234e-01,9.601004719734191895e-01,9.600533246994018555e-01,9.600062966346740723e-01,9.599592089653015137e-01,9.599120616912841797e-01,9.598649740219116211e-01,9.598178267478942871e-01,9.597707390785217285e-01,9.597237110137939453e-01,9.596766233444213867e-01,9.596295356750488281e-01,9.595824480056762695e-01,9.595353603363037109e-01,9.594883918762207031e-01,9.594413042068481445e-01,9.593942165374755859e-01,9.593471288681030273e-01,9.593001008033752441e-01,9.592530131340026855e-01,9.592060446739196777e-01,9.591590166091918945e-01,9.591119885444641113e-01,9.590649008750915527e-01,9.590178728103637695e-01,9.589708447456359863e-01,9.589239358901977539e-01,9.588769078254699707e-01,9.588298797607421875e-01
9.103716611862182617e-01,9.103292822837829590e-01,9.102869033813476562e-01,9.102446436882019043e-01,9.102022647857666016e-01,9.101598858833312988e-01,9.101175665855407715e-01,9.100751876831054688e-01,9.100329279899597168e-01,9.099905490875244141e-01,9.099482297897338867e-01,9.099059104919433594e-01,9.098635315895080566e-01,9.098212122917175293e-01,9.097789525985717773e-01,9.097366333007812500e-01,9.096943140029907227e-01,9.096519947052001953e-01,9.096096754074096680e-01,9.095673561096191406e-01,9.095251560211181641e-01,9.094828963279724121e-01,9.094405770301818848e-01,9.093982577323913574e-01,9.093559980392456055e-01,9.093136787414550781e-01,9.092715382575988770e-01,9.092292189598083496e-01,9.091869592666625977e-01,9.091446995735168457e-01,9.091024398803710938e-01,9.090601801872253418e-01,9.090179800987243652e-01,9.089757204055786133e-01,9.089334607124328613e-01,9.088912606239318848e-01,9.088490009307861328e-01,9.088068604469299316e-01,9.087646007537841797e-01,9.087224006652832031e-01,9.086801409721374512e-01,9.086379408836364746e-01,9.085956811904907227e-01,9.085536003112792969e-01,9.085114002227783203e-01,9.084691405296325684e-01,9.084269404411315918e-01,9.083847403526306152e-01,9.083425402641296387e-01,9.083004593849182129e-01,9.082582592964172363e-01,9.082161188125610352e-01,9.081739187240600586e-01,9.081317186355590820e-01,9.080895781517028809e-01,9.080474972724914551e-01,9.080052971839904785e-01,9.079631567001342773e-01,9.079210162162780762e-01,9.078788757324218750e-01,9.078366756439208984e-01,9.077946543693542480e-01,9.077525138854980469e-01,9.077103734016418457e-01,9.076682329177856445e-01,9.076260924339294434e-01,9.075840711593627930e-01,9.075419306755065918e-01,9.074998497962951660e-01,9.074577093124389648e-01,9.074156284332275391e-01,9.073734879493713379e-01,9.073314666748046875e-01,9.072893857955932617e-01,9.072473049163818359e-01,9.072052240371704102e-01,9.071631431579589844e-01,9.071210622787475586e-01,9.070790410041809082e-01,9.070369601249694824e-01
8.635537624359130859e-01,8.635156154632568359e-01,8.634775280952453613e-01,8.634393811225891113e-01,8.634013533592224121e-01,8.633632063865661621e-01,8.633251190185546875e-01,8.632869720458984375e-01,8.632488846778869629e-01,8.632108569145202637e-01,8.631727695465087891e-01,8.631346225738525391e-01,8.630965352058410645e-01,8.630584478378295898e-01,8.630203604698181152e-01,8.629823923110961914e-01,8.629443049430847168e-01,8.629062175750732422e-01,8.628681302070617676e-01,8.628300428390502930e-01,8.627919554710388184e-01,8.627539873123168945e-01,8.627159595489501953e-01,8.626778721809387207e-01,8.626397848129272461e-01,8.626017570495605469e-01,8.625637292861938477e-01,8.625257611274719238e-01,8.624876737594604492e-01,8.624496459960937500e-01,8.624116182327270508e-01,8.623735904693603516e-01,8.623355627059936523e-01,8.622975945472717285e-01,8.622595667839050293e-01,8.622215390205383301e-01,8.621835708618164062e-01,8.621455430984497070e-01,8.621076345443725586e-01,8.620696067810058594e-01,8.620315790176391602e-01,8.619936108589172363e-01,8.619555830955505371e-01,8.619176149368286133e-01,8.618797063827514648e-01,8.618417382240295410e-01,8.618037104606628418e-01,8.617657423019409180e-01,8.617277741432189941e-01,8.616898059844970703e-01,8.616518974304199219e-01,8.616139292716979980e-01,8.615759611129760742e-01,8.615380525588989258e-01,8.615000844001770020e-01,8.614621162414550781e-01,8.614242672920227051e-01,8.613862991333007812e-01,8.613483309745788574e-01,8.613104224205017090e-01,8.612724542617797852e-01,8.612346053123474121e-01,8.611966967582702637e-01,8.611587882041931152e-01,8.611208796501159668e-01,8.610829114913940430e-01,8.610450029373168945e-01,8.610072135925292969e-01,8.609693050384521484e-01,8.609313964843750000e-01,8.608934879302978516e-01,8.608555793762207031e-01,8.608176708221435547e-01,8.607798814773559570e-01,8.607419729232788086e-01,8.607040643692016602e-01,8.606662154197692871e-01,8.606283068656921387e-01,8.605904579162597656e-01,8.605526685714721680e-01
8.213157653808593750e-01,8.212812542915344238e-01,8.212468028068542480e-01,8.212122917175292969e-01,8.211778998374938965e-01,8.211433887481689453e-01,8.211089372634887695e-01,8.210744261741638184e-01,8.210399746894836426e-01,8.210054636001586914e-01,8.209710717201232910e-01,8.209366202354431152e-01,8.209021687507629395e-01,8.208677172660827637e-01,8.208332657814025879e-01,8.207988142967224121e-01,8.207644224166870117e-01,8.207299709320068359e-01,8.206955194473266602e-01,8.206610679626464844e-01,8.206266760826110840e-01,8.205922245979309082e-01,8.205578327178955078e-01,8.205234408378601074e-01,8.204889893531799316e-01,8.204545974731445312e-01,8.204201459884643555e-01,8.203857541084289551e-01,8.203513622283935547e-01,8.203169703483581543e-01,8.202825784683227539e-01,8.202481269836425781e-01,8.202137351036071777e-01,8.201794028282165527e-01,8.201450109481811523e-01,8.201106190681457520e-01,8.200762271881103516e-01,8.200418353080749512e-01,8.200074434280395508e-01,8.199731707572937012e-01,8.199387788772583008e-01,8.199043869972229004e-01,8.198699951171875000e-01,8.198356032371520996e-01,8.198012709617614746e-01,8.197669982910156250e-01,8.197326064109802246e-01,8.196982145309448242e-01,8.196638822555541992e-01,8.196295499801635742e-01,8.195951581001281738e-01,8.195608854293823242e-01,8.195265531539916992e-01,8.194922208786010742e-01,8.194578289985656738e-01,8.194234967231750488e-01,8.193891644477844238e-01,8.193549513816833496e-01,8.193206191062927246e-01,8.192862868309020996e-01,8.192519545555114746e-01,8.192176222801208496e-01,8.191833496093750000e-01,8.191490769386291504e-01,8.191147446632385254e-01,8.190804123878479004e-01,8.190461397171020508e-01,8.190118074417114258e-01,8.189775943756103516e-01,8.189433217048645020e-01,8.189089894294738770e-01,8.188747167587280273e-01,8.188403844833374023e-01,8.188061118125915527e-01,8.187718987464904785e-01,8.187376260757446289e-01,8.187033534049987793e-01,8.186690807342529297e-01,8.186348080635070801e-01,8.186005353927612305e-01
7.830169796943664551e-01,7.829856276512145996e-01,7.829542756080627441e-01,7.829229235649108887e-01,7.828915715217590332e-01,7.828603386878967285e-01,7.828289866447448730e-01,7.827976346015930176e-01,7.827662825584411621e-01,7.827349305152893066e-01,7.827036380767822266e-01,7.826723456382751465e-01,7.826410531997680664e-01,7.826097011566162109e-01,7.825784087181091309e-01,7.825470566749572754e-01,7.825157642364501953e-01,7.824845314025878906e-01,7.824531793594360352e-01,7.824218869209289551e-01,7.823905944824218750e-01,7.823593020439147949e-01,7.823280096054077148e-01,7.822967767715454102e-01,7.822654843330383301e-01,7.822341918945312500e-01,7.822028994560241699e-01,7.821716070175170898e-01,7.821403145790100098e-01,7.821090817451477051e-01,7.820777893066406250e-01,7.820465564727783203e-01,7.820152640342712402e-01,7.819839715957641602e-01,7.819527983665466309e-01,7.819215059280395508e-01,7.818902730941772461e-01,7.818589806556701660e-01,7.818277478218078613e-01,7.817964553833007812e-01,7.817652821540832520e-01,7.817340493202209473e-01,7.817027568817138672e-01,7.816715240478515625e-01,7.816402912139892578e-01,7.816089987754821777e-01,7.815778851509094238e-01,7.815465927124023438e-01,7.815153598785400391e-01,7.814841270446777344e-01,7.814528942108154297e-01,7.814216613769531250e-01,7.813905477523803711e-01,7.813593149185180664e-01,7.813280820846557617e-01,7.812968492507934570e-01,7.812656760215759277e-01,7.812345027923583984e-01,7.812033295631408691e-01,7.811720967292785645e-01,7.811408638954162598e-01,7.811096906661987305e-01,7.810784578323364258e-01,7.810473442077636719e-01,7.810161709785461426e-01,7.809849381446838379e-01,7.809537649154663086e-01,7.809225916862487793e-01,7.808914184570312500e-01,7.808603048324584961e-01,7.808290719985961914e-01,7.807978987693786621e-01,7.807667255401611328e-01,7.807355523109436035e-01,7.807043790817260742e-01,7.806733250617980957e-01,7.806421518325805664e-01,7.806109786033630371e-01,7.805798053741455078e-01,7.805486321449279785e-01
7.481308579444885254e-01,7.481022477149963379e-01,7.480736374855041504e-01,7.480450272560119629e-01,7.480164170265197754e-01,7.479878067970275879e-01,7.479592561721801758e-01,7.479306459426879883e-01,7.479020357131958008e-01,7.478734254837036133e-01,7.478448152542114258e-01,7.478162050247192383e-01,7.477876543998718262e-01,7.477591037750244141e-01,7.477304935455322266e-01,7.477018833160400391e-01,7.476733326911926270e-01,7.476447224617004395e-01,7.476161718368530273e-01,7.475876212120056152e-01,7.475590109825134277e-01,7.475304603576660156e-01,7.475018501281738281e-01,7.474732995033264160e-01,7.474448084831237793e-01,7.474162578582763672e-01,7.473876476287841797e-01,7.473590970039367676e-01,7.473305463790893555e-01,7.473020553588867188e-01,7.472735047340393066e-01,7.472448945045471191e-01,7.472163438796997070e-01,7.471877932548522949e-01,7.471592426300048828e-01,7.471307516098022461e-01,7.471022605895996094e-01,7.470737099647521973e-01,7.470451593399047852e-01,7.470166087150573730e-01,7.469880580902099609e-01,7.469596266746520996e-01,7.469310760498046875e-01,7.469025254249572754e-01,7.468740344047546387e-01,7.468454837799072266e-01,7.468169331550598145e-01,7.467885017395019531e-01,7.467600107192993164e-01,7.467314600944519043e-01,7.467029690742492676e-01,7.466744184494018555e-01,7.466459274291992188e-01,7.466174960136413574e-01,7.465890049934387207e-01,7.465604543685913086e-01,7.465319633483886719e-01,7.465034723281860352e-01,7.464750409126281738e-01,7.464465498924255371e-01,7.464180588722229004e-01,7.463895678520202637e-01,7.463610768318176270e-01,7.463325858116149902e-01,7.463041543960571289e-01,7.462756633758544922e-01,7.462471723556518555e-01,7.462187409400939941e-01,7.461902499198913574e-01,7.461617588996887207e-01,7.461333870887756348e-01,7.461048960685729980e-01,7.460764050483703613e-01,7.460479736328125000e-01,7.460194826126098633e-01,7.459910511970520020e-01,7.459626197814941406e-01,7.459341883659362793e-01,7.459056973457336426e-01,7.458772659301757812e-01
7.162206768989562988e-01,7.161945104598999023e-01,7.161682844161987305e-01,7.161420583724975586e-01,7.161158323287963867e-01,7.160896062850952148e-01,7.160633802413940430e-01,7.160372138023376465e-01,7.160109877586364746e-01,7.159847617149353027e-01,7.159585952758789062e-01,7.159323692321777344e-01,7.159061431884765625e-01,7.158799767494201660e-01,7.158538103103637695e-01,7.158275842666625977e-01,7.158013582229614258e-01,7.157751917839050293e-01,7.157489657402038574e-01,7.157228589057922363e-01,7.156966328620910645e-01,7.156704664230346680e-01,7.156442403793334961e-01,7.156180739402770996e-01,7.155918478965759277e-01,7.155657410621643066e-01,7.155395746231079102e-01,7.155134081840515137e-01,7.154871821403503418e-01,7.154610157012939453e-01,7.154349088668823242e-01,7.154087424278259277e-01,7.153825759887695312e-01,7.153564095497131348e-01,7.153302431106567383e-01,7.153040766716003418e-01,7.152779698371887207e-01,7.152518033981323242e-01,7.152256369590759277e-01,7.151994705200195312e-01,7.151733040809631348e-01,7.151471376419067383e-01,7.151210308074951172e-01,7.150949239730834961e-01,7.150687575340270996e-01,7.150425910949707031e-01,7.150164842605590820e-01,7.149903178215026855e-01,7.149642109870910645e-01,7.149381041526794434e-01,7.149119377136230469e-01,7.148858308792114258e-01,7.148596644401550293e-01,7.148336172103881836e-01,7.148074507713317871e-01,7.147813439369201660e-01,7.147552371025085449e-01,7.147290706634521484e-01,7.147029638290405273e-01,7.146769165992736816e-01,7.146508097648620605e-01,7.146247029304504395e-01,7.145985364913940430e-01,7.145724296569824219e-01,7.145463228225708008e-01,7.145202755928039551e-01,7.144941687583923340e-01,7.144680619239807129e-01,7.144419550895690918e-01,7.144158482551574707e-01,7.143897414207458496e-01,7.143636941909790039e-01,7.143376469612121582e-01,7.143115401268005371e-01,7.142854332923889160e-01,7.142593264579772949e-01,7.142332792282104492e-01,7.142072319984436035e-01,7.141811251640319824e-01,7.141550779342651367e-01
6.869213581085205078e-01,6.868972182273864746e-01,6.868731379508972168e-01,6.868490576744079590e-01,6.868249177932739258e-01,6.868007779121398926e-01,6.867766380310058594e-01,6.867525577545166016e-01,6.867284774780273438e-01,6.867043375968933105e-01,6.866802573204040527e-01,6.866561174392700195e-01,6.866320371627807617e-01,6.866078972816467285e-01,6.865838766098022461e-01,6.865597367286682129e-01,6.865356564521789551e-01,6.865115165710449219e-01,6.864874362945556641e-01,6.864633560180664062e-01,6.864392757415771484e-01,6.864151954650878906e-01,6.863911151885986328e-01,6.863670349121093750e-01,6.863428950309753418e-01,6.863188743591308594e-01,6.862947940826416016e-01,6.862707138061523438e-01,6.862466335296630859e-01,6.862225532531738281e-01,6.861984729766845703e-01,6.861744523048400879e-01,6.861503720283508301e-01,6.861262917518615723e-01,6.861022114753723145e-01,6.860781311988830566e-01,6.860540509223937988e-01,6.860300302505493164e-01,6.860060095787048340e-01,6.859819293022155762e-01,6.859578490257263184e-01,6.859337687492370605e-01,6.859097480773925781e-01,6.858857274055480957e-01,6.858616471290588379e-01,6.858376264572143555e-01,6.858135461807250977e-01,6.857895255088806152e-01,6.857654452323913574e-01,6.857414841651916504e-01,6.857174038887023926e-01,6.856933832168579102e-01,6.856693029403686523e-01,6.856452822685241699e-01,6.856213212013244629e-01,6.855972409248352051e-01,6.855732202529907227e-01,6.855491995811462402e-01,6.855251193046569824e-01,6.855010986328125000e-01,6.854771375656127930e-01,6.854531168937683105e-01,6.854290962219238281e-01,6.854050755500793457e-01,6.853810548782348633e-01,6.853570342063903809e-01,6.853330731391906738e-01,6.853090524673461914e-01,6.852850317955017090e-01,6.852610111236572266e-01,6.852369904518127441e-01,6.852129697799682617e-01,6.851890087127685547e-01,6.851649880409240723e-01,6.851410269737243652e-01,6.851170063018798828e-01,6.850929856300354004e-01,6.850689649581909180e-01,6.850450634956359863e-01,6.850210428237915039e-01
6.599249839782714844e-01,6.599026918411254883e-01,6.598804593086242676e-01,6.598582267761230469e-01,6.598359942436218262e-01,6.598137021064758301e-01,6.597914695739746094e-01,6.597691774368286133e-01,6.597469449043273926e-01,6.597247123718261719e-01,6.597024798393249512e-01,6.596801877021789551e-01,6.596579551696777344e-01,6.596356630325317383e-01,6.596134305000305176e-01,6.595912575721740723e-01,6.595689654350280762e-01,6.595467329025268555e-01,6.595245003700256348e-01,6.595022678375244141e-01,6.594800353050231934e-01,6.594578027725219727e-01,6.594355702400207520e-01,6.594133377075195312e-01,6.593911051750183105e-01,6.593688726425170898e-01,6.593466997146606445e-01,6.593244671821594238e-01,6.593022346496582031e-01,6.592800021171569824e-01,6.592577695846557617e-01,6.592355370521545410e-01,6.592133641242980957e-01,6.591911315917968750e-01,6.591689586639404297e-01,6.591467261314392090e-01,6.591244935989379883e-01,6.591022610664367676e-01,6.590800881385803223e-01,6.590579152107238770e-01,6.590356826782226562e-01,6.590134501457214355e-01,6.589912772178649902e-01,6.589690446853637695e-01,6.589469313621520996e-01,6.589246988296508789e-01,6.589025259017944336e-01,6.588802933692932129e-01,6.588581204414367676e-01,6.588359475135803223e-01,6.588137745857238770e-01,6.587915420532226562e-01,6.587693691253662109e-01,6.587471365928649902e-01,6.587249636650085449e-01,6.587028503417968750e-01,6.586806178092956543e-01,6.586584448814392090e-01,6.586362719535827637e-01,6.586140990257263184e-01,6.585919260978698730e-01,6.585697531700134277e-01,6.585475802421569824e-01,6.585254073143005371e-01,6.585032343864440918e-01,6.584810614585876465e-01,6.584588885307312012e-01,6.584367752075195312e-01,6.584146022796630859e-01,6.583924293518066406e-01,6.583702564239501953e-01,6.583480834960937500e-01,6.583259105682373047e-01,6.583037972450256348e-01,6.582816839218139648e-01,6.582595109939575195e-01,6.582373380661010742e-01,6.582151651382446289e-01,6.581930518150329590e-01,6.581709384918212891e-01
6.349703073501586914e-01,6.349496841430664062e-01,6.349290609359741211e-01,6.349084377288818359e-01,6.348878741264343262e-01,6.348672509193420410e-01,6.348466873168945312e-01,6.348260641098022461e-01,6.348054409027099609e-01,6.347848176956176758e-01,6.347642540931701660e-01,6.347436904907226562e-01,6.347230672836303711e-01,6.347024440765380859e-01,6.346818804740905762e-01,6.346612572669982910e-01,6.346406936645507812e-01,6.346201300621032715e-01,6.345995068550109863e-01,6.345789432525634766e-01,6.345583200454711914e-01,6.345378160476684570e-01,6.345171928405761719e-01,6.344966292381286621e-01,6.344760060310363770e-01,6.344554424285888672e-01,6.344348788261413574e-01,6.344143152236938477e-01,6.343937516212463379e-01,6.343731284141540527e-01,6.343525648117065430e-01,6.343320012092590332e-01,6.343114376068115234e-01,6.342908740043640137e-01,6.342703104019165039e-01,6.342497467994689941e-01,6.342291831970214844e-01,6.342086195945739746e-01,6.341880559921264648e-01,6.341674923896789551e-01,6.341469287872314453e-01,6.341263651847839355e-01,6.341058015823364258e-01,6.340852379798889160e-01,6.340646743774414062e-01,6.340441703796386719e-01,6.340236067771911621e-01,6.340030431747436523e-01,6.339824795722961426e-01,6.339619755744934082e-01,6.339414715766906738e-01,6.339209079742431641e-01,6.339003443717956543e-01,6.338797807693481445e-01,6.338592767715454102e-01,6.338387131690979004e-01,6.338182091712951660e-01,6.337976455688476562e-01,6.337771415710449219e-01,6.337565779685974121e-01,6.337360143661499023e-01,6.337155103683471680e-01,6.336950063705444336e-01,6.336745023727416992e-01,6.336539387702941895e-01,6.336333751678466797e-01,6.336128711700439453e-01,6.335923075675964355e-01,6.335718631744384766e-01,6.335512995719909668e-01,6.335307955741882324e-01,6.335102915763854980e-01,6.334897279739379883e-01,6.334692239761352539e-01,6.334487795829772949e-01,6.334282159805297852e-01,6.334077119827270508e-01,6.333872079849243164e-01,6.333667039871215820e-01,6.333461999893188477e-01
