5.000000000000000000e+00,5.000000000000000000e+00,5.000000000000000000e+00,5.000000000000000000e+00,5.000000000000000000e+00,5.000000000000000000e+00,5.000000000000000000e+00,5.000000000000000000e+00,5.000000000000000000e+00,5.000000000000000000e+00,5.000000000000000000e+00,5.000000000000000000e+00,5.000000000000000000e+00,5.000000000000000000e+00,5.000000000000000000e+00,5.000000000000000000e+00,5.000000000000000000e+00,5.000000000000000000e+00,5.000000000000000000e+00,5.000000000000000000e+00,5.000000000000000000e+00,5.000000000000000000e+00,5.000000000000000000e+00,5.000000000000000000e+00,5.000000000000000000e+00,5.000000000000000000e+00,5.000000000000000000e+00,5.000000000000000000e+00,5.000000000000000000e+00,5.000000000000000000e+00,5.000000000000000000e+00,5.000000000000000000e+00,5.000000000000000000e+00,5.000000000000000000e+00,5.000000000000000000e+00,5.000000000000000000e+00,5.000000000000000000e+00,5.000000000000000000e+00,5.000000000000000000e+00,5.000000000000000000e+00,5.000000000000000000e+00,5.000000000000000000e+00,5.000000000000000000e+00,4.169170856475830078e+00,4.028028964996337891e+00,3.896130561828613281e+00,3.772596597671508789e+00,3.656655073165893555e+00,3.547627925872802734e+00,3.444913864135742188e+00,3.347979784011840820e+00,3.256352186203002930e+00,3.169605970382690430e+00,3.087361335754394531e+00,3.009277343750000000e+00,2.935045480728149414e+00,2.864387512207031250e+00,2.797051668167114258e+00,2.732809305191040039e+00,2.671451568603515625e+00,2.612788200378417969e+00,2.556646347045898438e+00,2.502866029739379883e+00,2.451301813125610352e+00,2.401819467544555664e+00,2.354295492172241211e+00,2.308615207672119141e+00,2.264674186706542969e+00,2.222374677658081055e+00,2.181626081466674805e+00,2.142345190048217773e+00,2.104453563690185547e+00,2.067878961563110352e+00,2.032554149627685547e+00,1.998415946960449219e+00,1.965405344963073730e+00,1.933467626571655273e+00,1.902551531791687012e+00,1.872608304023742676e+00,1.843593001365661621e+00
5.000000000000000000e+00,5.000000000000000000e+00,5.000000000000000000e+00,5.000000000000000000e+00,5.000000000000000000e+00,5.000000000000000000e+00,5.000000000000000000e+00,5.000000000000000000e+00,5.000000000000000000e+00,5.000000000000000000e+00,5.000000000000000000e+00,5.000000000000000000e+00,5.000000000000000000e+00,5.000000000000000000e+00,5.000000000000000000e+00,5.000000000000000000e+00,5.000000000000000000e+00,5.000000000000000000e+00,5.000000000000000000e+00,5.000000000000000000e+00,5.000000000000000000e+00,5.000000000000000000e+00,5.000000000000000000e+00,5.000000000000000000e+00,5.000000000000000000e+00,5.000000000000000000e+00,5.000000000000000000e+00,5.000000000000000000e+00,5.000000000000000000e+00,5.000000000000000000e+00,5.000000000000000000e+00,5.000000000000000000e+00,5.000000000000000000e+00,5.000000000000000000e+00,5.000000000000000000e+00,5.000000000000000000e+00,5.000000000000000000e+00,5.000000000000000000e+00,5.000000000000000000e+00,5.000000000000000000e+00,5.000000000000000000e+00,5.000000000000000000e+00,4.320672512054443359e+00,4.169272899627685547e+00,4.028123855590820312e+00,3.896219730377197266e+00,3.772679567337036133e+00,3.656733512878417969e+00,3.547701597213745117e+00,3.444983005523681641e+00,3.348045587539672852e+00,3.256414413452148438e+00,3.169664621353149414e+00,3.087417364120483398e+00,3.009330511093139648e+00,2.935095787048339844e+00,2.864435672760009766e+00,2.797097682952880859e+00,2.732853174209594727e+00,2.671493291854858398e+00,2.612828254699707031e+00,2.556684732437133789e+00,2.502902746200561523e+00,2.451337099075317383e+00,2.401853322982788086e+00,2.354327678680419922e+00,2.308646440505981445e+00,2.264704465866088867e+00,2.222403526306152344e+00,2.181653976440429688e+00,2.142372131347656250e+00,2.104479551315307617e+00,2.067903995513916016e+00,2.032578468322753906e+00,1.998439311981201172e+00,1.965427994728088379e+00,1.933489680290222168e+00,1.902572631835937500e+00,1.872628808021545410e+00,1.843613028526306152e+00
5.000000000000000000e+00,5.000000000000000000e+00,5.000000000000000000e+00,5.000000000000000000e+00,5.000000000000000000e+00,5.000000000000000000e+00,5.000000000000000000e+00,5.000000000000000000e+00,5.000000000000000000e+00,5.000000000000000000e+00,5.000000000000000000e+00,5.000000000000000000e+00,5.000000000000000000e+00,5.000000000000000000e+00,5.000000000000000000e+00,5.000000000000000000e+00,5.000000000000000000e+00,5.000000000000000000e+00,5.000000000000000000e+00,5.000000000000000000e+00,5.000000000000000000e+00,5.000000000000000000e+00,5.000000000000000000e+00,5.000000000000000000e+00,5.000000000000000000e+00,5.000000000000000000e+00,5.000000000000000000e+00,5.000000000000000000e+00,5.000000000000000000e+00,5.000000000000000000e+00,5.000000000000000000e+00,5.000000000000000000e+00,5.000000000000000000e+00,5.000000000000000000e+00,5.000000000000000000e+00,5.000000000000000000e+00,5.000000000000000000e+00,5.000000000000000000e+00,5.000000000000000000e+00,5.000000000000000000e+00,5.000000000000000000e+00,4.483600139617919922e+00,4.320781707763671875e+00,4.169374465942382812e+00,4.028219223022460938e+00,3.896308422088623047e+00,3.772763252258300781e+00,3.656811952590942383e+00,3.547775268554687500e+00,3.445052862167358398e+00,3.348111391067504883e+00,3.256476402282714844e+00,3.169723749160766602e+00,3.087473392486572266e+00,3.009383440017700195e+00,2.935146331787109375e+00,2.864483833312988281e+00,2.797143697738647461e+00,2.732896804809570312e+00,2.671535015106201172e+00,2.612868547439575195e+00,2.556722879409790039e+00,2.502939462661743164e+00,2.451372385025024414e+00,2.401886940002441406e+00,2.354360342025756836e+00,2.308677911758422852e+00,2.264734268188476562e+00,2.222432613372802734e+00,2.181682109832763672e+00,2.142398834228515625e+00,2.104505538940429688e+00,2.067929029464721680e+00,2.032602548599243164e+00,1.998462557792663574e+00,1.965450763702392578e+00,1.933511495590209961e+00,1.902593851089477539e+00,1.872649431228637695e+00,1.843632936477661133e+00
5.000000000000000000e+00,5.000000000000000000e+00,5.000000000000000000e+00,5.000000000000000000e+00,5.000000000000000000e+00,5.000000000000000000e+00,5.000000000000000000e+00,5.000000000000000000e+00,5.000000000000000000e+00,5.000000000000000000e+00,5.000000000000000000e+00,5.000000000000000000e+00,5.000000000000000000e+00,5.000000000000000000e+00,5.000000000000000000e+00,5.000000000000000000e+00,5.000000000000000000e+00,5.000000000000000000e+00,5.000000000000000000e+00,5.000000000000000000e+00,5.000000000000000000e+00,5.000000000000000000e+00,5.000000000000000000e+00,5.000000000000000000e+00,5.000000000000000000e+00,5.000000000000000000e+00,5.000000000000000000e+00,5.000000000000000000e+00,5.000000000000000000e+00,5.000000000000000000e+00,5.000000000000000000e+00,5.000000000000000000e+00,5.000000000000000000e+00,5.000000000000000000e+00,5.000000000000000000e+00,5.000000000000000000e+00,5.000000000000000000e+00,5.000000000000000000e+00,5.000000000000000000e+00,5.000000000000000000e+00,4.659296989440917969e+00,4.483717918395996094e+00,4.320890903472900391e+00,4.169476509094238281e+00,4.028314113616943359e+00,3.896397590637207031e+00,3.772846698760986328e+00,3.656890153884887695e+00,3.547849178314208984e+00,3.445122480392456055e+00,3.348176956176757812e+00,3.256538629531860352e+00,3.169782638549804688e+00,3.087528944015502930e+00,3.009436607360839844e+00,2.935197114944458008e+00,2.864531993865966797e+00,2.797189235687255859e+00,2.732940435409545898e+00,2.671576976776123047e+00,2.612908363342285156e+00,2.556761264801025391e+00,2.502976179122924805e+00,2.451407432556152344e+00,2.401921033859252930e+00,2.354392766952514648e+00,2.308708906173706055e+00,2.264764547348022461e+00,2.222461462020874023e+00,2.181709766387939453e+00,2.142425775527954102e+00,2.104531526565551758e+00,2.067954301834106445e+00,2.032626628875732422e+00,1.998486042022705078e+00,1.965473294258117676e+00,1.933533430099487305e+00,1.902615189552307129e+00,1.872669935226440430e+00,1.843652844429016113e+00
5.000000000000000000e+00,5.000000000000000000e+00,5.000000000000000000e+00,5.000000000000000000e+00,5.000000000000000000e+00,5.000000000000000000e+00,5.000000000000000000e+00,5.000000000000000000e+00,5.000000000000000000e+00,5.000000000000000000e+00,5.000000000000000000e+00,5.000000000000000000e+00,5.000000000000000000e+00,5.000000000000000000e+00,5.000000000000000000e+00,5.000000000000000000e+00,5.000000000000000000e+00,5.000000000000000000e+00,5.000000000000000000e+00,5.000000000000000000e+00,5.000000000000000000e+00,5.000000000000000000e+00,5.000000000000000000e+00,5.000000000000000000e+00,5.000000000000000000e+00,5.000000000000000000e+00,5.000000000000000000e+00,5.000000000000000000e+00,5.000000000000000000e+00,5.000000000000000000e+00,5.000000000000000000e+00,5.000000000000000000e+00,5.000000000000000000e+00,5.000000000000000000e+00,5.000000000000000000e+00,5.000000000000000000e+00,5.000000000000000000e+00,5.000000000000000000e+00,5.000000000000000000e+00,4.849325180053710938e+00,4.659423828125000000e+00,4.483835697174072266e+00,4.321000576019287109e+00,4.169578552246093750e+00,4.028409004211425781e+00,3.896486759185791016e+00,3.772929906845092773e+00,3.656968593597412109e+00,3.547923088073730469e+00,3.445191860198974609e+00,3.348242759704589844e+00,3.256600856781005859e+00,3.169841289520263672e+00,3.087584972381591797e+00,3.009489774703979492e+00,2.935247659683227539e+00,2.864579916000366211e+00,2.797235250473022461e+00,2.732984304428100586e+00,2.671618700027465820e+00,2.612948417663574219e+00,2.556799650192260742e+00,2.503012895584106445e+00,2.451442718505859375e+00,2.401954889297485352e+00,2.354425191879272461e+00,2.308740139007568359e+00,2.264794588088989258e+00,2.222490310668945312e+00,2.181737661361694336e+00,2.142452716827392578e+00,2.104557514190673828e+00,2.067978858947753906e+00,2.032650947570800781e+00,1.998509407043457031e+00,1.965495824813842773e+00,1.933555483818054199e+00,1.902636289596557617e+00,1.872690439224243164e+00,1.843672871589660645e+00
5.000000000000000000e+00,5.000000000000000000e+00,5.000000000000000000e+00,5.000000000000000000e+00,5.000000000000000000e+00,5.000000000000000000e+00,5.000000000000000000e+00,5.000000000000000000e+00,5.000000000000000000e+00,5.000000000000000000e+00,5.000000000000000000e+00,5.000000000000000000e+00,5.000000000000000000e+00,5.000000000000000000e+00,5.000000000000000000e+00,5.000000000000000000e+00,5.000000000000000000e+00,5.000000000000000000e+00,5.000000000000000000e+00,5.000000000000000000e+00,5.000000000000000000e+00,5.000000000000000000e+00,5.000000000000000000e+00,5.000000000000000000e+00,5.000000000000000000e+00,5.000000000000000000e+00,5.000000000000000000e+00,5.000000000000000000e+00,5.000000000000000000e+00,5.000000000000000000e+00,5.000000000000000000e+00,5.000000000000000000e+00,5.000000000000000000e+00,5.000000000000000000e+00,5.000000000000000000e+00,5.000000000000000000e+00,5.000000000000000000e+00,5.000000000000000000e+00,5.000000000000000000e+00,4.849462985992431641e+00,4.659551143646240234e+00,4.483953952789306641e+00,4.321110248565673828e+00,4.169680118560791016e+00,4.028504371643066406e+00,3.896575450897216797e+00,3.773013591766357422e+00,3.657047271728515625e+00,3.547996520996093750e+00,3.445261478424072266e+00,3.348308563232421875e+00,3.256662845611572266e+00,3.169900417327880859e+00,3.087641000747680664e+00,3.009542942047119141e+00,2.935297966003417969e+00,2.864628076553344727e+00,2.797281265258789062e+00,2.733027935028076172e+00,2.671660661697387695e+00,2.612988471984863281e+00,2.556837797164916992e+00,2.503049612045288086e+00,2.451478004455566406e+00,2.401988506317138672e+00,2.354457855224609375e+00,2.308771610260009766e+00,2.264824628829956055e+00,2.222519397735595703e+00,2.181765794754028320e+00,2.142479658126831055e+00,2.104583024978637695e+00,2.068004131317138672e+00,2.032675027847290039e+00,1.998532772064208984e+00,1.965518712997436523e+00,1.933577299118041992e+00,1.902657508850097656e+00,1.872711181640625000e+00,1.843692660331726074e+00
5.000000000000000000e+00,5.000000000000000000e+00,5.000000000000000000e+00,5.000000000000000000e+00,5.000000000000000000e+00,5.000000000000000000e+00,5.000000000000000000e+00,5.000000000000000000e+00,5.000000000000000000e+00,5.000000000000000000e+00,5.000000000000000000e+00,5.000000000000000000e+00,5.000000000000000000e+00,5.000000000000000000e+00,5.000000000000000000e+00,5.000000000000000000e+00,5.000000000000000000e+00,5.000000000000000000e+00,5.000000000000000000e+00,5.000000000000000000e+00,5.000000000000000000e+00,5.000000000000000000e+00,5.000000000000000000e+00,5.000000000000000000e+00,5.000000000000000000e+00,5.000000000000000000e+00,5.000000000000000000e+00,5.000000000000000000e+00,5.000000000000000000e+00,5.000000000000000000e+00,5.000000000000000000e+00,5.000000000000000000e+00,5.000000000000000000e+00,5.000000000000000000e+00,5.000000000000000000e+00,5.000000000000000000e+00,5.000000000000000000e+00,5.000000000000000000e+00,5.000000000000000000e+00,4.849600791931152344e+00,4.659678459167480469e+00,4.484071731567382812e+00,4.321219444274902344e+00,4.169782161712646484e+00,4.028599739074707031e+00,3.896664619445800781e+00,3.773097038269042969e+00,3.657125234603881836e+00,3.548070430755615234e+00,3.445331096649169922e+00,3.348374128341674805e+00,3.256725072860717773e+00,3.169959306716918945e+00,3.087697029113769531e+00,3.009595870971679688e+00,2.935348510742187500e+00,2.864676237106323242e+00,2.797326803207397461e+00,2.733071804046630859e+00,2.671702384948730469e+00,2.613028287887573242e+00,2.556876182556152344e+00,2.503086328506469727e+00,2.451513290405273438e+00,2.402022361755371094e+00,2.354490280151367188e+00,2.308802604675292969e+00,2.264854669570922852e+00,2.222548246383666992e+00,2.181793689727783203e+00,2.142506361007690430e+00,2.104609012603759766e+00,2.068029165267944336e+00,2.032699346542358398e+00,1.998556256294250488e+00,1.965541243553161621e+00,1.933599114418029785e+00,1.902678847312927246e+00,1.872731685638427734e+00,1.843712568283081055e+00
5.000000000000000000e+00,5.000000000000000000e+00,5.000000000000000000e+00,5.000000000000000000e+00,5.000000000000000000e+00,5.000000000000000000e+00,5.000000000000000000e+00,5.000000000000000000e+00,5.000000000000000000e+00,5.000000000000000000e+00,5.000000000000000000e+00,5.000000000000000000e+00,5.000000000000000000e+00,5.000000000000000000e+00,5.000000000000000000e+00,5.000000000000000000e+00,5.000000000000000000e+00,5.000000000000000000e+00,5.000000000000000000e+00,5.000000000000000000e+00,5.000000000000000000e+00,5.000000000000000000e+00,5.000000000000000000e+00,5.000000000000000000e+00,5.000000000000000000e+00,5.000000000000000000e+00,5.000000000000000000e+00,5.000000000000000000e+00,5.000000000000000000e+00,5.000000000000000000e+00,5.000000000000000000e+00,5.000000000000000000e+00,5.000000000000000000e+00,5.000000000000000000e+00,5.000000000000000000e+00,5.000000000000000000e+00,5.000000000000000000e+00,5.000000000000000000e+00,5.000000000000000000e+00,4.849738597869873047e+00,4.659805774688720703e+00,4.484189033508300781e+00,4.321329116821289062e+00,4.169884204864501953e+00,4.028694629669189453e+00,3.896753787994384766e+00,3.773180246353149414e+00,3.657203912734985352e+00,3.548144340515136719e+00,3.445400476455688477e+00,3.348439931869506836e+00,3.256787300109863281e+00,3.170018434524536133e+00,3.087752580642700195e+00,3.009649038314819336e+00,2.935399055480957031e+00,2.864724159240722656e+00,2.797372817993164062e+00,2.733115673065185547e+00,2.671744108200073242e+00,2.613068342208862305e+00,2.556914567947387695e+00,2.503123044967651367e+00,2.451548576354980469e+00,2.402056217193603516e+00,2.354522705078125000e+00,2.308834075927734375e+00,2.264884710311889648e+00,2.222577333450317383e+00,2.181821107864379883e+00,2.142533302307128906e+00,2.104635000228881836e+00,2.068054199218750000e+00,2.032723426818847656e+00,1.998579621315002441e+00,1.965563774108886719e+00,1.933621168136596680e+00,1.902699947357177734e+00,1.872752070426940918e+00,1.843732595443725586e+00
5.000000000000000000e+00,5.000000000000000000e+00,5.000000000000000000e+00,5.000000000000000000e+00,5.000000000000000000e+00,5.000000000000000000e+00,5.000000000000000000e+00,5.000000000000000000e+00,5.000000000000000000e+00,5.000000000000000000e+00,5.000000000000000000e+00,5.000000000000000000e+00,5.000000000000000000e+00,5.000000000000000000e+00,5.000000000000000000e+00,5.000000000000000000e+00,5.000000000000000000e+00,5.000000000000000000e+00,5.000000000000000000e+00,5.000000000000000000e+00,5.000000000000000000e+00,5.000000000000000000e+00,5.000000000000000000e+00,5.000000000000000000e+00,5.000000000000000000e+00,5.000000000000000000e+00,3.583620786666870117e+00,3.578060865402221680e+00,5.000000000000000000e+00,5.000000000000000000e+00,5.000000000000000000e+00,5.000000000000000000e+00,5.000000000000000000e+00,5.000000000000000000e+00,5.000000000000000000e+00,5.000000000000000000e+00,5.000000000000000000e+00,5.000000000000000000e+00,5.000000000000000000e+00,4.849876403808593750e+00,4.659933090209960938e+00,4.484307289123535156e+00,4.321438312530517578e+00,4.169986248016357422e+00,4.028789997100830078e+00,3.896842479705810547e+00,3.773263931274414062e+00,3.657282352447509766e+00,3.548218011856079102e+00,3.445470094680786133e+00,3.348505735397338867e+00,3.256849527359008789e+00,3.170077085494995117e+00,3.087808609008789062e+00,3.009702205657958984e+00,2.935449361801147461e+00,2.864772558212280273e+00,2.797418832778930664e+00,2.733159303665161133e+00,2.671786069869995117e+00,2.613108634948730469e+00,2.556952714920043945e+00,2.503159761428833008e+00,2.451583862304687500e+00,2.402089834213256836e+00,2.354555368423461914e+00,2.308865308761596680e+00,2.264914989471435547e+00,2.222605943679809570e+00,2.181849241256713867e+00,2.142560243606567383e+00,2.104660987854003906e+00,2.068079233169555664e+00,2.032747745513916016e+00,1.998602986335754395e+00,1.965586662292480469e+00,1.933642983436584473e+00,1.902721166610717773e+00,1.872772812843322754e+00,1.843752503395080566e+00
5.000000000000000000e+00,5.000000000000000000e+00,5.000000000000000000e+00,5.000000000000000000e+00,5.000000000000000000e+00,5.000000000000000000e+00,5.000000000000000000e+00,5.000000000000000000e+00,5.000000000000000000e+00,5.000000000000000000e+00,5.000000000000000000e+00,5.000000000000000000e+00,5.000000000000000000e+00,5.000000000000000000e+00,5.000000000000000000e+00,5.000000000000000000e+00,5.000000000000000000e+00,5.000000000000000000e+00,5.000000000000000000e+00,5.000000000000000000e+00,5.000000000000000000e+00,5.000000000000000000e+00,5.000000000000000000e+00,5.000000000000000000e+00,5.000000000000000000e+00,5.000000000000000000e+00,3.544281005859375000e+00,3.543991804122924805e+00,5.000000000000000000e+00,5.000000000000000000e+00,5.000000000000000000e+00,5.000000000000000000e+00,5.000000000000000000e+00,5.000000000000000000e+00,5.000000000000000000e+00,5.000000000000000000e+00,5.000000000000000000e+00,5.000000000000000000e+00,5.000000000000000000e+00,4.850014209747314453e+00,4.660060405731201172e+00,4.484425067901611328e+00,4.321547985076904297e+00,4.170087814331054688e+00,4.028884887695312500e+00,3.896931648254394531e+00,3.773347377777099609e+00,3.657360553741455078e+00,3.548291921615600586e+00,3.445539951324462891e+00,3.348571538925170898e+00,3.256911516189575195e+00,3.170135974884033203e+00,3.087864637374877930e+00,3.009755134582519531e+00,2.935500144958496094e+00,2.864820718765258789e+00,2.797464609146118164e+00,2.733203172683715820e+00,2.671828031539916992e+00,2.613148450851440430e+00,2.556991100311279297e+00,2.503196716308593750e+00,2.451618909835815430e+00,2.402123928070068359e+00,2.354587793350219727e+00,2.308896541595458984e+00,2.264944553375244141e+00,2.222635030746459961e+00,2.181877136230468750e+00,2.142586946487426758e+00,2.104686975479125977e+00,2.068104505538940430e+00,2.032771825790405273e+00,1.998626589775085449e+00,1.965609192848205566e+00,1.933664917945861816e+00,1.902742505073547363e+00,1.872793316841125488e+00,1.843772292137145996e+00
5.000000000000000000e+00,5.000000000000000000e+00,5.000000000000000000e+00,5.000000000000000000e+00,5.000000000000000000e+00,5.000000000000000000e+00,5.000000000000000000e+00,5.000000000000000000e+00,5.000000000000000000e+00,5.000000000000000000e+00,5.000000000000000000e+00,5.000000000000000000e+00,5.000000000000000000e+00,5.000000000000000000e+00,5.000000000000000000e+00,5.000000000000000000e+00,5.000000000000000000e+00,5.000000000000000000e+00,5.000000000000000000e+00,5.000000000000000000e+00,5.000000000000000000e+00,5.000000000000000000e+00,5.000000000000000000e+00,5.000000000000000000e+00,5.000000000000000000e+00,5.000000000000000000e+00,3.557781219482421875e+00,3.543602705001831055e+00,5.000000000000000000e+00,5.000000000000000000e+00,5.000000000000000000e+00,5.000000000000000000e+00,5.000000000000000000e+00,5.000000000000000000e+00,5.000000000000000000e+00,5.000000000000000000e+00,5.000000000000000000e+00,5.000000000000000000e+00,5.000000000000000000e+00,4.850152492523193359e+00,4.660187721252441406e+00,4.484543323516845703e+00,4.321657657623291016e+00,4.170189857482910156e+00,4.028980255126953125e+00,3.897020816802978516e+00,3.773430585861206055e+00,3.657438993453979492e+00,3.548365831375122070e+00,3.445609569549560547e+00,3.348637104034423828e+00,3.256973981857299805e+00,3.170195102691650391e+00,3.087920188903808594e+00,3.009808301925659180e+00,2.935550689697265625e+00,2.864868640899658203e+00,2.797510385513305664e+00,2.733247041702270508e+00,2.671869754791259766e+00,2.613188505172729492e+00,2.557029485702514648e+00,2.503233194351196289e+00,2.451654195785522461e+00,2.402157783508300781e+00,2.354620456695556641e+00,2.308927536010742188e+00,2.264974832534790039e+00,2.222663879394531250e+00,2.181905031204223633e+00,2.142613887786865234e+00,2.104712963104248047e+00,2.068129301071166992e+00,2.032796144485473633e+00,1.998649835586547852e+00,1.965631723403930664e+00,1.933686971664428711e+00,1.902763605117797852e+00,1.872813820838928223e+00,1.843792438507080078e+00
5.000000000000000000e+00,5.000000000000000000e+00,5.000000000000000000e+00,5.000000000000000000e+00,5.000000000000000000e+00,5.000000000000000000e+00,5.000000000000000000e+00,5.000000000000000000e+00,5.000000000000000000e+00,5.000000000000000000e+00,5.000000000000000000e+00,5.000000000000000000e+00,5.000000000000000000e+00,5.000000000000000000e+00,5.000000000000000000e+00,5.000000000000000000e+00,5.000000000000000000e+00,5.000000000000000000e+00,5.000000000000000000e+00,5.000000000000000000e+00,5.000000000000000000e+00,5.000000000000000000e+00,5.000000000000000000e+00,5.000000000000000000e+00,5.000000000000000000e+00,5.000000000000000000e+00,3.615432500839233398e+00,3.571616888046264648e+00,5.000000000000000000e+00,5.000000000000000000e+00,5.000000000000000000e+00,5.000000000000000000e+00,5.000000000000000000e+00,5.000000000000000000e+00,5.000000000000000000e+00,5.000000000000000000e+00,5.000000000000000000e+00,5.000000000000000000e+00,5.000000000000000000e+00,4.850290298461914062e+00,4.660315036773681641e+00,4.484661102294921875e+00,4.321766853332519531e+00,4.170291900634765625e+00,4.029075145721435547e+00,3.897109508514404297e+00,3.773514270782470703e+00,3.657517671585083008e+00,3.548439741134643555e+00,3.445678949356079102e+00,3.348702907562255859e+00,3.257036209106445312e+00,3.170253753662109375e+00,3.087976217269897461e+00,3.009861469268798828e+00,2.935600996017456055e+00,2.864916801452636719e+00,2.797556400299072266e+00,2.733290672302246094e+00,2.671911716461181641e+00,2.613228559494018555e+00,2.557067632675170898e+00,2.503269910812377930e+00,2.451689481735229492e+00,2.402191638946533203e+00,2.354652643203735352e+00,2.308958768844604492e+00,2.265004873275756836e+00,2.222692728042602539e+00,2.181932926177978516e+00,2.142640829086303711e+00,2.104738950729370117e+00,2.068154573440551758e+00,2.032820463180541992e+00,1.998673200607299805e+00,1.965654611587524414e+00,1.933708786964416504e+00,1.902784824371337891e+00,1.872834444046020508e+00,1.843812227249145508e+00
5.000000000000000000e+00,5.000000000000000000e+00,5.000000000000000000e+00,5.000000000000000000e+00,5.000000000000000000e+00,5.000000000000000000e+00,5.000000000000000000e+00,5.000000000000000000e+00,5.000000000000000000e+00,5.000000000000000000e+00,5.000000000000000000e+00,5.000000000000000000e+00,5.000000000000000000e+00,5.000000000000000000e+00,5.000000000000000000e+00,5.000000000000000000e+00,5.000000000000000000e+00,5.000000000000000000e+00,5.000000000000000000e+00,5.000000000000000000e+00,5.000000000000000000e+00,5.000000000000000000e+00,5.000000000000000000e+00,5.000000000000000000e+00,5.000000000000000000e+00,3.566094160079956055e+00,3.633832693099975586e+00,3.646430492401123047e+00,3.654149770736694336e+00,5.000000000000000000e+00,5.000000000000000000e+00,5.000000000000000000e+00,5.000000000000000000e+00,5.000000000000000000e+00,5.000000000000000000e+00,5.000000000000000000e+00,5.000000000000000000e+00,5.000000000000000000e+00,5.000000000000000000e+00,4.850428104400634766e+00,4.660442352294921875e+00,4.484778881072998047e+00,4.321876525878906250e+00,4.170393943786621094e+00,4.029170513153076172e+00,3.897198677062988281e+00,3.773597717285156250e+00,3.657596111297607422e+00,3.548513174057006836e+00,3.445748567581176758e+00,3.348768711090087891e+00,3.257098197937011719e+00,3.170312643051147461e+00,3.088032245635986328e+00,3.009914398193359375e+00,2.935651540756225586e+00,2.864964962005615234e+00,2.797602176666259766e+00,2.733334541320800781e+00,2.671953439712524414e+00,2.613268613815307617e+00,2.557106018066406250e+00,2.503306865692138672e+00,2.451724767684936523e+00,2.402225017547607422e+00,2.354685068130493164e+00,2.308990001678466797e+00,2.265034914016723633e+00,2.222721815109252930e+00,2.181960821151733398e+00,2.142667770385742188e+00,2.104764938354492188e+00,2.068179607391357422e+00,2.032844543457031250e+00,1.998696804046630859e+00,1.965677142143249512e+00,1.933730602264404297e+00,1.902806162834167480e+00,1.872854948043823242e+00,1.843832373619079590e+00
5.000000000000000000e+00,5.000000000000000000e+00,5.000000000000000000e+00,5.000000000000000000e+00,5.000000000000000000e+00,5.000000000000000000e+00,5.000000000000000000e+00,5.000000000000000000e+00,5.000000000000000000e+00,5.000000000000000000e+00,5.000000000000000000e+00,5.000000000000000000e+00,5.000000000000000000e+00,5.000000000000000000e+00,5.000000000000000000e+00,5.000000000000000000e+00,5.000000000000000000e+00,5.000000000000000000e+00,5.000000000000000000e+00,5.000000000000000000e+00,5.000000000000000000e+00,5.000000000000000000e+00,5.000000000000000000e+00,3.505907297134399414e+00,3.520598173141479492e+00,3.524925708770751953e+00,3.545950889587402344e+00,3.573948383331298828e+00,3.608679056167602539e+00,3.659674882888793945e+00,3.705635547637939453e+00,5.000000000000000000e+00,5.000000000000000000e+00,5.000000000000000000e+00,5.000000000000000000e+00,5.000000000000000000e+00,5.000000000000000000e+00,5.000000000000000000e+00,5.000000000000000000e+00,4.850565910339355469e+00,4.660569667816162109e+00,4.484896659851074219e+00,4.321985721588134766e+00,4.170495510101318359e+00,4.029265880584716797e+00,3.897287845611572266e+00,3.773681402206420898e+00,3.657674312591552734e+00,3.548587083816528320e+00,3.445818424224853516e+00,3.348834276199340820e+00,3.257160425186157227e+00,3.170371770858764648e+00,3.088088035583496094e+00,3.009967565536499023e+00,2.935702085494995117e+00,2.865012884140014648e+00,2.797647953033447266e+00,2.733378410339355469e+00,2.671995162963867188e+00,2.613308668136596680e+00,2.557144403457641602e+00,2.503343582153320312e+00,2.451759576797485352e+00,2.402258872985839844e+00,2.354717731475830078e+00,2.309021234512329102e+00,2.265064954757690430e+00,2.222750902175903320e+00,2.181988716125488281e+00,2.142694711685180664e+00,2.104790925979614258e+00,2.068204641342163086e+00,2.032868862152099609e+00,1.998720169067382812e+00,1.965699672698974609e+00,1.933752655982971191e+00,1.902827262878417969e+00,1.872875690460205078e+00,1.843852162361145020e+00
5.000000000000000000e+00,5.000000000000000000e+00,5.000000000000000000e+00,5.000000000000000000e+00,5.000000000000000000e+00,5.000000000000000000e+00,5.000000000000000000e+00,5.000000000000000000e+00,5.000000000000000000e+00,5.000000000000000000e+00,5.000000000000000000e+00,5.000000000000000000e+00,5.000000000000000000e+00,5.000000000000000000e+00,5.000000000000000000e+00,5.000000000000000000e+00,5.000000000000000000e+00,5.000000000000000000e+00,5.000000000000000000e+00,5.000000000000000000e+00,5.000000000000000000e+00,5.000000000000000000e+00,5.000000000000000000e+00,3.523828983306884766e+00,3.535397291183471680e+00,3.514095783233642578e+00,3.511725664138793945e+00,3.533670186996459961e+00,3.568004846572875977e+00,3.632393836975097656e+00,3.719425439834594727e+00,5.000000000000000000e+00,5.000000000000000000e+00,5.000000000000000000e+00,5.000000000000000000e+00,5.000000000000000000e+00,5.000000000000000000e+00,5.000000000000000000e+00,5.000000000000000000e+00,4.850703716278076172e+00,4.660696983337402344e+00,4.485014438629150391e+00,4.322095394134521484e+00,4.170598030090332031e+00,4.029360771179199219e+00,3.897377014160156250e+00,3.773764610290527344e+00,3.657752990722656250e+00,3.548660993576049805e+00,3.445887804031372070e+00,3.348900079727172852e+00,3.257222652435302734e+00,3.170430421829223633e+00,3.088143825531005859e+00,3.010020732879638672e+00,2.935752391815185547e+00,2.865061044692993164e+00,2.797693967819213867e+00,2.733422040939331055e+00,2.672037124633789062e+00,2.613348722457885742e+00,2.557182788848876953e+00,2.503380060195922852e+00,2.451794862747192383e+00,2.402292728424072266e+00,2.354749917984008789e+00,2.309052467346191406e+00,2.265094995498657227e+00,2.222779750823974609e+00,2.182016611099243164e+00,2.142721652984619141e+00,2.104816675186157227e+00,2.068229675292968750e+00,2.032893180847167969e+00,1.998743414878845215e+00,1.965722441673278809e+00,1.933774471282958984e+00,1.902848720550537109e+00,1.872896194458007812e+00,1.843872070312500000e+00
5.000000000000000000e+00,5.000000000000000000e+00,5.000000000000000000e+00,5.000000000000000000e+00,5.000000000000000000e+00,5.000000000000000000e+00,5.000000000000000000e+00,5.000000000000000000e+00,5.000000000000000000e+00,5.000000000000000000e+00,5.000000000000000000e+00,5.000000000000000000e+00,5.000000000000000000e+00,5.000000000000000000e+00,5.000000000000000000e+00,5.000000000000000000e+00,5.000000000000000000e+00,5.000000000000000000e+00,5.000000000000000000e+00,5.000000000000000000e+00,5.000000000000000000e+00,5.000000000000000000e+00,5.000000000000000000e+00,3.561903953552246094e+00,3.554618358612060547e+00,3.517321586608886719e+00,3.518482446670532227e+00,3.530988931655883789e+00,3.562948226928710938e+00,3.632304668426513672e+00,3.723071813583374023e+00,5.000000000000000000e+00,5.000000000000000000e+00,5.000000000000000000e+00,5.000000000000000000e+00,5.000000000000000000e+00,5.000000000000000000e+00,5.000000000000000000e+00,5.000000000000000000e+00,4.850841999053955078e+00,4.660824298858642578e+00,4.485132217407226562e+00,4.322205066680908203e+00,4.170699596405029297e+00,4.029456138610839844e+00,3.897465705871582031e+00,3.773848295211791992e+00,3.657831430435180664e+00,3.548734664916992188e+00,3.445957422256469727e+00,3.348965883255004883e+00,3.257284641265869141e+00,3.170489549636840820e+00,3.088199853897094727e+00,3.010073661804199219e+00,2.935803174972534180e+00,2.865109205245971680e+00,2.797739744186401367e+00,2.733465909957885742e+00,2.672079086303710938e+00,2.613388776779174805e+00,2.557220935821533203e+00,2.503416776657104492e+00,2.451830148696899414e+00,2.402326583862304688e+00,2.354782581329345703e+00,2.309083700180053711e+00,2.265125036239624023e+00,2.222808599472045898e+00,2.182044506072998047e+00,2.142748355865478516e+00,2.104842662811279297e+00,2.068254709243774414e+00,2.032917261123657227e+00,1.998767018318176270e+00,1.965745091438293457e+00,1.933796644210815430e+00,1.902869820594787598e+00,1.872916698455810547e+00,1.843892097473144531e+00
5.000000000000000000e+00,5.000000000000000000e+00,5.000000000000000000e+00,5.000000000000000000e+00,5.000000000000000000e+00,5.000000000000000000e+00,5.000000000000000000e+00,5.000000000000000000e+00,5.000000000000000000e+00,5.000000000000000000e+00,5.000000000000000000e+00,5.000000000000000000e+00,5.000000000000000000e+00,5.000000000000000000e+00,5.000000000000000000e+00,5.000000000000000000e+00,5.000000000000000000e+00,5.000000000000000000e+00,5.000000000000000000e+00,5.000000000000000000e+00,5.000000000000000000e+00,5.000000000000000000e+00,5.000000000000000000e+00,3.579509496688842773e+00,3.556417465209960938e+00,3.529512882232666016e+00,3.512882709503173828e+00,3.526893615722656250e+00,3.564656734466552734e+00,3.654294252395629883e+00,3.713727712631225586e+00,5.000000000000000000e+00,5.000000000000000000e+00,5.000000000000000000e+00,5.000000000000000000e+00,5.000000000000000000e+00,5.000000000000000000e+00,5.000000000000000000e+00,5.000000000000000000e+00,4.850979804992675781e+00,4.660951614379882812e+00,4.485250473022460938e+00,4.322314262390136719e+00,4.170801639556884766e+00,4.029551029205322266e+00,3.897554874420166016e+00,3.773931741714477539e+00,3.657909631729125977e+00,3.548808574676513672e+00,3.446027278900146484e+00,3.349031448364257812e+00,3.257346868515014648e+00,3.170548439025878906e+00,3.088255643844604492e+00,3.010126829147338867e+00,2.935853719711303711e+00,2.865157365798950195e+00,2.797785758972167969e+00,2.733509778976440430e+00,2.672121047973632812e+00,2.613428354263305664e+00,2.557259082794189453e+00,2.503453493118286133e+00,2.451865196228027344e+00,2.402360439300537109e+00,2.354815244674682617e+00,2.309114933013916016e+00,2.265155076980590820e+00,2.222837686538696289e+00,2.182072401046752930e+00,2.142775297164916992e+00,2.104868888854980469e+00,2.068279981613159180e+00,2.032941579818725586e+00,1.998790383338928223e+00,1.965767860412597656e+00,1.933818459510803223e+00,1.902890920639038086e+00,1.872937321662902832e+00,1.843912005424499512e+00
5.000000000000000000e+00,5.000000000000000000e+00,5.000000000000000000e+00,5.000000000000000000e+00,5.000000000000000000e+00,5.000000000000000000e+00,5.000000000000000000e+00,5.000000000000000000e+00,5.000000000000000000e+00,5.000000000000000000e+00,5.000000000000000000e+00,5.000000000000000000e+00,5.000000000000000000e+00,5.000000000000000000e+00,5.000000000000000000e+00,5.000000000000000000e+00,5.000000000000000000e+00,5.000000000000000000e+00,5.000000000000000000e+00,5.000000000000000000e+00,5.000000000000000000e+00,5.000000000000000000e+00,5.000000000000000000e+00,3.596352577209472656e+00,3.569061040878295898e+00,3.526133060455322266e+00,3.506659507751464844e+00,3.531072616577148438e+00,3.569709300994873047e+00,5.000000000000000000e+00,3.723147153854370117e+00,5.000000000000000000e+00,5.000000000000000000e+00,5.000000000000000000e+00,5.000000000000000000e+00,5.000000000000000000e+00,5.000000000000000000e+00,5.000000000000000000e+00,5.000000000000000000e+00,4.851118087768554688e+00,4.661078929901123047e+00,4.485368251800537109e+00,4.322423934936523438e+00,4.170903682708740234e+00,4.029646396636962891e+00,3.897644042968750000e+00,3.774014949798583984e+00,3.657988071441650391e+00,3.548882484436035156e+00,3.446096420288085938e+00,3.349097251892089844e+00,3.257409334182739258e+00,3.170607328414916992e+00,3.088311672210693359e+00,3.010179996490478516e+00,2.935904264450073242e+00,2.865205526351928711e+00,2.797831773757934570e+00,2.733553647994995117e+00,2.672162771224975586e+00,2.613468647003173828e+00,2.557297468185424805e+00,2.503490209579467773e+00,2.451900720596313477e+00,2.402394294738769531e+00,2.354847431182861328e+00,2.309146165847778320e+00,2.265185356140136719e+00,2.222866535186767578e+00,2.182100296020507812e+00,2.142802238464355469e+00,2.104894876480102539e+00,2.068305015563964844e+00,2.032965660095214844e+00,1.998813986778259277e+00,1.965790390968322754e+00,1.933840274810791016e+00,1.902912378311157227e+00,1.872957825660705566e+00,1.843931794166564941e+00
5.000000000000000000e+00,5.000000000000000000e+00,5.000000000000000000e+00,5.000000000000000000e+00,5.000000000000000000e+00,5.000000000000000000e+00,5.000000000000000000e+00,5.000000000000000000e+00,5.000000000000000000e+00,5.000000000000000000e+00,5.000000000000000000e+00,5.000000000000000000e+00,5.000000000000000000e+00,5.000000000000000000e+00,5.000000000000000000e+00,5.000000000000000000e+00,5.000000000000000000e+00,5.000000000000000000e+00,5.000000000000000000e+00,5.000000000000000000e+00,5.000000000000000000e+00,5.000000000000000000e+00,5.000000000000000000e+00,5.000000000000000000e+00,3.593709468841552734e+00,3.517893314361572266e+00,3.497614860534667969e+00,3.518857240676879883e+00,3.557691574096679688e+00,5.000000000000000000e+00,3.733931779861450195e+00,3.776255130767822266e+00,5.000000000000000000e+00,5.000000000000000000e+00,5.000000000000000000e+00,5.000000000000000000e+00,5.000000000000000000e+00,5.000000000000000000e+00,5.000000000000000000e+00,4.851255893707275391e+00,4.661206245422363281e+00,4.485486507415771484e+00,4.322533607482910156e+00,4.171005725860595703e+00,4.029741764068603516e+00,3.897732734680175781e+00,3.774098634719848633e+00,3.658066749572753906e+00,3.548956155776977539e+00,3.446166276931762695e+00,3.349163055419921875e+00,3.257471323013305664e+00,3.170666217803955078e+00,3.088367700576782227e+00,3.010233402252197266e+00,2.935954570770263672e+00,2.865253686904907227e+00,2.797877788543701172e+00,2.733597040176391602e+00,2.672204494476318359e+00,2.613508701324462891e+00,2.557335853576660156e+00,2.503526926040649414e+00,2.451936006546020508e+00,2.402427911758422852e+00,2.354880094528198242e+00,2.309177637100219727e+00,2.265215158462524414e+00,2.222895622253417969e+00,2.182128190994262695e+00,2.142829418182373047e+00,2.104920625686645508e+00,2.068330049514770508e+00,2.032989978790283203e+00,1.998837232589721680e+00,1.965813040733337402e+00,1.933862328529357910e+00,1.902933478355407715e+00,1.872978329658508301e+00,1.843951940536499023e+00
5.000000000000000000e+00,5.000000000000000000e+00,5.000000000000000000e+00,5.000000000000000000e+00,5.000000000000000000e+00,5.000000000000000000e+00,5.000000000000000000e+00,5.000000000000000000e+00,5.000000000000000000e+00,5.000000000000000000e+00,5.000000000000000000e+00,5.000000000000000000e+00,5.000000000000000000e+00,5.000000000000000000e+00,5.000000000000000000e+00,5.000000000000000000e+00,5.000000000000000000e+00,5.000000000000000000e+00,5.000000000000000000e+00,5.000000000000000000e+00,5.000000000000000000e+00,5.000000000000000000e+00,5.000000000000000000e+00,5.000000000000000000e+00,3.589066743850708008e+00,3.517059087753295898e+00,3.514095067977905273e+00,3.531698226928710938e+00,3.571327924728393555e+00,3.658897876739501953e+00,3.712433338165283203e+00,3.703838825225830078e+00,5.000000000000000000e+00,5.000000000000000000e+00,5.000000000000000000e+00,5.000000000000000000e+00,5.000000000000000000e+00,5.000000000000000000e+00,5.000000000000000000e+00,4.851393699645996094e+00,4.661333560943603516e+00,4.485604286193847656e+00,4.322642803192138672e+00,4.171107769012451172e+00,4.029836654663085938e+00,3.897822141647338867e+00,3.774182319641113281e+00,3.658144950866699219e+00,3.549030065536499023e+00,3.446235895156860352e+00,3.349228620529174805e+00,3.257533550262451172e+00,3.170725345611572266e+00,3.088423728942871094e+00,3.010286331176757812e+00,2.936005353927612305e+00,2.865301847457885742e+00,2.797923326492309570e+00,2.733640909194946289e+00,2.672246217727661133e+00,2.613548517227172852e+00,2.557374238967895508e+00,2.503563642501831055e+00,2.451971054077148438e+00,2.402461767196655273e+00,2.354912757873535156e+00,2.309208631515502930e+00,2.265245437622070312e+00,2.222924709320068359e+00,2.182156324386596680e+00,2.142856121063232422e+00,2.104946613311767578e+00,2.068355083465576172e+00,2.033014059066772461e+00,1.998860597610473633e+00,1.965835809707641602e+00,1.933884143829345703e+00,1.902954697608947754e+00,1.872999072074890137e+00,1.843971729278564453e+00
5.000000000000000000e+00,5.000000000000000000e+00,5.000000000000000000e+00,5.000000000000000000e+00,5.000000000000000000e+00,5.000000000000000000e+00,5.000000000000000000e+00,5.000000000000000000e+00,5.000000000000000000e+00,5.000000000000000000e+00,5.000000000000000000e+00,5.000000000000000000e+00,5.000000000000000000e+00,5.000000000000000000e+00,5.000000000000000000e+00,5.000000000000000000e+00,5.000000000000000000e+00,5.000000000000000000e+00,5.000000000000000000e+00,5.000000000000000000e+00,5.000000000000000000e+00,5.000000000000000000e+00,5.000000000000000000e+00,5.000000000000000000e+00,3.577985286712646484e+00,3.474481821060180664e+00,3.480436086654663086e+00,3.560814142227172852e+00,3.594191789627075195e+00,3.653273105621337891e+00,5.000000000000000000e+00,3.665980577468872070e+00,5.000000000000000000e+00,5.000000000000000000e+00,5.000000000000000000e+00,5.000000000000000000e+00,5.000000000000000000e+00,5.000000000000000000e+00,5.000000000000000000e+00,4.851531505584716797e+00,4.661460876464843750e+00,4.485722064971923828e+00,4.322752475738525391e+00,4.171209335327148438e+00,4.029932022094726562e+00,3.897911310195922852e+00,3.774265527725219727e+00,3.658223390579223633e+00,3.549103975296020508e+00,3.446305274963378906e+00,3.349294424057006836e+00,3.257595777511596680e+00,3.170784235000610352e+00,3.088479280471801758e+00,3.010339498519897461e+00,2.936055898666381836e+00,2.865349769592285156e+00,2.797969102859497070e+00,2.733684778213500977e+00,2.672287940979003906e+00,2.613588571548461914e+00,2.557412624359130859e+00,2.503600358963012695e+00,2.452006340026855469e+00,2.402495861053466797e+00,2.354944944381713867e+00,2.309240102767944336e+00,2.265275478363037109e+00,2.222953557968139648e+00,2.182183980941772461e+00,2.142883062362670898e+00,2.104972600936889648e+00,2.068380117416381836e+00,2.033038377761840820e+00,1.998884201049804688e+00,1.965858340263366699e+00,1.933906078338623047e+00,1.902976036071777344e+00,1.873019576072692871e+00,1.843991637229919434e+00
5.000000000000000000e+00,5.000000000000000000e+00,5.000000000000000000e+00,5.000000000000000000e+00,5.000000000000000000e+00,5.000000000000000000e+00,5.000000000000000000e+00,5.000000000000000000e+00,5.000000000000000000e+00,5.000000000000000000e+00,5.000000000000000000e+00,5.000000000000000000e+00,5.000000000000000000e+00,5.000000000000000000e+00,5.000000000000000000e+00,5.000000000000000000e+00,5.000000000000000000e+00,5.000000000000000000e+00,5.000000000000000000e+00,5.000000000000000000e+00,5.000000000000000000e+00,5.000000000000000000e+00,5.000000000000000000e+00,5.000000000000000000e+00,3.570928096771240234e+00,3.446806669235229492e+00,3.448354005813598633e+00,3.488893985748291016e+00,3.607036113739013672e+00,3.656190156936645508e+00,5.000000000000000000e+00,3.631681919097900391e+00,5.000000000000000000e+00,5.000000000000000000e+00,5.000000000000000000e+00,5.000000000000000000e+00,5.000000000000000000e+00,5.000000000000000000e+00,5.000000000000000000e+00,4.851669311523437500e+00,4.661588191986083984e+00,4.485840320587158203e+00,4.322862148284912109e+00,4.171311855316162109e+00,4.030026912689208984e+00,3.898000001907348633e+00,3.774349212646484375e+00,3.658302068710327148e+00,3.549177646636962891e+00,3.446375131607055664e+00,3.349360466003417969e+00,3.257658243179321289e+00,3.170843124389648438e+00,3.088535308837890625e+00,3.010392665863037109e+00,2.936106204986572266e+00,2.865397691726684570e+00,2.798015117645263672e+00,2.733728408813476562e+00,2.672329902648925781e+00,2.613628864288330078e+00,2.557450771331787109e+00,2.503637075424194336e+00,2.452041625976562500e+00,2.402529478073120117e+00,2.354977607727050781e+00,2.309271335601806641e+00,2.265305519104003906e+00,2.222982406616210938e+00,2.182212114334106445e+00,2.142910003662109375e+00,2.104998588562011719e+00,2.068405151367187500e+00,2.033062696456909180e+00,1.998907566070556641e+00,1.965880990028381348e+00,1.933928132057189941e+00,1.902997136116027832e+00,1.873039960861206055e+00,1.844011664390563965e+00
5.000000000000000000e+00,5.000000000000000000e+00,5.000000000000000000e+00,5.000000000000000000e+00,5.000000000000000000e+00,5.000000000000000000e+00,5.000000000000000000e+00,5.000000000000000000e+00,5.000000000000000000e+00,5.000000000000000000e+00,5.000000000000000000e+00,5.000000000000000000e+00,5.000000000000000000e+00,5.000000000000000000e+00,5.000000000000000000e+00,5.000000000000000000e+00,5.000000000000000000e+00,5.000000000000000000e+00,5.000000000000000000e+00,5.000000000000000000e+00,5.000000000000000000e+00,5.000000000000000000e+00,5.000000000000000000e+00,5.000000000000000000e+00,5.000000000000000000e+00,3.457418441772460938e+00,3.430778026580810547e+00,3.459458589553833008e+00,3.607009410858154297e+00,3.662263870239257812e+00,5.000000000000000000e+00,5.000000000000000000e+00,3.593158721923828125e+00,5.000000000000000000e+00,5.000000000000000000e+00,5.000000000000000000e+00,5.000000000000000000e+00,5.000000000000000000e+00,5.000000000000000000e+00,4.851807594299316406e+00,4.661715984344482422e+00,4.485958099365234375e+00,4.322971820831298828e+00,4.171413421630859375e+00,4.030122280120849609e+00,3.898089170455932617e+00,3.774432659149169922e+00,3.658380270004272461e+00,3.549251556396484375e+00,3.446444749832153320e+00,3.349426269531250000e+00,3.257720232009887695e+00,3.170902013778686523e+00,3.088591337203979492e+00,3.010445594787597656e+00,2.936156511306762695e+00,2.865445852279663086e+00,2.798060894012451172e+00,2.733772277832031250e+00,2.672371864318847656e+00,2.613668680191040039e+00,2.557489156723022461e+00,2.503674030303955078e+00,2.452076673507690430e+00,2.402563333511352539e+00,2.355010271072387695e+00,2.309302568435668945e+00,2.265335559844970703e+00,2.223011493682861328e+00,2.182240009307861328e+00,2.142936944961547852e+00,2.105024576187133789e+00,2.068430423736572266e+00,2.033086776733398438e+00,1.998930931091308594e+00,1.965903759002685547e+00,1.933949947357177734e+00,1.903018355369567871e+00,1.873060703277587891e+00,1.844031572341918945e+00
5.000000000000000000e+00,5.000000000000000000e+00,5.000000000000000000e+00,5.000000000000000000e+00,5.000000000000000000e+00,5.000000000000000000e+00,5.000000000000000000e+00,5.000000000000000000e+00,5.000000000000000000e+00,5.000000000000000000e+00,5.000000000000000000e+00,5.000000000000000000e+00,5.000000000000000000e+00,5.000000000000000000e+00,5.000000000000000000e+00,5.000000000000000000e+00,5.000000000000000000e+00,5.000000000000000000e+00,5.000000000000000000e+00,5.000000000000000000e+00,5.000000000000000000e+00,5.000000000000000000e+00,5.000000000000000000e+00,5.000000000000000000e+00,3.543475627899169922e+00,3.480978727340698242e+00,3.415144205093383789e+00,3.429727315902709961e+00,3.619280815124511719e+00,3.686063051223754883e+00,5.000000000000000000e+00,5.000000000000000000e+00,5.000000000000000000e+00,5.000000000000000000e+00,5.000000000000000000e+00,5.000000000000000000e+00,5.000000000000000000e+00,5.000000000000000000e+00,5.000000000000000000e+00,4.851945400238037109e+00,4.661843299865722656e+00,4.486076354980468750e+00,4.323081016540527344e+00,4.171515464782714844e+00,4.030217647552490234e+00,3.898178339004516602e+00,3.774515867233276367e+00,3.658458709716796875e+00,3.549325466156005859e+00,3.446514606475830078e+00,3.349491834640502930e+00,3.257782459259033203e+00,3.170961141586303711e+00,3.088647127151489258e+00,3.010498523712158203e+00,2.936207294464111328e+00,2.865494012832641602e+00,2.798106908798217773e+00,2.733816146850585938e+00,2.672413587570190430e+00,2.613708734512329102e+00,2.557527542114257812e+00,2.503710508346557617e+00,2.452111959457397461e+00,2.402597188949584961e+00,2.355042695999145508e+00,2.309333801269531250e+00,2.265365839004516602e+00,2.223040580749511719e+00,2.182267665863037109e+00,2.142963886260986328e+00,2.105050563812255859e+00,2.068455457687377930e+00,2.033111095428466797e+00,1.998954415321350098e+00,1.965926289558410645e+00,1.933971762657165527e+00,1.903039693832397461e+00,1.873081207275390625e+00,1.844051361083984375e+00
5.000000000000000000e+00,5.000000000000000000e+00,5.000000000000000000e+00,5.000000000000000000e+00,5.000000000000000000e+00,5.000000000000000000e+00,5.000000000000000000e+00,5.000000000000000000e+00,5.000000000000000000e+00,5.000000000000000000e+00,5.000000000000000000e+00,5.000000000000000000e+00,5.000000000000000000e+00,5.000000000000000000e+00,5.000000000000000000e+00,5.000000000000000000e+00,5.000000000000000000e+00,5.000000000000000000e+00,5.000000000000000000e+00,5.000000000000000000e+00,5.000000000000000000e+00,5.000000000000000000e+00,5.000000000000000000e+00,3.570317745208740234e+00,5.000000000000000000e+00,5.000000000000000000e+00,3.399499654769897461e+00,3.400063276290893555e+00,3.636772155761718750e+00,5.000000000000000000e+00,5.000000000000000000e+00,5.000000000000000000e+00,5.000000000000000000e+00,5.000000000000000000e+00,5.000000000000000000e+00,5.000000000000000000e+00,5.000000000000000000e+00,5.000000000000000000e+00,5.000000000000000000e+00,4.852083683013916016e+00,4.661970615386962891e+00,4.486194133758544922e+00,4.323190689086914062e+00,4.171617507934570312e+00,4.030312538146972656e+00,3.898267269134521484e+00,3.774599552154541016e+00,3.658537387847900391e+00,3.549399375915527344e+00,3.446583986282348633e+00,3.349557638168334961e+00,3.257844686508178711e+00,3.171019792556762695e+00,3.088702917098999023e+00,3.010551691055297852e+00,2.936257600784301758e+00,2.865542173385620117e+00,2.798152685165405273e+00,2.733860015869140625e+00,2.672455549240112305e+00,2.613748788833618164e+00,2.557565689086914062e+00,2.503747463226318359e+00,2.452147245407104492e+00,2.402631044387817383e+00,2.355075120925903320e+00,2.309365034103393555e+00,2.265395879745483398e+00,2.223069429397583008e+00,2.182295799255371094e+00,2.142990827560424805e+00,2.105076551437377930e+00,2.068480491638183594e+00,2.033135414123535156e+00,1.998977780342102051e+00,1.965948939323425293e+00,1.933993816375732422e+00,1.903060793876647949e+00,1.873101711273193359e+00,1.844071507453918457e+00
5.000000000000000000e+00,5.000000000000000000e+00,5.000000000000000000e+00,5.000000000000000000e+00,5.000000000000000000e+00,5.000000000000000000e+00,5.000000000000000000e+00,5.000000000000000000e+00,5.000000000000000000e+00,5.000000000000000000e+00,5.000000000000000000e+00,5.000000000000000000e+00,5.000000000000000000e+00,5.000000000000000000e+00,5.000000000000000000e+00,5.000000000000000000e+00,5.000000000000000000e+00,5.000000000000000000e+00,5.000000000000000000e+00,5.000000000000000000e+00,5.000000000000000000e+00,5.000000000000000000e+00,5.000000000000000000e+00,5.000000000000000000e+00,5.000000000000000000e+00,5.000000000000000000e+00,3.415601491928100586e+00,3.372976541519165039e+00,3.653748273849487305e+00,5.000000000000000000e+00,5.000000000000000000e+00,5.000000000000000000e+00,5.000000000000000000e+00,5.000000000000000000e+00,5.000000000000000000e+00,5.000000000000000000e+00,5.000000000000000000e+00,5.000000000000000000e+00,5.000000000000000000e+00,4.852221488952636719e+00,4.662097930908203125e+00,4.486311912536621094e+00,4.323300361633300781e+00,4.171719551086425781e+00,4.030407905578613281e+00,3.898356437683105469e+00,3.774683237075805664e+00,3.658615827560424805e+00,3.549473047256469727e+00,3.446653604507446289e+00,3.349623441696166992e+00,3.257906675338745117e+00,3.171078681945800781e+00,3.088758945465087891e+00,3.010604619979858398e+00,2.936308145523071289e+00,2.865590333938598633e+00,2.798198461532592773e+00,2.733903884887695312e+00,2.672497510910034180e+00,2.613788843154907227e+00,2.557604074478149414e+00,2.503784179687500000e+00,2.452182531356811523e+00,2.402664899826049805e+00,2.355107784271240234e+00,2.309396505355834961e+00,2.265425920486450195e+00,2.223098278045654297e+00,2.182323694229125977e+00,2.143017530441284180e+00,2.105102539062500000e+00,2.068505525588989258e+00,2.033159494400024414e+00,1.999001145362854004e+00,1.965971708297729492e+00,1.934015750885009766e+00,1.903082013130187988e+00,1.873122453689575195e+00,1.844091296195983887e+00
5.000000000000000000e+00,5.000000000000000000e+00,5.000000000000000000e+00,5.000000000000000000e+00,5.000000000000000000e+00,5.000000000000000000e+00,5.000000000000000000e+00,5.000000000000000000e+00,5.000000000000000000e+00,5.000000000000000000e+00,5.000000000000000000e+00,5.000000000000000000e+00,5.000000000000000000e+00,5.000000000000000000e+00,5.000000000000000000e+00,5.000000000000000000e+00,5.000000000000000000e+00,5.000000000000000000e+00,5.000000000000000000e+00,5.000000000000000000e+00,5.000000000000000000e+00,5.000000000000000000e+00,5.000000000000000000e+00,5.000000000000000000e+00,5.000000000000000000e+00,5.000000000000000000e+00,3.434346914291381836e+00,3.373100757598876953e+00,3.671604156494140625e+00,5.000000000000000000e+00,5.000000000000000000e+00,5.000000000000000000e+00,5.000000000000000000e+00,5.000000000000000000e+00,5.000000000000000000e+00,5.000000000000000000e+00,5.000000000000000000e+00,5.000000000000000000e+00,5.000000000000000000e+00,4.852359771728515625e+00,4.662225246429443359e+00,4.486430168151855469e+00,4.323410034179687500e+00,4.171821594238281250e+00,4.030503273010253906e+00,3.898445606231689453e+00,3.774766921997070312e+00,3.658694028854370117e+00,3.549546957015991211e+00,3.446723461151123047e+00,3.349689006805419922e+00,3.257968902587890625e+00,3.171137571334838867e+00,3.088814496994018555e+00,3.010657787322998047e+00,2.936358928680419922e+00,2.865638256072998047e+00,2.798244476318359375e+00,2.733947753906250000e+00,2.672539234161376953e+00,2.613828897476196289e+00,2.557642698287963867e+00,2.503820896148681641e+00,2.452217817306518555e+00,2.402698755264282227e+00,2.355140209197998047e+00,2.309427499771118164e+00,2.265455961227416992e+00,2.223127365112304688e+00,2.182351589202880859e+00,2.143044471740722656e+00,2.105128526687622070e+00,2.068530559539794922e+00,2.033183813095092773e+00,1.999024748802185059e+00,1.965994358062744141e+00,1.934037566184997559e+00,1.903103351593017578e+00,1.873142957687377930e+00,1.844111204147338867e+00
5.000000000000000000e+00,5.000000000000000000e+00,5.000000000000000000e+00,5.000000000000000000e+00,5.000000000000000000e+00,5.000000000000000000e+00,5.000000000000000000e+00,5.000000000000000000e+00,5.000000000000000000e+00,5.000000000000000000e+00,5.000000000000000000e+00,5.000000000000000000e+00,5.000000000000000000e+00,5.000000000000000000e+00,5.000000000000000000e+00,5.000000000000000000e+00,5.000000000000000000e+00,5.000000000000000000e+00,5.000000000000000000e+00,5.000000000000000000e+00,5.000000000000000000e+00,5.000000000000000000e+00,5.000000000000000000e+00,5.000000000000000000e+00,5.000000000000000000e+00,5.000000000000000000e+00,3.420612812042236328e+00,3.394960165023803711e+00,3.723423242568969727e+00,5.000000000000000000e+00,5.000000000000000000e+00,5.000000000000000000e+00,5.000000000000000000e+00,5.000000000000000000e+00,5.000000000000000000e+00,5.000000000000000000e+00,5.000000000000000000e+00,5.000000000000000000e+00,5.000000000000000000e+00,4.852496147155761719e+00,4.662353038787841797e+00,4.486547946929931641e+00,4.323519229888916016e+00,4.171923637390136719e+00,4.030598163604736328e+00,3.898534774780273438e+00,3.774850130081176758e+00,3.658772706985473633e+00,3.549621105194091797e+00,3.446792840957641602e+00,3.349754810333251953e+00,3.258031129837036133e+00,3.171196460723876953e+00,3.088870525360107422e+00,3.010711193084716797e+00,2.936409235000610352e+00,2.865686416625976562e+00,2.798290491104125977e+00,2.733991384506225586e+00,2.672581195831298828e+00,2.613868951797485352e+00,2.557681083679199219e+00,2.503857612609863281e+00,2.452253103256225586e+00,2.402732610702514648e+00,2.355172634124755859e+00,2.309458971023559570e+00,2.265486001968383789e+00,2.223156213760375977e+00,2.182379484176635742e+00,2.143071651458740234e+00,2.105154514312744141e+00,2.068555831909179688e+00,2.033208131790161133e+00,1.999047994613647461e+00,1.966016888618469238e+00,1.934059619903564453e+00,1.903124570846557617e+00,1.873163342475891113e+00,1.844131231307983398e+00
5.000000000000000000e+00,5.000000000000000000e+00,5.000000000000000000e+00,5.000000000000000000e+00,5.000000000000000000e+00,5.000000000000000000e+00,5.000000000000000000e+00,5.000000000000000000e+00,5.000000000000000000e+00,5.000000000000000000e+00,5.000000000000000000e+00,5.000000000000000000e+00,5.000000000000000000e+00,5.000000000000000000e+00,5.000000000000000000e+00,5.000000000000000000e+00,5.000000000000000000e+00,5.000000000000000000e+00,5.000000000000000000e+00,5.000000000000000000e+00,5.000000000000000000e+00,5.000000000000000000e+00,5.000000000000000000e+00,5.000000000000000000e+00,5.000000000000000000e+00,5.000000000000000000e+00,3.428555011749267578e+00,3.409774541854858398e+00,5.000000000000000000e+00,5.000000000000000000e+00,5.000000000000000000e+00,5.000000000000000000e+00,5.000000000000000000e+00,5.000000000000000000e+00,5.000000000000000000e+00,5.000000000000000000e+00,5.000000000000000000e+00,5.000000000000000000e+00,5.000000000000000000e+00,4.852634429931640625e+00,4.662480354309082031e+00,4.486665725708007812e+00,4.323628902435302734e+00,4.172025680541992188e+00,4.030693531036376953e+00,3.898623704910278320e+00,3.774933815002441406e+00,3.658851385116577148e+00,3.549694538116455078e+00,3.446862459182739258e+00,3.349820613861083984e+00,3.258093118667602539e+00,3.171255350112915039e+00,3.088926553726196289e+00,3.010764122009277344e+00,2.936459779739379883e+00,2.865734815597534180e+00,2.798336267471313477e+00,2.734035253524780273e+00,2.672623157501220703e+00,2.613909006118774414e+00,2.557719230651855469e+00,2.503894329071044922e+00,2.452288389205932617e+00,2.402766466140747070e+00,2.355205297470092773e+00,2.309490203857421875e+00,2.265516042709350586e+00,2.223185300827026367e+00,2.182407379150390625e+00,2.143098354339599609e+00,2.105180501937866211e+00,2.068580865859985352e+00,2.033232212066650391e+00,1.999071359634399414e+00,1.966039657592773438e+00,1.934081554412841797e+00,1.903145670890808105e+00,1.873184084892272949e+00,1.844151139259338379e+00
5.000000000000000000e+00,5.000000000000000000e+00,5.000000000000000000e+00,5.000000000000000000e+00,5.000000000000000000e+00,5.000000000000000000e+00,5.000000000000000000e+00,5.000000000000000000e+00,5.000000000000000000e+00,5.000000000000000000e+00,5.000000000000000000e+00,5.000000000000000000e+00,5.000000000000000000e+00,5.000000000000000000e+00,5.000000000000000000e+00,5.000000000000000000e+00,5.000000000000000000e+00,5.000000000000000000e+00,5.000000000000000000e+00,5.000000000000000000e+00,5.000000000000000000e+00,5.000000000000000000e+00,5.000000000000000000e+00,5.000000000000000000e+00,5.000000000000000000e+00,5.000000000000000000e+00,3.437440156936645508e+00,3.409054756164550781e+00,5.000000000000000000e+00,5.000000000000000000e+00,5.000000000000000000e+00,5.000000000000000000e+00,5.000000000000000000e+00,5.000000000000000000e+00,5.000000000000000000e+00,5.000000000000000000e+00,5.000000000000000000e+00,5.000000000000000000e+00,5.000000000000000000e+00,4.852772712707519531e+00,4.662606239318847656e+00,4.486783981323242188e+00,4.323738574981689453e+00,4.172127723693847656e+00,4.030788898468017578e+00,3.898712873458862305e+00,3.775017499923706055e+00,3.658929586410522461e+00,3.549768447875976562e+00,3.446932077407836914e+00,3.349886178970336914e+00,3.258155584335327148e+00,3.171314477920532227e+00,3.088982343673706055e+00,3.010817289352416992e+00,2.936510324478149414e+00,2.865782737731933594e+00,2.798382282257080078e+00,2.734079122543334961e+00,2.672664880752563477e+00,2.613949060440063477e+00,2.557757616043090820e+00,2.503931283950805664e+00,2.452323436737060547e+00,2.402800321578979492e+00,2.355237722396850586e+00,2.309521436691284180e+00,2.265546083450317383e+00,2.223214387893676758e+00,2.182435274124145508e+00,2.143125295639038086e+00,2.105206489562988281e+00,2.068605899810791016e+00,2.033256530761718750e+00,1.999094963073730469e+00,1.966062307357788086e+00,1.934103369712829590e+00,1.903167009353637695e+00,1.873204588890075684e+00,1.844171047210693359e+00
5.000000000000000000e+00,5.000000000000000000e+00,5.000000000000000000e+00,5.000000000000000000e+00,5.000000000000000000e+00,5.000000000000000000e+00,5.000000000000000000e+00,5.000000000000000000e+00,5.000000000000000000e+00,5.000000000000000000e+00,5.000000000000000000e+00,5.000000000000000000e+00,5.000000000000000000e+00,5.000000000000000000e+00,5.000000000000000000e+00,5.000000000000000000e+00,5.000000000000000000e+00,5.000000000000000000e+00,5.000000000000000000e+00,5.000000000000000000e+00,5.000000000000000000e+00,5.000000000000000000e+00,5.000000000000000000e+00,5.000000000000000000e+00,5.000000000000000000e+00,5.000000000000000000e+00,3.462314367294311523e+00,3.410956859588623047e+00,5.000000000000000000e+00,5.000000000000000000e+00,5.000000000000000000e+00,5.000000000000000000e+00,5.000000000000000000e+00,5.000000000000000000e+00,5.000000000000000000e+00,5.000000000000000000e+00,5.000000000000000000e+00,5.000000000000000000e+00,5.000000000000000000e+00,4.852911472320556641e+00,4.662734508514404297e+00,4.486900806427001953e+00,4.323848247528076172e+00,4.172229766845703125e+00,4.030884265899658203e+00,3.898802042007446289e+00,3.775100708007812500e+00,3.659007787704467773e+00,3.549842357635498047e+00,3.447001457214355469e+00,3.349951982498168945e+00,3.258217811584472656e+00,3.171373367309570312e+00,3.089038372039794922e+00,3.010870456695556641e+00,2.936560869216918945e+00,2.865830898284912109e+00,2.798428058624267578e+00,2.734122991561889648e+00,2.672706604003906250e+00,2.613989114761352539e+00,2.557796001434326172e+00,2.503967761993408203e+00,2.452358722686767578e+00,2.402834177017211914e+00,2.355270147323608398e+00,2.309552669525146484e+00,2.265576124191284180e+00,2.223243236541748047e+00,2.182463169097900391e+00,2.143152236938476562e+00,2.105232238769531250e+00,2.068630933761596680e+00,2.033280849456787109e+00,1.999118328094482422e+00,1.966084837913513184e+00,1.934125423431396484e+00,1.903188228607177734e+00,1.873225092887878418e+00,1.844191074371337891e+00
5.000000000000000000e+00,5.000000000000000000e+00,5.000000000000000000e+00,5.000000000000000000e+00,5.000000000000000000e+00,5.000000000000000000e+00,5.000000000000000000e+00,5.000000000000000000e+00,5.000000000000000000e+00,5.000000000000000000e+00,5.000000000000000000e+00,5.000000000000000000e+00,5.000000000000000000e+00,5.000000000000000000e+00,5.000000000000000000e+00,5.000000000000000000e+00,5.000000000000000000e+00,5.000000000000000000e+00,5.000000000000000000e+00,5.000000000000000000e+00,5.000000000000000000e+00,5.000000000000000000e+00,5.000000000000000000e+00,5.000000000000000000e+00,5.000000000000000000e+00,5.000000000000000000e+00,3.935878992080688477e+00,3.420414209365844727e+00,5.000000000000000000e+00,5.000000000000000000e+00,5.000000000000000000e+00,5.000000000000000000e+00,5.000000000000000000e+00,5.000000000000000000e+00,5.000000000000000000e+00,5.000000000000000000e+00,5.000000000000000000e+00,5.000000000000000000e+00,5.000000000000000000e+00,4.853049755096435547e+00,4.662861824035644531e+00,4.487019062042236328e+00,4.323956489562988281e+00,4.172331809997558594e+00,4.030979633331298828e+00,3.898890972137451172e+00,3.775184154510498047e+00,3.659086465835571289e+00,3.549916028976440430e+00,3.447071313858032227e+00,3.350017786026000977e+00,3.258279800415039062e+00,3.171432256698608398e+00,3.089094400405883789e+00,3.010923385620117188e+00,2.936611413955688477e+00,2.865879058837890625e+00,2.798474073410034180e+00,2.734166622161865234e+00,2.672748565673828125e+00,2.614029169082641602e+00,2.557834148406982422e+00,2.504004716873168945e+00,2.452394008636474609e+00,2.402867794036865234e+00,2.355302810668945312e+00,2.309583902359008789e+00,2.265606164932250977e+00,2.223272085189819336e+00,2.182491302490234375e+00,2.143179178237915039e+00,2.105258464813232422e+00,2.068655967712402344e+00,2.033304929733276367e+00,1.999141693115234375e+00,1.966107606887817383e+00,1.934147238731384277e+00,1.903209328651428223e+00,1.873245835304260254e+00,1.844210982322692871e+00
5.000000000000000000e+00,5.000000000000000000e+00,5.000000000000000000e+00,5.000000000000000000e+00,5.000000000000000000e+00,5.000000000000000000e+00,5.000000000000000000e+00,5.000000000000000000e+00,5.000000000000000000e+00,5.000000000000000000e+00,5.000000000000000000e+00,5.000000000000000000e+00,5.000000000000000000e+00,5.000000000000000000e+00,5.000000000000000000e+00,5.000000000000000000e+00,5.000000000000000000e+00,5.000000000000000000e+00,5.000000000000000000e+00,5.000000000000000000e+00,5.000000000000000000e+00,5.000000000000000000e+00,5.000000000000000000e+00,5.000000000000000000e+00,5.000000000000000000e+00,3.948739767074584961e+00,5.000000000000000000e+00,3.426990509033203125e+00,5.000000000000000000e+00,5.000000000000000000e+00,5.000000000000000000e+00,5.000000000000000000e+00,5.000000000000000000e+00,5.000000000000000000e+00,5.000000000000000000e+00,5.000000000000000000e+00,5.000000000000000000e+00,5.000000000000000000e+00,5.000000000000000000e+00,4.853188037872314453e+00,4.662989616394042969e+00,4.487137317657470703e+00,4.324066162109375000e+00,4.172433853149414062e+00,4.031074523925781250e+00,3.898979902267456055e+00,3.775267839431762695e+00,3.659164667129516602e+00,3.549989938735961914e+00,3.447140932083129883e+00,3.350083351135253906e+00,3.258342027664184570e+00,3.171491384506225586e+00,3.089150428771972656e+00,3.010976791381835938e+00,2.936661958694458008e+00,2.865927457809448242e+00,2.798519849777221680e+00,2.734210491180419922e+00,2.672790527343750000e+00,2.614069223403930664e+00,2.557872772216796875e+00,2.504041433334350586e+00,2.452429294586181641e+00,2.402901887893676758e+00,2.355335235595703125e+00,2.309615135192871094e+00,2.265636444091796875e+00,2.223301172256469727e+00,2.182519197463989258e+00,2.143206119537353516e+00,2.105284452438354492e+00,2.068681240081787109e+00,2.033329248428344727e+00,1.999165296554565430e+00,1.966130256652832031e+00,1.934169173240661621e+00,1.903230786323547363e+00,1.873266339302062988e+00,1.844230771064758301e+00
4.875195980072021484e+00,4.873985290527343750e+00,4.872775077819824219e+00,4.871565818786621094e+00,4.870357036590576172e+00,4.869148731231689453e+00,4.867941379547119141e+00,4.866734504699707031e+00,4.865528106689453125e+00,4.864322662353515625e+00,4.863117218017578125e+00,4.861912727355957031e+00,4.860708713531494141e+00,4.859505176544189453e+00,4.858302593231201172e+00,4.857100486755371094e+00,4.855898857116699219e+00,4.854698181152343750e+00,4.853497505187988281e+00,4.852297782897949219e+00,4.851098537445068359e+00,4.849900245666503906e+00,4.848702430725097656e+00,4.847504615783691406e+00,4.846307754516601562e+00,3.901484012603759766e+00,3.967140913009643555e+00,3.442342281341552734e+00,4.841526508331298828e+00,4.840332508087158203e+00,4.839139461517333984e+00,4.837946414947509766e+00,4.836754322052001953e+00,4.835562705993652344e+00,4.834372043609619141e+00,4.833181381225585938e+00,4.831991672515869141e+00,4.830802917480468750e+00,4.829614162445068359e+00,4.828425884246826172e+00,4.663117408752441406e+00,4.487255573272705078e+00,4.324176311492919922e+00,4.172534942626953125e+00,4.031169891357421875e+00,3.899069070816040039e+00,3.775351047515869141e+00,3.659243345260620117e+00,3.550063848495483398e+00,3.447210550308227539e+00,3.350149393081665039e+00,3.258404493331909180e+00,3.171550512313842773e+00,3.089206218719482422e+00,3.011029958724975586e+00,2.936712741851806641e+00,2.865975379943847656e+00,2.798565864562988281e+00,2.734254360198974609e+00,2.672832250595092773e+00,2.614109277725219727e+00,2.557911157608032227e+00,2.504078149795532227e+00,2.452464580535888672e+00,2.402935743331909180e+00,2.355367660522460938e+00,2.309646368026733398e+00,2.265666484832763672e+00,2.223330259323120117e+00,2.182547092437744141e+00,2.143233060836791992e+00,2.105310440063476562e+00,2.068706274032592773e+00,2.033353328704833984e+00,1.999188542366027832e+00,1.966152787208557129e+00,1.934191226959228516e+00,1.903251886367797852e+00,1.873286843299865723e+00,1.844250798225402832e+00
3.778020858764648438e+00,3.777293682098388672e+00,3.776566982269287109e+00,3.775840282440185547e+00,3.775114297866821289e+00,3.774388074874877930e+00,3.773662805557250977e+00,3.772937536239624023e+00,3.772212266921997070e+00,3.771487712860107422e+00,3.770762920379638672e+00,3.770038843154907227e+00,3.769314527511596680e+00,3.768591165542602539e+00,3.767868041992187500e+00,3.767144680023193359e+00,3.766422033309936523e+00,3.765699148178100586e+00,3.764976978302001953e+00,3.764254808425903320e+00,3.763533115386962891e+00,3.762811899185180664e+00,3.762090444564819336e+00,3.761369943618774414e+00,3.760648965835571289e+00,3.759928703308105469e+00,3.759208440780639648e+00,3.406717300415039062e+00,3.361342668533325195e+00,3.339061260223388672e+00,3.756331205368041992e+00,3.755612373352050781e+00,3.754894018173217773e+00,3.754175662994384766e+00,3.753458023071289062e+00,3.752740144729614258e+00,3.752022981643676758e+00,3.751306056976318359e+00,3.750589132308959961e+00,3.749872684478759766e+00,3.749156236648559570e+00,3.748440504074096680e+00,3.747724533081054688e+00,3.747009277343750000e+00,3.746294498443603516e+00,3.745579242706298828e+00,3.744864940643310547e+00,3.659321784973144531e+00,3.550137519836425781e+00,3.447280168533325195e+00,3.350215196609497070e+00,3.258466720581054688e+00,3.171609163284301758e+00,3.089262247085571289e+00,3.011083126068115234e+00,2.936763048171997070e+00,2.866023540496826172e+00,2.798611879348754883e+00,2.734298229217529297e+00,2.672874212265014648e+00,2.614149332046508789e+00,2.557949304580688477e+00,2.504114866256713867e+00,2.452499866485595703e+00,2.402969360351562500e+00,2.355400323867797852e+00,2.309677839279174805e+00,2.265696525573730469e+00,2.223359107971191406e+00,2.182574987411499023e+00,2.143260002136230469e+00,2.105336427688598633e+00,2.068731307983398438e+00,2.033377647399902344e+00,1.999211907386779785e+00,1.966175675392150879e+00,1.934213042259216309e+00,1.903273105621337891e+00,1.873307466506958008e+00,1.844270706176757812e+00
3.083966255187988281e+00,3.083482027053833008e+00,3.082997560501098633e+00,3.082513570785522461e+00,3.082029342651367188e+00,3.081545591354370117e+00,3.081061840057373047e+00,3.080578327178955078e+00,3.080095052719116211e+00,3.079611778259277344e+00,3.079128742218017578e+00,3.078645706176757812e+00,3.078162908554077148e+00,3.077680110931396484e+00,3.077197790145874023e+00,3.076715469360351562e+00,3.076233148574829102e+00,3.075751304626464844e+00,3.075269222259521484e+00,3.074787616729736328e+00,3.074306011199951172e+00,3.073824644088745117e+00,3.073343515396118164e+00,3.072862148284912109e+00,3.072381258010864258e+00,3.071900367736816406e+00,3.071419715881347656e+00,3.070939064025878906e+00,3.070458889007568359e+00,3.069978713989257812e+00,3.069498538970947266e+00,3.069018840789794922e+00,3.068538904190063477e+00,3.068059206008911133e+00,3.067579746246337891e+00,3.067100524902343750e+00,3.066621065139770508e+00,3.066142320632934570e+00,3.065663576126098633e+00,3.065184593200683594e+00,3.064706325531005859e+00,3.064227581024169922e+00,3.063749551773071289e+00,3.063271284103393555e+00,3.062793493270874023e+00,3.062315702438354492e+00,3.061837911605834961e+00,3.061360359191894531e+00,3.060882806777954102e+00,3.060405731201171875e+00,3.059928417205810547e+00,3.059451818466186523e+00,3.058974981307983398e+00,3.058498144149780273e+00,3.011136054992675781e+00,2.936813831329345703e+00,2.866071701049804688e+00,2.798657655715942383e+00,2.734342098236083984e+00,2.672916173934936523e+00,2.614189386367797852e+00,2.557987689971923828e+00,2.504151821136474609e+00,2.452534914016723633e+00,2.403003454208374023e+00,2.355432987213134766e+00,2.309709072113037109e+00,2.265726566314697266e+00,2.223388195037841797e+00,2.182602882385253906e+00,2.143286943435668945e+00,2.105362415313720703e+00,2.068756341934204102e+00,2.033401966094970703e+00,1.999235510826110840e+00,1.966198205947875977e+00,1.934234857559204102e+00,1.903294444084167480e+00,1.873327970504760742e+00,1.844290614128112793e+00
2.605342864990234375e+00,2.604996919631958008e+00,2.604651451110839844e+00,2.604305744171142578e+00,2.603960275650024414e+00,2.603614807128906250e+00,2.603269577026367188e+00,2.602924346923828125e+00,2.602579116821289062e+00,2.602234363555908203e+00,2.601889133453369141e+00,2.601544380187988281e+00,2.601199626922607422e+00,2.600855112075805664e+00,2.600510597229003906e+00,2.600166082382202148e+00,2.599821567535400391e+00,2.599477291107177734e+00,2.599133253097534180e+00,2.598788976669311523e+00,2.598444938659667969e+00,2.598101139068603516e+00,2.597757101058959961e+00,2.597413539886474609e+00,2.597069740295410156e+00,2.596726179122924805e+00,2.596382617950439453e+00,2.596039295196533203e+00,2.595695972442626953e+00,2.595352888107299805e+00,2.595009803771972656e+00,2.594666719436645508e+00,2.594323873519897461e+00,2.593980789184570312e+00,2.593638181686401367e+00,2.593295335769653320e+00,2.592952966690063477e+00,2.592610597610473633e+00,2.592267990112304688e+00,2.591925859451293945e+00,2.591583490371704102e+00,2.591241359710693359e+00,2.590899229049682617e+00,2.590557575225830078e+00,2.590215682983398438e+00,2.589873790740966797e+00,2.589532375335693359e+00,2.589190483093261719e+00,2.588849306106567383e+00,2.588507652282714844e+00,2.588166475296020508e+00,2.587825298309326172e+00,2.587484121322631836e+00,2.587143182754516602e+00,2.586802005767822266e+00,2.586461305618286133e+00,2.586120367050170898e+00,2.585779905319213867e+00,2.585439205169677734e+00,2.585098743438720703e+00,2.584758520126342773e+00,2.558026075363159180e+00,2.504188299179077148e+00,2.452570438385009766e+00,2.403037309646606445e+00,2.355465412139892578e+00,2.309740304946899414e+00,2.265756845474243164e+00,2.223417043685913086e+00,2.182630777359008789e+00,2.143313884735107422e+00,2.105388402938842773e+00,2.068781375885009766e+00,2.033426046371459961e+00,1.999258875846862793e+00,1.966220736503601074e+00,1.934257030487060547e+00,1.903315663337707520e+00,1.873348474502563477e+00,1.844310641288757324e+00
2.255347013473510742e+00,2.255086898803710938e+00,2.254826784133911133e+00,2.254566669464111328e+00,2.254306793212890625e+00,2.254046678543090820e+00,2.253787040710449219e+00,2.253527164459228516e+00,2.253267288208007812e+00,2.253007888793945312e+00,2.252748012542724609e+00,2.252488613128662109e+00,2.252229213714599609e+00,2.251969575881958008e+00,2.251710176467895508e+00,2.251451015472412109e+00,2.251191616058349609e+00,2.250932455062866211e+00,2.250673532485961914e+00,2.250414371490478516e+00,2.250155210494995117e+00,2.249896287918090820e+00,2.249637365341186523e+00,2.249378681182861328e+00,2.249120712280273438e+00,2.248862981796264648e+00,2.248605251312255859e+00,2.248347759246826172e+00,2.248090267181396484e+00,2.247832775115966797e+00,2.247575521469116211e+00,2.247318029403686523e+00,2.247060775756835938e+00,2.246803760528564453e+00,2.246546506881713867e+00,2.246289491653442383e+00,2.246032238006591797e+00,2.245775461196899414e+00,2.245518445968627930e+00,2.245261669158935547e+00,2.245004892349243164e+00,2.244748115539550781e+00,2.244491338729858398e+00,2.244234800338745117e+00,2.243978261947631836e+00,2.243721723556518555e+00,2.243465185165405273e+00,2.243208885192871094e+00,2.242952585220336914e+00,2.242696285247802734e+00,2.242439985275268555e+00,2.242183923721313477e+00,2.241927862167358398e+00,2.241671800613403320e+00,2.241415977478027344e+00,2.241159915924072266e+00,2.240904092788696289e+00,2.240648269653320312e+00,2.240392446517944336e+00,2.240136861801147461e+00,2.239881277084350586e+00,2.239625692367553711e+00,2.239370107650756836e+00,2.239114761352539062e+00,2.238859176635742188e+00,2.238604068756103516e+00,2.238348484039306641e+00,2.238093376159667969e+00,2.223446130752563477e+00,2.182658672332763672e+00,2.143340826034545898e+00,2.105414152145385742e+00,2.068806648254394531e+00,2.033450365066528320e+00,1.999282240867614746e+00,1.966243624687194824e+00,1.934278845787048340e+00,1.903336763381958008e+00,1.873369216918945312e+00,1.844330549240112305e+00
1.988295793533325195e+00,1.988093614578247070e+00,1.987891435623168945e+00,1.987689375877380371e+00,1.987487435340881348e+00,1.987285137176513672e+00,1.987083196640014648e+00,1.986881256103515625e+00,1.986679434776306152e+00,1.986477613449096680e+00,1.986275792121887207e+00,1.986073851585388184e+00,1.985872149467468262e+00,1.985670566558837891e+00,1.985468864440917969e+00,1.985267281532287598e+00,1.985065817832946777e+00,1.984864115715026855e+00,1.984662652015686035e+00,1.984461188316345215e+00,1.984259724617004395e+00,1.984058499336242676e+00,1.983856916427612305e+00,1.983655691146850586e+00,1.983454465866088867e+00,1.983253240585327148e+00,1.983052134513854980e+00,1.982851028442382812e+00,1.982649803161621094e+00,1.982448816299438477e+00,1.982247829437255859e+00,1.982046842575073242e+00,1.981845974922180176e+00,1.981645107269287109e+00,1.981444120407104492e+00,1.981243371963500977e+00,1.981042623519897461e+00,1.980841994285583496e+00,1.980641365051269531e+00,1.980440735816955566e+00,1.980239868164062500e+00,1.980039358139038086e+00,1.979838848114013672e+00,1.979638457298278809e+00,1.979438066482543945e+00,1.979237437248229980e+00,1.979037165641784668e+00,1.978836894035339355e+00,1.978636622428894043e+00,1.978436470031738281e+00,1.978236317634582520e+00,1.978035926818847656e+00,1.977835893630981445e+00,1.977635860443115234e+00,1.977435827255249023e+00,1.977235913276672363e+00,1.977035880088806152e+00,1.976835846900939941e+00,1.976636052131652832e+00,1.976436257362365723e+00,1.976236462593078613e+00,1.976036787033081055e+00,1.975836873054504395e+00,1.975637197494506836e+00,1.975437641143798828e+00,1.975238084793090820e+00,1.975038528442382812e+00,1.974839091300964355e+00,1.974639415740966797e+00,1.974439978599548340e+00,1.974240660667419434e+00,1.974041342735290527e+00,1.973842144012451172e+00,1.973642826080322266e+00,1.973443388938903809e+00,1.966266155242919922e+00,1.934300661087036133e+00,1.903358101844787598e+00,1.873389720916748047e+00,1.844350576400756836e+00
1.777791142463684082e+00,1.777629494667053223e+00,1.777467966079711914e+00,1.777306199073791504e+00,1.777144670486450195e+00,1.776983141899108887e+00,1.776821732521057129e+00,1.776660323143005371e+00,1.776498913764953613e+00,1.776337265968322754e+00,1.776175975799560547e+00,1.776014566421508789e+00,1.775853276252746582e+00,1.775692105293273926e+00,1.775530815124511719e+00,1.775369405746459961e+00,1.775208234786987305e+00,1.775047063827514648e+00,1.774886012077331543e+00,1.774724841117858887e+00,1.774563670158386230e+00,1.774402618408203125e+00,1.774241566658020020e+00,1.774080634117126465e+00,1.773919701576232910e+00,1.773758769035339355e+00,1.773597717285156250e+00,1.773436784744262695e+00,1.773275971412658691e+00,1.773115277290344238e+00,1.772954463958740234e+00,1.772793650627136230e+00,1.772632837295532227e+00,1.772472143173217773e+00,1.772311449050903320e+00,1.772150874137878418e+00,1.771990299224853516e+00,1.771829485893249512e+00,1.771668910980224609e+00,1.771508455276489258e+00,1.771347999572753906e+00,1.771187543869018555e+00,1.771027088165283203e+00,1.770866513252258301e+00,1.770706176757812500e+00,1.770545840263366699e+00,1.770385503768920898e+00,1.770225286483764648e+00,1.770064949989318848e+00,1.769904613494873047e+00,1.769744396209716797e+00,1.769584178924560547e+00,1.769424080848693848e+00,1.769263982772827148e+00,1.769103884696960449e+00,1.768943667411804199e+00,1.768783688545227051e+00,1.768623709678649902e+00,1.768463730812072754e+00,1.768303751945495605e+00,1.768143773078918457e+00,1.767983794212341309e+00,1.767824053764343262e+00,1.767664194107055664e+00,1.767504453659057617e+00,1.767344713211059570e+00,1.767184734344482422e+00,1.767025113105773926e+00,1.766865372657775879e+00,1.766705751419067383e+00,1.766546130180358887e+00,1.766386508941650391e+00,1.766226887702941895e+00,1.766067266464233398e+00,1.765907764434814453e+00,1.765748381614685059e+00,1.765588879585266113e+00,1.765429377555847168e+00,1.765269994735717773e+00,1.765110611915588379e+00
1.607592344284057617e+00,1.607460021972656250e+00,1.607327938079833984e+00,1.607195734977722168e+00,1.607063651084899902e+00,1.606931567192077637e+00,1.606799602508544922e+00,1.606667399406433105e+00,1.606535434722900391e+00,1.606403470039367676e+00,1.606271505355834961e+00,1.606139540672302246e+00,1.606007456779479980e+00,1.605875611305236816e+00,1.605743646621704102e+00,1.605611801147460938e+00,1.605479955673217773e+00,1.605348229408264160e+00,1.605216264724731445e+00,1.605084538459777832e+00,1.604952692985534668e+00,1.604821085929870605e+00,1.604689359664916992e+00,1.604557633399963379e+00,1.604425787925720215e+00,1.604294180870056152e+00,1.604162573814392090e+00,1.604030966758728027e+00,1.603899478912353516e+00,1.603767871856689453e+00,1.603636145591735840e+00,1.603504657745361328e+00,1.603373169898986816e+00,1.603241801261901855e+00,1.603110313415527344e+00,1.602978706359863281e+00,1.602847337722778320e+00,1.602715969085693359e+00,1.602584600448608398e+00,1.602453231811523438e+00,1.602321982383728027e+00,1.602190494537353516e+00,1.602059245109558105e+00,1.601927995681762695e+00,1.601796746253967285e+00,1.601665616035461426e+00,1.601534366607666016e+00,1.601403117179870605e+00,1.601271986961364746e+00,1.601140856742858887e+00,1.601009726524353027e+00,1.600878715515136719e+00,1.600747466087341309e+00,1.600616455078125000e+00,1.600485444068908691e+00,1.600354433059692383e+00,1.600223422050476074e+00,1.600092530250549316e+00,1.599961400032043457e+00,1.599830508232116699e+00,1.599699616432189941e+00,1.599568724632263184e+00,1.599437952041625977e+00,1.599307060241699219e+00,1.599176168441772461e+00,1.599045395851135254e+00,1.598914623260498047e+00,1.598783850669860840e+00,1.598653197288513184e+00,1.598522543907165527e+00,1.598391652107238770e+00,1.598260998725891113e+00,1.598130464553833008e+00,1.597999811172485352e+00,1.597869277000427246e+00,1.597738504409790039e+00,1.597607970237731934e+00,1.597477436065673828e+00,1.597347021102905273e+00,1.597216486930847168e+00
1.467134475708007812e+00,1.467024326324462891e+00,1.466914296150207520e+00,1.466804265975952148e+00,1.466694235801696777e+00,1.466584086418151855e+00,1.466474175453186035e+00,1.466364145278930664e+00,1.466254234313964844e+00,1.466144204139709473e+00,1.466034173965454102e+00,1.465924263000488281e+00,1.465814352035522461e+00,1.465704560279846191e+00,1.465594649314880371e+00,1.465484857559204102e+00,1.465374827384948730e+00,1.465265035629272461e+00,1.465155243873596191e+00,1.465045452117919922e+00,1.464935779571533203e+00,1.464825987815856934e+00,1.464716196060180664e+00,1.464606404304504395e+00,1.464496731758117676e+00,1.464387059211730957e+00,1.464277386665344238e+00,1.464167594909667969e+00,1.464058041572570801e+00,1.463948369026184082e+00,1.463838815689086914e+00,1.463729262351989746e+00,1.463619709014892578e+00,1.463510036468505859e+00,1.463400483131408691e+00,1.463290929794311523e+00,1.463181495666503906e+00,1.463071942329406738e+00,1.462962508201599121e+00,1.462852954864501953e+00,1.462743520736694336e+00,1.462634086608886719e+00,1.462524652481079102e+00,1.462415337562561035e+00,1.462305903434753418e+00,1.462196469306945801e+00,1.462087154388427734e+00,1.461977839469909668e+00,1.461868524551391602e+00,1.461759209632873535e+00,1.461649894714355469e+00,1.461540579795837402e+00,1.461431384086608887e+00,1.461322188377380371e+00,1.461212992668151855e+00,1.461103796958923340e+00,1.460994482040405273e+00,1.460885286331176758e+00,1.460776209831237793e+00,1.460667133331298828e+00,1.460557937622070312e+00,1.460448861122131348e+00,1.460339665412902832e+00,1.460230588912963867e+00,1.460121631622314453e+00,1.460012555122375488e+00,1.459903597831726074e+00,1.459794402122497559e+00,1.459685444831848145e+00,1.459576487541198730e+00,1.459467649459838867e+00,1.459358692169189453e+00,1.459249734878540039e+00,1.459140777587890625e+00,1.459031820297241211e+00,1.458922982215881348e+00,1.458814144134521484e+00,1.458705306053161621e+00,1.458596587181091309e+00,1.458487629890441895e+00
1.349248528480529785e+00,1.349155426025390625e+00,1.349062204360961914e+00,1.348969221115112305e+00,1.348876118659973145e+00,1.348783016204833984e+00,1.348690032958984375e+00,1.348597049713134766e+00,1.348503947257995605e+00,1.348410964012145996e+00,1.348317980766296387e+00,1.348224997520446777e+00,1.348132014274597168e+00,1.348039031028747559e+00,1.347946047782897949e+00,1.347853183746337891e+00,1.347760200500488281e+00,1.347667336463928223e+00,1.347574472427368164e+00,1.347481608390808105e+00,1.347388625144958496e+00,1.347295880317687988e+00,1.347203016281127930e+00,1.347110271453857422e+00,1.347017407417297363e+00,1.346924543380737305e+00,1.346831798553466797e+00,1.346739053726196289e+00,1.346646308898925781e+00,1.346553564071655273e+00,1.346460819244384766e+00,1.346367955207824707e+00,1.346275329589843750e+00,1.346182584762573242e+00,1.346089959144592285e+00,1.345997214317321777e+00,1.345904588699340820e+00,1.345811843872070312e+00,1.345719218254089355e+00,1.345626592636108398e+00,1.345534086227416992e+00,1.345441460609436035e+00,1.345348834991455078e+00,1.345256209373474121e+00,1.345163702964782715e+00,1.345071196556091309e+00,1.344978690147399902e+00,1.344886183738708496e+00,1.344793558120727539e+00,1.344701051712036133e+00,1.344608545303344727e+00,1.344516158103942871e+00,1.344423651695251465e+00,1.344331264495849609e+00,1.344238758087158203e+00,1.344146370887756348e+00,1.344053983688354492e+00,1.343961596488952637e+00,1.343869209289550781e+00,1.343776822090148926e+00,1.343684434890747070e+00,1.343592047691345215e+00,1.343499779701232910e+00,1.343407392501831055e+00,1.343315124511718750e+00,1.343222737312316895e+00,1.343130469322204590e+00,1.343038201332092285e+00,1.342946052551269531e+00,1.342853784561157227e+00,1.342761516571044922e+00,1.342669248580932617e+00,1.342577099800109863e+00,1.342484831809997559e+00,1.342392683029174805e+00,1.342300534248352051e+00,1.342208385467529297e+00,1.342116236686706543e+00,1.342024087905883789e+00,1.341931939125061035e+00
1.248898029327392578e+00,1.248818278312683105e+00,1.248738527297973633e+00,1.248658776283264160e+00,1.248579144477844238e+00,1.248499393463134766e+00,1.248419523239135742e+00,1.248339891433715820e+00,1.248260140419006348e+00,1.248180508613586426e+00,1.248100876808166504e+00,1.248021125793457031e+00,1.247941493988037109e+00,1.247861742973327637e+00,1.247782111167907715e+00,1.247702598571777344e+00,1.247622966766357422e+00,1.247543215751647949e+00,1.247463703155517578e+00,1.247384071350097656e+00,1.247304558753967285e+00,1.247224926948547363e+00,1.247145414352416992e+00,1.247065782546997070e+00,1.246986269950866699e+00,1.246906757354736328e+00,1.246827244758605957e+00,1.246747732162475586e+00,1.246668219566345215e+00,1.246588706970214844e+00,1.246509194374084473e+00,1.246429681777954102e+00,1.246350288391113281e+00,1.246270895004272461e+00,1.246191382408142090e+00,1.246111869812011719e+00,1.246032476425170898e+00,1.245953083038330078e+00,1.245873689651489258e+00,1.245794296264648438e+00,1.245714902877807617e+00,1.245635509490966797e+00,1.245556235313415527e+00,1.245476841926574707e+00,1.245397567749023438e+00,1.245318174362182617e+00,1.245238780975341797e+00,1.245159506797790527e+00,1.245080232620239258e+00,1.245000958442687988e+00,1.244921684265136719e+00,1.244842410087585449e+00,1.244763135910034180e+00,1.244683861732482910e+00,1.244604706764221191e+00,1.244525432586669922e+00,1.244446277618408203e+00,1.244367003440856934e+00,1.244287729263305664e+00,1.244208574295043945e+00,1.244129419326782227e+00,1.244050264358520508e+00,1.243971109390258789e+00,1.243891954421997070e+00,1.243812799453735352e+00,1.243733644485473633e+00,1.243654608726501465e+00,1.243575453758239746e+00,1.243496417999267578e+00,1.243417263031005859e+00,1.243338108062744141e+00,1.243259072303771973e+00,1.243180036544799805e+00,1.243101000785827637e+00,1.243021965026855469e+00,1.242942929267883301e+00,1.242863893508911133e+00,1.242784976959228516e+00,1.242705941200256348e+00,1.242627024650573730e+00
1.162441492080688477e+00,1.162372469902038574e+00,1.162303328514099121e+00,1.162234306335449219e+00,1.162165045738220215e+00,1.162096023559570312e+00,1.162027001380920410e+00,1.161957859992980957e+00,1.161888837814331055e+00,1.161819815635681152e+00,1.161750674247741699e+00,1.161681771278381348e+00,1.161612749099731445e+00,1.161543726921081543e+00,1.161474704742431641e+00,1.161405682563781738e+00,1.161336660385131836e+00,1.161267638206481934e+00,1.161198735237121582e+00,1.161129713058471680e+00,1.161060810089111328e+00,1.160991787910461426e+00,1.160922884941101074e+00,1.160853981971740723e+00,1.160785079002380371e+00,1.160716176033020020e+00,1.160647273063659668e+00,1.160578250885009766e+00,1.160509347915649414e+00,1.160440564155578613e+00,1.160371661186218262e+00,1.160302758216857910e+00,1.160233855247497559e+00,1.160165071487426758e+00,1.160096168518066406e+00,1.160027384757995605e+00,1.159958600997924805e+00,1.159889698028564453e+00,1.159820914268493652e+00,1.159752130508422852e+00,1.159683346748352051e+00,1.159614562988281250e+00,1.159545779228210449e+00,1.159476995468139648e+00,1.159408211708068848e+00,1.159339427947998047e+00,1.159270644187927246e+00,1.159201979637145996e+00,1.159133195877075195e+00,1.159064531326293945e+00,1.158995747566223145e+00,1.158927083015441895e+00,1.158858418464660645e+00,1.158789753913879395e+00,1.158720970153808594e+00,1.158652305603027344e+00,1.158583641052246094e+00,1.158514976501464844e+00,1.158446311950683594e+00,1.158377766609191895e+00,1.158309102058410645e+00,1.158240437507629395e+00,1.158171892166137695e+00,1.158103227615356445e+00,1.158034682273864746e+00,1.157966136932373047e+00,1.157897472381591797e+00,1.157828927040100098e+00,1.157760381698608398e+00,1.157691836357116699e+00,1.157623291015625000e+00,1.157554745674133301e+00,1.157486081123352051e+00,1.157417654991149902e+00,1.157349109649658203e+00,1.157280564308166504e+00,1.157212138175964355e+00,1.157143592834472656e+00,1.157075047492980957e+00,1.157006621360778809e+00
1.087180018424987793e+00,1.087119579315185547e+00,1.087059140205383301e+00,1.086998701095581055e+00,1.086938261985778809e+00,1.086877822875976562e+00,1.086817383766174316e+00,1.086756944656372070e+00,1.086696624755859375e+00,1.086636185646057129e+00,1.086575746536254883e+00,1.086515426635742188e+00,1.086455106735229492e+00,1.086394667625427246e+00,1.086334228515625000e+00,1.086273908615112305e+00,1.086213588714599609e+00,1.086153268814086914e+00,1.086092948913574219e+00,1.086032509803771973e+00,1.085972189903259277e+00,1.085911870002746582e+00,1.085851550102233887e+00,1.085791349411010742e+00,1.085731029510498047e+00,1.085670709609985352e+00,1.085610389709472656e+00,1.085550069808959961e+00,1.085489869117736816e+00,1.085429668426513672e+00,1.085369348526000977e+00,1.085309028625488281e+00,1.085248827934265137e+00,1.085188627243041992e+00,1.085128426551818848e+00,1.085068106651306152e+00,1.085007905960083008e+00,1.084947705268859863e+00,1.084887504577636719e+00,1.084827303886413574e+00,1.084767103195190430e+00,1.084706902503967285e+00,1.084646701812744141e+00,1.084586501121520996e+00,1.084526419639587402e+00,1.084466218948364258e+00,1.084406137466430664e+00,1.084345936775207520e+00,1.084285736083984375e+00,1.084225654602050781e+00,1.084165573120117188e+00,1.084105372428894043e+00,1.084045290946960449e+00,1.083985090255737305e+00,1.083925008773803711e+00,1.083864927291870117e+00,1.083804845809936523e+00,1.083744883537292480e+00,1.083684802055358887e+00,1.083624601364135742e+00,1.083564639091491699e+00,1.083504557609558105e+00,1.083444476127624512e+00,1.083384513854980469e+00,1.083324432373046875e+00,1.083264350891113281e+00,1.083204388618469238e+00,1.083144426345825195e+00,1.083084344863891602e+00,1.083024382591247559e+00,1.082964301109313965e+00,1.082904338836669922e+00,1.082844376564025879e+00,1.082784414291381836e+00,1.082724452018737793e+00,1.082664489746093750e+00,1.082604527473449707e+00,1.082544565200805664e+00,1.082484602928161621e+00,1.082424759864807129e+00
1.021071434020996094e+00,1.021018147468566895e+00,1.020964860916137695e+00,1.020911574363708496e+00,1.020858287811279297e+00,1.020804882049560547e+00,1.020751595497131348e+00,1.020698308944702148e+00,1.020645022392272949e+00,1.020591735839843750e+00,1.020538449287414551e+00,1.020485162734985352e+00,1.020431876182556152e+00,1.020378708839416504e+00,1.020325422286987305e+00,1.020272135734558105e+00,1.020218968391418457e+00,1.020165681838989258e+00,1.020112395286560059e+00,1.020059227943420410e+00,1.020006060600280762e+00,1.019952774047851562e+00,1.019899606704711914e+00,1.019846320152282715e+00,1.019793152809143066e+00,1.019739985466003418e+00,1.019686818122863770e+00,1.019633650779724121e+00,1.019580364227294922e+00,1.019527316093444824e+00,1.019474148750305176e+00,1.019420981407165527e+00,1.019367814064025879e+00,1.019314646720886230e+00,1.019261479377746582e+00,1.019208312034606934e+00,1.019155263900756836e+00,1.019102096557617188e+00,1.019049048423767090e+00,1.018995881080627441e+00,1.018942713737487793e+00,1.018889665603637695e+00,1.018836617469787598e+00,1.018783450126647949e+00,1.018730401992797852e+00,1.018677234649658203e+00,1.018624186515808105e+00,1.018571138381958008e+00,1.018518090248107910e+00,1.018465042114257812e+00,1.018411993980407715e+00,1.018358945846557617e+00,1.018305897712707520e+00,1.018252849578857422e+00,1.018199801445007324e+00,1.018146753311157227e+00,1.018093824386596680e+00,1.018040776252746582e+00,1.017987728118896484e+00,1.017934679985046387e+00,1.017881751060485840e+00,1.017828702926635742e+00,1.017775654792785645e+00,1.017722725868225098e+00,1.017669796943664551e+00,1.017616868019104004e+00,1.017563819885253906e+00,1.017510890960693359e+00,1.017457842826843262e+00,1.017404913902282715e+00,1.017351984977722168e+00,1.017299056053161621e+00,1.017246127128601074e+00,1.017193317413330078e+00,1.017140269279479980e+00,1.017087340354919434e+00,1.017034530639648438e+00,1.016981601715087891e+00,1.016928672790527344e+00,1.016875743865966797e+00
