5.000000000000000000e+00,5.000000000000000000e+00,5.000000000000000000e+00,5.000000000000000000e+00,5.000000000000000000e+00,5.000000000000000000e+00,5.000000000000000000e+00,5.000000000000000000e+00,5.000000000000000000e+00,5.000000000000000000e+00,5.000000000000000000e+00,5.000000000000000000e+00,5.000000000000000000e+00,5.000000000000000000e+00,5.000000000000000000e+00,5.000000000000000000e+00,5.000000000000000000e+00,5.000000000000000000e+00,5.000000000000000000e+00,5.000000000000000000e+00,5.000000000000000000e+00,5.000000000000000000e+00,5.000000000000000000e+00,1.491624832153320312e+00,1.460806369781494141e+00,1.471127390861511230e+00,1.364590167999267578e+00,1.321651935577392578e+00,1.318182706832885742e+00,1.314756035804748535e+00,1.311347246170043945e+00,1.325990676879882812e+00,1.357571363449096680e+00,1.467229723930358887e+00,1.465793132781982422e+00,1.464743614196777344e+00,1.480448484420776367e+00,1.510086059570312500e+00,5.000000000000000000e+00,4.856389522552490234e+00,4.665901184082031250e+00,4.489792346954345703e+00,1.446910619735717773e+00,1.435100674629211426e+00,1.445984244346618652e+00,3.900859355926513672e+00,3.777000665664672852e+00,3.660765409469604492e+00,3.551470518112182617e+00,3.448512792587280273e+00,3.351356267929077148e+00,3.259524345397949219e+00,3.172590732574462891e+00,3.090173721313476562e+00,3.011930465698242188e+00,2.937551498413085938e+00,2.866757631301879883e+00,2.799295663833618164e+00,2.734935760498046875e+00,2.673468828201293945e+00,2.614704132080078125e+00,2.558467149734497070e+00,2.504598379135131836e+00,2.452950954437255859e+00,2.403390884399414062e+00,2.355793714523315430e+00,2.310045242309570312e+00,2.266039609909057617e+00,2.223679304122924805e+00,2.182873725891113281e+00,2.143538713455200195e+00,2.105596303939819336e+00,2.068973541259765625e+00,2.033603191375732422e+00,1.999421715736389160e+00,1.966370463371276855e+00,1.934394001960754395e+00,1.903440952301025391e+00,1.873462796211242676e+00,1.844414353370666504e+00
5.000000000000000000e+00,5.000000000000000000e+00,5.000000000000000000e+00,5.000000000000000000e+00,5.000000000000000000e+00,5.000000000000000000e+00,5.000000000000000000e+00,5.000000000000000000e+00,5.000000000000000000e+00,5.000000000000000000e+00,5.000000000000000000e+00,5.000000000000000000e+00,5.000000000000000000e+00,5.000000000000000000e+00,5.000000000000000000e+00,5.000000000000000000e+00,5.000000000000000000e+00,5.000000000000000000e+00,5.000000000000000000e+00,5.000000000000000000e+00,5.000000000000000000e+00,5.000000000000000000e+00,5.000000000000000000e+00,1.478632569313049316e+00,1.455432415008544922e+00,1.466343522071838379e+00,1.356283545494079590e+00,1.314906477928161621e+00,1.310285449028015137e+00,1.306820631027221680e+00,1.303452849388122559e+00,1.314945220947265625e+00,1.344515204429626465e+00,1.467524528503417969e+00,1.466175556182861328e+00,1.464828848838806152e+00,1.484457135200500488e+00,1.510096669197082520e+00,5.000000000000000000e+00,4.856528282165527344e+00,4.666029453277587891e+00,4.489911079406738281e+00,1.450453877449035645e+00,1.405652880668640137e+00,1.423175454139709473e+00,3.900949239730834961e+00,3.777084827423095703e+00,3.660844326019287109e+00,3.551544904708862305e+00,3.448582887649536133e+00,3.351422548294067383e+00,3.259587049484252930e+00,3.172650098800659180e+00,3.090229988098144531e+00,3.011983633041381836e+00,2.937602281570434570e+00,2.866805791854858398e+00,2.799341678619384766e+00,2.734979629516601562e+00,2.673510789871215820e+00,2.614744186401367188e+00,2.558505535125732422e+00,2.504635095596313477e+00,2.452986478805541992e+00,2.403424978256225586e+00,2.355826616287231445e+00,2.310076713562011719e+00,2.266069889068603516e+00,2.223708629608154297e+00,2.182901859283447266e+00,2.143565893173217773e+00,2.105622529983520508e+00,2.068998813629150391e+00,2.033627510070800781e+00,1.999445319175720215e+00,1.966393351554870605e+00,1.934416055679321289e+00,1.903462290763854980e+00,1.873483538627624512e+00,1.844434499740600586e+00
5.000000000000000000e+00,5.000000000000000000e+00,5.000000000000000000e+00,5.000000000000000000e+00,5.000000000000000000e+00,5.000000000000000000e+00,5.000000000000000000e+00,5.000000000000000000e+00,5.000000000000000000e+00,5.000000000000000000e+00,5.000000000000000000e+00,5.000000000000000000e+00,5.000000000000000000e+00,5.000000000000000000e+00,5.000000000000000000e+00,5.000000000000000000e+00,5.000000000000000000e+00,5.000000000000000000e+00,5.000000000000000000e+00,5.000000000000000000e+00,5.000000000000000000e+00,5.000000000000000000e+00,5.000000000000000000e+00,1.472404956817626953e+00,1.448365926742553711e+00,1.466883301734924316e+00,1.362820029258728027e+00,1.315188169479370117e+00,1.303655266761779785e+00,1.299112796783447266e+00,1.295652866363525391e+00,1.304082274436950684e+00,1.332771539688110352e+00,1.468623042106628418e+00,1.465612053871154785e+00,1.464266538619995117e+00,1.486004352569580078e+00,1.510107278823852539e+00,5.000000000000000000e+00,4.856667518615722656e+00,4.666157722473144531e+00,4.490030288696289062e+00,4.326714515686035156e+00,1.395821571350097656e+00,1.441318392753601074e+00,1.393111944198608398e+00,3.777168512344360352e+00,3.660923004150390625e+00,3.551619052886962891e+00,3.448652744293212891e+00,3.351488351821899414e+00,3.259649276733398438e+00,3.172709226608276367e+00,3.090286016464233398e+00,3.012037277221679688e+00,2.937653064727783203e+00,2.866854429244995117e+00,2.799387931823730469e+00,2.735023736953735352e+00,2.673552989959716797e+00,2.614784717559814453e+00,2.558544158935546875e+00,2.504672288894653320e+00,2.453022003173828125e+00,2.403459072113037109e+00,2.355859279632568359e+00,2.310108184814453125e+00,2.266100168228149414e+00,2.223737716674804688e+00,2.182929992675781250e+00,2.143593072891235352e+00,2.105648517608642578e+00,2.069024085998535156e+00,2.033652067184448242e+00,1.999468922615051270e+00,1.966416120529174805e+00,1.934438228607177734e+00,1.903483748435974121e+00,1.873504281044006348e+00,1.844454526901245117e+00
5.000000000000000000e+00,5.000000000000000000e+00,5.000000000000000000e+00,5.000000000000000000e+00,5.000000000000000000e+00,5.000000000000000000e+00,5.000000000000000000e+00,5.000000000000000000e+00,5.000000000000000000e+00,5.000000000000000000e+00,5.000000000000000000e+00,5.000000000000000000e+00,5.000000000000000000e+00,5.000000000000000000e+00,5.000000000000000000e+00,5.000000000000000000e+00,5.000000000000000000e+00,5.000000000000000000e+00,5.000000000000000000e+00,5.000000000000000000e+00,5.000000000000000000e+00,5.000000000000000000e+00,5.000000000000000000e+00,5.000000000000000000e+00,1.462975859642028809e+00,1.478990912437438965e+00,1.387252569198608398e+00,1.322212696075439453e+00,1.297091722488403320e+00,1.292594909667968750e+00,1.288129091262817383e+00,1.293397188186645508e+00,1.319768309593200684e+00,1.470556497573852539e+00,1.467436909675598145e+00,1.464599251747131348e+00,1.488804340362548828e+00,1.514945626258850098e+00,5.000000000000000000e+00,4.856806278228759766e+00,4.666285991668701172e+00,4.490148544311523438e+00,4.326825141906738281e+00,4.174965381622314453e+00,1.493172645568847656e+00,1.382973432540893555e+00,3.777252674102783203e+00,3.661002159118652344e+00,3.551693439483642578e+00,3.448722839355468750e+00,3.351554632186889648e+00,3.259711980819702148e+00,3.172768592834472656e+00,3.090342521667480469e+00,3.012090682983398438e+00,2.937704086303710938e+00,2.866902828216552734e+00,2.799434185028076172e+00,2.735067844390869141e+00,2.673595190048217773e+00,2.614825010299682617e+00,2.558582782745361328e+00,2.504709243774414062e+00,2.453057527542114258e+00,2.403493165969848633e+00,2.355891942977905273e+00,2.310139656066894531e+00,2.266130447387695312e+00,2.223766803741455078e+00,2.182957887649536133e+00,2.143620014190673828e+00,2.105674743652343750e+00,2.069049119949340820e+00,2.033676385879516602e+00,1.999492526054382324e+00,1.966438889503479004e+00,1.934460282325744629e+00,1.903505086898803711e+00,1.873525023460388184e+00,1.844474673271179199e+00
5.000000000000000000e+00,5.000000000000000000e+00,5.000000000000000000e+00,5.000000000000000000e+00,5.000000000000000000e+00,5.000000000000000000e+00,5.000000000000000000e+00,5.000000000000000000e+00,5.000000000000000000e+00,5.000000000000000000e+00,5.000000000000000000e+00,5.000000000000000000e+00,5.000000000000000000e+00,5.000000000000000000e+00,5.000000000000000000e+00,5.000000000000000000e+00,5.000000000000000000e+00,5.000000000000000000e+00,5.000000000000000000e+00,5.000000000000000000e+00,5.000000000000000000e+00,5.000000000000000000e+00,5.000000000000000000e+00,1.474330425262451172e+00,1.453421473503112793e+00,1.458155512809753418e+00,1.415309786796569824e+00,1.329312801361083984e+00,1.290594100952148438e+00,1.285680651664733887e+00,1.280705451965332031e+00,1.281668901443481445e+00,1.307016253471374512e+00,1.474755525588989258e+00,1.471397280693054199e+00,1.470633983612060547e+00,1.496139407157897949e+00,1.523068547248840332e+00,5.000000000000000000e+00,4.856945514678955078e+00,4.666414260864257812e+00,4.490267753601074219e+00,4.326935291290283203e+00,4.175068378448486328e+00,4.033500194549560547e+00,1.476609230041503906e+00,1.398452997207641602e+00,3.661081314086914062e+00,3.551767826080322266e+00,3.448792934417724609e+00,3.351620912551879883e+00,3.259774684906005859e+00,3.172827959060668945e+00,3.090398788452148438e+00,3.012144327163696289e+00,2.937755107879638672e+00,2.866951465606689453e+00,2.799480438232421875e+00,2.735112190246582031e+00,2.673637151718139648e+00,2.614865064620971680e+00,2.558621168136596680e+00,2.504745960235595703e+00,2.453092813491821289e+00,2.403527021408081055e+00,2.355924606323242188e+00,2.310170888900756836e+00,2.266160726547241211e+00,2.223795890808105469e+00,2.182986021041870117e+00,2.143646955490112305e+00,2.105700731277465820e+00,2.069074392318725586e+00,2.033700704574584961e+00,1.999516129493713379e+00,1.966461777687072754e+00,1.934482336044311523e+00,1.903526425361633301e+00,1.873545646667480469e+00,1.844494700431823730e+00
5.000000000000000000e+00,5.000000000000000000e+00,5.000000000000000000e+00,5.000000000000000000e+00,5.000000000000000000e+00,5.000000000000000000e+00,5.000000000000000000e+00,5.000000000000000000e+00,5.000000000000000000e+00,5.000000000000000000e+00,5.000000000000000000e+00,5.000000000000000000e+00,5.000000000000000000e+00,5.000000000000000000e+00,5.000000000000000000e+00,5.000000000000000000e+00,5.000000000000000000e+00,5.000000000000000000e+00,5.000000000000000000e+00,5.000000000000000000e+00,5.000000000000000000e+00,5.000000000000000000e+00,5.000000000000000000e+00,1.459906935691833496e+00,1.439303874969482422e+00,1.438057184219360352e+00,5.000000000000000000e+00,1.336431026458740234e+00,1.286296129226684570e+00,1.275790810585021973e+00,1.270891666412353516e+00,1.269886493682861328e+00,1.294706225395202637e+00,1.320435881614685059e+00,1.476776838302612305e+00,1.478320717811584473e+00,1.504799127578735352e+00,1.532243728637695312e+00,5.000000000000000000e+00,4.857084274291992188e+00,4.666542530059814453e+00,4.490386486053466797e+00,4.327045440673828125e+00,4.175170898437500000e+00,4.033596038818359375e+00,3.901308059692382812e+00,3.777421236038208008e+00,3.661160230636596680e+00,3.551842451095581055e+00,3.448863267898559570e+00,3.351686954498291016e+00,3.259837150573730469e+00,3.172887086868286133e+00,3.090454816818237305e+00,3.012197494506835938e+00,2.937805652618408203e+00,2.866999626159667969e+00,2.799526453018188477e+00,2.735156059265136719e+00,2.673679351806640625e+00,2.614905357360839844e+00,2.558660030364990234e+00,2.504783153533935547e+00,2.453128337860107422e+00,2.403561115264892578e+00,2.355957269668579102e+00,2.310202360153198242e+00,2.266191005706787109e+00,2.223825216293334961e+00,2.183014154434204102e+00,2.143674135208129883e+00,2.105726957321166992e+00,2.069099664688110352e+00,2.033725023269653320e+00,1.999539732933044434e+00,1.966484546661376953e+00,1.934504389762878418e+00,1.903547883033752441e+00,1.873566389083862305e+00,1.844514727592468262e+00
5.000000000000000000e+00,5.000000000000000000e+00,5.000000000000000000e+00,5.000000000000000000e+00,5.000000000000000000e+00,5.000000000000000000e+00,5.000000000000000000e+00,5.000000000000000000e+00,5.000000000000000000e+00,5.000000000000000000e+00,5.000000000000000000e+00,5.000000000000000000e+00,5.000000000000000000e+00,5.000000000000000000e+00,5.000000000000000000e+00,5.000000000000000000e+00,5.000000000000000000e+00,5.000000000000000000e+00,5.000000000000000000e+00,5.000000000000000000e+00,5.000000000000000000e+00,5.000000000000000000e+00,5.000000000000000000e+00,1.440285682678222656e+00,1.438688278198242188e+00,1.429527640342712402e+00,5.000000000000000000e+00,1.352754831314086914e+00,1.294839501380920410e+00,1.267795681953430176e+00,1.261227130889892578e+00,1.258318662643432617e+00,1.282683968544006348e+00,1.305431246757507324e+00,1.484194874763488770e+00,1.488314509391784668e+00,1.515155434608459473e+00,1.544607281684875488e+00,5.000000000000000000e+00,4.857223510742187500e+00,4.666671276092529297e+00,4.490505218505859375e+00,4.327155590057373047e+00,4.175273418426513672e+00,4.033691883087158203e+00,3.901397466659545898e+00,3.777504920959472656e+00,3.661238908767700195e+00,3.551916360855102539e+00,3.448933124542236328e+00,3.351753234863281250e+00,3.259899854660034180e+00,3.172946453094482422e+00,3.090511322021484375e+00,3.012251138687133789e+00,2.937856674194335938e+00,2.867048263549804688e+00,2.799572706222534180e+00,2.735200166702270508e+00,2.673721551895141602e+00,2.614945888519287109e+00,2.558698654174804688e+00,2.504820108413696289e+00,2.453163862228393555e+00,2.403595209121704102e+00,2.355990171432495117e+00,2.310234069824218750e+00,2.266221284866333008e+00,2.223854303359985352e+00,2.183042287826538086e+00,2.143701314926147461e+00,2.105753183364868164e+00,2.069124937057495117e+00,2.033749341964721680e+00,1.999562978744506836e+00,1.966507196426391602e+00,1.934526324272155762e+00,1.903568983078002930e+00,1.873586893081665039e+00,1.844534635543823242e+00
5.000000000000000000e+00,5.000000000000000000e+00,5.000000000000000000e+00,5.000000000000000000e+00,5.000000000000000000e+00,5.000000000000000000e+00,5.000000000000000000e+00,5.000000000000000000e+00,5.000000000000000000e+00,5.000000000000000000e+00,5.000000000000000000e+00,5.000000000000000000e+00,5.000000000000000000e+00,5.000000000000000000e+00,5.000000000000000000e+00,5.000000000000000000e+00,5.000000000000000000e+00,5.000000000000000000e+00,5.000000000000000000e+00,5.000000000000000000e+00,5.000000000000000000e+00,5.000000000000000000e+00,5.000000000000000000e+00,1.447853446006774902e+00,1.453302025794982910e+00,1.425927400588989258e+00,5.000000000000000000e+00,1.375300884246826172e+00,1.302675724029541016e+00,1.263494372367858887e+00,1.251864433288574219e+00,1.246992230415344238e+00,1.270319461822509766e+00,1.290763974189758301e+00,1.491687655448913574e+00,1.498444437980651855e+00,1.525758385658264160e+00,5.000000000000000000e+00,5.000000000000000000e+00,4.857362747192382812e+00,4.666799545288085938e+00,4.490623950958251953e+00,4.327266216278076172e+00,4.175376415252685547e+00,4.033787727355957031e+00,3.901487112045288086e+00,3.777589082717895508e+00,3.661318063735961914e+00,3.551990985870361328e+00,3.449003219604492188e+00,3.351819515228271484e+00,3.259962558746337891e+00,3.173005819320678711e+00,3.090567588806152344e+00,3.012304544448852539e+00,2.937907457351684570e+00,2.867096662521362305e+00,2.799618959426879883e+00,2.735244274139404297e+00,2.673763751983642578e+00,2.614986181259155273e+00,2.558737277984619141e+00,2.504857063293457031e+00,2.453199386596679688e+00,2.403629064559936523e+00,2.356022834777832031e+00,2.310265302658081055e+00,2.266251325607299805e+00,2.223883390426635742e+00,2.183070421218872070e+00,2.143728256225585938e+00,2.105779170989990234e+00,2.069150209426879883e+00,2.033773899078369141e+00,1.999586582183837891e+00,1.966529965400695801e+00,1.934548377990722656e+00,1.903590440750122070e+00,1.873607635498046875e+00,1.844554662704467773e+00
5.000000000000000000e+00,5.000000000000000000e+00,5.000000000000000000e+00,5.000000000000000000e+00,5.000000000000000000e+00,5.000000000000000000e+00,5.000000000000000000e+00,5.000000000000000000e+00,5.000000000000000000e+00,5.000000000000000000e+00,5.000000000000000000e+00,5.000000000000000000e+00,5.000000000000000000e+00,5.000000000000000000e+00,5.000000000000000000e+00,5.000000000000000000e+00,5.000000000000000000e+00,5.000000000000000000e+00,5.000000000000000000e+00,5.000000000000000000e+00,5.000000000000000000e+00,5.000000000000000000e+00,5.000000000000000000e+00,1.442449808120727539e+00,5.000000000000000000e+00,5.000000000000000000e+00,5.000000000000000000e+00,5.000000000000000000e+00,1.310607194900512695e+00,1.259222149848937988e+00,1.247670412063598633e+00,1.237686395645141602e+00,1.256426215171813965e+00,1.276422619819641113e+00,1.499256730079650879e+00,1.508713126182556152e+00,1.538618922233581543e+00,5.000000000000000000e+00,5.000000000000000000e+00,4.857501506805419922e+00,4.666927337646484375e+00,4.490742683410644531e+00,4.327376365661621094e+00,4.175478935241699219e+00,4.033883571624755859e+00,3.901576995849609375e+00,3.777673244476318359e+00,3.661397218704223633e+00,3.552065372467041016e+00,3.449073553085327148e+00,3.351885795593261719e+00,3.260025262832641602e+00,3.173065185546875000e+00,3.090624094009399414e+00,3.012358188629150391e+00,2.937958240509033203e+00,2.867144823074340820e+00,2.799664974212646484e+00,2.735288143157958984e+00,2.673805713653564453e+00,2.615026235580444336e+00,2.558775663375854492e+00,2.504894018173217773e+00,2.453234672546386719e+00,2.403663158416748047e+00,2.356055498123168945e+00,2.310296773910522461e+00,2.266281843185424805e+00,2.223912477493286133e+00,2.183098554611206055e+00,2.143755435943603516e+00,2.105805397033691406e+00,2.069175481796264648e+00,2.033798217773437500e+00,1.999610185623168945e+00,1.966552734375000000e+00,1.934570431709289551e+00,1.903611779212951660e+00,1.873628377914428711e+00,1.844574809074401855e+00
5.000000000000000000e+00,5.000000000000000000e+00,5.000000000000000000e+00,5.000000000000000000e+00,5.000000000000000000e+00,5.000000000000000000e+00,5.000000000000000000e+00,5.000000000000000000e+00,5.000000000000000000e+00,5.000000000000000000e+00,5.000000000000000000e+00,5.000000000000000000e+00,5.000000000000000000e+00,5.000000000000000000e+00,5.000000000000000000e+00,5.000000000000000000e+00,5.000000000000000000e+00,5.000000000000000000e+00,5.000000000000000000e+00,5.000000000000000000e+00,5.000000000000000000e+00,5.000000000000000000e+00,5.000000000000000000e+00,1.438382267951965332e+00,5.000000000000000000e+00,5.000000000000000000e+00,5.000000000000000000e+00,5.000000000000000000e+00,1.330976605415344238e+00,1.267617940902709961e+00,1.243215680122375488e+00,1.231406331062316895e+00,1.245271563529968262e+00,1.263262748718261719e+00,1.506547212600708008e+00,1.519915223121643066e+00,1.551698088645935059e+00,5.000000000000000000e+00,5.000000000000000000e+00,4.857640743255615234e+00,4.667056083679199219e+00,4.490861892700195312e+00,4.327486991882324219e+00,4.175581932067871094e+00,4.033979892730712891e+00,3.901666879653930664e+00,3.777757167816162109e+00,3.661475896835327148e+00,3.552139282226562500e+00,3.449143409729003906e+00,3.351951837539672852e+00,3.260087728500366211e+00,3.173124313354492188e+00,3.090680122375488281e+00,3.012411355972290039e+00,2.938009262084960938e+00,2.867193460464477539e+00,2.799711227416992188e+00,2.735332489013671875e+00,2.673847913742065430e+00,2.615066528320312500e+00,2.558814287185668945e+00,2.504930973052978516e+00,2.453270196914672852e+00,2.403697252273559570e+00,2.356088161468505859e+00,2.310328245162963867e+00,2.266312122344970703e+00,2.223941802978515625e+00,2.183126688003540039e+00,2.143782615661621094e+00,2.105831623077392578e+00,2.069200754165649414e+00,2.033822536468505859e+00,1.999633789062500000e+00,1.966575622558593750e+00,1.934592604637145996e+00,1.903633236885070801e+00,1.873649001121520996e+00,1.844594836235046387e+00
5.000000000000000000e+00,5.000000000000000000e+00,5.000000000000000000e+00,5.000000000000000000e+00,5.000000000000000000e+00,5.000000000000000000e+00,5.000000000000000000e+00,5.000000000000000000e+00,5.000000000000000000e+00,5.000000000000000000e+00,5.000000000000000000e+00,5.000000000000000000e+00,5.000000000000000000e+00,5.000000000000000000e+00,5.000000000000000000e+00,5.000000000000000000e+00,5.000000000000000000e+00,5.000000000000000000e+00,5.000000000000000000e+00,5.000000000000000000e+00,5.000000000000000000e+00,5.000000000000000000e+00,5.000000000000000000e+00,1.434276580810546875e+00,5.000000000000000000e+00,5.000000000000000000e+00,5.000000000000000000e+00,5.000000000000000000e+00,1.341589450836181641e+00,1.277123093605041504e+00,1.241455554962158203e+00,1.226895213127136230e+00,1.237122178077697754e+00,1.253833413124084473e+00,1.513365507125854492e+00,1.530562877655029297e+00,1.562686204910278320e+00,5.000000000000000000e+00,5.000000000000000000e+00,4.857779502868652344e+00,4.667184352874755859e+00,4.490980625152587891e+00,4.327597141265869141e+00,4.175684452056884766e+00,4.034075260162353516e+00,3.901756286621093750e+00,3.777841329574584961e+00,3.661555051803588867e+00,3.552213907241821289e+00,3.449213504791259766e+00,3.352018117904663086e+00,3.260150432586669922e+00,3.173183679580688477e+00,3.090736389160156250e+00,3.012465000152587891e+00,2.938060045242309570e+00,2.867241859436035156e+00,2.799757480621337891e+00,2.735376596450805664e+00,2.673890113830566406e+00,2.615107059478759766e+00,2.558852910995483398e+00,2.504967927932739258e+00,2.453305721282958984e+00,2.403731346130371094e+00,2.356121063232421875e+00,2.310359716415405273e+00,2.266342401504516602e+00,2.223970890045166016e+00,2.183154582977294922e+00,2.143809556961059570e+00,2.105857610702514648e+00,2.069225788116455078e+00,2.033846855163574219e+00,1.999657392501831055e+00,1.966598391532897949e+00,1.934614658355712891e+00,1.903654575347900391e+00,1.873669743537902832e+00,1.844614982604980469e+00
5.000000000000000000e+00,5.000000000000000000e+00,5.000000000000000000e+00,5.000000000000000000e+00,5.000000000000000000e+00,5.000000000000000000e+00,5.000000000000000000e+00,5.000000000000000000e+00,5.000000000000000000e+00,5.000000000000000000e+00,5.000000000000000000e+00,5.000000000000000000e+00,5.000000000000000000e+00,5.000000000000000000e+00,5.000000000000000000e+00,5.000000000000000000e+00,5.000000000000000000e+00,5.000000000000000000e+00,5.000000000000000000e+00,5.000000000000000000e+00,5.000000000000000000e+00,5.000000000000000000e+00,5.000000000000000000e+00,5.000000000000000000e+00,5.000000000000000000e+00,5.000000000000000000e+00,5.000000000000000000e+00,5.000000000000000000e+00,5.000000000000000000e+00,1.287904620170593262e+00,1.243099808692932129e+00,1.228390812873840332e+00,1.238743901252746582e+00,1.254407167434692383e+00,1.520725250244140625e+00,1.538939476013183594e+00,5.000000000000000000e+00,5.000000000000000000e+00,5.000000000000000000e+00,4.857918739318847656e+00,4.667312622070312500e+00,4.491099357604980469e+00,4.327707767486572266e+00,4.175787448883056641e+00,4.034171104431152344e+00,3.901845932006835938e+00,3.777925491333007812e+00,3.661634206771850586e+00,3.552288293838500977e+00,3.449283599853515625e+00,3.352084398269653320e+00,3.260213136672973633e+00,3.173243284225463867e+00,3.090792894363403320e+00,3.012518644332885742e+00,2.938111066818237305e+00,2.867290496826171875e+00,2.799803733825683594e+00,2.735420703887939453e+00,2.673932313919067383e+00,2.615147113800048828e+00,2.558891296386718750e+00,2.505004882812500000e+00,2.453341007232666016e+00,2.403765439987182617e+00,2.356153488159179688e+00,2.310391187667846680e+00,2.266372442245483398e+00,2.223999977111816406e+00,2.183182716369628906e+00,2.143836736679077148e+00,2.105883598327636719e+00,2.069251060485839844e+00,2.033871412277221680e+00,1.999680995941162109e+00,1.966621279716491699e+00,1.934636712074279785e+00,1.903675913810729980e+00,1.873690485954284668e+00,1.844635009765625000e+00
5.000000000000000000e+00,5.000000000000000000e+00,5.000000000000000000e+00,5.000000000000000000e+00,5.000000000000000000e+00,5.000000000000000000e+00,5.000000000000000000e+00,5.000000000000000000e+00,5.000000000000000000e+00,5.000000000000000000e+00,5.000000000000000000e+00,5.000000000000000000e+00,5.000000000000000000e+00,5.000000000000000000e+00,5.000000000000000000e+00,5.000000000000000000e+00,5.000000000000000000e+00,5.000000000000000000e+00,5.000000000000000000e+00,5.000000000000000000e+00,5.000000000000000000e+00,5.000000000000000000e+00,5.000000000000000000e+00,5.000000000000000000e+00,5.000000000000000000e+00,5.000000000000000000e+00,5.000000000000000000e+00,5.000000000000000000e+00,5.000000000000000000e+00,1.294446825981140137e+00,1.248231410980224609e+00,1.233615875244140625e+00,1.243289828300476074e+00,1.258919477462768555e+00,1.528157234191894531e+00,1.547408223152160645e+00,5.000000000000000000e+00,5.000000000000000000e+00,5.000000000000000000e+00,4.858057498931884766e+00,4.667440891265869141e+00,4.491218090057373047e+00,4.327817916870117188e+00,4.175889968872070312e+00,4.034267425537109375e+00,3.901935815811157227e+00,3.778009891510009766e+00,3.661713361740112305e+00,3.552362680435180664e+00,3.449353933334350586e+00,3.352150678634643555e+00,3.260275363922119141e+00,3.173302412033081055e+00,3.090848922729492188e+00,3.012571811676025391e+00,2.938161849975585938e+00,2.867338657379150391e+00,2.799849748611450195e+00,2.735464572906494141e+00,2.673974275588989258e+00,2.615187406539916992e+00,2.558929920196533203e+00,2.505041837692260742e+00,2.453376531600952148e+00,2.403799533843994141e+00,2.356186389923095703e+00,2.310422658920288086e+00,2.266402721405029297e+00,2.224029064178466797e+00,2.183210849761962891e+00,2.143863677978515625e+00,2.105909824371337891e+00,2.069276332855224609e+00,2.033895730972290039e+00,1.999704599380493164e+00,1.966644048690795898e+00,1.934658765792846680e+00,1.903697371482849121e+00,1.873711228370666504e+00,1.844655156135559082e+00
5.000000000000000000e+00,5.000000000000000000e+00,5.000000000000000000e+00,5.000000000000000000e+00,5.000000000000000000e+00,5.000000000000000000e+00,5.000000000000000000e+00,5.000000000000000000e+00,5.000000000000000000e+00,5.000000000000000000e+00,5.000000000000000000e+00,5.000000000000000000e+00,5.000000000000000000e+00,5.000000000000000000e+00,5.000000000000000000e+00,5.000000000000000000e+00,5.000000000000000000e+00,5.000000000000000000e+00,5.000000000000000000e+00,5.000000000000000000e+00,5.000000000000000000e+00,5.000000000000000000e+00,5.000000000000000000e+00,5.000000000000000000e+00,5.000000000000000000e+00,5.000000000000000000e+00,5.000000000000000000e+00,5.000000000000000000e+00,5.000000000000000000e+00,1.282060265541076660e+00,1.254277944564819336e+00,1.241683721542358398e+00,1.249102354049682617e+00,1.264879465103149414e+00,1.535661816596984863e+00,1.560429930686950684e+00,5.000000000000000000e+00,5.000000000000000000e+00,5.000000000000000000e+00,4.858196735382080078e+00,4.667569637298583984e+00,4.491337299346923828e+00,4.327928066253662109e+00,4.175992965698242188e+00,4.034363269805908203e+00,3.902025222778320312e+00,3.778093576431274414e+00,3.661792039871215820e+00,3.552436828613281250e+00,3.449423789978027344e+00,3.352216720581054688e+00,3.260338068008422852e+00,3.173361778259277344e+00,3.090905189514160156e+00,3.012625455856323242e+00,2.938212633132934570e+00,2.867387294769287109e+00,2.799896001815795898e+00,2.735508680343627930e+00,2.674016475677490234e+00,2.615227937698364258e+00,2.558968544006347656e+00,2.505079030990600586e+00,2.453412055969238281e+00,2.403833627700805664e+00,2.356219053268432617e+00,2.310454130172729492e+00,2.266433238983154297e+00,2.224058389663696289e+00,2.183238983154296875e+00,2.143890857696533203e+00,2.105936050415039062e+00,2.069301605224609375e+00,2.033920049667358398e+00,1.999727964401245117e+00,1.966666698455810547e+00,1.934680700302124023e+00,1.903718471527099609e+00,1.873731732368469238e+00,1.844674944877624512e+00
5.000000000000000000e+00,5.000000000000000000e+00,5.000000000000000000e+00,5.000000000000000000e+00,5.000000000000000000e+00,5.000000000000000000e+00,5.000000000000000000e+00,5.000000000000000000e+00,5.000000000000000000e+00,5.000000000000000000e+00,5.000000000000000000e+00,5.000000000000000000e+00,5.000000000000000000e+00,5.000000000000000000e+00,5.000000000000000000e+00,5.000000000000000000e+00,5.000000000000000000e+00,5.000000000000000000e+00,5.000000000000000000e+00,5.000000000000000000e+00,5.000000000000000000e+00,5.000000000000000000e+00,5.000000000000000000e+00,5.000000000000000000e+00,5.000000000000000000e+00,5.000000000000000000e+00,5.000000000000000000e+00,5.000000000000000000e+00,5.000000000000000000e+00,1.279736876487731934e+00,1.258529782295227051e+00,1.249857544898986816e+00,1.254969477653503418e+00,1.275625944137573242e+00,1.542824864387512207e+00,1.580648422241210938e+00,5.000000000000000000e+00,5.000000000000000000e+00,5.000000000000000000e+00,4.858335971832275391e+00,4.667697906494140625e+00,4.491456031799316406e+00,4.328038692474365234e+00,4.176095485687255859e+00,4.034459114074707031e+00,3.902115106582641602e+00,3.778177738189697266e+00,3.661871194839477539e+00,3.552511215209960938e+00,3.449493885040283203e+00,3.352283000946044922e+00,3.260401010513305664e+00,3.173421144485473633e+00,3.090961694717407227e+00,3.012678861618041992e+00,2.938263654708862305e+00,2.867435693740844727e+00,2.799942255020141602e+00,2.735553026199340820e+00,2.674058675765991211e+00,2.615268230438232422e+00,2.559007167816162109e+00,2.505115985870361328e+00,2.453447580337524414e+00,2.403867721557617188e+00,2.356251716613769531e+00,2.310485363006591797e+00,2.266463279724121094e+00,2.224087238311767578e+00,2.183266878128051758e+00,2.143917798995971680e+00,2.105962038040161133e+00,2.069326639175415039e+00,2.033944368362426758e+00,1.999751567840576172e+00,1.966689467430114746e+00,1.934702754020690918e+00,1.903739929199218750e+00,1.873752474784851074e+00,1.844695091247558594e+00
5.000000000000000000e+00,5.000000000000000000e+00,5.000000000000000000e+00,5.000000000000000000e+00,5.000000000000000000e+00,5.000000000000000000e+00,5.000000000000000000e+00,5.000000000000000000e+00,5.000000000000000000e+00,5.000000000000000000e+00,5.000000000000000000e+00,5.000000000000000000e+00,5.000000000000000000e+00,5.000000000000000000e+00,5.000000000000000000e+00,5.000000000000000000e+00,5.000000000000000000e+00,5.000000000000000000e+00,5.000000000000000000e+00,5.000000000000000000e+00,5.000000000000000000e+00,5.000000000000000000e+00,5.000000000000000000e+00,5.000000000000000000e+00,5.000000000000000000e+00,5.000000000000000000e+00,5.000000000000000000e+00,5.000000000000000000e+00,5.000000000000000000e+00,1.279591441154479980e+00,1.262810707092285156e+00,1.258139967918395996e+00,1.260892033576965332e+00,1.286769866943359375e+00,1.551602482795715332e+00,5.000000000000000000e+00,5.000000000000000000e+00,5.000000000000000000e+00,5.000000000000000000e+00,4.858475208282470703e+00,4.667826175689697266e+00,4.491574764251708984e+00,4.328149318695068359e+00,4.176198482513427734e+00,4.034554958343505859e+00,3.902204990386962891e+00,3.778262138366699219e+00,3.661950349807739258e+00,3.552585840225219727e+00,3.449564218521118164e+00,3.352349281311035156e+00,3.260463714599609375e+00,3.173480510711669922e+00,3.091017961502075195e+00,3.012732505798339844e+00,2.938314437866210938e+00,2.867484092712402344e+00,2.799988269805908203e+00,2.735596895217895508e+00,2.674100637435913086e+00,2.615308284759521484e+00,2.559045791625976562e+00,2.505152702331542969e+00,2.453483104705810547e+00,2.403901576995849609e+00,2.356284379959106445e+00,2.310517072677612305e+00,2.266493558883666992e+00,2.224116563796997070e+00,2.183295011520385742e+00,2.143944978713989258e+00,2.105988264083862305e+00,2.069351911544799805e+00,2.033968925476074219e+00,1.999775171279907227e+00,1.966712355613708496e+00,1.934724807739257812e+00,1.903761267662048340e+00,1.873773097991943359e+00,1.844715118408203125e+00
5.000000000000000000e+00,5.000000000000000000e+00,5.000000000000000000e+00,5.000000000000000000e+00,5.000000000000000000e+00,5.000000000000000000e+00,5.000000000000000000e+00,5.000000000000000000e+00,5.000000000000000000e+00,5.000000000000000000e+00,5.000000000000000000e+00,5.000000000000000000e+00,5.000000000000000000e+00,5.000000000000000000e+00,5.000000000000000000e+00,5.000000000000000000e+00,5.000000000000000000e+00,5.000000000000000000e+00,5.000000000000000000e+00,5.000000000000000000e+00,5.000000000000000000e+00,5.000000000000000000e+00,5.000000000000000000e+00,5.000000000000000000e+00,5.000000000000000000e+00,5.000000000000000000e+00,5.000000000000000000e+00,5.000000000000000000e+00,5.000000000000000000e+00,1.283365130424499512e+00,1.267120718955993652e+00,1.263007521629333496e+00,1.269249200820922852e+00,1.298110246658325195e+00,1.564980268478393555e+00,5.000000000000000000e+00,5.000000000000000000e+00,5.000000000000000000e+00,5.000000000000000000e+00,4.858613967895507812e+00,4.667954444885253906e+00,4.491693973541259766e+00,4.328259468078613281e+00,4.176301479339599609e+00,4.034650802612304688e+00,3.902294874191284180e+00,3.778346300125122070e+00,3.662029027938842773e+00,3.552659988403320312e+00,3.449634075164794922e+00,3.352415323257446289e+00,3.260525941848754883e+00,3.173539638519287109e+00,3.091074228286743164e+00,3.012785911560058594e+00,2.938365221023559570e+00,2.867532491683959961e+00,2.800034523010253906e+00,2.735641002655029297e+00,2.674142837524414062e+00,2.615348815917968750e+00,2.559084415435791016e+00,2.505189895629882812e+00,2.453518629074096680e+00,2.403935670852661133e+00,2.356317281723022461e+00,2.310548543930053711e+00,2.266523838043212891e+00,2.224145650863647461e+00,2.183323144912719727e+00,2.143972158432006836e+00,2.106014490127563477e+00,2.069377183914184570e+00,2.033993244171142578e+00,1.999798774719238281e+00,1.966735124588012695e+00,1.934746980667114258e+00,1.903782725334167480e+00,1.873793840408325195e+00,1.844735264778137207e+00
5.000000000000000000e+00,5.000000000000000000e+00,5.000000000000000000e+00,5.000000000000000000e+00,5.000000000000000000e+00,5.000000000000000000e+00,5.000000000000000000e+00,5.000000000000000000e+00,5.000000000000000000e+00,5.000000000000000000e+00,5.000000000000000000e+00,5.000000000000000000e+00,5.000000000000000000e+00,5.000000000000000000e+00,5.000000000000000000e+00,5.000000000000000000e+00,5.000000000000000000e+00,5.000000000000000000e+00,5.000000000000000000e+00,5.000000000000000000e+00,5.000000000000000000e+00,5.000000000000000000e+00,5.000000000000000000e+00,5.000000000000000000e+00,5.000000000000000000e+00,5.000000000000000000e+00,5.000000000000000000e+00,5.000000000000000000e+00,5.000000000000000000e+00,1.287160873413085938e+00,1.270489692687988281e+00,1.265687227249145508e+00,1.274452805519104004e+00,1.302072525024414062e+00,1.647415041923522949e+00,5.000000000000000000e+00,5.000000000000000000e+00,5.000000000000000000e+00,5.000000000000000000e+00,4.858753204345703125e+00,4.668082714080810547e+00,4.491812705993652344e+00,4.328370094299316406e+00,4.176403999328613281e+00,4.034746646881103516e+00,3.902384281158447266e+00,3.778430223464965820e+00,3.662108182907104492e+00,3.552734375000000000e+00,3.449704408645629883e+00,3.352481603622436523e+00,3.260588884353637695e+00,3.173599243164062500e+00,3.091130495071411133e+00,3.012839317321777344e+00,2.938416242599487305e+00,2.867581129074096680e+00,2.800080776214599609e+00,2.735685110092163086e+00,2.674185037612915039e+00,2.615389108657836914e+00,2.559123039245605469e+00,2.505226850509643555e+00,2.453554153442382812e+00,2.403969764709472656e+00,2.356349945068359375e+00,2.310580015182495117e+00,2.266554355621337891e+00,2.224174976348876953e+00,2.183351278305053711e+00,2.143999099731445312e+00,2.106040477752685547e+00,2.069402456283569336e+00,2.034017562866210938e+00,1.999822378158569336e+00,1.966758012771606445e+00,1.934769034385681152e+00,1.903804063796997070e+00,1.873814582824707031e+00,1.844755291938781738e+00
5.000000000000000000e+00,5.000000000000000000e+00,5.000000000000000000e+00,5.000000000000000000e+00,5.000000000000000000e+00,5.000000000000000000e+00,5.000000000000000000e+00,5.000000000000000000e+00,5.000000000000000000e+00,5.000000000000000000e+00,5.000000000000000000e+00,5.000000000000000000e+00,5.000000000000000000e+00,5.000000000000000000e+00,5.000000000000000000e+00,5.000000000000000000e+00,5.000000000000000000e+00,5.000000000000000000e+00,5.000000000000000000e+00,5.000000000000000000e+00,5.000000000000000000e+00,5.000000000000000000e+00,5.000000000000000000e+00,5.000000000000000000e+00,5.000000000000000000e+00,5.000000000000000000e+00,5.000000000000000000e+00,5.000000000000000000e+00,5.000000000000000000e+00,1.290302991867065430e+00,1.269747257232666016e+00,1.264677762985229492e+00,1.271711468696594238e+00,1.299065470695495605e+00,5.000000000000000000e+00,5.000000000000000000e+00,5.000000000000000000e+00,5.000000000000000000e+00,5.000000000000000000e+00,4.858892440795898438e+00,4.668211460113525391e+00,4.491931915283203125e+00,4.328480243682861328e+00,4.176506996154785156e+00,4.034842967987060547e+00,3.902474164962768555e+00,3.778514385223388672e+00,3.662187337875366211e+00,3.552808761596679688e+00,3.449774503707885742e+00,3.352547883987426758e+00,3.260651588439941406e+00,3.173658609390258789e+00,3.091187000274658203e+00,3.012892961502075195e+00,2.938467264175415039e+00,2.867629528045654297e+00,2.800127029418945312e+00,2.735729455947875977e+00,2.674227237701416016e+00,2.615429401397705078e+00,2.559161424636840820e+00,2.505263805389404297e+00,2.453589439392089844e+00,2.404003620147705078e+00,2.356382608413696289e+00,2.310611248016357422e+00,2.266584396362304688e+00,2.224204063415527344e+00,2.183379411697387695e+00,2.144026279449462891e+00,2.106066703796386719e+00,2.069427728652954102e+00,2.034041881561279297e+00,1.999845981597900391e+00,1.966780781745910645e+00,1.934791088104248047e+00,1.903825402259826660e+00,1.873835325241088867e+00,1.844775438308715820e+00
5.000000000000000000e+00,5.000000000000000000e+00,5.000000000000000000e+00,5.000000000000000000e+00,5.000000000000000000e+00,5.000000000000000000e+00,5.000000000000000000e+00,5.000000000000000000e+00,5.000000000000000000e+00,5.000000000000000000e+00,5.000000000000000000e+00,5.000000000000000000e+00,5.000000000000000000e+00,5.000000000000000000e+00,5.000000000000000000e+00,5.000000000000000000e+00,5.000000000000000000e+00,5.000000000000000000e+00,5.000000000000000000e+00,5.000000000000000000e+00,5.000000000000000000e+00,5.000000000000000000e+00,5.000000000000000000e+00,5.000000000000000000e+00,5.000000000000000000e+00,5.000000000000000000e+00,5.000000000000000000e+00,5.000000000000000000e+00,5.000000000000000000e+00,1.293375372886657715e+00,1.270585298538208008e+00,1.263669848442077637e+00,1.268981814384460449e+00,1.295668959617614746e+00,5.000000000000000000e+00,5.000000000000000000e+00,5.000000000000000000e+00,5.000000000000000000e+00,5.000000000000000000e+00,4.859030723571777344e+00,4.668339729309082031e+00,4.492050647735595703e+00,4.328590869903564453e+00,4.176609516143798828e+00,4.034938812255859375e+00,3.902564048767089844e+00,3.778598546981811523e+00,3.662266492843627930e+00,3.552883386611938477e+00,3.449844837188720703e+00,3.352614164352416992e+00,3.260714292526245117e+00,3.173717737197875977e+00,3.091243028640747070e+00,3.012946128845214844e+00,2.938517808914184570e+00,2.867677927017211914e+00,2.800173044204711914e+00,2.735773324966430664e+00,2.674269199371337891e+00,2.615469694137573242e+00,2.559200048446655273e+00,2.505300760269165039e+00,2.453624963760375977e+00,2.404037714004516602e+00,2.356415271759033203e+00,2.310642719268798828e+00,2.266614675521850586e+00,2.224233150482177734e+00,2.183407545089721680e+00,2.144053220748901367e+00,2.106092929840087891e+00,2.069453001022338867e+00,2.034066438674926758e+00,1.999869585037231445e+00,1.966803669929504395e+00,1.934813261032104492e+00,1.903846859931945801e+00,1.873856067657470703e+00,1.844795465469360352e+00
5.000000000000000000e+00,5.000000000000000000e+00,5.000000000000000000e+00,5.000000000000000000e+00,5.000000000000000000e+00,5.000000000000000000e+00,5.000000000000000000e+00,5.000000000000000000e+00,5.000000000000000000e+00,5.000000000000000000e+00,5.000000000000000000e+00,5.000000000000000000e+00,5.000000000000000000e+00,5.000000000000000000e+00,5.000000000000000000e+00,5.000000000000000000e+00,5.000000000000000000e+00,5.000000000000000000e+00,5.000000000000000000e+00,5.000000000000000000e+00,5.000000000000000000e+00,5.000000000000000000e+00,5.000000000000000000e+00,5.000000000000000000e+00,5.000000000000000000e+00,5.000000000000000000e+00,5.000000000000000000e+00,5.000000000000000000e+00,5.000000000000000000e+00,1.296462655067443848e+00,1.273646593093872070e+00,1.262663602828979492e+00,1.266263961791992188e+00,1.292290329933166504e+00,5.000000000000000000e+00,5.000000000000000000e+00,5.000000000000000000e+00,5.000000000000000000e+00,5.000000000000000000e+00,4.859168529510498047e+00,4.668467998504638672e+00,4.492169380187988281e+00,4.328701496124267578e+00,4.176712036132812500e+00,4.035034656524658203e+00,3.902653455734252930e+00,3.778682470321655273e+00,3.662345170974731445e+00,3.552957534790039062e+00,3.449914693832397461e+00,3.352680206298828125e+00,3.260776758193969727e+00,3.173777103424072266e+00,3.091299295425415039e+00,3.012999773025512695e+00,2.938568830490112305e+00,2.867726325988769531e+00,2.800219297409057617e+00,2.735817432403564453e+00,2.674311399459838867e+00,2.615509986877441406e+00,2.559238672256469727e+00,2.505337715148925781e+00,2.453660488128662109e+00,2.404071807861328125e+00,2.356448173522949219e+00,2.310674428939819336e+00,2.266644954681396484e+00,2.224262237548828125e+00,2.183435678482055664e+00,2.144080400466918945e+00,2.106118917465209961e+00,2.069478273391723633e+00,2.034090757369995117e+00,1.999893188476562500e+00,1.966826200485229492e+00,1.934835076332092285e+00,1.903867959976196289e+00,1.873876571655273438e+00,1.844815373420715332e+00
5.000000000000000000e+00,5.000000000000000000e+00,5.000000000000000000e+00,5.000000000000000000e+00,5.000000000000000000e+00,5.000000000000000000e+00,5.000000000000000000e+00,5.000000000000000000e+00,5.000000000000000000e+00,5.000000000000000000e+00,5.000000000000000000e+00,5.000000000000000000e+00,5.000000000000000000e+00,5.000000000000000000e+00,5.000000000000000000e+00,5.000000000000000000e+00,5.000000000000000000e+00,5.000000000000000000e+00,5.000000000000000000e+00,5.000000000000000000e+00,5.000000000000000000e+00,5.000000000000000000e+00,5.000000000000000000e+00,5.000000000000000000e+00,5.000000000000000000e+00,5.000000000000000000e+00,5.000000000000000000e+00,5.000000000000000000e+00,5.000000000000000000e+00,1.299564719200134277e+00,1.276722669601440430e+00,1.262711048126220703e+00,1.263557672500610352e+00,1.288929104804992676e+00,5.000000000000000000e+00,5.000000000000000000e+00,5.000000000000000000e+00,5.000000000000000000e+00,5.000000000000000000e+00,4.859306335449218750e+00,4.668594837188720703e+00,4.492288112640380859e+00,4.328811645507812500e+00,4.176815032958984375e+00,4.035130500793457031e+00,3.902743339538574219e+00,3.778766632080078125e+00,3.662424325942993164e+00,3.553031921386718750e+00,3.449984788894653320e+00,3.352746486663818359e+00,3.260839462280273438e+00,3.173836708068847656e+00,3.091355800628662109e+00,3.013053417205810547e+00,2.938619852066040039e+00,2.867774963378906250e+00,2.800265550613403320e+00,2.735861539840698242e+00,2.674353599548339844e+00,2.615550279617309570e+00,2.559277296066284180e+00,2.505374908447265625e+00,2.453696012496948242e+00,2.404105901718139648e+00,2.356480836868286133e+00,2.310705661773681641e+00,2.266675233840942383e+00,2.224291324615478516e+00,2.183463573455810547e+00,2.144107341766357422e+00,2.106145143508911133e+00,2.069503307342529297e+00,2.034115076065063477e+00,1.999916553497314453e+00,1.966849088668823242e+00,1.934857130050659180e+00,1.903889417648315430e+00,1.873897194862365723e+00,1.844835400581359863e+00
5.000000000000000000e+00,5.000000000000000000e+00,5.000000000000000000e+00,5.000000000000000000e+00,5.000000000000000000e+00,5.000000000000000000e+00,5.000000000000000000e+00,5.000000000000000000e+00,5.000000000000000000e+00,5.000000000000000000e+00,5.000000000000000000e+00,5.000000000000000000e+00,5.000000000000000000e+00,5.000000000000000000e+00,5.000000000000000000e+00,5.000000000000000000e+00,5.000000000000000000e+00,5.000000000000000000e+00,5.000000000000000000e+00,5.000000000000000000e+00,5.000000000000000000e+00,5.000000000000000000e+00,5.000000000000000000e+00,5.000000000000000000e+00,5.000000000000000000e+00,5.000000000000000000e+00,5.000000000000000000e+00,5.000000000000000000e+00,5.000000000000000000e+00,1.302681446075439453e+00,1.279813528060913086e+00,1.263442277908325195e+00,1.260862946510314941e+00,1.285585522651672363e+00,5.000000000000000000e+00,5.000000000000000000e+00,5.000000000000000000e+00,5.000000000000000000e+00,5.000000000000000000e+00,4.859444141387939453e+00,4.668722152709960938e+00,4.492406368255615234e+00,4.328921794891357422e+00,4.176918029785156250e+00,4.035226345062255859e+00,3.902833223342895508e+00,3.778851032257080078e+00,3.662503480911254883e+00,3.553106546401977539e+00,3.450055122375488281e+00,3.352812767028808594e+00,3.260902166366577148e+00,3.173896074295043945e+00,3.091412067413330078e+00,3.013106822967529297e+00,2.938670635223388672e+00,2.867823362350463867e+00,2.800311565399169922e+00,2.735905647277832031e+00,2.674395561218261719e+00,2.615590572357177734e+00,2.559315919876098633e+00,2.505411624908447266e+00,2.453731298446655273e+00,2.404139995574951172e+00,2.356513500213623047e+00,2.310737133026123047e+00,2.266705513000488281e+00,2.224320650100708008e+00,2.183491706848144531e+00,2.144134521484375000e+00,2.106171131134033203e+00,2.069528579711914062e+00,2.034139394760131836e+00,1.999940156936645508e+00,1.966871857643127441e+00,1.934879302978515625e+00,1.903910756111145020e+00,1.873917937278747559e+00,1.844855546951293945e+00
5.000000000000000000e+00,5.000000000000000000e+00,5.000000000000000000e+00,5.000000000000000000e+00,5.000000000000000000e+00,5.000000000000000000e+00,5.000000000000000000e+00,5.000000000000000000e+00,5.000000000000000000e+00,5.000000000000000000e+00,5.000000000000000000e+00,5.000000000000000000e+00,5.000000000000000000e+00,5.000000000000000000e+00,5.000000000000000000e+00,5.000000000000000000e+00,5.000000000000000000e+00,5.000000000000000000e+00,5.000000000000000000e+00,5.000000000000000000e+00,5.000000000000000000e+00,5.000000000000000000e+00,5.000000000000000000e+00,5.000000000000000000e+00,5.000000000000000000e+00,5.000000000000000000e+00,5.000000000000000000e+00,5.000000000000000000e+00,5.000000000000000000e+00,1.803997278213500977e+00,1.282919406890869141e+00,1.265237450599670410e+00,1.258137583732604980e+00,1.282989144325256348e+00,5.000000000000000000e+00,5.000000000000000000e+00,5.000000000000000000e+00,5.000000000000000000e+00,5.000000000000000000e+00,4.859581947326660156e+00,4.668849468231201172e+00,4.492524147033691406e+00,4.329031944274902344e+00,4.177020549774169922e+00,4.035322666168212891e+00,3.902923107147216797e+00,3.778935194015502930e+00,3.662582635879516602e+00,3.553180456161499023e+00,3.450124979019165039e+00,3.352878808975219727e+00,3.260964632034301758e+00,3.173955202102661133e+00,3.091468334197998047e+00,3.013160228729248047e+00,2.938721418380737305e+00,2.867871761322021484e+00,2.800358057022094727e+00,2.735949754714965820e+00,2.674437761306762695e+00,2.615630865097045898e+00,2.559354543685913086e+00,2.505448818206787109e+00,2.453766822814941406e+00,2.404174089431762695e+00,2.356546163558959961e+00,2.310768604278564453e+00,2.266735792160034180e+00,2.224349737167358398e+00,2.183519840240478516e+00,2.144161701202392578e+00,2.106197357177734375e+00,2.069553852081298828e+00,2.034163951873779297e+00,1.999963760375976562e+00,1.966894745826721191e+00,1.934901356697082520e+00,1.903932213783264160e+00,1.873938679695129395e+00,1.844875574111938477e+00
5.000000000000000000e+00,5.000000000000000000e+00,5.000000000000000000e+00,5.000000000000000000e+00,5.000000000000000000e+00,5.000000000000000000e+00,5.000000000000000000e+00,5.000000000000000000e+00,5.000000000000000000e+00,5.000000000000000000e+00,5.000000000000000000e+00,5.000000000000000000e+00,5.000000000000000000e+00,5.000000000000000000e+00,5.000000000000000000e+00,5.000000000000000000e+00,5.000000000000000000e+00,5.000000000000000000e+00,5.000000000000000000e+00,5.000000000000000000e+00,5.000000000000000000e+00,5.000000000000000000e+00,5.000000000000000000e+00,5.000000000000000000e+00,5.000000000000000000e+00,5.000000000000000000e+00,5.000000000000000000e+00,5.000000000000000000e+00,5.000000000000000000e+00,1.819732427597045898e+00,1.286922812461853027e+00,1.267487525939941406e+00,1.260981440544128418e+00,1.280777454376220703e+00,5.000000000000000000e+00,5.000000000000000000e+00,5.000000000000000000e+00,5.000000000000000000e+00,5.000000000000000000e+00,4.859719753265380859e+00,4.668976783752441406e+00,4.492641448974609375e+00,4.329141139984130859e+00,4.177123546600341797e+00,4.035418510437011719e+00,3.903012514114379883e+00,3.779019117355346680e+00,3.662661314010620117e+00,3.553255081176757812e+00,3.450195312500000000e+00,3.352945327758789062e+00,3.261027336120605469e+00,3.174014568328857422e+00,3.091524600982666016e+00,3.013213872909545898e+00,2.938772439956665039e+00,2.867920398712158203e+00,2.800404310226440430e+00,2.735993862152099609e+00,2.674479961395263672e+00,2.615671157836914062e+00,2.559393167495727539e+00,2.505485773086547852e+00,2.453802347183227539e+00,2.404208183288574219e+00,2.356579065322875977e+00,2.310800313949584961e+00,2.266766071319580078e+00,2.224379062652587891e+00,2.183547973632812500e+00,2.144188880920410156e+00,2.106223344802856445e+00,2.069579124450683594e+00,2.034188270568847656e+00,1.999987363815307617e+00,1.966917514801025391e+00,1.934923410415649414e+00,1.903953552246093750e+00,1.873959422111511230e+00,1.844895720481872559e+00
4.875541687011718750e+00,4.874330997467041016e+00,4.873121261596679688e+00,4.871911525726318359e+00,4.870702743530273438e+00,4.869494915008544922e+00,4.868287086486816406e+00,4.867079734802246094e+00,4.865873336791992188e+00,4.864667892456054688e+00,4.863462448120117188e+00,4.862257480621337891e+00,4.861053466796875000e+00,4.859849929809570312e+00,4.858647346496582031e+00,4.857445240020751953e+00,4.856243610382080078e+00,4.855041980743408203e+00,4.853841781616210938e+00,4.852642059326171875e+00,4.851442813873291016e+00,4.850244045257568359e+00,4.849045753479003906e+00,4.847848415374755859e+00,4.846651077270507812e+00,4.845454692840576172e+00,4.844259262084960938e+00,4.843063831329345703e+00,4.841869354248046875e+00,1.855130910873413086e+00,1.291022062301635742e+00,1.269672274589538574e+00,1.265508055686950684e+00,1.278573393821716309e+00,4.834714412689208984e+00,4.833523750305175781e+00,4.832334041595458984e+00,4.831144332885742188e+00,4.829955577850341797e+00,4.828767776489257812e+00,4.669104099273681641e+00,4.492759704589843750e+00,4.329250812530517578e+00,4.177225112915039062e+00,4.035514354705810547e+00,3.903102397918701172e+00,3.779103279113769531e+00,3.662740468978881836e+00,3.553329467773437500e+00,3.450265407562255859e+00,3.353011608123779297e+00,3.261090040206909180e+00,3.174074172973632812e+00,3.091581106185913086e+00,3.013267278671264648e+00,2.938823223114013672e+00,2.867968797683715820e+00,2.800450563430786133e+00,2.736037969589233398e+00,2.674522161483764648e+00,2.615711688995361328e+00,2.559431791305541992e+00,2.505522727966308594e+00,2.453837633132934570e+00,2.404242038726806641e+00,2.356611728668212891e+00,2.310831546783447266e+00,2.266796350479125977e+00,2.224407911300659180e+00,2.183575868606567383e+00,2.144215822219848633e+00,2.106249570846557617e+00,2.069604396820068359e+00,2.034212589263916016e+00,2.000010967254638672e+00,1.966940402984619141e+00,1.934945583343505859e+00,1.903975009918212891e+00,1.873980164527893066e+00,1.844915747642517090e+00
3.778366327285766602e+00,3.777638912200927734e+00,3.776912212371826172e+00,3.776185750961303711e+00,3.775459289550781250e+00,3.774733304977416992e+00,3.774007320404052734e+00,3.773282051086425781e+00,3.772557020187377930e+00,3.771831989288330078e+00,3.771107435226440430e+00,3.770383119583129883e+00,3.769659042358398438e+00,3.768935203552246094e+00,3.768211841583251953e+00,3.767488479614257812e+00,3.766765594482421875e+00,3.766043186187744141e+00,3.765320539474487305e+00,3.764598608016967773e+00,3.763876438140869141e+00,3.763154983520507812e+00,3.762434005737304688e+00,3.761712551116943359e+00,3.760992050170898438e+00,3.760271787643432617e+00,3.759551286697387695e+00,3.758831501007080078e+00,3.758112192153930664e+00,1.854122519493103027e+00,1.295147418975830078e+00,1.273752331733703613e+00,1.270067214965820312e+00,1.276376605033874512e+00,3.753799676895141602e+00,3.753082275390625000e+00,3.752364873886108398e+00,3.751647472381591797e+00,3.750930786132812500e+00,3.750214338302612305e+00,3.749497652053833008e+00,3.748781919479370117e+00,3.748066186904907227e+00,3.747350454330444336e+00,3.746635437011718750e+00,3.745920419692993164e+00,3.745205640792846680e+00,3.662819623947143555e+00,3.553404092788696289e+00,3.450335741043090820e+00,3.353077888488769531e+00,3.261152982711791992e+00,3.174133539199829102e+00,3.091637134552001953e+00,3.013320684432983398e+00,2.938874006271362305e+00,2.868017196655273438e+00,2.800496578216552734e+00,2.736082077026367188e+00,2.674564123153686523e+00,2.615751743316650391e+00,2.559470176696777344e+00,2.505559682846069336e+00,2.453873157501220703e+00,2.404276132583618164e+00,2.356644392013549805e+00,2.310863018035888672e+00,2.266826629638671875e+00,2.224437236785888672e+00,2.183604001998901367e+00,2.144243001937866211e+00,2.106275796890258789e+00,2.069629669189453125e+00,2.034237146377563477e+00,2.000034570693969727e+00,1.966963171958923340e+00,1.934967637062072754e+00,1.903996348381042480e+00,1.874000906944274902e+00,1.844935894012451172e+00
3.084288120269775391e+00,3.083803653717041016e+00,3.083319425582885742e+00,3.082834959030151367e+00,3.082350969314575195e+00,3.081867218017578125e+00,3.081383228302001953e+00,3.080899715423583984e+00,3.080415964126586914e+00,3.079932689666748047e+00,3.079449653625488281e+00,3.078966617584228516e+00,3.078483819961547852e+00,3.078001260757446289e+00,3.077518463134765625e+00,3.077036142349243164e+00,3.076553821563720703e+00,3.076071739196777344e+00,3.075589656829833984e+00,3.075108051300048828e+00,3.074626207351684570e+00,3.074144840240478516e+00,3.073663473129272461e+00,3.073182106018066406e+00,3.072701215744018555e+00,3.072220087051391602e+00,3.071739435195922852e+00,3.071259021759033203e+00,3.070778369903564453e+00,1.833621025085449219e+00,1.299299240112304688e+00,1.277858734130859375e+00,1.270082354545593262e+00,1.274187564849853516e+00,3.067898750305175781e+00,3.067419528961181641e+00,3.066940307617187500e+00,3.066461086273193359e+00,3.065982341766357422e+00,3.065503358840942383e+00,3.065024852752685547e+00,3.064546346664428711e+00,3.064067840576171875e+00,3.063589811325073242e+00,3.063111782073974609e+00,3.062633752822875977e+00,3.062156200408935547e+00,3.061678647994995117e+00,3.061200857162475586e+00,3.060723781585693359e+00,3.060246706008911133e+00,3.059769392013549805e+00,3.059292793273925781e+00,3.058816194534301758e+00,3.013374328613281250e+00,2.938925027847290039e+00,2.868065595626831055e+00,2.800542831420898438e+00,2.736126184463500977e+00,2.674606323242187500e+00,2.615792274475097656e+00,2.559508800506591797e+00,2.505596637725830078e+00,2.453908681869506836e+00,2.404310226440429688e+00,2.356677293777465820e+00,2.310894489288330078e+00,2.266856908798217773e+00,2.224466323852539062e+00,2.183632135391235352e+00,2.144270181655883789e+00,2.106302022933959961e+00,2.069654941558837891e+00,2.034261465072631836e+00,2.000058174133300781e+00,1.966986060142517090e+00,1.934989452362060547e+00,1.904017567634582520e+00,1.874021410942077637e+00,1.844955682754516602e+00
2.605637788772583008e+00,2.605292081832885742e+00,2.604946136474609375e+00,2.604600667953491211e+00,2.604255199432373047e+00,2.603909492492675781e+00,2.603564262390136719e+00,2.603219032287597656e+00,2.602873802185058594e+00,2.602528810501098633e+00,2.602183818817138672e+00,2.601838827133178711e+00,2.601494073867797852e+00,2.601149320602416992e+00,2.600804567337036133e+00,2.600460290908813477e+00,2.600115537643432617e+00,2.599771261215209961e+00,2.599427223205566406e+00,2.599082708358764648e+00,2.598738670349121094e+00,2.598394870758056641e+00,2.598050832748413086e+00,2.597707033157348633e+00,2.597363471984863281e+00,2.597019672393798828e+00,2.596676111221313477e+00,2.596332550048828125e+00,2.595989227294921875e+00,1.813057661056518555e+00,1.303477764129638672e+00,1.281991600990295410e+00,1.269756197929382324e+00,1.272006154060363770e+00,2.593931198120117188e+00,2.593588590621948242e+00,2.593245744705200195e+00,2.592903137207031250e+00,2.592560768127441406e+00,2.592218399047851562e+00,2.591876268386840820e+00,2.591534137725830078e+00,2.591191768646240234e+00,2.590849876403808594e+00,2.590507984161376953e+00,2.590166091918945312e+00,2.589824438095092773e+00,2.589482784271240234e+00,2.589141130447387695e+00,2.588799953460693359e+00,2.588458299636840820e+00,2.588117122650146484e+00,2.587775945663452148e+00,2.587434768676757812e+00,2.587093830108642578e+00,2.586753129959106445e+00,2.586412191390991211e+00,2.586071491241455078e+00,2.585730552673339844e+00,2.585390090942382812e+00,2.585049867630004883e+00,2.559547662734985352e+00,2.505633831024169922e+00,2.453944206237792969e+00,2.404344320297241211e+00,2.356709957122802734e+00,2.310926198959350586e+00,2.266887187957763672e+00,2.224495410919189453e+00,2.183660268783569336e+00,2.144297122955322266e+00,2.106328010559082031e+00,2.069679975509643555e+00,2.034285783767700195e+00,2.000081539154052734e+00,1.967008590698242188e+00,1.935011625289916992e+00,1.904038906097412109e+00,1.874042153358459473e+00,1.844975829124450684e+00
2.255601406097412109e+00,2.255341768264770508e+00,2.255082368850708008e+00,2.254822969436645508e+00,2.254563570022583008e+00,2.254304409027099609e+00,2.254045009613037109e+00,2.253785848617553711e+00,2.253526687622070312e+00,2.253267765045166016e+00,2.253008842468261719e+00,2.252749919891357422e+00,2.252490997314453125e+00,2.252232074737548828e+00,2.251973390579223633e+00,2.251714706420898438e+00,2.251456022262573242e+00,2.251197338104248047e+00,2.250938892364501953e+00,2.250680446624755859e+00,2.250422000885009766e+00,2.250163793563842773e+00,2.249905347824096680e+00,2.249647378921508789e+00,2.249389410018920898e+00,2.249131917953491211e+00,2.248874187469482422e+00,2.248616456985473633e+00,2.248358964920043945e+00,1.796411633491516113e+00,1.814176678657531738e+00,1.286151528358459473e+00,1.285928964614868164e+00,1.274187088012695312e+00,2.246814966201782227e+00,2.246557712554931641e+00,2.246300697326660156e+00,2.246043682098388672e+00,2.245786666870117188e+00,2.245529651641845703e+00,2.245272874832153320e+00,2.245016098022460938e+00,2.244759321212768555e+00,2.244502782821655273e+00,2.244246006011962891e+00,2.243989706039428711e+00,2.243732929229736328e+00,2.243476629257202148e+00,2.243220329284667969e+00,2.242963790893554688e+00,2.242707729339599609e+00,2.242451667785644531e+00,2.242195367813110352e+00,2.241939306259155273e+00,2.241683244705200195e+00,2.241427183151245117e+00,2.241171360015869141e+00,2.240915536880493164e+00,2.240659713745117188e+00,2.240404129028320312e+00,2.240148305892944336e+00,2.239892721176147461e+00,2.239637136459350586e+00,2.239381551742553711e+00,2.239126205444335938e+00,2.238870859146118164e+00,2.238615512847900391e+00,2.238360166549682617e+00,2.224524736404418945e+00,2.183688402175903320e+00,2.144324302673339844e+00,2.106354236602783203e+00,2.069705247879028320e+00,2.034310102462768555e+00,2.000105142593383789e+00,1.967031478881835938e+00,1.935033679008483887e+00,1.904060363769531250e+00,1.874062776565551758e+00,1.844995856285095215e+00
1.988490581512451172e+00,1.988288879394531250e+00,1.988087296485900879e+00,1.987885594367980957e+00,1.987684011459350586e+00,1.987482428550720215e+00,1.987280964851379395e+00,1.987079501152038574e+00,1.986878037452697754e+00,1.986676573753356934e+00,1.986475229263305664e+00,1.986274003982543945e+00,1.986072659492492676e+00,1.985871434211730957e+00,1.985670328140258789e+00,1.985469102859497070e+00,1.985268235206604004e+00,1.985067248344421387e+00,1.984866142272949219e+00,1.984665155410766602e+00,1.984464168548583984e+00,1.984263300895690918e+00,1.984062433242797852e+00,1.983861565589904785e+00,1.983660817146301270e+00,1.983460068702697754e+00,1.983259439468383789e+00,1.983058691024780273e+00,1.982858061790466309e+00,1.748927831649780273e+00,1.778623104095458984e+00,1.300584554672241211e+00,1.284304261207580566e+00,1.280042648315429688e+00,1.981655478477478027e+00,1.981455087661743164e+00,1.981254816055297852e+00,1.981054544448852539e+00,1.980854392051696777e+00,1.980654120445251465e+00,1.980453968048095703e+00,1.980253934860229492e+00,1.980053901672363281e+00,1.979853868484497070e+00,1.979653835296630859e+00,1.979453921318054199e+00,1.979254007339477539e+00,1.979054212570190430e+00,1.978854417800903320e+00,1.978654623031616211e+00,1.978455066680908203e+00,1.978255391120910645e+00,1.978055715560913086e+00,1.977856159210205078e+00,1.977656602859497070e+00,1.977457046508789062e+00,1.977257490158081055e+00,1.977058053016662598e+00,1.976858615875244141e+00,1.976659297943115234e+00,1.976459980010986328e+00,1.976260662078857422e+00,1.976061463356018066e+00,1.975862145423889160e+00,1.975663065910339355e+00,1.975463867187500000e+00,1.975264787673950195e+00,1.975065946578979492e+00,1.974866986274719238e+00,1.974668025970458984e+00,1.974469065666198730e+00,1.974270224571228027e+00,1.974071264266967773e+00,1.973872542381286621e+00,1.973673701286315918e+00,1.967054247856140137e+00,1.935055732727050781e+00,1.904081702232360840e+00,1.874083518981933594e+00,1.845016002655029297e+00
1.777944326400756836e+00,1.777783036231994629e+00,1.777621746063232422e+00,1.777460575103759766e+00,1.777299642562866211e+00,1.777138471603393555e+00,1.776977300643920898e+00,1.776816248893737793e+00,1.776655197143554688e+00,1.776494145393371582e+00,1.776333093643188477e+00,1.776172161102294922e+00,1.776011228561401367e+00,1.775850296020507812e+00,1.775689482688903809e+00,1.775528550148010254e+00,1.775367736816406250e+00,1.775206923484802246e+00,1.775046110153198242e+00,1.774885416030883789e+00,1.774724721908569336e+00,1.774564266204833984e+00,1.774403572082519531e+00,1.774242877960205078e+00,1.774082303047180176e+00,1.773921728134155273e+00,1.773761153221130371e+00,1.773600697517395020e+00,1.773440241813659668e+00,1.773279786109924316e+00,1.773119330406188965e+00,1.302054524421691895e+00,1.276624083518981934e+00,1.266257762908935547e+00,1.772477865219116211e+00,1.772317647933959961e+00,1.772157430648803711e+00,1.771997213363647461e+00,1.771837115287780762e+00,1.771677017211914062e+00,1.771516919136047363e+00,1.771356701850891113e+00,1.771196722984313965e+00,1.771036624908447266e+00,1.770876646041870117e+00,1.770716667175292969e+00,1.770556688308715820e+00,1.770396709442138672e+00,1.770236849784851074e+00,1.770076990127563477e+00,1.769917130470275879e+00,1.769757270812988281e+00,1.769597530364990234e+00,1.769437670707702637e+00,1.769278049468994141e+00,1.769118428230285645e+00,1.768958806991577148e+00,1.768799185752868652e+00,1.768639564514160156e+00,1.768479943275451660e+00,1.768320441246032715e+00,1.768160820007324219e+00,1.768001317977905273e+00,1.767841935157775879e+00,1.767682433128356934e+00,1.767523050308227539e+00,1.767363667488098145e+00,1.767204284667968750e+00,1.767045021057128906e+00,1.766885638236999512e+00,1.766726374626159668e+00,1.766567111015319824e+00,1.766407966613769531e+00,1.766248941421508789e+00,1.766089797019958496e+00,1.765930652618408203e+00,1.765771627426147461e+00,1.765612483024597168e+00,1.765453577041625977e+00,1.765294551849365234e+00
1.607715606689453125e+00,1.607583761215209961e+00,1.607451915740966797e+00,1.607320070266723633e+00,1.607188224792480469e+00,1.607056498527526855e+00,1.606924653053283691e+00,1.606792926788330078e+00,1.606661200523376465e+00,1.606529712677001953e+00,1.606397986412048340e+00,1.606266379356384277e+00,1.606134772300720215e+00,1.606003165245056152e+00,1.605871558189392090e+00,1.605739951133728027e+00,1.605608463287353516e+00,1.605476975440979004e+00,1.605345368385314941e+00,1.605213999748229980e+00,1.605082511901855469e+00,1.604951024055480957e+00,1.604819655418395996e+00,1.604688286781311035e+00,1.604556918144226074e+00,1.604425549507141113e+00,1.604294300079345703e+00,1.604163050651550293e+00,1.604031801223754883e+00,1.603900551795959473e+00,1.603769302368164062e+00,1.301574349403381348e+00,1.259055614471435547e+00,1.244186162948608398e+00,1.242698192596435547e+00,1.603113412857055664e+00,1.602982282638549805e+00,1.602851152420043945e+00,1.602720141410827637e+00,1.602589011192321777e+00,1.602458000183105469e+00,1.602326989173889160e+00,1.602195978164672852e+00,1.602065205574035645e+00,1.601934313774108887e+00,1.601803302764892578e+00,1.601672410964965820e+00,1.601541638374328613e+00,1.601410746574401855e+00,1.601279854774475098e+00,1.601149082183837891e+00,1.601018309593200684e+00,1.600887537002563477e+00,1.600756764411926270e+00,1.600625991821289062e+00,1.600495338439941406e+00,1.600364685058593750e+00,1.600234031677246094e+00,1.600103378295898438e+00,1.599972724914550781e+00,1.599842071533203125e+00,1.599711656570434570e+00,1.599581122398376465e+00,1.599450588226318359e+00,1.599320054054260254e+00,1.599189519882202148e+00,1.599059104919433594e+00,1.598928689956665039e+00,1.598798274993896484e+00,1.598667860031127930e+00,1.598537445068359375e+00,1.598407030105590820e+00,1.598276734352111816e+00,1.598146438598632812e+00,1.598016142845153809e+00,1.597885847091674805e+00,1.597755551338195801e+00,1.597625374794006348e+00,1.597495317459106445e+00,1.597365021705627441e+00
1.467235565185546875e+00,1.467125654220581055e+00,1.467015862464904785e+00,1.466906070709228516e+00,1.466796278953552246e+00,1.466686606407165527e+00,1.466576814651489258e+00,1.466467022895812988e+00,1.466357350349426270e+00,1.466247677803039551e+00,1.466138005256652832e+00,1.466028332710266113e+00,1.465918660163879395e+00,1.465808987617492676e+00,1.465699434280395508e+00,1.465589880943298340e+00,1.465480327606201172e+00,1.465370774269104004e+00,1.465261220932006836e+00,1.465151667594909668e+00,1.465042114257812500e+00,1.464932680130004883e+00,1.464823126792907715e+00,1.464713692665100098e+00,1.464604258537292480e+00,1.464494824409484863e+00,1.464385390281677246e+00,1.464275956153869629e+00,1.464166641235351562e+00,1.464057207107543945e+00,1.463947892189025879e+00,1.298846840858459473e+00,1.239833950996398926e+00,1.224567413330078125e+00,1.216783285140991211e+00,1.217123270034790039e+00,1.463292241096496582e+00,1.463182926177978516e+00,1.463073730468750000e+00,1.462964534759521484e+00,1.462855339050292969e+00,1.462746143341064453e+00,1.462637066841125488e+00,1.462527871131896973e+00,1.462418794631958008e+00,1.462309598922729492e+00,1.462200522422790527e+00,1.462091445922851562e+00,1.461982369422912598e+00,1.461873531341552734e+00,1.461764454841613770e+00,1.461655497550964355e+00,1.461546421051025391e+00,1.461437463760375977e+00,1.461328506469726562e+00,1.461219549179077148e+00,1.461110711097717285e+00,1.461001753807067871e+00,1.460892796516418457e+00,1.460783958435058594e+00,1.460675120353698730e+00,1.460566282272338867e+00,1.460457444190979004e+00,1.460348606109619141e+00,1.460239768028259277e+00,1.460131049156188965e+00,1.460022330284118652e+00,1.459913611412048340e+00,1.459804892539978027e+00,1.459696173667907715e+00,1.459587454795837402e+00,1.459478735923767090e+00,1.459370136260986328e+00,1.459261417388916016e+00,1.459152817726135254e+00,1.459044218063354492e+00,1.458935618400573730e+00,1.458827018737792969e+00,1.458718419075012207e+00,1.458609819412231445e+00
1.349332451820373535e+00,1.349239587783813477e+00,1.349146723747253418e+00,1.349053978919982910e+00,1.348961114883422852e+00,1.348868250846862793e+00,1.348775506019592285e+00,1.348682641983032227e+00,1.348589897155761719e+00,1.348497033119201660e+00,1.348404288291931152e+00,1.348311543464660645e+00,1.348218798637390137e+00,1.348126053810119629e+00,1.348033308982849121e+00,1.347940683364868164e+00,1.347847938537597656e+00,1.347755312919616699e+00,1.347662568092346191e+00,1.347569942474365234e+00,1.347477436065673828e+00,1.347384810447692871e+00,1.347292184829711914e+00,1.347199559211730957e+00,1.347106933593750000e+00,1.347014427185058594e+00,1.346921801567077637e+00,1.346829295158386230e+00,1.346736669540405273e+00,1.346644163131713867e+00,1.346551656723022461e+00,1.346459150314331055e+00,1.207851409912109375e+00,1.198003888130187988e+00,1.187599062919616699e+00,1.174385786056518555e+00,1.177078604698181152e+00,1.345904469490051270e+00,1.345812082290649414e+00,1.345719695091247559e+00,1.345627307891845703e+00,1.345534920692443848e+00,1.345442533493041992e+00,1.345350146293640137e+00,1.345257878303527832e+00,1.345165491104125977e+00,1.345073223114013672e+00,1.344980955123901367e+00,1.344888567924499512e+00,1.344796299934387207e+00,1.344704031944274902e+00,1.344611763954162598e+00,1.344519615173339844e+00,1.344427347183227539e+00,1.344335198402404785e+00,1.344243049621582031e+00,1.344150900840759277e+00,1.344058632850646973e+00,1.343966484069824219e+00,1.343874335289001465e+00,1.343782186508178711e+00,1.343690037727355957e+00,1.343598008155822754e+00,1.343505859375000000e+00,1.343413829803466797e+00,1.343321681022644043e+00,1.343229651451110840e+00,1.343137621879577637e+00,1.343045592308044434e+00,1.342953562736511230e+00,1.342861533164978027e+00,1.342769622802734375e+00,1.342677593231201172e+00,1.342585682868957520e+00,1.342493653297424316e+00,1.342401742935180664e+00,1.342309832572937012e+00,1.342217922210693359e+00,1.342126011848449707e+00,1.342034101486206055e+00
1.248968958854675293e+00,1.248889327049255371e+00,1.248809695243835449e+00,1.248730182647705078e+00,1.248650670051574707e+00,1.248571157455444336e+00,1.248491525650024414e+00,1.248412013053894043e+00,1.248332619667053223e+00,1.248253107070922852e+00,1.248173594474792480e+00,1.248094201087951660e+00,1.248014688491821289e+00,1.247935175895690918e+00,1.247855782508850098e+00,1.247776269912719727e+00,1.247696876525878906e+00,1.247617483139038086e+00,1.247538089752197266e+00,1.247458696365356445e+00,1.247379302978515625e+00,1.247299909591674805e+00,1.247220516204833984e+00,1.247141122817993164e+00,1.247061729431152344e+00,1.246982574462890625e+00,1.246903181076049805e+00,1.246823906898498535e+00,1.246744513511657715e+00,1.246665239334106445e+00,1.246585965156555176e+00,1.246506690979003906e+00,1.195530176162719727e+00,1.171229600906372070e+00,1.167567372322082520e+00,1.158155322074890137e+00,1.163888096809387207e+00,1.246031165122985840e+00,1.245952010154724121e+00,1.245872855186462402e+00,1.245793581008911133e+00,1.245714426040649414e+00,1.245635390281677246e+00,1.245556235313415527e+00,1.245477080345153809e+00,1.245397925376892090e+00,1.245318770408630371e+00,1.245239615440368652e+00,1.245160579681396484e+00,1.245081424713134766e+00,1.245002388954162598e+00,1.244923233985900879e+00,1.244844198226928711e+00,1.244765162467956543e+00,1.244686126708984375e+00,1.244607090950012207e+00,1.244528055191040039e+00,1.244449019432067871e+00,1.244369983673095703e+00,1.244290947914123535e+00,1.244212150573730469e+00,1.244133114814758301e+00,1.244054198265075684e+00,1.243975162506103516e+00,1.243896245956420898e+00,1.243817329406738281e+00,1.243738412857055664e+00,1.243659496307373047e+00,1.243580579757690430e+00,1.243501663208007812e+00,1.243422746658325195e+00,1.243343830108642578e+00,1.243265032768249512e+00,1.243186116218566895e+00,1.243107318878173828e+00,1.243028521537780762e+00,1.242949604988098145e+00,1.242870926856994629e+00,1.242792129516601562e+00,1.242713332176208496e+00
1.162501811981201172e+00,1.162432909011840820e+00,1.162364006042480469e+00,1.162294983863830566e+00,1.162226080894470215e+00,1.162157177925109863e+00,1.162088274955749512e+00,1.162019371986389160e+00,1.161950469017028809e+00,1.161881685256958008e+00,1.161812782287597656e+00,1.161743879318237305e+00,1.161674976348876953e+00,1.161606311798095703e+00,1.161537408828735352e+00,1.161468625068664551e+00,1.161399722099304199e+00,1.161330938339233398e+00,1.161262154579162598e+00,1.161193370819091797e+00,1.161124587059020996e+00,1.161055803298950195e+00,1.160987019538879395e+00,1.160918235778808594e+00,1.160849452018737793e+00,1.160780668258666992e+00,1.160712003707885742e+00,1.160643219947814941e+00,1.160574555397033691e+00,1.160505771636962891e+00,1.160437107086181641e+00,1.160368442535400391e+00,1.160299777984619141e+00,1.160231113433837891e+00,1.160162329673767090e+00,1.160093665122985840e+00,1.160025000572204590e+00,1.159956336021423340e+00,1.159887790679931641e+00,1.159819126129150391e+00,1.159750461578369141e+00,1.159681916236877441e+00,1.159613251686096191e+00,1.159544587135314941e+00,1.159476041793823242e+00,1.159407496452331543e+00,1.159338831901550293e+00,1.159270286560058594e+00,1.159201860427856445e+00,1.159133195877075195e+00,1.159064650535583496e+00,1.158996105194091797e+00,1.158927679061889648e+00,1.158859133720397949e+00,1.158790588378906250e+00,1.158722043037414551e+00,1.158653616905212402e+00,1.158585071563720703e+00,1.158516645431518555e+00,1.158448100090026855e+00,1.158379673957824707e+00,1.158311247825622559e+00,1.158242821693420410e+00,1.158174276351928711e+00,1.158105850219726562e+00,1.158037543296813965e+00,1.157969117164611816e+00,1.157900691032409668e+00,1.157832264900207520e+00,1.157763957977294922e+00,1.157695531845092773e+00,1.157627105712890625e+00,1.157558798789978027e+00,1.157490372657775879e+00,1.157422065734863281e+00,1.157353758811950684e+00,1.157285451889038086e+00,1.157217025756835938e+00,1.157148718833923340e+00,1.157080411911010742e+00
1.087231874465942383e+00,1.087171554565429688e+00,1.087111353874206543e+00,1.087051033973693848e+00,1.086990714073181152e+00,1.086930394172668457e+00,1.086870193481445312e+00,1.086809873580932617e+00,1.086749672889709473e+00,1.086689352989196777e+00,1.086629152297973633e+00,1.086568951606750488e+00,1.086508631706237793e+00,1.086448431015014648e+00,1.086388230323791504e+00,1.086328029632568359e+00,1.086267828941345215e+00,1.086207628250122070e+00,1.086147427558898926e+00,1.086087346076965332e+00,1.086027145385742188e+00,1.085966944694519043e+00,1.085906744003295898e+00,1.085846662521362305e+00,1.085786461830139160e+00,1.085726261138916016e+00,1.085666179656982422e+00,1.085606098175048828e+00,1.085545897483825684e+00,1.085485816001892090e+00,1.085425734519958496e+00,1.085365533828735352e+00,1.085305452346801758e+00,1.085245370864868164e+00,1.085185289382934570e+00,1.085125207901000977e+00,1.085065245628356934e+00,1.085005164146423340e+00,1.084945082664489746e+00,1.084885001182556152e+00,1.084825038909912109e+00,1.084764957427978516e+00,1.084704875946044922e+00,1.084644913673400879e+00,1.084584832191467285e+00,1.084524869918823242e+00,1.084464788436889648e+00,1.084404826164245605e+00,1.084344863891601562e+00,1.084284782409667969e+00,1.084224820137023926e+00,1.084164857864379883e+00,1.084104895591735840e+00,1.084045052528381348e+00,1.083985090255737305e+00,1.083925127983093262e+00,1.083865165710449219e+00,1.083805203437805176e+00,1.083745360374450684e+00,1.083685398101806641e+00,1.083625435829162598e+00,1.083565592765808105e+00,1.083505630493164062e+00,1.083445787429809570e+00,1.083385944366455078e+00,1.083325982093811035e+00,1.083266139030456543e+00,1.083206295967102051e+00,1.083146452903747559e+00,1.083086490631103516e+00,1.083026766777038574e+00,1.082966923713684082e+00,1.082907080650329590e+00,1.082847237586975098e+00,1.082787394523620605e+00,1.082727670669555664e+00,1.082667827606201172e+00,1.082607984542846680e+00,1.082548260688781738e+00,1.082488417625427246e+00
1.021116375923156738e+00,1.021063208580017090e+00,1.021010041236877441e+00,1.020956873893737793e+00,1.020903587341308594e+00,1.020850419998168945e+00,1.020797252655029297e+00,1.020744204521179199e+00,1.020691037178039551e+00,1.020637869834899902e+00,1.020584702491760254e+00,1.020531654357910156e+00,1.020478487014770508e+00,1.020425319671630859e+00,1.020372271537780762e+00,1.020319104194641113e+00,1.020265936851501465e+00,1.020212888717651367e+00,1.020159721374511719e+00,1.020106673240661621e+00,1.020053625106811523e+00,1.020000457763671875e+00,1.019947409629821777e+00,1.019894361495971680e+00,1.019841313362121582e+00,1.019788265228271484e+00,1.019735217094421387e+00,1.019682168960571289e+00,1.019629120826721191e+00,1.019576072692871094e+00,1.019523024559020996e+00,1.019469976425170898e+00,1.019417047500610352e+00,1.019363999366760254e+00,1.019310951232910156e+00,1.019257903099060059e+00,1.019204974174499512e+00,1.019151926040649414e+00,1.019098997116088867e+00,1.019045948982238770e+00,1.018993020057678223e+00,1.018940091133117676e+00,1.018887162208557129e+00,1.018834114074707031e+00,1.018781185150146484e+00,1.018728256225585938e+00,1.018675327301025391e+00,1.018622398376464844e+00,1.018569350242614746e+00,1.018516421318054199e+00,1.018463611602783203e+00,1.018410682678222656e+00,1.018357753753662109e+00,1.018304824829101562e+00,1.018251895904541016e+00,1.018198966979980469e+00,1.018146157264709473e+00,1.018093228340148926e+00,1.018040299415588379e+00,1.017987489700317383e+00,1.017934679985046387e+00,1.017881751060485840e+00,1.017828941345214844e+00,1.017776131629943848e+00,1.017723202705383301e+00,1.017670392990112305e+00,1.017617583274841309e+00,1.017564773559570312e+00,1.017511844635009766e+00,1.017459034919738770e+00,1.017406225204467773e+00,1.017353415489196777e+00,1.017300605773925781e+00,1.017247796058654785e+00,1.017195105552673340e+00,1.017142295837402344e+00,1.017089486122131348e+00,1.017036795616149902e+00,1.016983985900878906e+00,1.016931176185607910e+00
9.625810384750366211e-01,9.625337719917297363e-01,9.624865055084228516e-01,9.624392986297607422e-01,9.623919725418090820e-01,9.623447656631469727e-01,9.622974991798400879e-01,9.622502326965332031e-01,9.622030258178710938e-01,9.621557593345642090e-01,9.621085524559020996e-01,9.620613455772399902e-01,9.620141983032226562e-01,9.619669914245605469e-01,9.619197845458984375e-01,9.618725776672363281e-01,9.618253707885742188e-01,9.617781639099121094e-01,9.617309570312500000e-01,9.616838097572326660e-01,9.616366028785705566e-01,9.615894556045532227e-01,9.615422487258911133e-01,9.614951014518737793e-01,9.614479541778564453e-01,9.614007472991943359e-01,9.613536000251770020e-01,9.613064527511596680e-01,9.612593054771423340e-01,9.612121582031250000e-01,9.611650109291076660e-01,9.611179232597351074e-01,9.610707759857177734e-01,9.610236287117004395e-01,9.609765410423278809e-01,9.609293937683105469e-01,9.608823060989379883e-01,9.608352184295654297e-01,9.607880711555480957e-01,9.607409834861755371e-01,9.606938958168029785e-01,9.606468081474304199e-01,9.605997204780578613e-01,9.605526328086853027e-01,9.605056047439575195e-01,9.604585170745849609e-01,9.604114294052124023e-01,9.603645205497741699e-01,9.603174328804016113e-01,9.602704048156738281e-01,9.602233767509460449e-01,9.601762890815734863e-01,9.601292610168457031e-01,9.600822329521179199e-01,9.600352048873901367e-01,9.599881768226623535e-01,9.599411487579345703e-01,9.598941802978515625e-01,9.598471522331237793e-01,9.598001241683959961e-01,9.597531557083129883e-01,9.597061276435852051e-01,9.596591591835021973e-01,9.596121907234191895e-01,9.595652222633361816e-01,9.595181941986083984e-01,9.594712257385253906e-01,9.594242572784423828e-01,9.593772888183593750e-01,9.593303799629211426e-01,9.592834115028381348e-01,9.592364430427551270e-01,9.591895341873168945e-01,9.591425657272338867e-01,9.590956568717956543e-01,9.590486884117126465e-01,9.590017795562744141e-01,9.589548707008361816e-01,9.589079022407531738e-01,9.588609933853149414e-01
9.103929400444030762e-01,9.103506207466125488e-01,9.103083610534667969e-01,9.102661013603210449e-01,9.102237820625305176e-01,9.101815223693847656e-01,9.101392626762390137e-01,9.100970029830932617e-01,9.100547432899475098e-01,9.100124835968017578e-01,9.099702239036560059e-01,9.099280238151550293e-01,9.098857641220092773e-01,9.098435044288635254e-01,9.098013043403625488e-01,9.097590446472167969e-01,9.097168445587158203e-01,9.096745848655700684e-01,9.096325039863586426e-01,9.095902442932128906e-01,9.095480442047119141e-01,9.095058441162109375e-01,9.094636440277099609e-01,9.094214439392089844e-01,9.093792438507080078e-01,9.093370437622070312e-01,9.092948436737060547e-01,9.092527031898498535e-01,9.092105031013488770e-01,9.091683030128479004e-01,9.091261625289916992e-01,9.090839624404907227e-01,9.090418219566345215e-01,9.089996814727783203e-01,9.089575409889221191e-01,9.089153409004211426e-01,9.088732004165649414e-01,9.088310599327087402e-01,9.087889194488525391e-01,9.087467789649963379e-01,9.087046384811401367e-01,9.086624979972839355e-01,9.086204171180725098e-01,9.085782766342163086e-01,9.085361957550048828e-01,9.084940552711486816e-01,9.084519743919372559e-01,9.084098339080810547e-01,9.083677530288696289e-01,9.083256721496582031e-01,9.082835316658020020e-01,9.082414507865905762e-01,9.081994891166687012e-01,9.081574082374572754e-01,9.081153273582458496e-01,9.080732464790344238e-01,9.080311655998229980e-01,9.079890847206115723e-01,9.079470634460449219e-01,9.079049825668334961e-01,9.078629612922668457e-01,9.078208804130554199e-01,9.077787995338439941e-01,9.077367782592773438e-01,9.076947569847106934e-01,9.076527357101440430e-01,9.076106548309326172e-01,9.075686335563659668e-01,9.075266122817993164e-01,9.074845910072326660e-01,9.074426293373107910e-01,9.074006080627441406e-01,9.073585867881774902e-01,9.073165655136108398e-01,9.072746038436889648e-01,9.072325825691223145e-01,9.071905612945556641e-01,9.071485996246337891e-01,9.071066379547119141e-01,9.070646166801452637e-01
8.635727167129516602e-01,8.635346293449401855e-01,8.634966015815734863e-01,8.634585738182067871e-01,8.634205460548400879e-01,8.633825182914733887e-01,8.633444905281066895e-01,8.633064627647399902e-01,8.632684350013732910e-01,8.632304072380065918e-01,8.631923794746398926e-01,8.631543517112731934e-01,8.631163835525512695e-01,8.630783557891845703e-01,8.630403280258178711e-01,8.630023598670959473e-01,8.629643321037292480e-01,8.629263639450073242e-01,8.628883361816406250e-01,8.628503680229187012e-01,8.628123998641967773e-01,8.627743721008300781e-01,8.627364039421081543e-01,8.626985549926757812e-01,8.626605868339538574e-01,8.626226186752319336e-01,8.625846505165100098e-01,8.625466823577880859e-01,8.625087141990661621e-01,8.624707460403442383e-01,8.624328374862670898e-01,8.623948693275451660e-01,8.623569011688232422e-01,8.623189926147460938e-01,8.622810244560241699e-01,8.622431159019470215e-01,8.622051477432250977e-01,8.621672391891479492e-01,8.621293306350708008e-01,8.620914220809936523e-01,8.620534539222717285e-01,8.620155453681945801e-01,8.619776368141174316e-01,8.619397282600402832e-01,8.619018197059631348e-01,8.618639707565307617e-01,8.618260622024536133e-01,8.617881536483764648e-01,8.617502450942993164e-01,8.617123961448669434e-01,8.616744875907897949e-01,8.616365790367126465e-01,8.615987300872802734e-01,8.615608811378479004e-01,8.615229725837707520e-01,8.614851236343383789e-01,8.614472746849060059e-01,8.614094853401184082e-01,8.613716363906860352e-01,8.613337874412536621e-01,8.612959384918212891e-01,8.612580895423889160e-01,8.612202405929565430e-01,8.611823916435241699e-01,8.611445426940917969e-01,8.611066937446594238e-01,8.610689043998718262e-01,8.610310554504394531e-01,8.609932065010070801e-01,8.609554171562194824e-01,8.609175682067871094e-01,8.608797788619995117e-01,8.608419895172119141e-01,8.608041405677795410e-01,8.607663512229919434e-01,8.607285618782043457e-01,8.606907725334167480e-01,8.606529831886291504e-01,8.606151938438415527e-01,8.605774044990539551e-01
8.213327527046203613e-01,8.212983012199401855e-01,8.212639093399047852e-01,8.212295174598693848e-01,8.211950659751892090e-01,8.211606740951538086e-01,8.211262822151184082e-01,8.210918903350830078e-01,8.210574984550476074e-01,8.210231065750122070e-01,8.209887146949768066e-01,8.209543228149414062e-01,8.209199309349060059e-01,8.208855390548706055e-01,8.208511471748352051e-01,8.208168148994445801e-01,8.207824230194091797e-01,8.207480311393737793e-01,8.207136988639831543e-01,8.206793069839477539e-01,8.206449747085571289e-01,8.206105828285217285e-01,8.205762505531311035e-01,8.205418586730957031e-01,8.205075263977050781e-01,8.204731941223144531e-01,8.204388618469238281e-01,8.204045295715332031e-01,8.203701376914978027e-01,8.203359246253967285e-01,8.203015923500061035e-01,8.202672600746154785e-01,8.202329277992248535e-01,8.201985955238342285e-01,8.201642632484436035e-01,8.201299309730529785e-01,8.200956583023071289e-01,8.200613260269165039e-01,8.200269937515258789e-01,8.199927210807800293e-01,8.199583888053894043e-01,8.199241161346435547e-01,8.198897838592529297e-01,8.198555111885070801e-01,8.198211789131164551e-01,8.197869062423706055e-01,8.197526335716247559e-01,8.197183609008789062e-01,8.196840882301330566e-01,8.196497559547424316e-01,8.196154832839965820e-01,8.195812106132507324e-01,8.195469379425048828e-01,8.195127248764038086e-01,8.194784522056579590e-01,8.194441795349121094e-01,8.194099068641662598e-01,8.193756341934204102e-01,8.193414211273193359e-01,8.193071484565734863e-01,8.192728757858276367e-01,8.192386627197265625e-01,8.192043900489807129e-01,8.191702365875244141e-01,8.191360235214233398e-01,8.191018104553222656e-01,8.190675377845764160e-01,8.190333247184753418e-01,8.189991116523742676e-01,8.189648985862731934e-01,8.189306855201721191e-01,8.188964724540710449e-01,8.188622593879699707e-01,8.188280463218688965e-01,8.187938332557678223e-01,8.187596201896667480e-01,8.187254071235656738e-01,8.186911940574645996e-01,8.186570405960083008e-01,8.186228275299072266e-01
7.830322384834289551e-01,7.830009460449218750e-01,7.829697132110595703e-01,7.829384207725524902e-01,7.829071283340454102e-01,7.828758955001831055e-01,7.828446030616760254e-01,7.828133106231689453e-01,7.827820777893066406e-01,7.827507853507995605e-01,7.827195525169372559e-01,7.826882600784301758e-01,7.826570272445678711e-01,7.826257944107055664e-01,7.825945019721984863e-01,7.825632691383361816e-01,7.825320363044738770e-01,7.825008034706115723e-01,7.824695706367492676e-01,7.824383378028869629e-01,7.824071049690246582e-01,7.823758721351623535e-01,7.823446393013000488e-01,7.823134064674377441e-01,7.822821736335754395e-01,7.822509407997131348e-01,7.822197079658508301e-01,7.821885347366333008e-01,7.821573019027709961e-01,7.821260690689086914e-01,7.820948958396911621e-01,7.820636630058288574e-01,7.820324301719665527e-01,7.820012569427490234e-01,7.819701433181762695e-01,7.819389104843139648e-01,7.819077372550964355e-01,7.818765640258789062e-01,7.818453311920166016e-01,7.818141579627990723e-01,7.817829847335815430e-01,7.817518115043640137e-01,7.817206382751464844e-01,7.816894650459289551e-01,7.816582918167114258e-01,7.816271185874938965e-01,7.815959453582763672e-01,7.815647721290588379e-01,7.815335988998413086e-01,7.815024256706237793e-01,7.814712524414062500e-01,7.814400792121887207e-01,7.814089655876159668e-01,7.813777923583984375e-01,7.813466191291809082e-01,7.813155055046081543e-01,7.812843322753906250e-01,7.812532186508178711e-01,7.812220454216003418e-01,7.811909317970275879e-01,7.811598181724548340e-01,7.811286449432373047e-01,7.810975313186645508e-01,7.810664176940917969e-01,7.810353040695190430e-01,7.810041308403015137e-01,7.809730172157287598e-01,7.809419035911560059e-01,7.809108495712280273e-01,7.808797359466552734e-01,7.808486819267272949e-01,7.808175683021545410e-01,7.807864546775817871e-01,7.807553410530090332e-01,7.807242274284362793e-01,7.806931138038635254e-01,7.806620597839355469e-01,7.806309461593627930e-01,7.805998325347900391e-01,7.805687785148620605e-01
7.481446266174316406e-01,7.481160759925842285e-01,7.480875253677368164e-01,7.480589747428894043e-01,7.480304241180419922e-01,7.480019330978393555e-01,7.479733824729919434e-01,7.479448318481445312e-01,7.479162812232971191e-01,7.478877305984497070e-01,7.478591799736022949e-01,7.478306889533996582e-01,7.478021383285522461e-01,7.477735877037048340e-01,7.477450966835021973e-01,7.477165460586547852e-01,7.476880550384521484e-01,7.476595044136047363e-01,7.476310133934020996e-01,7.476024627685546875e-01,7.475739717483520508e-01,7.475454211235046387e-01,7.475169301033020020e-01,7.474884390830993652e-01,7.474598884582519531e-01,7.474313974380493164e-01,7.474029064178466797e-01,7.473744153976440430e-01,7.473459243774414062e-01,7.473174333572387695e-01,7.472889423370361328e-01,7.472604513168334961e-01,7.472319602966308594e-01,7.472034692764282227e-01,7.471749782562255859e-01,7.471464872360229492e-01,7.471179962158203125e-01,7.470895051956176758e-01,7.470610737800598145e-01,7.470326423645019531e-01,7.470041513442993164e-01,7.469757199287414551e-01,7.469472289085388184e-01,7.469187378883361816e-01,7.468903064727783203e-01,7.468618154525756836e-01,7.468333840370178223e-01,7.468049526214599609e-01,7.467764616012573242e-01,7.467480301856994629e-01,7.467195391654968262e-01,7.466911077499389648e-01,7.466626763343811035e-01,7.466342449188232422e-01,7.466058135032653809e-01,7.465773224830627441e-01,7.465488910675048828e-01,7.465204596519470215e-01,7.464920282363891602e-01,7.464635968208312988e-01,7.464351654052734375e-01,7.464067339897155762e-01,7.463783025741577148e-01,7.463499307632446289e-01,7.463214993476867676e-01,7.462930679321289062e-01,7.462646365165710449e-01,7.462362647056579590e-01,7.462078332901000977e-01,7.461794018745422363e-01,7.461510300636291504e-01,7.461225986480712891e-01,7.460942268371582031e-01,7.460657954216003418e-01,7.460374832153320312e-01,7.460090517997741699e-01,7.459806799888610840e-01,7.459523081779479980e-01,7.459238767623901367e-01,7.458955049514770508e-01
7.162332534790039062e-01,7.162070274353027344e-01,7.161808609962463379e-01,7.161546945571899414e-01,7.161285281181335449e-01,7.161023616790771484e-01,7.160761952400207520e-01,7.160500288009643555e-01,7.160239219665527344e-01,7.159977555274963379e-01,7.159716486930847168e-01,7.159454822540283203e-01,7.159193158149719238e-01,7.158932089805603027e-01,7.158670425415039062e-01,7.158408761024475098e-01,7.158147692680358887e-01,7.157886028289794922e-01,7.157624959945678711e-01,7.157363295555114746e-01,7.157102227210998535e-01,7.156840562820434570e-01,7.156579494476318359e-01,7.156317830085754395e-01,7.156056761741638184e-01,7.155795693397521973e-01,7.155534029006958008e-01,7.155272960662841797e-01,7.155011892318725586e-01,7.154750823974609375e-01,7.154489159584045410e-01,7.154228091239929199e-01,7.153967022895812988e-01,7.153705954551696777e-01,7.153444886207580566e-01,7.153183817863464355e-01,7.152922749519348145e-01,7.152661681175231934e-01,7.152400612831115723e-01,7.152139544486999512e-01,7.151878476142883301e-01,7.151618003845214844e-01,7.151356935501098633e-01,7.151095867156982422e-01,7.150834798812866211e-01,7.150574922561645508e-01,7.150313854217529297e-01,7.150052785873413086e-01,7.149792313575744629e-01,7.149531245231628418e-01,7.149270772933959961e-01,7.149009704589843750e-01,7.148749232292175293e-01,7.148488163948059082e-01,7.148227691650390625e-01,7.147967219352722168e-01,7.147706151008605957e-01,7.147445678710937500e-01,7.147185206413269043e-01,7.146924138069152832e-01,7.146663665771484375e-01,7.146403193473815918e-01,7.146142721176147461e-01,7.145882248878479004e-01,7.145621776580810547e-01,7.145361304283142090e-01,7.145100831985473633e-01,7.144840359687805176e-01,7.144579887390136719e-01,7.144319415092468262e-01,7.144058942794799805e-01,7.143798470497131348e-01,7.143537998199462891e-01,7.143277525901794434e-01,7.143017649650573730e-01,7.142757177352905273e-01,7.142496705055236816e-01,7.142236232757568359e-01,7.141976356506347656e-01,7.141716480255126953e-01
6.869328022003173828e-01,6.869087219238281250e-01,6.868846416473388672e-01,6.868605613708496094e-01,6.868364810943603516e-01,6.868124008178710938e-01,6.867883801460266113e-01,6.867642998695373535e-01,6.867402195930480957e-01,6.867161393165588379e-01,6.866921186447143555e-01,6.866680383682250977e-01,6.866440176963806152e-01,6.866199374198913574e-01,6.865958571434020996e-01,6.865718364715576172e-01,6.865478157997131348e-01,6.865237951278686523e-01,6.864997148513793945e-01,6.864756941795349121e-01,6.864516735076904297e-01,6.864275932312011719e-01,6.864035725593566895e-01,6.863795518875122070e-01,6.863555312156677246e-01,6.863314509391784668e-01,6.863074302673339844e-01,6.862834095954895020e-01,6.862593889236450195e-01,6.862353682518005371e-01,6.862113475799560547e-01,6.861872673034667969e-01,6.861632466316223145e-01,6.861392259597778320e-01,6.861152052879333496e-01,6.860911846160888672e-01,6.860672235488891602e-01,6.860432028770446777e-01,6.860191822052001953e-01,6.859951615333557129e-01,6.859711408615112305e-01,6.859471201896667480e-01,6.859231591224670410e-01,6.858991384506225586e-01,6.858751177787780762e-01,6.858511567115783691e-01,6.858271360397338867e-01,6.858031153678894043e-01,6.857791543006896973e-01,6.857551336288452148e-01,6.857312321662902832e-01,6.857072114944458008e-01,6.856832504272460938e-01,6.856592297554016113e-01,6.856352686882019043e-01,6.856112480163574219e-01,6.855872869491577148e-01,6.855633258819580078e-01,6.855393052101135254e-01,6.855153441429138184e-01,6.854913830757141113e-01,6.854674220085144043e-01,6.854434013366699219e-01,6.854194402694702148e-01,6.853954792022705078e-01,6.853715181350708008e-01,6.853475570678710938e-01,6.853235960006713867e-01,6.852996349334716797e-01,6.852756738662719727e-01,6.852517127990722656e-01,6.852277517318725586e-01,6.852037906646728516e-01,6.851798295974731445e-01,6.851558685302734375e-01,6.851319074630737305e-01,6.851080060005187988e-01,6.850840449333190918e-01,6.850600838661193848e-01,6.850361227989196777e-01
