5.000000000000000000e+00,5.000000000000000000e+00,5.000000000000000000e+00,5.000000000000000000e+00,5.000000000000000000e+00,5.000000000000000000e+00,5.000000000000000000e+00,5.000000000000000000e+00,5.000000000000000000e+00,5.000000000000000000e+00,5.000000000000000000e+00,5.000000000000000000e+00,5.000000000000000000e+00,5.000000000000000000e+00,5.000000000000000000e+00,5.000000000000000000e+00,5.000000000000000000e+00,5.000000000000000000e+00,5.000000000000000000e+00,5.000000000000000000e+00,5.000000000000000000e+00,5.000000000000000000e+00,5.000000000000000000e+00,5.000000000000000000e+00,5.000000000000000000e+00,5.000000000000000000e+00,5.000000000000000000e+00,5.000000000000000000e+00,5.000000000000000000e+00,5.000000000000000000e+00,5.000000000000000000e+00,5.000000000000000000e+00,5.000000000000000000e+00,5.000000000000000000e+00,5.000000000000000000e+00,1.991308927536010742e+00,1.996138572692871094e+00,1.971921086311340332e+00,1.936608195304870605e+00,1.935581564903259277e+00,1.937492847442626953e+00,1.944588899612426758e+00,1.951737046241760254e+00,1.973335504531860352e+00,2.010042190551757812e+00,4.040845870971679688e+00,2.113678455352783203e+00,2.093167066574096680e+00,2.091873884201049805e+00,3.554120302200317383e+00,3.450223922729492188e+00,3.352229356765747070e+00,3.259648084640502930e+00,3.172042608261108398e+00,3.089023351669311523e+00,3.010238409042358398e+00,2.935372352600097656e+00,2.864140033721923828e+00,2.796282768249511719e+00,2.731566667556762695e+00,2.669778347015380859e+00,2.610723257064819336e+00,2.554224491119384766e+00,2.500118970870971680e+00,2.448258399963378906e+00,2.398505449295043945e+00,2.350734472274780273e+00,2.304829120635986328e+00,2.260682582855224609e+00,2.218195199966430664e+00,2.177275419235229492e+00,2.137838125228881836e+00,2.099803686141967773e+00,2.063099384307861328e+00,2.027656078338623047e+00,1.993409991264343262e+00,1.960301399230957031e+00,1.928274631500244141e+00,1.897277593612670898e+00,1.867261528968811035e+00
5.000000000000000000e+00,5.000000000000000000e+00,5.000000000000000000e+00,5.000000000000000000e+00,5.000000000000000000e+00,5.000000000000000000e+00,5.000000000000000000e+00,5.000000000000000000e+00,5.000000000000000000e+00,5.000000000000000000e+00,5.000000000000000000e+00,5.000000000000000000e+00,5.000000000000000000e+00,5.000000000000000000e+00,5.000000000000000000e+00,5.000000000000000000e+00,5.000000000000000000e+00,5.000000000000000000e+00,5.000000000000000000e+00,5.000000000000000000e+00,5.000000000000000000e+00,5.000000000000000000e+00,5.000000000000000000e+00,5.000000000000000000e+00,5.000000000000000000e+00,5.000000000000000000e+00,5.000000000000000000e+00,5.000000000000000000e+00,5.000000000000000000e+00,5.000000000000000000e+00,5.000000000000000000e+00,5.000000000000000000e+00,5.000000000000000000e+00,5.000000000000000000e+00,5.000000000000000000e+00,1.988021492958068848e+00,1.988126635551452637e+00,1.962086677551269531e+00,1.901880383491516113e+00,1.892646074295043945e+00,1.890663862228393555e+00,1.963062644004821777e+00,1.960048913955688477e+00,1.991269230842590332e+00,2.010853767395019531e+00,4.040943622589111328e+00,2.139602661132812500e+00,2.090895652770996094e+00,2.065657854080200195e+00,2.092937946319580078e+00,3.450295209884643555e+00,3.352296590805053711e+00,3.259711265563964844e+00,3.172102928161621094e+00,3.089080095291137695e+00,3.010292768478393555e+00,2.935424089431762695e+00,2.864188909530639648e+00,2.796329736709594727e+00,2.731611251831054688e+00,2.669821023941040039e+00,2.610764026641845703e+00,2.554263353347778320e+00,2.500156402587890625e+00,2.448294162750244141e+00,2.398540019989013672e+00,2.350767612457275391e+00,2.304860830307006836e+00,2.260713100433349609e+00,2.218224525451660156e+00,2.177303791046142578e+00,2.137865304946899414e+00,2.099830150604248047e+00,2.063124656677246094e+00,2.027680397033691406e+00,1.993433594703674316e+00,1.960324287414550781e+00,1.928297042846679688e+00,1.897299289703369141e+00,1.867282271385192871e+00
5.000000000000000000e+00,5.000000000000000000e+00,5.000000000000000000e+00,5.000000000000000000e+00,5.000000000000000000e+00,5.000000000000000000e+00,5.000000000000000000e+00,5.000000000000000000e+00,5.000000000000000000e+00,5.000000000000000000e+00,5.000000000000000000e+00,5.000000000000000000e+00,5.000000000000000000e+00,5.000000000000000000e+00,5.000000000000000000e+00,5.000000000000000000e+00,5.000000000000000000e+00,5.000000000000000000e+00,5.000000000000000000e+00,5.000000000000000000e+00,5.000000000000000000e+00,5.000000000000000000e+00,5.000000000000000000e+00,5.000000000000000000e+00,5.000000000000000000e+00,5.000000000000000000e+00,5.000000000000000000e+00,5.000000000000000000e+00,5.000000000000000000e+00,5.000000000000000000e+00,5.000000000000000000e+00,5.000000000000000000e+00,5.000000000000000000e+00,5.000000000000000000e+00,5.000000000000000000e+00,1.984801769256591797e+00,1.979576349258422852e+00,1.940014600753784180e+00,1.882670760154724121e+00,1.869626879692077637e+00,1.866071820259094238e+00,1.870034694671630859e+00,1.991747140884399414e+00,2.010607957839965820e+00,2.012928485870361328e+00,4.041041374206542969e+00,3.907263278961181641e+00,2.109136104583740234e+00,2.064214468002319336e+00,2.060821533203125000e+00,3.450366258621215820e+00,3.352364063262939453e+00,3.259774923324584961e+00,3.172163009643554688e+00,3.089137315750122070e+00,3.010346651077270508e+00,2.935475587844848633e+00,2.864238023757934570e+00,2.796376228332519531e+00,2.731655836105346680e+00,2.669863462448120117e+00,2.610804796218872070e+00,2.554302453994750977e+00,2.500193595886230469e+00,2.448330163955688477e+00,2.398574113845825195e+00,2.350800514221191406e+00,2.304892778396606445e+00,2.260743618011474609e+00,2.218254089355468750e+00,2.177331924438476562e+00,2.137892723083496094e+00,2.099856376647949219e+00,2.063150167465209961e+00,2.027705192565917969e+00,1.993457317352294922e+00,1.960347414016723633e+00,1.928319215774536133e+00,1.897320747375488281e+00,1.867303133010864258e+00
5.000000000000000000e+00,5.000000000000000000e+00,5.000000000000000000e+00,5.000000000000000000e+00,5.000000000000000000e+00,5.000000000000000000e+00,5.000000000000000000e+00,5.000000000000000000e+00,5.000000000000000000e+00,5.000000000000000000e+00,5.000000000000000000e+00,5.000000000000000000e+00,5.000000000000000000e+00,5.000000000000000000e+00,5.000000000000000000e+00,5.000000000000000000e+00,5.000000000000000000e+00,5.000000000000000000e+00,5.000000000000000000e+00,5.000000000000000000e+00,5.000000000000000000e+00,5.000000000000000000e+00,5.000000000000000000e+00,5.000000000000000000e+00,5.000000000000000000e+00,5.000000000000000000e+00,5.000000000000000000e+00,5.000000000000000000e+00,5.000000000000000000e+00,5.000000000000000000e+00,5.000000000000000000e+00,5.000000000000000000e+00,5.000000000000000000e+00,5.000000000000000000e+00,5.000000000000000000e+00,1.975700855255126953e+00,1.966156959533691406e+00,1.934258699417114258e+00,1.870406031608581543e+00,1.854586482048034668e+00,1.851329326629638672e+00,1.848083496093750000e+00,1.902119159698486328e+00,2.008732557296752930e+00,2.011088848114013672e+00,4.041139125823974609e+00,3.907354354858398438e+00,3.782143831253051758e+00,2.113640069961547852e+00,2.015956163406372070e+00,2.037082433700561523e+00,3.352431058883666992e+00,3.259838581085205078e+00,3.172223091125488281e+00,3.089194059371948242e+00,3.010401010513305664e+00,2.935527086257934570e+00,2.864287376403808594e+00,2.796422958374023438e+00,2.731700420379638672e+00,2.669906139373779297e+00,2.610845565795898438e+00,2.554341554641723633e+00,2.500231027603149414e+00,2.448365926742553711e+00,2.398608684539794922e+00,2.350833654403686523e+00,2.304924488067626953e+00,2.260774135589599609e+00,2.218283414840698242e+00,2.177360296249389648e+00,2.137919902801513672e+00,2.099882841110229492e+00,2.063175678253173828e+00,2.027729749679565430e+00,1.993481278419494629e+00,1.960370302200317383e+00,1.928341388702392578e+00,1.897342205047607422e+00,1.867324113845825195e+00
5.000000000000000000e+00,5.000000000000000000e+00,5.000000000000000000e+00,5.000000000000000000e+00,5.000000000000000000e+00,5.000000000000000000e+00,5.000000000000000000e+00,5.000000000000000000e+00,5.000000000000000000e+00,5.000000000000000000e+00,5.000000000000000000e+00,5.000000000000000000e+00,5.000000000000000000e+00,5.000000000000000000e+00,5.000000000000000000e+00,5.000000000000000000e+00,5.000000000000000000e+00,5.000000000000000000e+00,5.000000000000000000e+00,5.000000000000000000e+00,5.000000000000000000e+00,5.000000000000000000e+00,5.000000000000000000e+00,5.000000000000000000e+00,5.000000000000000000e+00,5.000000000000000000e+00,5.000000000000000000e+00,5.000000000000000000e+00,5.000000000000000000e+00,5.000000000000000000e+00,5.000000000000000000e+00,5.000000000000000000e+00,5.000000000000000000e+00,5.000000000000000000e+00,5.000000000000000000e+00,1.969423174858093262e+00,1.959014415740966797e+00,1.939685583114624023e+00,1.874683618545532227e+00,1.842700719833374023e+00,1.838171482086181641e+00,1.834971785545349121e+00,1.874300479888916016e+00,2.004532575607299805e+00,2.007205009460449219e+00,2.065052986145019531e+00,3.907445669174194336e+00,3.782229185104370117e+00,3.664789199829101562e+00,2.016855239868164062e+00,2.007552146911621094e+00,3.352498292922973633e+00,3.259902000427246094e+00,3.172283411026000977e+00,3.089251279830932617e+00,3.010455131530761719e+00,2.935578584671020508e+00,2.864336252212524414e+00,2.796469926834106445e+00,2.731745004653930664e+00,2.669948577880859375e+00,2.610886335372924805e+00,2.554380416870117188e+00,2.500268459320068359e+00,2.448401689529418945e+00,2.398643016815185547e+00,2.350866556167602539e+00,2.304956197738647461e+00,2.260804891586303711e+00,2.218312740325927734e+00,2.177388668060302734e+00,2.137947320938110352e+00,2.099909305572509766e+00,2.063201189041137695e+00,2.027754306793212891e+00,1.993504881858825684e+00,1.960393190383911133e+00,1.928363561630249023e+00,1.897363901138305664e+00,1.867344856262207031e+00
5.000000000000000000e+00,5.000000000000000000e+00,5.000000000000000000e+00,5.000000000000000000e+00,5.000000000000000000e+00,5.000000000000000000e+00,5.000000000000000000e+00,5.000000000000000000e+00,5.000000000000000000e+00,5.000000000000000000e+00,5.000000000000000000e+00,5.000000000000000000e+00,5.000000000000000000e+00,5.000000000000000000e+00,5.000000000000000000e+00,5.000000000000000000e+00,5.000000000000000000e+00,5.000000000000000000e+00,5.000000000000000000e+00,5.000000000000000000e+00,5.000000000000000000e+00,5.000000000000000000e+00,5.000000000000000000e+00,5.000000000000000000e+00,5.000000000000000000e+00,5.000000000000000000e+00,5.000000000000000000e+00,5.000000000000000000e+00,5.000000000000000000e+00,5.000000000000000000e+00,5.000000000000000000e+00,5.000000000000000000e+00,5.000000000000000000e+00,5.000000000000000000e+00,5.000000000000000000e+00,1.971803665161132812e+00,1.963708877563476562e+00,1.948590278625488281e+00,1.878980755805969238e+00,1.833953976631164551e+00,1.826748728752136230e+00,1.822044968605041504e+00,1.848209619522094727e+00,2.004516124725341797e+00,2.011682271957397461e+00,2.074761152267456055e+00,3.907536745071411133e+00,3.782314777374267578e+00,3.664869070053100586e+00,3.554497957229614258e+00,2.052244901657104492e+00,1.969737291336059570e+00,3.259965658187866211e+00,3.172343492507934570e+00,3.089308500289916992e+00,3.010509252548217773e+00,2.935630083084106445e+00,2.864385366439819336e+00,2.796516418457031250e+00,2.731789827346801758e+00,2.669991254806518555e+00,2.610926866531372070e+00,2.554419517517089844e+00,2.500305891036987305e+00,2.448437690734863281e+00,2.398677349090576172e+00,2.350899696350097656e+00,2.304987907409667969e+00,2.260835170745849609e+00,2.218342304229736328e+00,2.177417039871215820e+00,2.137974739074707031e+00,2.099935531616210938e+00,2.063226461410522461e+00,2.027778863906860352e+00,1.993528604507446289e+00,1.960416436195373535e+00,1.928385972976684570e+00,1.897385358810424805e+00,1.867365598678588867e+00
5.000000000000000000e+00,5.000000000000000000e+00,5.000000000000000000e+00,5.000000000000000000e+00,5.000000000000000000e+00,5.000000000000000000e+00,5.000000000000000000e+00,5.000000000000000000e+00,5.000000000000000000e+00,5.000000000000000000e+00,5.000000000000000000e+00,5.000000000000000000e+00,5.000000000000000000e+00,5.000000000000000000e+00,5.000000000000000000e+00,5.000000000000000000e+00,5.000000000000000000e+00,5.000000000000000000e+00,5.000000000000000000e+00,5.000000000000000000e+00,5.000000000000000000e+00,5.000000000000000000e+00,5.000000000000000000e+00,5.000000000000000000e+00,5.000000000000000000e+00,5.000000000000000000e+00,5.000000000000000000e+00,5.000000000000000000e+00,5.000000000000000000e+00,5.000000000000000000e+00,5.000000000000000000e+00,5.000000000000000000e+00,5.000000000000000000e+00,5.000000000000000000e+00,5.000000000000000000e+00,1.961054086685180664e+00,1.941195607185363770e+00,1.948953747749328613e+00,1.889106154441833496e+00,1.838544249534606934e+00,1.814585566520690918e+00,1.809231877326965332e+00,1.821875452995300293e+00,2.008874654769897461e+00,2.022129058837890625e+00,4.041431903839111328e+00,3.907628059387207031e+00,3.782400131225585938e+00,3.664949655532836914e+00,3.554573297500610352e+00,3.450651168823242188e+00,2.030974388122558594e+00,3.260029077529907227e+00,3.172403812408447266e+00,3.089365482330322266e+00,3.010563611984252930e+00,2.935681581497192383e+00,2.864434242248535156e+00,2.796563386917114258e+00,2.731834173202514648e+00,2.670033931732177734e+00,2.610967874526977539e+00,2.554458379745483398e+00,2.500343322753906250e+00,2.448473453521728516e+00,2.398711919784545898e+00,2.350932598114013672e+00,2.305019617080688477e+00,2.260865926742553711e+00,2.218371629714965820e+00,2.177445411682128906e+00,2.138001918792724609e+00,2.099961996078491211e+00,2.063251972198486328e+00,2.027803421020507812e+00,1.993552565574645996e+00,1.960439324378967285e+00,1.928408145904541016e+00,1.897406816482543945e+00,1.867386460304260254e+00
5.000000000000000000e+00,5.000000000000000000e+00,5.000000000000000000e+00,5.000000000000000000e+00,5.000000000000000000e+00,5.000000000000000000e+00,5.000000000000000000e+00,5.000000000000000000e+00,5.000000000000000000e+00,5.000000000000000000e+00,5.000000000000000000e+00,5.000000000000000000e+00,5.000000000000000000e+00,5.000000000000000000e+00,5.000000000000000000e+00,5.000000000000000000e+00,5.000000000000000000e+00,5.000000000000000000e+00,5.000000000000000000e+00,5.000000000000000000e+00,5.000000000000000000e+00,5.000000000000000000e+00,5.000000000000000000e+00,5.000000000000000000e+00,5.000000000000000000e+00,5.000000000000000000e+00,5.000000000000000000e+00,5.000000000000000000e+00,5.000000000000000000e+00,5.000000000000000000e+00,5.000000000000000000e+00,5.000000000000000000e+00,5.000000000000000000e+00,5.000000000000000000e+00,5.000000000000000000e+00,1.947345376014709473e+00,1.929657340049743652e+00,1.933853149414062500e+00,1.903752803802490234e+00,1.843902707099914551e+00,1.803061723709106445e+00,1.793775081634521484e+00,1.796838283538818359e+00,1.843204021453857422e+00,2.037142992019653320e+00,4.041529655456542969e+00,3.907719612121582031e+00,3.782485961914062500e+00,3.665029764175415039e+00,3.554648876190185547e+00,3.450722217559814453e+00,3.352699995040893555e+00,3.260092735290527344e+00,3.172463655471801758e+00,3.089422464370727539e+00,3.010617733001708984e+00,2.935733318328857422e+00,2.864483356475830078e+00,2.796609878540039062e+00,2.731878995895385742e+00,2.670076608657836914e+00,2.611008644104003906e+00,2.554497480392456055e+00,2.500380516052246094e+00,2.448509216308593750e+00,2.398746252059936523e+00,2.350965738296508789e+00,2.305051565170288086e+00,2.260896444320678711e+00,2.218401193618774414e+00,2.177473783493041992e+00,2.138029336929321289e+00,2.099988222122192383e+00,2.063277482986450195e+00,2.027827978134155273e+00,1.993576169013977051e+00,1.960462212562561035e+00,1.928430199623107910e+00,1.897428393363952637e+00,1.867407441139221191e+00
5.000000000000000000e+00,5.000000000000000000e+00,5.000000000000000000e+00,5.000000000000000000e+00,5.000000000000000000e+00,5.000000000000000000e+00,5.000000000000000000e+00,5.000000000000000000e+00,5.000000000000000000e+00,5.000000000000000000e+00,5.000000000000000000e+00,5.000000000000000000e+00,5.000000000000000000e+00,5.000000000000000000e+00,5.000000000000000000e+00,5.000000000000000000e+00,5.000000000000000000e+00,5.000000000000000000e+00,5.000000000000000000e+00,5.000000000000000000e+00,5.000000000000000000e+00,5.000000000000000000e+00,5.000000000000000000e+00,5.000000000000000000e+00,5.000000000000000000e+00,5.000000000000000000e+00,5.000000000000000000e+00,5.000000000000000000e+00,5.000000000000000000e+00,5.000000000000000000e+00,5.000000000000000000e+00,5.000000000000000000e+00,5.000000000000000000e+00,5.000000000000000000e+00,5.000000000000000000e+00,1.946535348892211914e+00,1.914672255516052246e+00,1.935485720634460449e+00,5.000000000000000000e+00,1.851401329040527344e+00,1.804538607597351074e+00,1.781970500946044922e+00,1.773436546325683594e+00,1.814400315284729004e+00,2.052643299102783203e+00,4.041627407073974609e+00,3.907810688018798828e+00,3.782571554183959961e+00,3.665110111236572266e+00,3.554724216461181641e+00,3.450793504714965820e+00,3.352766990661621094e+00,3.260156393051147461e+00,3.172523975372314453e+00,3.089479446411132812e+00,3.010671854019165039e+00,2.935784578323364258e+00,2.864532470703125000e+00,2.796656847000122070e+00,2.731923341751098633e+00,2.670119285583496094e+00,2.611049175262451172e+00,2.554536581039428711e+00,2.500417947769165039e+00,2.448544979095458984e+00,2.398780584335327148e+00,2.350998640060424805e+00,2.305083274841308594e+00,2.260926961898803711e+00,2.218430519104003906e+00,2.177502155303955078e+00,2.138056516647338867e+00,2.100014686584472656e+00,2.063302993774414062e+00,2.027852773666381836e+00,1.993599891662597656e+00,1.960485100746154785e+00,1.928452610969543457e+00,1.897449851036071777e+00,1.867428183555603027e+00
5.000000000000000000e+00,5.000000000000000000e+00,5.000000000000000000e+00,5.000000000000000000e+00,5.000000000000000000e+00,5.000000000000000000e+00,5.000000000000000000e+00,5.000000000000000000e+00,5.000000000000000000e+00,5.000000000000000000e+00,5.000000000000000000e+00,5.000000000000000000e+00,5.000000000000000000e+00,5.000000000000000000e+00,5.000000000000000000e+00,5.000000000000000000e+00,5.000000000000000000e+00,5.000000000000000000e+00,5.000000000000000000e+00,5.000000000000000000e+00,5.000000000000000000e+00,5.000000000000000000e+00,5.000000000000000000e+00,5.000000000000000000e+00,5.000000000000000000e+00,5.000000000000000000e+00,5.000000000000000000e+00,5.000000000000000000e+00,5.000000000000000000e+00,5.000000000000000000e+00,5.000000000000000000e+00,5.000000000000000000e+00,5.000000000000000000e+00,5.000000000000000000e+00,5.000000000000000000e+00,1.953578114509582520e+00,1.905675530433654785e+00,5.000000000000000000e+00,5.000000000000000000e+00,1.866086244583129883e+00,1.811313509941101074e+00,1.774748206138610840e+00,1.761007666587829590e+00,1.786483168601989746e+00,2.073823928833007812e+00,4.041724681854248047e+00,3.907902240753173828e+00,3.782656908035278320e+00,3.665190696716308594e+00,3.554800033569335938e+00,3.450864315032958984e+00,3.352834224700927734e+00,3.260219812393188477e+00,3.172584295272827148e+00,3.089536666870117188e+00,3.010725975036621094e+00,2.935836315155029297e+00,2.864581346511840820e+00,2.796703577041625977e+00,2.731968164443969727e+00,2.670161724090576172e+00,2.611090183258056641e+00,2.554575443267822266e+00,2.500455379486083984e+00,2.448580980300903320e+00,2.398814916610717773e+00,2.351031780242919922e+00,2.305114984512329102e+00,2.260957479476928711e+00,2.218459844589233398e+00,2.177530288696289062e+00,2.138083934783935547e+00,2.100040912628173828e+00,2.063328504562377930e+00,2.027877092361450195e+00,1.993623852729797363e+00,1.960508227348327637e+00,1.928474783897399902e+00,1.897471308708190918e+00,1.867449045181274414e+00
5.000000000000000000e+00,5.000000000000000000e+00,5.000000000000000000e+00,5.000000000000000000e+00,5.000000000000000000e+00,5.000000000000000000e+00,5.000000000000000000e+00,5.000000000000000000e+00,5.000000000000000000e+00,5.000000000000000000e+00,5.000000000000000000e+00,5.000000000000000000e+00,5.000000000000000000e+00,5.000000000000000000e+00,5.000000000000000000e+00,5.000000000000000000e+00,5.000000000000000000e+00,5.000000000000000000e+00,5.000000000000000000e+00,5.000000000000000000e+00,5.000000000000000000e+00,5.000000000000000000e+00,5.000000000000000000e+00,5.000000000000000000e+00,5.000000000000000000e+00,5.000000000000000000e+00,5.000000000000000000e+00,5.000000000000000000e+00,5.000000000000000000e+00,5.000000000000000000e+00,5.000000000000000000e+00,5.000000000000000000e+00,5.000000000000000000e+00,5.000000000000000000e+00,5.000000000000000000e+00,5.000000000000000000e+00,5.000000000000000000e+00,5.000000000000000000e+00,5.000000000000000000e+00,1.873012542724609375e+00,1.818622708320617676e+00,1.770898699760437012e+00,1.753908872604370117e+00,1.768324851989746094e+00,2.092573881149291992e+00,4.041822433471679688e+00,3.907993078231811523e+00,3.782742500305175781e+00,3.665270805358886719e+00,3.554875612258911133e+00,3.450935840606689453e+00,3.352901220321655273e+00,3.260283470153808594e+00,3.172644376754760742e+00,3.089593887329101562e+00,3.010780334472656250e+00,2.935887575149536133e+00,2.864630699157714844e+00,2.796750307083129883e+00,2.732012987136840820e+00,2.670204401016235352e+00,2.611130714416503906e+00,2.554614543914794922e+00,2.500492811203002930e+00,2.448616981506347656e+00,2.398849487304687500e+00,2.351064920425415039e+00,2.305146932601928711e+00,2.260987997055053711e+00,2.218489408493041992e+00,2.177558660507202148e+00,2.138111114501953125e+00,2.100067377090454102e+00,2.063353776931762695e+00,2.027901887893676758e+00,1.993647575378417969e+00,1.960531115531921387e+00,1.928496956825256348e+00,1.897492766380310059e+00,1.867470026016235352e+00
5.000000000000000000e+00,5.000000000000000000e+00,5.000000000000000000e+00,5.000000000000000000e+00,5.000000000000000000e+00,5.000000000000000000e+00,5.000000000000000000e+00,5.000000000000000000e+00,5.000000000000000000e+00,5.000000000000000000e+00,5.000000000000000000e+00,5.000000000000000000e+00,5.000000000000000000e+00,5.000000000000000000e+00,5.000000000000000000e+00,5.000000000000000000e+00,5.000000000000000000e+00,5.000000000000000000e+00,5.000000000000000000e+00,5.000000000000000000e+00,5.000000000000000000e+00,5.000000000000000000e+00,5.000000000000000000e+00,5.000000000000000000e+00,5.000000000000000000e+00,5.000000000000000000e+00,5.000000000000000000e+00,5.000000000000000000e+00,5.000000000000000000e+00,5.000000000000000000e+00,5.000000000000000000e+00,5.000000000000000000e+00,5.000000000000000000e+00,5.000000000000000000e+00,5.000000000000000000e+00,5.000000000000000000e+00,5.000000000000000000e+00,5.000000000000000000e+00,5.000000000000000000e+00,5.000000000000000000e+00,1.826437830924987793e+00,1.774782061576843262e+00,1.754948735237121582e+00,1.770089030265808105e+00,4.185247898101806641e+00,4.041920185089111328e+00,3.908084630966186523e+00,3.782827854156494141e+00,3.665351152420043945e+00,3.554950952529907227e+00,3.451007127761840820e+00,3.352968692779541016e+00,3.260346651077270508e+00,3.172704696655273438e+00,3.089650630950927734e+00,3.010834455490112305e+00,2.935939311981201172e+00,2.864679574966430664e+00,2.796797275543212891e+00,2.732057332992553711e+00,2.670247077941894531e+00,2.611171483993530273e+00,2.554653406143188477e+00,2.500530242919921875e+00,2.448652505874633789e+00,2.398883819580078125e+00,2.351097822189331055e+00,2.305178403854370117e+00,2.261018753051757812e+00,2.218518733978271484e+00,2.177587270736694336e+00,2.138138532638549805e+00,2.100093603134155273e+00,2.063379287719726562e+00,2.027926445007324219e+00,1.993671178817749023e+00,1.960554122924804688e+00,1.928519368171691895e+00,1.897514462471008301e+00,1.867490768432617188e+00
5.000000000000000000e+00,5.000000000000000000e+00,5.000000000000000000e+00,5.000000000000000000e+00,5.000000000000000000e+00,5.000000000000000000e+00,5.000000000000000000e+00,5.000000000000000000e+00,5.000000000000000000e+00,5.000000000000000000e+00,5.000000000000000000e+00,5.000000000000000000e+00,5.000000000000000000e+00,5.000000000000000000e+00,5.000000000000000000e+00,5.000000000000000000e+00,5.000000000000000000e+00,5.000000000000000000e+00,5.000000000000000000e+00,5.000000000000000000e+00,5.000000000000000000e+00,5.000000000000000000e+00,5.000000000000000000e+00,5.000000000000000000e+00,5.000000000000000000e+00,5.000000000000000000e+00,5.000000000000000000e+00,5.000000000000000000e+00,5.000000000000000000e+00,5.000000000000000000e+00,5.000000000000000000e+00,5.000000000000000000e+00,5.000000000000000000e+00,5.000000000000000000e+00,5.000000000000000000e+00,5.000000000000000000e+00,5.000000000000000000e+00,5.000000000000000000e+00,5.000000000000000000e+00,5.000000000000000000e+00,1.826068282127380371e+00,1.774739265441894531e+00,1.761601448059082031e+00,1.774351835250854492e+00,4.185352325439453125e+00,4.042017936706542969e+00,3.908176183700561523e+00,3.782913684844970703e+00,3.665431261062622070e+00,3.555026531219482422e+00,3.451078176498413086e+00,3.353035926818847656e+00,3.260410308837890625e+00,3.172764539718627930e+00,3.089707851409912109e+00,3.010888576507568359e+00,2.935990810394287109e+00,2.864728689193725586e+00,2.796843767166137695e+00,2.732102155685424805e+00,2.670289754867553711e+00,2.611212491989135742e+00,2.554692506790161133e+00,2.500567436218261719e+00,2.448688507080078125e+00,2.398918151855468750e+00,2.351130962371826172e+00,2.305210351943969727e+00,2.261049270629882812e+00,2.218548297882080078e+00,2.177615404129028320e+00,2.138165950775146484e+00,2.100120067596435547e+00,2.063404560089111328e+00,2.027951002120971680e+00,1.993694901466369629e+00,1.960577249526977539e+00,1.928541541099548340e+00,1.897535920143127441e+00,1.867511630058288574e+00
5.000000000000000000e+00,5.000000000000000000e+00,5.000000000000000000e+00,5.000000000000000000e+00,5.000000000000000000e+00,5.000000000000000000e+00,5.000000000000000000e+00,5.000000000000000000e+00,5.000000000000000000e+00,5.000000000000000000e+00,5.000000000000000000e+00,5.000000000000000000e+00,5.000000000000000000e+00,5.000000000000000000e+00,5.000000000000000000e+00,5.000000000000000000e+00,5.000000000000000000e+00,5.000000000000000000e+00,5.000000000000000000e+00,5.000000000000000000e+00,5.000000000000000000e+00,5.000000000000000000e+00,5.000000000000000000e+00,5.000000000000000000e+00,5.000000000000000000e+00,5.000000000000000000e+00,5.000000000000000000e+00,5.000000000000000000e+00,5.000000000000000000e+00,5.000000000000000000e+00,5.000000000000000000e+00,5.000000000000000000e+00,5.000000000000000000e+00,5.000000000000000000e+00,5.000000000000000000e+00,5.000000000000000000e+00,5.000000000000000000e+00,5.000000000000000000e+00,5.000000000000000000e+00,5.000000000000000000e+00,1.816128134727478027e+00,1.775755882263183594e+00,1.768304467201232910e+00,1.779102444648742676e+00,4.185457229614257812e+00,4.042115688323974609e+00,3.908267259597778320e+00,3.782999277114868164e+00,3.665511846542358398e+00,3.555101871490478516e+00,3.451149463653564453e+00,3.353102922439575195e+00,3.260474205017089844e+00,3.172824859619140625e+00,3.089764833450317383e+00,3.010942935943603516e+00,2.936042308807373047e+00,2.864777803421020508e+00,2.796890735626220703e+00,2.732146501541137695e+00,2.670332431793212891e+00,2.611253023147583008e+00,2.554731607437133789e+00,2.500604867935180664e+00,2.448724269866943359e+00,2.398952722549438477e+00,2.351163864135742188e+00,2.305242061614990234e+00,2.261079788208007812e+00,2.218577623367309570e+00,2.177643775939941406e+00,2.138193130493164062e+00,2.100146532058715820e+00,2.063430070877075195e+00,2.027975559234619141e+00,1.993718862533569336e+00,1.960600137710571289e+00,1.928563714027404785e+00,1.897557377815246582e+00,1.867532610893249512e+00
5.000000000000000000e+00,5.000000000000000000e+00,5.000000000000000000e+00,5.000000000000000000e+00,5.000000000000000000e+00,5.000000000000000000e+00,5.000000000000000000e+00,5.000000000000000000e+00,5.000000000000000000e+00,5.000000000000000000e+00,5.000000000000000000e+00,5.000000000000000000e+00,5.000000000000000000e+00,5.000000000000000000e+00,5.000000000000000000e+00,5.000000000000000000e+00,5.000000000000000000e+00,5.000000000000000000e+00,5.000000000000000000e+00,5.000000000000000000e+00,5.000000000000000000e+00,5.000000000000000000e+00,5.000000000000000000e+00,5.000000000000000000e+00,5.000000000000000000e+00,5.000000000000000000e+00,5.000000000000000000e+00,5.000000000000000000e+00,5.000000000000000000e+00,5.000000000000000000e+00,5.000000000000000000e+00,5.000000000000000000e+00,5.000000000000000000e+00,5.000000000000000000e+00,5.000000000000000000e+00,5.000000000000000000e+00,5.000000000000000000e+00,5.000000000000000000e+00,5.000000000000000000e+00,5.000000000000000000e+00,1.805370688438415527e+00,1.776773810386657715e+00,1.771290898323059082e+00,1.792852997779846191e+00,4.185561656951904297e+00,4.042213439941406250e+00,3.908358573913574219e+00,3.783084630966186523e+00,3.665592193603515625e+00,3.555177688598632812e+00,3.451220512390136719e+00,3.353170394897460938e+00,3.260537385940551758e+00,3.172885179519653320e+00,3.089822053909301758e+00,3.010996818542480469e+00,2.936093807220458984e+00,2.864826679229736328e+00,2.796937465667724609e+00,2.732191324234008789e+00,2.670374870300292969e+00,2.611294031143188477e+00,2.554770469665527344e+00,2.500642299652099609e+00,2.448760271072387695e+00,2.398987054824829102e+00,2.351197004318237305e+00,2.305273771286010742e+00,2.261110305786132812e+00,2.218606948852539062e+00,2.177672147750854492e+00,2.138220548629760742e+00,2.100172758102416992e+00,2.063455581665039062e+00,2.028000116348266602e+00,1.993742585182189941e+00,1.960623025894165039e+00,1.928585886955261230e+00,1.897579073905944824e+00,1.867553353309631348e+00
5.000000000000000000e+00,5.000000000000000000e+00,5.000000000000000000e+00,5.000000000000000000e+00,5.000000000000000000e+00,5.000000000000000000e+00,5.000000000000000000e+00,5.000000000000000000e+00,5.000000000000000000e+00,5.000000000000000000e+00,5.000000000000000000e+00,5.000000000000000000e+00,5.000000000000000000e+00,5.000000000000000000e+00,5.000000000000000000e+00,5.000000000000000000e+00,5.000000000000000000e+00,5.000000000000000000e+00,5.000000000000000000e+00,5.000000000000000000e+00,5.000000000000000000e+00,5.000000000000000000e+00,5.000000000000000000e+00,5.000000000000000000e+00,5.000000000000000000e+00,5.000000000000000000e+00,5.000000000000000000e+00,5.000000000000000000e+00,5.000000000000000000e+00,5.000000000000000000e+00,5.000000000000000000e+00,5.000000000000000000e+00,5.000000000000000000e+00,5.000000000000000000e+00,5.000000000000000000e+00,5.000000000000000000e+00,5.000000000000000000e+00,5.000000000000000000e+00,5.000000000000000000e+00,2.151659965515136719e+00,1.802394986152648926e+00,1.777530670166015625e+00,1.769384026527404785e+00,1.791517257690429688e+00,4.185666561126708984e+00,4.042310714721679688e+00,3.908449649810791016e+00,3.783170461654663086e+00,3.665672302246093750e+00,3.555253505706787109e+00,3.451291799545288086e+00,3.353237390518188477e+00,3.260601043701171875e+00,3.172945261001586914e+00,3.089879274368286133e+00,3.011051177978515625e+00,2.936145305633544922e+00,2.864875793457031250e+00,2.796984195709228516e+00,2.732235908508300781e+00,2.670417547225952148e+00,2.611334562301635742e+00,2.554809570312500000e+00,2.500679492950439453e+00,2.448796033859252930e+00,2.399021387100219727e+00,2.351230144500732422e+00,2.305305719375610352e+00,2.261140823364257812e+00,2.218636512756347656e+00,2.177700519561767578e+00,2.138247966766357422e+00,2.100199222564697266e+00,2.063481092453002930e+00,2.028024673461914062e+00,1.993766188621520996e+00,1.960645914077758789e+00,1.928608298301696777e+00,1.897600531578063965e+00,1.867574095726013184e+00
5.000000000000000000e+00,5.000000000000000000e+00,5.000000000000000000e+00,5.000000000000000000e+00,5.000000000000000000e+00,5.000000000000000000e+00,5.000000000000000000e+00,5.000000000000000000e+00,5.000000000000000000e+00,5.000000000000000000e+00,5.000000000000000000e+00,5.000000000000000000e+00,5.000000000000000000e+00,5.000000000000000000e+00,5.000000000000000000e+00,5.000000000000000000e+00,5.000000000000000000e+00,5.000000000000000000e+00,5.000000000000000000e+00,5.000000000000000000e+00,5.000000000000000000e+00,5.000000000000000000e+00,5.000000000000000000e+00,5.000000000000000000e+00,5.000000000000000000e+00,5.000000000000000000e+00,5.000000000000000000e+00,5.000000000000000000e+00,5.000000000000000000e+00,5.000000000000000000e+00,5.000000000000000000e+00,5.000000000000000000e+00,5.000000000000000000e+00,5.000000000000000000e+00,5.000000000000000000e+00,5.000000000000000000e+00,5.000000000000000000e+00,5.000000000000000000e+00,5.000000000000000000e+00,2.155785322189331055e+00,1.802661299705505371e+00,1.777658700942993164e+00,1.763645768165588379e+00,1.777671456336975098e+00,4.185771465301513672e+00,4.042408466339111328e+00,3.908541202545166016e+00,3.783255577087402344e+00,3.665752887725830078e+00,3.555328845977783203e+00,3.451363086700439453e+00,3.353304862976074219e+00,3.260664463043212891e+00,3.173005580902099609e+00,3.089936017990112305e+00,3.011105537414550781e+00,2.936197042465209961e+00,2.864924907684326172e+00,2.797030925750732422e+00,2.732280492782592773e+00,2.670460224151611328e+00,2.611375331878662109e+00,2.554848432540893555e+00,2.500717163085937500e+00,2.448831796646118164e+00,2.399055957794189453e+00,2.351263046264648438e+00,2.305337429046630859e+00,2.261171579360961914e+00,2.218665838241577148e+00,2.177728891372680664e+00,2.138275146484375000e+00,2.100225448608398438e+00,2.063506603240966797e+00,2.028049230575561523e+00,1.993790149688720703e+00,1.960669040679931641e+00,1.928630471229553223e+00,1.897621989250183105e+00,1.867594957351684570e+00
5.000000000000000000e+00,5.000000000000000000e+00,5.000000000000000000e+00,5.000000000000000000e+00,5.000000000000000000e+00,5.000000000000000000e+00,5.000000000000000000e+00,5.000000000000000000e+00,5.000000000000000000e+00,5.000000000000000000e+00,5.000000000000000000e+00,5.000000000000000000e+00,5.000000000000000000e+00,5.000000000000000000e+00,5.000000000000000000e+00,5.000000000000000000e+00,5.000000000000000000e+00,5.000000000000000000e+00,5.000000000000000000e+00,5.000000000000000000e+00,5.000000000000000000e+00,5.000000000000000000e+00,5.000000000000000000e+00,5.000000000000000000e+00,5.000000000000000000e+00,5.000000000000000000e+00,5.000000000000000000e+00,5.000000000000000000e+00,5.000000000000000000e+00,5.000000000000000000e+00,5.000000000000000000e+00,5.000000000000000000e+00,5.000000000000000000e+00,5.000000000000000000e+00,5.000000000000000000e+00,5.000000000000000000e+00,5.000000000000000000e+00,5.000000000000000000e+00,5.000000000000000000e+00,2.157637357711791992e+00,1.830891966819763184e+00,1.777805566787719727e+00,1.758995890617370605e+00,1.764038205146789551e+00,4.185875892639160156e+00,4.042506217956542969e+00,3.908632278442382812e+00,3.783341407775878906e+00,3.665832996368408203e+00,3.555404424667358398e+00,3.451434135437011719e+00,3.353372097015380859e+00,3.260728120803833008e+00,3.173065662384033203e+00,3.089993238449096680e+00,3.011159658432006836e+00,2.936248540878295898e+00,2.864974021911621094e+00,2.797077655792236328e+00,2.732325315475463867e+00,2.670502901077270508e+00,2.611416339874267578e+00,2.554887533187866211e+00,2.500754356384277344e+00,2.448867797851562500e+00,2.399090290069580078e+00,2.351296186447143555e+00,2.305369138717651367e+00,2.261202096939086914e+00,2.218695402145385742e+00,2.177757263183593750e+00,2.138302564620971680e+00,2.100251913070678711e+00,2.063531875610351562e+00,2.028074026107788086e+00,1.993813872337341309e+00,1.960692048072814941e+00,1.928652644157409668e+00,1.897643446922302246e+00,1.867615938186645508e+00
5.000000000000000000e+00,5.000000000000000000e+00,5.000000000000000000e+00,5.000000000000000000e+00,5.000000000000000000e+00,5.000000000000000000e+00,5.000000000000000000e+00,5.000000000000000000e+00,5.000000000000000000e+00,5.000000000000000000e+00,5.000000000000000000e+00,5.000000000000000000e+00,5.000000000000000000e+00,5.000000000000000000e+00,5.000000000000000000e+00,5.000000000000000000e+00,5.000000000000000000e+00,5.000000000000000000e+00,5.000000000000000000e+00,5.000000000000000000e+00,5.000000000000000000e+00,5.000000000000000000e+00,5.000000000000000000e+00,5.000000000000000000e+00,5.000000000000000000e+00,5.000000000000000000e+00,5.000000000000000000e+00,5.000000000000000000e+00,5.000000000000000000e+00,5.000000000000000000e+00,5.000000000000000000e+00,5.000000000000000000e+00,5.000000000000000000e+00,5.000000000000000000e+00,5.000000000000000000e+00,5.000000000000000000e+00,5.000000000000000000e+00,5.000000000000000000e+00,2.242246150970458984e+00,2.161031961441040039e+00,2.155420780181884766e+00,1.777952432632446289e+00,1.755942821502685547e+00,1.750612497329711914e+00,4.185980796813964844e+00,4.042603969573974609e+00,3.908723831176757812e+00,3.783426761627197266e+00,3.665913343429565430e+00,3.555479764938354492e+00,3.451505422592163086e+00,3.353439092636108398e+00,3.260791778564453125e+00,3.173125982284545898e+00,3.090050220489501953e+00,3.011213779449462891e+00,2.936300039291381836e+00,2.865023136138916016e+00,2.797124385833740234e+00,2.732369661331176758e+00,2.670545578002929688e+00,2.611456871032714844e+00,2.554926633834838867e+00,2.500791788101196289e+00,2.448903560638427734e+00,2.399124622344970703e+00,2.351329326629638672e+00,2.305401086807250977e+00,2.261232614517211914e+00,2.218724727630615234e+00,2.177785634994506836e+00,2.138329982757568359e+00,2.100278377532958984e+00,2.063557386398315430e+00,2.028098344802856445e+00,1.993837594985961914e+00,1.960714936256408691e+00,1.928674936294555664e+00,1.897665143013000488e+00,1.867636680603027344e+00
5.000000000000000000e+00,5.000000000000000000e+00,5.000000000000000000e+00,5.000000000000000000e+00,5.000000000000000000e+00,5.000000000000000000e+00,5.000000000000000000e+00,5.000000000000000000e+00,5.000000000000000000e+00,5.000000000000000000e+00,5.000000000000000000e+00,5.000000000000000000e+00,5.000000000000000000e+00,5.000000000000000000e+00,5.000000000000000000e+00,5.000000000000000000e+00,5.000000000000000000e+00,5.000000000000000000e+00,5.000000000000000000e+00,5.000000000000000000e+00,5.000000000000000000e+00,5.000000000000000000e+00,5.000000000000000000e+00,5.000000000000000000e+00,5.000000000000000000e+00,5.000000000000000000e+00,5.000000000000000000e+00,5.000000000000000000e+00,5.000000000000000000e+00,5.000000000000000000e+00,5.000000000000000000e+00,5.000000000000000000e+00,5.000000000000000000e+00,5.000000000000000000e+00,5.000000000000000000e+00,5.000000000000000000e+00,5.000000000000000000e+00,5.000000000000000000e+00,2.203052520751953125e+00,2.167436599731445312e+00,2.167606115341186523e+00,1.778099298477172852e+00,1.754792690277099609e+00,1.744111418724060059e+00,4.186085224151611328e+00,4.042701721191406250e+00,3.908815383911132812e+00,3.783512592315673828e+00,3.665993452072143555e+00,3.555555582046508789e+00,3.451576471328735352e+00,3.353506565093994141e+00,3.260855197906494141e+00,3.173186063766479492e+00,3.090107440948486328e+00,3.011267900466918945e+00,2.936351537704467773e+00,2.865072011947631836e+00,2.797171354293823242e+00,2.732414484024047852e+00,2.670588016510009766e+00,2.611497879028320312e+00,2.554965734481811523e+00,2.500829219818115234e+00,2.448939323425292969e+00,2.399158954620361328e+00,2.351362466812133789e+00,2.305432796478271484e+00,2.261263370513916016e+00,2.218754291534423828e+00,2.177813768386840820e+00,2.138357162475585938e+00,2.100304603576660156e+00,2.063582897186279297e+00,2.028123140335083008e+00,1.993861198425292969e+00,1.960738062858581543e+00,1.928697109222412109e+00,1.897686600685119629e+00,1.867657542228698730e+00
5.000000000000000000e+00,5.000000000000000000e+00,5.000000000000000000e+00,5.000000000000000000e+00,5.000000000000000000e+00,5.000000000000000000e+00,5.000000000000000000e+00,5.000000000000000000e+00,5.000000000000000000e+00,5.000000000000000000e+00,5.000000000000000000e+00,5.000000000000000000e+00,5.000000000000000000e+00,5.000000000000000000e+00,5.000000000000000000e+00,5.000000000000000000e+00,5.000000000000000000e+00,5.000000000000000000e+00,5.000000000000000000e+00,5.000000000000000000e+00,5.000000000000000000e+00,5.000000000000000000e+00,5.000000000000000000e+00,5.000000000000000000e+00,5.000000000000000000e+00,5.000000000000000000e+00,5.000000000000000000e+00,5.000000000000000000e+00,5.000000000000000000e+00,5.000000000000000000e+00,5.000000000000000000e+00,5.000000000000000000e+00,5.000000000000000000e+00,5.000000000000000000e+00,5.000000000000000000e+00,5.000000000000000000e+00,5.000000000000000000e+00,5.000000000000000000e+00,2.207212686538696289e+00,2.180380582809448242e+00,2.180054903030395508e+00,1.778867959976196289e+00,1.755994319915771484e+00,1.745777487754821777e+00,1.775519132614135742e+00,4.042799472808837891e+00,3.908906459808349609e+00,3.783598184585571289e+00,3.666074037551879883e+00,3.555630922317504883e+00,3.451647758483886719e+00,3.353573560714721680e+00,3.260918855667114258e+00,3.173246145248413086e+00,3.090164661407470703e+00,3.011322259902954102e+00,2.936403036117553711e+00,2.865121364593505859e+00,2.797218084335327148e+00,2.732459068298339844e+00,2.670630693435668945e+00,2.611538410186767578e+00,2.555004835128784180e+00,2.500866651535034180e+00,2.448975324630737305e+00,2.399193525314331055e+00,2.351395368576049805e+00,2.305464506149291992e+00,2.261293649673461914e+00,2.218783617019653320e+00,2.177842378616333008e+00,2.138384580612182617e+00,2.100331068038940430e+00,2.063608407974243164e+00,2.028147697448730469e+00,1.993885159492492676e+00,1.960760951042175293e+00,1.928719282150268555e+00,1.897708058357238770e+00,1.867678523063659668e+00
5.000000000000000000e+00,5.000000000000000000e+00,5.000000000000000000e+00,5.000000000000000000e+00,5.000000000000000000e+00,5.000000000000000000e+00,5.000000000000000000e+00,5.000000000000000000e+00,5.000000000000000000e+00,5.000000000000000000e+00,5.000000000000000000e+00,5.000000000000000000e+00,5.000000000000000000e+00,5.000000000000000000e+00,5.000000000000000000e+00,5.000000000000000000e+00,5.000000000000000000e+00,5.000000000000000000e+00,5.000000000000000000e+00,5.000000000000000000e+00,5.000000000000000000e+00,5.000000000000000000e+00,5.000000000000000000e+00,5.000000000000000000e+00,5.000000000000000000e+00,5.000000000000000000e+00,5.000000000000000000e+00,5.000000000000000000e+00,5.000000000000000000e+00,5.000000000000000000e+00,5.000000000000000000e+00,5.000000000000000000e+00,5.000000000000000000e+00,5.000000000000000000e+00,5.000000000000000000e+00,5.000000000000000000e+00,5.000000000000000000e+00,5.000000000000000000e+00,2.214567184448242188e+00,2.193987846374511719e+00,4.878416538238525391e+00,1.780079245567321777e+00,1.757255911827087402e+00,1.746333956718444824e+00,1.763284683227539062e+00,4.042897224426269531e+00,3.908998012542724609e+00,3.783683538436889648e+00,3.666154623031616211e+00,3.555706739425659180e+00,3.451719284057617188e+00,3.353641033172607422e+00,3.260982275009155273e+00,3.173306465148925781e+00,3.090221405029296875e+00,3.011376619338989258e+00,2.936454772949218750e+00,2.865170240402221680e+00,2.797264814376831055e+00,2.732503652572631836e+00,2.670673370361328125e+00,2.611579179763793945e+00,2.555043697357177734e+00,2.500904083251953125e+00,2.449011087417602539e+00,2.399227857589721680e+00,2.351428508758544922e+00,2.305496215820312500e+00,2.261324405670166016e+00,2.218812942504882812e+00,2.177870750427246094e+00,2.138411998748779297e+00,2.100357532501220703e+00,2.063633918762207031e+00,2.028172254562377930e+00,1.993908882141113281e+00,1.960783839225769043e+00,1.928741455078125000e+00,1.897729754447937012e+00,1.867699265480041504e+00
4.872510433197021484e+00,4.871291160583496094e+00,4.870072364807128906e+00,4.868854045867919922e+00,4.867637157440185547e+00,4.866419792175292969e+00,4.865203380584716797e+00,4.863987922668457031e+00,4.862772464752197266e+00,4.861558437347412109e+00,4.860344409942626953e+00,4.859130859375000000e+00,4.857918262481689453e+00,4.856706142425537109e+00,4.855494499206542969e+00,4.854283809661865234e+00,4.853073596954345703e+00,4.851864337921142578e+00,4.850655078887939453e+00,4.849446296691894531e+00,4.848238945007324219e+00,4.847031593322753906e+00,4.845824718475341797e+00,4.844618797302246094e+00,4.843413352966308594e+00,4.842208385467529297e+00,4.841004371643066406e+00,4.839800357818603516e+00,4.838597297668457031e+00,4.837394714355468750e+00,4.836193084716796875e+00,4.834991931915283203e+00,4.833790779113769531e+00,4.832591056823730469e+00,4.831391334533691406e+00,4.830193042755126953e+00,4.828994274139404297e+00,4.827796459197998047e+00,2.221486568450927734e+00,2.207766056060791016e+00,4.824207305908203125e+00,1.803608417510986328e+00,1.758519530296325684e+00,1.740965127944946289e+00,1.751500606536865234e+00,4.042994976043701172e+00,3.909089088439941406e+00,3.783769369125366211e+00,3.666234731674194336e+00,3.555782318115234375e+00,3.451790332794189453e+00,3.353708267211914062e+00,3.261045932769775391e+00,3.173366546630859375e+00,3.090278625488281250e+00,3.011430740356445312e+00,2.936506271362304688e+00,2.865219354629516602e+00,2.797311544418334961e+00,2.732548475265502930e+00,2.670716047286987305e+00,2.611620187759399414e+00,2.555082798004150391e+00,2.500941276550292969e+00,2.449047088623046875e+00,2.399262189865112305e+00,2.351461648941040039e+00,2.305528163909912109e+00,2.261354923248291016e+00,2.218842506408691406e+00,2.177898883819580078e+00,2.138439416885375977e+00,2.100383758544921875e+00,2.063659191131591797e+00,2.028196811676025391e+00,1.993932604789733887e+00,1.960807085037231445e+00,1.928763866424560547e+00,1.897751212120056152e+00,1.867720127105712891e+00
3.777020215988159180e+00,3.776287317276000977e+00,3.775554895401000977e+00,3.774822950363159180e+00,3.774091005325317383e+00,3.773359298706054688e+00,3.772627830505371094e+00,3.771896839141845703e+00,3.771166324615478516e+00,3.770435810089111328e+00,3.769705533981323242e+00,3.768975496292114258e+00,3.768245697021484375e+00,3.767516851425170898e+00,3.766787767410278320e+00,3.766058921813964844e+00,3.765330314636230469e+00,3.764601945877075195e+00,3.763873815536499023e+00,3.763146638870239258e+00,3.762419223785400391e+00,3.761692047119140625e+00,3.760965108871459961e+00,3.760238409042358398e+00,3.759512662887573242e+00,3.758786439895629883e+00,3.758060693740844727e+00,3.757335186004638672e+00,3.756610155105590820e+00,3.755885601043701172e+00,3.755160808563232422e+00,3.754436492919921875e+00,3.753712415695190430e+00,3.752988576889038086e+00,3.752265453338623047e+00,3.751542329788208008e+00,3.750819206237792969e+00,3.750096559524536133e+00,2.244580030441284180e+00,3.748652458190917969e+00,3.747930526733398438e+00,3.747209072113037109e+00,1.759784817695617676e+00,1.738184928894042969e+00,1.741204142570495605e+00,3.744325876235961914e+00,3.743605613708496094e+00,3.742885828018188477e+00,3.666315078735351562e+00,3.555857658386230469e+00,3.451861619949340820e+00,3.353775262832641602e+00,3.261109828948974609e+00,3.173426866531372070e+00,3.090335607528686523e+00,3.011484861373901367e+00,2.936557769775390625e+00,2.865268468856811523e+00,2.797358274459838867e+00,2.732592821121215820e+00,2.670758724212646484e+00,2.611660718917846680e+00,2.555121898651123047e+00,2.500978708267211914e+00,2.449082851409912109e+00,2.399296760559082031e+00,2.351494550704956055e+00,2.305559873580932617e+00,2.261385440826416016e+00,2.218871831893920898e+00,2.177927494049072266e+00,2.138466596603393555e+00,2.100410223007202148e+00,2.063684701919555664e+00,2.028221368789672852e+00,1.993956565856933594e+00,1.960829973220825195e+00,1.928786039352416992e+00,1.897772669792175293e+00,1.867740869522094727e+00
3.083707809448242188e+00,3.083219289779663086e+00,3.082731008529663086e+00,3.082242727279663086e+00,3.081755161285400391e+00,3.081267118453979492e+00,3.080779552459716797e+00,3.080291986465454102e+00,3.079804420471191406e+00,3.079317569732666016e+00,3.078830480575561523e+00,3.078343391418457031e+00,3.077856540679931641e+00,3.077369928359985352e+00,3.076883554458618164e+00,3.076397418975830078e+00,3.075911283493041992e+00,3.075425148010253906e+00,3.074939250946044922e+00,3.074453592300415039e+00,3.073968172073364258e+00,3.073482751846313477e+00,3.072997570037841797e+00,3.072512388229370117e+00,3.072027444839477539e+00,3.071542978286743164e+00,3.071058273315429688e+00,3.070573806762695312e+00,3.070089340209960938e+00,3.069605112075805664e+00,3.069121360778808594e+00,3.068637609481811523e+00,3.068153858184814453e+00,3.067670345306396484e+00,3.067186832427978516e+00,3.066703796386718750e+00,3.066220760345458984e+00,2.284473180770874023e+00,2.220285654067993164e+00,3.064772367477416992e+00,3.064289808273315430e+00,3.063807725906372070e+00,1.785480380058288574e+00,1.750495910644531250e+00,1.743553757667541504e+00,3.061879634857177734e+00,3.061398506164550781e+00,3.060916900634765625e+00,3.060435533523559570e+00,3.059954404830932617e+00,3.059473514556884766e+00,3.058992862701416016e+00,3.058512210845947266e+00,3.058031558990478516e+00,3.057551145553588867e+00,3.011538982391357422e+00,2.936609268188476562e+00,2.865317583084106445e+00,2.797405242919921875e+00,2.732637643814086914e+00,2.670801162719726562e+00,2.611701726913452148e+00,2.555160760879516602e+00,2.501016139984130859e+00,2.449118614196777344e+00,2.399331092834472656e+00,2.351527690887451172e+00,2.305591583251953125e+00,2.261416196823120117e+00,2.218901395797729492e+00,2.177955627441406250e+00,2.138494014739990234e+00,2.100436687469482422e+00,2.063710212707519531e+00,2.028245925903320312e+00,1.993980169296264648e+00,1.960852861404418945e+00,1.928808212280273438e+00,1.897794365882873535e+00,1.867761850357055664e+00
2.605449438095092773e+00,2.605100870132446289e+00,2.604752302169799805e+00,2.604403734207153320e+00,2.604055404663085938e+00,2.603706836700439453e+00,2.603358983993530273e+00,2.603010654449462891e+00,2.602662563323974609e+00,2.602314710617065430e+00,2.601966619491577148e+00,2.601619005203247070e+00,2.601271390914916992e+00,2.600923776626586914e+00,2.600576162338256836e+00,2.600228786468505859e+00,2.599881649017333984e+00,2.599534511566162109e+00,2.599187374114990234e+00,2.598840236663818359e+00,2.598493337631225586e+00,2.598146677017211914e+00,2.597799777984619141e+00,2.597453117370605469e+00,2.597106456756591797e+00,2.596760034561157227e+00,2.596413612365722656e+00,2.596067428588867188e+00,2.595721244812011719e+00,2.595375061035156250e+00,2.595029115676879883e+00,2.594683170318603516e+00,2.594337463378906250e+00,2.593991756439208984e+00,2.593646049499511719e+00,2.593300342559814453e+00,2.592954874038696289e+00,2.592609643936157227e+00,2.175776958465576172e+00,2.187443971633911133e+00,2.591574192047119141e+00,2.591228961944580078e+00,2.590884208679199219e+00,1.736572384834289551e+00,1.704330325126647949e+00,1.705142498016357422e+00,2.589505434036254883e+00,2.589161157608032227e+00,2.588816881179809570e+00,2.588472604751586914e+00,2.588128328323364258e+00,2.587784290313720703e+00,2.587440252304077148e+00,2.587096452713012695e+00,2.586752653121948242e+00,2.586408853530883789e+00,2.586065292358398438e+00,2.585721731185913086e+00,2.585378408432006836e+00,2.585035085678100586e+00,2.584691762924194336e+00,2.584348678588867188e+00,2.555199861526489258e+00,2.501053571701049805e+00,2.449154615402221680e+00,2.399365663528442383e+00,2.351560592651367188e+00,2.305623531341552734e+00,2.261446475982666016e+00,2.218930959701538086e+00,2.177983999252319336e+00,2.138521194458007812e+00,2.100462913513183594e+00,2.063735723495483398e+00,2.028270721435546875e+00,1.994003891944885254e+00,1.960875749588012695e+00,1.928830623626708984e+00,1.897815823554992676e+00,1.867782711982727051e+00
2.255606174468994141e+00,2.255346536636352539e+00,2.255087137222290039e+00,2.254827737808227539e+00,2.254568338394165039e+00,2.254308938980102539e+00,2.254049777984619141e+00,2.253790616989135742e+00,2.253531455993652344e+00,2.253271102905273438e+00,2.253010272979736328e+00,2.252749443054199219e+00,2.252488851547241211e+00,2.252228260040283203e+00,2.251967668533325195e+00,2.251707077026367188e+00,2.251446723937988281e+00,2.251186370849609375e+00,2.250926017761230469e+00,2.250665664672851562e+00,2.250405550003051758e+00,2.250145435333251953e+00,2.249885320663452148e+00,2.249625444412231445e+00,2.249365329742431641e+00,2.249105453491210938e+00,2.248845577239990234e+00,2.248585700988769531e+00,2.248326063156127930e+00,2.248066425323486328e+00,2.247806787490844727e+00,2.247547149658203125e+00,2.247287750244140625e+00,2.247028350830078125e+00,2.246768951416015625e+00,2.246509790420532227e+00,2.246250391006469727e+00,2.245991230010986328e+00,2.171643018722534180e+00,2.112463235855102539e+00,2.178722620010375977e+00,2.244955062866210938e+00,2.244696140289306641e+00,1.707626223564147949e+00,1.660774588584899902e+00,1.624429821968078613e+00,1.602212548255920410e+00,1.600159406661987305e+00,2.243144035339355469e+00,2.242885828018188477e+00,2.242627382278442383e+00,2.242368936538696289e+00,2.242110729217529297e+00,2.241852283477783203e+00,2.241594314575195312e+00,2.241336107254028320e+00,2.241078138351440430e+00,2.240820169448852539e+00,2.240562200546264648e+00,2.240304470062255859e+00,2.240046501159667969e+00,2.239788770675659180e+00,2.239531040191650391e+00,2.239273309707641602e+00,2.239016056060791016e+00,2.238758325576782227e+00,2.238500833511352539e+00,2.238243579864501953e+00,2.237986087799072266e+00,2.218960285186767578e+00,2.178012371063232422e+00,2.138548612594604492e+00,2.100489377975463867e+00,2.063761234283447266e+00,2.028295278549194336e+00,1.994027853012084961e+00,1.960898995399475098e+00,1.928852796554565430e+00,1.897837281227111816e+00,1.867803454399108887e+00
1.988496780395507812e+00,1.988295078277587891e+00,1.988093376159667969e+00,1.987891674041748047e+00,1.987690091133117676e+00,1.987488508224487305e+00,1.987287044525146484e+00,1.987085580825805664e+00,1.986884117126464844e+00,1.986682772636413574e+00,1.986481428146362305e+00,1.986280083656311035e+00,1.986078739166259766e+00,1.985877513885498047e+00,1.985676407814025879e+00,1.985475182533264160e+00,1.985274076461791992e+00,1.985073089599609375e+00,1.984871983528137207e+00,1.984670996665954590e+00,1.984470009803771973e+00,1.984269142150878906e+00,1.984068274497985840e+00,1.983867526054382324e+00,1.983666658401489258e+00,1.983465909957885742e+00,1.983265280723571777e+00,1.983064770698547363e+00,1.982864141464233398e+00,1.982663631439208984e+00,1.982463121414184570e+00,1.982262611389160156e+00,1.982062101364135742e+00,1.981861710548400879e+00,1.981661319732666016e+00,1.981460928916931152e+00,1.981260657310485840e+00,1.981060385704040527e+00,1.980860233306884766e+00,1.980659961700439453e+00,1.980459928512573242e+00,1.980259776115417480e+00,1.980059742927551270e+00,1.730988860130310059e+00,1.627709627151489258e+00,1.644572854042053223e+00,1.979259848594665527e+00,1.979060053825378418e+00,1.978860259056091309e+00,1.978660464286804199e+00,1.978460669517517090e+00,1.978260993957519531e+00,1.978061318397521973e+00,1.977861762046813965e+00,1.977662205696105957e+00,1.977462649345397949e+00,1.977263092994689941e+00,1.977063655853271484e+00,1.976864218711853027e+00,1.976664900779724121e+00,1.976465582847595215e+00,1.976266264915466309e+00,1.976066946983337402e+00,1.975867748260498047e+00,1.975668549537658691e+00,1.975469470024108887e+00,1.975270390510559082e+00,1.975071310997009277e+00,1.974872350692749023e+00,1.974673628807067871e+00,1.974474668502807617e+00,1.974275708198547363e+00,1.974076867103576660e+00,1.973878026008605957e+00,1.973679304122924805e+00,1.973480582237243652e+00,1.960921883583068848e+00,1.928874969482421875e+00,1.897858738899230957e+00,1.867824435234069824e+00
1.777951240539550781e+00,1.777790069580078125e+00,1.777628779411315918e+00,1.777467608451843262e+00,1.777306437492370605e+00,1.777145266532897949e+00,1.776984095573425293e+00,1.776823043823242188e+00,1.776661992073059082e+00,1.776500940322875977e+00,1.776339888572692871e+00,1.776178956031799316e+00,1.776018023490905762e+00,1.775857090950012207e+00,1.775696158409118652e+00,1.775535345077514648e+00,1.775374650955200195e+00,1.775213837623596191e+00,1.775053143501281738e+00,1.774892330169677734e+00,1.774731636047363281e+00,1.774570941925048828e+00,1.774410247802734375e+00,1.774249672889709473e+00,1.774089097976684570e+00,1.773928523063659668e+00,1.773767948150634766e+00,1.773607492446899414e+00,1.773446917533874512e+00,1.773286461830139160e+00,1.773126125335693359e+00,1.772965669631958008e+00,1.772805333137512207e+00,1.772644996643066406e+00,1.772484660148620605e+00,1.772324323654174805e+00,1.772164106369018555e+00,1.772003889083862305e+00,1.771843671798706055e+00,1.771683573722839355e+00,1.771523356437683105e+00,1.771363258361816406e+00,1.771203279495239258e+00,1.771043181419372559e+00,1.770883202552795410e+00,1.770723104476928711e+00,1.770563244819641113e+00,1.770403265953063965e+00,1.770243406295776367e+00,1.770083427429199219e+00,1.769923567771911621e+00,1.769763827323913574e+00,1.769603967666625977e+00,1.769444227218627930e+00,1.769284486770629883e+00,1.769124865531921387e+00,1.768965125083923340e+00,1.768805503845214844e+00,1.768645882606506348e+00,1.768486499786376953e+00,1.768326878547668457e+00,1.768167376518249512e+00,1.768007874488830566e+00,1.767848372459411621e+00,1.767688989639282227e+00,1.767529606819152832e+00,1.767370223999023438e+00,1.767210841178894043e+00,1.767051458358764648e+00,1.766892194747924805e+00,1.766732931137084961e+00,1.766573667526245117e+00,1.766414403915405273e+00,1.766255259513854980e+00,1.766096115112304688e+00,1.765936970710754395e+00,1.765777945518493652e+00,1.765618801116943359e+00,1.765459775924682617e+00,1.765300869941711426e+00
1.607722759246826172e+00,1.607590913772583008e+00,1.607459068298339844e+00,1.607327222824096680e+00,1.607195496559143066e+00,1.607063889503479004e+00,1.606932044029235840e+00,1.606800317764282227e+00,1.606668591499328613e+00,1.606536984443664551e+00,1.606405258178710938e+00,1.606273651123046875e+00,1.606141924858093262e+00,1.606010317802429199e+00,1.605878829956054688e+00,1.605747222900390625e+00,1.605615615844726562e+00,1.605484127998352051e+00,1.605352640151977539e+00,1.605221152305603027e+00,1.605089664459228516e+00,1.604958295822143555e+00,1.604826807975769043e+00,1.604695439338684082e+00,1.604564070701599121e+00,1.604432702064514160e+00,1.604301452636718750e+00,1.604170083999633789e+00,1.604038834571838379e+00,1.603907585144042969e+00,1.603776335716247559e+00,1.603645086288452148e+00,1.603513836860656738e+00,1.603382706642150879e+00,1.603251576423645020e+00,1.603120446205139160e+00,1.602989315986633301e+00,1.602858185768127441e+00,1.602727174758911133e+00,1.602596044540405273e+00,1.602465033531188965e+00,1.602334022521972656e+00,1.602203011512756348e+00,1.602072119712829590e+00,1.601941108703613281e+00,1.601810216903686523e+00,1.601679325103759766e+00,1.601548433303833008e+00,1.601417779922485352e+00,1.601286888122558594e+00,1.601156115531921387e+00,1.601025342941284180e+00,1.600894570350646973e+00,1.600763797760009766e+00,1.600633025169372559e+00,1.600502371788024902e+00,1.600371718406677246e+00,1.600241065025329590e+00,1.600110411643981934e+00,1.599979758262634277e+00,1.599849104881286621e+00,1.599718570709228516e+00,1.599587917327880859e+00,1.599457383155822754e+00,1.599326968193054199e+00,1.599196434020996094e+00,1.599065899848937988e+00,1.598935484886169434e+00,1.598805069923400879e+00,1.598674654960632324e+00,1.598544239997863770e+00,1.598413944244384766e+00,1.598283529281616211e+00,1.598153233528137207e+00,1.598022937774658203e+00,1.597892642021179199e+00,1.597762346267700195e+00,1.597632169723510742e+00,1.597501993179321289e+00,1.597371697425842285e+00
1.467242956161499023e+00,1.467133164405822754e+00,1.467023372650146484e+00,1.466913580894470215e+00,1.466803789138793945e+00,1.466693997383117676e+00,1.466584205627441406e+00,1.466474533081054688e+00,1.466364741325378418e+00,1.466255068778991699e+00,1.466145396232604980e+00,1.466035723686218262e+00,1.465926051139831543e+00,1.465816497802734375e+00,1.465706825256347656e+00,1.465597271919250488e+00,1.465487599372863770e+00,1.465378046035766602e+00,1.465268492698669434e+00,1.465158939361572266e+00,1.465049505233764648e+00,1.464939951896667480e+00,1.464830517768859863e+00,1.464720964431762695e+00,1.464611530303955078e+00,1.464502096176147461e+00,1.464392662048339844e+00,1.464283227920532227e+00,1.464173913002014160e+00,1.464064478874206543e+00,1.463955163955688477e+00,1.463845849037170410e+00,1.463736534118652344e+00,1.463627219200134277e+00,1.463517904281616211e+00,1.463408589363098145e+00,1.463299393653869629e+00,1.463190197944641113e+00,1.463081002235412598e+00,1.462971806526184082e+00,1.462862610816955566e+00,1.462753415107727051e+00,1.462644338607788086e+00,1.462535142898559570e+00,1.462426066398620605e+00,1.462316870689392090e+00,1.462207794189453125e+00,1.462098717689514160e+00,1.461989641189575195e+00,1.461880683898925781e+00,1.461771607398986816e+00,1.461662650108337402e+00,1.461553573608398438e+00,1.461444616317749023e+00,1.461335659027099609e+00,1.461226701736450195e+00,1.461117744445800781e+00,1.461008906364440918e+00,1.460899949073791504e+00,1.460791110992431641e+00,1.460682272911071777e+00,1.460573315620422363e+00,1.460464477539062500e+00,1.460355758666992188e+00,1.460246920585632324e+00,1.460138082504272461e+00,1.460029363632202148e+00,1.459920644760131836e+00,1.459811806678771973e+00,1.459703087806701660e+00,1.459594488143920898e+00,1.459485769271850586e+00,1.459377050399780273e+00,1.459268450736999512e+00,1.459159731864929199e+00,1.459051132202148438e+00,1.458942532539367676e+00,1.458833932876586914e+00,1.458725333213806152e+00,1.458616852760314941e+00
1.349339962005615234e+00,1.349247097969055176e+00,1.349154233932495117e+00,1.349061369895935059e+00,1.348968505859375000e+00,1.348875641822814941e+00,1.348782896995544434e+00,1.348690032958984375e+00,1.348597288131713867e+00,1.348504424095153809e+00,1.348411679267883301e+00,1.348318934440612793e+00,1.348226189613342285e+00,1.348133444786071777e+00,1.348040699958801270e+00,1.347947955131530762e+00,1.347855329513549805e+00,1.347762584686279297e+00,1.347669959068298340e+00,1.347577333450317383e+00,1.347484588623046875e+00,1.347391963005065918e+00,1.347299456596374512e+00,1.347206830978393555e+00,1.347114205360412598e+00,1.347021698951721191e+00,1.346929073333740234e+00,1.346836566925048828e+00,1.346744060516357422e+00,1.346651554107666016e+00,1.346559047698974609e+00,1.346466541290283203e+00,1.346374034881591797e+00,1.346281528472900391e+00,1.346189022064208984e+00,1.346096634864807129e+00,1.346004128456115723e+00,1.345911741256713867e+00,1.345819354057312012e+00,1.345726966857910156e+00,1.345634579658508301e+00,1.345542192459106445e+00,1.345449805259704590e+00,1.345357418060302734e+00,1.345265030860900879e+00,1.345172762870788574e+00,1.345080494880676270e+00,1.344988107681274414e+00,1.344895839691162109e+00,1.344803571701049805e+00,1.344711303710937500e+00,1.344619035720825195e+00,1.344526767730712891e+00,1.344434618949890137e+00,1.344342350959777832e+00,1.344250202178955078e+00,1.344157934188842773e+00,1.344065785408020020e+00,1.343973636627197266e+00,1.343881487846374512e+00,1.343789339065551758e+00,1.343697190284729004e+00,1.343605041503906250e+00,1.343513011932373047e+00,1.343420863151550293e+00,1.343328833580017090e+00,1.343236684799194336e+00,1.343144655227661133e+00,1.343052625656127930e+00,1.342960715293884277e+00,1.342868685722351074e+00,1.342776656150817871e+00,1.342684745788574219e+00,1.342592716217041016e+00,1.342500805854797363e+00,1.342408776283264160e+00,1.342316865921020508e+00,1.342224955558776855e+00,1.342133045196533203e+00,1.342041134834289551e+00
1.248976230621337891e+00,1.248896718025207520e+00,1.248817086219787598e+00,1.248737573623657227e+00,1.248657941818237305e+00,1.248578429222106934e+00,1.248498916625976562e+00,1.248419404029846191e+00,1.248339891433715820e+00,1.248260378837585449e+00,1.248180866241455078e+00,1.248101353645324707e+00,1.248021960258483887e+00,1.247942447662353516e+00,1.247863054275512695e+00,1.247783541679382324e+00,1.247704267501831055e+00,1.247624754905700684e+00,1.247545361518859863e+00,1.247465968132019043e+00,1.247386574745178223e+00,1.247307181358337402e+00,1.247227787971496582e+00,1.247148513793945312e+00,1.247069120407104492e+00,1.246989727020263672e+00,1.246910452842712402e+00,1.246831059455871582e+00,1.246751785278320312e+00,1.246672511100769043e+00,1.246593236923217773e+00,1.246513962745666504e+00,1.246434688568115234e+00,1.246355414390563965e+00,1.246276140213012695e+00,1.246196866035461426e+00,1.246117711067199707e+00,1.246038436889648438e+00,1.245959162712097168e+00,1.245880007743835449e+00,1.245800852775573730e+00,1.245721697807312012e+00,1.245642423629760742e+00,1.245563268661499023e+00,1.245484113693237305e+00,1.245405077934265137e+00,1.245325922966003418e+00,1.245246767997741699e+00,1.245167613029479980e+00,1.245088577270507812e+00,1.245009422302246094e+00,1.244930386543273926e+00,1.244851350784301758e+00,1.244772195816040039e+00,1.244693160057067871e+00,1.244614124298095703e+00,1.244535088539123535e+00,1.244456052780151367e+00,1.244377136230468750e+00,1.244298219680786133e+00,1.244219183921813965e+00,1.244140267372131348e+00,1.244061231613159180e+00,1.243982315063476562e+00,1.243903398513793945e+00,1.243824362754821777e+00,1.243745446205139160e+00,1.243666529655456543e+00,1.243587613105773926e+00,1.243508696556091309e+00,1.243429899215698242e+00,1.243350982666015625e+00,1.243272066116333008e+00,1.243193268775939941e+00,1.243114352226257324e+00,1.243035554885864258e+00,1.242956757545471191e+00,1.242877960205078125e+00,1.242799162864685059e+00,1.242720246315002441e+00
1.162509083747863770e+00,1.162440061569213867e+00,1.162371158599853516e+00,1.162302255630493164e+00,1.162233233451843262e+00,1.162164449691772461e+00,1.162095546722412109e+00,1.162026643753051758e+00,1.161957740783691406e+00,1.161888837814331055e+00,1.161820054054260254e+00,1.161751151084899902e+00,1.161682248115539551e+00,1.161613464355468750e+00,1.161544561386108398e+00,1.161475777626037598e+00,1.161406874656677246e+00,1.161338090896606445e+00,1.161269307136535645e+00,1.161200523376464844e+00,1.161131739616394043e+00,1.161062955856323242e+00,1.160994172096252441e+00,1.160925388336181641e+00,1.160856604576110840e+00,1.160787820816040039e+00,1.160719156265258789e+00,1.160650372505187988e+00,1.160581588745117188e+00,1.160512924194335938e+00,1.160444259643554688e+00,1.160375475883483887e+00,1.160306811332702637e+00,1.160238146781921387e+00,1.160169482231140137e+00,1.160100817680358887e+00,1.160032153129577637e+00,1.159963488578796387e+00,1.159894824028015137e+00,1.159826159477233887e+00,1.159757494926452637e+00,1.159688949584960938e+00,1.159620285034179688e+00,1.159551739692687988e+00,1.159483075141906738e+00,1.159414529800415039e+00,1.159345865249633789e+00,1.159277319908142090e+00,1.159208893775939941e+00,1.159140348434448242e+00,1.159071803092956543e+00,1.159003257751464844e+00,1.158934712409973145e+00,1.158866167068481445e+00,1.158797621726989746e+00,1.158729076385498047e+00,1.158660650253295898e+00,1.158592104911804199e+00,1.158523678779602051e+00,1.158455133438110352e+00,1.158386707305908203e+00,1.158318281173706055e+00,1.158249855041503906e+00,1.158181309700012207e+00,1.158112883567810059e+00,1.158044457435607910e+00,1.157976031303405762e+00,1.157907724380493164e+00,1.157839298248291016e+00,1.157770872116088867e+00,1.157702445983886719e+00,1.157634139060974121e+00,1.157565712928771973e+00,1.157497406005859375e+00,1.157428979873657227e+00,1.157360672950744629e+00,1.157292366027832031e+00,1.157224059104919434e+00,1.157155632972717285e+00,1.157087326049804688e+00
1.087238907814025879e+00,1.087178707122802734e+00,1.087118387222290039e+00,1.087058067321777344e+00,1.086997747421264648e+00,1.086937546730041504e+00,1.086877226829528809e+00,1.086816906929016113e+00,1.086756706237792969e+00,1.086696386337280273e+00,1.086636185646057129e+00,1.086575984954833984e+00,1.086515665054321289e+00,1.086455464363098145e+00,1.086395263671875000e+00,1.086335062980651855e+00,1.086274862289428711e+00,1.086214661598205566e+00,1.086154460906982422e+00,1.086094260215759277e+00,1.086034059524536133e+00,1.085973858833312988e+00,1.085913777351379395e+00,1.085853576660156250e+00,1.085793375968933105e+00,1.085733294486999512e+00,1.085673093795776367e+00,1.085613012313842773e+00,1.085552811622619629e+00,1.085492730140686035e+00,1.085432648658752441e+00,1.085372567176818848e+00,1.085312366485595703e+00,1.085252285003662109e+00,1.085192203521728516e+00,1.085132122039794922e+00,1.085072040557861328e+00,1.085012078285217285e+00,1.084951996803283691e+00,1.084892034530639648e+00,1.084831953048706055e+00,1.084771871566772461e+00,1.084711790084838867e+00,1.084651827812194824e+00,1.084591746330261230e+00,1.084531784057617188e+00,1.084471702575683594e+00,1.084411740303039551e+00,1.084351778030395508e+00,1.084291815757751465e+00,1.084231853485107422e+00,1.084171772003173828e+00,1.084111809730529785e+00,1.084051847457885742e+00,1.083991885185241699e+00,1.083932042121887207e+00,1.083872079849243164e+00,1.083812117576599121e+00,1.083752155303955078e+00,1.083692312240600586e+00,1.083632349967956543e+00,1.083572387695312500e+00,1.083512544631958008e+00,1.083452582359313965e+00,1.083392739295959473e+00,1.083332896232604980e+00,1.083272933959960938e+00,1.083213090896606445e+00,1.083153247833251953e+00,1.083093404769897461e+00,1.083033561706542969e+00,1.082973718643188477e+00,1.082913875579833984e+00,1.082854032516479492e+00,1.082794189453125000e+00,1.082734346389770508e+00,1.082674622535705566e+00,1.082614779472351074e+00,1.082554936408996582e+00,1.082495212554931641e+00
1.021123290061950684e+00,1.021070122718811035e+00,1.021016955375671387e+00,1.020963668823242188e+00,1.020910501480102539e+00,1.020857334136962891e+00,1.020804166793823242e+00,1.020750999450683594e+00,1.020697832107543945e+00,1.020644664764404297e+00,1.020591616630554199e+00,1.020538449287414551e+00,1.020485281944274902e+00,1.020432114601135254e+00,1.020379066467285156e+00,1.020325899124145508e+00,1.020272850990295410e+00,1.020219683647155762e+00,1.020166635513305664e+00,1.020113468170166016e+00,1.020060420036315918e+00,1.020007371902465820e+00,1.019954204559326172e+00,1.019901156425476074e+00,1.019848108291625977e+00,1.019795060157775879e+00,1.019742012023925781e+00,1.019688963890075684e+00,1.019635915756225586e+00,1.019582867622375488e+00,1.019529819488525391e+00,1.019476771354675293e+00,1.019423842430114746e+00,1.019370794296264648e+00,1.019317746162414551e+00,1.019264817237854004e+00,1.019211769104003906e+00,1.019158720970153809e+00,1.019105792045593262e+00,1.019052743911743164e+00,1.018999814987182617e+00,1.018946766853332520e+00,1.018893837928771973e+00,1.018840909004211426e+00,1.018787980079650879e+00,1.018734931945800781e+00,1.018682003021240234e+00,1.018629074096679688e+00,1.018576145172119141e+00,1.018523216247558594e+00,1.018470287322998047e+00,1.018417358398437500e+00,1.018364429473876953e+00,1.018311500549316406e+00,1.018258690834045410e+00,1.018205761909484863e+00,1.018152832984924316e+00,1.018099904060363770e+00,1.018047094345092773e+00,1.017994165420532227e+00,1.017941355705261230e+00,1.017888426780700684e+00,1.017835617065429688e+00,1.017782807350158691e+00,1.017729878425598145e+00,1.017677068710327148e+00,1.017624258995056152e+00,1.017571330070495605e+00,1.017518520355224609e+00,1.017465829849243164e+00,1.017413020133972168e+00,1.017360210418701172e+00,1.017307400703430176e+00,1.017254590988159180e+00,1.017201781272888184e+00,1.017148971557617188e+00,1.017096161842346191e+00,1.017043471336364746e+00,1.016990661621093750e+00,1.016937851905822754e+00
9.625878334045410156e-01,9.625405073165893555e-01,9.624933004379272461e-01,9.624460339546203613e-01,9.623987078666687012e-01,9.623514413833618164e-01,9.623042345046997070e-01,9.622569680213928223e-01,9.622097611427307129e-01,9.621624946594238281e-01,9.621152877807617188e-01,9.620680212974548340e-01,9.620208144187927246e-01,9.619736075401306152e-01,9.619264006614685059e-01,9.618791937828063965e-01,9.618319869041442871e-01,9.617847800254821777e-01,9.617375731468200684e-01,9.616904258728027344e-01,9.616432189941406250e-01,9.615960717201232910e-01,9.615488648414611816e-01,9.615017175674438477e-01,9.614545106887817383e-01,9.614073634147644043e-01,9.613602161407470703e-01,9.613130688667297363e-01,9.612659215927124023e-01,9.612187743186950684e-01,9.611716270446777344e-01,9.611244797706604004e-01,9.610773921012878418e-01,9.610302448272705078e-01,9.609831571578979492e-01,9.609360098838806152e-01,9.608889222145080566e-01,9.608417749404907227e-01,9.607946872711181641e-01,9.607475996017456055e-01,9.607005119323730469e-01,9.606534242630004883e-01,9.606063365936279297e-01,9.605592489242553711e-01,9.605121612548828125e-01,9.604651331901550293e-01,9.604180455207824707e-01,9.603710174560546875e-01,9.603239297866821289e-01,9.602769017219543457e-01,9.602298140525817871e-01,9.601827859878540039e-01,9.601357579231262207e-01,9.600887298583984375e-01,9.600417017936706543e-01,9.599946737289428711e-01,9.599476456642150879e-01,9.599006175994873047e-01,9.598536491394042969e-01,9.598067402839660645e-01,9.597597122192382812e-01,9.597127437591552734e-01,9.596657752990722656e-01,9.596187472343444824e-01,9.595717787742614746e-01,9.595248103141784668e-01,9.594778418540954590e-01,9.594308733940124512e-01,9.593839049339294434e-01,9.593369364738464355e-01,9.592899680137634277e-01,9.592430591583251953e-01,9.591960906982421875e-01,9.591491222381591797e-01,9.591022133827209473e-01,9.590553045272827148e-01,9.590083360671997070e-01,9.589614272117614746e-01,9.589145183563232422e-01,9.588676095008850098e-01
9.103994369506835938e-01,9.103571772575378418e-01,9.103148579597473145e-01,9.102725982666015625e-01,9.102303385734558105e-01,9.101880788803100586e-01,9.101457595825195312e-01,9.101034998893737793e-01,9.100612401962280273e-01,9.100190401077270508e-01,9.099767804145812988e-01,9.099345207214355469e-01,9.098922610282897949e-01,9.098500013351440430e-01,9.098078012466430664e-01,9.097655415534973145e-01,9.097233414649963379e-01,9.096810817718505859e-01,9.096388816833496094e-01,9.095966815948486328e-01,9.095544815063476562e-01,9.095122814178466797e-01,9.094700217247009277e-01,9.094278216361999512e-01,9.093856811523437500e-01,9.093434810638427734e-01,9.093012809753417969e-01,9.092590808868408203e-01,9.092169404029846191e-01,9.091747403144836426e-01,9.091325402259826660e-01,9.090903997421264648e-01,9.090481996536254883e-01,9.090060591697692871e-01,9.089639186859130859e-01,9.089217782020568848e-01,9.088796377182006836e-01,9.088374376296997070e-01,9.087953567504882812e-01,9.087532162666320801e-01,9.087110757827758789e-01,9.086689352989196777e-01,9.086267948150634766e-01,9.085846543312072754e-01,9.085425734519958496e-01,9.085004329681396484e-01,9.084583520889282227e-01,9.084162116050720215e-01,9.083742499351501465e-01,9.083321094512939453e-01,9.082900285720825195e-01,9.082479476928710938e-01,9.082058668136596680e-01,9.081637859344482422e-01,9.081217050552368164e-01,9.080796241760253906e-01,9.080375432968139648e-01,9.079955220222473145e-01,9.079534411430358887e-01,9.079113602638244629e-01,9.078693389892578125e-01,9.078272581100463867e-01,9.077852368354797363e-01,9.077431559562683105e-01,9.077011346817016602e-01,9.076591134071350098e-01,9.076170921325683594e-01,9.075750112533569336e-01,9.075329899787902832e-01,9.074909687042236328e-01,9.074490070343017578e-01,9.074069857597351074e-01,9.073649644851684570e-01,9.073229432106018066e-01,9.072809815406799316e-01,9.072389602661132812e-01,9.071969389915466309e-01,9.071549773216247559e-01,9.071130156517028809e-01,9.070709943771362305e-01
8.635790348052978516e-01,8.635409474372863770e-01,8.635029196739196777e-01,8.634648919105529785e-01,8.634268641471862793e-01,8.633888363838195801e-01,8.633508086204528809e-01,8.633127808570861816e-01,8.632747530937194824e-01,8.632367253303527832e-01,8.631986975669860840e-01,8.631606698036193848e-01,8.631226420402526855e-01,8.630846738815307617e-01,8.630466461181640625e-01,8.630086183547973633e-01,8.629706501960754395e-01,8.629326224327087402e-01,8.628946542739868164e-01,8.628566861152648926e-01,8.628186583518981934e-01,8.627806901931762695e-01,8.627427220344543457e-01,8.627047538757324219e-01,8.626667857170104980e-01,8.626288175582885742e-01,8.625908493995666504e-01,8.625528812408447266e-01,8.625149130821228027e-01,8.624769449234008789e-01,8.624390363693237305e-01,8.624010682106018066e-01,8.623631000518798828e-01,8.623251914978027344e-01,8.622872233390808105e-01,8.622493147850036621e-01,8.622114062309265137e-01,8.621735572814941406e-01,8.621355891227722168e-01,8.620976805686950684e-01,8.620597720146179199e-01,8.620218634605407715e-01,8.619839549064636230e-01,8.619460463523864746e-01,8.619081377983093262e-01,8.618702292442321777e-01,8.618323206901550293e-01,8.617944121360778809e-01,8.617565631866455078e-01,8.617186546325683594e-01,8.616807460784912109e-01,8.616428971290588379e-01,8.616049885749816895e-01,8.615671396255493164e-01,8.615292906761169434e-01,8.614913821220397949e-01,8.614535331726074219e-01,8.614156842231750488e-01,8.613778352737426758e-01,8.613399863243103027e-01,8.613020777702331543e-01,8.612642288208007812e-01,8.612264394760131836e-01,8.611885905265808105e-01,8.611507415771484375e-01,8.611128926277160645e-01,8.610750436782836914e-01,8.610372543334960938e-01,8.609994053840637207e-01,8.609616160392761230e-01,8.609237670898437500e-01,8.608859777450561523e-01,8.608481287956237793e-01,8.608103394508361816e-01,8.607725501060485840e-01,8.607347011566162109e-01,8.606969118118286133e-01,8.606591224670410156e-01,8.606213331222534180e-01,8.605835437774658203e-01
8.213388323783874512e-01,8.213044404983520508e-01,8.212699890136718750e-01,8.212355971336364746e-01,8.212012052536010742e-01,8.211668133735656738e-01,8.211323618888854980e-01,8.210979700088500977e-01,8.210635781288146973e-01,8.210291862487792969e-01,8.209947943687438965e-01,8.209604024887084961e-01,8.209260106086730957e-01,8.208916187286376953e-01,8.208572864532470703e-01,8.208228945732116699e-01,8.207885026931762695e-01,8.207541704177856445e-01,8.207197785377502441e-01,8.206853866577148438e-01,8.206510543823242188e-01,8.206167221069335938e-01,8.205823302268981934e-01,8.205479979515075684e-01,8.205136060714721680e-01,8.204792737960815430e-01,8.204449415206909180e-01,8.204106688499450684e-01,8.203763365745544434e-01,8.203420042991638184e-01,8.203076720237731934e-01,8.202733397483825684e-01,8.202390074729919434e-01,8.202046751976013184e-01,8.201703429222106934e-01,8.201360702514648438e-01,8.201017379760742188e-01,8.200674057006835938e-01,8.200330734252929688e-01,8.199988007545471191e-01,8.199644684791564941e-01,8.199301958084106445e-01,8.198958635330200195e-01,8.198615908622741699e-01,8.198273181915283203e-01,8.197929859161376953e-01,8.197587132453918457e-01,8.197244405746459961e-01,8.196901679039001465e-01,8.196558952331542969e-01,8.196215629577636719e-01,8.195872902870178223e-01,8.195530772209167480e-01,8.195188045501708984e-01,8.194845318794250488e-01,8.194502592086791992e-01,8.194159865379333496e-01,8.193817138671875000e-01,8.193475008010864258e-01,8.193132281303405762e-01,8.192789554595947266e-01,8.192447423934936523e-01,8.192104697227478027e-01,8.191762566566467285e-01,8.191420435905456543e-01,8.191077709197998047e-01,8.190735578536987305e-01,8.190393447875976562e-01,8.190050721168518066e-01,8.189708590507507324e-01,8.189366459846496582e-01,8.189024329185485840e-01,8.188682198524475098e-01,8.188340067863464355e-01,8.187997937202453613e-01,8.187655806541442871e-01,8.187314271926879883e-01,8.186972141265869141e-01,8.186630010604858398e-01,8.186287879943847656e-01
7.830381989479064941e-01,7.830069065093994141e-01,7.829756140708923340e-01,7.829443216323852539e-01,7.829130887985229492e-01,7.828817963600158691e-01,7.828505039215087891e-01,7.828192710876464844e-01,7.827879786491394043e-01,7.827567458152770996e-01,7.827254533767700195e-01,7.826942205429077148e-01,7.826629281044006348e-01,7.826316952705383301e-01,7.826004624366760254e-01,7.825692296028137207e-01,7.825380563735961914e-01,7.825067639350891113e-01,7.824755311012268066e-01,7.824442982673645020e-01,7.824130654335021973e-01,7.823818325996398926e-01,7.823505997657775879e-01,7.823193669319152832e-01,7.822881340980529785e-01,7.822569012641906738e-01,7.822257280349731445e-01,7.821944952011108398e-01,7.821632623672485352e-01,7.821320295333862305e-01,7.821008563041687012e-01,7.820696234703063965e-01,7.820384502410888672e-01,7.820072174072265625e-01,7.819760441780090332e-01,7.819448113441467285e-01,7.819136381149291992e-01,7.818824648857116699e-01,7.818512320518493652e-01,7.818200588226318359e-01,7.817888855934143066e-01,7.817577123641967773e-01,7.817265391349792480e-01,7.816953659057617188e-01,7.816641926765441895e-01,7.816330194473266602e-01,7.816018462181091309e-01,7.815706729888916016e-01,7.815394997596740723e-01,7.815083265304565430e-01,7.814771533012390137e-01,7.814459800720214844e-01,7.814148664474487305e-01,7.813836932182312012e-01,7.813525199890136719e-01,7.813214063644409180e-01,7.812902331352233887e-01,7.812591195106506348e-01,7.812279462814331055e-01,7.811968326568603516e-01,7.811656594276428223e-01,7.811345458030700684e-01,7.811034321784973145e-01,7.810723185539245605e-01,7.810411453247070312e-01,7.810100317001342773e-01,7.809789180755615234e-01,7.809478044509887695e-01,7.809166908264160156e-01,7.808855772018432617e-01,7.808544635772705078e-01,7.808233499526977539e-01,7.807922363281250000e-01,7.807611227035522461e-01,7.807300686836242676e-01,7.806989550590515137e-01,7.806678414344787598e-01,7.806367278099060059e-01,7.806056737899780273e-01,7.805745601654052734e-01
7.481504082679748535e-01,7.481218576431274414e-01,7.480933070182800293e-01,7.480647563934326172e-01,7.480362057685852051e-01,7.480077147483825684e-01,7.479791641235351562e-01,7.479506134986877441e-01,7.479220628738403320e-01,7.478935718536376953e-01,7.478650212287902832e-01,7.478364706039428711e-01,7.478079199790954590e-01,7.477794289588928223e-01,7.477508783340454102e-01,7.477223277091979980e-01,7.476938366889953613e-01,7.476652860641479492e-01,7.476367950439453125e-01,7.476082444190979004e-01,7.475797533988952637e-01,7.475512623786926270e-01,7.475227117538452148e-01,7.474942207336425781e-01,7.474657297134399414e-01,7.474371790885925293e-01,7.474086880683898926e-01,7.473801970481872559e-01,7.473517060279846191e-01,7.473232150077819824e-01,7.472947239875793457e-01,7.472662329673767090e-01,7.472377419471740723e-01,7.472092509269714355e-01,7.471807599067687988e-01,7.471522688865661621e-01,7.471237778663635254e-01,7.470952868461608887e-01,7.470668554306030273e-01,7.470383644104003906e-01,7.470098733901977539e-01,7.469814419746398926e-01,7.469529509544372559e-01,7.469244599342346191e-01,7.468960285186767578e-01,7.468675374984741211e-01,7.468391060829162598e-01,7.468106150627136230e-01,7.467821836471557617e-01,7.467537522315979004e-01,7.467252612113952637e-01,7.466968297958374023e-01,7.466683983802795410e-01,7.466399669647216797e-01,7.466114759445190430e-01,7.465830445289611816e-01,7.465546131134033203e-01,7.465261816978454590e-01,7.464977502822875977e-01,7.464693188667297363e-01,7.464408874511718750e-01,7.464124560356140137e-01,7.463840246200561523e-01,7.463555932044982910e-01,7.463272213935852051e-01,7.462987899780273438e-01,7.462703585624694824e-01,7.462419271469116211e-01,7.462135553359985352e-01,7.461851239204406738e-01,7.461566925048828125e-01,7.461283206939697266e-01,7.460998892784118652e-01,7.460715174674987793e-01,7.460430860519409180e-01,7.460147142410278320e-01,7.459863424301147461e-01,7.459579110145568848e-01,7.459295392036437988e-01,7.459011673927307129e-01
7.162389159202575684e-01,7.162127494812011719e-01,7.161865830421447754e-01,7.161604166030883789e-01,7.161342501640319824e-01,7.161080837249755859e-01,7.160819172859191895e-01,7.160557508468627930e-01,7.160295844078063965e-01,7.160034179687500000e-01,7.159772515296936035e-01,7.159510850906372070e-01,7.159249782562255859e-01,7.158988118171691895e-01,7.158726453781127930e-01,7.158465385437011719e-01,7.158203721046447754e-01,7.157942056655883789e-01,7.157680988311767578e-01,7.157419323921203613e-01,7.157158255577087402e-01,7.156896591186523438e-01,7.156635522842407227e-01,7.156374454498291016e-01,7.156112790107727051e-01,7.155851721763610840e-01,7.155590653419494629e-01,7.155328989028930664e-01,7.155067920684814453e-01,7.154806852340698242e-01,7.154545783996582031e-01,7.154284119606018066e-01,7.154023051261901855e-01,7.153761982917785645e-01,7.153500914573669434e-01,7.153239846229553223e-01,7.152978777885437012e-01,7.152717709541320801e-01,7.152456641197204590e-01,7.152195572853088379e-01,7.151935100555419922e-01,7.151674032211303711e-01,7.151412963867187500e-01,7.151151895523071289e-01,7.150890827178955078e-01,7.150630354881286621e-01,7.150369286537170410e-01,7.150108814239501953e-01,7.149847745895385742e-01,7.149586677551269531e-01,7.149326205253601074e-01,7.149065136909484863e-01,7.148804664611816406e-01,7.148543596267700195e-01,7.148283123970031738e-01,7.148022651672363281e-01,7.147761583328247070e-01,7.147501111030578613e-01,7.147240638732910156e-01,7.146979570388793945e-01,7.146719098091125488e-01,7.146458625793457031e-01,7.146198153495788574e-01,7.145937681198120117e-01,7.145677208900451660e-01,7.145416736602783203e-01,7.145156264305114746e-01,7.144895792007446289e-01,7.144635319709777832e-01,7.144374847412109375e-01,7.144114375114440918e-01,7.143853902816772461e-01,7.143593430519104004e-01,7.143332958221435547e-01,7.143072485923767090e-01,7.142812609672546387e-01,7.142552137374877930e-01,7.142291665077209473e-01,7.142031788825988770e-01,7.141771316528320312e-01
6.869382858276367188e-01,6.869142055511474609e-01,6.868901252746582031e-01,6.868661046028137207e-01,6.868420243263244629e-01,6.868179440498352051e-01,6.867938637733459473e-01,6.867697834968566895e-01,6.867457628250122070e-01,6.867216825485229492e-01,6.866976022720336914e-01,6.866735816001892090e-01,6.866495013236999512e-01,6.866254210472106934e-01,6.866014003753662109e-01,6.865773200988769531e-01,6.865532994270324707e-01,6.865292191505432129e-01,6.865051984786987305e-01,6.864811778068542480e-01,6.864570975303649902e-01,6.864330768585205078e-01,6.864089965820312500e-01,6.863849759101867676e-01,6.863609552383422852e-01,6.863369345664978027e-01,6.863128542900085449e-01,6.862888336181640625e-01,6.862648129463195801e-01,6.862407922744750977e-01,6.862167716026306152e-01,6.861927509307861328e-01,6.861687302589416504e-01,6.861447095870971680e-01,6.861206889152526855e-01,6.860966682434082031e-01,6.860726475715637207e-01,6.860486268997192383e-01,6.860246062278747559e-01,6.860005855560302734e-01,6.859765648841857910e-01,6.859526038169860840e-01,6.859285831451416016e-01,6.859045624732971191e-01,6.858805418014526367e-01,6.858565807342529297e-01,6.858325600624084473e-01,6.858085989952087402e-01,6.857845783233642578e-01,6.857605576515197754e-01,6.857365965843200684e-01,6.857125759124755859e-01,6.856886148452758789e-01,6.856645941734313965e-01,6.856406331062316895e-01,6.856166720390319824e-01,6.855926513671875000e-01,6.855686902999877930e-01,6.855447292327880859e-01,6.855207085609436035e-01,6.854967474937438965e-01,6.854727864265441895e-01,6.854488253593444824e-01,6.854248046875000000e-01,6.854008436203002930e-01,6.853768825531005859e-01,6.853529214859008789e-01,6.853289604187011719e-01,6.853049993515014648e-01,6.852810978889465332e-01,6.852571368217468262e-01,6.852331757545471191e-01,6.852092146873474121e-01,6.851852536201477051e-01,6.851612925529479980e-01,6.851373910903930664e-01,6.851134300231933594e-01,6.850894689559936523e-01,6.850655078887939453e-01,6.850415468215942383e-01
6.599407792091369629e-01,6.599185466766357422e-01,6.598963141441345215e-01,6.598741412162780762e-01,6.598519086837768555e-01,6.598296761512756348e-01,6.598075032234191895e-01,6.597852706909179688e-01,6.597630381584167480e-01,6.597408652305603027e-01,6.597186326980590820e-01,6.596964597702026367e-01,6.596742272377014160e-01,6.596520543098449707e-01,6.596298217773437500e-01,6.596076488494873047e-01,6.595854163169860840e-01,6.595632433891296387e-01,6.595410704612731934e-01,6.595188379287719727e-01,6.594966650009155273e-01,6.594744920730590820e-01,6.594522595405578613e-01,6.594300866127014160e-01,6.594079136848449707e-01,6.593857407569885254e-01,6.593635678291320801e-01,6.593413352966308594e-01,6.593191623687744141e-01,6.592969894409179688e-01,6.592748165130615234e-01,6.592526435852050781e-01,6.592304706573486328e-01,6.592082977294921875e-01,6.591861248016357422e-01,6.591639518737792969e-01,6.591417789459228516e-01,6.591196060180664062e-01,6.590974926948547363e-01,6.590753197669982910e-01,6.590531468391418457e-01,6.590309739112854004e-01,6.590088009834289551e-01,6.589866876602172852e-01,6.589645147323608398e-01,6.589423418045043945e-01,6.589201688766479492e-01,6.588980555534362793e-01,6.588758826255798340e-01,6.588537693023681641e-01,6.588315963745117188e-01,6.588094830513000488e-01,6.587873101234436035e-01,6.587651968002319336e-01,6.587430238723754883e-01,6.587209105491638184e-01,6.586987376213073730e-01,6.586766242980957031e-01,6.586544513702392578e-01,6.586323976516723633e-01,6.586102843284606934e-01,6.585881114006042480e-01,6.585659980773925781e-01,6.585438847541809082e-01,6.585217714309692383e-01,6.584995985031127930e-01,6.584774851799011230e-01,6.584553718566894531e-01,6.584332585334777832e-01,6.584111452102661133e-01,6.583890318870544434e-01,6.583669185638427734e-01,6.583448052406311035e-01,6.583226919174194336e-01,6.583005785942077637e-01,6.582784652709960938e-01,6.582563519477844238e-01,6.582342386245727539e-01,6.582121253013610840e-01,6.581900119781494141e-01
6.349850893020629883e-01,6.349644660949707031e-01,6.349439024925231934e-01,6.349233388900756836e-01,6.349027752876281738e-01,6.348822116851806641e-01,6.348616480827331543e-01,6.348410844802856445e-01,6.348205208778381348e-01,6.347999572753906250e-01,6.347793936729431152e-01,6.347588300704956055e-01,6.347382664680480957e-01,6.347177624702453613e-01,6.346971988677978516e-01,6.346766352653503418e-01,6.346560716629028320e-01,6.346355080604553223e-01,6.346150040626525879e-01,6.345944404602050781e-01,6.345738768577575684e-01,6.345533132553100586e-01,6.345328092575073242e-01,6.345122456550598145e-01,6.344917416572570801e-01,6.344711780548095703e-01,6.344506144523620605e-01,6.344301104545593262e-01,6.344095468521118164e-01,6.343890428543090820e-01,6.343684792518615723e-01,6.343479752540588379e-01,6.343274116516113281e-01,6.343069076538085938e-01,6.342864036560058594e-01,6.342658400535583496e-01,6.342453360557556152e-01,6.342248320579528809e-01,6.342042684555053711e-01,6.341837644577026367e-01,6.341632604598999023e-01,6.341426968574523926e-01,6.341221928596496582e-01,6.341016888618469238e-01,6.340811848640441895e-01,6.340606808662414551e-01,6.340401768684387207e-01,6.340196132659912109e-01,6.339991688728332520e-01,6.339786648750305176e-01,6.339581608772277832e-01,6.339376568794250488e-01,6.339171528816223145e-01,6.338966488838195801e-01,6.338761448860168457e-01,6.338556408882141113e-01,6.338351368904113770e-01,6.338146924972534180e-01,6.337941884994506836e-01,6.337736845016479492e-01,6.337531805038452148e-01,6.337326765060424805e-01,6.337121725082397461e-01,6.336917281150817871e-01,6.336712241172790527e-01,6.336507201194763184e-01,6.336302161216735840e-01,6.336097717285156250e-01,6.335892677307128906e-01,6.335687637329101562e-01,6.335483193397521973e-01,6.335278153419494629e-01,6.335073709487915039e-01,6.334868669509887695e-01,6.334664225578308105e-01,6.334459185600280762e-01,6.334254741668701172e-01,6.334049701690673828e-01,6.333845257759094238e-01,6.333640813827514648e-01
6.118479967117309570e-01,6.118289232254028320e-01,6.118097901344299316e-01,6.117907166481018066e-01,6.117716431617736816e-01,6.117525100708007812e-01,6.117334365844726562e-01,6.117143630981445312e-01,6.116952300071716309e-01,6.116761565208435059e-01,6.116570830345153809e-01,6.116380095481872559e-01,6.116188764572143555e-01,6.115998029708862305e-01,6.115807294845581055e-01,6.115616559982299805e-01,6.115425825119018555e-01,6.115235090255737305e-01,6.115043759346008301e-01,6.114853024482727051e-01,6.114662289619445801e-01,6.114471554756164551e-01,6.114280819892883301e-01,6.114090085029602051e-01,6.113899350166320801e-01,6.113708615303039551e-01,6.113517880439758301e-01,6.113327145576477051e-01,6.113137006759643555e-01,6.112946271896362305e-01,6.112755537033081055e-01,6.112564802169799805e-01,6.112374067306518555e-01,6.112183332443237305e-01,6.111993193626403809e-01,6.111802458763122559e-01,6.111611723899841309e-01,6.111421585083007812e-01,6.111230850219726562e-01,6.111040711402893066e-01,6.110849976539611816e-01,6.110659241676330566e-01,6.110469102859497070e-01,6.110278367996215820e-01,6.110088229179382324e-01,6.109897494316101074e-01,6.109706759452819824e-01,6.109516620635986328e-01,6.109325885772705078e-01,6.109135746955871582e-01,6.108945012092590332e-01,6.108754873275756836e-01,6.108564734458923340e-01,6.108373999595642090e-01,6.108183860778808594e-01,6.107993125915527344e-01,6.107802987098693848e-01,6.107612848281860352e-01,6.107422113418579102e-01,6.107231974601745605e-01,6.107041835784912109e-01,6.106851696968078613e-01,6.106660962104797363e-01,6.106470823287963867e-01,6.106280684471130371e-01,6.106090545654296875e-01,6.105900406837463379e-01,6.105710268020629883e-01,6.105519533157348633e-01,6.105329394340515137e-01,6.105139255523681641e-01,6.104949116706848145e-01,6.104758977890014648e-01,6.104568839073181152e-01,6.104378700256347656e-01,6.104188561439514160e-01,6.103998422622680664e-01,6.103808283805847168e-01,6.103618144989013672e-01,6.103428602218627930e-01
