5.000000000000000000e+00,5.000000000000000000e+00,5.000000000000000000e+00,5.000000000000000000e+00,5.000000000000000000e+00,5.000000000000000000e+00,5.000000000000000000e+00,5.000000000000000000e+00,5.000000000000000000e+00,5.000000000000000000e+00,5.000000000000000000e+00,5.000000000000000000e+00,5.000000000000000000e+00,5.000000000000000000e+00,5.000000000000000000e+00,5.000000000000000000e+00,5.000000000000000000e+00,5.000000000000000000e+00,5.000000000000000000e+00,5.000000000000000000e+00,5.000000000000000000e+00,5.000000000000000000e+00,5.000000000000000000e+00,5.000000000000000000e+00,5.000000000000000000e+00,5.000000000000000000e+00,5.000000000000000000e+00,5.000000000000000000e+00,5.000000000000000000e+00,5.000000000000000000e+00,5.000000000000000000e+00,5.000000000000000000e+00,5.000000000000000000e+00,5.000000000000000000e+00,5.000000000000000000e+00,5.000000000000000000e+00,5.000000000000000000e+00,5.000000000000000000e+00,5.000000000000000000e+00,4.849321365356445312e+00,1.531875371932983398e+00,1.528069019317626953e+00,1.536255359649658203e+00,1.574767112731933594e+00,1.574656486511230469e+00,1.575778484344482422e+00,1.629435420036315918e+00,1.655855178833007812e+00,1.643075227737426758e+00,1.638632535934448242e+00,1.633737444877624512e+00,1.678297996520996094e+00,3.169870615005493164e+00,3.087615013122558594e+00,3.009520292282104492e+00,2.935278654098510742e+00,2.864611864089965820e+00,2.797267198562622070e+00,2.733016729354858398e+00,2.671651363372802734e+00,2.612981081008911133e+00,2.556832551956176758e+00,2.503046035766601562e+00,2.451475858688354492e+00,2.401988029479980469e+00,2.354458570480346680e+00,2.308773517608642578e+00,2.264827728271484375e+00,2.222523450851440430e+00,2.181770801544189453e+00,2.142485618591308594e+00,2.104590177536010742e+00,2.068011999130249023e+00,2.032683610916137695e+00,1.998541951179504395e+00,1.965528488159179688e+00,1.933587670326232910e+00,1.902668356895446777e+00,1.872722387313842773e+00,1.843704581260681152e+00
5.000000000000000000e+00,5.000000000000000000e+00,5.000000000000000000e+00,5.000000000000000000e+00,5.000000000000000000e+00,5.000000000000000000e+00,5.000000000000000000e+00,5.000000000000000000e+00,5.000000000000000000e+00,5.000000000000000000e+00,5.000000000000000000e+00,5.000000000000000000e+00,5.000000000000000000e+00,5.000000000000000000e+00,5.000000000000000000e+00,5.000000000000000000e+00,5.000000000000000000e+00,5.000000000000000000e+00,5.000000000000000000e+00,5.000000000000000000e+00,5.000000000000000000e+00,5.000000000000000000e+00,5.000000000000000000e+00,5.000000000000000000e+00,5.000000000000000000e+00,5.000000000000000000e+00,5.000000000000000000e+00,5.000000000000000000e+00,5.000000000000000000e+00,5.000000000000000000e+00,5.000000000000000000e+00,5.000000000000000000e+00,5.000000000000000000e+00,5.000000000000000000e+00,5.000000000000000000e+00,5.000000000000000000e+00,5.000000000000000000e+00,5.000000000000000000e+00,5.000000000000000000e+00,4.849458217620849609e+00,1.532115817070007324e+00,1.510726690292358398e+00,1.519095540046691895e+00,1.567009687423706055e+00,1.564591884613037109e+00,1.562251687049865723e+00,1.605528235435485840e+00,1.654274225234985352e+00,1.623896718025207520e+00,1.613960504531860352e+00,1.613731503486633301e+00,1.622708797454833984e+00,3.169929027557373047e+00,3.087670564651489258e+00,3.009573221206665039e+00,2.935328722000122070e+00,2.864659547805786133e+00,2.797312974929809570e+00,2.733060121536254883e+00,2.671692848205566406e+00,2.613020896911621094e+00,2.556870460510253906e+00,2.503082513809204102e+00,2.451510906219482422e+00,2.402021408081054688e+00,2.354490756988525391e+00,2.308804512023925781e+00,2.264857530593872070e+00,2.222552061080932617e+00,2.181798458099365234e+00,2.142512321472167969e+00,2.104615926742553711e+00,2.068036794662475586e+00,2.032707691192626953e+00,1.998565196990966797e+00,1.965550780296325684e+00,1.933609247207641602e+00,1.902689576148986816e+00,1.872742891311645508e+00,1.843724250793457031e+00
5.000000000000000000e+00,5.000000000000000000e+00,5.000000000000000000e+00,5.000000000000000000e+00,5.000000000000000000e+00,5.000000000000000000e+00,5.000000000000000000e+00,5.000000000000000000e+00,5.000000000000000000e+00,5.000000000000000000e+00,5.000000000000000000e+00,5.000000000000000000e+00,5.000000000000000000e+00,5.000000000000000000e+00,5.000000000000000000e+00,5.000000000000000000e+00,5.000000000000000000e+00,5.000000000000000000e+00,5.000000000000000000e+00,5.000000000000000000e+00,5.000000000000000000e+00,5.000000000000000000e+00,5.000000000000000000e+00,5.000000000000000000e+00,5.000000000000000000e+00,5.000000000000000000e+00,5.000000000000000000e+00,5.000000000000000000e+00,5.000000000000000000e+00,5.000000000000000000e+00,5.000000000000000000e+00,5.000000000000000000e+00,5.000000000000000000e+00,5.000000000000000000e+00,5.000000000000000000e+00,5.000000000000000000e+00,5.000000000000000000e+00,5.000000000000000000e+00,5.000000000000000000e+00,4.849595069885253906e+00,1.525166034698486328e+00,1.491136670112609863e+00,1.476151227951049805e+00,1.484133601188659668e+00,1.561214566230773926e+00,1.558729290962219238e+00,1.586903452873229980e+00,1.646872758865356445e+00,1.619855284690856934e+00,1.605603098869323730e+00,1.604715585708618164e+00,1.604185104370117188e+00,1.683371305465698242e+00,3.087725877761840820e+00,3.009625911712646484e+00,2.935379028320312500e+00,2.864707231521606445e+00,2.797358274459838867e+00,2.733103513717651367e+00,2.671734333038330078e+00,2.613060712814331055e+00,2.556908369064331055e+00,2.503118991851806641e+00,2.451545953750610352e+00,2.402055025100708008e+00,2.354523181915283203e+00,2.308835268020629883e+00,2.264887332916259766e+00,2.222581148147583008e+00,2.181826114654541016e+00,2.142539024353027344e+00,2.104641914367675781e+00,2.068061590194702148e+00,2.032731771469116211e+00,1.998588323593139648e+00,1.965573310852050781e+00,1.933631062507629395e+00,1.902710437774658203e+00,1.872763276100158691e+00,1.843744039535522461e+00
5.000000000000000000e+00,5.000000000000000000e+00,5.000000000000000000e+00,5.000000000000000000e+00,5.000000000000000000e+00,5.000000000000000000e+00,5.000000000000000000e+00,5.000000000000000000e+00,5.000000000000000000e+00,5.000000000000000000e+00,5.000000000000000000e+00,5.000000000000000000e+00,5.000000000000000000e+00,5.000000000000000000e+00,5.000000000000000000e+00,5.000000000000000000e+00,5.000000000000000000e+00,5.000000000000000000e+00,5.000000000000000000e+00,5.000000000000000000e+00,5.000000000000000000e+00,5.000000000000000000e+00,5.000000000000000000e+00,5.000000000000000000e+00,5.000000000000000000e+00,5.000000000000000000e+00,5.000000000000000000e+00,5.000000000000000000e+00,5.000000000000000000e+00,5.000000000000000000e+00,5.000000000000000000e+00,5.000000000000000000e+00,5.000000000000000000e+00,5.000000000000000000e+00,5.000000000000000000e+00,5.000000000000000000e+00,5.000000000000000000e+00,5.000000000000000000e+00,5.000000000000000000e+00,4.849731922149658203e+00,1.519223690032958984e+00,1.475956320762634277e+00,1.457438945770263672e+00,1.561951637268066406e+00,1.559058308601379395e+00,1.556175589561462402e+00,1.581469178199768066e+00,1.644081473350524902e+00,1.618704915046691895e+00,1.599163532257080078e+00,1.599174380302429199e+00,1.599021553993225098e+00,1.660368084907531738e+00,3.087781667709350586e+00,3.009678363800048828e+00,2.935429096221923828e+00,2.864755153656005859e+00,2.797403812408447266e+00,2.733147144317626953e+00,2.671775817871093750e+00,2.613100290298461914e+00,2.556946754455566406e+00,2.503155231475830078e+00,2.451581001281738281e+00,2.402088642120361328e+00,2.354555368423461914e+00,2.308866500854492188e+00,2.264917135238647461e+00,2.222609758377075195e+00,2.181854009628295898e+00,2.142565727233886719e+00,2.104667663574218750e+00,2.068086624145507812e+00,2.032755851745605469e+00,1.998611688613891602e+00,1.965595722198486328e+00,1.933652997016906738e+00,1.902731657028198242e+00,1.872783541679382324e+00,1.843763947486877441e+00
5.000000000000000000e+00,5.000000000000000000e+00,5.000000000000000000e+00,5.000000000000000000e+00,5.000000000000000000e+00,5.000000000000000000e+00,5.000000000000000000e+00,5.000000000000000000e+00,5.000000000000000000e+00,5.000000000000000000e+00,5.000000000000000000e+00,5.000000000000000000e+00,5.000000000000000000e+00,5.000000000000000000e+00,5.000000000000000000e+00,5.000000000000000000e+00,5.000000000000000000e+00,5.000000000000000000e+00,5.000000000000000000e+00,5.000000000000000000e+00,5.000000000000000000e+00,5.000000000000000000e+00,5.000000000000000000e+00,5.000000000000000000e+00,5.000000000000000000e+00,5.000000000000000000e+00,5.000000000000000000e+00,5.000000000000000000e+00,5.000000000000000000e+00,5.000000000000000000e+00,5.000000000000000000e+00,5.000000000000000000e+00,5.000000000000000000e+00,5.000000000000000000e+00,5.000000000000000000e+00,5.000000000000000000e+00,5.000000000000000000e+00,5.000000000000000000e+00,5.000000000000000000e+00,4.849868774414062500e+00,1.514665961265563965e+00,1.468702197074890137e+00,1.571522116661071777e+00,1.560954689979553223e+00,1.465818881988525391e+00,1.555095553398132324e+00,1.580742597579956055e+00,1.643026471138000488e+00,1.616728663444519043e+00,1.591715216636657715e+00,1.594043016433715820e+00,1.593891024589538574e+00,1.642122387886047363e+00,3.087836980819702148e+00,3.009731292724609375e+00,2.935479164123535156e+00,2.864802837371826172e+00,2.797449350357055664e+00,2.733190536499023438e+00,2.671817541122436523e+00,2.613140106201171875e+00,2.556984663009643555e+00,2.503191947937011719e+00,2.451615810394287109e+00,2.402122259140014648e+00,2.354587554931640625e+00,2.308897495269775391e+00,2.264947175979614258e+00,2.222638368606567383e+00,2.181881666183471680e+00,2.142592668533325195e+00,2.104693412780761719e+00,2.068111419677734375e+00,2.032779693603515625e+00,1.998635053634643555e+00,1.965618252754211426e+00,1.933674573898315430e+00,1.902752757072448730e+00,1.872804045677185059e+00,1.843783617019653320e+00
5.000000000000000000e+00,5.000000000000000000e+00,5.000000000000000000e+00,5.000000000000000000e+00,5.000000000000000000e+00,5.000000000000000000e+00,5.000000000000000000e+00,5.000000000000000000e+00,5.000000000000000000e+00,5.000000000000000000e+00,5.000000000000000000e+00,5.000000000000000000e+00,5.000000000000000000e+00,5.000000000000000000e+00,5.000000000000000000e+00,5.000000000000000000e+00,5.000000000000000000e+00,5.000000000000000000e+00,5.000000000000000000e+00,5.000000000000000000e+00,5.000000000000000000e+00,5.000000000000000000e+00,5.000000000000000000e+00,5.000000000000000000e+00,5.000000000000000000e+00,5.000000000000000000e+00,5.000000000000000000e+00,5.000000000000000000e+00,5.000000000000000000e+00,5.000000000000000000e+00,5.000000000000000000e+00,5.000000000000000000e+00,5.000000000000000000e+00,5.000000000000000000e+00,5.000000000000000000e+00,5.000000000000000000e+00,5.000000000000000000e+00,5.000000000000000000e+00,5.000000000000000000e+00,4.850005626678466797e+00,1.513651490211486816e+00,1.474451899528503418e+00,1.451886177062988281e+00,1.420984983444213867e+00,1.556891798973083496e+00,1.554017186164855957e+00,1.581085085868835449e+00,1.643481850624084473e+00,1.614704132080078125e+00,1.588917255401611328e+00,1.586727976799011230e+00,1.588793396949768066e+00,1.627032518386840820e+00,3.087892532348632812e+00,3.009783983230590820e+00,2.935529470443725586e+00,2.864850521087646484e+00,2.797495126724243164e+00,2.733233928680419922e+00,2.671859025955200195e+00,2.613179922103881836e+00,2.557022571563720703e+00,2.503228425979614258e+00,2.451650857925415039e+00,2.402155876159667969e+00,2.354619979858398438e+00,2.308928489685058594e+00,2.264976978302001953e+00,2.222667217254638672e+00,2.181909322738647461e+00,2.142619132995605469e+00,2.104719161987304688e+00,2.068136453628540039e+00,2.032804012298583984e+00,1.998658061027526855e+00,1.965640902519226074e+00,1.933696389198303223e+00,1.902773737907409668e+00,1.872824549674987793e+00,1.843803405761718750e+00
5.000000000000000000e+00,5.000000000000000000e+00,5.000000000000000000e+00,5.000000000000000000e+00,5.000000000000000000e+00,5.000000000000000000e+00,5.000000000000000000e+00,5.000000000000000000e+00,5.000000000000000000e+00,5.000000000000000000e+00,5.000000000000000000e+00,5.000000000000000000e+00,5.000000000000000000e+00,5.000000000000000000e+00,5.000000000000000000e+00,5.000000000000000000e+00,5.000000000000000000e+00,5.000000000000000000e+00,5.000000000000000000e+00,5.000000000000000000e+00,5.000000000000000000e+00,5.000000000000000000e+00,5.000000000000000000e+00,5.000000000000000000e+00,5.000000000000000000e+00,5.000000000000000000e+00,5.000000000000000000e+00,5.000000000000000000e+00,5.000000000000000000e+00,5.000000000000000000e+00,5.000000000000000000e+00,5.000000000000000000e+00,5.000000000000000000e+00,5.000000000000000000e+00,5.000000000000000000e+00,5.000000000000000000e+00,5.000000000000000000e+00,5.000000000000000000e+00,5.000000000000000000e+00,4.850142478942871094e+00,4.660183906555175781e+00,1.459993600845336914e+00,1.429580330848693848e+00,1.560675978660583496e+00,1.556383132934570312e+00,1.552940130233764648e+00,1.580110549926757812e+00,1.644817709922790527e+00,1.612582325935363770e+00,1.586851000785827637e+00,1.579394698143005371e+00,1.581771969795227051e+00,1.612298727035522461e+00,3.087948083877563477e+00,3.009836673736572266e+00,2.935579538345336914e+00,2.864898204803466797e+00,2.797540426254272461e+00,2.733277559280395508e+00,2.671900510787963867e+00,2.613219738006591797e+00,2.557060956954956055e+00,2.503264665603637695e+00,2.451685905456542969e+00,2.402189254760742188e+00,2.354652166366577148e+00,2.308959722518920898e+00,2.265006780624389648e+00,2.222696065902709961e+00,2.181936979293823242e+00,2.142645835876464844e+00,2.104744911193847656e+00,2.068161249160766602e+00,2.032827854156494141e+00,1.998681426048278809e+00,1.965663194656372070e+00,1.933718204498291016e+00,1.902794837951660156e+00,1.872844815254211426e+00,1.843823313713073730e+00
5.000000000000000000e+00,5.000000000000000000e+00,5.000000000000000000e+00,5.000000000000000000e+00,5.000000000000000000e+00,5.000000000000000000e+00,5.000000000000000000e+00,5.000000000000000000e+00,5.000000000000000000e+00,5.000000000000000000e+00,5.000000000000000000e+00,5.000000000000000000e+00,5.000000000000000000e+00,5.000000000000000000e+00,5.000000000000000000e+00,5.000000000000000000e+00,5.000000000000000000e+00,5.000000000000000000e+00,5.000000000000000000e+00,5.000000000000000000e+00,5.000000000000000000e+00,5.000000000000000000e+00,5.000000000000000000e+00,5.000000000000000000e+00,5.000000000000000000e+00,5.000000000000000000e+00,5.000000000000000000e+00,5.000000000000000000e+00,5.000000000000000000e+00,5.000000000000000000e+00,5.000000000000000000e+00,5.000000000000000000e+00,5.000000000000000000e+00,5.000000000000000000e+00,5.000000000000000000e+00,5.000000000000000000e+00,5.000000000000000000e+00,5.000000000000000000e+00,5.000000000000000000e+00,4.850279808044433594e+00,4.660310268402099609e+00,1.646214246749877930e+00,1.588277697563171387e+00,1.560536623001098633e+00,1.556244730949401855e+00,1.551976084709167480e+00,1.578060150146484375e+00,1.647554516792297363e+00,1.610338330268859863e+00,1.583565115928649902e+00,1.572877526283264160e+00,1.575537323951721191e+00,1.584090113639831543e+00,3.088003635406494141e+00,3.009889364242553711e+00,2.935629844665527344e+00,2.864946126937866211e+00,2.797585964202880859e+00,2.733320951461791992e+00,2.671942234039306641e+00,2.613259315490722656e+00,2.557098865509033203e+00,2.503301143646240234e+00,2.451720714569091797e+00,2.402223110198974609e+00,2.354684352874755859e+00,2.308990716934204102e+00,2.265036821365356445e+00,2.222724676132202148e+00,2.181964874267578125e+00,2.142672538757324219e+00,2.104770660400390625e+00,2.068186283111572266e+00,2.032851934432983398e+00,1.998704791069030762e+00,1.965685725212097168e+00,1.933739900588989258e+00,1.902815937995910645e+00,1.872865319252014160e+00,1.843842983245849609e+00
5.000000000000000000e+00,5.000000000000000000e+00,5.000000000000000000e+00,5.000000000000000000e+00,5.000000000000000000e+00,5.000000000000000000e+00,5.000000000000000000e+00,5.000000000000000000e+00,5.000000000000000000e+00,5.000000000000000000e+00,5.000000000000000000e+00,5.000000000000000000e+00,5.000000000000000000e+00,5.000000000000000000e+00,5.000000000000000000e+00,5.000000000000000000e+00,5.000000000000000000e+00,5.000000000000000000e+00,5.000000000000000000e+00,5.000000000000000000e+00,5.000000000000000000e+00,5.000000000000000000e+00,5.000000000000000000e+00,5.000000000000000000e+00,5.000000000000000000e+00,5.000000000000000000e+00,5.000000000000000000e+00,5.000000000000000000e+00,5.000000000000000000e+00,5.000000000000000000e+00,5.000000000000000000e+00,5.000000000000000000e+00,5.000000000000000000e+00,5.000000000000000000e+00,5.000000000000000000e+00,5.000000000000000000e+00,5.000000000000000000e+00,5.000000000000000000e+00,5.000000000000000000e+00,4.850416183471679688e+00,4.660436630249023438e+00,1.656739950180053711e+00,1.594483256340026855e+00,1.558749318122863770e+00,1.554457068443298340e+00,1.550308227539062500e+00,1.576821208000183105e+00,1.654049277305603027e+00,1.605955839157104492e+00,1.579641819000244141e+00,1.563052535057067871e+00,1.569358110427856445e+00,1.571858406066894531e+00,3.088058948516845703e+00,3.009942293167114258e+00,2.935679912567138672e+00,2.864993810653686523e+00,2.797631740570068359e+00,2.733364343643188477e+00,2.671983718872070312e+00,2.613299131393432617e+00,2.557136774063110352e+00,2.503337860107421875e+00,2.451755762100219727e+00,2.402256488800048828e+00,2.354716777801513672e+00,2.309021711349487305e+00,2.265066623687744141e+00,2.222753524780273438e+00,2.181992530822753906e+00,2.142699480056762695e+00,2.104796409606933594e+00,2.068211078643798828e+00,2.032876014709472656e+00,1.998727917671203613e+00,1.965708374977111816e+00,1.933761715888977051e+00,1.902836918830871582e+00,1.872885823249816895e+00,1.843862891197204590e+00
5.000000000000000000e+00,5.000000000000000000e+00,5.000000000000000000e+00,5.000000000000000000e+00,5.000000000000000000e+00,5.000000000000000000e+00,5.000000000000000000e+00,5.000000000000000000e+00,5.000000000000000000e+00,5.000000000000000000e+00,5.000000000000000000e+00,5.000000000000000000e+00,5.000000000000000000e+00,5.000000000000000000e+00,5.000000000000000000e+00,5.000000000000000000e+00,5.000000000000000000e+00,5.000000000000000000e+00,5.000000000000000000e+00,5.000000000000000000e+00,5.000000000000000000e+00,5.000000000000000000e+00,5.000000000000000000e+00,5.000000000000000000e+00,5.000000000000000000e+00,5.000000000000000000e+00,5.000000000000000000e+00,5.000000000000000000e+00,5.000000000000000000e+00,5.000000000000000000e+00,5.000000000000000000e+00,5.000000000000000000e+00,5.000000000000000000e+00,5.000000000000000000e+00,5.000000000000000000e+00,5.000000000000000000e+00,5.000000000000000000e+00,5.000000000000000000e+00,5.000000000000000000e+00,4.850553512573242188e+00,4.660562992095947266e+00,4.484895229339599609e+00,1.601052641868591309e+00,1.559262871742248535e+00,1.552491426467895508e+00,1.548353075981140137e+00,1.576656699180603027e+00,1.660572528839111328e+00,1.601597189903259277e+00,1.577262639999389648e+00,1.558643221855163574e+00,1.560188889503479004e+00,1.565707921981811523e+00,3.088114261627197266e+00,3.009994745254516602e+00,2.935730218887329102e+00,2.865041494369506836e+00,2.797677278518676758e+00,2.733407974243164062e+00,2.672025203704833984e+00,2.613338947296142578e+00,2.557174921035766602e+00,2.503374338150024414e+00,2.451790809631347656e+00,2.402290105819702148e+00,2.354748964309692383e+00,2.309052705764770508e+00,2.265096426010131836e+00,2.222782373428344727e+00,2.182020187377929688e+00,2.142726182937622070e+00,2.104822397232055664e+00,2.068235874176025391e+00,2.032900094985961914e+00,1.998751163482666016e+00,1.965730667114257812e+00,1.933783531188964844e+00,1.902858018875122070e+00,1.872906088829040527e+00,1.843882679939270020e+00
5.000000000000000000e+00,5.000000000000000000e+00,5.000000000000000000e+00,5.000000000000000000e+00,5.000000000000000000e+00,5.000000000000000000e+00,5.000000000000000000e+00,5.000000000000000000e+00,5.000000000000000000e+00,5.000000000000000000e+00,5.000000000000000000e+00,5.000000000000000000e+00,5.000000000000000000e+00,5.000000000000000000e+00,5.000000000000000000e+00,5.000000000000000000e+00,5.000000000000000000e+00,5.000000000000000000e+00,5.000000000000000000e+00,5.000000000000000000e+00,5.000000000000000000e+00,5.000000000000000000e+00,5.000000000000000000e+00,5.000000000000000000e+00,5.000000000000000000e+00,5.000000000000000000e+00,5.000000000000000000e+00,5.000000000000000000e+00,5.000000000000000000e+00,5.000000000000000000e+00,5.000000000000000000e+00,5.000000000000000000e+00,5.000000000000000000e+00,5.000000000000000000e+00,5.000000000000000000e+00,5.000000000000000000e+00,5.000000000000000000e+00,5.000000000000000000e+00,5.000000000000000000e+00,4.850690364837646484e+00,4.660689353942871094e+00,4.485012531280517578e+00,1.610160589218139648e+00,1.561415433883666992e+00,1.550531029701232910e+00,1.546402812004089355e+00,1.575393557548522949e+00,3.657770395278930664e+00,1.600790023803710938e+00,1.574890494346618652e+00,1.556326746940612793e+00,1.550521254539489746e+00,1.557335734367370605e+00,3.088170051574707031e+00,3.010047435760498047e+00,2.935780286788940430e+00,2.865089416503906250e+00,2.797722816467285156e+00,2.733451366424560547e+00,2.672066926956176758e+00,2.613378524780273438e+00,2.557213068008422852e+00,2.503410577774047852e+00,2.451825857162475586e+00,2.402323722839355469e+00,2.354781150817871094e+00,2.309083700180053711e+00,2.265126228332519531e+00,2.222810983657836914e+00,2.182047843933105469e+00,2.142752885818481445e+00,2.104848146438598633e+00,2.068260908126831055e+00,2.032924175262451172e+00,1.998774528503417969e+00,1.965753197669982910e+00,1.933805227279663086e+00,1.902879238128662109e+00,1.872926592826843262e+00,1.843902349472045898e+00
5.000000000000000000e+00,5.000000000000000000e+00,5.000000000000000000e+00,5.000000000000000000e+00,5.000000000000000000e+00,5.000000000000000000e+00,5.000000000000000000e+00,5.000000000000000000e+00,5.000000000000000000e+00,5.000000000000000000e+00,5.000000000000000000e+00,5.000000000000000000e+00,5.000000000000000000e+00,5.000000000000000000e+00,5.000000000000000000e+00,5.000000000000000000e+00,5.000000000000000000e+00,5.000000000000000000e+00,5.000000000000000000e+00,5.000000000000000000e+00,5.000000000000000000e+00,5.000000000000000000e+00,5.000000000000000000e+00,5.000000000000000000e+00,5.000000000000000000e+00,5.000000000000000000e+00,5.000000000000000000e+00,5.000000000000000000e+00,5.000000000000000000e+00,5.000000000000000000e+00,5.000000000000000000e+00,5.000000000000000000e+00,5.000000000000000000e+00,5.000000000000000000e+00,5.000000000000000000e+00,5.000000000000000000e+00,5.000000000000000000e+00,5.000000000000000000e+00,5.000000000000000000e+00,4.850827217102050781e+00,4.660815715789794922e+00,4.485129833221435547e+00,1.622214317321777344e+00,1.567903041839599609e+00,1.550241112709045410e+00,1.544457435607910156e+00,1.572168946266174316e+00,3.657848119735717773e+00,1.616220235824584961e+00,1.571810722351074219e+00,1.553946495056152344e+00,1.544287562370300293e+00,1.552226662635803223e+00,3.088225603103637695e+00,3.010100364685058594e+00,2.935830354690551758e+00,2.865137100219726562e+00,2.797768354415893555e+00,2.733494997024536133e+00,2.672108411788940430e+00,2.613418340682983398e+00,2.557250976562500000e+00,2.503447294235229492e+00,2.451860666275024414e+00,2.402357339859008789e+00,2.354813575744628906e+00,2.309114694595336914e+00,2.265156030654907227e+00,2.222839832305908203e+00,2.182075500488281250e+00,2.142779588699340820e+00,2.104873895645141602e+00,2.068285703659057617e+00,2.032948255538940430e+00,1.998797655105590820e+00,1.965775847434997559e+00,1.933827042579650879e+00,1.902900099754333496e+00,1.872947096824645996e+00,1.843922257423400879e+00
5.000000000000000000e+00,5.000000000000000000e+00,5.000000000000000000e+00,5.000000000000000000e+00,5.000000000000000000e+00,5.000000000000000000e+00,5.000000000000000000e+00,5.000000000000000000e+00,5.000000000000000000e+00,5.000000000000000000e+00,5.000000000000000000e+00,5.000000000000000000e+00,5.000000000000000000e+00,5.000000000000000000e+00,5.000000000000000000e+00,5.000000000000000000e+00,5.000000000000000000e+00,5.000000000000000000e+00,5.000000000000000000e+00,5.000000000000000000e+00,5.000000000000000000e+00,5.000000000000000000e+00,5.000000000000000000e+00,5.000000000000000000e+00,5.000000000000000000e+00,5.000000000000000000e+00,5.000000000000000000e+00,5.000000000000000000e+00,5.000000000000000000e+00,5.000000000000000000e+00,5.000000000000000000e+00,5.000000000000000000e+00,5.000000000000000000e+00,5.000000000000000000e+00,5.000000000000000000e+00,5.000000000000000000e+00,5.000000000000000000e+00,5.000000000000000000e+00,5.000000000000000000e+00,4.850964069366455078e+00,4.660942554473876953e+00,4.485246658325195312e+00,1.629433870315551758e+00,1.574444651603698730e+00,1.550749063491821289e+00,1.544215559959411621e+00,1.568957448005676270e+00,3.657926321029663086e+00,1.633142709732055664e+00,1.572623014450073242e+00,1.554976820945739746e+00,1.545363545417785645e+00,1.552048444747924805e+00,3.088280916213989258e+00,3.010153055191040039e+00,2.935880661010742188e+00,2.865184783935546875e+00,2.797813892364501953e+00,2.733538389205932617e+00,2.672149896621704102e+00,2.613458156585693359e+00,2.557289123535156250e+00,2.503483772277832031e+00,2.451895713806152344e+00,2.402390956878662109e+00,2.354845762252807617e+00,2.309145689010620117e+00,2.265186071395874023e+00,2.222868680953979492e+00,2.182103157043457031e+00,2.142806291580200195e+00,2.104899644851684570e+00,2.068310737609863281e+00,2.032972335815429688e+00,1.998821020126342773e+00,1.965798139572143555e+00,1.933848857879638672e+00,1.902921319007873535e+00,1.872967362403869629e+00,1.843942046165466309e+00
5.000000000000000000e+00,5.000000000000000000e+00,5.000000000000000000e+00,5.000000000000000000e+00,5.000000000000000000e+00,5.000000000000000000e+00,5.000000000000000000e+00,5.000000000000000000e+00,5.000000000000000000e+00,5.000000000000000000e+00,5.000000000000000000e+00,5.000000000000000000e+00,5.000000000000000000e+00,5.000000000000000000e+00,5.000000000000000000e+00,5.000000000000000000e+00,5.000000000000000000e+00,5.000000000000000000e+00,5.000000000000000000e+00,5.000000000000000000e+00,5.000000000000000000e+00,5.000000000000000000e+00,5.000000000000000000e+00,5.000000000000000000e+00,5.000000000000000000e+00,5.000000000000000000e+00,5.000000000000000000e+00,5.000000000000000000e+00,5.000000000000000000e+00,5.000000000000000000e+00,5.000000000000000000e+00,5.000000000000000000e+00,5.000000000000000000e+00,5.000000000000000000e+00,5.000000000000000000e+00,5.000000000000000000e+00,5.000000000000000000e+00,5.000000000000000000e+00,5.000000000000000000e+00,4.851100921630859375e+00,4.661068916320800781e+00,4.485363960266113281e+00,4.322423934936523438e+00,1.581660866737365723e+00,1.553348302841186523e+00,1.548181056976318359e+00,1.570660829544067383e+00,3.658004045486450195e+00,1.627714276313781738e+00,1.577963829040527344e+00,1.559635758399963379e+00,1.554665327072143555e+00,1.560163140296936035e+00,3.088336706161499023e+00,3.010205745697021484e+00,2.935930728912353516e+00,2.865232706069946289e+00,2.797859430313110352e+00,2.733582019805908203e+00,2.672191381454467773e+00,2.613497972488403320e+00,2.557327270507812500e+00,2.503520011901855469e+00,2.451930761337280273e+00,2.402424573898315430e+00,2.354877948760986328e+00,2.309176921844482422e+00,2.265215873718261719e+00,2.222897291183471680e+00,2.182131052017211914e+00,2.142832994461059570e+00,2.104925394058227539e+00,2.068335533142089844e+00,2.032996177673339844e+00,1.998844265937805176e+00,1.965820670127868652e+00,1.933870553970336914e+00,1.902942419052124023e+00,1.872987866401672363e+00,1.843961715698242188e+00
5.000000000000000000e+00,5.000000000000000000e+00,5.000000000000000000e+00,5.000000000000000000e+00,5.000000000000000000e+00,5.000000000000000000e+00,5.000000000000000000e+00,5.000000000000000000e+00,5.000000000000000000e+00,5.000000000000000000e+00,5.000000000000000000e+00,5.000000000000000000e+00,5.000000000000000000e+00,5.000000000000000000e+00,5.000000000000000000e+00,5.000000000000000000e+00,5.000000000000000000e+00,5.000000000000000000e+00,5.000000000000000000e+00,5.000000000000000000e+00,5.000000000000000000e+00,5.000000000000000000e+00,5.000000000000000000e+00,5.000000000000000000e+00,5.000000000000000000e+00,5.000000000000000000e+00,5.000000000000000000e+00,5.000000000000000000e+00,5.000000000000000000e+00,5.000000000000000000e+00,5.000000000000000000e+00,5.000000000000000000e+00,5.000000000000000000e+00,5.000000000000000000e+00,5.000000000000000000e+00,5.000000000000000000e+00,5.000000000000000000e+00,5.000000000000000000e+00,5.000000000000000000e+00,4.851238250732421875e+00,4.661195278167724609e+00,1.688961386680603027e+00,1.631556391716003418e+00,1.585897088050842285e+00,1.559521675109863281e+00,1.558127164840698242e+00,1.578628540039062500e+00,3.658081769943237305e+00,1.604756832122802734e+00,1.585804820060729980e+00,1.567065238952636719e+00,1.566218852996826172e+00,1.571798801422119141e+00,3.088392019271850586e+00,3.010258674621582031e+00,2.935980796813964844e+00,2.865280628204345703e+00,2.797904968261718750e+00,2.733625411987304688e+00,2.672233104705810547e+00,2.613537549972534180e+00,2.557365179061889648e+00,2.503556728363037109e+00,2.451965808868408203e+00,2.402458190917968750e+00,2.354910135269165039e+00,2.309207916259765625e+00,2.265245676040649414e+00,2.222925901412963867e+00,2.182158708572387695e+00,2.142859697341918945e+00,2.104951143264770508e+00,2.068360567092895508e+00,2.033020257949829102e+00,1.998867392539978027e+00,1.965843319892883301e+00,1.933892369270324707e+00,1.902963399887084961e+00,1.873008370399475098e+00,1.843981623649597168e+00
5.000000000000000000e+00,5.000000000000000000e+00,5.000000000000000000e+00,5.000000000000000000e+00,5.000000000000000000e+00,5.000000000000000000e+00,5.000000000000000000e+00,5.000000000000000000e+00,5.000000000000000000e+00,5.000000000000000000e+00,5.000000000000000000e+00,5.000000000000000000e+00,5.000000000000000000e+00,5.000000000000000000e+00,5.000000000000000000e+00,5.000000000000000000e+00,5.000000000000000000e+00,5.000000000000000000e+00,5.000000000000000000e+00,5.000000000000000000e+00,5.000000000000000000e+00,5.000000000000000000e+00,5.000000000000000000e+00,5.000000000000000000e+00,5.000000000000000000e+00,5.000000000000000000e+00,5.000000000000000000e+00,5.000000000000000000e+00,5.000000000000000000e+00,5.000000000000000000e+00,5.000000000000000000e+00,5.000000000000000000e+00,5.000000000000000000e+00,5.000000000000000000e+00,5.000000000000000000e+00,5.000000000000000000e+00,5.000000000000000000e+00,5.000000000000000000e+00,5.000000000000000000e+00,4.851375102996826172e+00,4.661321640014648438e+00,1.669618248939514160e+00,1.629580497741699219e+00,1.592495918273925781e+00,1.570400238037109375e+00,1.578087925910949707e+00,3.774194478988647461e+00,3.658159971237182617e+00,1.612867116928100586e+00,1.590273976325988770e+00,1.579670906066894531e+00,1.577945351600646973e+00,3.170748472213745117e+00,3.088447570800781250e+00,3.010311365127563477e+00,2.936031341552734375e+00,2.865328311920166016e+00,2.797950744628906250e+00,2.733668804168701172e+00,2.672274589538574219e+00,2.613577365875244141e+00,2.557403326034545898e+00,2.503593206405639648e+00,2.452000856399536133e+00,2.402491807937622070e+00,2.354942560195922852e+00,2.309238910675048828e+00,2.265275478363037109e+00,2.222954988479614258e+00,2.182186365127563477e+00,2.142886400222778320e+00,2.104977130889892578e+00,2.068385362625122070e+00,2.033044338226318359e+00,1.998890757560729980e+00,1.965865612030029297e+00,1.933914184570312500e+00,1.902984499931335449e+00,1.873028635978698730e+00,1.844001412391662598e+00
5.000000000000000000e+00,5.000000000000000000e+00,5.000000000000000000e+00,5.000000000000000000e+00,5.000000000000000000e+00,5.000000000000000000e+00,5.000000000000000000e+00,5.000000000000000000e+00,5.000000000000000000e+00,5.000000000000000000e+00,5.000000000000000000e+00,5.000000000000000000e+00,5.000000000000000000e+00,5.000000000000000000e+00,5.000000000000000000e+00,5.000000000000000000e+00,5.000000000000000000e+00,5.000000000000000000e+00,5.000000000000000000e+00,5.000000000000000000e+00,5.000000000000000000e+00,5.000000000000000000e+00,5.000000000000000000e+00,5.000000000000000000e+00,5.000000000000000000e+00,5.000000000000000000e+00,5.000000000000000000e+00,5.000000000000000000e+00,5.000000000000000000e+00,5.000000000000000000e+00,5.000000000000000000e+00,5.000000000000000000e+00,5.000000000000000000e+00,5.000000000000000000e+00,5.000000000000000000e+00,5.000000000000000000e+00,5.000000000000000000e+00,5.000000000000000000e+00,5.000000000000000000e+00,4.851511955261230469e+00,1.723343729972839355e+00,1.683341383934020996e+00,1.646122455596923828e+00,1.624237656593322754e+00,1.601445078849792480e+00,3.897920370101928711e+00,3.774277448654174805e+00,1.678778648376464844e+00,1.618309140205383301e+00,1.596912384033203125e+00,1.592481374740600586e+00,1.589848875999450684e+00,3.170806884765625000e+00,3.088503122329711914e+00,3.010364055633544922e+00,2.936081409454345703e+00,2.865375995635986328e+00,2.797996282577514648e+00,2.733712434768676758e+00,2.672316074371337891e+00,2.613617181777954102e+00,2.557441473007202148e+00,2.503629446029663086e+00,2.452035665512084961e+00,2.402525186538696289e+00,2.354974746704101562e+00,2.309269905090332031e+00,2.265305519104003906e+00,2.222983598709106445e+00,2.182214260101318359e+00,2.142913103103637695e+00,2.105002880096435547e+00,2.068410158157348633e+00,2.033068418502807617e+00,1.998914122581481934e+00,1.965888261795043945e+00,1.933935761451721191e+00,1.903005719184875488e+00,1.873049139976501465e+00,1.844021081924438477e+00
5.000000000000000000e+00,5.000000000000000000e+00,5.000000000000000000e+00,5.000000000000000000e+00,5.000000000000000000e+00,5.000000000000000000e+00,5.000000000000000000e+00,5.000000000000000000e+00,5.000000000000000000e+00,5.000000000000000000e+00,5.000000000000000000e+00,5.000000000000000000e+00,5.000000000000000000e+00,5.000000000000000000e+00,5.000000000000000000e+00,5.000000000000000000e+00,5.000000000000000000e+00,5.000000000000000000e+00,5.000000000000000000e+00,5.000000000000000000e+00,5.000000000000000000e+00,5.000000000000000000e+00,5.000000000000000000e+00,5.000000000000000000e+00,5.000000000000000000e+00,5.000000000000000000e+00,5.000000000000000000e+00,5.000000000000000000e+00,5.000000000000000000e+00,5.000000000000000000e+00,5.000000000000000000e+00,5.000000000000000000e+00,5.000000000000000000e+00,5.000000000000000000e+00,5.000000000000000000e+00,5.000000000000000000e+00,5.000000000000000000e+00,5.000000000000000000e+00,5.000000000000000000e+00,4.851649284362792969e+00,1.742745161056518555e+00,1.701954245567321777e+00,1.682796597480773926e+00,1.659892678260803223e+00,4.030032157897949219e+00,3.898008584976196289e+00,3.774360179901123047e+00,1.668593049049377441e+00,1.617954254150390625e+00,1.600837588310241699e+00,1.599016904830932617e+00,1.611016392707824707e+00,3.170865297317504883e+00,3.088558673858642578e+00,3.010416746139526367e+00,2.936131477355957031e+00,2.865423917770385742e+00,2.798041820526123047e+00,2.733755826950073242e+00,2.672357797622680664e+00,2.613656759262084961e+00,2.557479381561279297e+00,2.503665924072265625e+00,2.452070713043212891e+00,2.402559041976928711e+00,2.355007171630859375e+00,2.309300899505615234e+00,2.265335321426391602e+00,2.223012208938598633e+00,2.182241916656494141e+00,2.142939805984497070e+00,2.105028629302978516e+00,2.068435192108154297e+00,2.033092498779296875e+00,1.998937129974365234e+00,1.965910792350769043e+00,1.933957695960998535e+00,1.903026580810546875e+00,1.873069405555725098e+00,1.844040989875793457e+00
5.000000000000000000e+00,5.000000000000000000e+00,5.000000000000000000e+00,5.000000000000000000e+00,5.000000000000000000e+00,5.000000000000000000e+00,5.000000000000000000e+00,5.000000000000000000e+00,5.000000000000000000e+00,5.000000000000000000e+00,5.000000000000000000e+00,5.000000000000000000e+00,5.000000000000000000e+00,5.000000000000000000e+00,5.000000000000000000e+00,5.000000000000000000e+00,5.000000000000000000e+00,5.000000000000000000e+00,5.000000000000000000e+00,5.000000000000000000e+00,5.000000000000000000e+00,5.000000000000000000e+00,5.000000000000000000e+00,5.000000000000000000e+00,5.000000000000000000e+00,5.000000000000000000e+00,5.000000000000000000e+00,5.000000000000000000e+00,5.000000000000000000e+00,5.000000000000000000e+00,5.000000000000000000e+00,5.000000000000000000e+00,5.000000000000000000e+00,5.000000000000000000e+00,5.000000000000000000e+00,5.000000000000000000e+00,5.000000000000000000e+00,5.000000000000000000e+00,5.000000000000000000e+00,1.810209751129150391e+00,1.763045907020568848e+00,1.726911783218383789e+00,1.711152553558349609e+00,4.171414375305175781e+00,4.030127048492431641e+00,3.898096799850463867e+00,3.774443387985229492e+00,1.664124488830566406e+00,1.616670966148376465e+00,1.602040886878967285e+00,1.600814700126647949e+00,1.619759678840637207e+00,3.170923948287963867e+00,3.088613986968994141e+00,3.010469675064086914e+00,2.936181545257568359e+00,2.865471601486206055e+00,2.798087358474731445e+00,2.733799457550048828e+00,2.672399282455444336e+00,2.613696813583374023e+00,2.557517528533935547e+00,2.503702640533447266e+00,2.452105760574340820e+00,2.402592420578002930e+00,2.355039596557617188e+00,2.309331893920898438e+00,2.265365123748779297e+00,2.223041296005249023e+00,2.182269573211669922e+00,2.142966747283935547e+00,2.105054378509521484e+00,2.068459987640380859e+00,2.033116579055786133e+00,1.998960494995117188e+00,1.965933084487915039e+00,1.933979511260986328e+00,1.903047800064086914e+00,1.873089909553527832e+00,1.844060659408569336e+00
5.000000000000000000e+00,5.000000000000000000e+00,5.000000000000000000e+00,5.000000000000000000e+00,5.000000000000000000e+00,5.000000000000000000e+00,5.000000000000000000e+00,5.000000000000000000e+00,5.000000000000000000e+00,5.000000000000000000e+00,5.000000000000000000e+00,5.000000000000000000e+00,5.000000000000000000e+00,5.000000000000000000e+00,5.000000000000000000e+00,5.000000000000000000e+00,5.000000000000000000e+00,5.000000000000000000e+00,5.000000000000000000e+00,5.000000000000000000e+00,5.000000000000000000e+00,5.000000000000000000e+00,5.000000000000000000e+00,5.000000000000000000e+00,5.000000000000000000e+00,5.000000000000000000e+00,5.000000000000000000e+00,5.000000000000000000e+00,5.000000000000000000e+00,5.000000000000000000e+00,5.000000000000000000e+00,5.000000000000000000e+00,5.000000000000000000e+00,5.000000000000000000e+00,5.000000000000000000e+00,5.000000000000000000e+00,5.000000000000000000e+00,5.000000000000000000e+00,5.000000000000000000e+00,1.830072402954101562e+00,1.784330368041992188e+00,1.754646658897399902e+00,1.783447504043579102e+00,4.171515464782714844e+00,4.030221462249755859e+00,3.898185253143310547e+00,3.774526119232177734e+00,1.659682154655456543e+00,1.616020679473876953e+00,1.603245854377746582e+00,1.602616429328918457e+00,3.257802486419677734e+00,3.170982360839843750e+00,3.088669538497924805e+00,3.010522365570068359e+00,2.936231851577758789e+00,2.865519285202026367e+00,2.798132896423339844e+00,2.733843088150024414e+00,2.672440767288208008e+00,2.613736391067504883e+00,2.557555437088012695e+00,2.503739118576049805e+00,2.452140808105468750e+00,2.402626037597656250e+00,2.355071783065795898e+00,2.309363126754760742e+00,2.265394926071166992e+00,2.223069906234741211e+00,2.182297229766845703e+00,2.142993450164794922e+00,2.105080127716064453e+00,2.068485021591186523e+00,2.033140659332275391e+00,1.998983860015869141e+00,1.965955734252929688e+00,1.934001088142395020e+00,1.903068780899047852e+00,1.873110413551330566e+00,1.844080448150634766e+00
5.000000000000000000e+00,5.000000000000000000e+00,5.000000000000000000e+00,5.000000000000000000e+00,5.000000000000000000e+00,5.000000000000000000e+00,5.000000000000000000e+00,5.000000000000000000e+00,5.000000000000000000e+00,5.000000000000000000e+00,5.000000000000000000e+00,5.000000000000000000e+00,5.000000000000000000e+00,5.000000000000000000e+00,5.000000000000000000e+00,5.000000000000000000e+00,5.000000000000000000e+00,5.000000000000000000e+00,5.000000000000000000e+00,5.000000000000000000e+00,5.000000000000000000e+00,5.000000000000000000e+00,5.000000000000000000e+00,5.000000000000000000e+00,5.000000000000000000e+00,5.000000000000000000e+00,5.000000000000000000e+00,5.000000000000000000e+00,5.000000000000000000e+00,5.000000000000000000e+00,5.000000000000000000e+00,5.000000000000000000e+00,5.000000000000000000e+00,5.000000000000000000e+00,5.000000000000000000e+00,5.000000000000000000e+00,5.000000000000000000e+00,5.000000000000000000e+00,1.930159807205200195e+00,1.855242848396301270e+00,1.814462661743164062e+00,1.796954035758972168e+00,4.323185443878173828e+00,4.171617031097412109e+00,4.030315876007080078e+00,3.898273944854736328e+00,3.774608850479125977e+00,1.655263900756835938e+00,1.615575313568115234e+00,1.604452848434448242e+00,1.604320168495178223e+00,3.257864475250244141e+00,3.171040773391723633e+00,3.088725328445434570e+00,3.010575056076049805e+00,2.936281919479370117e+00,2.865567207336425781e+00,2.798178434371948242e+00,2.733886480331420898e+00,2.672482490539550781e+00,2.613776206970214844e+00,2.557593822479248047e+00,2.503775358200073242e+00,2.452175617218017578e+00,2.402659893035888672e+00,2.355103969573974609e+00,2.309394121170043945e+00,2.265424966812133789e+00,2.223098516464233398e+00,2.182325124740600586e+00,2.143020153045654297e+00,2.105105876922607422e+00,2.068509817123413086e+00,2.033164739608764648e+00,1.999006986618041992e+00,1.965978264808654785e+00,1.934023022651672363e+00,1.903089880943298340e+00,1.873130679130554199e+00,1.844100356101989746e+00
5.000000000000000000e+00,5.000000000000000000e+00,5.000000000000000000e+00,5.000000000000000000e+00,5.000000000000000000e+00,5.000000000000000000e+00,5.000000000000000000e+00,5.000000000000000000e+00,5.000000000000000000e+00,5.000000000000000000e+00,5.000000000000000000e+00,5.000000000000000000e+00,5.000000000000000000e+00,5.000000000000000000e+00,5.000000000000000000e+00,5.000000000000000000e+00,5.000000000000000000e+00,5.000000000000000000e+00,5.000000000000000000e+00,5.000000000000000000e+00,5.000000000000000000e+00,5.000000000000000000e+00,5.000000000000000000e+00,5.000000000000000000e+00,5.000000000000000000e+00,5.000000000000000000e+00,5.000000000000000000e+00,5.000000000000000000e+00,5.000000000000000000e+00,5.000000000000000000e+00,5.000000000000000000e+00,5.000000000000000000e+00,5.000000000000000000e+00,5.000000000000000000e+00,5.000000000000000000e+00,5.000000000000000000e+00,5.000000000000000000e+00,5.000000000000000000e+00,1.967858672142028809e+00,1.882260203361511230e+00,1.858816385269165039e+00,4.486300468444824219e+00,4.323294162750244141e+00,4.171718120574951172e+00,4.030410289764404297e+00,3.898362398147583008e+00,3.774692058563232422e+00,1.651388406753540039e+00,1.615618944168090820e+00,1.605661630630493164e+00,1.605528712272644043e+00,3.257925987243652344e+00,3.171099185943603516e+00,3.088780641555786133e+00,3.010627985000610352e+00,2.936331987380981445e+00,2.865615129470825195e+00,2.798224210739135742e+00,2.733929872512817383e+00,2.672524213790893555e+00,2.613815784454345703e+00,2.557631731033325195e+00,2.503812074661254883e+00,2.452210664749145508e+00,2.402693271636962891e+00,2.355136394500732422e+00,2.309425115585327148e+00,2.265454769134521484e+00,2.223127365112304688e+00,2.182352781295776367e+00,2.143046855926513672e+00,2.105131626129150391e+00,2.068534851074218750e+00,2.033188819885253906e+00,1.999030351638793945e+00,1.966000676155090332e+00,1.934044599533081055e+00,1.903111100196838379e+00,1.873151183128356934e+00,1.844120025634765625e+00
5.000000000000000000e+00,5.000000000000000000e+00,5.000000000000000000e+00,5.000000000000000000e+00,5.000000000000000000e+00,5.000000000000000000e+00,5.000000000000000000e+00,5.000000000000000000e+00,5.000000000000000000e+00,5.000000000000000000e+00,5.000000000000000000e+00,5.000000000000000000e+00,5.000000000000000000e+00,5.000000000000000000e+00,5.000000000000000000e+00,5.000000000000000000e+00,5.000000000000000000e+00,5.000000000000000000e+00,5.000000000000000000e+00,5.000000000000000000e+00,5.000000000000000000e+00,5.000000000000000000e+00,5.000000000000000000e+00,5.000000000000000000e+00,5.000000000000000000e+00,5.000000000000000000e+00,5.000000000000000000e+00,5.000000000000000000e+00,5.000000000000000000e+00,5.000000000000000000e+00,5.000000000000000000e+00,5.000000000000000000e+00,5.000000000000000000e+00,5.000000000000000000e+00,5.000000000000000000e+00,5.000000000000000000e+00,5.000000000000000000e+00,5.000000000000000000e+00,1.959064602851867676e+00,1.930971860885620117e+00,4.662208557128906250e+00,4.486418247222900391e+00,4.323402404785156250e+00,4.171819686889648438e+00,4.030504703521728516e+00,3.898450613021850586e+00,3.774775028228759766e+00,1.648740410804748535e+00,1.617467880249023438e+00,1.607680797576904297e+00,1.607339739799499512e+00,3.257987737655639648e+00,3.171158075332641602e+00,3.088836193084716797e+00,3.010680675506591797e+00,2.936382532119750977e+00,2.865662813186645508e+00,2.798269748687744141e+00,2.733973264694213867e+00,2.672565698623657227e+00,2.613855838775634766e+00,2.557669639587402344e+00,2.503848552703857422e+00,2.452245712280273438e+00,2.402726888656616211e+00,2.355168581008911133e+00,2.309456110000610352e+00,2.265484571456909180e+00,2.223156213760375977e+00,2.182380437850952148e+00,2.143073558807373047e+00,2.105157613754272461e+00,2.068559646606445312e+00,2.033212900161743164e+00,1.999053359031677246e+00,1.966023206710815430e+00,1.934066414833068848e+00,1.903131961822509766e+00,1.873171687126159668e+00,1.844139933586120605e+00
5.000000000000000000e+00,5.000000000000000000e+00,5.000000000000000000e+00,5.000000000000000000e+00,5.000000000000000000e+00,5.000000000000000000e+00,5.000000000000000000e+00,5.000000000000000000e+00,5.000000000000000000e+00,5.000000000000000000e+00,5.000000000000000000e+00,5.000000000000000000e+00,5.000000000000000000e+00,5.000000000000000000e+00,5.000000000000000000e+00,5.000000000000000000e+00,5.000000000000000000e+00,5.000000000000000000e+00,5.000000000000000000e+00,5.000000000000000000e+00,5.000000000000000000e+00,5.000000000000000000e+00,5.000000000000000000e+00,5.000000000000000000e+00,5.000000000000000000e+00,5.000000000000000000e+00,5.000000000000000000e+00,5.000000000000000000e+00,5.000000000000000000e+00,5.000000000000000000e+00,5.000000000000000000e+00,5.000000000000000000e+00,5.000000000000000000e+00,5.000000000000000000e+00,5.000000000000000000e+00,5.000000000000000000e+00,5.000000000000000000e+00,5.000000000000000000e+00,1.959800958633422852e+00,1.944529533386230469e+00,4.662335872650146484e+00,4.486536026000976562e+00,4.323511600494384766e+00,4.171920776367187500e+00,4.030599594116210938e+00,3.898539304733276367e+00,3.774857759475708008e+00,1.646100759506225586e+00,1.619169235229492188e+00,1.609717607498168945e+00,1.609375715255737305e+00,3.258049488067626953e+00,3.171216487884521484e+00,3.088891983032226562e+00,3.010733127593994141e+00,2.936432600021362305e+00,2.865710735321044922e+00,2.798315286636352539e+00,2.734016895294189453e+00,2.672607183456420898e+00,2.613895416259765625e+00,2.557708024978637695e+00,2.503885030746459961e+00,2.452280759811401367e+00,2.402760505676269531e+00,2.355200767517089844e+00,2.309487342834472656e+00,2.265514373779296875e+00,2.223184823989868164e+00,2.182408332824707031e+00,2.143100261688232422e+00,2.105183362960815430e+00,2.068584680557250977e+00,2.033236980438232422e+00,1.999076724052429199e+00,1.966045618057250977e+00,1.934088349342346191e+00,1.903153181076049805e+00,1.873191952705383301e+00,1.844159722328186035e+00
4.874513149261474609e+00,4.873316287994384766e+00,4.872119903564453125e+00,4.870923995971679688e+00,4.869728565216064453e+00,4.868533611297607422e+00,4.867339134216308594e+00,4.866145610809326172e+00,4.864952564239501953e+00,4.863759994506835938e+00,4.862568378448486328e+00,4.861376762390136719e+00,4.860186100006103516e+00,4.858995914459228516e+00,4.857806682586669922e+00,4.856617450714111328e+00,4.855429172515869141e+00,4.854241371154785156e+00,4.853054523468017578e+00,4.851867675781250000e+00,4.850681781768798828e+00,4.849496364593505859e+00,4.848311424255371094e+00,4.847126960754394531e+00,4.845943450927734375e+00,4.844759941101074219e+00,4.843577384948730469e+00,4.842395305633544922e+00,4.841214179992675781e+00,4.840033054351806641e+00,4.838852882385253906e+00,4.837673187255859375e+00,4.836493968963623047e+00,4.835315704345703125e+00,4.834137439727783203e+00,4.832960128784179688e+00,4.831783294677734375e+00,4.830606937408447266e+00,1.958825945854187012e+00,1.953226566314697266e+00,4.662463188171386719e+00,4.486654281616210938e+00,4.323621273040771484e+00,4.172021865844726562e+00,4.030694007873535156e+00,3.898627758026123047e+00,3.774940967559814453e+00,1.645509243011474609e+00,1.620827198028564453e+00,1.611759543418884277e+00,1.633323907852172852e+00,3.258111476898193359e+00,3.171274900436401367e+00,3.088947296142578125e+00,3.010786294937133789e+00,2.936482667922973633e+00,2.865758419036865234e+00,2.798360824584960938e+00,2.734060525894165039e+00,2.672648906707763672e+00,2.613935232162475586e+00,2.557745933532714844e+00,2.503921508789062500e+00,2.452315568923950195e+00,2.402794122695922852e+00,2.355232954025268555e+00,2.309518337249755859e+00,2.265544414520263672e+00,2.223213672637939453e+00,2.182435989379882812e+00,2.143126964569091797e+00,2.105209112167358398e+00,2.068609476089477539e+00,2.033260822296142578e+00,1.999100089073181152e+00,1.966068148612976074e+00,1.934109926223754883e+00,1.903174281120300293e+00,1.873212456703186035e+00,1.844179391860961914e+00
3.777561187744140625e+00,3.776842117309570312e+00,3.776123285293579102e+00,3.775404930114746094e+00,3.774686574935913086e+00,3.773968696594238281e+00,3.773251056671142578e+00,3.772533655166625977e+00,3.771816492080688477e+00,3.771099805831909180e+00,3.770383119583129883e+00,3.769666910171508789e+00,3.768950939178466797e+00,3.768235206604003906e+00,3.767519712448120117e+00,3.766804695129394531e+00,3.766089677810668945e+00,3.765375137329101562e+00,3.764660596847534180e+00,3.763946533203125000e+00,3.763232707977294922e+00,3.762519121170043945e+00,3.761805772781372070e+00,3.761092901229858398e+00,3.760380029678344727e+00,3.759667634963989258e+00,3.758955478668212891e+00,3.758243322372436523e+00,3.757531881332397461e+00,3.756820440292358398e+00,3.756109237670898438e+00,3.755398273468017578e+00,3.754687786102294922e+00,3.753977537155151367e+00,3.753267288208007812e+00,3.752557516098022461e+00,3.751847982406616211e+00,3.751139163970947266e+00,1.957300186157226562e+00,1.959768414497375488e+00,3.749012947082519531e+00,3.748304843902587891e+00,3.747596979141235352e+00,3.746889352798461914e+00,3.746181964874267578e+00,3.745474815368652344e+00,3.744767904281616211e+00,1.647427201271057129e+00,1.622488498687744141e+00,1.613806724548339844e+00,3.349902153015136719e+00,3.258172988891601562e+00,3.171333551406860352e+00,3.089002847671508789e+00,3.010838985443115234e+00,2.936532735824584961e+00,2.865806102752685547e+00,2.798406362533569336e+00,2.734103918075561523e+00,2.672690391540527344e+00,2.613975048065185547e+00,2.557784080505371094e+00,2.503957986831665039e+00,2.452350616455078125e+00,2.402827739715576172e+00,2.355265378952026367e+00,2.309549331665039062e+00,2.265574216842651367e+00,2.223242521286010742e+00,2.182463645935058594e+00,2.143153667449951172e+00,2.105234861373901367e+00,2.068634271621704102e+00,2.033285140991210938e+00,1.999123215675354004e+00,1.966090679168701172e+00,1.934131741523742676e+00,1.903195261955261230e+00,1.873232960700988770e+00,1.844199299812316895e+00
3.083626985549926758e+00,3.083148002624511719e+00,3.082669019699096680e+00,3.082190036773681641e+00,3.081711530685424805e+00,3.081233024597167969e+00,3.080754518508911133e+00,3.080276250839233398e+00,3.079798221588134766e+00,3.079320192337036133e+00,3.078842401504516602e+00,3.078364849090576172e+00,3.077887296676635742e+00,3.077409982681274414e+00,3.076932907104492188e+00,3.076455831527709961e+00,3.075978755950927734e+00,3.075502157211303711e+00,3.075025558471679688e+00,3.074548959732055664e+00,3.074072837829589844e+00,3.073596477508544922e+00,3.073120594024658203e+00,3.072644710540771484e+00,3.072169065475463867e+00,3.071693420410156250e+00,3.071218013763427734e+00,3.070742607116699219e+00,3.070267438888549805e+00,3.069792509078979492e+00,3.069317579269409180e+00,3.068843126296997070e+00,3.068368434906005859e+00,3.067893981933593750e+00,3.067419767379760742e+00,3.066945791244506836e+00,3.066471815109252930e+00,3.065998077392578125e+00,1.954808712005615234e+00,1.955886840820312500e+00,3.064577579498291016e+00,3.064104318618774414e+00,3.063631296157836914e+00,3.063158273696899414e+00,3.062685489654541016e+00,3.062212944030761719e+00,3.061740398406982422e+00,1.687494874000549316e+00,1.638874650001525879e+00,1.615859031677246094e+00,3.059851884841918945e+00,3.059380054473876953e+00,3.058908462524414062e+00,3.058436870574951172e+00,3.010891437530517578e+00,2.936583042144775391e+00,2.865854024887084961e+00,2.798451900482177734e+00,2.734147548675537109e+00,2.672731876373291016e+00,2.614014863967895508e+00,2.557822227478027344e+00,2.503994464874267578e+00,2.452385663986206055e+00,2.402861356735229492e+00,2.355297803878784180e+00,2.309580326080322266e+00,2.265604019165039062e+00,2.223271369934082031e+00,2.182491540908813477e+00,2.143180370330810547e+00,2.105260610580444336e+00,2.068659305572509766e+00,2.033308982849121094e+00,1.999146580696105957e+00,1.966113090515136719e+00,1.934153676033020020e+00,1.903216361999511719e+00,1.873253226280212402e+00,1.844219088554382324e+00
2.605076789855957031e+00,2.604734897613525391e+00,2.604393005371093750e+00,2.604051351547241211e+00,2.603709459304809570e+00,2.603368043899536133e+00,2.603026390075683594e+00,2.602684974670410156e+00,2.602343559265136719e+00,2.602002382278442383e+00,2.601661205291748047e+00,2.601320505142211914e+00,2.600979328155517578e+00,2.600638628005981445e+00,2.600297689437866211e+00,2.599956989288330078e+00,2.599616527557373047e+00,2.599275827407836914e+00,2.598935365676879883e+00,2.598595142364501953e+00,2.598254919052124023e+00,2.597914695739746094e+00,2.597574472427368164e+00,2.597234487533569336e+00,2.596894741058349609e+00,2.596554756164550781e+00,2.596215009689331055e+00,2.595875501632690430e+00,2.595535993576049805e+00,2.595196485519409180e+00,2.594856977462768555e+00,2.594517707824707031e+00,2.594178676605224609e+00,2.593839406967163086e+00,2.593500375747680664e+00,2.593161582946777344e+00,2.592822790145874023e+00,2.592483997344970703e+00,2.592145204544067383e+00,2.591806650161743164e+00,2.591468334197998047e+00,2.591129779815673828e+00,2.590791463851928711e+00,2.590453386306762695e+00,2.590115070343017578e+00,2.589776992797851562e+00,2.589439153671264648e+00,1.660492539405822754e+00,1.632631421089172363e+00,1.653214216232299805e+00,2.588088274002075195e+00,2.587750673294067383e+00,2.587413311004638672e+00,2.587075948715209961e+00,2.586738586425781250e+00,2.586401462554931641e+00,2.586064338684082031e+00,2.585727453231811523e+00,2.585390567779541016e+00,2.585053682327270508e+00,2.584717035293579102e+00,2.557860136032104492e+00,2.504030942916870117e+00,2.452420711517333984e+00,2.402894973754882812e+00,2.355329990386962891e+00,2.309611320495605469e+00,2.265634059906005859e+00,2.223299980163574219e+00,2.182519197463989258e+00,2.143207073211669922e+00,2.105286598205566406e+00,2.068684339523315430e+00,2.033333063125610352e+00,1.999169945716857910e+00,1.966135621070861816e+00,1.934175252914428711e+00,1.903237581253051758e+00,1.873273730278015137e+00,1.844238758087158203e+00
2.255135536193847656e+00,2.254877805709838867e+00,2.254620552062988281e+00,2.254363059997558594e+00,2.254105567932128906e+00,2.253848552703857422e+00,2.253591299057006836e+00,2.253334045410156250e+00,2.253077030181884766e+00,2.252820014953613281e+00,2.252562761306762695e+00,2.252305984497070312e+00,2.252049207687377930e+00,2.251792192459106445e+00,2.251535415649414062e+00,2.251278877258300781e+00,2.251022100448608398e+00,2.250765562057495117e+00,2.250509023666381836e+00,2.250252485275268555e+00,2.249996185302734375e+00,2.249739885330200195e+00,2.249483346939086914e+00,2.249227285385131836e+00,2.248971462249755859e+00,2.248716592788696289e+00,2.248461961746215820e+00,2.248207092285156250e+00,2.247952461242675781e+00,2.247697830200195312e+00,2.247443199157714844e+00,2.247188806533813477e+00,2.246934175491333008e+00,2.246679782867431641e+00,2.246425390243530273e+00,2.246171236038208008e+00,2.245917081832885742e+00,2.245662927627563477e+00,2.245408535003662109e+00,2.245154619216918945e+00,2.244900703430175781e+00,2.244646549224853516e+00,2.244392871856689453e+00,2.244138956069946289e+00,2.243885040283203125e+00,2.243631362915039062e+00,2.243377685546875000e+00,1.655411243438720703e+00,1.611384510993957520e+00,1.605815291404724121e+00,2.242363691329956055e+00,2.242110490798950195e+00,2.241857290267944336e+00,2.241603851318359375e+00,2.241350650787353516e+00,2.241097688674926758e+00,2.240844488143920898e+00,2.240591526031494141e+00,2.240338563919067383e+00,2.240085601806640625e+00,2.239832639694213867e+00,2.239579916000366211e+00,2.239327192306518555e+00,2.239074468612670898e+00,2.238821983337402344e+00,2.238569259643554688e+00,2.238316774368286133e+00,2.238064289093017578e+00,2.223328828811645508e+00,2.182546854019165039e+00,2.143234014511108398e+00,2.105312347412109375e+00,2.068709135055541992e+00,2.033357143402099609e+00,1.999192953109741211e+00,1.966158270835876465e+00,1.934197068214416504e+00,1.903258562088012695e+00,1.873294234275817871e+00,1.844258666038513184e+00
1.988131284713745117e+00,1.987931013107299805e+00,1.987730860710144043e+00,1.987530946731567383e+00,1.987330794334411621e+00,1.987130761146545410e+00,1.986930966377258301e+00,1.986730933189392090e+00,1.986531019210815430e+00,1.986331343650817871e+00,1.986131429672241211e+00,1.985931634902954102e+00,1.985732078552246094e+00,1.985532283782958984e+00,1.985332608222961426e+00,1.985133171081542969e+00,1.984933614730834961e+00,1.984733939170837402e+00,1.984534621238708496e+00,1.984335064888000488e+00,1.984135627746582031e+00,1.983936429023742676e+00,1.983737111091613770e+00,1.983537673950195312e+00,1.983338356018066406e+00,1.983139395713806152e+00,1.982940077781677246e+00,1.982740879058837891e+00,1.982542037963867188e+00,1.982342958450317383e+00,1.982143878936767578e+00,1.981945037841796875e+00,1.981746077537536621e+00,1.981547117233276367e+00,1.981348395347595215e+00,1.981149554252624512e+00,1.980950713157653809e+00,1.980752110481262207e+00,1.980553388595581055e+00,1.980354666709899902e+00,1.980156183242797852e+00,1.979957580566406250e+00,1.979758977890014648e+00,1.979560732841491699e+00,1.979362130165100098e+00,1.979163646697998047e+00,1.978965520858764648e+00,1.657565593719482422e+00,1.590272188186645508e+00,1.565978288650512695e+00,1.978172302246093750e+00,1.977974176406860352e+00,1.977776169776916504e+00,1.977578043937683105e+00,1.977379918098449707e+00,1.977182030677795410e+00,1.976984024047851562e+00,1.976786017417907715e+00,1.976588249206542969e+00,1.976390361785888672e+00,1.976192474365234375e+00,1.975994825363159180e+00,1.975797057151794434e+00,1.975599288940429688e+00,1.975401759147644043e+00,1.975204110145568848e+00,1.975006461143493652e+00,1.974808812141418457e+00,1.974611520767211914e+00,1.974413990974426270e+00,1.974216461181640625e+00,1.974019289016723633e+00,1.973821878433227539e+00,1.973624467849731445e+00,1.973427414894104004e+00,1.966180562973022461e+00,1.934219002723693848e+00,1.903279662132263184e+00,1.873314499855041504e+00,1.844278573989868164e+00
1.777659296989440918e+00,1.777499198913574219e+00,1.777339339256286621e+00,1.777179360389709473e+00,1.777019262313842773e+00,1.776859521865844727e+00,1.776699542999267578e+00,1.776539683341979980e+00,1.776379942893981934e+00,1.776220083236694336e+00,1.776060342788696289e+00,1.775900721549987793e+00,1.775740981101989746e+00,1.775581121444702148e+00,1.775421619415283203e+00,1.775261998176574707e+00,1.775102376937866211e+00,1.774942874908447266e+00,1.774783253669738770e+00,1.774623751640319824e+00,1.774464368820190430e+00,1.774304866790771484e+00,1.774145364761352539e+00,1.773986101150512695e+00,1.773826718330383301e+00,1.773667216300964355e+00,1.773508071899414062e+00,1.773348689079284668e+00,1.773189425468444824e+00,1.773030281066894531e+00,1.772871017456054688e+00,1.772711873054504395e+00,1.772552847862243652e+00,1.772393703460693359e+00,1.772234559059143066e+00,1.772075533866882324e+00,1.771916508674621582e+00,1.771757483482360840e+00,1.771598577499389648e+00,1.771439552307128906e+00,1.771280646324157715e+00,1.771121859550476074e+00,1.770962953567504883e+00,1.770804047584533691e+00,1.770645260810852051e+00,1.770486593246459961e+00,1.770327806472778320e+00,1.770169019699096680e+00,1.573534369468688965e+00,1.530316472053527832e+00,1.535013198852539062e+00,1.572830915451049805e+00,1.769375920295715332e+00,1.769217371940612793e+00,1.769058942794799805e+00,1.768900394439697266e+00,1.768741965293884277e+00,1.768583655357360840e+00,1.768425107002258301e+00,1.768266677856445312e+00,1.768108487129211426e+00,1.767950177192687988e+00,1.767791748046875000e+00,1.767633676528930664e+00,1.767475366592407227e+00,1.767317056655883789e+00,1.767159104347229004e+00,1.767000913619995117e+00,1.766842722892761230e+00,1.766684770584106445e+00,1.766526579856872559e+00,1.766368508338928223e+00,1.766210675239562988e+00,1.766052603721618652e+00,1.765894651412963867e+00,1.765736818313598633e+00,1.765578866004943848e+00,1.765421032905578613e+00,1.765263319015502930e+00,1.765105485916137695e+00
1.607484340667724609e+00,1.607353448867797852e+00,1.607222557067871094e+00,1.607091903686523438e+00,1.606961011886596680e+00,1.606830239295959473e+00,1.606699585914611816e+00,1.606568813323974609e+00,1.606438040733337402e+00,1.606307387351989746e+00,1.606176733970642090e+00,1.606046080589294434e+00,1.605915546417236328e+00,1.605784893035888672e+00,1.605654239654541016e+00,1.605523824691772461e+00,1.605393171310424805e+00,1.605262637138366699e+00,1.605132222175598145e+00,1.605001688003540039e+00,1.604871273040771484e+00,1.604740858078002930e+00,1.604610443115234375e+00,1.604480028152465820e+00,1.604349613189697266e+00,1.604219317436218262e+00,1.604089021682739258e+00,1.603958606719970703e+00,1.603828430175781250e+00,1.603698134422302246e+00,1.603567838668823242e+00,1.603437662124633789e+00,1.603307485580444336e+00,1.603177189826965332e+00,1.603047251701354980e+00,1.602916955947875977e+00,1.602786898612976074e+00,1.602656841278076172e+00,1.602526783943176270e+00,1.602396607398986816e+00,1.602266669273376465e+00,1.602136611938476562e+00,1.602006673812866211e+00,1.601876735687255859e+00,1.601746797561645508e+00,1.601616859436035156e+00,1.601487040519714355e+00,1.601357102394104004e+00,1.601227164268493652e+00,1.601097464561462402e+00,1.487271547317504883e+00,1.507268190383911133e+00,1.600708007812500000e+00,1.600578308105468750e+00,1.600448489189147949e+00,1.600318908691406250e+00,1.600189089775085449e+00,1.600059390068054199e+00,1.599929809570312500e+00,1.599800109863281250e+00,1.599670529365539551e+00,1.599540948867797852e+00,1.599411368370056152e+00,1.599281787872314453e+00,1.599152326583862305e+00,1.599022865295410156e+00,1.598893284797668457e+00,1.598763823509216309e+00,1.598634481430053711e+00,1.598505020141601562e+00,1.598375558853149414e+00,1.598246216773986816e+00,1.598116874694824219e+00,1.597987532615661621e+00,1.597858309745788574e+00,1.597728967666625977e+00,1.597599625587463379e+00,1.597470521926879883e+00,1.597341179847717285e+00,1.597211956977844238e+00
1.467044353485107422e+00,1.466935396194458008e+00,1.466826438903808594e+00,1.466717481613159180e+00,1.466608524322509766e+00,1.466499686241149902e+00,1.466390728950500488e+00,1.466281771659851074e+00,1.466172933578491211e+00,1.466064095497131348e+00,1.465955138206481934e+00,1.465846419334411621e+00,1.465737581253051758e+00,1.465628743171691895e+00,1.465520024299621582e+00,1.465411186218261719e+00,1.465302467346191406e+00,1.465193748474121094e+00,1.465085029602050781e+00,1.464976310729980469e+00,1.464867711067199707e+00,1.464758992195129395e+00,1.464650273323059082e+00,1.464541792869567871e+00,1.464433073997497559e+00,1.464324474334716797e+00,1.464215874671936035e+00,1.464107275009155273e+00,1.463998675346374512e+00,1.463890314102172852e+00,1.463781714439392090e+00,1.463673114776611328e+00,1.463564753532409668e+00,1.463456273078918457e+00,1.463347673416137695e+00,1.463239431381225586e+00,1.463130950927734375e+00,1.463022470474243164e+00,1.462914109230041504e+00,1.462805747985839844e+00,1.462697386741638184e+00,1.462589025497436523e+00,1.462480664253234863e+00,1.462372303009033203e+00,1.462264060974121094e+00,1.462155818939208984e+00,1.462047576904296875e+00,1.461939215660095215e+00,1.461831092834472656e+00,1.461722850799560547e+00,1.461614608764648438e+00,1.461506485939025879e+00,1.461398243904113770e+00,1.461290121078491211e+00,1.461181998252868652e+00,1.461073875427246094e+00,1.460965752601623535e+00,1.460857748985290527e+00,1.460749626159667969e+00,1.460641503334045410e+00,1.460533618927001953e+00,1.460425496101379395e+00,1.460317492485046387e+00,1.460209488868713379e+00,1.460101485252380371e+00,1.459993481636047363e+00,1.459885716438293457e+00,1.459777712821960449e+00,1.459669709205627441e+00,1.459561944007873535e+00,1.459454059600830078e+00,1.459346055984497070e+00,1.459238290786743164e+00,1.459130406379699707e+00,1.459022641181945801e+00,1.458914875984191895e+00,1.458807110786437988e+00,1.458699226379394531e+00,1.458591580390930176e+00,1.458483815193176270e+00
1.349172234535217285e+00,1.349080085754394531e+00,1.348987817764282227e+00,1.348895788192749023e+00,1.348803520202636719e+00,1.348711371421813965e+00,1.348619341850280762e+00,1.348527193069458008e+00,1.348435044288635254e+00,1.348343133926391602e+00,1.348250985145568848e+00,1.348158836364746094e+00,1.348066926002502441e+00,1.347974896430969238e+00,1.347882866859436035e+00,1.347790837287902832e+00,1.347698807716369629e+00,1.347606897354125977e+00,1.347514986991882324e+00,1.347422957420349121e+00,1.347331047058105469e+00,1.347239136695861816e+00,1.347147226333618164e+00,1.347055315971374512e+00,1.346963405609130859e+00,1.346871495246887207e+00,1.346779704093933105e+00,1.346687793731689453e+00,1.346596002578735352e+00,1.346504092216491699e+00,1.346412301063537598e+00,1.346320509910583496e+00,1.346228718757629395e+00,1.346136927604675293e+00,1.346045255661010742e+00,1.345953464508056641e+00,1.345861673355102539e+00,1.345770001411437988e+00,1.345678210258483887e+00,1.345586538314819336e+00,1.345494866371154785e+00,1.345403194427490234e+00,1.345311522483825684e+00,1.345219850540161133e+00,1.345128178596496582e+00,1.345036506652832031e+00,1.344944953918457031e+00,1.344853401184082031e+00,1.344761729240417480e+00,1.344670176506042480e+00,1.344578623771667480e+00,1.344487071037292480e+00,1.344395518302917480e+00,1.344303965568542480e+00,1.344212412834167480e+00,1.344120979309082031e+00,1.344029545783996582e+00,1.343937993049621582e+00,1.343846559524536133e+00,1.343755125999450684e+00,1.343663573265075684e+00,1.343572258949279785e+00,1.343480825424194336e+00,1.343389391899108887e+00,1.343298077583312988e+00,1.343206644058227539e+00,1.343115210533142090e+00,1.343023777008056641e+00,1.342932581901550293e+00,1.342841148376464844e+00,1.342749834060668945e+00,1.342658638954162598e+00,1.342567324638366699e+00,1.342476010322570801e+00,1.342384815216064453e+00,1.342293500900268555e+00,1.342202186584472656e+00,1.342110991477966309e+00,1.342019796371459961e+00,1.341928601264953613e+00
1.248832583427429199e+00,1.248753666877746582e+00,1.248674750328063965e+00,1.248595714569091797e+00,1.248516798019409180e+00,1.248437881469726562e+00,1.248358964920043945e+00,1.248279929161071777e+00,1.248201131820678711e+00,1.248122215270996094e+00,1.248043298721313477e+00,1.247964501380920410e+00,1.247885584831237793e+00,1.247806668281555176e+00,1.247727870941162109e+00,1.247648954391479492e+00,1.247570157051086426e+00,1.247491359710693359e+00,1.247412562370300293e+00,1.247333765029907227e+00,1.247254967689514160e+00,1.247176170349121094e+00,1.247097373008728027e+00,1.247018694877624512e+00,1.246939897537231445e+00,1.246861100196838379e+00,1.246782422065734863e+00,1.246703743934631348e+00,1.246624946594238281e+00,1.246546387672424316e+00,1.246467590332031250e+00,1.246388912200927734e+00,1.246310353279113770e+00,1.246231555938720703e+00,1.246152877807617188e+00,1.246074318885803223e+00,1.245995640754699707e+00,1.245917081832885742e+00,1.245838522911071777e+00,1.245759844779968262e+00,1.245681285858154297e+00,1.245602726936340332e+00,1.245524048805236816e+00,1.245445489883422852e+00,1.245366930961608887e+00,1.245288491249084473e+00,1.245209932327270508e+00,1.245131373405456543e+00,1.245052933692932129e+00,1.244974374771118164e+00,1.244895815849304199e+00,1.244817376136779785e+00,1.244738936424255371e+00,1.244660377502441406e+00,1.244582056999206543e+00,1.244503498077392578e+00,1.244425058364868164e+00,1.244346737861633301e+00,1.244268298149108887e+00,1.244189858436584473e+00,1.244111537933349609e+00,1.244033098220825195e+00,1.243954658508300781e+00,1.243876457214355469e+00,1.243798017501831055e+00,1.243719696998596191e+00,1.243641376495361328e+00,1.243563055992126465e+00,1.243484735488891602e+00,1.243406414985656738e+00,1.243328094482421875e+00,1.243249773979187012e+00,1.243171572685241699e+00,1.243093252182006836e+00,1.243015050888061523e+00,1.242936849594116211e+00,1.242858529090881348e+00,1.242780327796936035e+00,1.242702126502990723e+00,1.242623925209045410e+00
1.162384748458862305e+00,1.162316322326660156e+00,1.162247896194458008e+00,1.162179470062255859e+00,1.162111043930053711e+00,1.162042617797851562e+00,1.161974310874938965e+00,1.161905884742736816e+00,1.161837577819824219e+00,1.161769270896911621e+00,1.161700844764709473e+00,1.161632537841796875e+00,1.161564230918884277e+00,1.161495804786682129e+00,1.161427497863769531e+00,1.161359190940856934e+00,1.161290884017944336e+00,1.161222577095031738e+00,1.161154389381408691e+00,1.161086082458496094e+00,1.161017775535583496e+00,1.160949587821960449e+00,1.160881280899047852e+00,1.160812973976135254e+00,1.160744786262512207e+00,1.160676598548889160e+00,1.160608291625976562e+00,1.160540103912353516e+00,1.160471916198730469e+00,1.160403728485107422e+00,1.160335421562194824e+00,1.160267353057861328e+00,1.160199165344238281e+00,1.160130977630615234e+00,1.160062789916992188e+00,1.159994602203369141e+00,1.159926533699035645e+00,1.159858345985412598e+00,1.159790277481079102e+00,1.159722089767456055e+00,1.159654021263122559e+00,1.159585952758789062e+00,1.159517765045166016e+00,1.159449696540832520e+00,1.159381628036499023e+00,1.159313559532165527e+00,1.159245491027832031e+00,1.159177422523498535e+00,1.159109354019165039e+00,1.159041404724121094e+00,1.158973336219787598e+00,1.158905267715454102e+00,1.158837318420410156e+00,1.158769249916076660e+00,1.158701300621032715e+00,1.158633351325988770e+00,1.158565282821655273e+00,1.158497333526611328e+00,1.158429384231567383e+00,1.158361434936523438e+00,1.158293485641479492e+00,1.158225536346435547e+00,1.158157587051391602e+00,1.158089637756347656e+00,1.158021807670593262e+00,1.157953858375549316e+00,1.157885909080505371e+00,1.157817959785461426e+00,1.157750129699707031e+00,1.157682299613952637e+00,1.157614350318908691e+00,1.157546520233154297e+00,1.157478690147399902e+00,1.157410860061645508e+00,1.157343029975891113e+00,1.157275199890136719e+00,1.157207369804382324e+00,1.157139539718627930e+00,1.157071709632873535e+00,1.157003879547119141e+00
1.087130308151245117e+00,1.087070345878601074e+00,1.087010622024536133e+00,1.086950778961181641e+00,1.086890935897827148e+00,1.086831092834472656e+00,1.086771249771118164e+00,1.086711406707763672e+00,1.086651682853698730e+00,1.086591839790344238e+00,1.086531996726989746e+00,1.086472272872924805e+00,1.086412549018859863e+00,1.086352705955505371e+00,1.086292982101440430e+00,1.086233258247375488e+00,1.086173415184020996e+00,1.086113691329956055e+00,1.086053967475891113e+00,1.085994243621826172e+00,1.085934519767761230e+00,1.085874795913696289e+00,1.085815072059631348e+00,1.085755348205566406e+00,1.085695624351501465e+00,1.085636019706726074e+00,1.085576295852661133e+00,1.085516571998596191e+00,1.085456967353820801e+00,1.085397362709045410e+00,1.085337638854980469e+00,1.085277915000915527e+00,1.085218310356140137e+00,1.085158705711364746e+00,1.085098981857299805e+00,1.085039496421813965e+00,1.084979772567749023e+00,1.084920167922973633e+00,1.084860563278198242e+00,1.084800958633422852e+00,1.084741353988647461e+00,1.084681868553161621e+00,1.084622263908386230e+00,1.084562659263610840e+00,1.084503054618835449e+00,1.084443569183349609e+00,1.084383964538574219e+00,1.084324359893798828e+00,1.084264874458312988e+00,1.084205269813537598e+00,1.084145784378051758e+00,1.084086298942565918e+00,1.084026694297790527e+00,1.083967208862304688e+00,1.083907723426818848e+00,1.083848237991333008e+00,1.083788752555847168e+00,1.083729267120361328e+00,1.083669781684875488e+00,1.083610296249389648e+00,1.083550930023193359e+00,1.083491444587707520e+00,1.083431959152221680e+00,1.083372473716735840e+00,1.083313107490539551e+00,1.083253622055053711e+00,1.083194255828857422e+00,1.083134770393371582e+00,1.083075404167175293e+00,1.083016037940979004e+00,1.082956552505493164e+00,1.082897186279296875e+00,1.082837820053100586e+00,1.082778453826904297e+00,1.082718968391418457e+00,1.082659721374511719e+00,1.082600355148315430e+00,1.082540988922119141e+00,1.082481622695922852e+00,1.082422256469726562e+00
1.021027565002441406e+00,1.020974755287170410e+00,1.020921945571899414e+00,1.020869135856628418e+00,1.020816326141357422e+00,1.020763516426086426e+00,1.020710825920104980e+00,1.020658016204833984e+00,1.020605325698852539e+00,1.020552635192871094e+00,1.020499825477600098e+00,1.020447015762329102e+00,1.020394325256347656e+00,1.020341634750366211e+00,1.020288825035095215e+00,1.020236253738403320e+00,1.020183444023132324e+00,1.020130753517150879e+00,1.020078063011169434e+00,1.020025372505187988e+00,1.019972681999206543e+00,1.019919991493225098e+00,1.019867300987243652e+00,1.019814610481262207e+00,1.019761919975280762e+00,1.019709348678588867e+00,1.019656658172607422e+00,1.019603967666625977e+00,1.019551396369934082e+00,1.019498705863952637e+00,1.019446015357971191e+00,1.019393444061279297e+00,1.019340753555297852e+00,1.019288182258605957e+00,1.019235610961914062e+00,1.019182920455932617e+00,1.019130349159240723e+00,1.019077777862548828e+00,1.019025206565856934e+00,1.018972516059875488e+00,1.018920063972473145e+00,1.018867492675781250e+00,1.018814802169799805e+00,1.018762350082397461e+00,1.018709778785705566e+00,1.018657207489013672e+00,1.018604636192321777e+00,1.018552064895629883e+00,1.018499493598937988e+00,1.018447041511535645e+00,1.018394470214843750e+00,1.018341898918151855e+00,1.018289446830749512e+00,1.018236994743347168e+00,1.018184423446655273e+00,1.018131971359252930e+00,1.018079400062561035e+00,1.018026947975158691e+00,1.017974495887756348e+00,1.017922043800354004e+00,1.017869472503662109e+00,1.017817139625549316e+00,1.017764568328857422e+00,1.017712116241455078e+00,1.017659664154052734e+00,1.017607212066650391e+00,1.017554759979248047e+00,1.017502307891845703e+00,1.017449975013732910e+00,1.017397522926330566e+00,1.017345070838928223e+00,1.017292737960815430e+00,1.017240285873413086e+00,1.017187833786010742e+00,1.017135500907897949e+00,1.017083048820495605e+00,1.017030715942382812e+00,1.016978263854980469e+00,1.016925930976867676e+00,1.016873478889465332e+00
9.625027775764465332e-01,9.624558091163635254e-01,9.624089002609252930e-01,9.623619318008422852e-01,9.623150229454040527e-01,9.622682332992553711e-01,9.622213244438171387e-01,9.621744155883789062e-01,9.621275067329406738e-01,9.620806574821472168e-01,9.620337486267089844e-01,9.619869589805603027e-01,9.619401097297668457e-01,9.618932008743286133e-01,9.618463516235351562e-01,9.617994427680969238e-01,9.617525935173034668e-01,9.617058634757995605e-01,9.616590142250061035e-01,9.616121649742126465e-01,9.615653157234191895e-01,9.615184664726257324e-01,9.614716172218322754e-01,9.614248871803283691e-01,9.613780975341796875e-01,9.613312482833862305e-01,9.612843990325927734e-01,9.612376093864440918e-01,9.611908197402954102e-01,9.611440896987915039e-01,9.610973000526428223e-01,9.610505104064941406e-01,9.610037207603454590e-01,9.609569311141967773e-01,9.609101414680480957e-01,9.608634710311889648e-01,9.608166813850402832e-01,9.607699513435363770e-01,9.607231616973876953e-01,9.606764316558837891e-01,9.606296420097351074e-01,9.605830311775207520e-01,9.605363011360168457e-01,9.604895114898681641e-01,9.604427814483642578e-01,9.603960514068603516e-01,9.603493213653564453e-01,9.603025913238525391e-01,9.602559804916381836e-01,9.602093100547790527e-01,9.601625800132751465e-01,9.601158499717712402e-01,9.600691795349121094e-01,9.600224494934082031e-01,9.599758982658386230e-01,9.599292278289794922e-01,9.598824977874755859e-01,9.598358273506164551e-01,9.597891569137573242e-01,9.597424864768981934e-01,9.596959352493286133e-01,9.596492648124694824e-01,9.596026539802551270e-01,9.595559835433959961e-01,9.595093131065368652e-01,9.594627022743225098e-01,9.594161510467529297e-01,9.593695402145385742e-01,9.593228697776794434e-01,9.592762589454650879e-01,9.592296481132507324e-01,9.591830372810363770e-01,9.591365456581115723e-01,9.590899348258972168e-01,9.590433239936828613e-01,9.589967131614685059e-01,9.589501619338989258e-01,9.589035511016845703e-01,9.588570594787597656e-01,9.588105082511901855e-01
9.103234410285949707e-01,9.102814793586730957e-01,9.102395176887512207e-01,9.101975560188293457e-01,9.101555347442626953e-01,9.101135730743408203e-01,9.100717306137084961e-01,9.100297689437866211e-01,9.099878072738647461e-01,9.099458456039428711e-01,9.099039435386657715e-01,9.098619818687438965e-01,9.098201394081115723e-01,9.097781777381896973e-01,9.097362756729125977e-01,9.096943140029907227e-01,9.096524119377136230e-01,9.096105098724365234e-01,9.095686674118041992e-01,9.095267653465270996e-01,9.094848632812500000e-01,9.094429612159729004e-01,9.094010591506958008e-01,9.093591570854187012e-01,9.093172550201416016e-01,9.092754721641540527e-01,9.092335700988769531e-01,9.091916680335998535e-01,9.091498255729675293e-01,9.091079235076904297e-01,9.090660810470581055e-01,9.090242981910705566e-01,9.089824557304382324e-01,9.089405536651611328e-01,9.088987112045288086e-01,9.088568687438964844e-01,9.088150262832641602e-01,9.087733030319213867e-01,9.087314605712890625e-01,9.086896181106567383e-01,9.086477756500244141e-01,9.086059331893920898e-01,9.085640907287597656e-01,9.085223674774169922e-01,9.084805846214294434e-01,9.084387421607971191e-01,9.083969593048095703e-01,9.083551764488220215e-01,9.083133339881896973e-01,9.082716703414916992e-01,9.082298278808593750e-01,9.081880450248718262e-01,9.081462621688842773e-01,9.081044793128967285e-01,9.080626964569091797e-01,9.080210328102111816e-01,9.079793095588684082e-01,9.079375267028808594e-01,9.078957438468933105e-01,9.078540205955505371e-01,9.078122377395629883e-01,9.077705740928649902e-01,9.077288508415222168e-01,9.076870679855346680e-01,9.076453447341918945e-01,9.076036214828491211e-01,9.075618982315063477e-01,9.075201749801635742e-01,9.074785113334655762e-01,9.074367880821228027e-01,9.073950648307800293e-01,9.073534011840820312e-01,9.073116779327392578e-01,9.072699546813964844e-01,9.072283506393432617e-01,9.071866869926452637e-01,9.071449637413024902e-01,9.071033000946044922e-01,9.070615768432617188e-01,9.070199131965637207e-01
8.635106682777404785e-01,8.634728789329528809e-01,8.634352087974548340e-01,8.633974194526672363e-01,8.633596897125244141e-01,8.633219003677368164e-01,8.632841706275939941e-01,8.632463812828063965e-01,8.632087111473083496e-01,8.631709814071655273e-01,8.631332516670227051e-01,8.630954623222351074e-01,8.630577325820922852e-01,8.630200028419494629e-01,8.629823923110961914e-01,8.629446625709533691e-01,8.629069328308105469e-01,8.628692030906677246e-01,8.628314733505249023e-01,8.627937436103820801e-01,8.627561330795288086e-01,8.627184033393859863e-01,8.626806735992431641e-01,8.626430034637451172e-01,8.626052737236022949e-01,8.625676035881042480e-01,8.625299930572509766e-01,8.624923229217529297e-01,8.624546527862548828e-01,8.624169230461120605e-01,8.623792529106140137e-01,8.623415827751159668e-01,8.623039722442626953e-01,8.622663021087646484e-01,8.622286319732666016e-01,8.621910214424133301e-01,8.621533513069152832e-01,8.621156811714172363e-01,8.620781302452087402e-01,8.620404601097106934e-01,8.620027899742126465e-01,8.619651794433593750e-01,8.619275093078613281e-01,8.618898987770080566e-01,8.618522286415100098e-01,8.618147373199462891e-01,8.617770671844482422e-01,8.617394566535949707e-01,8.617018461227416992e-01,8.616642355918884277e-01,8.616266250610351562e-01,8.615890741348266602e-01,8.615514636039733887e-01,8.615138530731201172e-01,8.614762425422668457e-01,8.614386916160583496e-01,8.614010810852050781e-01,8.613635897636413574e-01,8.613259792327880859e-01,8.612884283065795898e-01,8.612508177757263184e-01,8.612132668495178223e-01,8.611756563186645508e-01,8.611381649971008301e-01,8.611006140708923340e-01,8.610630631446838379e-01,8.610255122184753418e-01,8.609879016876220703e-01,8.609503507614135742e-01,8.609129190444946289e-01,8.608753681182861328e-01,8.608378171920776367e-01,8.608002662658691406e-01,8.607627153396606445e-01,8.607251644134521484e-01,8.606877326965332031e-01,8.606502413749694824e-01,8.606126904487609863e-01,8.605751991271972656e-01,8.605376482009887695e-01
8.212770819664001465e-01,8.212429285049438477e-01,8.212087750434875488e-01,8.211746811866760254e-01,8.211405277252197266e-01,8.211063146591186523e-01,8.210721611976623535e-01,8.210380077362060547e-01,8.210038542747497559e-01,8.209698200225830078e-01,8.209356665611267090e-01,8.209015130996704102e-01,8.208674192428588867e-01,8.208332657814025879e-01,8.207991123199462891e-01,8.207650780677795410e-01,8.207309246063232422e-01,8.206968307495117188e-01,8.206626772880554199e-01,8.206285834312438965e-01,8.205944299697875977e-01,8.205603957176208496e-01,8.205263018608093262e-01,8.204922080039978027e-01,8.204581141471862793e-01,8.204240202903747559e-01,8.203899264335632324e-01,8.203557729721069336e-01,8.203217983245849609e-01,8.202877044677734375e-01,8.202536106109619141e-01,8.202195167541503906e-01,8.201854228973388672e-01,8.201513886451721191e-01,8.201173543930053711e-01,8.200832605361938477e-01,8.200492262840270996e-01,8.200151324272155762e-01,8.199810981750488281e-01,8.199470043182373047e-01,8.199130296707153320e-01,8.198789954185485840e-01,8.198449015617370605e-01,8.198108673095703125e-01,8.197768330574035645e-01,8.197427988052368164e-01,8.197088241577148438e-01,8.196747899055480957e-01,8.196407556533813477e-01,8.196067214012145996e-01,8.195726871490478516e-01,8.195386528968811035e-01,8.195046782493591309e-01,8.194706439971923828e-01,8.194366693496704102e-01,8.194026350975036621e-01,8.193686008453369141e-01,8.193345665931701660e-01,8.193006515502929688e-01,8.192666769027709961e-01,8.192326426506042480e-01,8.191986680030822754e-01,8.191646337509155273e-01,8.191306591033935547e-01,8.190967440605163574e-01,8.190627694129943848e-01,8.190287947654724121e-01,8.189947605133056641e-01,8.189607858657836914e-01,8.189268112182617188e-01,8.188928365707397461e-01,8.188589811325073242e-01,8.188250064849853516e-01,8.187910318374633789e-01,8.187570571899414062e-01,8.187230825424194336e-01,8.186891078948974609e-01,8.186552524566650391e-01,8.186212778091430664e-01,8.185873627662658691e-01
7.829821109771728516e-01,7.829510569572448730e-01,7.829200029373168945e-01,7.828889489173889160e-01,7.828578948974609375e-01,7.828269004821777344e-01,7.827959060668945312e-01,7.827648520469665527e-01,7.827337980270385742e-01,7.827027440071105957e-01,7.826716899871826172e-01,7.826407551765441895e-01,7.826097011566162109e-01,7.825787067413330078e-01,7.825476527214050293e-01,7.825166583061218262e-01,7.824856042861938477e-01,7.824546694755554199e-01,7.824236750602722168e-01,7.823926210403442383e-01,7.823616266250610352e-01,7.823306322097778320e-01,7.822995781898498535e-01,7.822687029838562012e-01,7.822376489639282227e-01,7.822066545486450195e-01,7.821756601333618164e-01,7.821446657180786133e-01,7.821136713027954102e-01,7.820827960968017578e-01,7.820518016815185547e-01,7.820208072662353516e-01,7.819898128509521484e-01,7.819588184356689453e-01,7.819278240203857422e-01,7.818969488143920898e-01,7.818659543991088867e-01,7.818350195884704590e-01,7.818040251731872559e-01,7.817730903625488281e-01,7.817420959472656250e-01,7.817112207412719727e-01,7.816802859306335449e-01,7.816492915153503418e-01,7.816183567047119141e-01,7.815874218940734863e-01,7.815564274787902832e-01,7.815254926681518555e-01,7.814946174621582031e-01,7.814636826515197754e-01,7.814327478408813477e-01,7.814018130302429199e-01,7.813708782196044922e-01,7.813399434089660645e-01,7.813090682029724121e-01,7.812781929969787598e-01,7.812472581863403320e-01,7.812163233757019043e-01,7.811853885650634766e-01,7.811545133590698242e-01,7.811236381530761719e-01,7.810927033424377441e-01,7.810618281364440918e-01,7.810308933258056641e-01,7.810000181198120117e-01,7.809690833091735840e-01,7.809382677078247070e-01,7.809073925018310547e-01,7.808765172958374023e-01,7.808455824851989746e-01,7.808147072792053223e-01,7.807838320732116699e-01,7.807530164718627930e-01,7.807221412658691406e-01,7.806912660598754883e-01,7.806603908538818359e-01,7.806295156478881836e-01,7.805986404418945312e-01,7.805678248405456543e-01,7.805369496345520020e-01
7.480993270874023438e-01,7.480709552764892578e-01,7.480425834655761719e-01,7.480142712593078613e-01,7.479858994483947754e-01,7.479575872421264648e-01,7.479292750358581543e-01,7.479009628295898438e-01,7.478725910186767578e-01,7.478442788124084473e-01,7.478159666061401367e-01,7.477875947952270508e-01,7.477593421936035156e-01,7.477310299873352051e-01,7.477027177810668945e-01,7.476743459701538086e-01,7.476460337638854980e-01,7.476177215576171875e-01,7.475894689559936523e-01,7.475611567497253418e-01,7.475328445434570312e-01,7.475045323371887207e-01,7.474762201309204102e-01,7.474479079246520996e-01,7.474196553230285645e-01,7.473914027214050293e-01,7.473630905151367188e-01,7.473347783088684082e-01,7.473065257072448730e-01,7.472782135009765625e-01,7.472499012947082520e-01,7.472217082977294922e-01,7.471933960914611816e-01,7.471651434898376465e-01,7.471368312835693359e-01,7.471085786819458008e-01,7.470802664756774902e-01,7.470520734786987305e-01,7.470238208770751953e-01,7.469955086708068848e-01,7.469672560691833496e-01,7.469390034675598145e-01,7.469106912612915039e-01,7.468824982643127441e-01,7.468542456626892090e-01,7.468259930610656738e-01,7.467977404594421387e-01,7.467694878578186035e-01,7.467412352561950684e-01,7.467130422592163086e-01,7.466847896575927734e-01,7.466565370559692383e-01,7.466282844543457031e-01,7.466000914573669434e-01,7.465718388557434082e-01,7.465436458587646484e-01,7.465154528617858887e-01,7.464872002601623535e-01,7.464589476585388184e-01,7.464307546615600586e-01,7.464025020599365234e-01,7.463743686676025391e-01,7.463461160659790039e-01,7.463179230690002441e-01,7.462896704673767090e-01,7.462614774703979492e-01,7.462332248687744141e-01,7.462050318717956543e-01,7.461768984794616699e-01,7.461487054824829102e-01,7.461204528808593750e-01,7.460922598838806152e-01,7.460640668869018555e-01,7.460358738899230957e-01,7.460077404975891113e-01,7.459795475006103516e-01,7.459513545036315918e-01,7.459231615066528320e-01,7.458949685096740723e-01,7.458667755126953125e-01
7.161920070648193359e-01,7.161660194396972656e-01,7.161400914192199707e-01,7.161141037940979004e-01,7.160881161689758301e-01,7.160621881484985352e-01,7.160362005233764648e-01,7.160102128982543945e-01,7.159842848777770996e-01,7.159582972526550293e-01,7.159323692321777344e-01,7.159063816070556641e-01,7.158804535865783691e-01,7.158544659614562988e-01,7.158285379409790039e-01,7.158026099205017090e-01,7.157766222953796387e-01,7.157506942749023438e-01,7.157247066497802734e-01,7.156987786293029785e-01,7.156729102134704590e-01,7.156469225883483887e-01,7.156209945678710938e-01,7.155950665473937988e-01,7.155691385269165039e-01,7.155431509017944336e-01,7.155172824859619141e-01,7.154913544654846191e-01,7.154654264450073242e-01,7.154394984245300293e-01,7.154135704040527344e-01,7.153876423835754395e-01,7.153617739677429199e-01,7.153358459472656250e-01,7.153099179267883301e-01,7.152839899063110352e-01,7.152580618858337402e-01,7.152321338653564453e-01,7.152062654495239258e-01,7.151803970336914062e-01,7.151544690132141113e-01,7.151285409927368164e-01,7.151026725769042969e-01,7.150767445564270020e-01,7.150508165359497070e-01,7.150250077247619629e-01,7.149990797042846680e-01,7.149732112884521484e-01,7.149472832679748535e-01,7.149214148521423340e-01,7.148954868316650391e-01,7.148696780204772949e-01,7.148438096046447754e-01,7.148178815841674805e-01,7.147920131683349609e-01,7.147661447525024414e-01,7.147402167320251465e-01,7.147144079208374023e-01,7.146885395050048828e-01,7.146626710891723633e-01,7.146368026733398438e-01,7.146109342575073242e-01,7.145850658416748047e-01,7.145592570304870605e-01,7.145333886146545410e-01,7.145075201988220215e-01,7.144816517829895020e-01,7.144557833671569824e-01,7.144299149513244629e-01,7.144041061401367188e-01,7.143782377243041992e-01,7.143524289131164551e-01,7.143265604972839355e-01,7.143006920814514160e-01,7.142748832702636719e-01,7.142490744590759277e-01,7.142232060432434082e-01,7.141973972320556641e-01,7.141715288162231445e-01,7.141457200050354004e-01
6.868951916694641113e-01,6.868712902069091797e-01,6.868473887443542480e-01,6.868235468864440918e-01,6.867996454238891602e-01,6.867757439613342285e-01,6.867518424987792969e-01,6.867280006408691406e-01,6.867040991783142090e-01,6.866802573204040527e-01,6.866563558578491211e-01,6.866324543952941895e-01,6.866086125373840332e-01,6.865847110748291016e-01,6.865608096122741699e-01,6.865369677543640137e-01,6.865131258964538574e-01,6.864892244338989258e-01,6.864653825759887695e-01,6.864414811134338379e-01,6.864176392555236816e-01,6.863937973976135254e-01,6.863699555397033691e-01,6.863460540771484375e-01,6.863222122192382812e-01,6.862983107566833496e-01,6.862744688987731934e-01,6.862506270408630371e-01,6.862267851829528809e-01,6.862029433250427246e-01,6.861791014671325684e-01,6.861552596092224121e-01,6.861314177513122559e-01,6.861075162887573242e-01,6.860837340354919434e-01,6.860598921775817871e-01,6.860360503196716309e-01,6.860122084617614746e-01,6.859883666038513184e-01,6.859645247459411621e-01,6.859407424926757812e-01,6.859169006347656250e-01,6.858930587768554688e-01,6.858692169189453125e-01,6.858454346656799316e-01,6.858215928077697754e-01,6.857978105545043945e-01,6.857739686965942383e-01,6.857501268386840820e-01,6.857263445854187012e-01,6.857025027275085449e-01,6.856786608695983887e-01,6.856549382209777832e-01,6.856310963630676270e-01,6.856073141098022461e-01,6.855834722518920898e-01,6.855596899986267090e-01,6.855358481407165527e-01,6.855121254920959473e-01,6.854882836341857910e-01,6.854645013809204102e-01,6.854406595230102539e-01,6.854168772697448730e-01,6.853930950164794922e-01,6.853693127632141113e-01,6.853455305099487305e-01,6.853217482566833496e-01,6.852979660034179688e-01,6.852741241455078125e-01,6.852503418922424316e-01,6.852265596389770508e-01,6.852028369903564453e-01,6.851790547370910645e-01,6.851552724838256836e-01,6.851314902305603027e-01,6.851077079772949219e-01,6.850839257240295410e-01,6.850602030754089355e-01,6.850364208221435547e-01,6.850126385688781738e-01
6.599010825157165527e-01,6.598789691925048828e-01,6.598569154739379883e-01,6.598348617553710938e-01,6.598128080368041992e-01,6.597908139228820801e-01,6.597687602043151855e-01,6.597467064857482910e-01,6.597246527671813965e-01,6.597025990486145020e-01,6.596805453300476074e-01,6.596585512161254883e-01,6.596364974975585938e-01,6.596145033836364746e-01,6.595924496650695801e-01,6.595703959465026855e-01,6.595483422279357910e-01,6.595263481140136719e-01,6.595043540000915527e-01,6.594823002815246582e-01,6.594602465629577637e-01,6.594382524490356445e-01,6.594161987304687500e-01,6.593942046165466309e-01,6.593722105026245117e-01,6.593501567840576172e-01,6.593281626701354980e-01,6.593061089515686035e-01,6.592841148376464844e-01,6.592621207237243652e-01,6.592401266098022461e-01,6.592180728912353516e-01,6.591960787773132324e-01,6.591740846633911133e-01,6.591520309448242188e-01,6.591300964355468750e-01,6.591081023216247559e-01,6.590860486030578613e-01,6.590640544891357422e-01,6.590420603752136230e-01,6.590200662612915039e-01,6.589980721473693848e-01,6.589760780334472656e-01,6.589540839195251465e-01,6.589320898056030273e-01,6.589100956916809082e-01,6.588881015777587891e-01,6.588661074638366699e-01,6.588441729545593262e-01,6.588221788406372070e-01,6.588001847267150879e-01,6.587781906127929688e-01,6.587561964988708496e-01,6.587342023849487305e-01,6.587123274803161621e-01,6.586903333663940430e-01,6.586683392524719238e-01,6.586463451385498047e-01,6.586243510246276855e-01,6.586024165153503418e-01,6.585804820060729980e-01,6.585584878921508789e-01,6.585365533828735352e-01,6.585145592689514160e-01,6.584925651550292969e-01,6.584706306457519531e-01,6.584486961364746094e-01,6.584267616271972656e-01,6.584047675132751465e-01,6.583828330039978027e-01,6.583608388900756836e-01,6.583389043807983398e-01,6.583169698715209961e-01,6.582950353622436523e-01,6.582731008529663086e-01,6.582511067390441895e-01,6.582291722297668457e-01,6.582072377204895020e-01,6.581853032112121582e-01,6.581633687019348145e-01
