5.000000000000000000e+00,5.000000000000000000e+00,5.000000000000000000e+00,5.000000000000000000e+00,5.000000000000000000e+00,5.000000000000000000e+00,5.000000000000000000e+00,5.000000000000000000e+00,5.000000000000000000e+00,5.000000000000000000e+00,5.000000000000000000e+00,5.000000000000000000e+00,5.000000000000000000e+00,5.000000000000000000e+00,5.000000000000000000e+00,5.000000000000000000e+00,5.000000000000000000e+00,5.000000000000000000e+00,5.000000000000000000e+00,5.000000000000000000e+00,5.000000000000000000e+00,5.000000000000000000e+00,5.000000000000000000e+00,5.000000000000000000e+00,5.000000000000000000e+00,5.000000000000000000e+00,5.000000000000000000e+00,5.000000000000000000e+00,5.000000000000000000e+00,5.000000000000000000e+00,5.000000000000000000e+00,5.000000000000000000e+00,5.000000000000000000e+00,5.000000000000000000e+00,5.000000000000000000e+00,5.000000000000000000e+00,5.000000000000000000e+00,5.000000000000000000e+00,5.000000000000000000e+00,4.861775875091552734e+00,4.670834541320800781e+00,4.494324684143066406e+00,4.330668926239013672e+00,4.178513050079345703e+00,4.036686420440673828e+00,3.904171466827392578e+00,3.780080318450927734e+00,3.663634300231933594e+00,1.268560051918029785e+00,1.256163477897644043e+00,1.261567831039428711e+00,1.243271589279174805e+00,1.201082587242126465e+00,1.164240360260009766e+00,1.140424251556396484e+00,1.119621992111206055e+00,1.107387900352478027e+00,1.103076577186584473e+00,1.099613308906555176e+00,1.096185088157653809e+00,1.092778205871582031e+00,1.135105490684509277e+00,1.246387124061584473e+00,1.265527963638305664e+00,2.404452323913574219e+00,2.356803894042968750e+00,2.311007022857666016e+00,2.266955852508544922e+00,1.335501670837402344e+00,2.183706998825073242e+00,1.238027334213256836e+00,1.215209841728210449e+00,1.227197289466857910e+00,1.224591970443725586e+00,2.000085353851318359e+00,1.967005372047424316e+00,1.935001730918884277e+00,1.904022932052612305e+00,1.874020576477050781e+00,1.844948887825012207e+00
5.000000000000000000e+00,5.000000000000000000e+00,5.000000000000000000e+00,5.000000000000000000e+00,5.000000000000000000e+00,5.000000000000000000e+00,5.000000000000000000e+00,5.000000000000000000e+00,5.000000000000000000e+00,5.000000000000000000e+00,5.000000000000000000e+00,5.000000000000000000e+00,5.000000000000000000e+00,5.000000000000000000e+00,5.000000000000000000e+00,5.000000000000000000e+00,5.000000000000000000e+00,5.000000000000000000e+00,5.000000000000000000e+00,5.000000000000000000e+00,5.000000000000000000e+00,5.000000000000000000e+00,5.000000000000000000e+00,5.000000000000000000e+00,5.000000000000000000e+00,5.000000000000000000e+00,5.000000000000000000e+00,5.000000000000000000e+00,5.000000000000000000e+00,5.000000000000000000e+00,5.000000000000000000e+00,5.000000000000000000e+00,5.000000000000000000e+00,5.000000000000000000e+00,5.000000000000000000e+00,5.000000000000000000e+00,5.000000000000000000e+00,5.000000000000000000e+00,5.000000000000000000e+00,4.861914634704589844e+00,4.670962333679199219e+00,4.494442939758300781e+00,4.330779075622558594e+00,4.178615570068359375e+00,4.036781787872314453e+00,3.904260873794555664e+00,3.780164003372192383e+00,3.663713216781616211e+00,1.265319108963012695e+00,1.251453638076782227e+00,1.259918093681335449e+00,1.248421192169189453e+00,1.204139947891235352e+00,1.165873169898986816e+00,1.143638610839843750e+00,1.122860312461853027e+00,1.102759718894958496e+00,1.098484158515930176e+00,1.094241738319396973e+00,1.090565204620361328e+00,1.087193012237548828e+00,1.112445473670959473e+00,1.245231986045837402e+00,1.266409397125244141e+00,2.404486417770385742e+00,2.356836318969726562e+00,2.311038255691528320e+00,2.266986131668090820e+00,2.224581956863403320e+00,2.183735132217407227e+00,1.261176586151123047e+00,1.215391039848327637e+00,1.196801781654357910e+00,1.214041590690612793e+00,2.000108718872070312e+00,1.967028021812438965e+00,1.935023903846740723e+00,1.904044270515441895e+00,1.874041080474853516e+00,1.844968676567077637e+00
5.000000000000000000e+00,5.000000000000000000e+00,5.000000000000000000e+00,5.000000000000000000e+00,5.000000000000000000e+00,5.000000000000000000e+00,5.000000000000000000e+00,5.000000000000000000e+00,5.000000000000000000e+00,5.000000000000000000e+00,5.000000000000000000e+00,5.000000000000000000e+00,5.000000000000000000e+00,5.000000000000000000e+00,5.000000000000000000e+00,5.000000000000000000e+00,5.000000000000000000e+00,5.000000000000000000e+00,5.000000000000000000e+00,5.000000000000000000e+00,5.000000000000000000e+00,5.000000000000000000e+00,5.000000000000000000e+00,5.000000000000000000e+00,5.000000000000000000e+00,5.000000000000000000e+00,5.000000000000000000e+00,5.000000000000000000e+00,5.000000000000000000e+00,5.000000000000000000e+00,5.000000000000000000e+00,5.000000000000000000e+00,5.000000000000000000e+00,5.000000000000000000e+00,5.000000000000000000e+00,5.000000000000000000e+00,5.000000000000000000e+00,5.000000000000000000e+00,5.000000000000000000e+00,4.862053394317626953e+00,4.671090602874755859e+00,4.494561195373535156e+00,4.330888748168945312e+00,4.178718090057373047e+00,4.036877632141113281e+00,3.904350280761718750e+00,3.780247688293457031e+00,3.663791418075561523e+00,1.261843085289001465e+00,1.250121474266052246e+00,1.261770725250244141e+00,1.253119826316833496e+00,1.208350658416748047e+00,1.173641204833984375e+00,1.146871328353881836e+00,1.126117587089538574e+00,1.104532718658447266e+00,1.093929886817932129e+00,1.089722514152526855e+00,1.085547327995300293e+00,1.081664681434631348e+00,1.090672492980957031e+00,1.244247913360595703e+00,1.264811038970947266e+00,2.404520273208618164e+00,2.356868982315063477e+00,2.311069488525390625e+00,2.267016172409057617e+00,2.224611043930053711e+00,2.183763027191162109e+00,1.303277730941772461e+00,1.283357381820678711e+00,1.196425318717956543e+00,1.232435703277587891e+00,1.192740678787231445e+00,1.967050790786743164e+00,1.935045719146728516e+00,1.904065489768981934e+00,1.874061584472656250e+00,1.844988584518432617e+00
5.000000000000000000e+00,5.000000000000000000e+00,5.000000000000000000e+00,5.000000000000000000e+00,5.000000000000000000e+00,5.000000000000000000e+00,5.000000000000000000e+00,5.000000000000000000e+00,5.000000000000000000e+00,5.000000000000000000e+00,5.000000000000000000e+00,5.000000000000000000e+00,5.000000000000000000e+00,5.000000000000000000e+00,5.000000000000000000e+00,5.000000000000000000e+00,5.000000000000000000e+00,5.000000000000000000e+00,5.000000000000000000e+00,5.000000000000000000e+00,5.000000000000000000e+00,5.000000000000000000e+00,5.000000000000000000e+00,5.000000000000000000e+00,5.000000000000000000e+00,5.000000000000000000e+00,5.000000000000000000e+00,5.000000000000000000e+00,5.000000000000000000e+00,5.000000000000000000e+00,5.000000000000000000e+00,5.000000000000000000e+00,5.000000000000000000e+00,5.000000000000000000e+00,5.000000000000000000e+00,5.000000000000000000e+00,5.000000000000000000e+00,5.000000000000000000e+00,5.000000000000000000e+00,4.862192153930664062e+00,4.671218395233154297e+00,4.494679450988769531e+00,4.330998897552490234e+00,4.178820610046386719e+00,4.036972999572753906e+00,3.904439926147460938e+00,3.780331611633300781e+00,3.663870334625244141e+00,1.270078420639038086e+00,1.260843753814697266e+00,3.353898286819458008e+00,3.261910200119018555e+00,1.214486718177795410e+00,1.181513428688049316e+00,1.150283336639404297e+00,1.129351139068603516e+00,1.107684373855590820e+00,1.089413285255432129e+00,1.085240364074707031e+00,1.081099390983581543e+00,1.076990008354187012e+00,1.072911620140075684e+00,1.116303205490112305e+00,1.273543596267700195e+00,2.404554367065429688e+00,2.356901645660400391e+00,2.311100959777832031e+00,2.267046451568603516e+00,2.224639892578125000e+00,2.183790922164916992e+00,2.144414901733398438e+00,1.296555161476135254e+00,1.270515918731689453e+00,1.253235816955566406e+00,1.216906905174255371e+00,1.175238370895385742e+00,1.935067653656005859e+00,1.904086947441101074e+00,1.874082326889038086e+00,1.845008730888366699e+00
5.000000000000000000e+00,5.000000000000000000e+00,5.000000000000000000e+00,5.000000000000000000e+00,5.000000000000000000e+00,5.000000000000000000e+00,5.000000000000000000e+00,5.000000000000000000e+00,5.000000000000000000e+00,5.000000000000000000e+00,5.000000000000000000e+00,5.000000000000000000e+00,5.000000000000000000e+00,5.000000000000000000e+00,5.000000000000000000e+00,5.000000000000000000e+00,5.000000000000000000e+00,5.000000000000000000e+00,5.000000000000000000e+00,5.000000000000000000e+00,5.000000000000000000e+00,5.000000000000000000e+00,5.000000000000000000e+00,5.000000000000000000e+00,5.000000000000000000e+00,5.000000000000000000e+00,5.000000000000000000e+00,5.000000000000000000e+00,5.000000000000000000e+00,5.000000000000000000e+00,5.000000000000000000e+00,5.000000000000000000e+00,5.000000000000000000e+00,5.000000000000000000e+00,5.000000000000000000e+00,5.000000000000000000e+00,5.000000000000000000e+00,5.000000000000000000e+00,5.000000000000000000e+00,4.862330913543701172e+00,4.671346187591552734e+00,4.494798183441162109e+00,4.331108570098876953e+00,4.178922653198242188e+00,4.037068843841552734e+00,3.904528856277465820e+00,3.780415534973144531e+00,3.663949251174926758e+00,1.264058947563171387e+00,1.251427054405212402e+00,1.248981714248657227e+00,3.261972427368164062e+00,3.174892187118530273e+00,1.189492106437683105e+00,1.157844185829162598e+00,1.132503271102905273e+00,1.110854029655456543e+00,1.089912891387939453e+00,1.079633235931396484e+00,1.075104594230651855e+00,1.070613741874694824e+00,1.066160202026367188e+00,1.093700885772705078e+00,1.283674359321594238e+00,2.404587984085083008e+00,2.356934309005737305e+00,2.311132192611694336e+00,2.267076492309570312e+00,2.224668979644775391e+00,2.183819055557250977e+00,2.144441843032836914e+00,2.106460094451904297e+00,1.286080360412597656e+00,2.034394025802612305e+00,1.237305998802185059e+00,1.201883912086486816e+00,1.935089707374572754e+00,1.904108047485351562e+00,1.874102830886840820e+00,1.845028519630432129e+00
5.000000000000000000e+00,5.000000000000000000e+00,5.000000000000000000e+00,5.000000000000000000e+00,5.000000000000000000e+00,5.000000000000000000e+00,5.000000000000000000e+00,5.000000000000000000e+00,5.000000000000000000e+00,5.000000000000000000e+00,5.000000000000000000e+00,5.000000000000000000e+00,5.000000000000000000e+00,5.000000000000000000e+00,5.000000000000000000e+00,5.000000000000000000e+00,5.000000000000000000e+00,5.000000000000000000e+00,5.000000000000000000e+00,5.000000000000000000e+00,5.000000000000000000e+00,5.000000000000000000e+00,5.000000000000000000e+00,5.000000000000000000e+00,5.000000000000000000e+00,5.000000000000000000e+00,5.000000000000000000e+00,5.000000000000000000e+00,5.000000000000000000e+00,5.000000000000000000e+00,5.000000000000000000e+00,5.000000000000000000e+00,5.000000000000000000e+00,5.000000000000000000e+00,5.000000000000000000e+00,5.000000000000000000e+00,5.000000000000000000e+00,5.000000000000000000e+00,5.000000000000000000e+00,4.862469196319580078e+00,4.671474456787109375e+00,4.494916439056396484e+00,4.331218719482421875e+00,4.179025173187255859e+00,4.037164211273193359e+00,3.904618501663208008e+00,3.780499458312988281e+00,3.664027929306030273e+00,1.257273197174072266e+00,1.238286018371582031e+00,1.237163186073303223e+00,1.244143724441528320e+00,3.174951076507568359e+00,1.196577072143554688e+00,1.165290117263793945e+00,1.135673165321350098e+00,1.114099383354187012e+00,1.093469023704528809e+00,1.075029492378234863e+00,1.068177580833435059e+00,1.063744306564331055e+00,1.059347629547119141e+00,1.072489857673645020e+00,1.296041488647460938e+00,2.404622077941894531e+00,2.356966733932495117e+00,2.311163663864135742e+00,2.267106533050537109e+00,2.224698066711425781e+00,2.183846950531005859e+00,2.144469022750854492e+00,2.106485843658447266e+00,2.069824934005737305e+00,1.267295360565185547e+00,2.000202655792236328e+00,1.225198149681091309e+00,1.935111522674560547e+00,1.904129266738891602e+00,1.874123573303222656e+00,1.845048666000366211e+00
5.000000000000000000e+00,5.000000000000000000e+00,5.000000000000000000e+00,5.000000000000000000e+00,5.000000000000000000e+00,5.000000000000000000e+00,5.000000000000000000e+00,5.000000000000000000e+00,5.000000000000000000e+00,5.000000000000000000e+00,5.000000000000000000e+00,5.000000000000000000e+00,5.000000000000000000e+00,5.000000000000000000e+00,5.000000000000000000e+00,5.000000000000000000e+00,5.000000000000000000e+00,5.000000000000000000e+00,5.000000000000000000e+00,5.000000000000000000e+00,5.000000000000000000e+00,5.000000000000000000e+00,5.000000000000000000e+00,5.000000000000000000e+00,5.000000000000000000e+00,5.000000000000000000e+00,5.000000000000000000e+00,5.000000000000000000e+00,5.000000000000000000e+00,5.000000000000000000e+00,5.000000000000000000e+00,5.000000000000000000e+00,5.000000000000000000e+00,5.000000000000000000e+00,5.000000000000000000e+00,5.000000000000000000e+00,5.000000000000000000e+00,5.000000000000000000e+00,5.000000000000000000e+00,4.862607955932617188e+00,4.671602249145507812e+00,4.495035171508789062e+00,4.331328868865966797e+00,4.179127693176269531e+00,4.037260055541992188e+00,3.904707908630371094e+00,3.780582904815673828e+00,3.664106845855712891e+00,1.250572204589843750e+00,1.230466604232788086e+00,1.242922782897949219e+00,1.228727102279663086e+00,3.175010204315185547e+00,3.092452049255371094e+00,1.171987771987915039e+00,1.141957402229309082e+00,1.117815256118774414e+00,1.097048401832580566e+00,1.076245307922363281e+00,1.064038515090942383e+00,1.056962370872497559e+00,1.052621483802795410e+00,1.052085876464843750e+00,1.091774106025695801e+00,2.404655933380126953e+00,2.356999397277832031e+00,2.311194896697998047e+00,2.267136812210083008e+00,2.224726915359497070e+00,2.183874845504760742e+00,2.144495964050292969e+00,2.106512069702148438e+00,2.069849967956542969e+00,2.034442663192749023e+00,2.000226020812988281e+00,1.967141509056091309e+00,1.935133695602416992e+00,1.904150605201721191e+00,1.874144077301025391e+00,1.845068573951721191e+00
5.000000000000000000e+00,5.000000000000000000e+00,5.000000000000000000e+00,5.000000000000000000e+00,5.000000000000000000e+00,5.000000000000000000e+00,5.000000000000000000e+00,5.000000000000000000e+00,5.000000000000000000e+00,5.000000000000000000e+00,5.000000000000000000e+00,5.000000000000000000e+00,5.000000000000000000e+00,5.000000000000000000e+00,5.000000000000000000e+00,5.000000000000000000e+00,5.000000000000000000e+00,5.000000000000000000e+00,5.000000000000000000e+00,5.000000000000000000e+00,5.000000000000000000e+00,5.000000000000000000e+00,5.000000000000000000e+00,5.000000000000000000e+00,5.000000000000000000e+00,5.000000000000000000e+00,5.000000000000000000e+00,5.000000000000000000e+00,5.000000000000000000e+00,5.000000000000000000e+00,5.000000000000000000e+00,5.000000000000000000e+00,5.000000000000000000e+00,5.000000000000000000e+00,5.000000000000000000e+00,5.000000000000000000e+00,5.000000000000000000e+00,5.000000000000000000e+00,5.000000000000000000e+00,4.862746715545654297e+00,4.671730518341064453e+00,4.495153903961181641e+00,4.331439018249511719e+00,4.179230213165283203e+00,4.037355422973632812e+00,3.904797554016113281e+00,3.780666828155517578e+00,1.294572830200195312e+00,1.247657299041748047e+00,1.225556254386901855e+00,3.354162216186523438e+00,1.222657322883605957e+00,3.175069332122802734e+00,3.092508316040039062e+00,1.178763031959533691e+00,1.149286508560180664e+00,1.121851086616516113e+00,1.100651383399963379e+00,1.080122947692871094e+00,1.061580538749694824e+00,1.053269982337951660e+00,1.045980334281921387e+00,1.041728973388671875e+00,1.070611119270324707e+00,2.404689788818359375e+00,2.357031822204589844e+00,2.311226129531860352e+00,2.267167091369628906e+00,2.224756002426147461e+00,2.183902740478515625e+00,2.144522905349731445e+00,2.106538057327270508e+00,2.069875001907348633e+00,2.034466981887817383e+00,2.000249624252319336e+00,1.967164278030395508e+00,1.935155510902404785e+00,1.904171824455261230e+00,1.874164581298828125e+00,1.845088481903076172e+00
5.000000000000000000e+00,5.000000000000000000e+00,5.000000000000000000e+00,5.000000000000000000e+00,5.000000000000000000e+00,5.000000000000000000e+00,5.000000000000000000e+00,5.000000000000000000e+00,5.000000000000000000e+00,5.000000000000000000e+00,5.000000000000000000e+00,5.000000000000000000e+00,5.000000000000000000e+00,5.000000000000000000e+00,5.000000000000000000e+00,5.000000000000000000e+00,5.000000000000000000e+00,5.000000000000000000e+00,5.000000000000000000e+00,5.000000000000000000e+00,5.000000000000000000e+00,5.000000000000000000e+00,5.000000000000000000e+00,5.000000000000000000e+00,5.000000000000000000e+00,5.000000000000000000e+00,5.000000000000000000e+00,5.000000000000000000e+00,5.000000000000000000e+00,5.000000000000000000e+00,5.000000000000000000e+00,5.000000000000000000e+00,5.000000000000000000e+00,5.000000000000000000e+00,5.000000000000000000e+00,5.000000000000000000e+00,5.000000000000000000e+00,5.000000000000000000e+00,5.000000000000000000e+00,4.862885475158691406e+00,4.671858310699462891e+00,4.495272159576416016e+00,4.331549167633056641e+00,4.179332256317138672e+00,4.037450790405273438e+00,3.904886960983276367e+00,3.780750751495361328e+00,1.300433993339538574e+00,1.245041728019714355e+00,1.218047618865966797e+00,3.354228258132934570e+00,1.220532536506652832e+00,3.175128698348999023e+00,3.092564344406127930e+00,3.014185190200805664e+00,1.156762719154357910e+00,1.128973603248596191e+00,1.104278206825256348e+00,1.084006547927856445e+00,1.062472939491271973e+00,1.050861477851867676e+00,1.042717218399047852e+00,1.035224080085754395e+00,1.050253152847290039e+00,2.404723644256591797e+00,2.357064485549926758e+00,2.311257600784301758e+00,2.267196893692016602e+00,2.224785089492797852e+00,2.183930873870849609e+00,2.144549846649169922e+00,2.106564044952392578e+00,2.069900274276733398e+00,2.034491062164306641e+00,2.000272989273071289e+00,1.967186927795410156e+00,1.935177445411682129e+00,1.904193162918090820e+00,1.874185323715209961e+00,1.845108509063720703e+00
5.000000000000000000e+00,5.000000000000000000e+00,5.000000000000000000e+00,5.000000000000000000e+00,5.000000000000000000e+00,5.000000000000000000e+00,5.000000000000000000e+00,5.000000000000000000e+00,5.000000000000000000e+00,5.000000000000000000e+00,5.000000000000000000e+00,5.000000000000000000e+00,5.000000000000000000e+00,5.000000000000000000e+00,5.000000000000000000e+00,5.000000000000000000e+00,5.000000000000000000e+00,5.000000000000000000e+00,5.000000000000000000e+00,5.000000000000000000e+00,5.000000000000000000e+00,5.000000000000000000e+00,5.000000000000000000e+00,5.000000000000000000e+00,5.000000000000000000e+00,5.000000000000000000e+00,5.000000000000000000e+00,5.000000000000000000e+00,5.000000000000000000e+00,5.000000000000000000e+00,5.000000000000000000e+00,5.000000000000000000e+00,5.000000000000000000e+00,5.000000000000000000e+00,5.000000000000000000e+00,5.000000000000000000e+00,5.000000000000000000e+00,5.000000000000000000e+00,5.000000000000000000e+00,4.863023757934570312e+00,4.671986103057861328e+00,4.495390892028808594e+00,4.331658840179443359e+00,4.179434776306152344e+00,4.037546634674072266e+00,3.904976129531860352e+00,3.780834674835205078e+00,1.300179600715637207e+00,1.240445256233215332e+00,1.213700056076049805e+00,3.354294300079345703e+00,3.262284517288208008e+00,3.175187826156616211e+00,3.092620611190795898e+00,3.014238595962524414e+00,1.162187457084655762e+00,1.136187195777893066e+00,1.109366297721862793e+00,1.087524294853210449e+00,1.066251754760742188e+00,1.048464059829711914e+00,1.040356755256652832e+00,1.032373905181884766e+00,1.031683087348937988e+00,1.058649182319641113e+00,2.357097148895263672e+00,2.311288833618164062e+00,2.267227172851562500e+00,2.224814176559448242e+00,2.183958768844604492e+00,2.144576787948608398e+00,2.106590032577514648e+00,2.069925308227539062e+00,2.034515380859375000e+00,2.000296354293823242e+00,1.967209696769714355e+00,1.935199499130249023e+00,1.904214382171630859e+00,1.874205827713012695e+00,1.845128417015075684e+00
5.000000000000000000e+00,5.000000000000000000e+00,5.000000000000000000e+00,5.000000000000000000e+00,5.000000000000000000e+00,5.000000000000000000e+00,5.000000000000000000e+00,5.000000000000000000e+00,5.000000000000000000e+00,5.000000000000000000e+00,5.000000000000000000e+00,5.000000000000000000e+00,5.000000000000000000e+00,5.000000000000000000e+00,5.000000000000000000e+00,5.000000000000000000e+00,5.000000000000000000e+00,5.000000000000000000e+00,5.000000000000000000e+00,5.000000000000000000e+00,5.000000000000000000e+00,5.000000000000000000e+00,5.000000000000000000e+00,5.000000000000000000e+00,5.000000000000000000e+00,5.000000000000000000e+00,5.000000000000000000e+00,5.000000000000000000e+00,5.000000000000000000e+00,5.000000000000000000e+00,5.000000000000000000e+00,5.000000000000000000e+00,5.000000000000000000e+00,5.000000000000000000e+00,5.000000000000000000e+00,5.000000000000000000e+00,5.000000000000000000e+00,5.000000000000000000e+00,5.000000000000000000e+00,4.863162517547607422e+00,4.672114372253417969e+00,4.495509147644042969e+00,4.331768989562988281e+00,4.179537296295166016e+00,4.037642002105712891e+00,3.905065536499023438e+00,3.780918359756469727e+00,1.297847509384155273e+00,1.235794305801391602e+00,1.209043741226196289e+00,3.354360342025756836e+00,3.262346982955932617e+00,3.175246715545654297e+00,3.092676639556884766e+00,3.014292001724243164e+00,1.370615005493164062e+00,1.140811562538146973e+00,1.116184949874877930e+00,1.091064929962158203e+00,1.070057749748229980e+00,1.049178838729858398e+00,1.037651658058166504e+00,1.029294133186340332e+00,1.022782087326049805e+00,1.045828819274902344e+00,2.357129573822021484e+00,2.311320304870605469e+00,2.267257452011108398e+00,2.224843025207519531e+00,2.183986902236938477e+00,2.144603729248046875e+00,2.106616020202636719e+00,2.069950580596923828e+00,2.034539699554443359e+00,2.000319957733154297e+00,1.967232346534729004e+00,1.935221433639526367e+00,1.904235601425170898e+00,1.874226331710815430e+00,1.845148444175720215e+00
5.000000000000000000e+00,5.000000000000000000e+00,5.000000000000000000e+00,5.000000000000000000e+00,5.000000000000000000e+00,5.000000000000000000e+00,5.000000000000000000e+00,5.000000000000000000e+00,5.000000000000000000e+00,5.000000000000000000e+00,5.000000000000000000e+00,5.000000000000000000e+00,5.000000000000000000e+00,5.000000000000000000e+00,5.000000000000000000e+00,5.000000000000000000e+00,5.000000000000000000e+00,5.000000000000000000e+00,5.000000000000000000e+00,5.000000000000000000e+00,5.000000000000000000e+00,5.000000000000000000e+00,5.000000000000000000e+00,5.000000000000000000e+00,5.000000000000000000e+00,5.000000000000000000e+00,5.000000000000000000e+00,5.000000000000000000e+00,5.000000000000000000e+00,5.000000000000000000e+00,5.000000000000000000e+00,5.000000000000000000e+00,5.000000000000000000e+00,5.000000000000000000e+00,5.000000000000000000e+00,5.000000000000000000e+00,5.000000000000000000e+00,5.000000000000000000e+00,5.000000000000000000e+00,4.863301753997802734e+00,4.672242164611816406e+00,4.495627880096435547e+00,4.331878662109375000e+00,4.179639816284179688e+00,4.037737846374511719e+00,3.905155181884765625e+00,3.781002283096313477e+00,3.664500474929809570e+00,1.232016921043395996e+00,3.451784610748291016e+00,3.354426145553588867e+00,3.262409448623657227e+00,3.175305843353271484e+00,3.092732667922973633e+00,3.014345169067382812e+00,1.369124054908752441e+00,1.145014047622680664e+00,1.120207786560058594e+00,1.096453428268432617e+00,1.073941349983215332e+00,1.053328156471252441e+00,1.038422346115112305e+00,1.028908133506774902e+00,1.019748449325561523e+00,1.035904765129089355e+00,2.357162237167358398e+00,2.311351537704467773e+00,2.267287492752075195e+00,2.224872112274169922e+00,2.184014797210693359e+00,2.144630908966064453e+00,2.106642007827758789e+00,2.069975614547729492e+00,2.034564018249511719e+00,2.000343322753906250e+00,1.967254996299743652e+00,1.935243487358093262e+00,1.904256939888000488e+00,1.874247074127197266e+00,1.845168352127075195e+00
5.000000000000000000e+00,5.000000000000000000e+00,5.000000000000000000e+00,5.000000000000000000e+00,5.000000000000000000e+00,5.000000000000000000e+00,5.000000000000000000e+00,5.000000000000000000e+00,5.000000000000000000e+00,5.000000000000000000e+00,5.000000000000000000e+00,5.000000000000000000e+00,5.000000000000000000e+00,5.000000000000000000e+00,5.000000000000000000e+00,5.000000000000000000e+00,5.000000000000000000e+00,5.000000000000000000e+00,5.000000000000000000e+00,5.000000000000000000e+00,5.000000000000000000e+00,5.000000000000000000e+00,5.000000000000000000e+00,5.000000000000000000e+00,5.000000000000000000e+00,5.000000000000000000e+00,5.000000000000000000e+00,5.000000000000000000e+00,5.000000000000000000e+00,5.000000000000000000e+00,5.000000000000000000e+00,5.000000000000000000e+00,5.000000000000000000e+00,5.000000000000000000e+00,5.000000000000000000e+00,5.000000000000000000e+00,5.000000000000000000e+00,5.000000000000000000e+00,5.000000000000000000e+00,4.863440036773681641e+00,4.672370433807373047e+00,4.495746135711669922e+00,4.331989288330078125e+00,4.179742336273193359e+00,4.037833213806152344e+00,3.905244588851928711e+00,3.781086206436157227e+00,3.664578914642333984e+00,3.555037498474121094e+00,3.451854467391967773e+00,3.354492187500000000e+00,3.262471914291381836e+00,3.175365209579467773e+00,3.092788696289062500e+00,3.014398336410522461e+00,1.367081046104431152e+00,1.332654118537902832e+00,1.124259591102600098e+00,1.100612640380859375e+00,1.078260421752929688e+00,1.057510495185852051e+00,1.040065884590148926e+00,1.030228137969970703e+00,1.021778345108032227e+00,1.039728999137878418e+00,2.357194900512695312e+00,2.311382770538330078e+00,2.267317771911621094e+00,2.224901199340820312e+00,2.184042692184448242e+00,2.144657611846923828e+00,2.106668233871459961e+00,2.070000648498535156e+00,2.034588098526000977e+00,2.000366926193237305e+00,1.967277765274047852e+00,1.935265421867370605e+00,1.904278159141540527e+00,1.874267578125000000e+00,1.845188260078430176e+00
5.000000000000000000e+00,5.000000000000000000e+00,5.000000000000000000e+00,5.000000000000000000e+00,5.000000000000000000e+00,5.000000000000000000e+00,5.000000000000000000e+00,5.000000000000000000e+00,5.000000000000000000e+00,5.000000000000000000e+00,5.000000000000000000e+00,5.000000000000000000e+00,5.000000000000000000e+00,5.000000000000000000e+00,5.000000000000000000e+00,5.000000000000000000e+00,5.000000000000000000e+00,5.000000000000000000e+00,5.000000000000000000e+00,5.000000000000000000e+00,5.000000000000000000e+00,5.000000000000000000e+00,5.000000000000000000e+00,5.000000000000000000e+00,5.000000000000000000e+00,5.000000000000000000e+00,5.000000000000000000e+00,5.000000000000000000e+00,5.000000000000000000e+00,5.000000000000000000e+00,5.000000000000000000e+00,5.000000000000000000e+00,5.000000000000000000e+00,5.000000000000000000e+00,5.000000000000000000e+00,5.000000000000000000e+00,5.000000000000000000e+00,5.000000000000000000e+00,5.000000000000000000e+00,4.863578796386718750e+00,4.672498226165771484e+00,4.495864868164062500e+00,4.332099437713623047e+00,4.179844856262207031e+00,4.037929058074951172e+00,3.905333757400512695e+00,3.781170129776000977e+00,3.664657831192016602e+00,3.555111408233642578e+00,3.451924562454223633e+00,3.354558229446411133e+00,3.262534141540527344e+00,3.175424337387084961e+00,3.092844963073730469e+00,3.014451742172241211e+00,1.365043997764587402e+00,1.333031415939331055e+00,1.129441261291503906e+00,1.105804920196533203e+00,1.079806566238403320e+00,1.057462573051452637e+00,1.043237686157226562e+00,1.033683896064758301e+00,1.027574658393859863e+00,1.046159505844116211e+00,2.357227563858032227e+00,2.311414241790771484e+00,2.267347812652587891e+00,2.224930286407470703e+00,2.184070587158203125e+00,2.144684553146362305e+00,2.106694221496582031e+00,2.070025920867919922e+00,2.034612417221069336e+00,2.000390529632568359e+00,1.967300415039062500e+00,1.935287237167358398e+00,1.904299378395080566e+00,1.874288320541381836e+00,1.845208406448364258e+00
5.000000000000000000e+00,5.000000000000000000e+00,5.000000000000000000e+00,5.000000000000000000e+00,5.000000000000000000e+00,5.000000000000000000e+00,5.000000000000000000e+00,5.000000000000000000e+00,5.000000000000000000e+00,5.000000000000000000e+00,5.000000000000000000e+00,5.000000000000000000e+00,5.000000000000000000e+00,5.000000000000000000e+00,5.000000000000000000e+00,5.000000000000000000e+00,5.000000000000000000e+00,5.000000000000000000e+00,5.000000000000000000e+00,5.000000000000000000e+00,5.000000000000000000e+00,5.000000000000000000e+00,5.000000000000000000e+00,5.000000000000000000e+00,5.000000000000000000e+00,5.000000000000000000e+00,5.000000000000000000e+00,5.000000000000000000e+00,5.000000000000000000e+00,5.000000000000000000e+00,5.000000000000000000e+00,5.000000000000000000e+00,5.000000000000000000e+00,5.000000000000000000e+00,5.000000000000000000e+00,5.000000000000000000e+00,5.000000000000000000e+00,5.000000000000000000e+00,5.000000000000000000e+00,4.863717555999755859e+00,4.672626495361328125e+00,4.495983123779296875e+00,4.332209110260009766e+00,4.179947376251220703e+00,4.038024425506591797e+00,3.905423164367675781e+00,3.781254053115844727e+00,3.664736747741699219e+00,3.555185556411743164e+00,3.451994180679321289e+00,3.354624271392822266e+00,3.262596607208251953e+00,3.175483226776123047e+00,3.092900991439819336e+00,3.014505147933959961e+00,1.363013029098510742e+00,1.334991455078125000e+00,1.317138195037841797e+00,1.103653550148010254e+00,1.077005505561828613e+00,1.058145046234130859e+00,1.048859834671020508e+00,1.039203286170959473e+00,1.036159873008728027e+00,1.055059432983398438e+00,2.357259988784790039e+00,2.311445474624633789e+00,2.267377853393554688e+00,2.224959135055541992e+00,2.184098720550537109e+00,2.144711732864379883e+00,2.106720209121704102e+00,2.070050954818725586e+00,2.034636735916137695e+00,2.000413894653320312e+00,1.967323184013366699e+00,1.935309290885925293e+00,1.904320716857910156e+00,1.874308824539184570e+00,1.845228195190429688e+00
5.000000000000000000e+00,5.000000000000000000e+00,5.000000000000000000e+00,5.000000000000000000e+00,5.000000000000000000e+00,5.000000000000000000e+00,5.000000000000000000e+00,5.000000000000000000e+00,5.000000000000000000e+00,5.000000000000000000e+00,5.000000000000000000e+00,5.000000000000000000e+00,5.000000000000000000e+00,5.000000000000000000e+00,5.000000000000000000e+00,5.000000000000000000e+00,5.000000000000000000e+00,5.000000000000000000e+00,5.000000000000000000e+00,5.000000000000000000e+00,5.000000000000000000e+00,5.000000000000000000e+00,5.000000000000000000e+00,5.000000000000000000e+00,5.000000000000000000e+00,5.000000000000000000e+00,5.000000000000000000e+00,5.000000000000000000e+00,5.000000000000000000e+00,5.000000000000000000e+00,5.000000000000000000e+00,5.000000000000000000e+00,5.000000000000000000e+00,5.000000000000000000e+00,5.000000000000000000e+00,5.000000000000000000e+00,5.000000000000000000e+00,5.000000000000000000e+00,5.000000000000000000e+00,4.863856315612792969e+00,4.672754287719726562e+00,4.496101856231689453e+00,4.332319259643554688e+00,4.180049419403076172e+00,4.038120269775390625e+00,3.905512809753417969e+00,3.781337499618530273e+00,3.664815425872802734e+00,3.555259704589843750e+00,3.452064037322998047e+00,3.354690313339233398e+00,3.262659072875976562e+00,3.175542354583740234e+00,3.092957258224487305e+00,3.014558315277099609e+00,1.367539525032043457e+00,1.338342308998107910e+00,1.130837321281433105e+00,1.100747942924499512e+00,1.076462745666503906e+00,1.060053944587707520e+00,1.053463697433471680e+00,1.044781923294067383e+00,1.044889926910400391e+00,1.071083188056945801e+00,2.357292652130126953e+00,2.311476945877075195e+00,2.267408132553100586e+00,2.224988222122192383e+00,2.184126615524291992e+00,2.144738674163818359e+00,2.106746196746826172e+00,2.070075988769531250e+00,2.034661054611206055e+00,2.000437259674072266e+00,1.967345833778381348e+00,1.935331225395202637e+00,1.904341936111450195e+00,1.874329328536987305e+00,1.845248341560363770e+00
5.000000000000000000e+00,5.000000000000000000e+00,5.000000000000000000e+00,5.000000000000000000e+00,5.000000000000000000e+00,5.000000000000000000e+00,5.000000000000000000e+00,5.000000000000000000e+00,5.000000000000000000e+00,5.000000000000000000e+00,5.000000000000000000e+00,5.000000000000000000e+00,5.000000000000000000e+00,5.000000000000000000e+00,5.000000000000000000e+00,5.000000000000000000e+00,5.000000000000000000e+00,5.000000000000000000e+00,5.000000000000000000e+00,5.000000000000000000e+00,5.000000000000000000e+00,5.000000000000000000e+00,5.000000000000000000e+00,5.000000000000000000e+00,5.000000000000000000e+00,5.000000000000000000e+00,5.000000000000000000e+00,5.000000000000000000e+00,5.000000000000000000e+00,5.000000000000000000e+00,5.000000000000000000e+00,5.000000000000000000e+00,5.000000000000000000e+00,5.000000000000000000e+00,5.000000000000000000e+00,5.000000000000000000e+00,5.000000000000000000e+00,5.000000000000000000e+00,5.000000000000000000e+00,4.863995075225830078e+00,4.672882556915283203e+00,4.496220588684082031e+00,4.332429409027099609e+00,4.180151939392089844e+00,4.038215637207031250e+00,3.905602455139160156e+00,3.781421422958374023e+00,3.664894104003906250e+00,3.555334091186523438e+00,3.452134132385253906e+00,3.354756116867065430e+00,3.262721538543701172e+00,3.175601720809936523e+00,3.093013048171997070e+00,3.014611721038818359e+00,1.359190940856933594e+00,1.341023802757263184e+00,1.127694606781005859e+00,1.097313404083251953e+00,1.075920701026916504e+00,1.062615513801574707e+00,1.057448506355285645e+00,1.050420641899108887e+00,1.053768396377563477e+00,2.404995203018188477e+00,2.357325315475463867e+00,2.311508178710937500e+00,2.267438411712646484e+00,2.225017309188842773e+00,2.184154510498046875e+00,2.144765615463256836e+00,2.106772184371948242e+00,2.070101261138916016e+00,2.034685373306274414e+00,2.000460863113403320e+00,1.967368483543395996e+00,1.935353159904479980e+00,1.904363274574279785e+00,1.874350070953369141e+00,1.845268249511718750e+00
5.000000000000000000e+00,5.000000000000000000e+00,5.000000000000000000e+00,5.000000000000000000e+00,5.000000000000000000e+00,5.000000000000000000e+00,5.000000000000000000e+00,5.000000000000000000e+00,5.000000000000000000e+00,5.000000000000000000e+00,5.000000000000000000e+00,5.000000000000000000e+00,5.000000000000000000e+00,5.000000000000000000e+00,5.000000000000000000e+00,5.000000000000000000e+00,5.000000000000000000e+00,5.000000000000000000e+00,5.000000000000000000e+00,5.000000000000000000e+00,5.000000000000000000e+00,5.000000000000000000e+00,5.000000000000000000e+00,5.000000000000000000e+00,5.000000000000000000e+00,5.000000000000000000e+00,5.000000000000000000e+00,5.000000000000000000e+00,5.000000000000000000e+00,5.000000000000000000e+00,5.000000000000000000e+00,5.000000000000000000e+00,5.000000000000000000e+00,5.000000000000000000e+00,5.000000000000000000e+00,5.000000000000000000e+00,5.000000000000000000e+00,5.000000000000000000e+00,5.000000000000000000e+00,4.864133834838867188e+00,4.673010826110839844e+00,4.496338844299316406e+00,4.332539558410644531e+00,4.180254459381103516e+00,4.038311481475830078e+00,3.905691862106323242e+00,3.781505346298217773e+00,3.664972782135009766e+00,3.555408239364624023e+00,3.452203989028930664e+00,3.354822158813476562e+00,3.262783765792846680e+00,3.175660848617553711e+00,3.093069314956665039e+00,1.424567699432373047e+00,1.368900775909423828e+00,1.347583055496215820e+00,1.124671816825866699e+00,1.094864606857299805e+00,1.078383922576904297e+00,1.065254926681518555e+00,1.061463713645935059e+00,1.056120634078979492e+00,1.063508272171020508e+00,2.405029058456420898e+00,2.357357740402221680e+00,2.311539411544799805e+00,2.267468452453613281e+00,2.225046396255493164e+00,2.184182643890380859e+00,2.144792556762695312e+00,2.106798410415649414e+00,2.070126533508300781e+00,2.034709692001342773e+00,2.000484228134155273e+00,1.967391252517700195e+00,1.935375213623046875e+00,1.904384493827819824e+00,1.874370574951171875e+00,1.845288157463073730e+00
5.000000000000000000e+00,5.000000000000000000e+00,5.000000000000000000e+00,5.000000000000000000e+00,5.000000000000000000e+00,5.000000000000000000e+00,5.000000000000000000e+00,5.000000000000000000e+00,5.000000000000000000e+00,5.000000000000000000e+00,5.000000000000000000e+00,5.000000000000000000e+00,5.000000000000000000e+00,5.000000000000000000e+00,5.000000000000000000e+00,5.000000000000000000e+00,5.000000000000000000e+00,5.000000000000000000e+00,5.000000000000000000e+00,5.000000000000000000e+00,5.000000000000000000e+00,5.000000000000000000e+00,5.000000000000000000e+00,5.000000000000000000e+00,5.000000000000000000e+00,5.000000000000000000e+00,5.000000000000000000e+00,5.000000000000000000e+00,5.000000000000000000e+00,5.000000000000000000e+00,5.000000000000000000e+00,5.000000000000000000e+00,5.000000000000000000e+00,5.000000000000000000e+00,5.000000000000000000e+00,5.000000000000000000e+00,5.000000000000000000e+00,5.000000000000000000e+00,5.000000000000000000e+00,4.864272594451904297e+00,4.673138618469238281e+00,4.496457576751708984e+00,4.332649230957031250e+00,4.180356979370117188e+00,4.038407325744628906e+00,3.905781030654907227e+00,3.781589508056640625e+00,3.665051698684692383e+00,3.555482149124145508e+00,3.452273845672607422e+00,3.354888200759887695e+00,3.262846231460571289e+00,3.175719976425170898e+00,1.472187638282775879e+00,1.408643603324890137e+00,1.381803393363952637e+00,1.355967044830322266e+00,1.121665120124816895e+00,1.094627261161804199e+00,1.081034898757934570e+00,1.069329738616943359e+00,1.065509557723999023e+00,1.061716556549072266e+00,1.091389656066894531e+00,2.405062913894653320e+00,2.357390403747558594e+00,2.311570882797241211e+00,2.267498493194580078e+00,2.225075483322143555e+00,2.184210538864135742e+00,2.144819498062133789e+00,2.106824159622192383e+00,2.070151567459106445e+00,2.034734010696411133e+00,2.000507593154907227e+00,1.967413902282714844e+00,1.935397028923034668e+00,1.904405713081359863e+00,1.874391317367553711e+00,1.845308184623718262e+00
5.000000000000000000e+00,5.000000000000000000e+00,5.000000000000000000e+00,5.000000000000000000e+00,5.000000000000000000e+00,5.000000000000000000e+00,5.000000000000000000e+00,5.000000000000000000e+00,5.000000000000000000e+00,5.000000000000000000e+00,5.000000000000000000e+00,5.000000000000000000e+00,5.000000000000000000e+00,5.000000000000000000e+00,5.000000000000000000e+00,5.000000000000000000e+00,5.000000000000000000e+00,5.000000000000000000e+00,5.000000000000000000e+00,5.000000000000000000e+00,5.000000000000000000e+00,5.000000000000000000e+00,5.000000000000000000e+00,5.000000000000000000e+00,5.000000000000000000e+00,5.000000000000000000e+00,5.000000000000000000e+00,5.000000000000000000e+00,5.000000000000000000e+00,5.000000000000000000e+00,5.000000000000000000e+00,5.000000000000000000e+00,5.000000000000000000e+00,5.000000000000000000e+00,5.000000000000000000e+00,5.000000000000000000e+00,5.000000000000000000e+00,5.000000000000000000e+00,5.000000000000000000e+00,4.864411354064941406e+00,4.673266887664794922e+00,4.496575832366943359e+00,4.332759380340576172e+00,4.180459499359130859e+00,4.038502693176269531e+00,3.905870676040649414e+00,3.781672954559326172e+00,3.665130615234375000e+00,3.555556297302246094e+00,3.452343463897705078e+00,3.354954481124877930e+00,3.262908697128295898e+00,1.525107026100158691e+00,1.452950716018676758e+00,1.424412727355957031e+00,1.395277261734008789e+00,1.370197057723999023e+00,1.118674516677856445e+00,1.097358942031860352e+00,1.083699226379394531e+00,1.073317646980285645e+00,1.069063425064086914e+00,1.064842820167541504e+00,1.104018449783325195e+00,2.405096769332885742e+00,2.357422828674316406e+00,2.311602115631103516e+00,2.267528772354125977e+00,2.225104331970214844e+00,2.184238672256469727e+00,2.144846677780151367e+00,2.106850385665893555e+00,2.070176839828491211e+00,2.034758329391479492e+00,2.000531196594238281e+00,1.967436671257019043e+00,1.935419201850891113e+00,1.904427051544189453e+00,1.874411821365356445e+00,1.845328092575073242e+00
5.000000000000000000e+00,5.000000000000000000e+00,5.000000000000000000e+00,5.000000000000000000e+00,5.000000000000000000e+00,5.000000000000000000e+00,5.000000000000000000e+00,5.000000000000000000e+00,5.000000000000000000e+00,5.000000000000000000e+00,5.000000000000000000e+00,5.000000000000000000e+00,5.000000000000000000e+00,5.000000000000000000e+00,5.000000000000000000e+00,5.000000000000000000e+00,5.000000000000000000e+00,5.000000000000000000e+00,5.000000000000000000e+00,5.000000000000000000e+00,5.000000000000000000e+00,5.000000000000000000e+00,5.000000000000000000e+00,5.000000000000000000e+00,5.000000000000000000e+00,5.000000000000000000e+00,5.000000000000000000e+00,5.000000000000000000e+00,5.000000000000000000e+00,5.000000000000000000e+00,5.000000000000000000e+00,5.000000000000000000e+00,5.000000000000000000e+00,5.000000000000000000e+00,5.000000000000000000e+00,5.000000000000000000e+00,5.000000000000000000e+00,5.000000000000000000e+00,5.000000000000000000e+00,4.864550113677978516e+00,4.673394680023193359e+00,4.496694564819335938e+00,4.332870006561279297e+00,4.180562019348144531e+00,4.038598537445068359e+00,3.905960083007812500e+00,3.781756877899169922e+00,3.665209531784057617e+00,3.555630445480346680e+00,3.452413558959960938e+00,3.355020523071289062e+00,3.262971162796020508e+00,1.498230218887329102e+00,1.462653994560241699e+00,1.432354211807250977e+00,1.412847876548767090e+00,1.397630095481872559e+00,1.120653271675109863e+00,1.099832296371459961e+00,1.086015820503234863e+00,1.073645234107971191e+00,1.069116592407226562e+00,1.064895510673522949e+00,1.100796580314636230e+00,2.405130863189697266e+00,2.357455492019653320e+00,2.311633586883544922e+00,2.267558813095092773e+00,2.225133419036865234e+00,2.184266567230224609e+00,2.144873619079589844e+00,2.106876373291015625e+00,2.070201873779296875e+00,2.034782409667968750e+00,2.000554561614990234e+00,1.967459321022033691e+00,1.935441017150878906e+00,1.904448270797729492e+00,1.874432325363159180e+00,1.845348238945007324e+00
5.000000000000000000e+00,5.000000000000000000e+00,5.000000000000000000e+00,5.000000000000000000e+00,5.000000000000000000e+00,5.000000000000000000e+00,5.000000000000000000e+00,5.000000000000000000e+00,5.000000000000000000e+00,5.000000000000000000e+00,5.000000000000000000e+00,5.000000000000000000e+00,5.000000000000000000e+00,5.000000000000000000e+00,5.000000000000000000e+00,5.000000000000000000e+00,5.000000000000000000e+00,5.000000000000000000e+00,5.000000000000000000e+00,5.000000000000000000e+00,5.000000000000000000e+00,5.000000000000000000e+00,5.000000000000000000e+00,5.000000000000000000e+00,5.000000000000000000e+00,5.000000000000000000e+00,5.000000000000000000e+00,5.000000000000000000e+00,5.000000000000000000e+00,5.000000000000000000e+00,5.000000000000000000e+00,5.000000000000000000e+00,5.000000000000000000e+00,5.000000000000000000e+00,5.000000000000000000e+00,5.000000000000000000e+00,5.000000000000000000e+00,5.000000000000000000e+00,5.000000000000000000e+00,4.864688873291015625e+00,4.673522949218750000e+00,4.496813297271728516e+00,4.332979679107666016e+00,4.180664539337158203e+00,4.038693904876708984e+00,3.906049728393554688e+00,3.781840801239013672e+00,3.665287971496582031e+00,3.555704832077026367e+00,3.452483415603637695e+00,3.355086326599121094e+00,3.263033866882324219e+00,1.496273636817932129e+00,1.467017054557800293e+00,1.451853156089782715e+00,1.442033410072326660e+00,1.426996111869812012e+00,1.129060387611389160e+00,1.102150917053222656e+00,1.088276505470275879e+00,1.075046658515930176e+00,1.069169759750366211e+00,1.064948201179504395e+00,1.097021460533142090e+00,2.405164718627929688e+00,2.357488155364990234e+00,2.311664819717407227e+00,2.267589092254638672e+00,2.225162506103515625e+00,2.184294462203979492e+00,2.144900560379028320e+00,2.106902360916137695e+00,2.070226907730102539e+00,2.034806728363037109e+00,2.000578165054321289e+00,1.967481970787048340e+00,1.935462951660156250e+00,1.904469728469848633e+00,1.874453067779541016e+00,1.845368146896362305e+00
5.000000000000000000e+00,5.000000000000000000e+00,5.000000000000000000e+00,5.000000000000000000e+00,5.000000000000000000e+00,5.000000000000000000e+00,5.000000000000000000e+00,5.000000000000000000e+00,5.000000000000000000e+00,5.000000000000000000e+00,5.000000000000000000e+00,5.000000000000000000e+00,5.000000000000000000e+00,5.000000000000000000e+00,5.000000000000000000e+00,5.000000000000000000e+00,5.000000000000000000e+00,5.000000000000000000e+00,5.000000000000000000e+00,5.000000000000000000e+00,5.000000000000000000e+00,5.000000000000000000e+00,5.000000000000000000e+00,5.000000000000000000e+00,5.000000000000000000e+00,5.000000000000000000e+00,5.000000000000000000e+00,5.000000000000000000e+00,5.000000000000000000e+00,5.000000000000000000e+00,5.000000000000000000e+00,5.000000000000000000e+00,5.000000000000000000e+00,5.000000000000000000e+00,5.000000000000000000e+00,5.000000000000000000e+00,5.000000000000000000e+00,5.000000000000000000e+00,5.000000000000000000e+00,4.864826202392578125e+00,4.673650741577148438e+00,4.496932029724121094e+00,4.333089828491210938e+00,4.180767059326171875e+00,4.038789749145507812e+00,3.906139373779296875e+00,3.781924724578857422e+00,3.665366888046264648e+00,3.555778741836547852e+00,3.452553510665893555e+00,3.355152368545532227e+00,1.551914453506469727e+00,1.500839829444885254e+00,1.474812030792236328e+00,1.467725872993469238e+00,1.459367632865905762e+00,2.869446992874145508e+00,1.137594461441040039e+00,1.104479312896728516e+00,1.090546607971191406e+00,1.077347397804260254e+00,1.069222807884216309e+00,1.065000891685485840e+00,1.093272209167480469e+00,2.405198574066162109e+00,2.357520818710327148e+00,2.311696290969848633e+00,2.267619132995605469e+00,2.225191593170166016e+00,2.184322595596313477e+00,2.144927501678466797e+00,2.106928586959838867e+00,2.070252180099487305e+00,2.034831047058105469e+00,2.000601530075073242e+00,1.967504739761352539e+00,1.935485005378723145e+00,1.904490828514099121e+00,1.874473690986633301e+00,1.845387935638427734e+00
5.000000000000000000e+00,5.000000000000000000e+00,5.000000000000000000e+00,5.000000000000000000e+00,5.000000000000000000e+00,5.000000000000000000e+00,5.000000000000000000e+00,5.000000000000000000e+00,5.000000000000000000e+00,5.000000000000000000e+00,5.000000000000000000e+00,5.000000000000000000e+00,5.000000000000000000e+00,5.000000000000000000e+00,5.000000000000000000e+00,5.000000000000000000e+00,5.000000000000000000e+00,5.000000000000000000e+00,5.000000000000000000e+00,5.000000000000000000e+00,5.000000000000000000e+00,5.000000000000000000e+00,5.000000000000000000e+00,5.000000000000000000e+00,5.000000000000000000e+00,5.000000000000000000e+00,5.000000000000000000e+00,5.000000000000000000e+00,5.000000000000000000e+00,5.000000000000000000e+00,5.000000000000000000e+00,5.000000000000000000e+00,5.000000000000000000e+00,5.000000000000000000e+00,5.000000000000000000e+00,5.000000000000000000e+00,5.000000000000000000e+00,5.000000000000000000e+00,5.000000000000000000e+00,4.864964962005615234e+00,4.673778057098388672e+00,4.497050762176513672e+00,4.333199977874755859e+00,4.180869579315185547e+00,4.038885593414306641e+00,3.906228542327880859e+00,3.782008886337280273e+00,3.665445566177368164e+00,3.555852890014648438e+00,3.452623605728149414e+00,3.355218410491943359e+00,1.536259055137634277e+00,1.507016658782958984e+00,1.491182804107666016e+00,1.483949422836303711e+00,1.475405931472778320e+00,2.869495391845703125e+00,1.144005894660949707e+00,1.106817603111267090e+00,1.092905879020690918e+00,1.079658269882202148e+00,1.070335388183593750e+00,1.065053582191467285e+00,1.089548468589782715e+00,2.405232429504394531e+00,2.357553482055664062e+00,2.311727523803710938e+00,2.267649412155151367e+00,2.225220441818237305e+00,2.184350490570068359e+00,2.144954442977905273e+00,2.106954336166381836e+00,2.070277214050292969e+00,2.034855365753173828e+00,2.000624895095825195e+00,1.967527389526367188e+00,1.935506939888000488e+00,1.904512047767639160e+00,1.874494314193725586e+00,1.845408082008361816e+00
5.000000000000000000e+00,5.000000000000000000e+00,5.000000000000000000e+00,5.000000000000000000e+00,5.000000000000000000e+00,5.000000000000000000e+00,5.000000000000000000e+00,5.000000000000000000e+00,5.000000000000000000e+00,5.000000000000000000e+00,5.000000000000000000e+00,5.000000000000000000e+00,5.000000000000000000e+00,5.000000000000000000e+00,5.000000000000000000e+00,5.000000000000000000e+00,5.000000000000000000e+00,5.000000000000000000e+00,5.000000000000000000e+00,5.000000000000000000e+00,5.000000000000000000e+00,5.000000000000000000e+00,5.000000000000000000e+00,5.000000000000000000e+00,5.000000000000000000e+00,5.000000000000000000e+00,5.000000000000000000e+00,5.000000000000000000e+00,5.000000000000000000e+00,5.000000000000000000e+00,5.000000000000000000e+00,5.000000000000000000e+00,5.000000000000000000e+00,5.000000000000000000e+00,5.000000000000000000e+00,5.000000000000000000e+00,5.000000000000000000e+00,5.000000000000000000e+00,5.000000000000000000e+00,4.865103721618652344e+00,4.673905849456787109e+00,4.497169017791748047e+00,4.333310127258300781e+00,4.180972099304199219e+00,4.038980960845947266e+00,3.906317949295043945e+00,3.782092332839965820e+00,3.665524482727050781e+00,3.555927038192749023e+00,3.452693223953247070e+00,1.614134788513183594e+00,1.543598532676696777e+00,1.514783740043640137e+00,1.507921218872070312e+00,1.500535607337951660e+00,2.940492153167724609e+00,2.869543790817260742e+00,1.149098396301269531e+00,1.109165787696838379e+00,1.095283985137939453e+00,1.081979036331176758e+00,1.071575880050659180e+00,1.065106391906738281e+00,1.085850000381469727e+00,2.405266523361206055e+00,2.357585906982421875e+00,2.311758995056152344e+00,2.267679452896118164e+00,2.225249528884887695e+00,2.184378623962402344e+00,2.144981384277343750e+00,2.106980562210083008e+00,2.070302486419677734e+00,2.034879684448242188e+00,2.000648498535156250e+00,1.967550039291381836e+00,1.935528993606567383e+00,1.904533505439758301e+00,1.874514937400817871e+00,1.845427989959716797e+00
5.000000000000000000e+00,5.000000000000000000e+00,5.000000000000000000e+00,5.000000000000000000e+00,5.000000000000000000e+00,5.000000000000000000e+00,5.000000000000000000e+00,5.000000000000000000e+00,5.000000000000000000e+00,5.000000000000000000e+00,5.000000000000000000e+00,5.000000000000000000e+00,5.000000000000000000e+00,5.000000000000000000e+00,5.000000000000000000e+00,5.000000000000000000e+00,5.000000000000000000e+00,5.000000000000000000e+00,5.000000000000000000e+00,5.000000000000000000e+00,5.000000000000000000e+00,5.000000000000000000e+00,5.000000000000000000e+00,5.000000000000000000e+00,5.000000000000000000e+00,5.000000000000000000e+00,5.000000000000000000e+00,5.000000000000000000e+00,5.000000000000000000e+00,5.000000000000000000e+00,5.000000000000000000e+00,5.000000000000000000e+00,5.000000000000000000e+00,5.000000000000000000e+00,5.000000000000000000e+00,5.000000000000000000e+00,5.000000000000000000e+00,5.000000000000000000e+00,5.000000000000000000e+00,4.865242481231689453e+00,4.674034118652343750e+00,4.497286319732666016e+00,4.333420276641845703e+00,4.181074619293212891e+00,4.039076805114746094e+00,3.906407594680786133e+00,3.782176256179809570e+00,3.665603160858154297e+00,3.556001424789428711e+00,3.452763080596923828e+00,1.586051344871520996e+00,1.552496314048767090e+00,1.532492637634277344e+00,1.525039553642272949e+00,1.520803689956665039e+00,2.940542936325073242e+00,2.869591712951660156e+00,1.154236435890197754e+00,1.111523985862731934e+00,1.097672462463378906e+00,1.084309816360473633e+00,1.072819352149963379e+00,1.065815567970275879e+00,1.082176566123962402e+00,2.405300378799438477e+00,2.357618570327758789e+00,2.311790227890014648e+00,2.267709732055664062e+00,2.225278615951538086e+00,2.184406280517578125e+00,2.145008563995361328e+00,2.107006549835205078e+00,2.070327520370483398e+00,2.034904003143310547e+00,2.000672101974487305e+00,1.967572808265686035e+00,1.935550928115844727e+00,1.904554605484008789e+00,1.874535441398620605e+00,1.845447897911071777e+00
5.000000000000000000e+00,5.000000000000000000e+00,5.000000000000000000e+00,5.000000000000000000e+00,5.000000000000000000e+00,5.000000000000000000e+00,5.000000000000000000e+00,5.000000000000000000e+00,5.000000000000000000e+00,5.000000000000000000e+00,5.000000000000000000e+00,5.000000000000000000e+00,5.000000000000000000e+00,5.000000000000000000e+00,5.000000000000000000e+00,5.000000000000000000e+00,5.000000000000000000e+00,5.000000000000000000e+00,5.000000000000000000e+00,5.000000000000000000e+00,5.000000000000000000e+00,5.000000000000000000e+00,5.000000000000000000e+00,5.000000000000000000e+00,5.000000000000000000e+00,5.000000000000000000e+00,5.000000000000000000e+00,5.000000000000000000e+00,5.000000000000000000e+00,5.000000000000000000e+00,5.000000000000000000e+00,5.000000000000000000e+00,5.000000000000000000e+00,5.000000000000000000e+00,5.000000000000000000e+00,5.000000000000000000e+00,5.000000000000000000e+00,5.000000000000000000e+00,5.000000000000000000e+00,4.865381717681884766e+00,4.674161911010742188e+00,4.497405052185058594e+00,4.333528995513916016e+00,4.181177139282226562e+00,4.039172649383544922e+00,3.906497240066528320e+00,3.782260417938232422e+00,3.665681838989257812e+00,3.556075572967529297e+00,3.452833175659179688e+00,1.595446705818176270e+00,1.561147332191467285e+00,1.551190257072448730e+00,1.543457865715026855e+00,3.015144586563110352e+00,2.940593719482421875e+00,2.869640111923217773e+00,1.159420490264892578e+00,1.113892197608947754e+00,1.100071430206298828e+00,1.086650609970092773e+00,1.074122786521911621e+00,1.067261815071105957e+00,1.079249382019042969e+00,2.405334472656250000e+00,2.357651233673095703e+00,2.311821460723876953e+00,2.267740011215209961e+00,2.225307703018188477e+00,2.184434413909912109e+00,2.145035266876220703e+00,2.107032537460327148e+00,2.070352554321289062e+00,2.034928083419799805e+00,2.000695466995239258e+00,1.967595458030700684e+00,1.935572862625122070e+00,1.904576063156127930e+00,1.874556183815002441e+00,1.845467925071716309e+00
5.000000000000000000e+00,5.000000000000000000e+00,5.000000000000000000e+00,5.000000000000000000e+00,5.000000000000000000e+00,5.000000000000000000e+00,5.000000000000000000e+00,5.000000000000000000e+00,5.000000000000000000e+00,5.000000000000000000e+00,5.000000000000000000e+00,5.000000000000000000e+00,5.000000000000000000e+00,5.000000000000000000e+00,5.000000000000000000e+00,5.000000000000000000e+00,5.000000000000000000e+00,5.000000000000000000e+00,5.000000000000000000e+00,5.000000000000000000e+00,5.000000000000000000e+00,5.000000000000000000e+00,5.000000000000000000e+00,5.000000000000000000e+00,5.000000000000000000e+00,5.000000000000000000e+00,5.000000000000000000e+00,5.000000000000000000e+00,5.000000000000000000e+00,5.000000000000000000e+00,5.000000000000000000e+00,5.000000000000000000e+00,5.000000000000000000e+00,5.000000000000000000e+00,5.000000000000000000e+00,5.000000000000000000e+00,5.000000000000000000e+00,5.000000000000000000e+00,5.000000000000000000e+00,4.865520000457763672e+00,4.674290180206298828e+00,4.497523307800292969e+00,4.333639144897460938e+00,4.181278705596923828e+00,4.039268493652343750e+00,3.906586408615112305e+00,3.782344341278076172e+00,3.665760755538940430e+00,3.556149482727050781e+00,1.653044223785400391e+00,1.604516029357910156e+00,1.578915476799011230e+00,1.570349931716918945e+00,3.093630552291870117e+00,3.015197992324829102e+00,2.940644502639770508e+00,2.869688510894775391e+00,2.802076101303100586e+00,1.117754459381103516e+00,1.102794051170349121e+00,1.089451313018798828e+00,1.076550841331481934e+00,1.071195006370544434e+00,1.077544331550598145e+00,2.405368328094482422e+00,2.357683897018432617e+00,2.311852931976318359e+00,2.267770051956176758e+00,2.225336790084838867e+00,2.184462308883666992e+00,2.145062446594238281e+00,2.107058525085449219e+00,2.070377826690673828e+00,2.034952402114868164e+00,2.000718832015991211e+00,1.967618346214294434e+00,1.935594916343688965e+00,1.904597282409667969e+00,1.874576687812805176e+00,1.845487833023071289e+00
4.875815868377685547e+00,4.874605178833007812e+00,4.873394966125488281e+00,4.872184753417968750e+00,4.870975494384765625e+00,4.869767189025878906e+00,4.868558883666992188e+00,4.867351531982421875e+00,4.866144657135009766e+00,4.864938735961914062e+00,4.863732814788818359e+00,4.862527847290039062e+00,4.861323356628417969e+00,4.860119819641113281e+00,4.858916282653808594e+00,4.857713699340820312e+00,4.856511592864990234e+00,4.855310440063476562e+00,4.854109287261962891e+00,4.852909088134765625e+00,4.851709365844726562e+00,4.850510597229003906e+00,4.849311828613281250e+00,4.848114013671875000e+00,4.846916675567626953e+00,4.845719814300537109e+00,4.844523906707763672e+00,4.843328475952148438e+00,4.842133522033691406e+00,4.840939044952392578e+00,4.839745044708251953e+00,4.838551998138427734e+00,4.837359428405761719e+00,4.836167335510253906e+00,4.834976196289062500e+00,4.833785057067871094e+00,4.832594871520996094e+00,4.831405639648437500e+00,4.830215930938720703e+00,4.829027652740478516e+00,4.674418449401855469e+00,4.497642040252685547e+00,4.333749771118164062e+00,4.181380748748779297e+00,4.039363861083984375e+00,3.906676054000854492e+00,3.782428264617919922e+00,3.665839672088623047e+00,3.556223630905151367e+00,1.659193396568298340e+00,1.613555908203125000e+00,1.598195552825927734e+00,3.176311254501342773e+00,3.093686580657958984e+00,3.015251398086547852e+00,2.940695047378540039e+00,2.869736909866333008e+00,2.802122116088867188e+00,1.125950098037719727e+00,1.105804681777954102e+00,1.092389345169067383e+00,1.079511046409606934e+00,1.075157165527343750e+00,1.075844526290893555e+00,2.405402183532714844e+00,2.357716321945190430e+00,2.311884403228759766e+00,2.267800092697143555e+00,2.225365638732910156e+00,2.184490442276000977e+00,2.145089387893676758e+00,2.107084512710571289e+00,2.070402860641479492e+00,2.034976720809936523e+00,2.000742435455322266e+00,1.967640876770019531e+00,1.935616850852966309e+00,1.904618382453918457e+00,1.874597430229187012e+00,1.845507979393005371e+00
3.778627634048461914e+00,3.777899980545043945e+00,3.777172803878784180e+00,3.776446342468261719e+00,3.775719642639160156e+00,3.774993181228637695e+00,3.774267673492431641e+00,3.773541688919067383e+00,3.772816181182861328e+00,3.772091388702392578e+00,3.771366357803344727e+00,3.770641803741455078e+00,3.769917726516723633e+00,3.769193649291992188e+00,3.768469572067260742e+00,3.767746448516845703e+00,3.767023324966430664e+00,3.766300201416015625e+00,3.765577554702758789e+00,3.764855384826660156e+00,3.764133214950561523e+00,3.763411283493041992e+00,3.762690067291259766e+00,3.761968612670898438e+00,3.761247634887695312e+00,3.760527133941650391e+00,3.759806632995605469e+00,3.759086370468139648e+00,3.758366823196411133e+00,3.757647037506103516e+00,3.756927728652954102e+00,3.756208896636962891e+00,3.755490064620971680e+00,3.754771471023559570e+00,3.754053115844726562e+00,3.753335475921630859e+00,3.752617597579956055e+00,3.751899957656860352e+00,3.751183271408081055e+00,3.750466346740722656e+00,3.749749660491943359e+00,3.749033451080322266e+00,3.748317480087280273e+00,3.747601509094238281e+00,3.746886253356933594e+00,3.746170997619628906e+00,3.745455980300903320e+00,3.665918588638305664e+00,1.721287369728088379e+00,1.656889319419860840e+00,1.638435602188110352e+00,3.263533353805541992e+00,3.176370620727539062e+00,3.093742609024047852e+00,3.015304803848266602e+00,2.940745830535888672e+00,2.869784832000732422e+00,2.802168369293212891e+00,1.134266614913940430e+00,1.108831763267517090e+00,1.095343470573425293e+00,1.082487702369689941e+00,1.079148769378662109e+00,1.074150085449218750e+00,2.405436038970947266e+00,2.357748985290527344e+00,2.311915636062622070e+00,2.267830371856689453e+00,2.225394725799560547e+00,2.184518337249755859e+00,2.145116329193115234e+00,2.107110500335693359e+00,2.070427894592285156e+00,2.035001039505004883e+00,2.000765800476074219e+00,1.967663526535034180e+00,1.935638904571533203e+00,1.904639840126037598e+00,1.874617934226989746e+00,1.845527887344360352e+00
3.084526777267456055e+00,3.084042072296142578e+00,3.083557367324829102e+00,3.083073139190673828e+00,3.082588911056518555e+00,3.082104682922363281e+00,3.081620931625366211e+00,3.081136941909790039e+00,3.080653190612792969e+00,3.080169916152954102e+00,3.079686641693115234e+00,3.079203367233276367e+00,3.078720092773437500e+00,3.078237533569335938e+00,3.077754735946655273e+00,3.077271938323974609e+00,3.076789855957031250e+00,3.076307296752929688e+00,3.075825214385986328e+00,3.075343370437622070e+00,3.074861526489257812e+00,3.074379682540893555e+00,3.073898315429687500e+00,3.073416948318481445e+00,3.072935581207275391e+00,3.072454690933227539e+00,3.071973800659179688e+00,3.071492910385131836e+00,3.071012258529663086e+00,3.070531845092773438e+00,3.070051431655883789e+00,3.069571256637573242e+00,3.069091320037841797e+00,3.068611383438110352e+00,3.068131685256958008e+00,3.067652225494384766e+00,3.067172765731811523e+00,3.066693544387817383e+00,3.066214561462402344e+00,3.065735578536987305e+00,3.065256595611572266e+00,3.064778089523315430e+00,3.064299583435058594e+00,3.063821077346801758e+00,3.063342809677124023e+00,3.062865018844604492e+00,3.062386989593505859e+00,3.061909198760986328e+00,3.061431646347045898e+00,1.644856095314025879e+00,1.637966394424438477e+00,3.059999704360961914e+00,3.059522628784179688e+00,3.059045553207397461e+00,3.015358209609985352e+00,2.940796613693237305e+00,2.869833230972290039e+00,2.802214384078979492e+00,1.142271637916564941e+00,1.111875534057617188e+00,1.098369956016540527e+00,1.085480809211730957e+00,1.080320835113525391e+00,1.076193571090698242e+00,2.405470132827758789e+00,2.357781648635864258e+00,2.311946868896484375e+00,2.267860412597656250e+00,2.225423812866210938e+00,2.184546232223510742e+00,2.145143508911132812e+00,2.107136726379394531e+00,2.070453166961669922e+00,2.035025358200073242e+00,2.000789403915405273e+00,1.967686414718627930e+00,1.935660839080810547e+00,1.904661059379577637e+00,1.874638438224792480e+00,1.845547795295715332e+00
2.605854272842407227e+00,2.605508089065551758e+00,2.605162143707275391e+00,2.604816675186157227e+00,2.604470968246459961e+00,2.604125261306762695e+00,2.603779554367065430e+00,2.603434324264526367e+00,2.603089094161987305e+00,2.602743864059448242e+00,2.602398872375488281e+00,2.602053642272949219e+00,2.601708650588989258e+00,2.601363897323608398e+00,2.601019144058227539e+00,2.600674390792846680e+00,2.600330114364624023e+00,2.599985361099243164e+00,2.599641084671020508e+00,2.599296808242797852e+00,2.598952531814575195e+00,2.598608255386352539e+00,2.598264217376708984e+00,2.597920417785644531e+00,2.597576618194580078e+00,2.597232818603515625e+00,2.596889257431030273e+00,2.596545696258544922e+00,2.596202135086059570e+00,2.595858812332153320e+00,2.595515489578247070e+00,2.595172166824340820e+00,2.594829082489013672e+00,2.594485998153686523e+00,2.594143152236938477e+00,2.593800306320190430e+00,2.593457460403442383e+00,2.593114852905273438e+00,2.592772245407104492e+00,2.592429876327514648e+00,2.592087507247924805e+00,2.591745138168334961e+00,2.591403007507324219e+00,2.591060876846313477e+00,2.590718746185302734e+00,2.590376853942871094e+00,2.590034961700439453e+00,2.589693069458007812e+00,2.589351654052734375e+00,1.631033062934875488e+00,1.630080103874206543e+00,2.588327169418334961e+00,2.587985754013061523e+00,2.587644577026367188e+00,2.587303400039672852e+00,2.586962461471557617e+00,2.586621522903442383e+00,2.586280584335327148e+00,1.148533105850219727e+00,1.114935994148254395e+00,1.101451635360717773e+00,1.088490486145019531e+00,1.081047296524047852e+00,1.080192804336547852e+00,2.405503988265991211e+00,2.357814073562622070e+00,2.311978340148925781e+00,2.267890691757202148e+00,2.225452899932861328e+00,2.184574365615844727e+00,2.145170211791992188e+00,2.107162714004516602e+00,2.070478439331054688e+00,2.035049676895141602e+00,2.000813007354736328e+00,1.967708945274353027e+00,1.935682654380798340e+00,1.904682397842407227e+00,1.874659180641174316e+00,1.845567822456359863e+00
2.255788564682006836e+00,2.255529403686523438e+00,2.255270242691040039e+00,2.255011081695556641e+00,2.254752159118652344e+00,2.254493236541748047e+00,2.254234313964843750e+00,2.253975391387939453e+00,2.253716468811035156e+00,2.253458023071289062e+00,2.253199100494384766e+00,2.252940654754638672e+00,2.252681970596313477e+00,2.252423524856567383e+00,2.252165079116821289e+00,2.251906633377075195e+00,2.251648426055908203e+00,2.251390218734741211e+00,2.251132011413574219e+00,2.250873804092407227e+00,2.250615835189819336e+00,2.250357627868652344e+00,2.250099658966064453e+00,2.249841690063476562e+00,2.249583721160888672e+00,2.249325752258300781e+00,2.249068260192871094e+00,2.248810529708862305e+00,2.248552799224853516e+00,2.248295307159423828e+00,2.248037576675415039e+00,2.247780084609985352e+00,2.247522830963134766e+00,2.247265577316284180e+00,2.247008085250854492e+00,2.246750831604003906e+00,2.246493816375732422e+00,2.246236562728881836e+00,2.245979547500610352e+00,2.245722532272338867e+00,2.245465517044067383e+00,2.245208740234375000e+00,2.244951963424682617e+00,2.244695186614990234e+00,2.244438409805297852e+00,2.244181871414184570e+00,2.243925333023071289e+00,2.243668556213378906e+00,2.243412017822265625e+00,1.614335298538208008e+00,1.620373010635375977e+00,1.653334736824035645e+00,2.242387056350708008e+00,2.242130756378173828e+00,2.241874456405639648e+00,2.241618633270263672e+00,2.241362571716308594e+00,2.241106510162353516e+00,1.154863476753234863e+00,1.118013381958007812e+00,1.104550719261169434e+00,1.091516971588134766e+00,1.081774830818176270e+00,1.084222078323364258e+00,2.239316701889038086e+00,2.239061117172241211e+00,2.238805770874023438e+00,2.238550424575805664e+00,2.225481986999511719e+00,2.184602260589599609e+00,2.145197391510009766e+00,2.107188701629638672e+00,2.070503473281860352e+00,2.035073995590209961e+00,2.000836372375488281e+00,1.967731833457946777e+00,1.935704827308654785e+00,1.904703617095947266e+00,1.874679803848266602e+00,1.845587730407714844e+00
1.988636732101440430e+00,1.988435506820678711e+00,1.988234043121337891e+00,1.988032579421997070e+00,1.987831473350524902e+00,1.987630009651184082e+00,1.987428784370422363e+00,1.987227439880371094e+00,1.987026453018188477e+00,1.986825346946716309e+00,1.986624121665954590e+00,1.986423015594482422e+00,1.986222267150878906e+00,1.986021161079406738e+00,1.985820174217224121e+00,1.985619544982910156e+00,1.985418677330017090e+00,1.985217690467834473e+00,1.985016942024230957e+00,1.984816431999206543e+00,1.984615683555603027e+00,1.984414935111999512e+00,1.984214425086975098e+00,1.984013915061950684e+00,1.983813285827636719e+00,1.983612775802612305e+00,1.983412504196166992e+00,1.983211994171142578e+00,1.983011603355407715e+00,1.982811450958251953e+00,1.982611179351806641e+00,1.982410788536071777e+00,1.982210636138916016e+00,1.982010602951049805e+00,1.981810450553894043e+00,1.981610298156738281e+00,1.981410145759582520e+00,1.981210350990295410e+00,1.981010317802429199e+00,1.980810403823852539e+00,1.980610728263854980e+00,1.980410814285278320e+00,1.980210900306701660e+00,1.980011105537414551e+00,1.979811549186706543e+00,1.979611873626708984e+00,1.979412198066711426e+00,1.979212760925292969e+00,1.979013085365295410e+00,1.598544478416442871e+00,1.608640313148498535e+00,1.636619210243225098e+00,1.978215336799621582e+00,1.978015899658203125e+00,1.977816700935363770e+00,1.977617383003234863e+00,1.977418065071105957e+00,1.977218866348266602e+00,1.977019906044006348e+00,1.121107816696166992e+00,1.107667207717895508e+00,1.094560146331787109e+00,1.082503437995910645e+00,1.085046172142028809e+00,1.975825667381286621e+00,1.975626945495605469e+00,1.975428104400634766e+00,1.975229263305664062e+00,1.975030422210693359e+00,1.974831819534301758e+00,1.974633097648620605e+00,1.974434494972229004e+00,1.974236011505126953e+00,1.974037408828735352e+00,1.973838806152343750e+00,1.967754483222961426e+00,1.935726642608642578e+00,1.904724836349487305e+00,1.874700307846069336e+00,1.845607876777648926e+00
1.778062105178833008e+00,1.777901053428649902e+00,1.777739882469177246e+00,1.777579069137573242e+00,1.777418017387390137e+00,1.777257084846496582e+00,1.777096152305603027e+00,1.776935338973999023e+00,1.776774525642395020e+00,1.776613593101501465e+00,1.776452898979187012e+00,1.776292204856872559e+00,1.776131391525268555e+00,1.775970578193664551e+00,1.775810122489929199e+00,1.775649428367614746e+00,1.775488734245300293e+00,1.775328040122985840e+00,1.775167703628540039e+00,1.775007128715515137e+00,1.774846553802490234e+00,1.774686217308044434e+00,1.774525761604309082e+00,1.774365305900573730e+00,1.774204850196838379e+00,1.774044632911682129e+00,1.773884296417236328e+00,1.773723840713500977e+00,1.773563742637634277e+00,1.773403525352478027e+00,1.773243188858032227e+00,1.773082971572875977e+00,1.772922992706298828e+00,1.772762775421142578e+00,1.772602677345275879e+00,1.772442698478698730e+00,1.772282600402832031e+00,1.772122621536254883e+00,1.771962523460388184e+00,1.771802783012390137e+00,1.771642804145812988e+00,1.771482825279235840e+00,1.771322846412658691e+00,1.771163225173950195e+00,1.771003365516662598e+00,1.770843505859375000e+00,1.770683884620666504e+00,1.770524144172668457e+00,1.770364403724670410e+00,1.575462460517883301e+00,1.563071966171264648e+00,1.604943752288818359e+00,1.769725918769836426e+00,1.769566535949707031e+00,1.769406914710998535e+00,1.769247412681579590e+00,1.769087910652160645e+00,1.768928527832031250e+00,1.768769145011901855e+00,1.768609762191772461e+00,1.119143962860107422e+00,1.106166243553161621e+00,1.097678780555725098e+00,1.096114516258239746e+00,1.767813444137573242e+00,1.767654180526733398e+00,1.767494916915893555e+00,1.767335772514343262e+00,1.767176747322082520e+00,1.767017602920532227e+00,1.766858458518981934e+00,1.766699671745300293e+00,1.766540527343750000e+00,1.766381502151489258e+00,1.766222596168518066e+00,1.766063809394836426e+00,1.765904784202575684e+00,1.765745997428894043e+00,1.765587210655212402e+00,1.765428423881530762e+00
1.607812285423278809e+00,1.607680559158325195e+00,1.607549071311950684e+00,1.607417345046997070e+00,1.607285737991333008e+00,1.607154011726379395e+00,1.607022643089294434e+00,1.606891036033630371e+00,1.606759428977966309e+00,1.606628060340881348e+00,1.606496453285217285e+00,1.606364965438842773e+00,1.606233477592468262e+00,1.606102108955383301e+00,1.605970740318298340e+00,1.605839252471923828e+00,1.605708003044128418e+00,1.605576634407043457e+00,1.605445265769958496e+00,1.605313897132873535e+00,1.605182766914367676e+00,1.605051517486572266e+00,1.604920148849487305e+00,1.604788899421691895e+00,1.604657888412475586e+00,1.604526638984680176e+00,1.604395508766174316e+00,1.604264497756958008e+00,1.604133248329162598e+00,1.604002118110656738e+00,1.603871107101440430e+00,1.603740096092224121e+00,1.603609085083007812e+00,1.603478074073791504e+00,1.603347182273864746e+00,1.603216171264648438e+00,1.603085160255432129e+00,1.602954268455505371e+00,1.602823495864868164e+00,1.602692484855651855e+00,1.602561593055725098e+00,1.602430939674377441e+00,1.602300047874450684e+00,1.602169275283813477e+00,1.602038502693176270e+00,1.601907849311828613e+00,1.601777076721191406e+00,1.601646304130554199e+00,1.601515650749206543e+00,1.601384997367858887e+00,1.601254343986511230e+00,1.601123690605163574e+00,1.600993275642395020e+00,1.600862622261047363e+00,1.600732088088989258e+00,1.600601434707641602e+00,1.600471019744873047e+00,1.600340485572814941e+00,1.600210070610046387e+00,1.174315333366394043e+00,1.120784044265747070e+00,1.105012059211730957e+00,1.097122192382812500e+00,1.092605352401733398e+00,1.599427700042724609e+00,1.599297404289245605e+00,1.599167108535766602e+00,1.599036812782287598e+00,1.598906517028808594e+00,1.598776340484619141e+00,1.598646163940429688e+00,1.598515987396240234e+00,1.598385691642761230e+00,1.598255515098571777e+00,1.598125576972961426e+00,1.597995400428771973e+00,1.597865223884582520e+00,1.597735285758972168e+00,1.597605228424072266e+00,1.597475171089172363e+00
1.467316508293151855e+00,1.467206954956054688e+00,1.467097282409667969e+00,1.466987490653991699e+00,1.466877937316894531e+00,1.466768383979797363e+00,1.466658711433410645e+00,1.466549158096313477e+00,1.466439604759216309e+00,1.466330051422119141e+00,1.466220498085021973e+00,1.466110944747924805e+00,1.466001510620117188e+00,1.465891957283020020e+00,1.465782523155212402e+00,1.465673208236694336e+00,1.465563654899597168e+00,1.465454220771789551e+00,1.465344786643981934e+00,1.465235471725463867e+00,1.465126037597656250e+00,1.465016722679138184e+00,1.464907407760620117e+00,1.464798092842102051e+00,1.464688777923583984e+00,1.464579463005065918e+00,1.464470267295837402e+00,1.464360952377319336e+00,1.464251756668090820e+00,1.464142441749572754e+00,1.464033365249633789e+00,1.463924169540405273e+00,1.463814854621887207e+00,1.463705897331237793e+00,1.463596701622009277e+00,1.463487505912780762e+00,1.463378310203552246e+00,1.463269352912902832e+00,1.463160276412963867e+00,1.463051199913024902e+00,1.462942242622375488e+00,1.462833166122436523e+00,1.462724089622497559e+00,1.462615132331848145e+00,1.462506175041198730e+00,1.462397217750549316e+00,1.462288260459899902e+00,1.462179422378540039e+00,1.462070465087890625e+00,1.461961507797241211e+00,1.461852669715881348e+00,1.461743831634521484e+00,1.461634993553161621e+00,1.461526155471801758e+00,1.461417198181152344e+00,1.461308598518371582e+00,1.461199760437011719e+00,1.461090922355651855e+00,1.460982322692871094e+00,1.162061691284179688e+00,1.120500922203063965e+00,1.102167725563049316e+00,1.088170051574707031e+00,1.077465057373046875e+00,1.074862480163574219e+00,1.460221529006958008e+00,1.460112810134887695e+00,1.460004210472106934e+00,1.459895610809326172e+00,1.459787130355834961e+00,1.459678530693054199e+00,1.459569931030273438e+00,1.459461450576782227e+00,1.459352970123291016e+00,1.459244370460510254e+00,1.459135890007019043e+00,1.459027528762817383e+00,1.458919048309326172e+00,1.458810567855834961e+00,1.458702206611633301e+00
1.349401473999023438e+00,1.349308729171752930e+00,1.349215984344482422e+00,1.349123358726501465e+00,1.349030613899230957e+00,1.348937869071960449e+00,1.348845124244689941e+00,1.348752498626708984e+00,1.348659753799438477e+00,1.348567128181457520e+00,1.348474383354187012e+00,1.348381876945495605e+00,1.348289251327514648e+00,1.348196625709533691e+00,1.348104119300842285e+00,1.348011493682861328e+00,1.347918868064880371e+00,1.347826242446899414e+00,1.347733855247497559e+00,1.347641229629516602e+00,1.347548723220825195e+00,1.347456336021423340e+00,1.347363829612731934e+00,1.347271323204040527e+00,1.347178816795349121e+00,1.347086429595947266e+00,1.346993923187255859e+00,1.346901535987854004e+00,1.346809148788452148e+00,1.346716761589050293e+00,1.346624255180358887e+00,1.346531867980957031e+00,1.346439599990844727e+00,1.346347212791442871e+00,1.346254825592041016e+00,1.346162557601928711e+00,1.346070289611816406e+00,1.345977902412414551e+00,1.345885634422302246e+00,1.345793366432189941e+00,1.345701098442077637e+00,1.345608830451965332e+00,1.345516562461853027e+00,1.345424413681030273e+00,1.345332145690917969e+00,1.345239996910095215e+00,1.345147848129272461e+00,1.345055580139160156e+00,1.344963431358337402e+00,1.344871282577514648e+00,1.344779253005981445e+00,1.344686985015869141e+00,1.344594955444335938e+00,1.344502925872802734e+00,1.344410777091979980e+00,1.344318628311157227e+00,1.344226598739624023e+00,1.344134569168090820e+00,1.344042539596557617e+00,1.157629370689392090e+00,1.122700572013854980e+00,1.095966935157775879e+00,1.080230116844177246e+00,1.067504525184631348e+00,1.059151649475097656e+00,1.056003451347351074e+00,1.343306660652160645e+00,1.343214750289916992e+00,1.343122839927673340e+00,1.343030929565429688e+00,1.342939019203186035e+00,1.342847228050231934e+00,1.342755317687988281e+00,1.342663407325744629e+00,1.342571616172790527e+00,1.342479825019836426e+00,1.342388033866882324e+00,1.342296123504638672e+00,1.342204332351684570e+00,1.342112660408020020e+00
1.249028325080871582e+00,1.248948812484741211e+00,1.248869419097900391e+00,1.248789906501770020e+00,1.248710513114929199e+00,1.248631000518798828e+00,1.248551726341247559e+00,1.248472213745117188e+00,1.248392820358276367e+00,1.248313546180725098e+00,1.248234033584594727e+00,1.248154640197753906e+00,1.248075246810913086e+00,1.247995972633361816e+00,1.247916698455810547e+00,1.247837305068969727e+00,1.247757911682128906e+00,1.247678756713867188e+00,1.247599363327026367e+00,1.247520089149475098e+00,1.247440814971923828e+00,1.247361540794372559e+00,1.247282266616821289e+00,1.247202992439270020e+00,1.247123837471008301e+00,1.247044563293457031e+00,1.246965289115905762e+00,1.246886134147644043e+00,1.246806979179382324e+00,1.246727705001831055e+00,1.246648550033569336e+00,1.246569395065307617e+00,1.246490240097045898e+00,1.246411085128784180e+00,1.246331810951232910e+00,1.246252775192260742e+00,1.246173620223999023e+00,1.246094465255737305e+00,1.246015429496765137e+00,1.245936393737792969e+00,1.245857238769531250e+00,1.245778203010559082e+00,1.245699167251586914e+00,1.245620131492614746e+00,1.245540976524353027e+00,1.245462059974670410e+00,1.245383024215698242e+00,1.245303988456726074e+00,1.245224952697753906e+00,1.245146036148071289e+00,1.245067000389099121e+00,1.244988083839416504e+00,1.244909167289733887e+00,1.244830131530761719e+00,1.244751214981079102e+00,1.244672298431396484e+00,1.244593381881713867e+00,1.244514465332031250e+00,1.244435548782348633e+00,1.244356632232666016e+00,1.122783541679382324e+00,1.091562628746032715e+00,1.070452332496643066e+00,1.056830048561096191e+00,1.047203063964843750e+00,1.039706230163574219e+00,1.035749316215515137e+00,1.035988569259643555e+00,1.243647098541259766e+00,1.243568301200866699e+00,1.243489623069763184e+00,1.243410825729370117e+00,1.243332028388977051e+00,1.243253231048583984e+00,1.243174552917480469e+00,1.243095755577087402e+00,1.243017077445983887e+00,1.242938399314880371e+00,1.242859721183776855e+00,1.242780923843383789e+00
1.162553548812866211e+00,1.162484765052795410e+00,1.162415862083435059e+00,1.162347078323364258e+00,1.162278175354003906e+00,1.162209510803222656e+00,1.162140607833862305e+00,1.162071824073791504e+00,1.162003040313720703e+00,1.161934256553649902e+00,1.161865472793579102e+00,1.161796689033508301e+00,1.161728024482727051e+00,1.161659240722656250e+00,1.161590456962585449e+00,1.161521673202514648e+00,1.161453008651733398e+00,1.161384224891662598e+00,1.161315560340881348e+00,1.161246895790100098e+00,1.161178112030029297e+00,1.161109447479248047e+00,1.161040782928466797e+00,1.160972118377685547e+00,1.160903453826904297e+00,1.160834789276123047e+00,1.160766124725341797e+00,1.160697460174560547e+00,1.160628914833068848e+00,1.160560250282287598e+00,1.160491704940795898e+00,1.160423040390014648e+00,1.160354375839233398e+00,1.160285830497741699e+00,1.160217285156250000e+00,1.160148620605468750e+00,1.160080075263977051e+00,1.160011529922485352e+00,1.159942984580993652e+00,1.159874439239501953e+00,1.159805893898010254e+00,1.159737467765808105e+00,1.159668922424316406e+00,1.159600377082824707e+00,1.159531950950622559e+00,1.159463405609130859e+00,1.159394860267639160e+00,1.159326314926147461e+00,1.159258008003234863e+00,1.159189462661743164e+00,1.159121036529541016e+00,1.159052610397338867e+00,1.158984184265136719e+00,1.158915638923645020e+00,1.158847212791442871e+00,1.158778905868530273e+00,1.158710479736328125e+00,1.158642053604125977e+00,1.158573746681213379e+00,1.158505320549011230e+00,1.158436894416809082e+00,1.158368587493896484e+00,1.064029693603515625e+00,1.042153239250183105e+00,1.029883146286010742e+00,1.024029374122619629e+00,1.018375992774963379e+00,1.016741633415222168e+00,1.018172621726989746e+00,1.007182955741882324e+00,1.157753705978393555e+00,1.157685399055480957e+00,1.157617092132568359e+00,1.157548904418945312e+00,1.157480597496032715e+00,1.157412290573120117e+00,1.157344102859497070e+00,1.157275915145874023e+00,1.157207608222961426e+00,1.157139420509338379e+00
1.087277412414550781e+00,1.087217211723327637e+00,1.087157011032104492e+00,1.087096691131591797e+00,1.087036609649658203e+00,1.086976408958435059e+00,1.086916208267211914e+00,1.086856007575988770e+00,1.086795806884765625e+00,1.086735606193542480e+00,1.086675405502319336e+00,1.086615324020385742e+00,1.086555242538452148e+00,1.086495041847229004e+00,1.086434960365295410e+00,1.086374759674072266e+00,1.086314678192138672e+00,1.086254477500915527e+00,1.086194396018981934e+00,1.086134314537048340e+00,1.086074233055114746e+00,1.086014151573181152e+00,1.085954070091247559e+00,1.085893988609313965e+00,1.085833907127380371e+00,1.085773825645446777e+00,1.085713863372802734e+00,1.085653781890869141e+00,1.085593700408935547e+00,1.085533738136291504e+00,1.085473656654357910e+00,1.085413575172424316e+00,1.085353612899780273e+00,1.085293650627136230e+00,1.085233569145202637e+00,1.085173606872558594e+00,1.085113644599914551e+00,1.085053682327270508e+00,1.084993600845336914e+00,1.084933757781982422e+00,1.084873795509338379e+00,1.084813714027404785e+00,1.084753751754760742e+00,1.084693908691406250e+00,1.084633946418762207e+00,1.084573984146118164e+00,1.084514021873474121e+00,1.084454178810119629e+00,1.084394216537475586e+00,1.084334373474121094e+00,1.084274411201477051e+00,1.084214568138122559e+00,1.084154605865478516e+00,1.084094762802124023e+00,1.084034919738769531e+00,1.083975076675415039e+00,1.083915233612060547e+00,1.083855390548706055e+00,1.083795547485351562e+00,1.083735704421997070e+00,1.083675861358642578e+00,1.083616018295288086e+00,1.083556175231933594e+00,1.037090539932250977e+00,1.017653703689575195e+00,1.004628658294677734e+00,1.000141859054565430e+00,9.918397665023803711e-01,9.845529794692993164e-01,9.831709265708923340e-01,9.826514124870300293e-01,9.759145379066467285e-01,1.082958340644836426e+00,1.082898616790771484e+00,1.082838892936706543e+00,1.082779169082641602e+00,1.082719445228576660e+00,1.082659721374511719e+00,1.082599997520446777e+00,1.082540273666381836e+00
1.021156787872314453e+00,1.021103620529174805e+00,1.021050572395324707e+00,1.020997405052185059e+00,1.020944356918334961e+00,1.020891189575195312e+00,1.020838141441345215e+00,1.020785093307495117e+00,1.020731925964355469e+00,1.020678877830505371e+00,1.020625829696655273e+00,1.020572781562805176e+00,1.020519733428955078e+00,1.020466685295104980e+00,1.020413637161254883e+00,1.020360589027404785e+00,1.020307540893554688e+00,1.020254492759704590e+00,1.020201444625854492e+00,1.020148396492004395e+00,1.020095467567443848e+00,1.020042419433593750e+00,1.019989371299743652e+00,1.019936323165893555e+00,1.019883394241333008e+00,1.019830465316772461e+00,1.019777417182922363e+00,1.019724488258361816e+00,1.019671559333801270e+00,1.019618511199951172e+00,1.019565582275390625e+00,1.019512653350830078e+00,1.019459724426269531e+00,1.019406676292419434e+00,1.019353747367858887e+00,1.019300818443298340e+00,1.019247889518737793e+00,1.019194960594177246e+00,1.019142150878906250e+00,1.019089221954345703e+00,1.019036293029785156e+00,1.018983364105224609e+00,1.018930435180664062e+00,1.018877625465393066e+00,1.018824696540832520e+00,1.018771886825561523e+00,1.018718957901000977e+00,1.018666028976440430e+00,1.018613219261169434e+00,1.018560409545898438e+00,1.018507480621337891e+00,1.018454670906066895e+00,1.018401741981506348e+00,1.018349051475524902e+00,1.018296122550964355e+00,1.018243312835693359e+00,1.018190503120422363e+00,1.018137693405151367e+00,1.018084883689880371e+00,1.018032073974609375e+00,1.017979264259338379e+00,1.017926454544067383e+00,1.017873764038085938e+00,1.017820954322814941e+00,1.017768144607543945e+00,1.017715334892272949e+00,9.877130389213562012e-01,9.837480783462524414e-01,9.803782105445861816e-01,9.806265830993652344e-01,9.920039772987365723e-01,1.017398953437805176e+00,1.017346143722534180e+00,1.017293453216552734e+00,1.017240762710571289e+00,1.017188072204589844e+00,1.017135262489318848e+00,1.017082571983337402e+00,1.017029881477355957e+00,1.016977190971374512e+00
9.626172184944152832e-01,9.625700116157531738e-01,9.625227451324462891e-01,9.624755978584289551e-01,9.624283313751220703e-01,9.623811841011047363e-01,9.623340368270874023e-01,9.622867703437805176e-01,9.622396230697631836e-01,9.621925354003906250e-01,9.621452689170837402e-01,9.620981812477111816e-01,9.620510339736938477e-01,9.620038270950317383e-01,9.619567394256591797e-01,9.619095325469970703e-01,9.618624448776245117e-01,9.618153572082519531e-01,9.617681503295898438e-01,9.617210626602172852e-01,9.616739749908447266e-01,9.616268277168273926e-01,9.615797400474548340e-01,9.615326523780822754e-01,9.614855051040649414e-01,9.614384770393371582e-01,9.613913893699645996e-01,9.613442420959472656e-01,9.612972140312194824e-01,9.612500667572021484e-01,9.612030386924743652e-01,9.611560106277465820e-01,9.611088633537292480e-01,9.610618352890014648e-01,9.610148668289184570e-01,9.609677195549011230e-01,9.609206914901733398e-01,9.608737230300903320e-01,9.608266353607177734e-01,9.607796072959899902e-01,9.607325196266174316e-01,9.606855511665344238e-01,9.606385827064514160e-01,9.605914950370788574e-01,9.605445265769958496e-01,9.604975581169128418e-01,9.604504704475402832e-01,9.604035615921020508e-01,9.603565931320190430e-01,9.603095650672912598e-01,9.602625966072082520e-01,9.602156281471252441e-01,9.601686000823974609e-01,9.601216912269592285e-01,9.600746631622314453e-01,9.600277543067932129e-01,9.599808454513549805e-01,9.599338173866271973e-01,9.598869085311889648e-01,9.598399996757507324e-01,9.597930312156677246e-01,9.597461223602294922e-01,9.596992135047912598e-01,9.596522450447082520e-01,9.596053957939147949e-01,9.595583677291870117e-01,9.595115184783935547e-01,9.594646692276000977e-01,9.594177007675170898e-01,9.593708515167236328e-01,9.593240022659301758e-01,9.592770338058471680e-01,9.592301845550537109e-01,9.591833353042602539e-01,9.591364264488220215e-01,9.590895771980285645e-01,9.590426683425903320e-01,9.589958786964416504e-01,9.589490294456481934e-01,9.589021205902099609e-01
9.104254245758056641e-01,9.103831648826599121e-01,9.103409647941589355e-01,9.102986454963684082e-01,9.102565050125122070e-01,9.102143049240112305e-01,9.101720452308654785e-01,9.101299047470092773e-01,9.100877046585083008e-01,9.100454449653625488e-01,9.100033044815063477e-01,9.099611639976501465e-01,9.099189043045043945e-01,9.098767638206481934e-01,9.098345041275024414e-01,9.097924232482910156e-01,9.097502827644348145e-01,9.097080230712890625e-01,9.096659421920776367e-01,9.096238017082214355e-01,9.095816016197204590e-01,9.095394611358642578e-01,9.094973802566528320e-01,9.094551801681518555e-01,9.094130396842956543e-01,9.093709588050842285e-01,9.093287587165832520e-01,9.092866778373718262e-01,9.092444777488708496e-01,9.092024564743041992e-01,9.091603755950927734e-01,9.091181755065917969e-01,9.090760946273803711e-01,9.090340733528137207e-01,9.089918732643127441e-01,9.089498519897460938e-01,9.089077711105346680e-01,9.088656306266784668e-01,9.088236093521118164e-01,9.087814688682556152e-01,9.087393879890441895e-01,9.086973667144775391e-01,9.086552262306213379e-01,9.086132049560546875e-01,9.085711836814880371e-01,9.085291028022766113e-01,9.084870815277099609e-01,9.084450602531433105e-01,9.084029793739318848e-01,9.083609580993652344e-01,9.083189368247985840e-01,9.082768559455871582e-01,9.082348942756652832e-01,9.081928133964538574e-01,9.081507921218872070e-01,9.081088304519653320e-01,9.080667495727539062e-01,9.080247879028320312e-01,9.079828262329101562e-01,9.079407453536987305e-01,9.078987836837768555e-01,9.078568220138549805e-01,9.078148007392883301e-01,9.077728390693664551e-01,9.077308177947998047e-01,9.076888561248779297e-01,9.076468944549560547e-01,9.076048731803894043e-01,9.075629711151123047e-01,9.075210094451904297e-01,9.074790477752685547e-01,9.074370861053466797e-01,9.073951840400695801e-01,9.073531627655029297e-01,9.073112607002258301e-01,9.072693586349487305e-01,9.072273969650268555e-01,9.071854948997497559e-01,9.071434736251831055e-01,9.071016311645507812e-01
8.636020421981811523e-01,8.635640740394592285e-01,8.635260462760925293e-01,8.634880781173706055e-01,8.634501099586486816e-01,8.634120821952819824e-01,8.633741736412048340e-01,8.633362054824829102e-01,8.632981777191162109e-01,8.632602691650390625e-01,8.632223010063171387e-01,8.631842732429504395e-01,8.631463646888732910e-01,8.631083369255065918e-01,8.630704283714294434e-01,8.630325198173522949e-01,8.629945516586303711e-01,8.629566431045532227e-01,8.629187345504760742e-01,8.628807067871093750e-01,8.628427982330322266e-01,8.628049492835998535e-01,8.627669215202331543e-01,8.627290725708007812e-01,8.626911640167236328e-01,8.626531958580017090e-01,8.626153469085693359e-01,8.625773787498474121e-01,8.625394701957702637e-01,8.625016212463378906e-01,8.624636530876159668e-01,8.624258041381835938e-01,8.623879551887512207e-01,8.623499870300292969e-01,8.623121380805969238e-01,8.622742891311645508e-01,8.622363805770874023e-01,8.621985316276550293e-01,8.621606230735778809e-01,8.621227741241455078e-01,8.620849251747131348e-01,8.620470166206359863e-01,8.620091676712036133e-01,8.619713783264160156e-01,8.619334697723388672e-01,8.618956208229064941e-01,8.618578314781188965e-01,8.618199229240417480e-01,8.617821335792541504e-01,8.617443442344665527e-01,8.617064356803894043e-01,8.616686463356018066e-01,8.616307377815246582e-01,8.615929484367370605e-01,8.615552186965942383e-01,8.615173101425170898e-01,8.614795207977294922e-01,8.614417910575866699e-01,8.614038825035095215e-01,8.613661527633666992e-01,8.613283634185791016e-01,8.612905144691467285e-01,8.612527847290039062e-01,8.612149357795715332e-01,8.611771464347839355e-01,8.611394166946411133e-01,8.611015677452087402e-01,8.610638380050659180e-01,8.610261082649230957e-01,8.609882593154907227e-01,8.609505295753479004e-01,8.609127998352050781e-01,8.608750104904174805e-01,8.608372807502746582e-01,8.607995510101318359e-01,8.607617616653442383e-01,8.607240319252014160e-01,8.606862425804138184e-01,8.606485128402709961e-01,8.606108427047729492e-01
8.213594555854797363e-01,8.213250041007995605e-01,8.212906718254089355e-01,8.212563395500183105e-01,8.212219476699829102e-01,8.211876153945922852e-01,8.211532831192016602e-01,8.211188912391662598e-01,8.210845589637756348e-01,8.210502266883850098e-01,8.210158348083496094e-01,8.209815621376037598e-01,8.209472298622131348e-01,8.209128379821777344e-01,8.208785653114318848e-01,8.208441734313964844e-01,8.208099007606506348e-01,8.207755684852600098e-01,8.207412362098693848e-01,8.207069039344787598e-01,8.206726312637329102e-01,8.206382989883422852e-01,8.206040263175964355e-01,8.205697536468505859e-01,8.205353617668151855e-01,8.205010890960693359e-01,8.204667568206787109e-01,8.204324841499328613e-01,8.203982710838317871e-01,8.203638792037963867e-01,8.203296661376953125e-01,8.202953934669494629e-01,8.202610611915588379e-01,8.202268481254577637e-01,8.201925754547119141e-01,8.201582431793212891e-01,8.201240301132202148e-01,8.200897574424743652e-01,8.200554847717285156e-01,8.200212121009826660e-01,8.199869394302368164e-01,8.199527263641357422e-01,8.199185132980346680e-01,8.198841810226440430e-01,8.198499679565429688e-01,8.198157548904418945e-01,8.197814822196960449e-01,8.197472691535949707e-01,8.197130560874938965e-01,8.196787834167480469e-01,8.196445703506469727e-01,8.196102976799011230e-01,8.195760846138000488e-01,8.195419311523437500e-01,8.195076584815979004e-01,8.194734454154968262e-01,8.194392919540405273e-01,8.194050192832946777e-01,8.193708658218383789e-01,8.193366527557373047e-01,8.193024396896362305e-01,8.192682862281799316e-01,8.192340731620788574e-01,8.191998600959777832e-01,8.191657066345214844e-01,8.191314339637756348e-01,8.190972805023193359e-01,8.190631270408630371e-01,8.190289139747619629e-01,8.189947605133056641e-01,8.189606666564941406e-01,8.189263939857482910e-01,8.188923001289367676e-01,8.188581466674804688e-01,8.188239336013793945e-01,8.187898397445678711e-01,8.187556266784667969e-01,8.187214732170104980e-01,8.186873793601989746e-01,8.186531662940979004e-01
7.830566167831420898e-01,7.830253839492797852e-01,7.829941511154174805e-01,7.829629182815551758e-01,7.829316854476928711e-01,7.829005122184753418e-01,7.828692197799682617e-01,7.828380465507507324e-01,7.828068137168884277e-01,7.827755808830261230e-01,7.827444076538085938e-01,7.827131748199462891e-01,7.826819419860839844e-01,7.826507687568664551e-01,7.826194763183593750e-01,7.825883030891418457e-01,7.825571298599243164e-01,7.825258970260620117e-01,7.824947237968444824e-01,7.824635505676269531e-01,7.824323177337646484e-01,7.824011445045471191e-01,7.823700308799743652e-01,7.823387980461120605e-01,7.823076248168945312e-01,7.822763919830322266e-01,7.822452783584594727e-01,7.822141051292419434e-01,7.821828722953796387e-01,7.821517586708068848e-01,7.821205854415893555e-01,7.820894122123718262e-01,7.820582389831542969e-01,7.820271253585815430e-01,7.819959521293640137e-01,7.819647789001464844e-01,7.819336652755737305e-01,7.819024920463562012e-01,7.818713784217834473e-01,7.818402051925659180e-01,7.818090915679931641e-01,7.817779779434204102e-01,7.817467451095581055e-01,7.817156910896301270e-01,7.816845774650573730e-01,7.816534042358398438e-01,7.816222906112670898e-01,7.815911769866943359e-01,7.815600037574768066e-01,7.815289497375488281e-01,7.814977765083312988e-01,7.814666628837585449e-01,7.814356088638305664e-01,7.814044356346130371e-01,7.813733816146850586e-01,7.813422679901123047e-01,7.813111543655395508e-01,7.812800407409667969e-01,7.812489867210388184e-01,7.812178730964660645e-01,7.811867594718933105e-01,7.811557054519653320e-01,7.811245918273925781e-01,7.810935378074645996e-01,7.810624241828918457e-01,7.810313701629638672e-01,7.810003161430358887e-01,7.809692025184631348e-01,7.809381484985351562e-01,7.809070944786071777e-01,7.808759808540344238e-01,7.808449268341064453e-01,7.808139324188232422e-01,7.807828187942504883e-01,7.807517647743225098e-01,7.807206511497497559e-01,7.806896567344665527e-01,7.806586027145385742e-01,7.806275486946105957e-01,7.805964946746826172e-01
