5.000000000000000000e+00,5.000000000000000000e+00,5.000000000000000000e+00,5.000000000000000000e+00,5.000000000000000000e+00,5.000000000000000000e+00,5.000000000000000000e+00,5.000000000000000000e+00,5.000000000000000000e+00,5.000000000000000000e+00,5.000000000000000000e+00,5.000000000000000000e+00,5.000000000000000000e+00,5.000000000000000000e+00,5.000000000000000000e+00,5.000000000000000000e+00,5.000000000000000000e+00,5.000000000000000000e+00,5.000000000000000000e+00,5.000000000000000000e+00,5.000000000000000000e+00,5.000000000000000000e+00,5.000000000000000000e+00,5.000000000000000000e+00,1.437716603279113770e+00,1.436854720115661621e+00,1.467581510543823242e+00,1.325314402580261230e+00,1.283378601074218750e+00,1.278104782104492188e+00,1.272874116897583008e+00,1.268791437149047852e+00,1.288322091102600098e+00,1.313567757606506348e+00,1.440402030944824219e+00,1.436934709548950195e+00,1.436264514923095703e+00,1.459541320800781250e+00,1.484513759613037109e+00,4.856681823730468750e+00,4.666171073913574219e+00,4.490042686462402344e+00,4.326726913452148438e+00,4.174874305725097656e+00,1.375767350196838379e+00,1.420031905174255371e+00,1.414382100105285645e+00,3.660933017730712891e+00,3.551628351211547852e+00,3.448661804199218750e+00,3.351497173309326172e+00,3.259657859802246094e+00,3.172717332839965820e+00,3.090294122695922852e+00,3.012044906616210938e+00,2.937660694122314453e+00,2.866861581802368164e+00,2.799394845962524414e+00,2.735030412673950195e+00,2.673559665679931641e+00,2.614790916442871094e+00,2.558550357818603516e+00,2.504678249359130859e+00,2.453027963638305664e+00,2.403464794158935547e+00,2.355865001678466797e+00,2.310113668441772461e+00,2.266105651855468750e+00,2.223742961883544922e+00,2.182935237884521484e+00,2.143597841262817383e+00,2.105653524398803711e+00,2.069028854370117188e+00,2.033656597137451172e+00,1.999473452568054199e+00,1.966420769691467285e+00,1.934442520141601562e+00,1.903487920761108398e+00,1.873508334159851074e+00,1.844458699226379395e+00
5.000000000000000000e+00,5.000000000000000000e+00,5.000000000000000000e+00,5.000000000000000000e+00,5.000000000000000000e+00,5.000000000000000000e+00,5.000000000000000000e+00,5.000000000000000000e+00,5.000000000000000000e+00,5.000000000000000000e+00,5.000000000000000000e+00,5.000000000000000000e+00,5.000000000000000000e+00,5.000000000000000000e+00,5.000000000000000000e+00,5.000000000000000000e+00,5.000000000000000000e+00,5.000000000000000000e+00,5.000000000000000000e+00,5.000000000000000000e+00,5.000000000000000000e+00,5.000000000000000000e+00,5.000000000000000000e+00,5.000000000000000000e+00,1.450954556465148926e+00,1.447461843490600586e+00,5.000000000000000000e+00,1.332499861717224121e+00,1.280831456184387207e+00,1.272034883499145508e+00,1.266853809356689453e+00,1.261714577674865723e+00,1.276991486549377441e+00,1.301301121711730957e+00,1.442627072334289551e+00,1.439516544342041016e+00,1.441043615341186523e+00,1.465580701828002930e+00,1.491801738739013672e+00,4.856820583343505859e+00,4.666299343109130859e+00,4.490161418914794922e+00,4.326837062835693359e+00,4.174976825714111328e+00,4.033415317535400391e+00,1.466026425361633301e+00,1.356763720512390137e+00,3.661011695861816406e+00,3.551702976226806641e+00,3.448731660842895508e+00,3.351563453674316406e+00,3.259720325469970703e+00,3.172776699066162109e+00,3.090350151062011719e+00,3.012098312377929688e+00,2.937711238861083984e+00,2.866909980773925781e+00,2.799440860748291016e+00,2.735074520111083984e+00,2.673601627349853516e+00,2.614831209182739258e+00,2.558588981628417969e+00,2.504715204238891602e+00,2.453063249588012695e+00,2.403498888015747070e+00,2.355897426605224609e+00,2.310145139694213867e+00,2.266135692596435547e+00,2.223772048950195312e+00,2.182963132858276367e+00,2.143625020980834961e+00,2.105679512023925781e+00,2.069054126739501953e+00,2.033680915832519531e+00,1.999497056007385254e+00,1.966443300247192383e+00,1.934464573860168457e+00,1.903509259223937988e+00,1.873529076576232910e+00,1.844478607177734375e+00
5.000000000000000000e+00,5.000000000000000000e+00,5.000000000000000000e+00,5.000000000000000000e+00,5.000000000000000000e+00,5.000000000000000000e+00,5.000000000000000000e+00,5.000000000000000000e+00,5.000000000000000000e+00,5.000000000000000000e+00,5.000000000000000000e+00,5.000000000000000000e+00,5.000000000000000000e+00,5.000000000000000000e+00,5.000000000000000000e+00,5.000000000000000000e+00,5.000000000000000000e+00,5.000000000000000000e+00,5.000000000000000000e+00,5.000000000000000000e+00,5.000000000000000000e+00,5.000000000000000000e+00,5.000000000000000000e+00,5.000000000000000000e+00,1.436129450798034668e+00,1.429426670074462891e+00,1.440820097923278809e+00,1.358874320983886719e+00,1.288511276245117188e+00,1.264792442321777344e+00,1.259082555770874023e+00,1.253424167633056641e+00,1.265492558479309082e+00,1.289261698722839355e+00,1.447274446487426758e+00,1.443220257759094238e+00,1.447124481201171875e+00,1.472683548927307129e+00,1.499161720275878906e+00,4.856958866119384766e+00,4.666427135467529297e+00,4.490279674530029297e+00,4.326946735382080078e+00,4.175079345703125000e+00,4.033510684967041016e+00,3.901228189468383789e+00,1.426686167716979980e+00,3.661090373992919922e+00,3.551776885986328125e+00,3.448801517486572266e+00,3.351629257202148438e+00,3.259782552719116211e+00,3.172835826873779297e+00,3.090406179428100586e+00,3.012151479721069336e+00,2.937762022018432617e+00,2.866958141326904297e+00,2.799486875534057617e+00,2.735118627548217773e+00,2.673643589019775391e+00,2.614871501922607422e+00,2.558627367019653320e+00,2.504751920700073242e+00,2.453098535537719727e+00,2.403532743453979492e+00,2.355930089950561523e+00,2.310176372528076172e+00,2.266165971755981445e+00,2.223801136016845703e+00,2.182991027832031250e+00,2.143651962280273438e+00,2.105705499649047852e+00,2.069079160690307617e+00,2.033705234527587891e+00,1.999520659446716309e+00,1.966466069221496582e+00,1.934486508369445801e+00,1.903530478477478027e+00,1.873549699783325195e+00,1.844498634338378906e+00
5.000000000000000000e+00,5.000000000000000000e+00,5.000000000000000000e+00,5.000000000000000000e+00,5.000000000000000000e+00,5.000000000000000000e+00,5.000000000000000000e+00,5.000000000000000000e+00,5.000000000000000000e+00,5.000000000000000000e+00,5.000000000000000000e+00,5.000000000000000000e+00,5.000000000000000000e+00,5.000000000000000000e+00,5.000000000000000000e+00,5.000000000000000000e+00,5.000000000000000000e+00,5.000000000000000000e+00,5.000000000000000000e+00,5.000000000000000000e+00,5.000000000000000000e+00,5.000000000000000000e+00,5.000000000000000000e+00,5.000000000000000000e+00,1.420840978622436523e+00,1.422067284584045410e+00,1.421228289604187012e+00,1.386322379112243652e+00,1.296804070472717285e+00,1.257047772407531738e+00,1.249798774719238281e+00,1.244223356246948242e+00,1.254329204559326172e+00,1.277658939361572266e+00,1.453272223472595215e+00,1.449426174163818359e+00,1.455696582794189453e+00,1.481717824935913086e+00,1.509433984756469727e+00,4.857097625732421875e+00,4.666555404663085938e+00,4.490398406982421875e+00,4.327056884765625000e+00,4.175181865692138672e+00,4.033606529235839844e+00,3.901318073272705078e+00,3.777430534362792969e+00,3.661169528961181641e+00,3.551851034164428711e+00,3.448871850967407227e+00,3.351695299148559570e+00,3.259845256805419922e+00,3.172894716262817383e+00,3.090462684631347656e+00,3.012204885482788086e+00,2.937812805175781250e+00,2.867006540298461914e+00,2.799533128738403320e+00,2.735162496566772461e+00,2.673685789108276367e+00,2.614911556243896484e+00,2.558665990829467773e+00,2.504788875579833984e+00,2.453134059906005859e+00,2.403566598892211914e+00,2.355962753295898438e+00,2.310207843780517578e+00,2.266196250915527344e+00,2.223830223083496094e+00,2.183019161224365234e+00,2.143678903579711914e+00,2.105731725692749023e+00,2.069104194641113281e+00,2.033729791641235352e+00,1.999543905258178711e+00,1.966488957405090332e+00,1.934508562088012695e+00,1.903551816940307617e+00,1.873570322990417480e+00,1.844518661499023438e+00
5.000000000000000000e+00,5.000000000000000000e+00,5.000000000000000000e+00,5.000000000000000000e+00,5.000000000000000000e+00,5.000000000000000000e+00,5.000000000000000000e+00,5.000000000000000000e+00,5.000000000000000000e+00,5.000000000000000000e+00,5.000000000000000000e+00,5.000000000000000000e+00,5.000000000000000000e+00,5.000000000000000000e+00,5.000000000000000000e+00,5.000000000000000000e+00,5.000000000000000000e+00,5.000000000000000000e+00,5.000000000000000000e+00,5.000000000000000000e+00,5.000000000000000000e+00,5.000000000000000000e+00,5.000000000000000000e+00,5.000000000000000000e+00,1.412445187568664551e+00,1.433453440666198730e+00,1.413371324539184570e+00,5.000000000000000000e+00,1.305750489234924316e+00,1.253055691719055176e+00,1.240650892257690430e+00,1.235156536102294922e+00,1.243360996246337891e+00,1.265708446502685547e+00,1.460183382034301758e+00,1.456300854682922363e+00,1.464914917945861816e+00,1.491269707679748535e+00,5.000000000000000000e+00,4.857236862182617188e+00,4.666683673858642578e+00,4.490517139434814453e+00,4.327167034149169922e+00,4.175284385681152344e+00,4.033702373504638672e+00,3.901407241821289062e+00,3.777514696121215820e+00,3.661248207092285156e+00,3.551925420761108398e+00,3.448941469192504883e+00,3.351761579513549805e+00,3.259907722473144531e+00,3.172954320907592773e+00,3.090518712997436523e+00,3.012258291244506836e+00,2.937863588333129883e+00,2.867054939270019531e+00,2.799579143524169922e+00,2.735206604003906250e+00,2.673727750778198242e+00,2.614951848983764648e+00,2.558704376220703125e+00,2.504825830459594727e+00,2.453169345855712891e+00,2.403600692749023438e+00,2.355995416641235352e+00,2.310239315032958984e+00,2.266226291656494141e+00,2.223859310150146484e+00,2.183047294616699219e+00,2.143706083297729492e+00,2.105757713317871094e+00,2.069129467010498047e+00,2.033753871917724609e+00,1.999567508697509766e+00,1.966511487960815430e+00,1.934530615806579590e+00,1.903573274612426758e+00,1.873590946197509766e+00,1.844538569450378418e+00
5.000000000000000000e+00,5.000000000000000000e+00,5.000000000000000000e+00,5.000000000000000000e+00,5.000000000000000000e+00,5.000000000000000000e+00,5.000000000000000000e+00,5.000000000000000000e+00,5.000000000000000000e+00,5.000000000000000000e+00,5.000000000000000000e+00,5.000000000000000000e+00,5.000000000000000000e+00,5.000000000000000000e+00,5.000000000000000000e+00,5.000000000000000000e+00,5.000000000000000000e+00,5.000000000000000000e+00,5.000000000000000000e+00,5.000000000000000000e+00,5.000000000000000000e+00,5.000000000000000000e+00,5.000000000000000000e+00,5.000000000000000000e+00,1.404894471168518066e+00,5.000000000000000000e+00,1.411972522735595703e+00,5.000000000000000000e+00,1.326589584350585938e+00,1.262652158737182617e+00,1.236683607101440430e+00,1.226220846176147461e+00,1.232582926750183105e+00,1.252268314361572266e+00,1.287972807884216309e+00,1.463240861892700195e+00,1.474250674247741699e+00,1.502282738685607910e+00,5.000000000000000000e+00,4.857375621795654297e+00,4.666811466217041016e+00,4.490635871887207031e+00,4.327277660369873047e+00,4.175386905670166016e+00,4.033798217773437500e+00,3.901497125625610352e+00,3.777598619461059570e+00,3.661327362060546875e+00,3.551999568939208984e+00,3.449011802673339844e+00,3.351827621459960938e+00,3.259970426559448242e+00,3.173013448715209961e+00,3.090574979782104492e+00,3.012311697006225586e+00,2.937914609909057617e+00,2.867103338241577148e+00,2.799625396728515625e+00,2.735250473022460938e+00,2.673769950866699219e+00,2.614992141723632812e+00,2.558743000030517578e+00,2.504862785339355469e+00,2.453204870223999023e+00,2.403634548187255859e+00,2.356028079986572266e+00,2.310270547866821289e+00,2.266256570816040039e+00,2.223888397216796875e+00,2.183075428009033203e+00,2.143733024597167969e+00,2.105783939361572266e+00,2.069154739379882812e+00,2.033778429031372070e+00,1.999591112136840820e+00,1.966534376144409180e+00,1.934552550315856934e+00,1.903594613075256348e+00,1.873611688613891602e+00,1.844558596611022949e+00
5.000000000000000000e+00,5.000000000000000000e+00,5.000000000000000000e+00,5.000000000000000000e+00,5.000000000000000000e+00,5.000000000000000000e+00,5.000000000000000000e+00,5.000000000000000000e+00,5.000000000000000000e+00,5.000000000000000000e+00,5.000000000000000000e+00,5.000000000000000000e+00,5.000000000000000000e+00,5.000000000000000000e+00,5.000000000000000000e+00,5.000000000000000000e+00,5.000000000000000000e+00,5.000000000000000000e+00,5.000000000000000000e+00,5.000000000000000000e+00,5.000000000000000000e+00,5.000000000000000000e+00,5.000000000000000000e+00,5.000000000000000000e+00,1.396484732627868652e+00,5.000000000000000000e+00,5.000000000000000000e+00,5.000000000000000000e+00,1.347614288330078125e+00,1.272425889968872070e+00,1.232819676399230957e+00,1.220734000205993652e+00,1.221016764640808105e+00,1.239110708236694336e+00,1.260971069335937500e+00,1.470247626304626465e+00,1.483706235885620117e+00,1.514193296432495117e+00,5.000000000000000000e+00,4.857514381408691406e+00,4.666939735412597656e+00,4.490754604339599609e+00,4.327387809753417969e+00,4.175489902496337891e+00,4.033894062042236328e+00,3.901586532592773438e+00,3.777682781219482422e+00,3.661406040191650391e+00,3.552073955535888672e+00,3.449081659317016602e+00,3.351893901824951172e+00,3.260032892227172852e+00,3.173072814941406250e+00,3.090631008148193359e+00,3.012365102767944336e+00,2.937965154647827148e+00,2.867151737213134766e+00,2.799671411514282227e+00,2.735294580459594727e+00,2.673811912536621094e+00,2.615032434463500977e+00,2.558781385421752930e+00,2.504899740219116211e+00,2.453240394592285156e+00,2.403668642044067383e+00,2.356060743331909180e+00,2.310302019119262695e+00,2.266286849975585938e+00,2.223917484283447266e+00,2.183103322982788086e+00,2.143760204315185547e+00,2.105809926986694336e+00,2.069180011749267578e+00,2.033802747726440430e+00,1.999614715576171875e+00,1.966557145118713379e+00,1.934574604034423828e+00,1.903615832328796387e+00,1.873632431030273438e+00,1.844578742980957031e+00
5.000000000000000000e+00,5.000000000000000000e+00,5.000000000000000000e+00,5.000000000000000000e+00,5.000000000000000000e+00,5.000000000000000000e+00,5.000000000000000000e+00,5.000000000000000000e+00,5.000000000000000000e+00,5.000000000000000000e+00,5.000000000000000000e+00,5.000000000000000000e+00,5.000000000000000000e+00,5.000000000000000000e+00,5.000000000000000000e+00,5.000000000000000000e+00,5.000000000000000000e+00,5.000000000000000000e+00,5.000000000000000000e+00,5.000000000000000000e+00,5.000000000000000000e+00,5.000000000000000000e+00,5.000000000000000000e+00,5.000000000000000000e+00,1.391768217086791992e+00,5.000000000000000000e+00,5.000000000000000000e+00,5.000000000000000000e+00,5.000000000000000000e+00,1.282310009002685547e+00,1.229061961174011230e+00,1.216225266456604004e+00,1.212941169738769531e+00,1.229327678680419922e+00,1.245582342147827148e+00,1.476762533187866211e+00,1.495198726654052734e+00,1.526293873786926270e+00,5.000000000000000000e+00,4.857653141021728516e+00,4.667068004608154297e+00,4.490873336791992188e+00,4.327497959136962891e+00,4.175592422485351562e+00,4.033989429473876953e+00,3.901676416397094727e+00,3.777766466140747070e+00,3.661485195159912109e+00,3.552148103713989258e+00,3.449151754379272461e+00,3.351959705352783203e+00,3.260095596313476562e+00,3.173131942749023438e+00,3.090687513351440430e+00,3.012418508529663086e+00,2.938016176223754883e+00,2.867200136184692383e+00,2.799717664718627930e+00,2.735338687896728516e+00,2.673854112625122070e+00,2.615072488784790039e+00,2.558820009231567383e+00,2.504936695098876953e+00,2.453275918960571289e+00,2.403702735900878906e+00,2.356093645095825195e+00,2.310333490371704102e+00,2.266317129135131836e+00,2.223946571350097656e+00,2.183131456375122070e+00,2.143787145614624023e+00,2.105836153030395508e+00,2.069205045700073242e+00,2.033827066421508789e+00,1.999638080596923828e+00,1.966580033302307129e+00,1.934596657752990723e+00,1.903637170791625977e+00,1.873652935028076172e+00,1.844598770141601562e+00
5.000000000000000000e+00,5.000000000000000000e+00,5.000000000000000000e+00,5.000000000000000000e+00,5.000000000000000000e+00,5.000000000000000000e+00,5.000000000000000000e+00,5.000000000000000000e+00,5.000000000000000000e+00,5.000000000000000000e+00,5.000000000000000000e+00,5.000000000000000000e+00,5.000000000000000000e+00,5.000000000000000000e+00,5.000000000000000000e+00,5.000000000000000000e+00,5.000000000000000000e+00,5.000000000000000000e+00,5.000000000000000000e+00,5.000000000000000000e+00,5.000000000000000000e+00,5.000000000000000000e+00,5.000000000000000000e+00,5.000000000000000000e+00,5.000000000000000000e+00,5.000000000000000000e+00,5.000000000000000000e+00,5.000000000000000000e+00,5.000000000000000000e+00,1.298509359359741211e+00,1.235778689384460449e+00,1.214632272720336914e+00,1.207861661911010742e+00,1.221675634384155273e+00,1.236494779586791992e+00,1.483315467834472656e+00,1.503296971321105957e+00,5.000000000000000000e+00,5.000000000000000000e+00,4.857792377471923828e+00,4.667196273803710938e+00,4.490992069244384766e+00,4.327608108520507812e+00,4.175694942474365234e+00,4.034085273742675781e+00,3.901765823364257812e+00,3.777850627899169922e+00,3.661563873291015625e+00,3.552222490310668945e+00,3.449221611022949219e+00,3.352026224136352539e+00,3.260157823562622070e+00,3.173191308975219727e+00,3.090743541717529297e+00,3.012472152709960938e+00,2.938066720962524414e+00,2.867248535156250000e+00,2.799763679504394531e+00,2.735382795333862305e+00,2.673896074295043945e+00,2.615113019943237305e+00,2.558858633041381836e+00,2.504973649978637695e+00,2.453311204910278320e+00,2.403736829757690430e+00,2.356126070022583008e+00,2.310364961624145508e+00,2.266347169876098633e+00,2.223975658416748047e+00,2.183159351348876953e+00,2.143814325332641602e+00,2.105862140655517578e+00,2.069230318069458008e+00,2.033851385116577148e+00,1.999661684036254883e+00,1.966602563858032227e+00,1.934618711471557617e+00,1.903658509254455566e+00,1.873673677444458008e+00,1.844618678092956543e+00
5.000000000000000000e+00,5.000000000000000000e+00,5.000000000000000000e+00,5.000000000000000000e+00,5.000000000000000000e+00,5.000000000000000000e+00,5.000000000000000000e+00,5.000000000000000000e+00,5.000000000000000000e+00,5.000000000000000000e+00,5.000000000000000000e+00,5.000000000000000000e+00,5.000000000000000000e+00,5.000000000000000000e+00,5.000000000000000000e+00,5.000000000000000000e+00,5.000000000000000000e+00,5.000000000000000000e+00,5.000000000000000000e+00,5.000000000000000000e+00,5.000000000000000000e+00,5.000000000000000000e+00,5.000000000000000000e+00,5.000000000000000000e+00,5.000000000000000000e+00,5.000000000000000000e+00,5.000000000000000000e+00,5.000000000000000000e+00,5.000000000000000000e+00,1.310231924057006836e+00,1.247047185897827148e+00,1.216702461242675781e+00,1.210205674171447754e+00,1.224457144737243652e+00,1.239267826080322266e+00,1.490090250968933105e+00,1.510833859443664551e+00,5.000000000000000000e+00,5.000000000000000000e+00,4.857931137084960938e+00,4.667324542999267578e+00,4.491110801696777344e+00,4.327718257904052734e+00,4.175797462463378906e+00,4.034181118011474609e+00,3.901855468750000000e+00,3.777934551239013672e+00,3.661643028259277344e+00,3.552296638488769531e+00,3.449291944503784180e+00,3.352092027664184570e+00,3.260220766067504883e+00,3.173250436782836914e+00,3.090799808502197266e+00,3.012525320053100586e+00,2.938117742538452148e+00,2.867296934127807617e+00,2.799809932708740234e+00,2.735426664352416992e+00,2.673938274383544922e+00,2.615153074264526367e+00,2.558897256851196289e+00,2.505010366439819336e+00,2.453346729278564453e+00,2.403770685195922852e+00,2.356158971786499023e+00,2.310396194458007812e+00,2.266377449035644531e+00,2.224004745483398438e+00,2.183187484741210938e+00,2.143841266632080078e+00,2.105888366699218750e+00,2.069255590438842773e+00,2.033875703811645508e+00,1.999685287475585938e+00,1.966625452041625977e+00,1.934640645980834961e+00,1.903679966926574707e+00,1.873694300651550293e+00,1.844638705253601074e+00
5.000000000000000000e+00,5.000000000000000000e+00,5.000000000000000000e+00,5.000000000000000000e+00,5.000000000000000000e+00,5.000000000000000000e+00,5.000000000000000000e+00,5.000000000000000000e+00,5.000000000000000000e+00,5.000000000000000000e+00,5.000000000000000000e+00,5.000000000000000000e+00,5.000000000000000000e+00,5.000000000000000000e+00,5.000000000000000000e+00,5.000000000000000000e+00,5.000000000000000000e+00,5.000000000000000000e+00,5.000000000000000000e+00,5.000000000000000000e+00,5.000000000000000000e+00,5.000000000000000000e+00,5.000000000000000000e+00,5.000000000000000000e+00,5.000000000000000000e+00,5.000000000000000000e+00,5.000000000000000000e+00,5.000000000000000000e+00,5.000000000000000000e+00,5.000000000000000000e+00,1.245857596397399902e+00,1.223283767700195312e+00,1.215249061584472656e+00,1.229706287384033203e+00,1.244608879089355469e+00,1.496927380561828613e+00,1.518446683883666992e+00,5.000000000000000000e+00,5.000000000000000000e+00,4.858069896697998047e+00,4.667452812194824219e+00,4.491229534149169922e+00,4.327828407287597656e+00,4.175900459289550781e+00,4.034276962280273438e+00,3.901944875717163086e+00,3.778018712997436523e+00,3.661721706390380859e+00,3.552371025085449219e+00,3.449361801147460938e+00,3.352158308029174805e+00,3.260282993316650391e+00,3.173309803009033203e+00,3.090856075286865234e+00,3.012578964233398438e+00,2.938168525695800781e+00,2.867345333099365234e+00,2.799855947494506836e+00,2.735470771789550781e+00,2.673980236053466797e+00,2.615193367004394531e+00,2.558935642242431641e+00,2.505047559738159180e+00,2.453382015228271484e+00,2.403804779052734375e+00,2.356191396713256836e+00,2.310427665710449219e+00,2.266407728195190430e+00,2.224034070968627930e+00,2.183215618133544922e+00,2.143868446350097656e+00,2.105914354324340820e+00,2.069280862808227539e+00,2.033900022506713867e+00,1.999708890914916992e+00,1.966648221015930176e+00,1.934662699699401855e+00,1.903701066970825195e+00,1.873715043067932129e+00,1.844658851623535156e+00
5.000000000000000000e+00,5.000000000000000000e+00,5.000000000000000000e+00,5.000000000000000000e+00,5.000000000000000000e+00,5.000000000000000000e+00,5.000000000000000000e+00,5.000000000000000000e+00,5.000000000000000000e+00,5.000000000000000000e+00,5.000000000000000000e+00,5.000000000000000000e+00,5.000000000000000000e+00,5.000000000000000000e+00,5.000000000000000000e+00,5.000000000000000000e+00,5.000000000000000000e+00,5.000000000000000000e+00,5.000000000000000000e+00,5.000000000000000000e+00,5.000000000000000000e+00,5.000000000000000000e+00,5.000000000000000000e+00,5.000000000000000000e+00,5.000000000000000000e+00,5.000000000000000000e+00,5.000000000000000000e+00,5.000000000000000000e+00,5.000000000000000000e+00,5.000000000000000000e+00,1.245047688484191895e+00,1.232164025306701660e+00,1.221523523330688477e+00,1.236131191253662109e+00,1.255986452102661133e+00,1.503827452659606934e+00,1.534754991531372070e+00,5.000000000000000000e+00,5.000000000000000000e+00,4.858209133148193359e+00,4.667581081390380859e+00,4.491348266601562500e+00,4.327939033508300781e+00,4.176002979278564453e+00,4.034372806549072266e+00,3.902034759521484375e+00,3.778102636337280273e+00,3.661800861358642578e+00,3.552445173263549805e+00,3.449431896209716797e+00,3.352224349975585938e+00,3.260345697402954102e+00,3.173368930816650391e+00,3.090912342071533203e+00,3.012632131576538086e+00,2.938219308853149414e+00,2.867393493652343750e+00,2.799902200698852539e+00,2.735514879226684570e+00,2.674022436141967773e+00,2.615233659744262695e+00,2.558974266052246094e+00,2.505084276199340820e+00,2.453417539596557617e+00,2.403838634490966797e+00,2.356224298477172852e+00,2.310459136962890625e+00,2.266438007354736328e+00,2.224062919616699219e+00,2.183243751525878906e+00,2.143895387649536133e+00,2.105940580368041992e+00,2.069305896759033203e+00,2.033924341201782227e+00,1.999732255935668945e+00,1.966670989990234375e+00,1.934684753417968750e+00,1.903722524642944336e+00,1.873735547065734863e+00,1.844678878784179688e+00
5.000000000000000000e+00,5.000000000000000000e+00,5.000000000000000000e+00,5.000000000000000000e+00,5.000000000000000000e+00,5.000000000000000000e+00,5.000000000000000000e+00,5.000000000000000000e+00,5.000000000000000000e+00,5.000000000000000000e+00,5.000000000000000000e+00,5.000000000000000000e+00,5.000000000000000000e+00,5.000000000000000000e+00,5.000000000000000000e+00,5.000000000000000000e+00,5.000000000000000000e+00,5.000000000000000000e+00,5.000000000000000000e+00,5.000000000000000000e+00,5.000000000000000000e+00,5.000000000000000000e+00,5.000000000000000000e+00,5.000000000000000000e+00,5.000000000000000000e+00,5.000000000000000000e+00,5.000000000000000000e+00,5.000000000000000000e+00,5.000000000000000000e+00,5.000000000000000000e+00,1.249241948127746582e+00,1.239209532737731934e+00,1.227862954139709473e+00,1.242623567581176758e+00,1.267573952674865723e+00,1.510288834571838379e+00,5.000000000000000000e+00,5.000000000000000000e+00,5.000000000000000000e+00,4.858347892761230469e+00,4.667709350585937500e+00,4.491466999053955078e+00,4.328049182891845703e+00,4.176105499267578125e+00,4.034468650817871094e+00,3.902124166488647461e+00,3.778186798095703125e+00,3.661879539489746094e+00,3.552519559860229492e+00,3.449501752853393555e+00,3.352290630340576172e+00,3.260408163070678711e+00,3.173428297042846680e+00,3.090968370437622070e+00,3.012685775756835938e+00,2.938270092010498047e+00,2.867442131042480469e+00,2.799948215484619141e+00,2.735558986663818359e+00,2.674064397811889648e+00,2.615273952484130859e+00,2.559012651443481445e+00,2.505121469497680664e+00,2.453452825546264648e+00,2.403872728347778320e+00,2.356256723403930664e+00,2.310490608215332031e+00,2.266468286514282227e+00,2.224092245101928711e+00,2.183271646499633789e+00,2.143922567367553711e+00,2.105966567993164062e+00,2.069331169128417969e+00,2.033948659896850586e+00,1.999755859375000000e+00,1.966693639755249023e+00,1.934706926345825195e+00,1.903743863105773926e+00,1.873756289482116699e+00,1.844698786735534668e+00
5.000000000000000000e+00,5.000000000000000000e+00,5.000000000000000000e+00,5.000000000000000000e+00,5.000000000000000000e+00,5.000000000000000000e+00,5.000000000000000000e+00,5.000000000000000000e+00,5.000000000000000000e+00,5.000000000000000000e+00,5.000000000000000000e+00,5.000000000000000000e+00,5.000000000000000000e+00,5.000000000000000000e+00,5.000000000000000000e+00,5.000000000000000000e+00,5.000000000000000000e+00,5.000000000000000000e+00,5.000000000000000000e+00,5.000000000000000000e+00,5.000000000000000000e+00,5.000000000000000000e+00,5.000000000000000000e+00,5.000000000000000000e+00,5.000000000000000000e+00,5.000000000000000000e+00,5.000000000000000000e+00,5.000000000000000000e+00,5.000000000000000000e+00,1.305313944816589355e+00,1.253677368164062500e+00,1.244152307510375977e+00,1.234390616416931152e+00,1.251781105995178223e+00,1.279377341270446777e+00,1.519640684127807617e+00,5.000000000000000000e+00,5.000000000000000000e+00,5.000000000000000000e+00,4.858486652374267578e+00,4.667837142944335938e+00,4.491585254669189453e+00,4.328159332275390625e+00,4.176208019256591797e+00,4.034564018249511719e+00,3.902213573455810547e+00,3.778270483016967773e+00,3.661958217620849609e+00,3.552593708038330078e+00,3.449571609497070312e+00,3.352356672286987305e+00,3.260470628738403320e+00,3.173487424850463867e+00,3.091024637222290039e+00,3.012738943099975586e+00,2.938320636749267578e+00,2.867490291595458984e+00,2.799994468688964844e+00,2.735602855682373047e+00,2.674106359481811523e+00,2.615314006805419922e+00,2.559051275253295898e+00,2.505158185958862305e+00,2.453488111495971680e+00,2.403906822204589844e+00,2.356289386749267578e+00,2.310521841049194336e+00,2.266498327255249023e+00,2.224121332168579102e+00,2.183299541473388672e+00,2.143949508666992188e+00,2.105992555618286133e+00,2.069356441497802734e+00,2.033972978591918945e+00,1.999779462814331055e+00,1.966716527938842773e+00,1.934728741645812988e+00,1.903765082359313965e+00,1.873777031898498535e+00,1.844718933105468750e+00
5.000000000000000000e+00,5.000000000000000000e+00,5.000000000000000000e+00,5.000000000000000000e+00,5.000000000000000000e+00,5.000000000000000000e+00,5.000000000000000000e+00,5.000000000000000000e+00,5.000000000000000000e+00,5.000000000000000000e+00,5.000000000000000000e+00,5.000000000000000000e+00,5.000000000000000000e+00,5.000000000000000000e+00,5.000000000000000000e+00,5.000000000000000000e+00,5.000000000000000000e+00,5.000000000000000000e+00,5.000000000000000000e+00,5.000000000000000000e+00,5.000000000000000000e+00,5.000000000000000000e+00,5.000000000000000000e+00,5.000000000000000000e+00,5.000000000000000000e+00,5.000000000000000000e+00,5.000000000000000000e+00,5.000000000000000000e+00,5.000000000000000000e+00,1.288745522499084473e+00,1.258144259452819824e+00,1.249134540557861328e+00,1.243433475494384766e+00,1.263290882110595703e+00,1.331185340881347656e+00,1.538863182067871094e+00,5.000000000000000000e+00,5.000000000000000000e+00,5.000000000000000000e+00,4.858625411987304688e+00,4.667965412139892578e+00,4.491703987121582031e+00,4.328269481658935547e+00,4.176310539245605469e+00,4.034659862518310547e+00,3.902303457260131836e+00,3.778354406356811523e+00,3.662037372589111328e+00,3.552667856216430664e+00,3.449641942977905273e+00,3.352422714233398438e+00,3.260533332824707031e+00,3.173546552658081055e+00,3.091080904006958008e+00,3.012792348861694336e+00,2.938371658325195312e+00,2.867538690567016602e+00,2.800040721893310547e+00,2.735646724700927734e+00,2.674148559570312500e+00,2.615354299545288086e+00,2.559089899063110352e+00,2.505195140838623047e+00,2.453523635864257812e+00,2.403940677642822266e+00,2.356322288513183594e+00,2.310553312301635742e+00,2.266528606414794922e+00,2.224150180816650391e+00,2.183327674865722656e+00,2.143976449966430664e+00,2.106018781661987305e+00,2.069381475448608398e+00,2.033997535705566406e+00,1.999802827835083008e+00,1.966739296913146973e+00,1.934750795364379883e+00,1.903786420822143555e+00,1.873797535896301270e+00,1.844738960266113281e+00
5.000000000000000000e+00,5.000000000000000000e+00,5.000000000000000000e+00,5.000000000000000000e+00,5.000000000000000000e+00,5.000000000000000000e+00,5.000000000000000000e+00,5.000000000000000000e+00,5.000000000000000000e+00,5.000000000000000000e+00,5.000000000000000000e+00,5.000000000000000000e+00,5.000000000000000000e+00,5.000000000000000000e+00,5.000000000000000000e+00,5.000000000000000000e+00,5.000000000000000000e+00,5.000000000000000000e+00,5.000000000000000000e+00,5.000000000000000000e+00,5.000000000000000000e+00,5.000000000000000000e+00,5.000000000000000000e+00,5.000000000000000000e+00,5.000000000000000000e+00,5.000000000000000000e+00,5.000000000000000000e+00,5.000000000000000000e+00,5.000000000000000000e+00,1.287257909774780273e+00,1.262561559677124023e+00,1.252703785896301270e+00,1.247294664382934570e+00,1.267865777015686035e+00,1.562234163284301758e+00,5.000000000000000000e+00,5.000000000000000000e+00,5.000000000000000000e+00,5.000000000000000000e+00,4.858764171600341797e+00,4.668093681335449219e+00,4.491822719573974609e+00,4.328379631042480469e+00,4.176413059234619141e+00,4.034755706787109375e+00,3.902392864227294922e+00,3.778438568115234375e+00,3.662116050720214844e+00,3.552742242813110352e+00,3.449711799621582031e+00,3.352488994598388672e+00,3.260595798492431641e+00,3.173606157302856445e+00,3.091137170791625977e+00,3.012845754623413086e+00,2.938422441482543945e+00,2.867587089538574219e+00,2.800086736679077148e+00,2.735691070556640625e+00,2.674190521240234375e+00,2.615394592285156250e+00,2.559128284454345703e+00,2.505232095718383789e+00,2.453559160232543945e+00,2.403974771499633789e+00,2.356354713439941406e+00,2.310584783554077148e+00,2.266558885574340820e+00,2.224179506301879883e+00,2.183355808258056641e+00,2.144003629684448242e+00,2.106044769287109375e+00,2.069406747817993164e+00,2.034021615982055664e+00,1.999826431274414062e+00,1.966761827468872070e+00,1.934772968292236328e+00,1.903807878494262695e+00,1.873818278312683105e+00,1.844758868217468262e+00
5.000000000000000000e+00,5.000000000000000000e+00,5.000000000000000000e+00,5.000000000000000000e+00,5.000000000000000000e+00,5.000000000000000000e+00,5.000000000000000000e+00,5.000000000000000000e+00,5.000000000000000000e+00,5.000000000000000000e+00,5.000000000000000000e+00,5.000000000000000000e+00,5.000000000000000000e+00,5.000000000000000000e+00,5.000000000000000000e+00,5.000000000000000000e+00,5.000000000000000000e+00,5.000000000000000000e+00,5.000000000000000000e+00,5.000000000000000000e+00,5.000000000000000000e+00,5.000000000000000000e+00,5.000000000000000000e+00,5.000000000000000000e+00,5.000000000000000000e+00,5.000000000000000000e+00,5.000000000000000000e+00,5.000000000000000000e+00,5.000000000000000000e+00,1.291382551193237305e+00,1.266338348388671875e+00,1.252429485321044922e+00,1.247022747993469238e+00,1.265995502471923828e+00,1.291307091712951660e+00,5.000000000000000000e+00,5.000000000000000000e+00,5.000000000000000000e+00,5.000000000000000000e+00,4.858903408050537109e+00,4.668221950531005859e+00,4.491941452026367188e+00,4.328489780426025391e+00,4.176516056060791016e+00,4.034851551055908203e+00,3.902482748031616211e+00,3.778522491455078125e+00,3.662195205688476562e+00,3.552816390991210938e+00,3.449781894683837891e+00,3.352555036544799805e+00,3.260658502578735352e+00,3.173665285110473633e+00,3.091193437576293945e+00,3.012899160385131836e+00,2.938473224639892578e+00,2.867635488510131836e+00,2.800132989883422852e+00,2.735734939575195312e+00,2.674232721328735352e+00,2.615434885025024414e+00,2.559166908264160156e+00,2.505269050598144531e+00,2.453594684600830078e+00,2.404008626937866211e+00,2.356387615203857422e+00,2.310616016387939453e+00,2.266589164733886719e+00,2.224208593368530273e+00,2.183383941650390625e+00,2.144030570983886719e+00,2.106070995330810547e+00,2.069431781768798828e+00,2.034046173095703125e+00,1.999850034713745117e+00,1.966784715652465820e+00,1.934794783592224121e+00,1.903829216957092285e+00,1.873838901519775391e+00,1.844778895378112793e+00
5.000000000000000000e+00,5.000000000000000000e+00,5.000000000000000000e+00,5.000000000000000000e+00,5.000000000000000000e+00,5.000000000000000000e+00,5.000000000000000000e+00,5.000000000000000000e+00,5.000000000000000000e+00,5.000000000000000000e+00,5.000000000000000000e+00,5.000000000000000000e+00,5.000000000000000000e+00,5.000000000000000000e+00,5.000000000000000000e+00,5.000000000000000000e+00,5.000000000000000000e+00,5.000000000000000000e+00,5.000000000000000000e+00,5.000000000000000000e+00,5.000000000000000000e+00,5.000000000000000000e+00,5.000000000000000000e+00,5.000000000000000000e+00,5.000000000000000000e+00,5.000000000000000000e+00,5.000000000000000000e+00,5.000000000000000000e+00,5.000000000000000000e+00,5.000000000000000000e+00,1.270137786865234375e+00,1.252298235893249512e+00,1.246750950813293457e+00,1.264130711555480957e+00,1.288838148117065430e+00,5.000000000000000000e+00,5.000000000000000000e+00,5.000000000000000000e+00,5.000000000000000000e+00,4.859041213989257812e+00,4.668350219726562500e+00,4.492060184478759766e+00,4.328600406646728516e+00,4.176618576049804688e+00,4.034947395324707031e+00,3.902572154998779297e+00,3.778606653213500977e+00,3.662273883819580078e+00,3.552890777587890625e+00,3.449851751327514648e+00,3.352621316909790039e+00,3.260720968246459961e+00,3.173724651336669922e+00,3.091249465942382812e+00,3.012952804565429688e+00,2.938524007797241211e+00,2.867684125900268555e+00,2.800179004669189453e+00,2.735779047012329102e+00,2.674274682998657227e+00,2.615475177764892578e+00,2.559205293655395508e+00,2.505306005477905273e+00,2.453629970550537109e+00,2.404042720794677734e+00,2.356420040130615234e+00,2.310647487640380859e+00,2.266619205474853516e+00,2.224237680435180664e+00,2.183411836624145508e+00,2.144057750701904297e+00,2.106096982955932617e+00,2.069457054138183594e+00,2.034070491790771484e+00,1.999873638153076172e+00,1.966807484626770020e+00,1.934816837310791016e+00,1.903850436210632324e+00,1.873859643936157227e+00,1.844799041748046875e+00
5.000000000000000000e+00,5.000000000000000000e+00,5.000000000000000000e+00,5.000000000000000000e+00,5.000000000000000000e+00,5.000000000000000000e+00,5.000000000000000000e+00,5.000000000000000000e+00,5.000000000000000000e+00,5.000000000000000000e+00,5.000000000000000000e+00,5.000000000000000000e+00,5.000000000000000000e+00,5.000000000000000000e+00,5.000000000000000000e+00,5.000000000000000000e+00,5.000000000000000000e+00,5.000000000000000000e+00,5.000000000000000000e+00,5.000000000000000000e+00,5.000000000000000000e+00,5.000000000000000000e+00,5.000000000000000000e+00,5.000000000000000000e+00,5.000000000000000000e+00,5.000000000000000000e+00,5.000000000000000000e+00,5.000000000000000000e+00,5.000000000000000000e+00,5.000000000000000000e+00,1.274017453193664551e+00,1.253753542900085449e+00,1.246479272842407227e+00,1.262271404266357422e+00,1.286378622055053711e+00,5.000000000000000000e+00,5.000000000000000000e+00,5.000000000000000000e+00,5.000000000000000000e+00,4.859179019927978516e+00,4.668477535247802734e+00,4.492178916931152344e+00,4.328710556030273438e+00,4.176721096038818359e+00,4.035043239593505859e+00,3.902662038803100586e+00,3.778690576553344727e+00,3.662353038787841797e+00,3.552964925765991211e+00,3.449922084808349609e+00,3.352687358856201172e+00,3.260783672332763672e+00,3.173783779144287109e+00,3.091305971145629883e+00,3.013005971908569336e+00,2.938575029373168945e+00,2.867732286453247070e+00,2.800225257873535156e+00,2.735822916030883789e+00,2.674316883087158203e+00,2.615515232086181641e+00,2.559243917465209961e+00,2.505342721939086914e+00,2.453665494918823242e+00,2.404076814651489258e+00,2.356452941894531250e+00,2.310678958892822266e+00,2.266649723052978516e+00,2.224266767501831055e+00,2.183439970016479492e+00,2.144084692001342773e+00,2.106123208999633789e+00,2.069482326507568359e+00,2.034094810485839844e+00,1.999897003173828125e+00,1.966830372810363770e+00,1.934839010238647461e+00,1.903871774673461914e+00,1.873880147933959961e+00,1.844819068908691406e+00
5.000000000000000000e+00,5.000000000000000000e+00,5.000000000000000000e+00,5.000000000000000000e+00,5.000000000000000000e+00,5.000000000000000000e+00,5.000000000000000000e+00,5.000000000000000000e+00,5.000000000000000000e+00,5.000000000000000000e+00,5.000000000000000000e+00,5.000000000000000000e+00,5.000000000000000000e+00,5.000000000000000000e+00,5.000000000000000000e+00,5.000000000000000000e+00,5.000000000000000000e+00,5.000000000000000000e+00,5.000000000000000000e+00,5.000000000000000000e+00,5.000000000000000000e+00,5.000000000000000000e+00,5.000000000000000000e+00,5.000000000000000000e+00,5.000000000000000000e+00,5.000000000000000000e+00,5.000000000000000000e+00,5.000000000000000000e+00,5.000000000000000000e+00,5.000000000000000000e+00,1.277950286865234375e+00,1.255212187767028809e+00,1.246207714080810547e+00,1.260084271430969238e+00,1.283928513526916504e+00,5.000000000000000000e+00,5.000000000000000000e+00,5.000000000000000000e+00,5.000000000000000000e+00,4.859316825866699219e+00,4.668604850769042969e+00,4.492298126220703125e+00,4.328820705413818359e+00,4.176824092864990234e+00,4.035139083862304688e+00,3.902751445770263672e+00,3.778774738311767578e+00,3.662431955337524414e+00,3.553039550781250000e+00,3.449991941452026367e+00,3.352753639221191406e+00,3.260846138000488281e+00,3.173843145370483398e+00,3.091361999511718750e+00,3.013059616088867188e+00,2.938625574111938477e+00,2.867780923843383789e+00,2.800271272659301758e+00,2.735867261886596680e+00,2.674358844757080078e+00,2.615555763244628906e+00,2.559282541275024414e+00,2.505379915237426758e+00,2.453700780868530273e+00,2.404110908508300781e+00,2.356485605239868164e+00,2.310710430145263672e+00,2.266679763793945312e+00,2.224295854568481445e+00,2.183467864990234375e+00,2.144111871719360352e+00,2.106149196624755859e+00,2.069507598876953125e+00,2.034119129180908203e+00,1.999920606613159180e+00,1.966852903366088867e+00,1.934861063957214355e+00,1.903893113136291504e+00,1.873900890350341797e+00,1.844838976860046387e+00
5.000000000000000000e+00,5.000000000000000000e+00,5.000000000000000000e+00,5.000000000000000000e+00,5.000000000000000000e+00,5.000000000000000000e+00,5.000000000000000000e+00,5.000000000000000000e+00,5.000000000000000000e+00,5.000000000000000000e+00,5.000000000000000000e+00,5.000000000000000000e+00,5.000000000000000000e+00,5.000000000000000000e+00,5.000000000000000000e+00,5.000000000000000000e+00,5.000000000000000000e+00,5.000000000000000000e+00,5.000000000000000000e+00,5.000000000000000000e+00,5.000000000000000000e+00,5.000000000000000000e+00,5.000000000000000000e+00,5.000000000000000000e+00,5.000000000000000000e+00,5.000000000000000000e+00,5.000000000000000000e+00,5.000000000000000000e+00,5.000000000000000000e+00,5.000000000000000000e+00,1.281907200813293457e+00,1.258310675621032715e+00,1.246752262115478516e+00,1.257733106613159180e+00,1.281487703323364258e+00,5.000000000000000000e+00,5.000000000000000000e+00,5.000000000000000000e+00,5.000000000000000000e+00,4.859454631805419922e+00,4.668732166290283203e+00,4.492415428161621094e+00,4.328931331634521484e+00,4.176926612854003906e+00,4.035234928131103516e+00,3.902841329574584961e+00,3.778858661651611328e+00,3.662511110305786133e+00,3.553113698959350586e+00,3.450062274932861328e+00,3.352819681167602539e+00,3.260908842086791992e+00,3.173902273178100586e+00,3.091418504714965820e+00,3.013112783432006836e+00,2.938676595687866211e+00,2.867829084396362305e+00,2.800317525863647461e+00,2.735911130905151367e+00,2.674401044845581055e+00,2.615595817565917969e+00,2.559321165084838867e+00,2.505416631698608398e+00,2.453736305236816406e+00,2.404144763946533203e+00,2.356518268585205078e+00,2.310741901397705078e+00,2.266710042953491211e+00,2.224324941635131836e+00,2.183495998382568359e+00,2.144138813018798828e+00,2.106175422668457031e+00,2.069532632827758789e+00,2.034143447875976562e+00,1.999944210052490234e+00,1.966875791549682617e+00,1.934882879257202148e+00,1.903914570808410645e+00,1.873921632766723633e+00,1.844859004020690918e+00
5.000000000000000000e+00,5.000000000000000000e+00,5.000000000000000000e+00,5.000000000000000000e+00,5.000000000000000000e+00,5.000000000000000000e+00,5.000000000000000000e+00,5.000000000000000000e+00,5.000000000000000000e+00,5.000000000000000000e+00,5.000000000000000000e+00,5.000000000000000000e+00,5.000000000000000000e+00,5.000000000000000000e+00,5.000000000000000000e+00,5.000000000000000000e+00,5.000000000000000000e+00,5.000000000000000000e+00,5.000000000000000000e+00,5.000000000000000000e+00,5.000000000000000000e+00,5.000000000000000000e+00,5.000000000000000000e+00,5.000000000000000000e+00,5.000000000000000000e+00,5.000000000000000000e+00,5.000000000000000000e+00,5.000000000000000000e+00,5.000000000000000000e+00,5.000000000000000000e+00,1.285888791084289551e+00,1.262246131896972656e+00,1.249260187149047852e+00,1.255879521369934082e+00,1.279865622520446777e+00,5.000000000000000000e+00,5.000000000000000000e+00,5.000000000000000000e+00,5.000000000000000000e+00,4.859592914581298828e+00,4.668859481811523438e+00,4.492533206939697266e+00,4.329040527343750000e+00,4.177029132843017578e+00,4.035330772399902344e+00,3.902930736541748047e+00,3.778942823410034180e+00,3.662589788436889648e+00,3.553188085556030273e+00,3.450132131576538086e+00,3.352885961532592773e+00,3.260971307754516602e+00,3.173961877822875977e+00,3.091474533081054688e+00,3.013166427612304688e+00,2.938727378845214844e+00,2.867877721786499023e+00,2.800363540649414062e+00,2.735955238342285156e+00,2.674443244934082031e+00,2.615636110305786133e+00,2.559359550476074219e+00,2.505453824996948242e+00,2.453771591186523438e+00,2.404178857803344727e+00,2.356550931930541992e+00,2.310773372650146484e+00,2.266740322113037109e+00,2.224354267120361328e+00,2.183524131774902344e+00,2.144165992736816406e+00,2.106201410293579102e+00,2.069557905197143555e+00,2.034167766571044922e+00,1.999967813491821289e+00,1.966898560523986816e+00,1.934905052185058594e+00,1.903935790061950684e+00,1.873942375183105469e+00,1.844879150390625000e+00
5.000000000000000000e+00,5.000000000000000000e+00,5.000000000000000000e+00,5.000000000000000000e+00,5.000000000000000000e+00,5.000000000000000000e+00,5.000000000000000000e+00,5.000000000000000000e+00,5.000000000000000000e+00,5.000000000000000000e+00,5.000000000000000000e+00,5.000000000000000000e+00,5.000000000000000000e+00,5.000000000000000000e+00,5.000000000000000000e+00,5.000000000000000000e+00,5.000000000000000000e+00,5.000000000000000000e+00,5.000000000000000000e+00,5.000000000000000000e+00,5.000000000000000000e+00,5.000000000000000000e+00,5.000000000000000000e+00,5.000000000000000000e+00,5.000000000000000000e+00,5.000000000000000000e+00,5.000000000000000000e+00,5.000000000000000000e+00,5.000000000000000000e+00,5.000000000000000000e+00,1.290584683418273926e+00,1.267089962959289551e+00,1.254564404487609863e+00,1.254576444625854492e+00,1.278512358665466309e+00,5.000000000000000000e+00,5.000000000000000000e+00,5.000000000000000000e+00,5.000000000000000000e+00,4.859730720520019531e+00,4.668986797332763672e+00,4.492650985717773438e+00,4.329149723052978516e+00,4.177132129669189453e+00,4.035426616668701172e+00,3.903020620346069336e+00,3.779026746749877930e+00,3.662668943405151367e+00,3.553262233734130859e+00,3.450202226638793945e+00,3.352952003479003906e+00,3.261034011840820312e+00,3.174021005630493164e+00,3.091531038284301758e+00,3.013219833374023438e+00,2.938778400421142578e+00,2.867925882339477539e+00,2.800409793853759766e+00,2.735999345779418945e+00,2.674485445022583008e+00,2.615676403045654297e+00,2.559398174285888672e+00,2.505490541458129883e+00,2.453807115554809570e+00,2.404212713241577148e+00,2.356583595275878906e+00,2.310804605484008789e+00,2.266770601272583008e+00,2.224383354187011719e+00,2.183552265167236328e+00,2.144192934036254883e+00,2.106227636337280273e+00,2.069583177566528320e+00,2.034192323684692383e+00,1.999991178512573242e+00,1.966921448707580566e+00,1.934927105903625488e+00,1.903957128524780273e+00,1.873962879180908203e+00,1.844899177551269531e+00
4.872011661529541016e+00,4.870790958404541016e+00,4.869570255279541016e+00,4.868350028991699219e+00,4.867130756378173828e+00,4.865911960601806641e+00,4.864693641662597656e+00,4.863475799560546875e+00,4.862258911132812500e+00,4.861042499542236328e+00,4.859826564788818359e+00,4.858611583709716797e+00,4.857397079467773438e+00,4.856183052062988281e+00,4.854969501495361328e+00,4.853756904602050781e+00,4.852544784545898438e+00,4.851333141326904297e+00,4.850122451782226562e+00,4.848912239074707031e+00,4.847702503204345703e+00,4.846493244171142578e+00,4.845284938812255859e+00,4.844076633453369141e+00,4.842869281768798828e+00,4.841662883758544922e+00,4.840456485748291016e+00,4.839251041412353516e+00,4.838046550750732422e+00,4.836842060089111328e+00,1.295648694038391113e+00,1.271970987319946289e+00,1.258246541023254395e+00,1.253275871276855469e+00,1.277161717414855957e+00,4.829628467559814453e+00,4.828428268432617188e+00,4.827229022979736328e+00,4.826030254364013672e+00,4.824831962585449219e+00,4.669114112854003906e+00,4.492769241333007812e+00,4.329259395599365234e+00,4.177233219146728516e+00,4.035522460937500000e+00,3.903110027313232422e+00,3.779110908508300781e+00,3.662747621536254883e+00,3.553336620330810547e+00,3.450272083282470703e+00,3.353018283843994141e+00,3.261096477508544922e+00,3.174080371856689453e+00,3.091587066650390625e+00,3.013273239135742188e+00,2.938828945159912109e+00,2.867974519729614258e+00,2.800455808639526367e+00,2.736043453216552734e+00,2.674527406692504883e+00,2.615716695785522461e+00,2.559436559677124023e+00,2.505527734756469727e+00,2.453842639923095703e+00,2.404246807098388672e+00,2.356616258621215820e+00,2.310836076736450195e+00,2.266800880432128906e+00,2.224412441253662109e+00,2.183580160140991211e+00,2.144220113754272461e+00,2.106253623962402344e+00,2.069608449935913086e+00,2.034216642379760742e+00,2.000014781951904297e+00,1.966944098472595215e+00,1.934949159622192383e+00,1.903978466987609863e+00,1.873983621597290039e+00,1.844919085502624512e+00
3.776878595352172852e+00,3.776144504547119141e+00,3.775410890579223633e+00,3.774677276611328125e+00,3.773944139480590820e+00,3.773211240768432617e+00,3.772479057312011719e+00,3.771746635437011719e+00,3.771014690399169922e+00,3.770282745361328125e+00,3.769551277160644531e+00,3.768820047378540039e+00,3.768089294433593750e+00,3.767359018325805664e+00,3.766628742218017578e+00,3.765898704528808594e+00,3.765168905258178711e+00,3.764439344406127930e+00,3.763710021972656250e+00,3.762981176376342773e+00,3.762253046035766602e+00,3.761524677276611328e+00,3.760796546936035156e+00,3.760068655014038086e+00,3.759341239929199219e+00,3.758613824844360352e+00,3.757887363433837891e+00,3.757160663604736328e+00,3.756434202194213867e+00,3.755708217620849609e+00,1.828122496604919434e+00,1.276922583580017090e+00,1.258671045303344727e+00,1.255583882331848145e+00,1.276237487792968750e+00,3.751357793807983398e+00,3.750633478164672852e+00,3.749909639358520508e+00,3.749186038970947266e+00,3.748462677001953125e+00,3.747740030288696289e+00,3.747017383575439453e+00,3.746294736862182617e+00,3.745572566986083984e+00,3.744850635528564453e+00,3.744128942489624023e+00,3.743407726287841797e+00,3.662826776504516602e+00,3.553410768508911133e+00,3.450342416763305664e+00,3.353084325790405273e+00,3.261159181594848633e+00,3.174139499664306641e+00,3.091643333435058594e+00,3.013326644897460938e+00,2.938879966735839844e+00,2.868022680282592773e+00,2.800502061843872070e+00,2.736087322235107422e+00,2.674569606781005859e+00,2.615756988525390625e+00,2.559475421905517578e+00,2.505564451217651367e+00,2.453878164291381836e+00,2.404280900955200195e+00,2.356648921966552734e+00,2.310867547988891602e+00,2.266831159591674805e+00,2.224441528320312500e+00,2.183608293533325195e+00,2.144247055053710938e+00,2.106279850006103516e+00,2.069633483886718750e+00,2.034240961074829102e+00,2.000038385391235352e+00,1.966966867446899414e+00,1.934971094131469727e+00,1.903999924659729004e+00,1.874004244804382324e+00,1.844939231872558594e+00
3.083718538284301758e+00,3.083229303359985352e+00,3.082740068435668945e+00,3.082251071929931641e+00,3.081762313842773438e+00,3.081273794174194336e+00,3.080785036087036133e+00,3.080296754837036133e+00,3.079808473587036133e+00,3.079320192337036133e+00,3.078832387924194336e+00,3.078344821929931641e+00,3.077857255935668945e+00,3.077369689941406250e+00,3.076882362365722656e+00,3.076395034790039062e+00,3.075908184051513672e+00,3.075421094894409180e+00,3.074934720993041992e+00,3.074448108673095703e+00,3.073961734771728516e+00,3.073475599288940430e+00,3.072989463806152344e+00,3.072503328323364258e+00,3.072017669677734375e+00,3.071532249450683594e+00,3.071046829223632812e+00,3.070561408996582031e+00,3.070076227188110352e+00,3.069591283798217773e+00,1.815433144569396973e+00,1.281970500946044922e+00,1.259725451469421387e+00,1.260941863059997559e+00,1.275820970535278320e+00,3.066684484481811523e+00,3.066200494766235352e+00,3.065716743469238281e+00,3.065233469009399414e+00,3.064749956130981445e+00,3.064266681671142578e+00,3.063783407211303711e+00,3.063300371170043945e+00,3.062817335128784180e+00,3.062334775924682617e+00,3.061852455139160156e+00,3.061369895935058594e+00,3.060887575149536133e+00,3.060405492782592773e+00,3.059923410415649414e+00,3.059441566467285156e+00,3.058959960937500000e+00,3.058478832244873047e+00,3.057997465133666992e+00,3.013380050659179688e+00,2.938930749893188477e+00,2.868071079254150391e+00,2.800548315048217773e+00,2.736131429672241211e+00,2.674611568450927734e+00,2.615797042846679688e+00,2.559513807296752930e+00,2.505601406097412109e+00,2.453913450241088867e+00,2.404314756393432617e+00,2.356681585311889648e+00,2.310898780822753906e+00,2.266861200332641602e+00,2.224470615386962891e+00,2.183636426925659180e+00,2.144273996353149414e+00,2.106305837631225586e+00,2.069658756256103516e+00,2.034265279769897461e+00,2.000061750411987305e+00,1.966989755630493164e+00,1.934993147850036621e+00,1.904021024703979492e+00,1.874024868011474609e+00,1.844959259033203125e+00
2.605532407760620117e+00,2.605183124542236328e+00,2.604833841323852539e+00,2.604484796524047852e+00,2.604135751724243164e+00,2.603786706924438477e+00,2.603437900543212891e+00,2.603089094161987305e+00,2.602740287780761719e+00,2.602391958236694336e+00,2.602043390274047852e+00,2.601695060729980469e+00,2.601346731185913086e+00,2.600998401641845703e+00,2.600650310516357422e+00,2.600302219390869141e+00,2.599954366683959961e+00,2.599606513977050781e+00,2.599258899688720703e+00,2.598911046981811523e+00,2.598563432693481445e+00,2.598216056823730469e+00,2.597868680953979492e+00,2.597521543502807617e+00,2.597174167633056641e+00,2.596827030181884766e+00,2.596480131149291992e+00,2.596133232116699219e+00,2.595786333084106445e+00,2.595439434051513672e+00,1.802101016044616699e+00,1.287058591842651367e+00,1.264638304710388184e+00,1.262454986572265625e+00,1.275404691696166992e+00,2.593361139297485352e+00,2.593015193939208984e+00,2.592669248580932617e+00,2.592323303222656250e+00,2.591977596282958984e+00,2.591631650924682617e+00,2.591286182403564453e+00,2.590940475463867188e+00,2.590595245361328125e+00,2.590250015258789062e+00,2.589904546737670898e+00,2.589559555053710938e+00,2.589214324951171875e+00,2.588869333267211914e+00,2.588524341583251953e+00,2.588179826736450195e+00,2.587835073471069336e+00,2.587490558624267578e+00,2.587146043777465820e+00,2.586801528930664062e+00,2.586457252502441406e+00,2.586112976074218750e+00,2.585768938064575195e+00,2.585424900054931641e+00,2.585080862045288086e+00,2.584737062454223633e+00,2.559552192687988281e+00,2.505638360977172852e+00,2.453948736190795898e+00,2.404348850250244141e+00,2.356714248657226562e+00,2.310930490493774414e+00,2.266891479492187500e+00,2.224499702453613281e+00,2.183664321899414062e+00,2.144301176071166992e+00,2.106332063674926758e+00,2.069684028625488281e+00,2.034289598464965820e+00,2.000085353851318359e+00,1.967012286186218262e+00,1.935015201568603516e+00,1.904042482376098633e+00,1.874045491218566895e+00,1.844979166984558105e+00
2.255683422088623047e+00,2.255424022674560547e+00,2.255164861679077148e+00,2.254905700683593750e+00,2.254646301269531250e+00,2.254387378692626953e+00,2.254128217697143555e+00,2.253869295120239258e+00,2.253610372543334961e+00,2.253351449966430664e+00,2.253092765808105469e+00,2.252833843231201172e+00,2.252575159072875977e+00,2.252316474914550781e+00,2.252057790756225586e+00,2.251799345016479492e+00,2.251540899276733398e+00,2.251282453536987305e+00,2.251024246215820312e+00,2.250765800476074219e+00,2.250507593154907227e+00,2.250249385833740234e+00,2.249991178512573242e+00,2.249732494354248047e+00,2.249472141265869141e+00,2.249211788177490234e+00,2.248951435089111328e+00,2.248691082000732422e+00,2.248430967330932617e+00,1.789673924446105957e+00,1.792010307312011719e+00,1.292187213897705078e+00,1.285461664199829102e+00,1.262882351875305176e+00,2.246870994567871094e+00,2.246611356735229492e+00,2.246351480484008789e+00,2.246091842651367188e+00,2.245832204818725586e+00,2.245572566986083984e+00,2.245313167572021484e+00,2.245053768157958984e+00,2.244794368743896484e+00,2.244534969329833984e+00,2.244275808334350586e+00,2.244016647338867188e+00,2.243757486343383789e+00,2.243498325347900391e+00,2.243239402770996094e+00,2.242980480194091797e+00,2.242721557617187500e+00,2.242462873458862305e+00,2.242203950881958008e+00,2.241945266723632812e+00,2.241686582565307617e+00,2.241428136825561523e+00,2.241169691085815430e+00,2.240911006927490234e+00,2.240652561187744141e+00,2.240394353866577148e+00,2.240135908126831055e+00,2.239877700805664062e+00,2.239619731903076172e+00,2.239361524581909180e+00,2.239103555679321289e+00,2.238845586776733398e+00,2.238587617874145508e+00,2.238329648971557617e+00,2.224528789520263672e+00,2.183692455291748047e+00,2.144328117370605469e+00,2.106358051300048828e+00,2.069709062576293945e+00,2.034313917160034180e+00,2.000108957290649414e+00,1.967035174369812012e+00,1.935037136077880859e+00,1.904063820838928223e+00,1.874066233634948730e+00,1.844999194145202637e+00
1.988554239273071289e+00,1.988352775573730469e+00,1.988151311874389648e+00,1.987949609756469727e+00,1.987748265266418457e+00,1.987546920776367188e+00,1.987345457077026367e+00,1.987144112586975098e+00,1.986943006515502930e+00,1.986741542816162109e+00,1.986540436744689941e+00,1.986339330673217773e+00,1.986138343811035156e+00,1.985936999320983887e+00,1.985736131668090820e+00,1.985535144805908203e+00,1.985334038734436035e+00,1.985133171081542969e+00,1.984932422637939453e+00,1.984731435775756836e+00,1.984530687332153320e+00,1.984329938888549805e+00,1.984129071235656738e+00,1.983928442001342773e+00,1.983727931976318359e+00,1.983527421951293945e+00,1.983326673507690430e+00,1.983126282691955566e+00,1.982925891876220703e+00,1.748501539230346680e+00,1.760862588882446289e+00,1.785474419593811035e+00,1.285101175308227539e+00,1.273179531097412109e+00,1.286411643028259277e+00,1.981523513793945312e+00,1.981323361396789551e+00,1.981123328208923340e+00,1.980923295021057129e+00,1.980723142623901367e+00,1.980523228645324707e+00,1.980323314666748047e+00,1.980123281478881836e+00,1.979923486709594727e+00,1.979723691940307617e+00,1.979523777961730957e+00,1.979324102401733398e+00,1.979124426841735840e+00,1.978924632072448730e+00,1.978725075721740723e+00,1.978525519371032715e+00,1.978326082229614258e+00,1.978126406669616699e+00,1.977926969528198242e+00,1.977727651596069336e+00,1.977528095245361328e+00,1.977328777313232422e+00,1.977129578590393066e+00,1.976930141448974609e+00,1.976731061935424805e+00,1.976531863212585449e+00,1.976332545280456543e+00,1.976133584976196289e+00,1.975934624671936035e+00,1.975735664367675781e+00,1.975536465644836426e+00,1.975337624549865723e+00,1.975138783454895020e+00,1.974939703941345215e+00,1.974740982055664062e+00,1.974542260169982910e+00,1.974343299865722656e+00,1.974144697189331055e+00,1.973946094512939453e+00,1.973747372627258301e+00,1.967057943344116211e+00,1.935059189796447754e+00,1.904085040092468262e+00,1.874086976051330566e+00,1.845019340515136719e+00
1.777995347976684570e+00,1.777834296226501465e+00,1.777673006057739258e+00,1.777511954307556152e+00,1.777351021766662598e+00,1.777189850807189941e+00,1.777028918266296387e+00,1.776867985725402832e+00,1.776706933975219727e+00,1.776546120643615723e+00,1.776385307312011719e+00,1.776224255561828613e+00,1.776063442230224609e+00,1.775902748107910156e+00,1.775741815567016602e+00,1.775581121444702148e+00,1.775420546531677246e+00,1.775259852409362793e+00,1.775099158287048340e+00,1.774938583374023438e+00,1.774778008460998535e+00,1.774617314338684082e+00,1.774456858634948730e+00,1.774296402931213379e+00,1.774135828018188477e+00,1.773975372314453125e+00,1.773815035820007324e+00,1.773654460906982422e+00,1.773494243621826172e+00,1.773333907127380371e+00,1.773173689842224121e+00,1.773013234138488770e+00,1.280866503715515137e+00,1.264530301094055176e+00,1.261388897895812988e+00,1.772372484207153320e+00,1.772212386131286621e+00,1.772052168846130371e+00,1.771892189979553223e+00,1.771732211112976074e+00,1.771571993827819824e+00,1.771412134170532227e+00,1.771252155303955078e+00,1.771092295646667480e+00,1.770932316780090332e+00,1.770772457122802734e+00,1.770612716674804688e+00,1.770452737808227539e+00,1.770292997360229492e+00,1.770133376121520996e+00,1.769973516464233398e+00,1.769813895225524902e+00,1.769654273986816406e+00,1.769494414329528809e+00,1.769334912300109863e+00,1.769175410270690918e+00,1.769015908241271973e+00,1.768856167793273926e+00,1.768696784973144531e+00,1.768537402153015137e+00,1.768377780914306641e+00,1.768218398094177246e+00,1.768059134483337402e+00,1.767899632453918457e+00,1.767740368843078613e+00,1.767581105232238770e+00,1.767421722412109375e+00,1.767262578010559082e+00,1.767103433609008789e+00,1.766944289207458496e+00,1.766785025596618652e+00,1.766626000404357910e+00,1.766466856002807617e+00,1.766307711601257324e+00,1.766148686408996582e+00,1.765989780426025391e+00,1.765830636024475098e+00,1.765671849250793457e+00,1.765512943267822266e+00,1.765353918075561523e+00
1.607757210731506348e+00,1.607625484466552734e+00,1.607493758201599121e+00,1.607361912727355957e+00,1.607230305671691895e+00,1.607098698616027832e+00,1.606966972351074219e+00,1.606835246086120605e+00,1.606703758239746094e+00,1.606572151184082031e+00,1.606440544128417969e+00,1.606308937072753906e+00,1.606177449226379395e+00,1.606045842170715332e+00,1.605914473533630371e+00,1.605782985687255859e+00,1.605651497840881348e+00,1.605520129203796387e+00,1.605388760566711426e+00,1.605257391929626465e+00,1.605125904083251953e+00,1.604994654655456543e+00,1.604863405227661133e+00,1.604732036590576172e+00,1.604600787162780762e+00,1.604469537734985352e+00,1.604338288307189941e+00,1.604207038879394531e+00,1.604075908660888672e+00,1.603944659233093262e+00,1.603813529014587402e+00,1.603682518005371094e+00,1.271944403648376465e+00,1.247058868408203125e+00,1.238251447677612305e+00,1.244235873222351074e+00,1.603027105331420898e+00,1.602896213531494141e+00,1.602765202522277832e+00,1.602634191513061523e+00,1.602503299713134766e+00,1.602372407913208008e+00,1.602241516113281250e+00,1.602110624313354492e+00,1.601979851722717285e+00,1.601849079132080078e+00,1.601718187332153320e+00,1.601587414741516113e+00,1.601456761360168457e+00,1.601325869560241699e+00,1.601195216178894043e+00,1.601064562797546387e+00,1.600933790206909180e+00,1.600803256034851074e+00,1.600672602653503418e+00,1.600541949272155762e+00,1.600411415100097656e+00,1.600280880928039551e+00,1.600150227546691895e+00,1.600019693374633789e+00,1.599889278411865234e+00,1.599758744239807129e+00,1.599628210067749023e+00,1.599497795104980469e+00,1.599367499351501465e+00,1.599236965179443359e+00,1.599106669425964355e+00,1.598976373672485352e+00,1.598845958709716797e+00,1.598715662956237793e+00,1.598585367202758789e+00,1.598455071449279785e+00,1.598324894905090332e+00,1.598194718360900879e+00,1.598064541816711426e+00,1.597934246063232422e+00,1.597804069519042969e+00,1.597674012184143066e+00,1.597543835639953613e+00,1.597413778305053711e+00
1.467270135879516602e+00,1.467160463333129883e+00,1.467050671577453613e+00,1.466940999031066895e+00,1.466831326484680176e+00,1.466721534729003906e+00,1.466611981391906738e+00,1.466502308845520020e+00,1.466392636299133301e+00,1.466283082962036133e+00,1.466173410415649414e+00,1.466063976287841797e+00,1.465954303741455078e+00,1.465844750404357910e+00,1.465735316276550293e+00,1.465625643730163574e+00,1.465516209602355957e+00,1.465406775474548340e+00,1.465297222137451172e+00,1.465187788009643555e+00,1.465078353881835938e+00,1.464968919754028320e+00,1.464859485626220703e+00,1.464750170707702637e+00,1.464640855789184570e+00,1.464531421661376953e+00,1.464422106742858887e+00,1.464312791824340820e+00,1.464203357696533203e+00,1.464094161987304688e+00,1.463984966278076172e+00,1.463875532150268555e+00,1.252990245819091797e+00,1.229131102561950684e+00,1.216986536979675293e+00,1.214153051376342773e+00,1.217249035835266113e+00,1.463220477104187012e+00,1.463111281394958496e+00,1.463002204895019531e+00,1.462893128395080566e+00,1.462783932685852051e+00,1.462674856185913086e+00,1.462565898895263672e+00,1.462456703186035156e+00,1.462347745895385742e+00,1.462238788604736328e+00,1.462129712104797363e+00,1.462020754814147949e+00,1.461911797523498535e+00,1.461802959442138672e+00,1.461693882942199707e+00,1.461585044860839844e+00,1.461476206779479980e+00,1.461367249488830566e+00,1.461258411407470703e+00,1.461149573326110840e+00,1.461040616035461426e+00,1.460931897163391113e+00,1.460823178291320801e+00,1.460714221000671387e+00,1.460605502128601074e+00,1.460496783256530762e+00,1.460388183593750000e+00,1.460279345512390137e+00,1.460170626640319824e+00,1.460062026977539062e+00,1.459953308105468750e+00,1.459844589233398438e+00,1.459735989570617676e+00,1.459627270698547363e+00,1.459518790245056152e+00,1.459410190582275391e+00,1.459301590919494629e+00,1.459192991256713867e+00,1.459084510803222656e+00,1.458976030349731445e+00,1.458867430686950684e+00,1.458758950233459473e+00,1.458650588989257812e+00
1.349361777305603027e+00,1.349269032478332520e+00,1.349176287651062012e+00,1.349083542823791504e+00,1.348990678787231445e+00,1.348897933959960938e+00,1.348805189132690430e+00,1.348712325096130371e+00,1.348619699478149414e+00,1.348526954650878906e+00,1.348434209823608398e+00,1.348341584205627441e+00,1.348248958587646484e+00,1.348156332969665527e+00,1.348063588142395020e+00,1.347970962524414062e+00,1.347878336906433105e+00,1.347785711288452148e+00,1.347693085670471191e+00,1.347600579261779785e+00,1.347507953643798828e+00,1.347415328025817871e+00,1.347322940826416016e+00,1.347230315208435059e+00,1.347137808799743652e+00,1.347045302391052246e+00,1.346952795982360840e+00,1.346860289573669434e+00,1.346767902374267578e+00,1.346675395965576172e+00,1.346582889556884766e+00,1.346490502357482910e+00,1.223999261856079102e+00,1.201372623443603516e+00,1.192704796791076660e+00,1.193305611610412598e+00,1.193788409233093262e+00,1.177405357360839844e+00,1.345843791961669922e+00,1.345751404762268066e+00,1.345659136772155762e+00,1.345566868782043457e+00,1.345474600791931152e+00,1.345382213592529297e+00,1.345289945602416992e+00,1.345197796821594238e+00,1.345105409622192383e+00,1.345013260841369629e+00,1.344921112060546875e+00,1.344828724861145020e+00,1.344736576080322266e+00,1.344644427299499512e+00,1.344552278518676758e+00,1.344460129737854004e+00,1.344367980957031250e+00,1.344275832176208496e+00,1.344183683395385742e+00,1.344091653823852539e+00,1.343999505043029785e+00,1.343907356262207031e+00,1.343815326690673828e+00,1.343723297119140625e+00,1.343631267547607422e+00,1.343539237976074219e+00,1.343447208404541016e+00,1.343355178833007812e+00,1.343263149261474609e+00,1.343171238899230957e+00,1.343079328536987305e+00,1.342987298965454102e+00,1.342895388603210449e+00,1.342803478240966797e+00,1.342711448669433594e+00,1.342619657516479492e+00,1.342527747154235840e+00,1.342435836791992188e+00,1.342343926429748535e+00,1.342252135276794434e+00,1.342160224914550781e+00,1.342068433761596680e+00
1.248993992805480957e+00,1.248914480209350586e+00,1.248834967613220215e+00,1.248755455017089844e+00,1.248676061630249023e+00,1.248596549034118652e+00,1.248517036437988281e+00,1.248437643051147461e+00,1.248358130455017090e+00,1.248278617858886719e+00,1.248199224472045898e+00,1.248119831085205078e+00,1.248040437698364258e+00,1.247961044311523438e+00,1.247881650924682617e+00,1.247802257537841797e+00,1.247722864151000977e+00,1.247643589973449707e+00,1.247564196586608887e+00,1.247484803199768066e+00,1.247405529022216797e+00,1.247326254844665527e+00,1.247246861457824707e+00,1.247167587280273438e+00,1.247088313102722168e+00,1.247008919715881348e+00,1.246929764747619629e+00,1.246850490570068359e+00,1.246771216392517090e+00,1.246691942214965820e+00,1.246612787246704102e+00,1.246533513069152832e+00,1.246454238891601562e+00,1.176932930946350098e+00,1.164262652397155762e+00,1.154925942420959473e+00,1.152414202690124512e+00,1.151353359222412109e+00,1.245979189872741699e+00,1.245900154113769531e+00,1.245820999145507812e+00,1.245741844177246094e+00,1.245662689208984375e+00,1.245583653450012207e+00,1.245504498481750488e+00,1.245425462722778320e+00,1.245346426963806152e+00,1.245267391204833984e+00,1.245188236236572266e+00,1.245109200477600098e+00,1.245030283927917480e+00,1.244951128959655762e+00,1.244872212409973145e+00,1.244793176651000977e+00,1.244714140892028809e+00,1.244635224342346191e+00,1.244556307792663574e+00,1.244477391242980957e+00,1.244398355484008789e+00,1.244319438934326172e+00,1.244240522384643555e+00,1.244161486625671387e+00,1.244082689285278320e+00,1.244003772735595703e+00,1.243924856185913086e+00,1.243845939636230469e+00,1.243767142295837402e+00,1.243688225746154785e+00,1.243609428405761719e+00,1.243530631065368652e+00,1.243451714515686035e+00,1.243372917175292969e+00,1.243294119834899902e+00,1.243215322494506836e+00,1.243136525154113770e+00,1.243057727813720703e+00,1.242979049682617188e+00,1.242900252342224121e+00,1.242821455001831055e+00,1.242742776870727539e+00
1.162523627281188965e+00,1.162454605102539062e+00,1.162385821342468262e+00,1.162316918373107910e+00,1.162248015403747559e+00,1.162179231643676758e+00,1.162110328674316406e+00,1.162041425704956055e+00,1.161972641944885254e+00,1.161903858184814453e+00,1.161835074424743652e+00,1.161766171455383301e+00,1.161697387695312500e+00,1.161628603935241699e+00,1.161559820175170898e+00,1.161491036415100098e+00,1.161422252655029297e+00,1.161353468894958496e+00,1.161284685134887695e+00,1.161216020584106445e+00,1.161147236824035645e+00,1.161078453063964844e+00,1.161009788513183594e+00,1.160941123962402344e+00,1.160872340202331543e+00,1.160803675651550293e+00,1.160735011100769043e+00,1.160666227340698242e+00,1.160597681999206543e+00,1.160529017448425293e+00,1.160460233688354492e+00,1.160391688346862793e+00,1.160323023796081543e+00,1.160254359245300293e+00,1.160185694694519043e+00,1.160117149353027344e+00,1.160048604011535645e+00,1.159979939460754395e+00,1.159911274909973145e+00,1.159842729568481445e+00,1.159774184226989746e+00,1.159705638885498047e+00,1.159637093544006348e+00,1.159568428993225098e+00,1.159499883651733398e+00,1.159431457519531250e+00,1.159362792968750000e+00,1.159294366836547852e+00,1.159225821495056152e+00,1.159157395362854004e+00,1.159088850021362305e+00,1.159020304679870605e+00,1.158951878547668457e+00,1.158883333206176758e+00,1.158814907073974609e+00,1.158746480941772461e+00,1.158677935600280762e+00,1.158609509468078613e+00,1.158541202545166016e+00,1.158472657203674316e+00,1.158404231071472168e+00,1.158335924148559570e+00,1.158267498016357422e+00,1.158199071884155273e+00,1.158130764961242676e+00,1.158062458038330078e+00,1.157994031906127930e+00,1.157925605773925781e+00,1.157857298851013184e+00,1.157788991928100586e+00,1.157720565795898438e+00,1.157652378082275391e+00,1.157583951950073242e+00,1.157515645027160645e+00,1.157447338104248047e+00,1.157379150390625000e+00,1.157310724258422852e+00,1.157242536544799805e+00,1.157174229621887207e+00,1.157105922698974609e+00
1.087250828742980957e+00,1.087190628051757812e+00,1.087130427360534668e+00,1.087070107460021973e+00,1.087009906768798828e+00,1.086949706077575684e+00,1.086889386177062988e+00,1.086829185485839844e+00,1.086768984794616699e+00,1.086708784103393555e+00,1.086648583412170410e+00,1.086588382720947266e+00,1.086528182029724121e+00,1.086467981338500977e+00,1.086407899856567383e+00,1.086347699165344238e+00,1.086287498474121094e+00,1.086227416992187500e+00,1.086167216300964355e+00,1.086107015609741211e+00,1.086046934127807617e+00,1.085986852645874023e+00,1.085926651954650879e+00,1.085866570472717285e+00,1.085806488990783691e+00,1.085746288299560547e+00,1.085686206817626953e+00,1.085626244544982910e+00,1.085566163063049316e+00,1.085505962371826172e+00,1.085446000099182129e+00,1.085385918617248535e+00,1.085325837135314941e+00,1.085265755653381348e+00,1.085205793380737305e+00,1.085145711898803711e+00,1.085085749626159668e+00,1.085025668144226074e+00,1.084965586662292480e+00,1.084905624389648438e+00,1.084845662117004395e+00,1.084785699844360352e+00,1.084725618362426758e+00,1.084665656089782715e+00,1.084605693817138672e+00,1.084545731544494629e+00,1.084485769271850586e+00,1.084425806999206543e+00,1.084365844726562500e+00,1.084305882453918457e+00,1.084246039390563965e+00,1.084186077117919922e+00,1.084126114845275879e+00,1.084066271781921387e+00,1.084006309509277344e+00,1.083946466445922852e+00,1.083886504173278809e+00,1.083826661109924316e+00,1.083766698837280273e+00,1.083706855773925781e+00,1.083647012710571289e+00,1.083587169647216797e+00,1.083527326583862305e+00,1.083467483520507812e+00,1.083407640457153320e+00,1.083347797393798828e+00,1.083287954330444336e+00,1.083228111267089844e+00,1.083168268203735352e+00,1.083108544349670410e+00,1.083048701286315918e+00,1.082988858222961426e+00,1.082929134368896484e+00,1.082869291305541992e+00,1.082809567451477051e+00,1.082749724388122559e+00,1.082690000534057617e+00,1.082630276679992676e+00,1.082570552825927734e+00,1.082510828971862793e+00
1.021133184432983398e+00,1.021080017089843750e+00,1.021026849746704102e+00,1.020973682403564453e+00,1.020920634269714355e+00,1.020867466926574707e+00,1.020814299583435059e+00,1.020761251449584961e+00,1.020708084106445312e+00,1.020654916763305664e+00,1.020601868629455566e+00,1.020548701286315918e+00,1.020495653152465820e+00,1.020442605018615723e+00,1.020389437675476074e+00,1.020336389541625977e+00,1.020283341407775879e+00,1.020230293273925781e+00,1.020177245140075684e+00,1.020124197006225586e+00,1.020071148872375488e+00,1.020018100738525391e+00,1.019965052604675293e+00,1.019912004470825195e+00,1.019858956336975098e+00,1.019805908203125000e+00,1.019752979278564453e+00,1.019699931144714355e+00,1.019646883010864258e+00,1.019593954086303711e+00,1.019540905952453613e+00,1.019487977027893066e+00,1.019434928894042969e+00,1.019381999969482422e+00,1.019328951835632324e+00,1.019276022911071777e+00,1.019223093986511230e+00,1.019170045852661133e+00,1.019117116928100586e+00,1.019064188003540039e+00,1.019011259078979492e+00,1.018958330154418945e+00,1.018905401229858398e+00,1.018852472305297852e+00,1.018799543380737305e+00,1.018746614456176758e+00,1.018693804740905762e+00,1.018640875816345215e+00,1.018587946891784668e+00,1.018535137176513672e+00,1.018482208251953125e+00,1.018429279327392578e+00,1.018376469612121582e+00,1.018323540687561035e+00,1.018270730972290039e+00,1.018217802047729492e+00,1.018164992332458496e+00,1.018112182617187500e+00,1.018059253692626953e+00,1.018006443977355957e+00,1.017953634262084961e+00,1.017900824546813965e+00,1.017848014831542969e+00,1.017795205116271973e+00,1.017742395401000977e+00,1.017689585685729980e+00,1.017636775970458984e+00,1.017583966255187988e+00,1.017531156539916992e+00,1.017478346824645996e+00,1.017425656318664551e+00,1.017372846603393555e+00,1.017320156097412109e+00,1.017267346382141113e+00,1.017214655876159668e+00,1.017161846160888672e+00,1.017109036445617676e+00,1.017056345939636230e+00,1.017003655433654785e+00,1.016950845718383789e+00
9.625959992408752441e-01,9.625487327575683594e-01,9.625015258789062500e-01,9.624542593955993652e-01,9.624070525169372559e-01,9.623598456382751465e-01,9.623126387596130371e-01,9.622653722763061523e-01,9.622182250022888184e-01,9.621710181236267090e-01,9.621237516403198242e-01,9.620766639709472656e-01,9.620294570922851562e-01,9.619821906089782715e-01,9.619351029396057129e-01,9.618878960609436035e-01,9.618406891822814941e-01,9.617936015129089355e-01,9.617463946342468262e-01,9.616992473602294922e-01,9.616521596908569336e-01,9.616049528121948242e-01,9.615579247474670410e-01,9.615107178688049316e-01,9.614635705947875977e-01,9.614165425300598145e-01,9.613693356513977051e-01,9.613221883773803711e-01,9.612751603126525879e-01,9.612280130386352539e-01,9.611808657646179199e-01,9.611338376998901367e-01,9.610867500305175781e-01,9.610396027565002441e-01,9.609925746917724609e-01,9.609454870223999023e-01,9.608983993530273438e-01,9.608513712882995605e-01,9.608042836189270020e-01,9.607571959495544434e-01,9.607101678848266602e-01,9.606630802154541016e-01,9.606159925460815430e-01,9.605690240859985352e-01,9.605219960212707520e-01,9.604749083518981934e-01,9.604279398918151855e-01,9.603809118270874023e-01,9.603339433670043945e-01,9.602869153022766113e-01,9.602398276329040527e-01,9.601929187774658203e-01,9.601458907127380371e-01,9.600988626480102539e-01,9.600518941879272461e-01,9.600048661231994629e-01,9.599578976631164551e-01,9.599109888076782227e-01,9.598639607429504395e-01,9.598169326782226562e-01,9.597700834274291992e-01,9.597230553627014160e-01,9.596760869026184082e-01,9.596291780471801758e-01,9.595822095870971680e-01,9.595352411270141602e-01,9.594883918762207031e-01,9.594414234161376953e-01,9.593944549560546875e-01,9.593476057052612305e-01,9.593006372451782227e-01,9.592536687850952148e-01,9.592068195343017578e-01,9.591599106788635254e-01,9.591130614280700684e-01,9.590661525726318359e-01,9.590191841125488281e-01,9.589723944664001465e-01,9.589254856109619141e-01,9.588785767555236816e-01
9.104062914848327637e-01,9.103639721870422363e-01,9.103217124938964844e-01,9.102795124053955078e-01,9.102372527122497559e-01,9.101949930191040039e-01,9.101527929306030273e-01,9.101105332374572754e-01,9.100682735443115234e-01,9.100261330604553223e-01,9.099838733673095703e-01,9.099416136741638184e-01,9.098994731903076172e-01,9.098572134971618652e-01,9.098150730133056641e-01,9.097728729248046875e-01,9.097306132316589355e-01,9.096885323524475098e-01,9.096462726593017578e-01,9.096040725708007812e-01,9.095619320869445801e-01,9.095197319984436035e-01,9.094775319099426270e-01,9.094354510307312012e-01,9.093932509422302246e-01,9.093510508537292480e-01,9.093089699745178223e-01,9.092667698860168457e-01,9.092246294021606445e-01,9.091825485229492188e-01,9.091403484344482422e-01,9.090982079505920410e-01,9.090561270713806152e-01,9.090139269828796387e-01,9.089717864990234375e-01,9.089297652244567871e-01,9.088875651359558105e-01,9.088454246520996094e-01,9.088034033775329590e-01,9.087612628936767578e-01,9.087192416191101074e-01,9.086771011352539062e-01,9.086349606513977051e-01,9.085929393768310547e-01,9.085508584976196289e-01,9.085087180137634277e-01,9.084666967391967773e-01,9.084246158599853516e-01,9.083824753761291504e-01,9.083405137062072754e-01,9.082984328269958496e-01,9.082562923431396484e-01,9.082143306732177734e-01,9.081722497940063477e-01,9.081301689147949219e-01,9.080882072448730469e-01,9.080461263656616211e-01,9.080040454864501953e-01,9.079620838165283203e-01,9.079200029373168945e-01,9.078779816627502441e-01,9.078360199928283691e-01,9.077939391136169434e-01,9.077519178390502930e-01,9.077099561691284180e-01,9.076679348945617676e-01,9.076259732246398926e-01,9.075839519500732422e-01,9.075419306755065918e-01,9.075000286102294922e-01,9.074580073356628418e-01,9.074159860610961914e-01,9.073740839958190918e-01,9.073320627212524414e-01,9.072901010513305664e-01,9.072481989860534668e-01,9.072061777114868164e-01,9.071642160415649414e-01,9.071223139762878418e-01,9.070803523063659668e-01
8.635846376419067383e-01,8.635466694831848145e-01,8.635086417198181152e-01,8.634706735610961914e-01,8.634326457977294922e-01,8.633946180343627930e-01,8.633566498756408691e-01,8.633186221122741699e-01,8.632805943489074707e-01,8.632426261901855469e-01,8.632046580314636230e-01,8.631666302680969238e-01,8.631287217140197754e-01,8.630906939506530762e-01,8.630526661872863770e-01,8.630147576332092285e-01,8.629767894744873047e-01,8.629387617111206055e-01,8.629008531570434570e-01,8.628628849983215332e-01,8.628249168395996094e-01,8.627870082855224609e-01,8.627490401268005371e-01,8.627110719680786133e-01,8.626731634140014648e-01,8.626351952552795410e-01,8.625972270965576172e-01,8.625593781471252441e-01,8.625214099884033203e-01,8.624835610389709473e-01,8.624455928802490234e-01,8.624076247215270996e-01,8.623697757720947266e-01,8.623318076133728027e-01,8.622938990592956543e-01,8.622560501098632812e-01,8.622181415557861328e-01,8.621801733970642090e-01,8.621423244476318359e-01,8.621044158935546875e-01,8.620665073394775391e-01,8.620286583900451660e-01,8.619907498359680176e-01,8.619528412818908691e-01,8.619150519371032715e-01,8.618771433830261230e-01,8.618392348289489746e-01,8.618014454841613770e-01,8.617635369300842285e-01,8.617256283760070801e-01,8.616878390312194824e-01,8.616499900817871094e-01,8.616120815277099609e-01,8.615742921829223633e-01,8.615364432334899902e-01,8.614985942840576172e-01,8.614608049392700195e-01,8.614228963851928711e-01,8.613851666450500488e-01,8.613473176956176758e-01,8.613094687461853027e-01,8.612716794013977051e-01,8.612338304519653320e-01,8.611959815025329590e-01,8.611582517623901367e-01,8.611204028129577637e-01,8.610825538635253906e-01,8.610448241233825684e-01,8.610070347785949707e-01,8.609691858291625977e-01,8.609314560890197754e-01,8.608936667442321777e-01,8.608558177947998047e-01,8.608180880546569824e-01,8.607802987098693848e-01,8.607425093650817871e-01,8.607047796249389648e-01,8.606669902801513672e-01,8.606292009353637695e-01,8.605915307998657227e-01
8.213434815406799316e-01,8.213091492652893066e-01,8.212747573852539062e-01,8.212403655052185059e-01,8.212060332298278809e-01,8.211715817451477051e-01,8.211371898651123047e-01,8.211028575897216797e-01,8.210684657096862793e-01,8.210340738296508789e-01,8.209998011589050293e-01,8.209654092788696289e-01,8.209310173988342285e-01,8.208966851234436035e-01,8.208623528480529785e-01,8.208279609680175781e-01,8.207936286926269531e-01,8.207592964172363281e-01,8.207249045372009277e-01,8.206906318664550781e-01,8.206562995910644531e-01,8.206219673156738281e-01,8.205876350402832031e-01,8.205533027648925781e-01,8.205190300941467285e-01,8.204846382141113281e-01,8.204503059387207031e-01,8.204160332679748535e-01,8.203817009925842285e-01,8.203473687171936035e-01,8.203130960464477539e-01,8.202787637710571289e-01,8.202444911003112793e-01,8.202102184295654297e-01,8.201758861541748047e-01,8.201415538787841797e-01,8.201073408126831055e-01,8.200730085372924805e-01,8.200387358665466309e-01,8.200044631958007812e-01,8.199701905250549316e-01,8.199358582496643066e-01,8.199016451835632324e-01,8.198673725128173828e-01,8.198330402374267578e-01,8.197988271713256836e-01,8.197645545005798340e-01,8.197303414344787598e-01,8.196960687637329102e-01,8.196617960929870605e-01,8.196275830268859863e-01,8.195933103561401367e-01,8.195590376853942871e-01,8.195248842239379883e-01,8.194906115531921387e-01,8.194563388824462891e-01,8.194221854209899902e-01,8.193879127502441406e-01,8.193536400794982910e-01,8.193194866180419922e-01,8.192852139472961426e-01,8.192510008811950684e-01,8.192167878150939941e-01,8.191825747489929199e-01,8.191483616828918457e-01,8.191142082214355469e-01,8.190799355506896973e-01,8.190457224845886230e-01,8.190115690231323242e-01,8.189773559570312500e-01,8.189431428909301758e-01,8.189089894294738770e-01,8.188747763633728027e-01,8.188406229019165039e-01,8.188064694404602051e-01,8.187722563743591309e-01,8.187381029129028320e-01,8.187038898468017578e-01,8.186697363853454590e-01,8.186355829238891602e-01
7.830420732498168945e-01,7.830107808113098145e-01,7.829795479774475098e-01,7.829483151435852051e-01,7.829170227050781250e-01,7.828857898712158203e-01,7.828545570373535156e-01,7.828232645988464355e-01,7.827920913696289062e-01,7.827607989311218262e-01,7.827295660972595215e-01,7.826983928680419922e-01,7.826671004295349121e-01,7.826359272003173828e-01,7.826046943664550781e-01,7.825734615325927734e-01,7.825422883033752441e-01,7.825109958648681641e-01,7.824797630310058594e-01,7.824485898017883301e-01,7.824173569679260254e-01,7.823861241340637207e-01,7.823550105094909668e-01,7.823237776756286621e-01,7.822925448417663574e-01,7.822613716125488281e-01,7.822301387786865234e-01,7.821989655494689941e-01,7.821677923202514648e-01,7.821365594863891602e-01,7.821053862571716309e-01,7.820742130279541016e-01,7.820430397987365723e-01,7.820118069648742676e-01,7.819806933403015137e-01,7.819495201110839844e-01,7.819182872772216797e-01,7.818871736526489258e-01,7.818560004234313965e-01,7.818248867988586426e-01,7.817937135696411133e-01,7.817624807357788086e-01,7.817313671112060547e-01,7.817001938819885254e-01,7.816690206527709961e-01,7.816379666328430176e-01,7.816067934036254883e-01,7.815756201744079590e-01,7.815445065498352051e-01,7.815133333206176758e-01,7.814821600914001465e-01,7.814511060714721680e-01,7.814199328422546387e-01,7.813887596130371094e-01,7.813577055931091309e-01,7.813265323638916016e-01,7.812954187393188477e-01,7.812643647193908691e-01,7.812331914901733398e-01,7.812020778656005859e-01,7.811710238456726074e-01,7.811398506164550781e-01,7.811087369918823242e-01,7.810776829719543457e-01,7.810465693473815918e-01,7.810155153274536133e-01,7.809844017028808594e-01,7.809532880783081055e-01,7.809222340583801270e-01,7.808911204338073730e-01,7.808600068092346191e-01,7.808289527893066406e-01,7.807978391647338867e-01,7.807667255401611328e-01,7.807357311248779297e-01,7.807046175003051758e-01,7.806735038757324219e-01,7.806425094604492188e-01,7.806113958358764648e-01,7.805803418159484863e-01
7.481536269187927246e-01,7.481250762939453125e-01,7.480965852737426758e-01,7.480680346488952637e-01,7.480394840240478516e-01,7.480109930038452148e-01,7.479824423789978027e-01,7.479538917541503906e-01,7.479254007339477539e-01,7.478969097137451172e-01,7.478683590888977051e-01,7.478398680686950684e-01,7.478113174438476562e-01,7.477828264236450195e-01,7.477543354034423828e-01,7.477258443832397461e-01,7.476972937583923340e-01,7.476688623428344727e-01,7.476403117179870605e-01,7.476118206977844238e-01,7.475833296775817871e-01,7.475548386573791504e-01,7.475263476371765137e-01,7.474978566169738770e-01,7.474693655967712402e-01,7.474408745765686035e-01,7.474124431610107422e-01,7.473839521408081055e-01,7.473554611206054688e-01,7.473270297050476074e-01,7.472985386848449707e-01,7.472701072692871094e-01,7.472416162490844727e-01,7.472131252288818359e-01,7.471846938133239746e-01,7.471562027931213379e-01,7.471277117729187012e-01,7.470992803573608398e-01,7.470708489418029785e-01,7.470423579216003418e-01,7.470139265060424805e-01,7.469854950904846191e-01,7.469570040702819824e-01,7.469286322593688965e-01,7.469001412391662598e-01,7.468717098236083984e-01,7.468432784080505371e-01,7.468148469924926758e-01,7.467863559722900391e-01,7.467579841613769531e-01,7.467295527458190918e-01,7.467010617256164551e-01,7.466726899147033691e-01,7.466442584991455078e-01,7.466158270835876465e-01,7.465874552726745605e-01,7.465590238571166992e-01,7.465306520462036133e-01,7.465022206306457520e-01,7.464737892150878906e-01,7.464454174041748047e-01,7.464169859886169434e-01,7.463885545730590820e-01,7.463601827621459961e-01,7.463317513465881348e-01,7.463033795356750488e-01,7.462750077247619629e-01,7.462465763092041016e-01,7.462182044982910156e-01,7.461898326873779297e-01,7.461614608764648438e-01,7.461330294609069824e-01,7.461047172546386719e-01,7.460762858390808105e-01,7.460479140281677246e-01,7.460195422172546387e-01,7.459911704063415527e-01,7.459627985954284668e-01,7.459344267845153809e-01,7.459060549736022949e-01
7.162414789199829102e-01,7.162153124809265137e-01,7.161891460418701172e-01,7.161630392074584961e-01,7.161368727684020996e-01,7.161107063293457031e-01,7.160845994949340820e-01,7.160584330558776855e-01,7.160322666168212891e-01,7.160061597824096680e-01,7.159799933433532715e-01,7.159538865089416504e-01,7.159277796745300293e-01,7.159016132354736328e-01,7.158754467964172363e-01,7.158493995666503906e-01,7.158232331275939941e-01,7.157971262931823730e-01,7.157710194587707520e-01,7.157449126243591309e-01,7.157188057899475098e-01,7.156926989555358887e-01,7.156665325164794922e-01,7.156404852867126465e-01,7.156143188476562500e-01,7.155882120132446289e-01,7.155621647834777832e-01,7.155359983444213867e-01,7.155098915100097656e-01,7.154838442802429199e-01,7.154577374458312988e-01,7.154316306114196777e-01,7.154055833816528320e-01,7.153794765472412109e-01,7.153533101081848145e-01,7.153272628784179688e-01,7.153011560440063477e-01,7.152750492095947266e-01,7.152490615844726562e-01,7.152229547500610352e-01,7.151968479156494141e-01,7.151708006858825684e-01,7.151446938514709473e-01,7.151185870170593262e-01,7.150925993919372559e-01,7.150664925575256348e-01,7.150404453277587891e-01,7.150143980979919434e-01,7.149882912635803223e-01,7.149623036384582520e-01,7.149361968040466309e-01,7.149101495742797852e-01,7.148841023445129395e-01,7.148580551147460938e-01,7.148319482803344727e-01,7.148059606552124023e-01,7.147799134254455566e-01,7.147538065910339355e-01,7.147278189659118652e-01,7.147017717361450195e-01,7.146757245063781738e-01,7.146496772766113281e-01,7.146236300468444824e-01,7.145975828170776367e-01,7.145715951919555664e-01,7.145455479621887207e-01,7.145195007324218750e-01,7.144935131072998047e-01,7.144674658775329590e-01,7.144414186477661133e-01,7.144154310226440430e-01,7.143893837928771973e-01,7.143633365631103516e-01,7.143374085426330566e-01,7.143113613128662109e-01,7.142853736877441406e-01,7.142593264579772949e-01,7.142333388328552246e-01,7.142073512077331543e-01,7.141813039779663086e-01
6.869403123855590820e-01,6.869162917137145996e-01,6.868922114372253418e-01,6.868681311607360840e-01,6.868441700935363770e-01,6.868200898170471191e-01,6.867960095405578613e-01,6.867719888687133789e-01,6.867479085922241211e-01,6.867238879203796387e-01,6.866998672485351562e-01,6.866757869720458984e-01,6.866518259048461914e-01,6.866277456283569336e-01,6.866037249565124512e-01,6.865797042846679688e-01,6.865556240081787109e-01,6.865316033363342285e-01,6.865075826644897461e-01,6.864835619926452637e-01,6.864595413208007812e-01,6.864355206489562988e-01,6.864114999771118164e-01,6.863874793052673340e-01,6.863634586334228516e-01,6.863394379615783691e-01,6.863154172897338867e-01,6.862914562225341797e-01,6.862673759460449219e-01,6.862433552742004395e-01,6.862193942070007324e-01,6.861953735351562500e-01,6.861713528633117676e-01,6.861473917961120605e-01,6.861233711242675781e-01,6.860993504524230957e-01,6.860753893852233887e-01,6.860513687133789062e-01,6.860274076461791992e-01,6.860033869743347168e-01,6.859793663024902344e-01,6.859554648399353027e-01,6.859314441680908203e-01,6.859074234962463379e-01,6.858834624290466309e-01,6.858595013618469238e-01,6.858354806900024414e-01,6.858115196228027344e-01,6.857875585556030273e-01,6.857635378837585449e-01,6.857396364212036133e-01,6.857156157493591309e-01,6.856916546821594238e-01,6.856676936149597168e-01,6.856437325477600098e-01,6.856197118759155273e-01,6.855958104133605957e-01,6.855717897415161133e-01,6.855478286743164062e-01,6.855239272117614746e-01,6.854999661445617676e-01,6.854759454727172852e-01,6.854520440101623535e-01,6.854280829429626465e-01,6.854041814804077148e-01,6.853802204132080078e-01,6.853561997413635254e-01,6.853322982788085938e-01,6.853083372116088867e-01,6.852843761444091797e-01,6.852604746818542480e-01,6.852365136146545410e-01,6.852125525474548340e-01,6.851886510848999023e-01,6.851647496223449707e-01,6.851407885551452637e-01,6.851168870925903320e-01,6.850929260253906250e-01,6.850689649581909180e-01,6.850451231002807617e-01
6.599423885345458984e-01,6.599202156066894531e-01,6.598979830741882324e-01,6.598757505416870117e-01,6.598536372184753418e-01,6.598314046859741211e-01,6.598091721534729004e-01,6.597870588302612305e-01,6.597648262977600098e-01,6.597425937652587891e-01,6.597204804420471191e-01,6.596982479095458984e-01,6.596760749816894531e-01,6.596539020538330078e-01,6.596316695213317871e-01,6.596094965934753418e-01,6.595873236656188965e-01,6.595651507377624512e-01,6.595429778099060059e-01,6.595208048820495605e-01,6.594986319541931152e-01,6.594764590263366699e-01,6.594542860984802246e-01,6.594321131706237793e-01,6.594099402427673340e-01,6.593877673149108887e-01,6.593655943870544434e-01,6.593434214591979980e-01,6.593213081359863281e-01,6.592991352081298828e-01,6.592770218849182129e-01,6.592548489570617676e-01,6.592326760292053223e-01,6.592105031013488770e-01,6.591883301734924316e-01,6.591662168502807617e-01,6.591441035270690918e-01,6.591219305992126465e-01,6.590997576713562012e-01,6.590776443481445312e-01,6.590554714202880859e-01,6.590332984924316406e-01,6.590111851692199707e-01,6.589890718460083008e-01,6.589668989181518555e-01,6.589447855949401855e-01,6.589226126670837402e-01,6.589004993438720703e-01,6.588783860206604004e-01,6.588562130928039551e-01,6.588340997695922852e-01,6.588119864463806152e-01,6.587898731231689453e-01,6.587677001953125000e-01,6.587455868721008301e-01,6.587234735488891602e-01,6.587013602256774902e-01,6.586792469024658203e-01,6.586571335792541504e-01,6.586350202560424805e-01,6.586129069328308105e-01,6.585907936096191406e-01,6.585686802864074707e-01,6.585465669631958008e-01,6.585244536399841309e-01,6.585023403167724609e-01,6.584802269935607910e-01,6.584581136703491211e-01,6.584360599517822266e-01,6.584139466285705566e-01,6.583918333053588867e-01,6.583697199821472168e-01,6.583476066589355469e-01,6.583254933357238770e-01,6.583034396171569824e-01,6.582813262939453125e-01,6.582592129707336426e-01,6.582371592521667480e-01,6.582150459289550781e-01,6.581929922103881836e-01
6.349863409996032715e-01,6.349657177925109863e-01,6.349452137947082520e-01,6.349246501922607422e-01,6.349040865898132324e-01,6.348835825920104980e-01,6.348630189895629883e-01,6.348424553871154785e-01,6.348218917846679688e-01,6.348013877868652344e-01,6.347808241844177246e-01,6.347602605819702148e-01,6.347397565841674805e-01,6.347191929817199707e-01,6.346986889839172363e-01,6.346781253814697266e-01,6.346575617790222168e-01,6.346370577812194824e-01,6.346164941787719727e-01,6.345959901809692383e-01,6.345754861831665039e-01,6.345549225807189941e-01,6.345344185829162598e-01,6.345139145851135254e-01,6.344933509826660156e-01,6.344728469848632812e-01,6.344523429870605469e-01,6.344317793846130371e-01,6.344112753868103027e-01,6.343907713890075684e-01,6.343702077865600586e-01,6.343497633934020996e-01,6.343291997909545898e-01,6.343086957931518555e-01,6.342881917953491211e-01,6.342676877975463867e-01,6.342471241950988770e-01,6.342266798019409180e-01,6.342061758041381836e-01,6.341856122016906738e-01,6.341651678085327148e-01,6.341446638107299805e-01,6.341241002082824707e-01,6.341036558151245117e-01,6.340831518173217773e-01,6.340626478195190430e-01,6.340421438217163086e-01,6.340216398239135742e-01,6.340011954307556152e-01,6.339806914329528809e-01,6.339601874351501465e-01,6.339397430419921875e-01,6.339192390441894531e-01,6.338987350463867188e-01,6.338782906532287598e-01,6.338577866554260254e-01,6.338372826576232910e-01,6.338168382644653320e-01,6.337963342666625977e-01,6.337758302688598633e-01,6.337553858757019043e-01,6.337348818778991699e-01,6.337143778800964355e-01,6.336939334869384766e-01,6.336734890937805176e-01,6.336529850959777832e-01,6.336325407028198242e-01,6.336120367050170898e-01,6.335915923118591309e-01,6.335711479187011719e-01,6.335506439208984375e-01,6.335301995277404785e-01,6.335097551345825195e-01,6.334892511367797852e-01,6.334688663482666016e-01,6.334483623504638672e-01,6.334279179573059082e-01,6.334074735641479492e-01,6.333870291709899902e-01,6.333665251731872559e-01
