5.000000000000000000e+00,5.000000000000000000e+00,5.000000000000000000e+00,5.000000000000000000e+00,5.000000000000000000e+00,5.000000000000000000e+00,5.000000000000000000e+00,5.000000000000000000e+00,5.000000000000000000e+00,5.000000000000000000e+00,5.000000000000000000e+00,5.000000000000000000e+00,5.000000000000000000e+00,5.000000000000000000e+00,5.000000000000000000e+00,5.000000000000000000e+00,5.000000000000000000e+00,5.000000000000000000e+00,5.000000000000000000e+00,5.000000000000000000e+00,5.000000000000000000e+00,5.000000000000000000e+00,5.000000000000000000e+00,5.000000000000000000e+00,5.000000000000000000e+00,5.000000000000000000e+00,5.000000000000000000e+00,5.000000000000000000e+00,5.000000000000000000e+00,2.451996088027954102e+00,2.444056510925292969e+00,2.393074274063110352e+00,2.371228933334350586e+00,2.363874197006225586e+00,2.374585151672363281e+00,2.406337261199951172e+00,2.430705547332763672e+00,5.000000000000000000e+00,2.588729381561279297e+00,2.591462135314941406e+00,4.659762382507324219e+00,4.484151840209960938e+00,4.321296691894531250e+00,4.169856548309326172e+00,4.028670787811279297e+00,3.896733283996582031e+00,3.773163318634033203e+00,3.657189607620239258e+00,3.548132658004760742e+00,3.445391416549682617e+00,3.348432540893554688e+00,3.256781578063964844e+00,3.170014142990112305e+00,3.087750434875488281e+00,3.009647846221923828e+00,2.935399055480957031e+00,2.864725589752197266e+00,2.797374963760375977e+00,2.733118772506713867e+00,2.671748161315917969e+00,2.613073110580444336e+00,2.556919813156127930e+00,2.503129005432128906e+00,2.451555013656616211e+00,2.402063369750976562e+00,2.354530334472656250e+00,2.308841943740844727e+00,2.264893054962158203e+00,2.222585916519165039e+00,2.181830644607543945e+00,2.142542839050292969e+00,2.104644775390625000e+00,2.068064212799072266e+00,2.032733678817749023e+00,1.998589992523193359e+00,1.965574502944946289e+00,1.933631658554077148e+00,1.902710795402526855e+00,1.872763037681579590e+00,1.843743562698364258e+00
5.000000000000000000e+00,5.000000000000000000e+00,5.000000000000000000e+00,5.000000000000000000e+00,5.000000000000000000e+00,5.000000000000000000e+00,5.000000000000000000e+00,5.000000000000000000e+00,5.000000000000000000e+00,5.000000000000000000e+00,5.000000000000000000e+00,5.000000000000000000e+00,5.000000000000000000e+00,5.000000000000000000e+00,5.000000000000000000e+00,5.000000000000000000e+00,5.000000000000000000e+00,5.000000000000000000e+00,5.000000000000000000e+00,5.000000000000000000e+00,5.000000000000000000e+00,5.000000000000000000e+00,5.000000000000000000e+00,5.000000000000000000e+00,5.000000000000000000e+00,5.000000000000000000e+00,5.000000000000000000e+00,5.000000000000000000e+00,5.000000000000000000e+00,2.463290452957153320e+00,2.460450649261474609e+00,2.394913911819458008e+00,2.370650768280029297e+00,2.360509395599365234e+00,2.371614217758178711e+00,2.395476818084716797e+00,2.424048900604248047e+00,5.000000000000000000e+00,2.601571798324584961e+00,2.587611198425292969e+00,4.659890651702880859e+00,4.484270572662353516e+00,4.321406841278076172e+00,4.169959068298339844e+00,4.028767108917236328e+00,3.896822929382324219e+00,3.773247241973876953e+00,3.657269001007080078e+00,3.548207044601440430e+00,3.445461273193359375e+00,3.348498821258544922e+00,3.256844282150268555e+00,3.170073747634887695e+00,3.087806701660156250e+00,3.009701490402221680e+00,2.935449838638305664e+00,2.864773988723754883e+00,2.797421455383300781e+00,2.733162879943847656e+00,2.671790361404418945e+00,2.613113403320312500e+00,2.556958436965942383e+00,2.503165960311889648e+00,2.451590538024902344e+00,2.402097225189208984e+00,2.354562997817993164e+00,2.308873414993286133e+00,2.264923334121704102e+00,2.222615242004394531e+00,2.181858539581298828e+00,2.142569780349731445e+00,2.104671001434326172e+00,2.068089485168457031e+00,2.032758235931396484e+00,1.998613595962524414e+00,1.965597271919250488e+00,1.933653712272644043e+00,1.902732133865356445e+00,1.872783660888671875e+00,1.843763589859008789e+00
5.000000000000000000e+00,5.000000000000000000e+00,5.000000000000000000e+00,5.000000000000000000e+00,5.000000000000000000e+00,5.000000000000000000e+00,5.000000000000000000e+00,5.000000000000000000e+00,5.000000000000000000e+00,5.000000000000000000e+00,5.000000000000000000e+00,5.000000000000000000e+00,5.000000000000000000e+00,5.000000000000000000e+00,5.000000000000000000e+00,5.000000000000000000e+00,5.000000000000000000e+00,5.000000000000000000e+00,5.000000000000000000e+00,5.000000000000000000e+00,5.000000000000000000e+00,5.000000000000000000e+00,5.000000000000000000e+00,5.000000000000000000e+00,5.000000000000000000e+00,5.000000000000000000e+00,5.000000000000000000e+00,5.000000000000000000e+00,5.000000000000000000e+00,2.457529783248901367e+00,2.457637548446655273e+00,2.403968095779418945e+00,2.382841587066650391e+00,2.379057168960571289e+00,2.387949228286743164e+00,2.400367736816406250e+00,2.438237905502319336e+00,2.520699024200439453e+00,2.596744537353515625e+00,2.559785842895507812e+00,2.560411691665649414e+00,4.484389305114746094e+00,4.321516990661621094e+00,4.170062065124511719e+00,4.028862476348876953e+00,3.896913051605224609e+00,3.773331642150878906e+00,3.657347917556762695e+00,3.548281431198120117e+00,3.445531368255615234e+00,3.348564863204956055e+00,3.256907224655151367e+00,3.170133113861083984e+00,3.087862968444824219e+00,3.009754896163940430e+00,2.935500860214233398e+00,2.864822626113891602e+00,2.797467470169067383e+00,2.733206987380981445e+00,2.671832561492919922e+00,2.613153696060180664e+00,2.556997060775756836e+00,2.503203153610229492e+00,2.451626062393188477e+00,2.402131319046020508e+00,2.354595661163330078e+00,2.308904886245727539e+00,2.264953613281250000e+00,2.222644329071044922e+00,2.181886672973632812e+00,2.142596960067749023e+00,2.104697227478027344e+00,2.068114757537841797e+00,2.032782554626464844e+00,1.998637199401855469e+00,1.965620160102844238e+00,1.933675765991210938e+00,1.902753472328186035e+00,1.872804641723632812e+00,1.843783736228942871e+00
5.000000000000000000e+00,5.000000000000000000e+00,5.000000000000000000e+00,5.000000000000000000e+00,5.000000000000000000e+00,5.000000000000000000e+00,5.000000000000000000e+00,5.000000000000000000e+00,5.000000000000000000e+00,5.000000000000000000e+00,5.000000000000000000e+00,5.000000000000000000e+00,5.000000000000000000e+00,5.000000000000000000e+00,5.000000000000000000e+00,5.000000000000000000e+00,5.000000000000000000e+00,5.000000000000000000e+00,5.000000000000000000e+00,5.000000000000000000e+00,5.000000000000000000e+00,5.000000000000000000e+00,5.000000000000000000e+00,5.000000000000000000e+00,5.000000000000000000e+00,5.000000000000000000e+00,5.000000000000000000e+00,5.000000000000000000e+00,5.000000000000000000e+00,2.444962263107299805e+00,2.445996046066284180e+00,2.397078275680541992e+00,2.375431060791015625e+00,2.376700878143310547e+00,2.401677131652832031e+00,2.407252788543701172e+00,2.445405483245849609e+00,2.504405736923217773e+00,5.000000000000000000e+00,2.553377866744995117e+00,2.522228002548217773e+00,4.484508037567138672e+00,4.321627616882324219e+00,4.170164585113525391e+00,4.028958797454833984e+00,3.897002696990966797e+00,3.773415803909301758e+00,3.657426834106445312e+00,3.548355579376220703e+00,3.445601463317871094e+00,3.348631381988525391e+00,3.256969690322875977e+00,3.170192241668701172e+00,3.087919235229492188e+00,3.009808301925659180e+00,2.935551881790161133e+00,2.864871025085449219e+00,2.797513723373413086e+00,2.733251094818115234e+00,2.671874523162841797e+00,2.613194227218627930e+00,2.557035684585571289e+00,2.503240108489990234e+00,2.451661586761474609e+00,2.402165412902832031e+00,2.354628562927246094e+00,2.308936357498168945e+00,2.264983892440795898e+00,2.222673416137695312e+00,2.181914806365966797e+00,2.142624139785766602e+00,2.104723453521728516e+00,2.068140029907226562e+00,2.032806873321533203e+00,1.998660683631896973e+00,1.965642929077148438e+00,1.933698058128356934e+00,1.902774810791015625e+00,1.872825264930725098e+00,1.843803763389587402e+00
5.000000000000000000e+00,5.000000000000000000e+00,5.000000000000000000e+00,5.000000000000000000e+00,5.000000000000000000e+00,5.000000000000000000e+00,5.000000000000000000e+00,5.000000000000000000e+00,5.000000000000000000e+00,5.000000000000000000e+00,5.000000000000000000e+00,5.000000000000000000e+00,5.000000000000000000e+00,5.000000000000000000e+00,5.000000000000000000e+00,5.000000000000000000e+00,5.000000000000000000e+00,5.000000000000000000e+00,5.000000000000000000e+00,5.000000000000000000e+00,5.000000000000000000e+00,5.000000000000000000e+00,5.000000000000000000e+00,5.000000000000000000e+00,5.000000000000000000e+00,5.000000000000000000e+00,5.000000000000000000e+00,5.000000000000000000e+00,5.000000000000000000e+00,2.442061901092529297e+00,2.438888311386108398e+00,2.377549409866333008e+00,2.328039646148681641e+00,2.327420949935913086e+00,2.372604846954345703e+00,2.429693937301635742e+00,2.467819213867187500e+00,2.507494211196899414e+00,5.000000000000000000e+00,4.850244045257568359e+00,2.518657684326171875e+00,2.519410133361816406e+00,4.321737766265869141e+00,4.170267581939697266e+00,4.029054641723632812e+00,3.897092342376708984e+00,3.773499727249145508e+00,3.657505750656127930e+00,3.548430204391479492e+00,3.445671796798706055e+00,3.348697662353515625e+00,3.257032394409179688e+00,3.170251607894897461e+00,3.087975502014160156e+00,3.009861946105957031e+00,2.935602664947509766e+00,2.864919424057006836e+00,2.797559976577758789e+00,2.733295202255249023e+00,2.671916961669921875e+00,2.613234519958496094e+00,2.557074308395385742e+00,2.503277063369750977e+00,2.451696872711181641e+00,2.402199745178222656e+00,2.354661464691162109e+00,2.308967828750610352e+00,2.265014171600341797e+00,2.222702741622924805e+00,2.181942939758300781e+00,2.142651319503784180e+00,2.104749441146850586e+00,2.068165302276611328e+00,2.032831430435180664e+00,1.998684287071228027e+00,1.965665698051452637e+00,1.933720111846923828e+00,1.902796268463134766e+00,1.872846007347106934e+00,1.843823790550231934e+00
5.000000000000000000e+00,5.000000000000000000e+00,5.000000000000000000e+00,5.000000000000000000e+00,5.000000000000000000e+00,5.000000000000000000e+00,5.000000000000000000e+00,5.000000000000000000e+00,5.000000000000000000e+00,5.000000000000000000e+00,5.000000000000000000e+00,5.000000000000000000e+00,5.000000000000000000e+00,5.000000000000000000e+00,5.000000000000000000e+00,5.000000000000000000e+00,5.000000000000000000e+00,5.000000000000000000e+00,5.000000000000000000e+00,5.000000000000000000e+00,5.000000000000000000e+00,5.000000000000000000e+00,5.000000000000000000e+00,5.000000000000000000e+00,5.000000000000000000e+00,5.000000000000000000e+00,5.000000000000000000e+00,5.000000000000000000e+00,5.000000000000000000e+00,2.433424949645996094e+00,2.431316137313842773e+00,2.357635021209716797e+00,2.309126377105712891e+00,2.308405160903930664e+00,2.307684659957885742e+00,2.468713760375976562e+00,2.473381519317626953e+00,2.515465021133422852e+00,5.000000000000000000e+00,4.850383281707763672e+00,4.660403728485107422e+00,2.458697557449340820e+00,4.321848392486572266e+00,4.170370101928710938e+00,4.029150485992431641e+00,3.897181987762451172e+00,3.773583889007568359e+00,3.657584905624389648e+00,3.548504590988159180e+00,3.445741891860961914e+00,3.348763704299926758e+00,3.257094860076904297e+00,3.170310974121093750e+00,3.088032007217407227e+00,3.009915590286254883e+00,2.935653686523437500e+00,2.864967823028564453e+00,2.797605991363525391e+00,2.733339548110961914e+00,2.671959161758422852e+00,2.613274812698364258e+00,2.557112932205200195e+00,2.503314018249511719e+00,2.451732635498046875e+00,2.402233600616455078e+00,2.354694128036499023e+00,2.308999300003051758e+00,2.265044450759887695e+00,2.222731828689575195e+00,2.181971073150634766e+00,2.142678260803222656e+00,2.104775667190551758e+00,2.068190574645996094e+00,2.032855749130249023e+00,1.998708128929138184e+00,1.965688467025756836e+00,1.933742165565490723e+00,1.902817606925964355e+00,1.872866630554199219e+00,1.843844056129455566e+00
5.000000000000000000e+00,5.000000000000000000e+00,5.000000000000000000e+00,5.000000000000000000e+00,5.000000000000000000e+00,5.000000000000000000e+00,5.000000000000000000e+00,5.000000000000000000e+00,5.000000000000000000e+00,5.000000000000000000e+00,5.000000000000000000e+00,5.000000000000000000e+00,5.000000000000000000e+00,5.000000000000000000e+00,5.000000000000000000e+00,5.000000000000000000e+00,5.000000000000000000e+00,5.000000000000000000e+00,5.000000000000000000e+00,5.000000000000000000e+00,5.000000000000000000e+00,5.000000000000000000e+00,5.000000000000000000e+00,5.000000000000000000e+00,5.000000000000000000e+00,5.000000000000000000e+00,5.000000000000000000e+00,5.000000000000000000e+00,5.000000000000000000e+00,2.426149845123291016e+00,2.429649353027343750e+00,2.353717565536499023e+00,2.296766996383666992e+00,2.293356895446777344e+00,2.292645692825317383e+00,2.348396539688110352e+00,2.474451303482055664e+00,2.518078565597534180e+00,5.000000000000000000e+00,4.850522041320800781e+00,4.660531997680664062e+00,2.430499792098999023e+00,2.435777902603149414e+00,4.170473098754882812e+00,4.029246330261230469e+00,3.897271394729614258e+00,3.773668289184570312e+00,3.657664060592651367e+00,3.548578977584838867e+00,3.445811986923217773e+00,3.348829984664916992e+00,3.257157802581787109e+00,3.170370578765869141e+00,3.088088274002075195e+00,3.009968996047973633e+00,2.935704469680786133e+00,2.865016222000122070e+00,2.797652482986450195e+00,2.733383655548095703e+00,2.672001123428344727e+00,2.613315105438232422e+00,2.557151556015014648e+00,2.503351211547851562e+00,2.451768159866333008e+00,2.402267694473266602e+00,2.354726791381835938e+00,2.309030771255493164e+00,2.265074968338012695e+00,2.222761154174804688e+00,2.181999206542968750e+00,2.142705440521240234e+00,2.104801893234252930e+00,2.068215847015380859e+00,2.032880306243896484e+00,1.998731732368469238e+00,1.965711355209350586e+00,1.933764219284057617e+00,1.902838945388793945e+00,1.872887372970581055e+00,1.843864083290100098e+00
5.000000000000000000e+00,5.000000000000000000e+00,5.000000000000000000e+00,5.000000000000000000e+00,5.000000000000000000e+00,5.000000000000000000e+00,5.000000000000000000e+00,5.000000000000000000e+00,5.000000000000000000e+00,5.000000000000000000e+00,5.000000000000000000e+00,5.000000000000000000e+00,5.000000000000000000e+00,5.000000000000000000e+00,5.000000000000000000e+00,5.000000000000000000e+00,5.000000000000000000e+00,5.000000000000000000e+00,5.000000000000000000e+00,5.000000000000000000e+00,5.000000000000000000e+00,5.000000000000000000e+00,5.000000000000000000e+00,5.000000000000000000e+00,5.000000000000000000e+00,5.000000000000000000e+00,5.000000000000000000e+00,5.000000000000000000e+00,5.000000000000000000e+00,2.428977012634277344e+00,2.428573131561279297e+00,2.378340721130371094e+00,2.304098367691040039e+00,2.280267000198364258e+00,2.277801513671875000e+00,2.318814039230346680e+00,2.478391170501708984e+00,2.531692504882812500e+00,5.000000000000000000e+00,4.850660800933837891e+00,4.660660266876220703e+00,4.484983444213867188e+00,2.521481990814208984e+00,4.170575618743896484e+00,4.029342174530029297e+00,3.897361516952514648e+00,3.773752212524414062e+00,3.657742977142333984e+00,3.548653125762939453e+00,3.445882081985473633e+00,3.348896503448486328e+00,3.257220506668090820e+00,3.170429944992065430e+00,3.088144540786743164e+00,3.010022401809692383e+00,2.935755252838134766e+00,2.865065097808837891e+00,2.797698736190795898e+00,2.733427762985229492e+00,2.672043323516845703e+00,2.613355398178100586e+00,2.557190179824829102e+00,2.503388166427612305e+00,2.451803445816040039e+00,2.402301788330078125e+00,2.354759454727172852e+00,2.309062480926513672e+00,2.265105247497558594e+00,2.222790241241455078e+00,2.182027339935302734e+00,2.142732620239257812e+00,2.104827880859375000e+00,2.068241119384765625e+00,2.032904624938964844e+00,1.998755216598510742e+00,1.965734124183654785e+00,1.933786392211914062e+00,1.902860522270202637e+00,1.872908115386962891e+00,1.843884229660034180e+00
5.000000000000000000e+00,5.000000000000000000e+00,5.000000000000000000e+00,5.000000000000000000e+00,5.000000000000000000e+00,5.000000000000000000e+00,5.000000000000000000e+00,5.000000000000000000e+00,5.000000000000000000e+00,5.000000000000000000e+00,5.000000000000000000e+00,5.000000000000000000e+00,5.000000000000000000e+00,5.000000000000000000e+00,5.000000000000000000e+00,5.000000000000000000e+00,5.000000000000000000e+00,5.000000000000000000e+00,5.000000000000000000e+00,5.000000000000000000e+00,5.000000000000000000e+00,5.000000000000000000e+00,5.000000000000000000e+00,5.000000000000000000e+00,5.000000000000000000e+00,5.000000000000000000e+00,5.000000000000000000e+00,5.000000000000000000e+00,5.000000000000000000e+00,2.414956331253051758e+00,2.407118082046508789e+00,5.000000000000000000e+00,2.311476945877075195e+00,2.265722036361694336e+00,2.262357711791992188e+00,2.290096282958984375e+00,2.487816572189331055e+00,2.553834676742553711e+00,5.000000000000000000e+00,4.850800037384033203e+00,4.660788536071777344e+00,4.485102653503417969e+00,4.322179317474365234e+00,4.170678138732910156e+00,4.029438018798828125e+00,3.897451162338256836e+00,3.773836374282836914e+00,3.657821893692016602e+00,3.548727512359619141e+00,3.445952415466308594e+00,3.348962545394897461e+00,3.257282972335815430e+00,3.170489311218261719e+00,3.088200807571411133e+00,3.010076045989990234e+00,2.935806512832641602e+00,2.865113496780395508e+00,2.797744750976562500e+00,2.733471632003784180e+00,2.672085523605346680e+00,2.613395929336547852e+00,2.557228803634643555e+00,2.503425121307373047e+00,2.451838970184326172e+00,2.402335882186889648e+00,2.354792356491088867e+00,2.309093952178955078e+00,2.265135526657104492e+00,2.222819328308105469e+00,2.182055473327636719e+00,2.142759799957275391e+00,2.104854345321655273e+00,2.068266391754150391e+00,2.032928943634033203e+00,1.998778820037841797e+00,1.965756893157958984e+00,1.933808445930480957e+00,1.902881860733032227e+00,1.872928738594055176e+00,1.843904256820678711e+00
5.000000000000000000e+00,5.000000000000000000e+00,5.000000000000000000e+00,5.000000000000000000e+00,5.000000000000000000e+00,5.000000000000000000e+00,5.000000000000000000e+00,5.000000000000000000e+00,5.000000000000000000e+00,5.000000000000000000e+00,5.000000000000000000e+00,5.000000000000000000e+00,5.000000000000000000e+00,5.000000000000000000e+00,5.000000000000000000e+00,5.000000000000000000e+00,5.000000000000000000e+00,5.000000000000000000e+00,5.000000000000000000e+00,5.000000000000000000e+00,5.000000000000000000e+00,5.000000000000000000e+00,5.000000000000000000e+00,5.000000000000000000e+00,5.000000000000000000e+00,5.000000000000000000e+00,5.000000000000000000e+00,5.000000000000000000e+00,5.000000000000000000e+00,2.408506870269775391e+00,5.000000000000000000e+00,5.000000000000000000e+00,2.326968908309936523e+00,2.263295888900756836e+00,2.244468927383422852e+00,2.262530088424682617e+00,2.511044979095458984e+00,5.000000000000000000e+00,5.000000000000000000e+00,4.850939273834228516e+00,4.660917282104492188e+00,4.485220909118652344e+00,4.322289943695068359e+00,4.170781135559082031e+00,4.029533863067626953e+00,3.897540807723999023e+00,3.773920297622680664e+00,3.657900810241699219e+00,3.548802137374877930e+00,3.446022510528564453e+00,3.349028825759887695e+00,3.257345676422119141e+00,3.170548439025878906e+00,3.088257312774658203e+00,3.010129690170288086e+00,2.935857295989990234e+00,2.865161895751953125e+00,2.797791004180908203e+00,2.733515977859497070e+00,2.672127723693847656e+00,2.613436222076416016e+00,2.557267427444458008e+00,2.503462314605712891e+00,2.451874494552612305e+00,2.402370214462280273e+00,2.354825019836425781e+00,2.309125423431396484e+00,2.265165805816650391e+00,2.222848653793334961e+00,2.182083606719970703e+00,2.142786741256713867e+00,2.104880332946777344e+00,2.068291664123535156e+00,2.032953500747680664e+00,1.998802423477172852e+00,1.965780019760131836e+00,1.933830499649047852e+00,1.902903318405151367e+00,1.872949481010437012e+00,1.843924283981323242e+00
5.000000000000000000e+00,5.000000000000000000e+00,5.000000000000000000e+00,5.000000000000000000e+00,5.000000000000000000e+00,5.000000000000000000e+00,5.000000000000000000e+00,5.000000000000000000e+00,5.000000000000000000e+00,5.000000000000000000e+00,5.000000000000000000e+00,5.000000000000000000e+00,5.000000000000000000e+00,5.000000000000000000e+00,5.000000000000000000e+00,5.000000000000000000e+00,5.000000000000000000e+00,5.000000000000000000e+00,5.000000000000000000e+00,5.000000000000000000e+00,5.000000000000000000e+00,5.000000000000000000e+00,5.000000000000000000e+00,5.000000000000000000e+00,5.000000000000000000e+00,5.000000000000000000e+00,5.000000000000000000e+00,5.000000000000000000e+00,5.000000000000000000e+00,2.399379491806030273e+00,5.000000000000000000e+00,5.000000000000000000e+00,2.345388174057006836e+00,2.272834777832031250e+00,2.233713626861572266e+00,2.234463691711425781e+00,2.536808967590332031e+00,5.000000000000000000e+00,5.000000000000000000e+00,4.851078033447265625e+00,4.661045551300048828e+00,4.485340118408203125e+00,4.322400093078613281e+00,4.170883655548095703e+00,4.029630184173583984e+00,3.897630453109741211e+00,3.774004459381103516e+00,3.657980203628540039e+00,3.548876523971557617e+00,3.446092605590820312e+00,3.349094867706298828e+00,3.257408380508422852e+00,3.170608043670654297e+00,3.088313579559326172e+00,3.010183095932006836e+00,2.935908079147338867e+00,2.865210294723510742e+00,2.797837495803833008e+00,2.733560085296630859e+00,2.672169923782348633e+00,2.613476514816284180e+00,2.557306051254272461e+00,2.503499269485473633e+00,2.451910257339477539e+00,2.402404069900512695e+00,2.354857921600341797e+00,2.309156894683837891e+00,2.265196084976196289e+00,2.222877979278564453e+00,2.182111740112304688e+00,2.142813920974731445e+00,2.104906558990478516e+00,2.068316936492919922e+00,2.032977819442749023e+00,1.998826026916503906e+00,1.965802788734436035e+00,1.933852553367614746e+00,1.902924656867980957e+00,1.872970223426818848e+00,1.843944430351257324e+00
5.000000000000000000e+00,5.000000000000000000e+00,5.000000000000000000e+00,5.000000000000000000e+00,5.000000000000000000e+00,5.000000000000000000e+00,5.000000000000000000e+00,5.000000000000000000e+00,5.000000000000000000e+00,5.000000000000000000e+00,5.000000000000000000e+00,5.000000000000000000e+00,5.000000000000000000e+00,5.000000000000000000e+00,5.000000000000000000e+00,5.000000000000000000e+00,5.000000000000000000e+00,5.000000000000000000e+00,5.000000000000000000e+00,5.000000000000000000e+00,5.000000000000000000e+00,5.000000000000000000e+00,5.000000000000000000e+00,5.000000000000000000e+00,5.000000000000000000e+00,5.000000000000000000e+00,5.000000000000000000e+00,5.000000000000000000e+00,5.000000000000000000e+00,2.393805265426635742e+00,5.000000000000000000e+00,5.000000000000000000e+00,5.000000000000000000e+00,2.285792589187622070e+00,2.227502584457397461e+00,2.213846683502197266e+00,2.252496957778930664e+00,5.000000000000000000e+00,5.000000000000000000e+00,4.851217269897460938e+00,4.661173820495605469e+00,4.485458850860595703e+00,4.322510242462158203e+00,4.170986652374267578e+00,4.029726028442382812e+00,3.897720575332641602e+00,3.774088859558105469e+00,3.658059120178222656e+00,3.548950910568237305e+00,3.446162700653076172e+00,3.349161148071289062e+00,3.257471323013305664e+00,3.170667409896850586e+00,3.088369846343994141e+00,3.010236501693725586e+00,2.935959100723266602e+00,2.865258932113647461e+00,2.797883749008178711e+00,2.733604192733764648e+00,2.672212123870849609e+00,2.613516807556152344e+00,2.557344675064086914e+00,2.503536462783813477e+00,2.451945543289184570e+00,2.402438163757324219e+00,2.354890584945678711e+00,2.309188365936279297e+00,2.265226602554321289e+00,2.222907066345214844e+00,2.182139873504638672e+00,2.142841100692749023e+00,2.104932785034179688e+00,2.068342208862304688e+00,2.033002376556396484e+00,1.998849511146545410e+00,1.965825557708740234e+00,1.933874607086181641e+00,1.902945995330810547e+00,1.872991085052490234e+00,1.843964457511901855e+00
5.000000000000000000e+00,5.000000000000000000e+00,5.000000000000000000e+00,5.000000000000000000e+00,5.000000000000000000e+00,5.000000000000000000e+00,5.000000000000000000e+00,5.000000000000000000e+00,5.000000000000000000e+00,5.000000000000000000e+00,5.000000000000000000e+00,5.000000000000000000e+00,5.000000000000000000e+00,5.000000000000000000e+00,5.000000000000000000e+00,5.000000000000000000e+00,5.000000000000000000e+00,5.000000000000000000e+00,5.000000000000000000e+00,5.000000000000000000e+00,5.000000000000000000e+00,5.000000000000000000e+00,5.000000000000000000e+00,5.000000000000000000e+00,5.000000000000000000e+00,5.000000000000000000e+00,5.000000000000000000e+00,5.000000000000000000e+00,5.000000000000000000e+00,5.000000000000000000e+00,5.000000000000000000e+00,5.000000000000000000e+00,5.000000000000000000e+00,2.297659158706665039e+00,2.231059312820434570e+00,2.215553760528564453e+00,2.252132892608642578e+00,5.000000000000000000e+00,5.000000000000000000e+00,4.851356506347656250e+00,4.661302089691162109e+00,4.485577583312988281e+00,4.322620868682861328e+00,4.171089172363281250e+00,4.029821872711181641e+00,3.897810220718383789e+00,3.774173021316528320e+00,3.658138036727905273e+00,3.549025058746337891e+00,3.446232795715332031e+00,3.349227666854858398e+00,3.257533788681030273e+00,3.170726776123046875e+00,3.088426113128662109e+00,3.010289907455444336e+00,2.936010122299194336e+00,2.865307569503784180e+00,2.797930002212524414e+00,2.733648300170898438e+00,2.672254323959350586e+00,2.613557338714599609e+00,2.557383298873901367e+00,2.503573417663574219e+00,2.451981067657470703e+00,2.402472257614135742e+00,2.354923248291015625e+00,2.309219837188720703e+00,2.265256881713867188e+00,2.222936153411865234e+00,2.182168006896972656e+00,2.142868041992187500e+00,2.104959011077880859e+00,2.068367481231689453e+00,2.033026695251464844e+00,1.998873114585876465e+00,1.965848326683044434e+00,1.933896899223327637e+00,1.902967333793640137e+00,1.873011827468872070e+00,1.843984484672546387e+00
5.000000000000000000e+00,5.000000000000000000e+00,5.000000000000000000e+00,5.000000000000000000e+00,5.000000000000000000e+00,5.000000000000000000e+00,5.000000000000000000e+00,5.000000000000000000e+00,5.000000000000000000e+00,5.000000000000000000e+00,5.000000000000000000e+00,5.000000000000000000e+00,5.000000000000000000e+00,5.000000000000000000e+00,5.000000000000000000e+00,5.000000000000000000e+00,5.000000000000000000e+00,5.000000000000000000e+00,5.000000000000000000e+00,5.000000000000000000e+00,5.000000000000000000e+00,5.000000000000000000e+00,5.000000000000000000e+00,5.000000000000000000e+00,5.000000000000000000e+00,5.000000000000000000e+00,5.000000000000000000e+00,5.000000000000000000e+00,5.000000000000000000e+00,5.000000000000000000e+00,5.000000000000000000e+00,5.000000000000000000e+00,5.000000000000000000e+00,2.297236442565917969e+00,2.234171390533447266e+00,2.223712682723999023e+00,5.000000000000000000e+00,5.000000000000000000e+00,5.000000000000000000e+00,4.851495265960693359e+00,4.661430835723876953e+00,4.485696792602539062e+00,4.322731018066406250e+00,4.171192169189453125e+00,4.029917716979980469e+00,3.897899866104125977e+00,3.774256944656372070e+00,3.658216953277587891e+00,3.549099922180175781e+00,3.446303129196166992e+00,3.349293947219848633e+00,3.257596492767333984e+00,3.170786142349243164e+00,3.088482379913330078e+00,3.010343790054321289e+00,2.936061143875122070e+00,2.865355968475341797e+00,2.797976255416870117e+00,2.733692407608032227e+00,2.672296524047851562e+00,2.613597631454467773e+00,2.557421922683715820e+00,2.503610372543334961e+00,2.452016592025756836e+00,2.402506589889526367e+00,2.354956150054931641e+00,2.309251308441162109e+00,2.265287160873413086e+00,2.222965240478515625e+00,2.182196140289306641e+00,2.142895460128784180e+00,2.104984998703002930e+00,2.068392753601074219e+00,2.033051013946533203e+00,1.998896718025207520e+00,1.965871214866638184e+00,1.933918952941894531e+00,1.902988791465759277e+00,1.873032450675964355e+00,1.844004631042480469e+00
5.000000000000000000e+00,5.000000000000000000e+00,5.000000000000000000e+00,5.000000000000000000e+00,5.000000000000000000e+00,5.000000000000000000e+00,5.000000000000000000e+00,5.000000000000000000e+00,5.000000000000000000e+00,5.000000000000000000e+00,5.000000000000000000e+00,5.000000000000000000e+00,5.000000000000000000e+00,5.000000000000000000e+00,5.000000000000000000e+00,5.000000000000000000e+00,5.000000000000000000e+00,5.000000000000000000e+00,5.000000000000000000e+00,5.000000000000000000e+00,5.000000000000000000e+00,5.000000000000000000e+00,5.000000000000000000e+00,5.000000000000000000e+00,5.000000000000000000e+00,5.000000000000000000e+00,5.000000000000000000e+00,5.000000000000000000e+00,5.000000000000000000e+00,5.000000000000000000e+00,5.000000000000000000e+00,5.000000000000000000e+00,5.000000000000000000e+00,2.283444881439208984e+00,2.238716840744018555e+00,2.232401847839355469e+00,5.000000000000000000e+00,5.000000000000000000e+00,5.000000000000000000e+00,4.851634502410888672e+00,4.661558628082275391e+00,4.485815525054931641e+00,4.322841644287109375e+00,4.171294689178466797e+00,4.030013561248779297e+00,3.897989511489868164e+00,3.774341106414794922e+00,3.658296346664428711e+00,3.549174308776855469e+00,3.446373224258422852e+00,3.349359989166259766e+00,3.257659196853637695e+00,3.170845508575439453e+00,3.088539123535156250e+00,3.010397195816040039e+00,2.936111927032470703e+00,2.865404367446899414e+00,2.798022270202636719e+00,2.733736753463745117e+00,2.672338724136352539e+00,2.613637924194335938e+00,2.557460546493530273e+00,2.503647327423095703e+00,2.452052354812622070e+00,2.402540445327758789e+00,2.354988813400268555e+00,2.309282779693603516e+00,2.265317440032958984e+00,2.222994565963745117e+00,2.182224273681640625e+00,2.142922401428222656e+00,2.105011224746704102e+00,2.068418025970458984e+00,2.033075571060180664e+00,1.998920559883117676e+00,1.965893983840942383e+00,1.933941006660461426e+00,1.903010129928588867e+00,1.873053193092346191e+00,1.844024896621704102e+00
5.000000000000000000e+00,5.000000000000000000e+00,5.000000000000000000e+00,5.000000000000000000e+00,5.000000000000000000e+00,5.000000000000000000e+00,5.000000000000000000e+00,5.000000000000000000e+00,5.000000000000000000e+00,5.000000000000000000e+00,5.000000000000000000e+00,5.000000000000000000e+00,5.000000000000000000e+00,5.000000000000000000e+00,5.000000000000000000e+00,5.000000000000000000e+00,5.000000000000000000e+00,5.000000000000000000e+00,5.000000000000000000e+00,5.000000000000000000e+00,5.000000000000000000e+00,5.000000000000000000e+00,5.000000000000000000e+00,5.000000000000000000e+00,5.000000000000000000e+00,5.000000000000000000e+00,5.000000000000000000e+00,5.000000000000000000e+00,5.000000000000000000e+00,5.000000000000000000e+00,5.000000000000000000e+00,5.000000000000000000e+00,2.671609640121459961e+00,2.270474195480346680e+00,2.242220878601074219e+00,2.238421678543090820e+00,5.000000000000000000e+00,5.000000000000000000e+00,5.000000000000000000e+00,4.851772308349609375e+00,4.661686897277832031e+00,4.485934257507324219e+00,4.322951793670654297e+00,4.171397686004638672e+00,4.030109882354736328e+00,3.898079156875610352e+00,3.774425506591796875e+00,3.658375263214111328e+00,3.549248456954956055e+00,3.446443319320678711e+00,3.349426269531250000e+00,3.257722139358520508e+00,3.170905113220214844e+00,3.088595390319824219e+00,3.010450601577758789e+00,2.936162710189819336e+00,2.865452766418457031e+00,2.798068761825561523e+00,2.733780860900878906e+00,2.672380924224853516e+00,2.613678216934204102e+00,2.557499170303344727e+00,2.503684520721435547e+00,2.452087640762329102e+00,2.402574539184570312e+00,2.355021715164184570e+00,2.309314250946044922e+00,2.265347719192504883e+00,2.223023891448974609e+00,2.182252407073974609e+00,2.142949581146240234e+00,2.105037450790405273e+00,2.068443298339843750e+00,2.033099889755249023e+00,1.998944044113159180e+00,1.965916752815246582e+00,1.933963060379028320e+00,1.903031468391418457e+00,1.873073935508728027e+00,1.844044923782348633e+00
5.000000000000000000e+00,5.000000000000000000e+00,5.000000000000000000e+00,5.000000000000000000e+00,5.000000000000000000e+00,5.000000000000000000e+00,5.000000000000000000e+00,5.000000000000000000e+00,5.000000000000000000e+00,5.000000000000000000e+00,5.000000000000000000e+00,5.000000000000000000e+00,5.000000000000000000e+00,5.000000000000000000e+00,5.000000000000000000e+00,5.000000000000000000e+00,5.000000000000000000e+00,5.000000000000000000e+00,5.000000000000000000e+00,5.000000000000000000e+00,5.000000000000000000e+00,5.000000000000000000e+00,5.000000000000000000e+00,5.000000000000000000e+00,5.000000000000000000e+00,5.000000000000000000e+00,5.000000000000000000e+00,5.000000000000000000e+00,5.000000000000000000e+00,5.000000000000000000e+00,5.000000000000000000e+00,5.000000000000000000e+00,2.679025888442993164e+00,2.306163072586059570e+00,2.243095159530639648e+00,2.233817815780639648e+00,5.000000000000000000e+00,5.000000000000000000e+00,5.000000000000000000e+00,4.851910591125488281e+00,4.661815643310546875e+00,4.486052989959716797e+00,4.323062419891357422e+00,4.171500682830810547e+00,4.030205726623535156e+00,3.898169279098510742e+00,3.774509668350219727e+00,3.658454418182373047e+00,3.549322843551635742e+00,3.446513414382934570e+00,3.349492788314819336e+00,3.257784605026245117e+00,3.170964479446411133e+00,3.088651657104492188e+00,3.010504245758056641e+00,2.936213970184326172e+00,2.865501403808593750e+00,2.798115015029907227e+00,2.733824968338012695e+00,2.672422885894775391e+00,2.613718509674072266e+00,2.557538032531738281e+00,2.503721475601196289e+00,2.452123165130615234e+00,2.402608633041381836e+00,2.355054378509521484e+00,2.309345960617065430e+00,2.265377998352050781e+00,2.223052978515625000e+00,2.182280540466308594e+00,2.142976760864257812e+00,2.105063676834106445e+00,2.068468570709228516e+00,2.033124446868896484e+00,1.998967647552490234e+00,1.965939640998840332e+00,1.933985233306884766e+00,1.903053045272827148e+00,1.873094558715820312e+00,1.844064950942993164e+00
5.000000000000000000e+00,5.000000000000000000e+00,5.000000000000000000e+00,5.000000000000000000e+00,5.000000000000000000e+00,5.000000000000000000e+00,5.000000000000000000e+00,5.000000000000000000e+00,5.000000000000000000e+00,5.000000000000000000e+00,5.000000000000000000e+00,5.000000000000000000e+00,5.000000000000000000e+00,5.000000000000000000e+00,5.000000000000000000e+00,5.000000000000000000e+00,5.000000000000000000e+00,5.000000000000000000e+00,5.000000000000000000e+00,5.000000000000000000e+00,5.000000000000000000e+00,5.000000000000000000e+00,5.000000000000000000e+00,5.000000000000000000e+00,5.000000000000000000e+00,5.000000000000000000e+00,5.000000000000000000e+00,5.000000000000000000e+00,5.000000000000000000e+00,5.000000000000000000e+00,5.000000000000000000e+00,5.000000000000000000e+00,2.685760498046875000e+00,2.675335645675659180e+00,2.245418071746826172e+00,2.229233026504516602e+00,2.273655652999877930e+00,5.000000000000000000e+00,5.000000000000000000e+00,4.852049350738525391e+00,4.661942958831787109e+00,4.486172199249267578e+00,4.323173046112060547e+00,4.171603202819824219e+00,4.030301570892333984e+00,3.898258924484252930e+00,3.774593591690063477e+00,3.658533334732055664e+00,3.549397230148315430e+00,3.446583986282348633e+00,3.349559068679809570e+00,3.257847309112548828e+00,3.171023845672607422e+00,3.088707923889160156e+00,3.010557889938354492e+00,2.936264753341674805e+00,2.865550041198730469e+00,2.798161268234252930e+00,2.733869075775146484e+00,2.672465085983276367e+00,2.613759040832519531e+00,2.557576656341552734e+00,2.503758430480957031e+00,2.452158689498901367e+00,2.402642726898193359e+00,2.355087280273437500e+00,2.309377431869506836e+00,2.265408277511596680e+00,2.223082065582275391e+00,2.182308673858642578e+00,2.143003940582275391e+00,2.105089902877807617e+00,2.068493843078613281e+00,2.033148765563964844e+00,1.998991250991821289e+00,1.965962409973144531e+00,1.934007287025451660e+00,1.903074502944946289e+00,1.873115301132202148e+00,1.844085097312927246e+00
5.000000000000000000e+00,5.000000000000000000e+00,5.000000000000000000e+00,5.000000000000000000e+00,5.000000000000000000e+00,5.000000000000000000e+00,5.000000000000000000e+00,5.000000000000000000e+00,5.000000000000000000e+00,5.000000000000000000e+00,5.000000000000000000e+00,5.000000000000000000e+00,5.000000000000000000e+00,5.000000000000000000e+00,5.000000000000000000e+00,5.000000000000000000e+00,5.000000000000000000e+00,5.000000000000000000e+00,5.000000000000000000e+00,5.000000000000000000e+00,5.000000000000000000e+00,5.000000000000000000e+00,5.000000000000000000e+00,5.000000000000000000e+00,5.000000000000000000e+00,5.000000000000000000e+00,5.000000000000000000e+00,5.000000000000000000e+00,5.000000000000000000e+00,5.000000000000000000e+00,5.000000000000000000e+00,5.000000000000000000e+00,2.696704864501953125e+00,2.696500062942504883e+00,2.247745752334594727e+00,2.226879596710205078e+00,2.261580944061279297e+00,5.000000000000000000e+00,5.000000000000000000e+00,4.852187633514404297e+00,4.662070274353027344e+00,4.486289978027343750e+00,4.323283195495605469e+00,4.171706199645996094e+00,4.030397415161132812e+00,3.898348808288574219e+00,3.774677753448486328e+00,3.658612251281738281e+00,3.549471855163574219e+00,3.446654081344604492e+00,3.349625110626220703e+00,3.257910013198852539e+00,3.171082973480224609e+00,3.088764429092407227e+00,3.010611295700073242e+00,2.936315536499023438e+00,2.865598440170288086e+00,2.798207283020019531e+00,2.733913421630859375e+00,2.672507524490356445e+00,2.613799333572387695e+00,2.557615041732788086e+00,2.503795385360717773e+00,2.452194213867187500e+00,2.402677059173583984e+00,2.355119943618774414e+00,2.309408903121948242e+00,2.265438556671142578e+00,2.223111391067504883e+00,2.182336807250976562e+00,2.143030881881713867e+00,2.105115890502929688e+00,2.068519115447998047e+00,2.033173084259033203e+00,1.999014854431152344e+00,1.965985417366027832e+00,1.934029340744018555e+00,1.903095841407775879e+00,1.873136043548583984e+00,1.844105124473571777e+00
5.000000000000000000e+00,5.000000000000000000e+00,5.000000000000000000e+00,5.000000000000000000e+00,5.000000000000000000e+00,5.000000000000000000e+00,5.000000000000000000e+00,5.000000000000000000e+00,5.000000000000000000e+00,5.000000000000000000e+00,5.000000000000000000e+00,5.000000000000000000e+00,5.000000000000000000e+00,5.000000000000000000e+00,5.000000000000000000e+00,5.000000000000000000e+00,5.000000000000000000e+00,5.000000000000000000e+00,5.000000000000000000e+00,5.000000000000000000e+00,5.000000000000000000e+00,5.000000000000000000e+00,5.000000000000000000e+00,5.000000000000000000e+00,5.000000000000000000e+00,5.000000000000000000e+00,5.000000000000000000e+00,5.000000000000000000e+00,5.000000000000000000e+00,5.000000000000000000e+00,5.000000000000000000e+00,5.000000000000000000e+00,2.719286918640136719e+00,2.745588541030883789e+00,2.250748395919799805e+00,2.230709075927734375e+00,2.251867532730102539e+00,5.000000000000000000e+00,5.000000000000000000e+00,4.852325916290283203e+00,4.662198066711425781e+00,4.486408233642578125e+00,4.323392868041992188e+00,4.171808719635009766e+00,4.030493736267089844e+00,3.898438453674316406e+00,3.774761915206909180e+00,3.658691644668579102e+00,3.549546241760253906e+00,3.446724176406860352e+00,3.349691390991210938e+00,3.257972478866577148e+00,3.171142816543579102e+00,3.088820695877075195e+00,3.010664939880371094e+00,2.936366558074951172e+00,2.865646839141845703e+00,2.798253774642944336e+00,2.733957529067993164e+00,2.672549724578857422e+00,2.613839626312255859e+00,2.557653665542602539e+00,2.503832340240478516e+00,2.452229738235473633e+00,2.402711153030395508e+00,2.355152606964111328e+00,2.309440374374389648e+00,2.265468835830688477e+00,2.223140716552734375e+00,2.182364940643310547e+00,2.143058061599731445e+00,2.105142116546630859e+00,2.068544387817382812e+00,2.033197641372680664e+00,1.999038457870483398e+00,1.966008305549621582e+00,1.934051394462585449e+00,1.903117179870605469e+00,1.873156666755676270e+00,1.844125151634216309e+00
5.000000000000000000e+00,5.000000000000000000e+00,5.000000000000000000e+00,5.000000000000000000e+00,5.000000000000000000e+00,5.000000000000000000e+00,5.000000000000000000e+00,5.000000000000000000e+00,5.000000000000000000e+00,5.000000000000000000e+00,5.000000000000000000e+00,5.000000000000000000e+00,5.000000000000000000e+00,5.000000000000000000e+00,5.000000000000000000e+00,5.000000000000000000e+00,5.000000000000000000e+00,5.000000000000000000e+00,5.000000000000000000e+00,5.000000000000000000e+00,5.000000000000000000e+00,5.000000000000000000e+00,5.000000000000000000e+00,5.000000000000000000e+00,5.000000000000000000e+00,5.000000000000000000e+00,5.000000000000000000e+00,5.000000000000000000e+00,5.000000000000000000e+00,5.000000000000000000e+00,5.000000000000000000e+00,2.772798061370849609e+00,2.742286920547485352e+00,5.000000000000000000e+00,2.254473686218261719e+00,2.228040695190429688e+00,2.242237329483032227e+00,5.000000000000000000e+00,5.000000000000000000e+00,4.852464199066162109e+00,4.662325859069824219e+00,4.486526489257812500e+00,4.323502540588378906e+00,4.171911716461181641e+00,4.030589580535888672e+00,3.898528575897216797e+00,3.774846315383911133e+00,3.658770799636840820e+00,3.549620628356933594e+00,3.446794271469116211e+00,3.349757671356201172e+00,3.258035421371459961e+00,3.171201944351196289e+00,3.088877201080322266e+00,3.010718345642089844e+00,2.936417341232299805e+00,2.865695476531982422e+00,2.798300027847290039e+00,2.734001636505126953e+00,2.672591686248779297e+00,2.613879919052124023e+00,2.557692527770996094e+00,2.503869533538818359e+00,2.452265262603759766e+00,2.402745008468627930e+00,2.355185508728027344e+00,2.309471845626831055e+00,2.265499114990234375e+00,2.223169803619384766e+00,2.182393074035644531e+00,2.143085241317749023e+00,2.105168342590332031e+00,2.068569660186767578e+00,2.033222198486328125e+00,1.999061942100524902e+00,1.966031074523925781e+00,1.934073448181152344e+00,1.903138518333435059e+00,1.873177647590637207e+00,1.844145298004150391e+00
4.871634483337402344e+00,4.870413780212402344e+00,4.869193077087402344e+00,4.867972850799560547e+00,4.866754055023193359e+00,4.865535259246826172e+00,4.864317417144775391e+00,4.863100051879882812e+00,4.861883640289306641e+00,4.860667228698730469e+00,4.859451293945312500e+00,4.858236789703369141e+00,4.857022285461425781e+00,4.855808734893798828e+00,4.854595661163330078e+00,4.853383064270019531e+00,4.852170944213867188e+00,4.850959777832031250e+00,4.849749088287353516e+00,4.848538875579833984e+00,4.847329616546630859e+00,4.846120834350585938e+00,4.844912052154541016e+00,4.843704700469970703e+00,4.842497348785400391e+00,4.841291427612304688e+00,4.840085029602050781e+00,4.838880062103271484e+00,4.837675094604492188e+00,4.836471080780029297e+00,4.835267543792724609e+00,2.790511608123779297e+00,4.832862377166748047e+00,4.831660747528076172e+00,2.259355306625366211e+00,2.231813192367553711e+00,2.232688903808593750e+00,4.826859951019287109e+00,4.825661182403564453e+00,4.824463367462158203e+00,4.662453651428222656e+00,4.486644744873046875e+00,4.323612689971923828e+00,4.172013282775878906e+00,4.030685424804687500e+00,3.898618221282958984e+00,3.774930477142333984e+00,3.658849716186523438e+00,3.549695014953613281e+00,3.446864366531372070e+00,3.349824190139770508e+00,3.258098125457763672e+00,3.171261310577392578e+00,3.088933467864990234e+00,3.010771751403808594e+00,2.936468601226806641e+00,2.865744113922119141e+00,2.798346281051635742e+00,2.734045743942260742e+00,2.672633886337280273e+00,2.613920450210571289e+00,2.557731151580810547e+00,2.503906726837158203e+00,2.452300786972045898e+00,2.402779102325439453e+00,2.355218172073364258e+00,2.309503555297851562e+00,2.265529394149780273e+00,2.223198890686035156e+00,2.182421207427978516e+00,2.143112182617187500e+00,2.105194568634033203e+00,2.068594932556152344e+00,2.033246517181396484e+00,1.999085545539855957e+00,1.966053843498229980e+00,1.934095740318298340e+00,1.903159976005554199e+00,1.873198390007019043e+00,1.844165325164794922e+00
3.776494741439819336e+00,3.775760889053344727e+00,3.775027275085449219e+00,3.774293899536132812e+00,3.773561239242553711e+00,3.772828578948974609e+00,3.772096157073974609e+00,3.771363973617553711e+00,3.770632266998291016e+00,3.769900798797607422e+00,3.769169330596923828e+00,3.768438339233398438e+00,3.767707586288452148e+00,3.766977548599243164e+00,3.766247272491455078e+00,3.765517473220825195e+00,3.764787912368774414e+00,3.764058351516723633e+00,3.763329744338989258e+00,3.762600898742675781e+00,3.761872529983520508e+00,3.761144161224365234e+00,3.760416269302368164e+00,3.759689092636108398e+00,3.758961677551269531e+00,3.758234500885009766e+00,3.757507801055908203e+00,3.756781578063964844e+00,3.756055355072021484e+00,3.755329370498657227e+00,3.754603624343872070e+00,2.754570484161376953e+00,2.773039579391479492e+00,3.752428770065307617e+00,3.751704216003417969e+00,2.246897697448730469e+00,2.251142978668212891e+00,3.749532461166381836e+00,3.748809099197387695e+00,3.748085975646972656e+00,3.747363090515136719e+00,3.746640443801879883e+00,3.745918512344360352e+00,3.745196342468261719e+00,3.744474649429321289e+00,3.743753194808959961e+00,3.743032217025756836e+00,3.658928632736206055e+00,3.549769639968872070e+00,3.446934938430786133e+00,3.349890470504760742e+00,3.258160829544067383e+00,3.171320676803588867e+00,3.088989734649658203e+00,3.010825634002685547e+00,2.936519384384155273e+00,2.865792512893676758e+00,2.798392534255981445e+00,2.734089851379394531e+00,2.672676324844360352e+00,2.613960981369018555e+00,2.557769775390625000e+00,2.503943681716918945e+00,2.452336311340332031e+00,2.402813434600830078e+00,2.355251073837280273e+00,2.309535026550292969e+00,2.265559673309326172e+00,2.223227977752685547e+00,2.182449340820312500e+00,2.143139600753784180e+00,2.105220794677734375e+00,2.068620204925537109e+00,2.033270835876464844e+00,1.999109148979187012e+00,1.966076612472534180e+00,1.934117794036865234e+00,1.903181314468383789e+00,1.873219013214111328e+00,1.844185352325439453e+00
3.083358049392700195e+00,3.082868814468383789e+00,3.082379817962646484e+00,3.081890821456909180e+00,3.081402540206909180e+00,3.080913782119750977e+00,3.080425262451171875e+00,3.079936981201171875e+00,3.079449176788330078e+00,3.078961133956909180e+00,3.078473329544067383e+00,3.077985525131225586e+00,3.077498197555541992e+00,3.077010869979858398e+00,3.076523780822753906e+00,3.076036691665649414e+00,3.075549840927124023e+00,3.075062990188598633e+00,3.074576616287231445e+00,3.074090242385864258e+00,3.073603868484497070e+00,3.073117733001708984e+00,3.072631835937500000e+00,3.072146177291870117e+00,3.071660518646240234e+00,3.071174860000610352e+00,3.070689439773559570e+00,3.070204496383666992e+00,3.069719552993774414e+00,3.069234609603881836e+00,3.068749904632568359e+00,2.711949825286865234e+00,2.697013139724731445e+00,3.067296743392944336e+00,3.066812515258789062e+00,2.240659713745117188e+00,2.207963228225708008e+00,3.065361499786376953e+00,3.064877748489379883e+00,3.064394474029541016e+00,3.063911199569702148e+00,3.063428163528442383e+00,3.062945365905761719e+00,3.062462806701660156e+00,3.061980009078979492e+00,3.061497688293457031e+00,3.061015605926513672e+00,3.060533285140991211e+00,3.060051202774047852e+00,3.059569358825683594e+00,3.059087753295898438e+00,3.058606386184692383e+00,3.058125019073486328e+00,3.057643651962280273e+00,3.010879039764404297e+00,2.936570405960083008e+00,2.865840911865234375e+00,2.798438549041748047e+00,2.734134197235107422e+00,2.672718524932861328e+00,2.614001274108886719e+00,2.557808399200439453e+00,2.503980636596679688e+00,2.452372074127197266e+00,2.402847528457641602e+00,2.355283737182617188e+00,2.309566497802734375e+00,2.265590190887451172e+00,2.223257303237915039e+00,2.182477474212646484e+00,2.143166542053222656e+00,2.105246782302856445e+00,2.068645477294921875e+00,2.033295154571533203e+00,1.999132990837097168e+00,1.966099500656127930e+00,1.934139847755432129e+00,1.903202652931213379e+00,1.873239755630493164e+00,1.844205617904663086e+00
2.605200529098510742e+00,2.604851245880126953e+00,2.604501962661743164e+00,2.604152917861938477e+00,2.603804111480712891e+00,2.603455305099487305e+00,2.603106498718261719e+00,2.602757692337036133e+00,2.602409362792968750e+00,2.602060794830322266e+00,2.601712226867675781e+00,2.601363897323608398e+00,2.601015806198120117e+00,2.600667715072631836e+00,2.600319623947143555e+00,2.599971771240234375e+00,2.599623918533325195e+00,2.599276065826416016e+00,2.598928451538085938e+00,2.598581075668334961e+00,2.598233461380004883e+00,2.597886085510253906e+00,2.597538709640502930e+00,2.597191810607910156e+00,2.596844673156738281e+00,2.596497535705566406e+00,2.596150636672973633e+00,2.595803976058959961e+00,2.595457315444946289e+00,2.595110654830932617e+00,2.594763994216918945e+00,2.594417572021484375e+00,2.594071388244628906e+00,2.593724966049194336e+00,2.593378782272338867e+00,2.223019599914550781e+00,2.157776594161987305e+00,2.122065067291259766e+00,2.115876197814941406e+00,2.591649293899536133e+00,2.591303825378417969e+00,2.590958118438720703e+00,2.590612888336181641e+00,2.590267419815063477e+00,2.589922189712524414e+00,2.589576959609985352e+00,2.589232206344604492e+00,2.588887214660644531e+00,2.588542222976684570e+00,2.588197469711303711e+00,2.587852716445922852e+00,2.587508201599121094e+00,2.587163686752319336e+00,2.586819171905517578e+00,2.586474895477294922e+00,2.586130619049072266e+00,2.585786581039428711e+00,2.585442543029785156e+00,2.585098505020141602e+00,2.584754705429077148e+00,2.584410905838012695e+00,2.557847023010253906e+00,2.504017829895019531e+00,2.452407360076904297e+00,2.402881622314453125e+00,2.355316638946533203e+00,2.309597969055175781e+00,2.265620470046997070e+00,2.223286628723144531e+00,2.182505607604980469e+00,2.143193721771240234e+00,2.105273008346557617e+00,2.068670749664306641e+00,2.033319711685180664e+00,1.999156594276428223e+00,1.966122269630432129e+00,1.934162020683288574e+00,1.903224110603332520e+00,1.873260498046875000e+00,1.844225764274597168e+00
2.255392789840698242e+00,2.255132913589477539e+00,2.254873037338256836e+00,2.254613161087036133e+00,2.254353523254394531e+00,2.254093647003173828e+00,2.253834009170532227e+00,2.253574371337890625e+00,2.253314971923828125e+00,2.253055334091186523e+00,2.252795934677124023e+00,2.252536773681640625e+00,2.252277374267578125e+00,2.252018213272094727e+00,2.251758813858032227e+00,2.251499652862548828e+00,2.251240491867065430e+00,2.250981569290161133e+00,2.250722646713256836e+00,2.250463724136352539e+00,2.250205039978027344e+00,2.249946117401123047e+00,2.249687433242797852e+00,2.249428749084472656e+00,2.249169111251831055e+00,2.248908758163452148e+00,2.248648643493652344e+00,2.248388528823852539e+00,2.248128414154052734e+00,2.247868299484252930e+00,2.247608184814453125e+00,2.247348308563232422e+00,2.247088432312011719e+00,2.246828556060791016e+00,2.246568918228149414e+00,2.246309041976928711e+00,2.246049404144287109e+00,2.245790004730224609e+00,2.245530366897583008e+00,2.245270967483520508e+00,2.245011329650878906e+00,2.244752168655395508e+00,2.244493007659912109e+00,2.244233608245849609e+00,2.243974447250366211e+00,2.243715286254882812e+00,2.243456363677978516e+00,2.243197441101074219e+00,2.242938518524169922e+00,2.242679595947265625e+00,2.242420673370361328e+00,2.242161989212036133e+00,2.241903305053710938e+00,2.241644620895385742e+00,2.241386175155639648e+00,2.241127490997314453e+00,2.240869283676147461e+00,2.240610837936401367e+00,2.240352392196655273e+00,2.240094184875488281e+00,2.239835977554321289e+00,2.239577770233154297e+00,2.239319801330566406e+00,2.239061594009399414e+00,2.238803625106811523e+00,2.238545894622802734e+00,2.238287925720214844e+00,2.238030195236206055e+00,2.223315715789794922e+00,2.182533740997314453e+00,2.143220901489257812e+00,2.105299234390258789e+00,2.068696022033691406e+00,2.033344268798828125e+00,1.999180078506469727e+00,1.966145157814025879e+00,1.934184074401855469e+00,1.903245687484741211e+00,1.873281121253967285e+00,1.844245791435241699e+00
1.988326907157897949e+00,1.988124728202819824e+00,1.987922787666320801e+00,1.987720727920532227e+00,1.987518906593322754e+00,1.987316966056823730e+00,1.987115263938903809e+00,1.986913323402404785e+00,1.986711621284484863e+00,1.986509799957275391e+00,1.986308336257934570e+00,1.986106514930725098e+00,1.985905051231384277e+00,1.985703349113464355e+00,1.985501766204833984e+00,1.985300421714782715e+00,1.985098838806152344e+00,1.984897613525390625e+00,1.984696149826049805e+00,1.984494924545288086e+00,1.984293580055236816e+00,1.984092473983764648e+00,1.983891129493713379e+00,1.983690142631530762e+00,1.983488917350769043e+00,1.983287930488586426e+00,1.983086824417114258e+00,1.982885956764221191e+00,1.982684969902038574e+00,1.982484102249145508e+00,1.982283234596252441e+00,1.982082486152648926e+00,1.981881618499755859e+00,1.981680750846862793e+00,1.981480121612548828e+00,1.981279373168945312e+00,1.981078863143920898e+00,1.980878233909606934e+00,1.980677723884582520e+00,1.980477213859558105e+00,1.980276823043823242e+00,1.980076313018798828e+00,1.979876041412353516e+00,1.979675650596618652e+00,1.979475378990173340e+00,1.979275107383728027e+00,1.979074954986572266e+00,1.978874683380126953e+00,1.978674650192260742e+00,1.978474497795104980e+00,1.978274345397949219e+00,1.978074431419372559e+00,1.977874279022216797e+00,1.977674484252929688e+00,1.977474451065063477e+00,1.977274775505065918e+00,1.977074861526489258e+00,1.976875185966491699e+00,1.976675391197204590e+00,1.976475834846496582e+00,1.976276040077209473e+00,1.976076483726501465e+00,1.975876808166503906e+00,1.975677490234375000e+00,1.975477814674377441e+00,1.975278496742248535e+00,1.975078940391540527e+00,1.974879741668701172e+00,1.974680304527282715e+00,1.974480867385864258e+00,1.974281787872314453e+00,1.974082469940185547e+00,1.973883390426635742e+00,1.973684191703796387e+00,1.973485231399536133e+00,1.966167926788330078e+00,1.934206128120422363e+00,1.903267025947570801e+00,1.873301863670349121e+00,1.844265818595886230e+00
1.777812123298645020e+00,1.777650594711303711e+00,1.777489066123962402e+00,1.777327656745910645e+00,1.777166128158569336e+00,1.777004837989807129e+00,1.776843309402465820e+00,1.776682138442993164e+00,1.776520729064941406e+00,1.776359438896179199e+00,1.776198148727416992e+00,1.776036977767944336e+00,1.775875687599182129e+00,1.775714635848999023e+00,1.775553345680236816e+00,1.775392174720764160e+00,1.775231122970581055e+00,1.775070071220397949e+00,1.774909019470214844e+00,1.774747967720031738e+00,1.774587154388427734e+00,1.774426102638244629e+00,1.774265289306640625e+00,1.774104237556457520e+00,1.773943543434143066e+00,1.773782610893249512e+00,1.773621916770935059e+00,1.773460984230041504e+00,1.773300409317016602e+00,1.773139595985412598e+00,1.772979021072387695e+00,1.772818207740783691e+00,1.772657513618469238e+00,1.772497057914733887e+00,1.772336363792419434e+00,1.772175908088684082e+00,1.772015333175659180e+00,1.771854877471923828e+00,1.771694421768188477e+00,1.771534085273742676e+00,1.771373629570007324e+00,1.771213293075561523e+00,1.771052837371826172e+00,1.770892620086669922e+00,1.770732283592224121e+00,1.770572185516357422e+00,1.770411849021911621e+00,1.770251750946044922e+00,1.770091533660888672e+00,1.769931435585021973e+00,1.769771218299865723e+00,1.769611120223999023e+00,1.769451141357421875e+00,1.769291043281555176e+00,1.769131183624267578e+00,1.768971085548400879e+00,1.768811225891113281e+00,1.768651247024536133e+00,1.768491506576538086e+00,1.768331527709960938e+00,1.768171906471252441e+00,1.768011927604675293e+00,1.767852306365966797e+00,1.767692565917968750e+00,1.767532944679260254e+00,1.767373204231262207e+00,1.767213582992553711e+00,1.767053842544555664e+00,1.766894221305847168e+00,1.766734719276428223e+00,1.766575217247009277e+00,1.766415715217590332e+00,1.766256213188171387e+00,1.766096830368041992e+00,1.765937328338623047e+00,1.765778064727783203e+00,1.765618681907653809e+00,1.765459418296813965e+00,1.765300035476684570e+00,1.765140891075134277e+00
1.607606410980224609e+00,1.607474207878112793e+00,1.607342243194580078e+00,1.607210159301757812e+00,1.607078194618225098e+00,1.606946110725402832e+00,1.606814146041870117e+00,1.606682181358337402e+00,1.606550335884094238e+00,1.606418371200561523e+00,1.606286525726318359e+00,1.606154561042785645e+00,1.606022834777832031e+00,1.605890870094299316e+00,1.605759024620056152e+00,1.605627298355102539e+00,1.605495572090148926e+00,1.605363845825195312e+00,1.605232119560241699e+00,1.605100512504577637e+00,1.604968667030334473e+00,1.604837179183959961e+00,1.604705452919006348e+00,1.604573965072631836e+00,1.604442238807678223e+00,1.604310750961303711e+00,1.604179143905639648e+00,1.604047656059265137e+00,1.603916168212890625e+00,1.603784680366516113e+00,1.603653192520141602e+00,1.603521823883056641e+00,1.603390336036682129e+00,1.603258848190307617e+00,1.603127598762512207e+00,1.602996230125427246e+00,1.602864980697631836e+00,1.602733612060546875e+00,1.602602362632751465e+00,1.602470993995666504e+00,1.602339863777160645e+00,1.602208614349365234e+00,1.602077484130859375e+00,1.601946234703063965e+00,1.601815104484558105e+00,1.601683974266052246e+00,1.601552844047546387e+00,1.601421713829040527e+00,1.601290702819824219e+00,1.601159572601318359e+00,1.601028561592102051e+00,1.600897550582885742e+00,1.600766539573669434e+00,1.600635647773742676e+00,1.600504636764526367e+00,1.600373864173889160e+00,1.600242853164672852e+00,1.600112080574035645e+00,1.599981069564819336e+00,1.599850296974182129e+00,1.599719405174255371e+00,1.599588751792907715e+00,1.599457859992980957e+00,1.599327206611633301e+00,1.599196434020996094e+00,1.599065780639648438e+00,1.598935008049011230e+00,1.598804473876953125e+00,1.598673701286315918e+00,1.598543047904968262e+00,1.598412513732910156e+00,1.598281860351562500e+00,1.598151445388793945e+00,1.598020792007446289e+00,1.597890377044677734e+00,1.597759842872619629e+00,1.597629427909851074e+00,1.597498893737792969e+00,1.597368597984313965e+00,1.597238063812255859e+00
1.467143535614013672e+00,1.467033624649047852e+00,1.466923594474792480e+00,1.466813683509826660e+00,1.466703653335571289e+00,1.466593742370605469e+00,1.466483712196350098e+00,1.466373920440673828e+00,1.466263890266418457e+00,1.466154098510742188e+00,1.466044187545776367e+00,1.465934395790100098e+00,1.465824484825134277e+00,1.465714812278747559e+00,1.465604901313781738e+00,1.465495109558105469e+00,1.465385317802429199e+00,1.465275526046752930e+00,1.465165853500366211e+00,1.465056061744689941e+00,1.464946508407592773e+00,1.464836716651916504e+00,1.464727163314819336e+00,1.464617371559143066e+00,1.464507818222045898e+00,1.464398145675659180e+00,1.464288592338562012e+00,1.464179039001464844e+00,1.464069485664367676e+00,1.463959932327270508e+00,1.463850378990173340e+00,1.463740825653076172e+00,1.463631272315979004e+00,1.463521838188171387e+00,1.463412284851074219e+00,1.463302969932556152e+00,1.463193416595458984e+00,1.463084101676940918e+00,1.462974667549133301e+00,1.462865352630615234e+00,1.462755918502807617e+00,1.462646603584289551e+00,1.462537169456481934e+00,1.462427973747253418e+00,1.462318539619445801e+00,1.462209343910217285e+00,1.462100028991699219e+00,1.461990833282470703e+00,1.461881518363952637e+00,1.461772322654724121e+00,1.461663126945495605e+00,1.461553812026977539e+00,1.461444735527038574e+00,1.461335539817810059e+00,1.461226463317871094e+00,1.461117267608642578e+00,1.461008191108703613e+00,1.460899114608764648e+00,1.460790038108825684e+00,1.460680961608886719e+00,1.460572004318237305e+00,1.460462927818298340e+00,1.460353970527648926e+00,1.460244894027709961e+00,1.460135936737060547e+00,1.460026979446411133e+00,1.459918022155761719e+00,1.459809064865112305e+00,1.459700107574462891e+00,1.459591269493103027e+00,1.459482312202453613e+00,1.459373474121093750e+00,1.459264636039733887e+00,1.459155797958374023e+00,1.459046959877014160e+00,1.458938241004943848e+00,1.458829402923583984e+00,1.458720684051513672e+00,1.458611845970153809e+00,1.458503246307373047e+00
1.349254012107849121e+00,1.349160909652709961e+00,1.349067926406860352e+00,1.348974943161010742e+00,1.348881959915161133e+00,1.348788976669311523e+00,1.348695993423461914e+00,1.348603010177612305e+00,1.348510146141052246e+00,1.348417043685913086e+00,1.348324179649353027e+00,1.348231315612792969e+00,1.348138451576232910e+00,1.348045468330383301e+00,1.347952604293823242e+00,1.347859740257263184e+00,1.347766876220703125e+00,1.347674012184143066e+00,1.347581148147583008e+00,1.347488403320312500e+00,1.347395539283752441e+00,1.347302913665771484e+00,1.347210049629211426e+00,1.347117304801940918e+00,1.347024559974670410e+00,1.346931934356689453e+00,1.346839070320129395e+00,1.346746444702148438e+00,1.346653699874877930e+00,1.346561074256896973e+00,1.346468329429626465e+00,1.346375703811645508e+00,1.346283078193664551e+00,1.346190333366394043e+00,1.346097826957702637e+00,1.346005201339721680e+00,1.345912575721740723e+00,1.345819950103759766e+00,1.345727443695068359e+00,1.345634818077087402e+00,1.345542311668395996e+00,1.345449805259704590e+00,1.345357298851013184e+00,1.345264792442321777e+00,1.345172286033630371e+00,1.345079779624938965e+00,1.344987392425537109e+00,1.344894886016845703e+00,1.344802498817443848e+00,1.344709992408752441e+00,1.344617486000061035e+00,1.344525218009948730e+00,1.344432711601257324e+00,1.344340443611145020e+00,1.344247937202453613e+00,1.344155669212341309e+00,1.344063282012939453e+00,1.343971014022827148e+00,1.343878626823425293e+00,1.343786358833312988e+00,1.343694090843200684e+00,1.343601822853088379e+00,1.343509554862976074e+00,1.343417286872863770e+00,1.343325018882751465e+00,1.343232870101928711e+00,1.343140602111816406e+00,1.343048453330993652e+00,1.342956185340881348e+00,1.342864036560058594e+00,1.342771887779235840e+00,1.342679619789123535e+00,1.342587590217590332e+00,1.342495441436767578e+00,1.342403292655944824e+00,1.342311143875122070e+00,1.342219114303588867e+00,1.342127084732055664e+00,1.342035055160522461e+00,1.341942906379699707e+00
1.248900890350341797e+00,1.248821258544921875e+00,1.248741507530212402e+00,1.248661875724792480e+00,1.248582124710083008e+00,1.248502492904663086e+00,1.248422861099243164e+00,1.248343229293823242e+00,1.248263478279113770e+00,1.248183965682983398e+00,1.248104214668273926e+00,1.248024702072143555e+00,1.247945070266723633e+00,1.247865557670593262e+00,1.247785925865173340e+00,1.247706294059753418e+00,1.247626781463623047e+00,1.247547149658203125e+00,1.247467637062072754e+00,1.247388124465942383e+00,1.247308611869812012e+00,1.247228980064392090e+00,1.247149586677551270e+00,1.247070074081420898e+00,1.246990561485290527e+00,1.246911048889160156e+00,1.246831655502319336e+00,1.246752142906188965e+00,1.246672749519348145e+00,1.246593236923217773e+00,1.246513962745666504e+00,1.246434450149536133e+00,1.246355056762695312e+00,1.246275663375854492e+00,1.246196269989013672e+00,1.246116876602172852e+00,1.246037483215332031e+00,1.245958209037780762e+00,1.245878815650939941e+00,1.245799541473388672e+00,1.245720148086547852e+00,1.245640873908996582e+00,1.245561599731445312e+00,1.245482325553894043e+00,1.245402932167053223e+00,1.245323777198791504e+00,1.245244503021240234e+00,1.245165228843688965e+00,1.245085954666137695e+00,1.245006799697875977e+00,1.244927525520324707e+00,1.244848251342773438e+00,1.244769096374511719e+00,1.244689822196960449e+00,1.244610786437988281e+00,1.244531512260437012e+00,1.244452476501464844e+00,1.244373202323913574e+00,1.244294166564941406e+00,1.244215011596679688e+00,1.244135856628417969e+00,1.244056701660156250e+00,1.243977665901184082e+00,1.243898510932922363e+00,1.243819475173950195e+00,1.243740439414978027e+00,1.243661403656005859e+00,1.243582248687744141e+00,1.243503212928771973e+00,1.243424177169799805e+00,1.243345141410827637e+00,1.243266224861145020e+00,1.243187189102172852e+00,1.243108272552490234e+00,1.243029236793518066e+00,1.242950320243835449e+00,1.242871284484863281e+00,1.242792367935180664e+00,1.242713451385498047e+00,1.242634534835815430e+00
1.162442445755004883e+00,1.162373304367065430e+00,1.162304282188415527e+00,1.162235260009765625e+00,1.162166237831115723e+00,1.162097096443176270e+00,1.162028193473815918e+00,1.161959171295166016e+00,1.161890149116516113e+00,1.161821126937866211e+00,1.161752223968505859e+00,1.161683201789855957e+00,1.161614179611206055e+00,1.161545276641845703e+00,1.161476254463195801e+00,1.161407351493835449e+00,1.161338329315185547e+00,1.161269426345825195e+00,1.161200523376464844e+00,1.161131620407104492e+00,1.161062717437744141e+00,1.160993814468383789e+00,1.160924911499023438e+00,1.160856008529663086e+00,1.160787105560302734e+00,1.160718321800231934e+00,1.160649418830871582e+00,1.160580635070800781e+00,1.160511732101440430e+00,1.160442948341369629e+00,1.160374045372009277e+00,1.160305261611938477e+00,1.160236477851867676e+00,1.160167574882507324e+00,1.160098791122436523e+00,1.160030007362365723e+00,1.159961342811584473e+00,1.159892439842224121e+00,1.159823775291442871e+00,1.159754991531372070e+00,1.159686207771301270e+00,1.159617543220520020e+00,1.159548759460449219e+00,1.159480094909667969e+00,1.159411430358886719e+00,1.159342646598815918e+00,1.159273982048034668e+00,1.159205198287963867e+00,1.159136652946472168e+00,1.159067869186401367e+00,1.158999204635620117e+00,1.158930540084838867e+00,1.158861875534057617e+00,1.158793330192565918e+00,1.158724665641784668e+00,1.158656001091003418e+00,1.158587336540222168e+00,1.158518791198730469e+00,1.158450245857238770e+00,1.158381700515747070e+00,1.158313035964965820e+00,1.158244490623474121e+00,1.158175945281982422e+00,1.158107399940490723e+00,1.158038854598999023e+00,1.157970309257507324e+00,1.157901763916015625e+00,1.157833218574523926e+00,1.157764673233032227e+00,1.157696127891540527e+00,1.157627701759338379e+00,1.157559156417846680e+00,1.157490730285644531e+00,1.157422184944152832e+00,1.157353758811950684e+00,1.157285332679748535e+00,1.157216906547546387e+00,1.157148480415344238e+00,1.157080054283142090e+00,1.157011508941650391e+00
1.087179422378540039e+00,1.087118983268737793e+00,1.087058544158935547e+00,1.086998224258422852e+00,1.086937785148620605e+00,1.086877465248107910e+00,1.086817026138305664e+00,1.086756706237792969e+00,1.086696267127990723e+00,1.086635947227478027e+00,1.086575627326965332e+00,1.086515307426452637e+00,1.086454868316650391e+00,1.086394667625427246e+00,1.086334228515625000e+00,1.086273908615112305e+00,1.086213707923889160e+00,1.086153268814086914e+00,1.086093068122863770e+00,1.086032748222351074e+00,1.085972547531127930e+00,1.085912227630615234e+00,1.085851907730102539e+00,1.085791707038879395e+00,1.085731387138366699e+00,1.085671186447143555e+00,1.085610985755920410e+00,1.085550665855407715e+00,1.085490465164184570e+00,1.085430264472961426e+00,1.085370063781738281e+00,1.085309863090515137e+00,1.085249543190002441e+00,1.085189461708068848e+00,1.085129261016845703e+00,1.085069060325622559e+00,1.085008859634399414e+00,1.084948778152465820e+00,1.084888577461242676e+00,1.084828376770019531e+00,1.084768295288085938e+00,1.084708094596862793e+00,1.084647893905639648e+00,1.084587812423706055e+00,1.084527730941772461e+00,1.084467649459838867e+00,1.084407448768615723e+00,1.084347367286682129e+00,1.084287285804748535e+00,1.084227204322814941e+00,1.084167122840881348e+00,1.084107041358947754e+00,1.084046959877014160e+00,1.083986878395080566e+00,1.083926916122436523e+00,1.083866834640502930e+00,1.083806753158569336e+00,1.083746671676635742e+00,1.083686709403991699e+00,1.083626627922058105e+00,1.083566665649414062e+00,1.083506703376770020e+00,1.083446741104125977e+00,1.083386659622192383e+00,1.083326697349548340e+00,1.083266735076904297e+00,1.083206772804260254e+00,1.083146810531616211e+00,1.083086729049682617e+00,1.083026885986328125e+00,1.082966804504394531e+00,1.082906961441040039e+00,1.082846999168395996e+00,1.082787036895751953e+00,1.082727074623107910e+00,1.082667231559753418e+00,1.082607269287109375e+00,1.082547426223754883e+00,1.082487463951110840e+00,1.082427620887756348e+00
1.021069645881652832e+00,1.021016359329223633e+00,1.020963072776794434e+00,1.020909786224365234e+00,1.020856499671936035e+00,1.020803213119506836e+00,1.020750045776367188e+00,1.020696759223937988e+00,1.020643591880798340e+00,1.020590305328369141e+00,1.020537018775939941e+00,1.020483851432800293e+00,1.020430564880371094e+00,1.020377397537231445e+00,1.020324110984802246e+00,1.020270943641662598e+00,1.020217657089233398e+00,1.020164489746093750e+00,1.020111322402954102e+00,1.020058155059814453e+00,1.020004987716674805e+00,1.019951820373535156e+00,1.019898653030395508e+00,1.019845485687255859e+00,1.019792318344116211e+00,1.019739151000976562e+00,1.019685983657836914e+00,1.019632935523986816e+00,1.019579768180847168e+00,1.019526600837707520e+00,1.019473433494567871e+00,1.019420385360717773e+00,1.019367218017578125e+00,1.019314169883728027e+00,1.019261002540588379e+00,1.019207954406738281e+00,1.019154906272888184e+00,1.019101738929748535e+00,1.019048690795898438e+00,1.018995642662048340e+00,1.018942594528198242e+00,1.018889427185058594e+00,1.018836379051208496e+00,1.018783330917358398e+00,1.018730282783508301e+00,1.018677234649658203e+00,1.018624305725097656e+00,1.018571257591247559e+00,1.018518209457397461e+00,1.018465161323547363e+00,1.018412113189697266e+00,1.018359184265136719e+00,1.018306136131286621e+00,1.018253087997436523e+00,1.018200159072875977e+00,1.018147110939025879e+00,1.018094182014465332e+00,1.018041253089904785e+00,1.017988204956054688e+00,1.017935276031494141e+00,1.017882347106933594e+00,1.017829418182373047e+00,1.017776370048522949e+00,1.017723441123962402e+00,1.017670512199401855e+00,1.017617583274841309e+00,1.017564654350280762e+00,1.017511725425720215e+00,1.017458796501159668e+00,1.017405867576599121e+00,1.017353057861328125e+00,1.017300128936767578e+00,1.017247200012207031e+00,1.017194271087646484e+00,1.017141461372375488e+00,1.017088532447814941e+00,1.017035722732543945e+00,1.016982793807983398e+00,1.016929984092712402e+00,1.016877055168151855e+00
9.625390768051147461e-01,9.624918103218078613e-01,9.624444842338562012e-01,9.623970985412597656e-01,9.623497128486633301e-01,9.623024463653564453e-01,9.622551202774047852e-01,9.622077345848083496e-01,9.621604084968566895e-01,9.621132016181945801e-01,9.620658159255981445e-01,9.620184898376464844e-01,9.619711637496948242e-01,9.619239568710327148e-01,9.618766307830810547e-01,9.618293642997741699e-01,9.617820382118225098e-01,9.617347121238708496e-01,9.616875648498535156e-01,9.616402387619018555e-01,9.615929722785949707e-01,9.615456461906433105e-01,9.614984989166259766e-01,9.614512324333190918e-01,9.614039659500122070e-01,9.613566994667053223e-01,9.613095521926879883e-01,9.612622857093811035e-01,9.612150192260742188e-01,9.611677527427673340e-01,9.611206650733947754e-01,9.610733985900878906e-01,9.610261917114257812e-01,9.609789252281188965e-01,9.609317183494567871e-01,9.608846306800842285e-01,9.608374238014221191e-01,9.607902169227600098e-01,9.607430100440979004e-01,9.606958627700805664e-01,9.606487154960632324e-01,9.606015086174011230e-01,9.605543017387390137e-01,9.605072140693664551e-01,9.604600667953491211e-01,9.604128599166870117e-01,9.603657126426696777e-01,9.603186845779418945e-01,9.602714776992797852e-01,9.602243304252624512e-01,9.601771831512451172e-01,9.601300358772277832e-01,9.600830078125000000e-01,9.600358605384826660e-01,9.599887132644653320e-01,9.599416255950927734e-01,9.598945975303649902e-01,9.598475098609924316e-01,9.598003625869750977e-01,9.597532749176025391e-01,9.597062468528747559e-01,9.596591591835021973e-01,9.596120715141296387e-01,9.595649838447570801e-01,9.595180153846740723e-01,9.594709277153015137e-01,9.594238400459289551e-01,9.593767523765563965e-01,9.593296647071838379e-01,9.592827558517456055e-01,9.592356681823730469e-01,9.591886401176452637e-01,9.591415524482727051e-01,9.590946435928344727e-01,9.590476155281066895e-01,9.590005874633789062e-01,9.589535593986511230e-01,9.589065909385681152e-01,9.588595628738403320e-01,9.588125944137573242e-01
9.103550910949707031e-01,9.103127121925354004e-01,9.102703332901000977e-01,9.102279543876647949e-01,9.101856946945190430e-01,9.101433157920837402e-01,9.101009368896484375e-01,9.100586175918579102e-01,9.100163578987121582e-01,9.099739789962768555e-01,9.099316596984863281e-01,9.098892807960510254e-01,9.098470807075500488e-01,9.098047614097595215e-01,9.097623825073242188e-01,9.097200632095336914e-01,9.096777439117431641e-01,9.096355438232421875e-01,9.095932245254516602e-01,9.095509052276611328e-01,9.095085859298706055e-01,9.094663858413696289e-01,9.094241261482238770e-01,9.093818068504333496e-01,9.093395471572875977e-01,9.092973470687866211e-01,9.092550277709960938e-01,9.092127680778503418e-01,9.091705083847045898e-01,9.091283082962036133e-01,9.090860486030578613e-01,9.090437889099121094e-01,9.090015292167663574e-01,9.089592695236206055e-01,9.089171290397644043e-01,9.088748693466186523e-01,9.088326692581176758e-01,9.087904095649719238e-01,9.087482690811157227e-01,9.087060093879699707e-01,9.086638092994689941e-01,9.086216092109680176e-01,9.085794687271118164e-01,9.085372686386108398e-01,9.084950685501098633e-01,9.084528088569641113e-01,9.084107279777526855e-01,9.083685278892517090e-01,9.083263278007507324e-01,9.082841277122497559e-01,9.082419276237487793e-01,9.081998467445373535e-01,9.081577062606811523e-01,9.081155061721801758e-01,9.080733656883239746e-01,9.080312848091125488e-01,9.079890847206115723e-01,9.079469442367553711e-01,9.079048037528991699e-01,9.078627228736877441e-01,9.078205823898315430e-01,9.077784419059753418e-01,9.077363014221191406e-01,9.076942801475524902e-01,9.076521396636962891e-01,9.076099991798400879e-01,9.075678586959838867e-01,9.075258374214172363e-01,9.074837565422058105e-01,9.074416160583496094e-01,9.073994755744934082e-01,9.073573946952819824e-01,9.073153734207153320e-01,9.072732925415039062e-01,9.072312116622924805e-01,9.071891307830810547e-01,9.071471095085144043e-01,9.071050286293029785e-01,9.070629477500915527e-01,9.070208668708801270e-01
8.635383248329162598e-01,8.635001778602600098e-01,8.634620308876037598e-01,8.634240031242370605e-01,8.633858561515808105e-01,8.633477687835693359e-01,8.633096218109130859e-01,8.632715940475463867e-01,8.632335066795349121e-01,8.631954193115234375e-01,8.631572723388671875e-01,8.631193041801452637e-01,8.630812168121337891e-01,8.630430698394775391e-01,8.630049824714660645e-01,8.629668951034545898e-01,8.629289269447326660e-01,8.628908395767211914e-01,8.628527522087097168e-01,8.628146648406982422e-01,8.627766966819763184e-01,8.627386689186096191e-01,8.627005815505981445e-01,8.626624941825866699e-01,8.626245260238647461e-01,8.625864982604980469e-01,8.625484704971313477e-01,8.625103831291198730e-01,8.624724745750427246e-01,8.624343872070312500e-01,8.623963594436645508e-01,8.623583316802978516e-01,8.623203039169311523e-01,8.622823953628540039e-01,8.622443675994873047e-01,8.622063398361206055e-01,8.621683120727539062e-01,8.621304035186767578e-01,8.620923757553100586e-01,8.620543479919433594e-01,8.620163798332214355e-01,8.619784712791442871e-01,8.619404435157775879e-01,8.619024753570556641e-01,8.618644475936889648e-01,8.618265986442565918e-01,8.617885708808898926e-01,8.617506027221679688e-01,8.617126345634460449e-01,8.616747260093688965e-01,8.616367578506469727e-01,8.615987896919250488e-01,8.615608811378479004e-01,8.615229129791259766e-01,8.614850044250488281e-01,8.614470958709716797e-01,8.614091277122497559e-01,8.613711595535278320e-01,8.613333106040954590e-01,8.612954020500183105e-01,8.612574338912963867e-01,8.612195253372192383e-01,8.611816763877868652e-01,8.611437678337097168e-01,8.611057996749877930e-01,8.610678911209106445e-01,8.610301017761230469e-01,8.609921932220458984e-01,8.609542846679687500e-01,8.609163761138916016e-01,8.608784675598144531e-01,8.608406186103820801e-01,8.608027696609497070e-01,8.607648611068725586e-01,8.607269525527954102e-01,8.606891632080078125e-01,8.606512546539306641e-01,8.606134057044982910e-01,8.605754971504211426e-01,8.605377674102783203e-01
8.213012814521789551e-01,8.212667703628540039e-01,8.212323784828186035e-01,8.211978673934936523e-01,8.211634159088134766e-01,8.211289048194885254e-01,8.210945129394531250e-01,8.210600614547729492e-01,8.210255503654479980e-01,8.209910988807678223e-01,8.209567070007324219e-01,8.209222555160522461e-01,8.208878040313720703e-01,8.208533525466918945e-01,8.208189010620117188e-01,8.207845091819763184e-01,8.207500576972961426e-01,8.207156062126159668e-01,8.206811547279357910e-01,8.206468224525451660e-01,8.206123709678649902e-01,8.205779194831848145e-01,8.205434679985046387e-01,8.205091357231140137e-01,8.204746842384338379e-01,8.204402923583984375e-01,8.204058408737182617e-01,8.203715085983276367e-01,8.203371167182922363e-01,8.203027248382568359e-01,8.202682733535766602e-01,8.202339410781860352e-01,8.201995491981506348e-01,8.201651573181152344e-01,8.201307654380798340e-01,8.200963735580444336e-01,8.200620412826538086e-01,8.200276494026184082e-01,8.199932575225830078e-01,8.199588656425476074e-01,8.199245929718017578e-01,8.198902010917663574e-01,8.198558092117309570e-01,8.198214769363403320e-01,8.197871446609497070e-01,8.197528123855590820e-01,8.197184205055236816e-01,8.196840882301330566e-01,8.196497559547424316e-01,8.196154236793518066e-01,8.195810914039611816e-01,8.195466995239257812e-01,8.195123672485351562e-01,8.194780945777893066e-01,8.194437623023986816e-01,8.194094300270080566e-01,8.193750977516174316e-01,8.193408250808715820e-01,8.193064928054809570e-01,8.192721605300903320e-01,8.192378282546997070e-01,8.192036151885986328e-01,8.191692829132080078e-01,8.191349506378173828e-01,8.191006779670715332e-01,8.190664649009704590e-01,8.190321326255798340e-01,8.189978003501892090e-01,8.189635276794433594e-01,8.189291954040527344e-01,8.188949823379516602e-01,8.188607096672058105e-01,8.188264369964599609e-01,8.187921047210693359e-01,8.187579512596130371e-01,8.187236189842224121e-01,8.186893463134765625e-01,8.186550736427307129e-01,8.186209201812744141e-01,8.185866475105285645e-01
7.830033898353576660e-01,7.829720973968505859e-01,7.829407453536987305e-01,7.829093933105468750e-01,7.828780412673950195e-01,7.828468084335327148e-01,7.828154563903808594e-01,7.827841043472290039e-01,7.827527523040771484e-01,7.827215194702148438e-01,7.826901674270629883e-01,7.826588749885559082e-01,7.826275229454040527e-01,7.825962901115417480e-01,7.825649380683898926e-01,7.825336456298828125e-01,7.825023531913757324e-01,7.824710011482238770e-01,7.824397683143615723e-01,7.824084758758544922e-01,7.823771834373474121e-01,7.823458909988403320e-01,7.823146581649780273e-01,7.822833657264709473e-01,7.822520136833190918e-01,7.822207212448120117e-01,7.821895480155944824e-01,7.821582555770874023e-01,7.821269631385803223e-01,7.820956707000732422e-01,7.820644378662109375e-01,7.820332050323486328e-01,7.820019125938415527e-01,7.819706201553344727e-01,7.819393873214721680e-01,7.819081544876098633e-01,7.818769216537475586e-01,7.818456292152404785e-01,7.818143963813781738e-01,7.817832231521606445e-01,7.817519307136535645e-01,7.817206978797912598e-01,7.816894650459289551e-01,7.816582918167114258e-01,7.816269993782043457e-01,7.815957665443420410e-01,7.815645337104797363e-01,7.815333604812622070e-01,7.815021276473999023e-01,7.814708948135375977e-01,7.814396619796752930e-01,7.814084291458129883e-01,7.813773155212402344e-01,7.813460826873779297e-01,7.813148498535156250e-01,7.812836170196533203e-01,7.812525033950805664e-01,7.812212705612182617e-01,7.811900377273559570e-01,7.811588644981384277e-01,7.811276912689208984e-01,7.810965180397033691e-01,7.810653448104858398e-01,7.810341119766235352e-01,7.810029983520507812e-01,7.809718251228332520e-01,7.809405922889709473e-01,7.809094190597534180e-01,7.808782458305358887e-01,7.808471322059631348e-01,7.808159589767456055e-01,7.807847857475280762e-01,7.807536125183105469e-01,7.807224988937377930e-01,7.806913256645202637e-01,7.806601524353027344e-01,7.806289792060852051e-01,7.805979251861572266e-01,7.805667519569396973e-01,7.805355787277221680e-01
7.481181025505065918e-01,7.480894923210144043e-01,7.480608820915222168e-01,7.480322718620300293e-01,7.480037212371826172e-01,7.479751110076904297e-01,7.479465007781982422e-01,7.479178905487060547e-01,7.478893399238586426e-01,7.478607296943664551e-01,7.478321194648742676e-01,7.478035688400268555e-01,7.477750182151794434e-01,7.477464079856872559e-01,7.477177977561950684e-01,7.476892471313476562e-01,7.476606369018554688e-01,7.476321458816528320e-01,7.476035356521606445e-01,7.475749850273132324e-01,7.475463747978210449e-01,7.475178837776184082e-01,7.474892735481262207e-01,7.474607229232788086e-01,7.474321722984313965e-01,7.474036216735839844e-01,7.473750710487365723e-01,7.473465204238891602e-01,7.473179697990417480e-01,7.472894787788391113e-01,7.472608685493469238e-01,7.472323179244995117e-01,7.472037672996520996e-01,7.471752166748046875e-01,7.471467256546020508e-01,7.471181750297546387e-01,7.470896840095520020e-01,7.470611333847045898e-01,7.470326423645019531e-01,7.470040917396545410e-01,7.469755411148071289e-01,7.469470500946044922e-01,7.469185590744018555e-01,7.468900084495544434e-01,7.468615174293518066e-01,7.468329668045043945e-01,7.468045353889465332e-01,7.467759847640991211e-01,7.467474937438964844e-01,7.467189431190490723e-01,7.466904520988464355e-01,7.466620206832885742e-01,7.466334700584411621e-01,7.466049790382385254e-01,7.465764880180358887e-01,7.465480566024780273e-01,7.465195655822753906e-01,7.464910149574279785e-01,7.464625239372253418e-01,7.464340925216674805e-01,7.464056015014648438e-01,7.463771104812622070e-01,7.463486194610595703e-01,7.463202476501464844e-01,7.462917566299438477e-01,7.462632656097412109e-01,7.462347745895385742e-01,7.462063431739807129e-01,7.461779117584228516e-01,7.461494207382202148e-01,7.461209297180175781e-01,7.460924983024597168e-01,7.460640668869018555e-01,7.460356354713439941e-01,7.460071444511413574e-01,7.459787130355834961e-01,7.459502816200256348e-01,7.459218502044677734e-01,7.458933591842651367e-01,7.458649277687072754e-01
7.162086963653564453e-01,7.161824703216552734e-01,7.161562442779541016e-01,7.161300778388977051e-01,7.161038517951965332e-01,7.160776257514953613e-01,7.160513997077941895e-01,7.160252332687377930e-01,7.159990072250366211e-01,7.159727811813354492e-01,7.159466147422790527e-01,7.159204483032226562e-01,7.158942222595214844e-01,7.158679962158203125e-01,7.158418297767639160e-01,7.158156037330627441e-01,7.157894968986511230e-01,7.157632708549499512e-01,7.157370448112487793e-01,7.157108783721923828e-01,7.156847119331359863e-01,7.156585454940795898e-01,7.156323790550231934e-01,7.156061530113220215e-01,7.155800461769104004e-01,7.155538201332092285e-01,7.155276536941528320e-01,7.155014872550964355e-01,7.154753804206848145e-01,7.154492139816284180e-01,7.154229879379272461e-01,7.153968214988708496e-01,7.153706550598144531e-01,7.153445482254028320e-01,7.153183817863464355e-01,7.152922153472900391e-01,7.152660489082336426e-01,7.152399420738220215e-01,7.152137756347656250e-01,7.151876091957092285e-01,7.151615023612976074e-01,7.151353955268859863e-01,7.151092290878295898e-01,7.150830626487731934e-01,7.150569558143615723e-01,7.150308489799499512e-01,7.150046825408935547e-01,7.149785757064819336e-01,7.149524092674255371e-01,7.149263620376586914e-01,7.149001955986022949e-01,7.148740887641906738e-01,7.148479223251342773e-01,7.148218154907226562e-01,7.147957086563110352e-01,7.147696018218994141e-01,7.147434949874877930e-01,7.147173285484313965e-01,7.146912813186645508e-01,7.146651744842529297e-01,7.146390676498413086e-01,7.146129012107849121e-01,7.145868539810180664e-01,7.145607471466064453e-01,7.145346403121948242e-01,7.145085334777832031e-01,7.144824862480163574e-01,7.144563794136047363e-01,7.144302725791931152e-01,7.144041657447814941e-01,7.143780589103698730e-01,7.143520712852478027e-01,7.143259644508361816e-01,7.142998576164245605e-01,7.142737507820129395e-01,7.142477035522460938e-01,7.142216563224792480e-01,7.141955494880676270e-01,7.141694426536560059e-01,7.141434550285339355e-01
6.869099736213684082e-01,6.868858933448791504e-01,6.868618130683898926e-01,6.868376731872558594e-01,6.868135333061218262e-01,6.867894530296325684e-01,6.867653727531433105e-01,6.867412328720092773e-01,6.867171525955200195e-01,6.866930127143859863e-01,6.866689324378967285e-01,6.866448521614074707e-01,6.866207122802734375e-01,6.865966320037841797e-01,6.865724921226501465e-01,6.865484714508056641e-01,6.865243315696716309e-01,6.865002512931823730e-01,6.864761710166931152e-01,6.864520907402038574e-01,6.864280104637145996e-01,6.864039301872253418e-01,6.863797903060913086e-01,6.863557696342468262e-01,6.863316893577575684e-01,6.863076090812683105e-01,6.862835288047790527e-01,6.862595081329345703e-01,6.862354278564453125e-01,6.862113475799560547e-01,6.861872673034667969e-01,6.861631870269775391e-01,6.861391663551330566e-01,6.861150860786437988e-01,6.860910058021545410e-01,6.860669255256652832e-01,6.860429048538208008e-01,6.860188245773315430e-01,6.859947443008422852e-01,6.859707236289978027e-01,6.859467029571533203e-01,6.859226226806640625e-01,6.858985424041748047e-01,6.858745217323303223e-01,6.858505010604858398e-01,6.858264803886413574e-01,6.858024001121520996e-01,6.857783198356628418e-01,6.857543587684631348e-01,6.857302784919738770e-01,6.857062578201293945e-01,6.856822371482849121e-01,6.856581568717956543e-01,6.856341958045959473e-01,6.856101155281066895e-01,6.855860948562622070e-01,6.855620741844177246e-01,6.855381131172180176e-01,6.855140328407287598e-01,6.854900121688842773e-01,6.854659914970397949e-01,6.854420304298400879e-01,6.854180097579956055e-01,6.853939890861511230e-01,6.853699684143066406e-01,6.853460073471069336e-01,6.853219866752624512e-01,6.852979660034179688e-01,6.852739453315734863e-01,6.852499246597290039e-01,6.852259635925292969e-01,6.852019429206848145e-01,6.851779222488403320e-01,6.851539015769958496e-01,6.851300001144409180e-01,6.851059794425964355e-01,6.850819587707519531e-01,6.850579380989074707e-01,6.850340366363525391e-01,6.850100159645080566e-01
6.599141955375671387e-01,6.598919630050659180e-01,6.598697304725646973e-01,6.598474383354187012e-01,6.598251461982727051e-01,6.598029732704162598e-01,6.597806811332702637e-01,6.597584486007690430e-01,6.597361564636230469e-01,6.597139835357666016e-01,6.596916913986206055e-01,6.596694588661193848e-01,6.596472263336181641e-01,6.596249938011169434e-01,6.596027612686157227e-01,6.595805287361145020e-01,6.595582365989685059e-01,6.595360040664672852e-01,6.595138311386108398e-01,6.594915986061096191e-01,6.594693660736083984e-01,6.594470739364624023e-01,6.594249010086059570e-01,6.594026684761047363e-01,6.593804359436035156e-01,6.593582034111022949e-01,6.593360304832458496e-01,6.593137979507446289e-01,6.592915654182434082e-01,6.592693328857421875e-01,6.592471599578857422e-01,6.592249274253845215e-01,6.592026948928833008e-01,6.591804623603820801e-01,6.591582894325256348e-01,6.591361165046691895e-01,6.591138839721679688e-01,6.590916514396667480e-01,6.590694785118103027e-01,6.590473055839538574e-01,6.590250730514526367e-01,6.590028405189514160e-01,6.589806675910949707e-01,6.589584946632385254e-01,6.589363217353820801e-01,6.589140892028808594e-01,6.588919162750244141e-01,6.588697433471679688e-01,6.588475108146667480e-01,6.588253378868103027e-01,6.588031649589538574e-01,6.587809324264526367e-01,6.587588191032409668e-01,6.587365865707397461e-01,6.587144136428833008e-01,6.586922407150268555e-01,6.586700677871704102e-01,6.586478948593139648e-01,6.586257219314575195e-01,6.586035490036010742e-01,6.585814356803894043e-01,6.585592031478881836e-01,6.585370302200317383e-01,6.585148572921752930e-01,6.584927439689636230e-01,6.584705710411071777e-01,6.584483981132507324e-01,6.584262251853942871e-01,6.584040522575378418e-01,6.583819389343261719e-01,6.583597660064697266e-01,6.583375930786132812e-01,6.583154201507568359e-01,6.582933068275451660e-01,6.582711935043334961e-01,6.582490205764770508e-01,6.582268476486206055e-01,6.582047343254089355e-01,6.581825613975524902e-01,6.581604480743408203e-01
6.349600553512573242e-01,6.349394321441650391e-01,6.349188089370727539e-01,6.348982453346252441e-01,6.348776817321777344e-01,6.348570585250854492e-01,6.348364353179931641e-01,6.348158121109008789e-01,6.347952485084533691e-01,6.347746253013610840e-01,6.347540616989135742e-01,6.347334384918212891e-01,6.347128748893737793e-01,6.346923112869262695e-01,6.346716880798339844e-01,6.346510648727416992e-01,6.346305012702941895e-01,6.346099376678466797e-01,6.345893144607543945e-01,6.345687508583068848e-01,6.345481276512145996e-01,6.345276236534118652e-01,6.345070004463195801e-01,6.344864368438720703e-01,6.344658732414245605e-01,6.344453096389770508e-01,6.344247460365295410e-01,6.344041228294372559e-01,6.343835592269897461e-01,6.343630552291870117e-01,6.343424320220947266e-01,6.343218684196472168e-01,6.343013048171997070e-01,6.342807412147521973e-01,6.342601776123046875e-01,6.342396140098571777e-01,6.342190504074096680e-01,6.341984868049621582e-01,6.341779828071594238e-01,6.341574192047119141e-01,6.341368556022644043e-01,6.341162919998168945e-01,6.340957283973693848e-01,6.340751647949218750e-01,6.340546011924743652e-01,6.340340375900268555e-01,6.340135335922241211e-01,6.339930295944213867e-01,6.339724659919738770e-01,6.339519023895263672e-01,6.339313387870788574e-01,6.339108347892761230e-01,6.338902711868286133e-01,6.338697671890258789e-01,6.338492035865783691e-01,6.338286995887756348e-01,6.338081359863281250e-01,6.337876319885253906e-01,6.337670683860778809e-01,6.337465643882751465e-01,6.337260603904724121e-01,6.337054967880249023e-01,6.336849331855773926e-01,6.336644887924194336e-01,6.336439251899719238e-01,6.336234211921691895e-01,6.336028575897216797e-01,6.335823535919189453e-01,6.335618495941162109e-01,6.335413455963134766e-01,6.335207819938659668e-01,6.335002779960632324e-01,6.334797739982604980e-01,6.334592700004577637e-01,6.334387660026550293e-01,6.334182620048522949e-01,6.333977580070495605e-01,6.333772540092468262e-01,6.333567500114440918e-01,6.333362460136413574e-01
6.118243932723999023e-01,6.118052601814270020e-01,6.117861270904541016e-01,6.117670536041259766e-01,6.117478609085083008e-01,6.117287278175354004e-01,6.117095947265625000e-01,6.116905212402343750e-01,6.116713881492614746e-01,6.116522550582885742e-01,6.116331219673156738e-01,6.116140484809875488e-01,6.115949153900146484e-01,6.115757822990417480e-01,6.115566492080688477e-01,6.115375161170959473e-01,6.115184426307678223e-01,6.114993095397949219e-01,6.114801764488220215e-01,6.114611029624938965e-01,6.114420294761657715e-01,6.114228963851928711e-01,6.114037632942199707e-01,6.113846302032470703e-01,6.113655567169189453e-01,6.113464832305908203e-01,6.113273501396179199e-01,6.113082170486450195e-01,6.112891435623168945e-01,6.112700700759887695e-01,6.112509369850158691e-01,6.112318634986877441e-01,6.112127304077148438e-01,6.111936569213867188e-01,6.111745834350585938e-01,6.111554503440856934e-01,6.111363768577575684e-01,6.111173033714294434e-01,6.110982298851013184e-01,6.110790967941284180e-01,6.110600233078002930e-01,6.110409498214721680e-01,6.110218763351440430e-01,6.110028028488159180e-01,6.109836697578430176e-01,6.109646558761596680e-01,6.109455823898315430e-01,6.109264492988586426e-01,6.109073758125305176e-01,6.108883619308471680e-01,6.108692288398742676e-01,6.108501553535461426e-01,6.108310818672180176e-01,6.108120083808898926e-01,6.107929944992065430e-01,6.107739210128784180e-01,6.107548475265502930e-01,6.107357144355773926e-01,6.107167005538940430e-01,6.106976270675659180e-01,6.106785535812377930e-01,6.106594800949096680e-01,6.106404662132263184e-01,6.106213927268981934e-01,6.106023192405700684e-01,6.105832457542419434e-01,6.105642318725585938e-01,6.105451583862304688e-01,6.105261445045471191e-01,6.105070710182189941e-01,6.104879975318908691e-01,6.104689836502075195e-01,6.104499101638793945e-01,6.104308366775512695e-01,6.104118227958679199e-01,6.103928089141845703e-01,6.103737354278564453e-01,6.103546619415283203e-01,6.103356480598449707e-01,6.103166341781616211e-01
5.903154015541076660e-01,5.902975797653198242e-01,5.902798175811767578e-01,5.902619957923889160e-01,5.902441740036010742e-01,5.902263522148132324e-01,5.902085900306701660e-01,5.901907682418823242e-01,5.901729464530944824e-01,5.901551246643066406e-01,5.901373624801635742e-01,5.901195406913757324e-01,5.901017785072326660e-01,5.900839567184448242e-01,5.900661349296569824e-01,5.900483727455139160e-01,5.900305509567260742e-01,5.900127887725830078e-01,5.899949669837951660e-01,5.899772047996520996e-01,5.899593830108642578e-01,5.899416208267211914e-01,5.899237990379333496e-01,5.899060368537902832e-01,5.898882746696472168e-01,5.898704528808593750e-01,5.898526906967163086e-01,5.898349285125732422e-01,5.898171663284301758e-01,5.897993445396423340e-01,5.897815823554992676e-01,5.897638201713562012e-01,5.897460579872131348e-01,5.897282361984252930e-01,5.897104740142822266e-01,5.896926522254943848e-01,5.896749496459960938e-01,5.896571278572082520e-01,5.896393656730651855e-01,5.896216034889221191e-01,5.896038413047790527e-01,5.895860791206359863e-01,5.895683169364929199e-01,5.895504951477050781e-01,5.895327925682067871e-01,5.895150303840637207e-01,5.894972681999206543e-01,5.894794464111328125e-01,5.894617438316345215e-01,5.894439816474914551e-01,5.894262194633483887e-01,5.894084572792053223e-01,5.893906950950622559e-01,5.893729329109191895e-01,5.893551707267761230e-01,5.893374085426330566e-01,5.893196463584899902e-01,5.893019437789916992e-01,5.892841815948486328e-01,5.892664194107055664e-01,5.892486572265625000e-01,5.892309546470642090e-01,5.892131924629211426e-01,5.891954302787780762e-01,5.891776680946350098e-01,5.891599655151367188e-01,5.891422033309936523e-01,5.891245007514953613e-01,5.891067385673522949e-01,5.890889763832092285e-01,5.890712738037109375e-01,5.890535116195678711e-01,5.890358090400695801e-01,5.890180468559265137e-01,5.890003442764282227e-01,5.889825820922851562e-01,5.889648795127868652e-01,5.889471173286437988e-01,5.889294147491455078e-01,5.889117121696472168e-01
