5.000000000000000000e+00,5.000000000000000000e+00,5.000000000000000000e+00,5.000000000000000000e+00,5.000000000000000000e+00,5.000000000000000000e+00,5.000000000000000000e+00,5.000000000000000000e+00,5.000000000000000000e+00,5.000000000000000000e+00,5.000000000000000000e+00,5.000000000000000000e+00,5.000000000000000000e+00,5.000000000000000000e+00,5.000000000000000000e+00,5.000000000000000000e+00,5.000000000000000000e+00,5.000000000000000000e+00,5.000000000000000000e+00,5.000000000000000000e+00,5.000000000000000000e+00,5.000000000000000000e+00,5.000000000000000000e+00,5.000000000000000000e+00,5.000000000000000000e+00,5.000000000000000000e+00,5.000000000000000000e+00,5.000000000000000000e+00,5.000000000000000000e+00,5.000000000000000000e+00,5.000000000000000000e+00,5.000000000000000000e+00,5.000000000000000000e+00,1.873739719390869141e+00,1.853366255760192871e+00,1.855425953865051270e+00,1.783420324325561523e+00,1.753523111343383789e+00,1.742047071456909180e+00,1.742662429809570312e+00,1.755657553672790527e+00,1.760637879371643066e+00,1.769054889678955078e+00,1.797373890876770020e+00,4.038109302520751953e+00,1.902145624160766602e+00,1.882314443588256836e+00,1.883607029914855957e+00,3.555210828781127930e+00,3.452008724212646484e+00,3.354628562927246094e+00,3.262592077255249023e+00,3.175471067428588867e+00,3.092881679534912109e+00,3.014479637145996094e+00,2.939954042434692383e+00,2.869024515151977539e+00,2.801436662673950195e+00,2.736960172653198242e+00,2.675384759902954102e+00,2.616519212722778320e+00,2.560187816619873047e+00,2.506231307983398438e+00,2.454501867294311523e+00,2.404864788055419922e+00,2.357195615768432617e+00,2.311379194259643555e+00,2.267310142517089844e+00,2.224889993667602539e+00,2.184028148651123047e+00,2.144639730453491211e+00,2.106647491455078125e+00,2.069977283477783203e+00,2.034562349319458008e+00,2.000338554382324219e+00,1.967247366905212402e+00,1.935232639312744141e+00,1.904243707656860352e+00,1.874231457710266113e+00,1.845150589942932129e+00
5.000000000000000000e+00,5.000000000000000000e+00,5.000000000000000000e+00,5.000000000000000000e+00,5.000000000000000000e+00,5.000000000000000000e+00,5.000000000000000000e+00,5.000000000000000000e+00,5.000000000000000000e+00,5.000000000000000000e+00,5.000000000000000000e+00,5.000000000000000000e+00,5.000000000000000000e+00,5.000000000000000000e+00,5.000000000000000000e+00,5.000000000000000000e+00,5.000000000000000000e+00,5.000000000000000000e+00,5.000000000000000000e+00,5.000000000000000000e+00,5.000000000000000000e+00,5.000000000000000000e+00,5.000000000000000000e+00,5.000000000000000000e+00,5.000000000000000000e+00,5.000000000000000000e+00,5.000000000000000000e+00,5.000000000000000000e+00,5.000000000000000000e+00,5.000000000000000000e+00,5.000000000000000000e+00,5.000000000000000000e+00,5.000000000000000000e+00,1.884368777275085449e+00,1.861052393913269043e+00,1.832234621047973633e+00,1.777864813804626465e+00,1.750899910926818848e+00,1.738855242729187012e+00,1.740567922592163086e+00,1.746649265289306641e+00,1.753287196159362793e+00,1.764710187911987305e+00,1.785236716270446777e+00,4.038206100463867188e+00,1.938091397285461426e+00,1.892350673675537109e+00,1.890650272369384766e+00,1.914052009582519531e+00,3.452079296112060547e+00,3.354695320129394531e+00,3.262655496597290039e+00,3.175530910491943359e+00,3.092938661575317383e+00,3.014533519744873047e+00,2.940005540847778320e+00,2.869073390960693359e+00,2.801483392715454102e+00,2.737004756927490234e+00,2.675427198410034180e+00,2.616559743881225586e+00,2.560226678848266602e+00,2.506268501281738281e+00,2.454537630081176758e+00,2.404899120330810547e+00,2.357228517532348633e+00,2.311410903930664062e+00,2.267340660095214844e+00,2.224919319152832031e+00,2.184056282043457031e+00,2.144667148590087891e+00,2.106673717498779297e+00,2.070002794265747070e+00,2.034586906433105469e+00,2.000362396240234375e+00,1.967270135879516602e+00,1.935254931449890137e+00,1.904265284538269043e+00,1.874252200126647949e+00,1.845170736312866211e+00
5.000000000000000000e+00,5.000000000000000000e+00,5.000000000000000000e+00,5.000000000000000000e+00,5.000000000000000000e+00,5.000000000000000000e+00,5.000000000000000000e+00,5.000000000000000000e+00,5.000000000000000000e+00,5.000000000000000000e+00,5.000000000000000000e+00,5.000000000000000000e+00,5.000000000000000000e+00,5.000000000000000000e+00,5.000000000000000000e+00,5.000000000000000000e+00,5.000000000000000000e+00,5.000000000000000000e+00,5.000000000000000000e+00,5.000000000000000000e+00,5.000000000000000000e+00,5.000000000000000000e+00,5.000000000000000000e+00,5.000000000000000000e+00,5.000000000000000000e+00,5.000000000000000000e+00,5.000000000000000000e+00,5.000000000000000000e+00,5.000000000000000000e+00,5.000000000000000000e+00,5.000000000000000000e+00,5.000000000000000000e+00,5.000000000000000000e+00,1.895119309425354004e+00,1.871479630470275879e+00,1.822305679321289062e+00,1.778527498245239258e+00,1.756783485412597656e+00,1.758334159851074219e+00,1.753580689430236816e+00,1.751957893371582031e+00,1.760176777839660645e+00,1.778868198394775391e+00,1.808679699897766113e+00,4.038302898406982422e+00,3.905671358108520508e+00,1.890283823013305664e+00,1.868670463562011719e+00,1.864174008369445801e+00,3.452150106430053711e+00,3.354762554168701172e+00,3.262718677520751953e+00,3.175590753555297852e+00,3.092995405197143555e+00,3.014587402343750000e+00,2.940056800842285156e+00,2.869122028350830078e+00,2.801530122756958008e+00,2.737049102783203125e+00,2.675469875335693359e+00,2.616600275039672852e+00,2.560265779495239258e+00,2.506305932998657227e+00,2.454573392868041992e+00,2.404933452606201172e+00,2.357261657714843750e+00,2.311442613601684570e+00,2.267371177673339844e+00,2.224948644638061523e+00,2.184084653854370117e+00,2.144694566726684570e+00,2.106699943542480469e+00,2.070028305053710938e+00,2.034611463546752930e+00,2.000386238098144531e+00,1.967293262481689453e+00,1.935277342796325684e+00,1.904286742210388184e+00,1.874273061752319336e+00,1.845191001892089844e+00
5.000000000000000000e+00,5.000000000000000000e+00,5.000000000000000000e+00,5.000000000000000000e+00,5.000000000000000000e+00,5.000000000000000000e+00,5.000000000000000000e+00,5.000000000000000000e+00,5.000000000000000000e+00,5.000000000000000000e+00,5.000000000000000000e+00,5.000000000000000000e+00,5.000000000000000000e+00,5.000000000000000000e+00,5.000000000000000000e+00,5.000000000000000000e+00,5.000000000000000000e+00,5.000000000000000000e+00,5.000000000000000000e+00,5.000000000000000000e+00,5.000000000000000000e+00,5.000000000000000000e+00,5.000000000000000000e+00,5.000000000000000000e+00,5.000000000000000000e+00,5.000000000000000000e+00,5.000000000000000000e+00,5.000000000000000000e+00,5.000000000000000000e+00,5.000000000000000000e+00,5.000000000000000000e+00,5.000000000000000000e+00,5.000000000000000000e+00,1.904291391372680664e+00,1.878636240959167480e+00,1.824588418006896973e+00,1.780830025672912598e+00,1.768450498580932617e+00,1.754566550254821777e+00,1.755197763442993164e+00,1.754199743270874023e+00,1.761044144630432129e+00,1.775442719459533691e+00,1.796852231025695801e+00,1.879765152931213379e+00,3.905761957168579102e+00,1.877434253692626953e+00,1.850228190422058105e+00,1.846008062362670898e+00,3.452220678329467773e+00,3.354829311370849609e+00,3.262781858444213867e+00,3.175650835037231445e+00,3.093052148818969727e+00,3.014641523361206055e+00,2.940108060836791992e+00,2.869171142578125000e+00,2.801576614379882812e+00,2.737093687057495117e+00,2.675512313842773438e+00,2.616641044616699219e+00,2.560304641723632812e+00,2.506343126296997070e+00,2.454609155654907227e+00,2.404967784881591797e+00,2.357294559478759766e+00,2.311474323272705078e+00,2.267401695251464844e+00,2.224978208541870117e+00,2.184113025665283203e+00,2.144721746444702148e+00,2.106726408004760742e+00,2.070053577423095703e+00,2.034636020660400391e+00,2.000409841537475586e+00,1.967316269874572754e+00,1.935299396514892578e+00,1.904308319091796875e+00,1.874294042587280273e+00,1.845211029052734375e+00
5.000000000000000000e+00,5.000000000000000000e+00,5.000000000000000000e+00,5.000000000000000000e+00,5.000000000000000000e+00,5.000000000000000000e+00,5.000000000000000000e+00,5.000000000000000000e+00,5.000000000000000000e+00,5.000000000000000000e+00,5.000000000000000000e+00,5.000000000000000000e+00,5.000000000000000000e+00,5.000000000000000000e+00,5.000000000000000000e+00,5.000000000000000000e+00,5.000000000000000000e+00,5.000000000000000000e+00,5.000000000000000000e+00,5.000000000000000000e+00,5.000000000000000000e+00,5.000000000000000000e+00,5.000000000000000000e+00,5.000000000000000000e+00,5.000000000000000000e+00,5.000000000000000000e+00,5.000000000000000000e+00,5.000000000000000000e+00,5.000000000000000000e+00,5.000000000000000000e+00,5.000000000000000000e+00,5.000000000000000000e+00,5.000000000000000000e+00,1.894733309745788574e+00,1.865169644355773926e+00,1.840418815612792969e+00,1.787587642669677734e+00,1.774283289909362793e+00,1.763257026672363281e+00,1.762270212173461914e+00,1.761284589767456055e+00,1.765851736068725586e+00,1.778242111206054688e+00,1.795446634292602539e+00,1.829985499382019043e+00,3.905852794647216797e+00,1.886865973472595215e+00,1.844223856925964355e+00,1.826591134071350098e+00,1.850018978118896484e+00,3.354896068572998047e+00,3.262845277786254883e+00,3.175710678100585938e+00,3.093108892440795898e+00,3.014695405960083008e+00,2.940159320831298828e+00,2.869220018386840820e+00,2.801623106002807617e+00,2.737138032913208008e+00,2.675554752349853516e+00,2.616681814193725586e+00,2.560343503952026367e+00,2.506380558013916016e+00,2.454644918441772461e+00,2.405002117156982422e+00,2.357327461242675781e+00,2.311506271362304688e+00,2.267432212829589844e+00,2.225007534027099609e+00,2.184141397476196289e+00,2.144749164581298828e+00,2.106752872467041016e+00,2.070079088211059570e+00,2.034660577774047852e+00,2.000433683395385742e+00,1.967339158058166504e+00,1.935321688652038574e+00,1.904329895973205566e+00,1.874314785003662109e+00,1.845231413841247559e+00
5.000000000000000000e+00,5.000000000000000000e+00,5.000000000000000000e+00,5.000000000000000000e+00,5.000000000000000000e+00,5.000000000000000000e+00,5.000000000000000000e+00,5.000000000000000000e+00,5.000000000000000000e+00,5.000000000000000000e+00,5.000000000000000000e+00,5.000000000000000000e+00,5.000000000000000000e+00,5.000000000000000000e+00,5.000000000000000000e+00,5.000000000000000000e+00,5.000000000000000000e+00,5.000000000000000000e+00,5.000000000000000000e+00,5.000000000000000000e+00,5.000000000000000000e+00,5.000000000000000000e+00,5.000000000000000000e+00,5.000000000000000000e+00,5.000000000000000000e+00,5.000000000000000000e+00,5.000000000000000000e+00,5.000000000000000000e+00,5.000000000000000000e+00,5.000000000000000000e+00,5.000000000000000000e+00,5.000000000000000000e+00,5.000000000000000000e+00,1.880393147468566895e+00,1.854753732681274414e+00,1.836752772331237793e+00,1.750919818878173828e+00,1.728289484977722168e+00,1.741194963455200195e+00,1.777608036994934082e+00,1.776299595832824707e+00,1.784046173095703125e+00,1.791671395301818848e+00,1.798090457916259766e+00,1.827529788017272949e+00,3.905943393707275391e+00,3.781729698181152344e+00,1.840852022171020508e+00,1.808208107948303223e+00,1.800547122955322266e+00,3.354962825775146484e+00,3.262908458709716797e+00,3.175770521163940430e+00,3.093165874481201172e+00,3.014749288558959961e+00,2.940210819244384766e+00,2.869268894195556641e+00,2.801669836044311523e+00,2.737182617187500000e+00,2.675597429275512695e+00,2.616722345352172852e+00,2.560382366180419922e+00,2.506417751312255859e+00,2.454680681228637695e+00,2.405036449432373047e+00,2.357360363006591797e+00,2.311537981033325195e+00,2.267462730407714844e+00,2.225036859512329102e+00,2.184169530868530273e+00,2.144776582717895508e+00,2.106779098510742188e+00,2.070104598999023438e+00,2.034685134887695312e+00,2.000457525253295898e+00,1.967362165451049805e+00,1.935344099998474121e+00,1.904351353645324707e+00,1.874335765838623047e+00,1.845251679420471191e+00
5.000000000000000000e+00,5.000000000000000000e+00,5.000000000000000000e+00,5.000000000000000000e+00,5.000000000000000000e+00,5.000000000000000000e+00,5.000000000000000000e+00,5.000000000000000000e+00,5.000000000000000000e+00,5.000000000000000000e+00,5.000000000000000000e+00,5.000000000000000000e+00,5.000000000000000000e+00,5.000000000000000000e+00,5.000000000000000000e+00,5.000000000000000000e+00,5.000000000000000000e+00,5.000000000000000000e+00,5.000000000000000000e+00,5.000000000000000000e+00,5.000000000000000000e+00,5.000000000000000000e+00,5.000000000000000000e+00,5.000000000000000000e+00,5.000000000000000000e+00,5.000000000000000000e+00,5.000000000000000000e+00,5.000000000000000000e+00,5.000000000000000000e+00,5.000000000000000000e+00,5.000000000000000000e+00,5.000000000000000000e+00,5.000000000000000000e+00,1.873809099197387695e+00,1.846886038780212402e+00,1.814102649688720703e+00,1.713659882545471191e+00,1.696921944618225098e+00,1.682430028915405273e+00,1.711494326591491699e+00,1.793899416923522949e+00,1.802619218826293945e+00,1.802574157714843750e+00,1.796363115310668945e+00,1.825265049934387207e+00,3.906033754348754883e+00,3.781814813613891602e+00,1.871686935424804688e+00,1.807828068733215332e+00,1.797073721885681152e+00,3.355029821395874023e+00,3.262971639633178711e+00,3.175830602645874023e+00,3.093222618103027344e+00,3.014803171157836914e+00,2.940262079238891602e+00,2.869317770004272461e+00,2.801716566085815430e+00,2.737226963043212891e+00,2.675639867782592773e+00,2.616762876510620117e+00,2.560421466827392578e+00,2.506454944610595703e+00,2.454716682434082031e+00,2.405070781707763672e+00,2.357393503189086914e+00,2.311569690704345703e+00,2.267493247985839844e+00,2.225066423416137695e+00,2.184198141098022461e+00,2.144803762435913086e+00,2.106805562973022461e+00,2.070130109786987305e+00,2.034709692001342773e+00,2.000481128692626953e+00,1.967385053634643555e+00,1.935366153717041016e+00,1.904372930526733398e+00,1.874356627464294434e+00,1.845271825790405273e+00
5.000000000000000000e+00,5.000000000000000000e+00,5.000000000000000000e+00,5.000000000000000000e+00,5.000000000000000000e+00,5.000000000000000000e+00,5.000000000000000000e+00,5.000000000000000000e+00,5.000000000000000000e+00,5.000000000000000000e+00,5.000000000000000000e+00,5.000000000000000000e+00,5.000000000000000000e+00,5.000000000000000000e+00,5.000000000000000000e+00,5.000000000000000000e+00,5.000000000000000000e+00,5.000000000000000000e+00,5.000000000000000000e+00,5.000000000000000000e+00,5.000000000000000000e+00,5.000000000000000000e+00,5.000000000000000000e+00,5.000000000000000000e+00,5.000000000000000000e+00,5.000000000000000000e+00,5.000000000000000000e+00,5.000000000000000000e+00,5.000000000000000000e+00,5.000000000000000000e+00,5.000000000000000000e+00,5.000000000000000000e+00,5.000000000000000000e+00,1.867328405380249023e+00,1.833999633789062500e+00,1.757747173309326172e+00,1.695702433586120605e+00,1.680141448974609375e+00,1.664863348007202148e+00,1.688939571380615234e+00,1.730781078338623047e+00,1.807080268859863281e+00,1.800299286842346191e+00,1.792729258537292480e+00,1.821099400520324707e+00,3.906124830245971680e+00,3.781899690628051758e+00,3.665332317352294922e+00,3.555736541748046875e+00,1.758723735809326172e+00,1.782344102859497070e+00,3.263034820556640625e+00,3.175890445709228516e+00,3.093279361724853516e+00,3.014857530593872070e+00,2.940313339233398438e+00,2.869366645812988281e+00,2.801763057708740234e+00,2.737271785736083984e+00,2.675682306289672852e+00,2.616803884506225586e+00,2.560460329055786133e+00,2.506492376327514648e+00,2.454752445220947266e+00,2.405105113983154297e+00,2.357426643371582031e+00,2.311601161956787109e+00,2.267523765563964844e+00,2.225095748901367188e+00,2.184226274490356445e+00,2.144831180572509766e+00,2.106831789016723633e+00,2.070155382156372070e+00,2.034734487533569336e+00,2.000504970550537109e+00,1.967408061027526855e+00,1.935388445854187012e+00,1.904394507408142090e+00,1.874377369880676270e+00,1.845292091369628906e+00
5.000000000000000000e+00,5.000000000000000000e+00,5.000000000000000000e+00,5.000000000000000000e+00,5.000000000000000000e+00,5.000000000000000000e+00,5.000000000000000000e+00,5.000000000000000000e+00,5.000000000000000000e+00,5.000000000000000000e+00,5.000000000000000000e+00,5.000000000000000000e+00,5.000000000000000000e+00,5.000000000000000000e+00,5.000000000000000000e+00,5.000000000000000000e+00,5.000000000000000000e+00,5.000000000000000000e+00,5.000000000000000000e+00,5.000000000000000000e+00,5.000000000000000000e+00,5.000000000000000000e+00,5.000000000000000000e+00,5.000000000000000000e+00,5.000000000000000000e+00,5.000000000000000000e+00,5.000000000000000000e+00,5.000000000000000000e+00,5.000000000000000000e+00,5.000000000000000000e+00,5.000000000000000000e+00,5.000000000000000000e+00,5.000000000000000000e+00,1.853363037109375000e+00,1.823820829391479492e+00,1.732212781906127930e+00,1.681476235389709473e+00,1.665748238563537598e+00,1.650729775428771973e+00,1.673099160194396973e+00,1.705410599708557129e+00,1.802767872810363770e+00,1.794228434562683105e+00,1.787645220756530762e+00,1.814948678016662598e+00,3.906215190887451172e+00,3.781984567642211914e+00,3.665412425994873047e+00,3.555811405181884766e+00,1.731671452522277832e+00,1.733771920204162598e+00,3.263098239898681641e+00,3.175950288772583008e+00,3.093336343765258789e+00,3.014911413192749023e+00,2.940364599227905273e+00,2.869415521621704102e+00,2.801809549331665039e+00,2.737316131591796875e+00,2.675724744796752930e+00,2.616844415664672852e+00,2.560499429702758789e+00,2.506529808044433594e+00,2.454787969589233398e+00,2.405139684677124023e+00,2.357459545135498047e+00,2.311633110046386719e+00,2.267554283142089844e+00,2.225125312805175781e+00,2.184254646301269531e+00,2.144858598709106445e+00,2.106858253479003906e+00,2.070180892944335938e+00,2.034759044647216797e+00,2.000528573989868164e+00,1.967431187629699707e+00,1.935410618782043457e+00,1.904415965080261230e+00,1.874398350715637207e+00,1.845312356948852539e+00
5.000000000000000000e+00,5.000000000000000000e+00,5.000000000000000000e+00,4.699827671051025391e+00,4.755561828613281250e+00,5.000000000000000000e+00,5.000000000000000000e+00,5.000000000000000000e+00,5.000000000000000000e+00,5.000000000000000000e+00,5.000000000000000000e+00,5.000000000000000000e+00,5.000000000000000000e+00,5.000000000000000000e+00,5.000000000000000000e+00,5.000000000000000000e+00,5.000000000000000000e+00,5.000000000000000000e+00,5.000000000000000000e+00,5.000000000000000000e+00,5.000000000000000000e+00,5.000000000000000000e+00,5.000000000000000000e+00,5.000000000000000000e+00,5.000000000000000000e+00,5.000000000000000000e+00,5.000000000000000000e+00,5.000000000000000000e+00,5.000000000000000000e+00,5.000000000000000000e+00,5.000000000000000000e+00,5.000000000000000000e+00,5.000000000000000000e+00,1.844646334648132324e+00,1.831357121467590332e+00,1.741704344749450684e+00,1.668873429298400879e+00,1.652138948440551758e+00,1.636834025382995605e+00,1.656842708587646484e+00,1.678921580314636230e+00,1.799383163452148438e+00,1.792122960090637207e+00,1.788414955139160156e+00,1.817339301109313965e+00,3.906305789947509766e+00,3.782069683074951172e+00,3.665492057800292969e+00,3.555886507034301758e+00,1.715889453887939453e+00,1.767983436584472656e+00,1.743701815605163574e+00,3.176010131835937500e+00,3.093393087387084961e+00,3.014965295791625977e+00,2.940416097640991211e+00,2.869464397430419922e+00,2.801856279373168945e+00,2.737360477447509766e+00,2.675767421722412109e+00,2.616884946823120117e+00,2.560538291931152344e+00,2.506567001342773438e+00,2.454823732376098633e+00,2.405173778533935547e+00,2.357492446899414062e+00,2.311664819717407227e+00,2.267584800720214844e+00,2.225154638290405273e+00,2.184283018112182617e+00,2.144885778427124023e+00,2.106884479522705078e+00,2.070206403732299805e+00,2.034783601760864258e+00,2.000552415847778320e+00,1.967454075813293457e+00,1.935432910919189453e+00,1.904437541961669922e+00,1.874419331550598145e+00,1.845332503318786621e+00
5.000000000000000000e+00,5.000000000000000000e+00,5.000000000000000000e+00,4.712159633636474609e+00,4.756319522857666016e+00,5.000000000000000000e+00,5.000000000000000000e+00,5.000000000000000000e+00,5.000000000000000000e+00,5.000000000000000000e+00,5.000000000000000000e+00,5.000000000000000000e+00,5.000000000000000000e+00,5.000000000000000000e+00,5.000000000000000000e+00,5.000000000000000000e+00,5.000000000000000000e+00,5.000000000000000000e+00,5.000000000000000000e+00,5.000000000000000000e+00,5.000000000000000000e+00,5.000000000000000000e+00,5.000000000000000000e+00,5.000000000000000000e+00,5.000000000000000000e+00,5.000000000000000000e+00,5.000000000000000000e+00,5.000000000000000000e+00,5.000000000000000000e+00,5.000000000000000000e+00,5.000000000000000000e+00,5.000000000000000000e+00,5.000000000000000000e+00,5.000000000000000000e+00,1.817817091941833496e+00,5.000000000000000000e+00,1.656457901000976562e+00,1.639970183372497559e+00,1.622579693794250488e+00,1.639157176017761230e+00,1.660764217376708984e+00,1.802235484123229980e+00,1.793951272964477539e+00,1.792117118835449219e+00,1.822141051292419434e+00,3.906396150588989258e+00,3.782154560089111328e+00,3.665571928024291992e+00,3.555961847305297852e+00,3.452716112136840820e+00,3.355297327041625977e+00,1.724017143249511719e+00,3.176070213317871094e+00,3.093450069427490234e+00,3.015019416809082031e+00,2.940467357635498047e+00,2.869513273239135742e+00,2.801903009414672852e+00,2.737405061721801758e+00,2.675810098648071289e+00,2.616925716400146484e+00,2.560577392578125000e+00,2.506604194641113281e+00,2.454859733581542969e+00,2.405208110809326172e+00,2.357525587081909180e+00,2.311696529388427734e+00,2.267615556716918945e+00,2.225183963775634766e+00,2.184311389923095703e+00,2.144912958145141602e+00,2.106910943984985352e+00,2.070231676101684570e+00,2.034808158874511719e+00,2.000576257705688477e+00,1.967477083206176758e+00,1.935455203056335449e+00,1.904458999633789062e+00,1.874439954757690430e+00,1.845352768898010254e+00
5.000000000000000000e+00,5.000000000000000000e+00,5.000000000000000000e+00,4.785197257995605469e+00,4.824806690216064453e+00,5.000000000000000000e+00,5.000000000000000000e+00,5.000000000000000000e+00,5.000000000000000000e+00,5.000000000000000000e+00,5.000000000000000000e+00,5.000000000000000000e+00,5.000000000000000000e+00,5.000000000000000000e+00,5.000000000000000000e+00,5.000000000000000000e+00,5.000000000000000000e+00,5.000000000000000000e+00,5.000000000000000000e+00,5.000000000000000000e+00,5.000000000000000000e+00,5.000000000000000000e+00,5.000000000000000000e+00,5.000000000000000000e+00,5.000000000000000000e+00,5.000000000000000000e+00,5.000000000000000000e+00,5.000000000000000000e+00,5.000000000000000000e+00,5.000000000000000000e+00,5.000000000000000000e+00,5.000000000000000000e+00,5.000000000000000000e+00,1.836413025856018066e+00,1.798540830612182617e+00,1.794207692146301270e+00,1.654104828834533691e+00,1.622851252555847168e+00,1.605595350265502930e+00,1.622086882591247559e+00,1.642207622528076172e+00,1.806668281555175781e+00,1.798840403556823730e+00,1.799190163612365723e+00,1.829453587532043457e+00,3.906487226486206055e+00,3.782239437103271484e+00,3.665651798248291016e+00,3.556036710739135742e+00,3.452786922454833984e+00,3.355364084243774414e+00,3.263287544250488281e+00,3.176130056381225586e+00,3.093506813049316406e+00,3.015073299407958984e+00,2.940518617630004883e+00,2.869562387466430664e+00,2.801949501037597656e+00,2.737449645996093750e+00,2.675852537155151367e+00,2.616966485977172852e+00,2.560616254806518555e+00,2.506641626358032227e+00,2.454895496368408203e+00,2.405242443084716797e+00,2.357558488845825195e+00,2.311728239059448242e+00,2.267645835876464844e+00,2.225213289260864258e+00,2.184339761734008789e+00,2.144940376281738281e+00,2.106937408447265625e+00,2.070257186889648438e+00,2.034832715988159180e+00,2.000599861145019531e+00,1.967500209808349609e+00,1.935477375984191895e+00,1.904480576515197754e+00,1.874460935592651367e+00,1.845373034477233887e+00
4.660868644714355469e+00,4.686929702758789062e+00,4.699031352996826172e+00,4.727602481842041016e+00,4.768319606781005859e+00,4.822749137878417969e+00,4.865587234497070312e+00,5.000000000000000000e+00,5.000000000000000000e+00,5.000000000000000000e+00,5.000000000000000000e+00,5.000000000000000000e+00,5.000000000000000000e+00,5.000000000000000000e+00,5.000000000000000000e+00,5.000000000000000000e+00,5.000000000000000000e+00,5.000000000000000000e+00,5.000000000000000000e+00,5.000000000000000000e+00,5.000000000000000000e+00,5.000000000000000000e+00,5.000000000000000000e+00,5.000000000000000000e+00,5.000000000000000000e+00,5.000000000000000000e+00,5.000000000000000000e+00,5.000000000000000000e+00,5.000000000000000000e+00,5.000000000000000000e+00,5.000000000000000000e+00,5.000000000000000000e+00,5.000000000000000000e+00,1.811549544334411621e+00,1.790064454078674316e+00,1.781846761703491211e+00,1.666908621788024902e+00,1.607068896293640137e+00,1.588963150978088379e+00,1.605394721031188965e+00,1.621638298034667969e+00,1.810222029685974121e+00,1.803965687751770020e+00,1.806319475173950195e+00,1.838174343109130859e+00,3.906577587127685547e+00,3.782324314117431641e+00,3.665731668472290039e+00,3.556111812591552734e+00,3.452857971191406250e+00,3.355430841445922852e+00,3.263351202011108398e+00,3.176189899444580078e+00,3.093563795089721680e+00,3.015127182006835938e+00,2.940570354461669922e+00,2.869611263275146484e+00,2.801995992660522461e+00,2.737493991851806641e+00,2.675894975662231445e+00,2.617007017135620117e+00,2.560655117034912109e+00,2.506679058074951172e+00,2.454931259155273438e+00,2.405277013778686523e+00,2.357591629028320312e+00,2.311759948730468750e+00,2.267676353454589844e+00,2.225242853164672852e+00,2.184367895126342773e+00,2.144967794418334961e+00,2.106963634490966797e+00,2.070282697677612305e+00,2.034857273101806641e+00,2.000623703002929688e+00,1.967522978782653809e+00,1.935499668121337891e+00,1.904502153396606445e+00,1.874481678009033203e+00,1.845393180847167969e+00
4.679453372955322266e+00,4.680568218231201172e+00,4.670108795166015625e+00,4.693006038665771484e+00,4.730238914489746094e+00,4.786192893981933594e+00,4.892419815063476562e+00,4.932753086090087891e+00,5.000000000000000000e+00,5.000000000000000000e+00,5.000000000000000000e+00,5.000000000000000000e+00,5.000000000000000000e+00,5.000000000000000000e+00,5.000000000000000000e+00,5.000000000000000000e+00,5.000000000000000000e+00,5.000000000000000000e+00,5.000000000000000000e+00,5.000000000000000000e+00,5.000000000000000000e+00,5.000000000000000000e+00,5.000000000000000000e+00,5.000000000000000000e+00,5.000000000000000000e+00,5.000000000000000000e+00,5.000000000000000000e+00,5.000000000000000000e+00,5.000000000000000000e+00,5.000000000000000000e+00,5.000000000000000000e+00,5.000000000000000000e+00,5.000000000000000000e+00,1.803844451904296875e+00,1.774204373359680176e+00,5.000000000000000000e+00,1.688925147056579590e+00,1.597866535186767578e+00,1.572671651840209961e+00,1.586112380027770996e+00,1.601577758789062500e+00,1.813789367675781250e+00,1.808755755424499512e+00,1.813505291938781738e+00,1.848098158836364746e+00,3.906668186187744141e+00,3.782409667968750000e+00,3.665811300277709961e+00,3.556187152862548828e+00,3.452928781509399414e+00,3.355497598648071289e+00,3.263414382934570312e+00,3.176249742507934570e+00,3.093620538711547852e+00,3.015181064605712891e+00,2.940621614456176758e+00,2.869659900665283203e+00,2.802042961120605469e+00,2.737538576126098633e+00,2.675937652587890625e+00,2.617047786712646484e+00,2.560694217681884766e+00,2.506716251373291016e+00,2.454967260360717773e+00,2.405311346054077148e+00,2.357624530792236328e+00,2.311791658401489258e+00,2.267706871032714844e+00,2.225272178649902344e+00,2.184396266937255859e+00,2.144994974136352539e+00,2.106990098953247070e+00,2.070308208465576172e+00,2.034881830215454102e+00,2.000647544860839844e+00,1.967546105384826660e+00,1.935521960258483887e+00,1.904523611068725586e+00,1.874502658843994141e+00,1.845413446426391602e+00
5.000000000000000000e+00,4.711526870727539062e+00,4.679502010345458984e+00,4.685597419738769531e+00,4.725493907928466797e+00,4.800628185272216797e+00,4.878404617309570312e+00,4.923273086547851562e+00,5.000000000000000000e+00,5.000000000000000000e+00,5.000000000000000000e+00,5.000000000000000000e+00,5.000000000000000000e+00,5.000000000000000000e+00,5.000000000000000000e+00,5.000000000000000000e+00,5.000000000000000000e+00,5.000000000000000000e+00,5.000000000000000000e+00,5.000000000000000000e+00,5.000000000000000000e+00,5.000000000000000000e+00,5.000000000000000000e+00,5.000000000000000000e+00,5.000000000000000000e+00,5.000000000000000000e+00,5.000000000000000000e+00,5.000000000000000000e+00,5.000000000000000000e+00,5.000000000000000000e+00,5.000000000000000000e+00,5.000000000000000000e+00,5.000000000000000000e+00,1.795590043067932129e+00,1.763967633247375488e+00,5.000000000000000000e+00,5.000000000000000000e+00,1.588654518127441406e+00,1.561028003692626953e+00,1.570712208747863770e+00,1.583566546440124512e+00,1.817406296730041504e+00,1.812394618988037109e+00,1.822005152702331543e+00,1.857386946678161621e+00,3.906758785247802734e+00,3.782494306564331055e+00,3.665890932083129883e+00,3.556262016296386719e+00,3.452999353408813477e+00,3.355564594268798828e+00,3.263477325439453125e+00,3.176309823989868164e+00,3.093677282333374023e+00,3.015235424041748047e+00,2.940672874450683594e+00,2.869709014892578125e+00,2.802089452743530273e+00,2.737582921981811523e+00,2.675980091094970703e+00,2.617088317871093750e+00,2.560733079910278320e+00,2.506753444671630859e+00,2.455002784729003906e+00,2.405345678329467773e+00,2.357657670974731445e+00,2.311823368072509766e+00,2.267737627029418945e+00,2.225301504135131836e+00,2.184424638748168945e+00,2.145022392272949219e+00,2.107016324996948242e+00,2.070333480834960938e+00,2.034906625747680664e+00,2.000671386718750000e+00,1.967568993568420410e+00,1.935544133186340332e+00,1.904545187950134277e+00,1.874523520469665527e+00,1.845433592796325684e+00
5.000000000000000000e+00,4.719241619110107422e+00,4.674942970275878906e+00,4.690198898315429688e+00,4.730072498321533203e+00,4.802932739257812500e+00,4.896649360656738281e+00,4.916867733001708984e+00,5.000000000000000000e+00,5.000000000000000000e+00,5.000000000000000000e+00,5.000000000000000000e+00,5.000000000000000000e+00,5.000000000000000000e+00,5.000000000000000000e+00,5.000000000000000000e+00,5.000000000000000000e+00,5.000000000000000000e+00,5.000000000000000000e+00,5.000000000000000000e+00,5.000000000000000000e+00,5.000000000000000000e+00,5.000000000000000000e+00,5.000000000000000000e+00,5.000000000000000000e+00,5.000000000000000000e+00,5.000000000000000000e+00,5.000000000000000000e+00,5.000000000000000000e+00,5.000000000000000000e+00,5.000000000000000000e+00,5.000000000000000000e+00,5.000000000000000000e+00,1.784167051315307617e+00,5.000000000000000000e+00,5.000000000000000000e+00,5.000000000000000000e+00,1.593125224113464355e+00,1.555436968803405762e+00,1.562476038932800293e+00,1.573429226875305176e+00,1.821591496467590332e+00,1.817036032676696777e+00,1.826265692710876465e+00,4.039562225341796875e+00,3.906849622726440430e+00,3.782579183578491211e+00,3.665971040725708008e+00,3.556337118148803711e+00,3.453070402145385742e+00,3.355631351470947266e+00,3.263540506362915039e+00,3.176369667053222656e+00,3.093734025955200195e+00,3.015289306640625000e+00,2.940724134445190430e+00,2.869757890701293945e+00,2.802135944366455078e+00,2.737627744674682617e+00,2.676022529602050781e+00,2.617129087448120117e+00,2.560771942138671875e+00,2.506790876388549805e+00,2.455038547515869141e+00,2.405380010604858398e+00,2.357690572738647461e+00,2.311855077743530273e+00,2.267768144607543945e+00,2.225330829620361328e+00,2.184453010559082031e+00,2.145049571990966797e+00,2.107042789459228516e+00,2.070358991622924805e+00,2.034931182861328125e+00,2.000694990158081055e+00,1.967592000961303711e+00,1.935566425323486328e+00,1.904566884040832520e+00,1.874544262886047363e+00,1.845453858375549316e+00
5.000000000000000000e+00,4.748722076416015625e+00,4.663053512573242188e+00,4.681969642639160156e+00,4.723131179809570312e+00,4.791018962860107422e+00,5.000000000000000000e+00,4.891220092773437500e+00,5.000000000000000000e+00,5.000000000000000000e+00,5.000000000000000000e+00,5.000000000000000000e+00,5.000000000000000000e+00,5.000000000000000000e+00,5.000000000000000000e+00,5.000000000000000000e+00,5.000000000000000000e+00,5.000000000000000000e+00,5.000000000000000000e+00,5.000000000000000000e+00,5.000000000000000000e+00,5.000000000000000000e+00,5.000000000000000000e+00,5.000000000000000000e+00,5.000000000000000000e+00,5.000000000000000000e+00,5.000000000000000000e+00,5.000000000000000000e+00,5.000000000000000000e+00,5.000000000000000000e+00,5.000000000000000000e+00,5.000000000000000000e+00,5.000000000000000000e+00,5.000000000000000000e+00,5.000000000000000000e+00,5.000000000000000000e+00,5.000000000000000000e+00,1.597529411315917969e+00,1.557873249053955078e+00,1.564663767814636230e+00,1.575974583625793457e+00,1.823849678039550781e+00,1.821701049804687500e+00,1.830546379089355469e+00,4.039659023284912109e+00,3.906940221786499023e+00,3.782664060592651367e+00,3.666050910949707031e+00,3.556412220001220703e+00,3.453141212463378906e+00,3.355698108673095703e+00,3.263604164123535156e+00,3.176429510116577148e+00,3.093791007995605469e+00,3.015343189239501953e+00,2.940775632858276367e+00,2.869806766510009766e+00,2.802182674407958984e+00,2.737672090530395508e+00,2.676064968109130859e+00,2.617169857025146484e+00,2.560810804367065430e+00,2.506828308105468750e+00,2.455074310302734375e+00,2.405414342880249023e+00,2.357723474502563477e+00,2.311887025833129883e+00,2.267798662185668945e+00,2.225360393524169922e+00,2.184481382369995117e+00,2.145076990127563477e+00,2.107069015502929688e+00,2.070384502410888672e+00,2.034955739974975586e+00,2.000718832015991211e+00,1.967615127563476562e+00,1.935588598251342773e+00,1.904588222503662109e+00,1.874565243721008301e+00,1.845474123954772949e+00
5.000000000000000000e+00,4.734327793121337891e+00,4.681862354278564453e+00,4.700368404388427734e+00,4.733744144439697266e+00,4.798360824584960938e+00,5.000000000000000000e+00,4.837033748626708984e+00,5.000000000000000000e+00,5.000000000000000000e+00,5.000000000000000000e+00,5.000000000000000000e+00,5.000000000000000000e+00,5.000000000000000000e+00,5.000000000000000000e+00,5.000000000000000000e+00,5.000000000000000000e+00,5.000000000000000000e+00,5.000000000000000000e+00,5.000000000000000000e+00,5.000000000000000000e+00,5.000000000000000000e+00,5.000000000000000000e+00,5.000000000000000000e+00,5.000000000000000000e+00,5.000000000000000000e+00,5.000000000000000000e+00,5.000000000000000000e+00,5.000000000000000000e+00,5.000000000000000000e+00,5.000000000000000000e+00,5.000000000000000000e+00,5.000000000000000000e+00,5.000000000000000000e+00,5.000000000000000000e+00,5.000000000000000000e+00,5.000000000000000000e+00,1.598292469978332520e+00,1.568385601043701172e+00,1.570388674736022949e+00,1.585040807723999023e+00,1.826113343238830566e+00,1.825541853904724121e+00,1.835479617118835449e+00,4.039756298065185547e+00,3.907030820846557617e+00,3.782749414443969727e+00,3.666130542755126953e+00,3.556487560272216797e+00,3.453212022781372070e+00,3.355765342712402344e+00,3.263667345046997070e+00,3.176489353179931641e+00,3.093847751617431641e+00,3.015397071838378906e+00,2.940826892852783203e+00,2.869855642318725586e+00,2.802229404449462891e+00,2.737716436386108398e+00,2.676107645034790039e+00,2.617210388183593750e+00,2.560849905014038086e+00,2.506865501403808594e+00,2.455110311508178711e+00,2.405448675155639648e+00,2.357756614685058594e+00,2.311918735504150391e+00,2.267829179763793945e+00,2.225389719009399414e+00,2.184509754180908203e+00,2.145104408264160156e+00,2.107095479965209961e+00,2.070410013198852539e+00,2.034980297088623047e+00,2.000742673873901367e+00,1.967637896537780762e+00,1.935610890388488770e+00,1.904609918594360352e+00,1.874586224555969238e+00,1.845494270324707031e+00
5.000000000000000000e+00,4.718438148498535156e+00,4.619120597839355469e+00,4.665364742279052734e+00,4.772342681884765625e+00,4.802705287933349609e+00,5.000000000000000000e+00,4.782265186309814453e+00,5.000000000000000000e+00,5.000000000000000000e+00,5.000000000000000000e+00,5.000000000000000000e+00,5.000000000000000000e+00,5.000000000000000000e+00,5.000000000000000000e+00,5.000000000000000000e+00,5.000000000000000000e+00,5.000000000000000000e+00,5.000000000000000000e+00,5.000000000000000000e+00,5.000000000000000000e+00,5.000000000000000000e+00,5.000000000000000000e+00,5.000000000000000000e+00,5.000000000000000000e+00,5.000000000000000000e+00,5.000000000000000000e+00,5.000000000000000000e+00,5.000000000000000000e+00,5.000000000000000000e+00,5.000000000000000000e+00,5.000000000000000000e+00,5.000000000000000000e+00,5.000000000000000000e+00,5.000000000000000000e+00,5.000000000000000000e+00,5.000000000000000000e+00,1.600839734077453613e+00,1.579040765762329102e+00,1.576155543327331543e+00,1.595708489418029785e+00,1.829280138015747070e+00,1.828499436378479004e+00,1.851622104644775391e+00,4.039853096008300781e+00,3.907121181488037109e+00,3.782834291458129883e+00,3.666210174560546875e+00,3.556562662124633789e+00,3.453282594680786133e+00,3.355832099914550781e+00,3.263730525970458984e+00,3.176549434661865234e+00,3.093904733657836914e+00,3.015451431274414062e+00,2.940878152847290039e+00,2.869904756546020508e+00,2.802275896072387695e+00,2.737761259078979492e+00,2.676150083541870117e+00,2.617250919342041016e+00,2.560888767242431641e+00,2.506902694702148438e+00,2.455146074295043945e+00,2.405483007431030273e+00,2.357789754867553711e+00,2.311950445175170898e+00,2.267859697341918945e+00,2.225419282913208008e+00,2.184538125991821289e+00,2.145131587982177734e+00,2.107121944427490234e+00,2.070435523986816406e+00,2.035004854202270508e+00,2.000766277313232422e+00,1.967661023139953613e+00,1.935633182525634766e+00,1.904631257057189941e+00,1.874606966972351074e+00,1.845514535903930664e+00
5.000000000000000000e+00,4.722126960754394531e+00,4.589311599731445312e+00,4.634147167205810547e+00,4.775815486907958984e+00,4.809924125671386719e+00,5.000000000000000000e+00,5.000000000000000000e+00,4.777853965759277344e+00,5.000000000000000000e+00,5.000000000000000000e+00,5.000000000000000000e+00,5.000000000000000000e+00,5.000000000000000000e+00,5.000000000000000000e+00,5.000000000000000000e+00,5.000000000000000000e+00,5.000000000000000000e+00,5.000000000000000000e+00,5.000000000000000000e+00,5.000000000000000000e+00,5.000000000000000000e+00,5.000000000000000000e+00,5.000000000000000000e+00,5.000000000000000000e+00,5.000000000000000000e+00,5.000000000000000000e+00,5.000000000000000000e+00,5.000000000000000000e+00,5.000000000000000000e+00,5.000000000000000000e+00,5.000000000000000000e+00,5.000000000000000000e+00,5.000000000000000000e+00,5.000000000000000000e+00,5.000000000000000000e+00,5.000000000000000000e+00,1.605142831802368164e+00,1.586043119430541992e+00,1.582671642303466797e+00,1.606520652770996094e+00,1.836245417594909668e+00,1.835456013679504395e+00,4.182024478912353516e+00,4.039949893951416016e+00,3.907212257385253906e+00,3.782919168472290039e+00,3.666290283203125000e+00,3.556637525558471680e+00,3.453353643417358398e+00,3.355898857116699219e+00,3.263793945312500000e+00,3.176609277725219727e+00,3.093961477279663086e+00,3.015505313873291016e+00,2.940929412841796875e+00,2.869953632354736328e+00,2.802322387695312500e+00,2.737805604934692383e+00,2.676192760467529297e+00,2.617291927337646484e+00,2.560927629470825195e+00,2.506940126419067383e+00,2.455181837081909180e+00,2.405517578125000000e+00,2.357822656631469727e+00,2.311982154846191406e+00,2.267890214920043945e+00,2.225448608398437500e+00,2.184566497802734375e+00,2.145159006118774414e+00,2.107148170471191406e+00,2.070460796356201172e+00,2.035029411315917969e+00,2.000790119171142578e+00,1.967684030532836914e+00,1.935655355453491211e+00,1.904652953147888184e+00,1.874627828598022461e+00,1.845534801483154297e+00
5.000000000000000000e+00,4.686831474304199219e+00,4.559556961059570312e+00,4.603238582611083984e+00,4.795669555664062500e+00,4.832403659820556641e+00,5.000000000000000000e+00,5.000000000000000000e+00,5.000000000000000000e+00,5.000000000000000000e+00,5.000000000000000000e+00,5.000000000000000000e+00,5.000000000000000000e+00,5.000000000000000000e+00,5.000000000000000000e+00,5.000000000000000000e+00,5.000000000000000000e+00,5.000000000000000000e+00,5.000000000000000000e+00,5.000000000000000000e+00,5.000000000000000000e+00,5.000000000000000000e+00,5.000000000000000000e+00,5.000000000000000000e+00,5.000000000000000000e+00,5.000000000000000000e+00,5.000000000000000000e+00,5.000000000000000000e+00,5.000000000000000000e+00,5.000000000000000000e+00,5.000000000000000000e+00,5.000000000000000000e+00,5.000000000000000000e+00,5.000000000000000000e+00,5.000000000000000000e+00,5.000000000000000000e+00,5.000000000000000000e+00,1.609469294548034668e+00,1.590608000755310059e+00,1.591982960700988770e+00,1.614996552467346191e+00,1.858859539031982422e+00,1.855341315269470215e+00,4.182128429412841797e+00,4.040047168731689453e+00,3.907302856445312500e+00,3.783004045486450195e+00,3.666370153427124023e+00,3.556712627410888672e+00,3.453424453735351562e+00,3.355965614318847656e+00,3.263857126235961914e+00,3.176669120788574219e+00,3.094018459320068359e+00,3.015559196472167969e+00,2.940981149673461914e+00,2.870002508163452148e+00,2.802369356155395508e+00,2.737850189208984375e+00,2.676235437393188477e+00,2.617332458496093750e+00,2.560966491699218750e+00,2.506977558135986328e+00,2.455217599868774414e+00,2.405551910400390625e+00,2.357855558395385742e+00,2.312013864517211914e+00,2.267920732498168945e+00,2.225478172302246094e+00,2.184594631195068359e+00,2.145186424255371094e+00,2.107174634933471680e+00,2.070486307144165039e+00,2.035053968429565430e+00,2.000813961029052734e+00,1.967706918716430664e+00,1.935677647590637207e+00,1.904674530029296875e+00,1.874648571014404297e+00,1.845554947853088379e+00
5.000000000000000000e+00,5.000000000000000000e+00,4.531659126281738281e+00,4.567389488220214844e+00,4.815178871154785156e+00,4.858167648315429688e+00,5.000000000000000000e+00,5.000000000000000000e+00,5.000000000000000000e+00,5.000000000000000000e+00,5.000000000000000000e+00,5.000000000000000000e+00,5.000000000000000000e+00,5.000000000000000000e+00,5.000000000000000000e+00,5.000000000000000000e+00,5.000000000000000000e+00,5.000000000000000000e+00,5.000000000000000000e+00,5.000000000000000000e+00,5.000000000000000000e+00,5.000000000000000000e+00,5.000000000000000000e+00,5.000000000000000000e+00,5.000000000000000000e+00,5.000000000000000000e+00,5.000000000000000000e+00,5.000000000000000000e+00,5.000000000000000000e+00,5.000000000000000000e+00,5.000000000000000000e+00,5.000000000000000000e+00,5.000000000000000000e+00,5.000000000000000000e+00,5.000000000000000000e+00,5.000000000000000000e+00,5.000000000000000000e+00,1.612979769706726074e+00,1.588266611099243164e+00,1.588066101074218750e+00,1.610626459121704102e+00,1.884274601936340332e+00,1.907445788383483887e+00,4.182231903076171875e+00,4.040143966674804688e+00,3.907393455505371094e+00,3.783089399337768555e+00,3.666449785232543945e+00,3.556787967681884766e+00,3.453495264053344727e+00,3.356032848358154297e+00,3.263920307159423828e+00,3.176729440689086914e+00,3.094075202941894531e+00,3.015613079071044922e+00,2.941032409667968750e+00,2.870051145553588867e+00,2.802415847778320312e+00,2.737894535064697266e+00,2.676277875900268555e+00,2.617372989654541016e+00,2.561005592346191406e+00,2.507014751434326172e+00,2.455253601074218750e+00,2.405586242675781250e+00,2.357888698577880859e+00,2.312045574188232422e+00,2.267951488494873047e+00,2.225507497787475586e+00,2.184623003005981445e+00,2.145213603973388672e+00,2.107200860977172852e+00,2.070511817932128906e+00,2.035078525543212891e+00,2.000837802886962891e+00,1.967730045318603516e+00,1.935699939727783203e+00,1.904695987701416016e+00,1.874669551849365234e+00,1.845575213432312012e+00
5.000000000000000000e+00,5.000000000000000000e+00,4.532145023345947266e+00,4.560042858123779297e+00,4.832309722900390625e+00,4.887666702270507812e+00,5.000000000000000000e+00,5.000000000000000000e+00,5.000000000000000000e+00,5.000000000000000000e+00,5.000000000000000000e+00,5.000000000000000000e+00,5.000000000000000000e+00,5.000000000000000000e+00,5.000000000000000000e+00,5.000000000000000000e+00,5.000000000000000000e+00,5.000000000000000000e+00,5.000000000000000000e+00,5.000000000000000000e+00,5.000000000000000000e+00,5.000000000000000000e+00,5.000000000000000000e+00,5.000000000000000000e+00,5.000000000000000000e+00,5.000000000000000000e+00,5.000000000000000000e+00,5.000000000000000000e+00,5.000000000000000000e+00,5.000000000000000000e+00,5.000000000000000000e+00,5.000000000000000000e+00,5.000000000000000000e+00,5.000000000000000000e+00,5.000000000000000000e+00,5.000000000000000000e+00,5.000000000000000000e+00,1.616190791130065918e+00,1.585654258728027344e+00,1.584168314933776855e+00,1.605961680412292480e+00,1.911062121391296387e+00,1.945086479187011719e+00,4.182335853576660156e+00,4.040240764617919922e+00,3.907484292984008789e+00,3.783174276351928711e+00,3.666529417037963867e+00,3.556863069534301758e+00,3.453565835952758789e+00,3.356099605560302734e+00,3.263983488082885742e+00,3.176789283752441406e+00,3.094131946563720703e+00,3.015667438507080078e+00,2.941083669662475586e+00,2.870100259780883789e+00,2.802462339401245117e+00,2.737939357757568359e+00,2.676320314407348633e+00,2.617413997650146484e+00,2.561044454574584961e+00,2.507052183151245117e+00,2.455289125442504883e+00,2.405620574951171875e+00,2.357921600341796875e+00,2.312077283859252930e+00,2.267982006072998047e+00,2.225536823272705078e+00,2.184651374816894531e+00,2.145241022109985352e+00,2.107227325439453125e+00,2.070537328720092773e+00,2.035103321075439453e+00,2.000861406326293945e+00,1.967753052711486816e+00,1.935722112655639648e+00,1.904717564582824707e+00,1.874690532684326172e+00,1.845595359802246094e+00
5.000000000000000000e+00,5.000000000000000000e+00,4.537357330322265625e+00,4.576357841491699219e+00,4.872928619384765625e+00,5.000000000000000000e+00,5.000000000000000000e+00,5.000000000000000000e+00,5.000000000000000000e+00,5.000000000000000000e+00,5.000000000000000000e+00,5.000000000000000000e+00,5.000000000000000000e+00,5.000000000000000000e+00,5.000000000000000000e+00,5.000000000000000000e+00,5.000000000000000000e+00,5.000000000000000000e+00,5.000000000000000000e+00,5.000000000000000000e+00,5.000000000000000000e+00,5.000000000000000000e+00,5.000000000000000000e+00,5.000000000000000000e+00,5.000000000000000000e+00,5.000000000000000000e+00,5.000000000000000000e+00,5.000000000000000000e+00,5.000000000000000000e+00,5.000000000000000000e+00,5.000000000000000000e+00,5.000000000000000000e+00,5.000000000000000000e+00,5.000000000000000000e+00,5.000000000000000000e+00,5.000000000000000000e+00,5.000000000000000000e+00,1.619414448738098145e+00,1.583972215652465820e+00,1.580289721488952637e+00,1.601323723793029785e+00,1.929735183715820312e+00,4.334901809692382812e+00,4.182439804077148438e+00,4.040338039398193359e+00,3.907574892044067383e+00,3.783259153366088867e+00,3.666609525680541992e+00,3.556937932968139648e+00,3.453636884689331055e+00,3.356166362762451172e+00,3.264046907424926758e+00,3.176849126815795898e+00,3.094189167022705078e+00,3.015721321105957031e+00,2.941134929656982422e+00,2.870149135589599609e+00,2.802509069442749023e+00,2.737983942031860352e+00,2.676362752914428711e+00,2.617454528808593750e+00,2.561083555221557617e+00,2.507089614868164062e+00,2.455324888229370117e+00,2.405654907226562500e+00,2.357954740524291992e+00,2.312109231948852539e+00,2.268012523651123047e+00,2.225566387176513672e+00,2.184679746627807617e+00,2.145268201828002930e+00,2.107253551483154297e+00,2.070562601089477539e+00,2.035127878189086914e+00,2.000885248184204102e+00,1.967775940895080566e+00,1.935744404792785645e+00,1.904739141464233398e+00,1.874711275100708008e+00,1.845615625381469727e+00
5.000000000000000000e+00,5.000000000000000000e+00,4.530031681060791016e+00,4.560541152954101562e+00,4.941573619842529297e+00,5.000000000000000000e+00,5.000000000000000000e+00,5.000000000000000000e+00,5.000000000000000000e+00,5.000000000000000000e+00,5.000000000000000000e+00,5.000000000000000000e+00,5.000000000000000000e+00,5.000000000000000000e+00,5.000000000000000000e+00,5.000000000000000000e+00,5.000000000000000000e+00,5.000000000000000000e+00,5.000000000000000000e+00,5.000000000000000000e+00,5.000000000000000000e+00,5.000000000000000000e+00,5.000000000000000000e+00,5.000000000000000000e+00,5.000000000000000000e+00,5.000000000000000000e+00,5.000000000000000000e+00,5.000000000000000000e+00,5.000000000000000000e+00,5.000000000000000000e+00,5.000000000000000000e+00,5.000000000000000000e+00,5.000000000000000000e+00,5.000000000000000000e+00,5.000000000000000000e+00,5.000000000000000000e+00,5.000000000000000000e+00,1.622773051261901855e+00,1.583730936050415039e+00,1.576318979263305664e+00,1.596712589263916016e+00,1.945751190185546875e+00,4.335013389587402344e+00,4.182543754577636719e+00,4.040434837341308594e+00,3.907665491104125977e+00,3.783344507217407227e+00,3.666689395904541016e+00,3.557013034820556641e+00,3.453707695007324219e+00,3.356233358383178711e+00,3.264110088348388672e+00,3.176908969879150391e+00,3.094245910644531250e+00,3.015775203704833984e+00,2.941186428070068359e+00,2.870198011398315430e+00,2.802555799484252930e+00,2.738028287887573242e+00,2.676405429840087891e+00,2.617495298385620117e+00,2.561122655868530273e+00,2.507126808166503906e+00,2.455360651016235352e+00,2.405689239501953125e+00,2.357987642288208008e+00,2.312140941619873047e+00,2.268043041229248047e+00,2.225595712661743164e+00,2.184708118438720703e+00,2.145295619964599609e+00,2.107280015945434570e+00,2.070588111877441406e+00,2.035152435302734375e+00,2.000909090042114258e+00,1.967799067497253418e+00,1.935766816139221191e+00,1.904760599136352539e+00,1.874732255935668945e+00,1.845635890960693359e+00
5.000000000000000000e+00,5.000000000000000000e+00,4.530670166015625000e+00,4.542284011840820312e+00,4.975292205810546875e+00,5.000000000000000000e+00,5.000000000000000000e+00,5.000000000000000000e+00,5.000000000000000000e+00,5.000000000000000000e+00,5.000000000000000000e+00,5.000000000000000000e+00,5.000000000000000000e+00,5.000000000000000000e+00,5.000000000000000000e+00,5.000000000000000000e+00,5.000000000000000000e+00,5.000000000000000000e+00,5.000000000000000000e+00,5.000000000000000000e+00,5.000000000000000000e+00,5.000000000000000000e+00,5.000000000000000000e+00,5.000000000000000000e+00,5.000000000000000000e+00,5.000000000000000000e+00,5.000000000000000000e+00,5.000000000000000000e+00,5.000000000000000000e+00,5.000000000000000000e+00,5.000000000000000000e+00,5.000000000000000000e+00,5.000000000000000000e+00,5.000000000000000000e+00,5.000000000000000000e+00,5.000000000000000000e+00,5.000000000000000000e+00,1.626149654388427734e+00,1.584419250488281250e+00,1.572247385978698730e+00,1.592738866806030273e+00,1.965525507926940918e+00,4.335124969482421875e+00,4.182647705078125000e+00,4.040531635284423828e+00,3.907756090164184570e+00,3.783429384231567383e+00,3.666769027709960938e+00,3.557088375091552734e+00,3.453778505325317383e+00,3.356300354003906250e+00,3.264173269271850586e+00,3.176969051361083984e+00,3.094302654266357422e+00,3.015829324722290039e+00,2.941237926483154297e+00,2.870246887207031250e+00,2.802602529525756836e+00,2.738072872161865234e+00,2.676447868347167969e+00,2.617535829544067383e+00,2.561161518096923828e+00,2.507164001464843750e+00,2.455396652221679688e+00,2.405723571777343750e+00,2.358020782470703125e+00,2.312172651290893555e+00,2.268073558807373047e+00,2.225625038146972656e+00,2.184736490249633789e+00,2.145323038101196289e+00,2.107306241989135742e+00,2.070613622665405273e+00,2.035176992416381836e+00,2.000932693481445312e+00,1.967821836471557617e+00,1.935788869857788086e+00,1.904782176017761230e+00,1.874753117561340332e+00,1.845656037330627441e+00
5.000000000000000000e+00,5.000000000000000000e+00,4.535127162933349609e+00,4.526067256927490234e+00,5.000000000000000000e+00,5.000000000000000000e+00,5.000000000000000000e+00,5.000000000000000000e+00,5.000000000000000000e+00,5.000000000000000000e+00,5.000000000000000000e+00,5.000000000000000000e+00,5.000000000000000000e+00,5.000000000000000000e+00,5.000000000000000000e+00,5.000000000000000000e+00,5.000000000000000000e+00,5.000000000000000000e+00,5.000000000000000000e+00,5.000000000000000000e+00,5.000000000000000000e+00,5.000000000000000000e+00,5.000000000000000000e+00,5.000000000000000000e+00,5.000000000000000000e+00,5.000000000000000000e+00,5.000000000000000000e+00,5.000000000000000000e+00,5.000000000000000000e+00,5.000000000000000000e+00,5.000000000000000000e+00,5.000000000000000000e+00,5.000000000000000000e+00,5.000000000000000000e+00,5.000000000000000000e+00,5.000000000000000000e+00,5.000000000000000000e+00,1.630394577980041504e+00,1.586993813514709473e+00,1.568987369537353516e+00,1.589393138885498047e+00,2.013911962509155273e+00,4.335235595703125000e+00,4.182751655578613281e+00,4.040628910064697266e+00,3.907847166061401367e+00,3.783514261245727539e+00,3.666849374771118164e+00,3.557163476943969727e+00,3.453849315643310547e+00,3.356367111206054688e+00,3.264236450195312500e+00,3.177028894424438477e+00,3.094359397888183594e+00,3.015883445739746094e+00,2.941289186477661133e+00,2.870296001434326172e+00,2.802649021148681641e+00,2.738117456436157227e+00,2.676490545272827148e+00,2.617576599121093750e+00,2.561200380325317383e+00,2.507201671600341797e+00,2.455432415008544922e+00,2.405757904052734375e+00,2.358053684234619141e+00,2.312204360961914062e+00,2.268104076385498047e+00,2.225654363632202148e+00,2.184764862060546875e+00,2.145350217819213867e+00,2.107332706451416016e+00,2.070639133453369141e+00,2.035201549530029297e+00,2.000956535339355469e+00,1.967844963073730469e+00,1.935811161994934082e+00,1.904803872108459473e+00,1.874773859977722168e+00,1.845676302909851074e+00
5.000000000000000000e+00,5.000000000000000000e+00,5.000000000000000000e+00,4.504397869110107422e+00,5.000000000000000000e+00,5.000000000000000000e+00,5.000000000000000000e+00,5.000000000000000000e+00,5.000000000000000000e+00,5.000000000000000000e+00,5.000000000000000000e+00,5.000000000000000000e+00,5.000000000000000000e+00,5.000000000000000000e+00,5.000000000000000000e+00,5.000000000000000000e+00,5.000000000000000000e+00,5.000000000000000000e+00,5.000000000000000000e+00,5.000000000000000000e+00,5.000000000000000000e+00,5.000000000000000000e+00,5.000000000000000000e+00,5.000000000000000000e+00,5.000000000000000000e+00,5.000000000000000000e+00,5.000000000000000000e+00,5.000000000000000000e+00,5.000000000000000000e+00,5.000000000000000000e+00,5.000000000000000000e+00,5.000000000000000000e+00,5.000000000000000000e+00,5.000000000000000000e+00,5.000000000000000000e+00,5.000000000000000000e+00,5.000000000000000000e+00,5.000000000000000000e+00,1.591739058494567871e+00,1.573715925216674805e+00,1.586061716079711914e+00,4.499374389648437500e+00,4.335344791412353516e+00,4.182854652404785156e+00,4.040725708007812500e+00,3.907937526702880859e+00,3.783599138259887695e+00,3.666929006576538086e+00,3.557238578796386719e+00,3.453920364379882812e+00,3.356434106826782227e+00,3.264300107955932617e+00,3.177088737487792969e+00,3.094416379928588867e+00,3.015937328338623047e+00,2.941340684890747070e+00,2.870344877243041992e+00,2.802695512771606445e+00,2.738161802291870117e+00,2.676532983779907227e+00,2.617617368698120117e+00,2.561239242553710938e+00,2.507238864898681641e+00,2.455468177795410156e+00,2.405792474746704102e+00,2.358086824417114258e+00,2.312236309051513672e+00,2.268134593963623047e+00,2.225683927536010742e+00,2.184793233871459961e+00,2.145377635955810547e+00,2.107359170913696289e+00,2.070664405822753906e+00,2.035226106643676758e+00,2.000980377197265625e+00,1.967867970466613770e+00,1.935833334922790527e+00,1.904825210571289062e+00,1.874794840812683105e+00,1.845696687698364258e+00
4.874909877777099609e+00,4.873698711395263672e+00,4.872488498687744141e+00,4.532009601593017578e+00,4.870069026947021484e+00,4.868860244750976562e+00,4.867651939392089844e+00,4.866444587707519531e+00,4.865237236022949219e+00,4.864030838012695312e+00,4.862824916839599609e+00,4.861619949340820312e+00,4.860415458679199219e+00,4.859211444854736328e+00,4.858007907867431641e+00,4.856805324554443359e+00,4.855603218078613281e+00,4.854401588439941406e+00,4.853200435638427734e+00,4.851999759674072266e+00,4.850800037384033203e+00,4.849600791931152344e+00,4.848402500152587891e+00,4.847204208374023438e+00,4.846006870269775391e+00,4.844810009002685547e+00,4.843614101409912109e+00,4.842418193817138672e+00,4.841222763061523438e+00,4.840028285980224609e+00,4.838834285736083984e+00,4.837641239166259766e+00,4.836448192596435547e+00,4.835256099700927734e+00,4.834064483642578125e+00,4.832873821258544922e+00,4.831683158874511719e+00,4.830493450164794922e+00,1.596512675285339355e+00,1.577421665191650391e+00,1.582876324653625488e+00,4.499492645263671875e+00,4.335454463958740234e+00,4.182956695556640625e+00,4.040822505950927734e+00,3.908028125762939453e+00,3.783684492111206055e+00,3.667008638381958008e+00,3.557313919067382812e+00,3.453991174697875977e+00,3.356500864028930664e+00,3.264363288879394531e+00,3.177148580551147461e+00,3.094473361968994141e+00,3.015991210937500000e+00,2.941391944885253906e+00,2.870393753051757812e+00,2.802742481231689453e+00,2.738206386566162109e+00,2.676575660705566406e+00,2.617657899856567383e+00,2.561278343200683594e+00,2.507276058197021484e+00,2.455504179000854492e+00,2.405826807022094727e+00,2.358119726181030273e+00,2.312268018722534180e+00,2.268165111541748047e+00,2.225713253021240234e+00,2.184821367263793945e+00,2.145405054092407227e+00,2.107385396957397461e+00,2.070690155029296875e+00,2.035250902175903320e+00,2.001004219055175781e+00,1.967890858650207520e+00,1.935855627059936523e+00,1.904846906661987305e+00,1.874815821647644043e+00,1.845716714859008789e+00
3.777686595916748047e+00,3.776958942413330078e+00,3.776232004165649414e+00,3.775505065917968750e+00,3.774778842926025391e+00,3.774052381515502930e+00,3.773326635360717773e+00,3.772600650787353516e+00,3.771875619888305664e+00,3.771150350570678711e+00,3.770425081253051758e+00,3.769700765609741211e+00,3.768976449966430664e+00,3.768252611160278320e+00,3.767528772354125977e+00,3.766805410385131836e+00,3.766082048416137695e+00,3.765359401702880859e+00,3.764636516571044922e+00,3.763914346694946289e+00,3.763192176818847656e+00,3.762470245361328125e+00,3.761748790740966797e+00,3.761027574539184570e+00,3.760306835174560547e+00,3.759585857391357422e+00,3.758865594863891602e+00,3.758145332336425781e+00,3.757425785064697266e+00,3.756705999374389648e+00,3.755986452102661133e+00,3.755267620086669922e+00,3.754548788070678711e+00,3.753830432891845703e+00,3.753112077713012695e+00,3.752394437789916992e+00,3.751676559448242188e+00,3.750959396362304688e+00,1.601315021514892578e+00,1.575911641120910645e+00,1.580733656883239746e+00,3.748092174530029297e+00,3.747376441955566406e+00,3.746660470962524414e+00,3.745945215225219727e+00,3.745229721069335938e+00,3.744515180587768555e+00,3.667088508605957031e+00,3.557389020919799805e+00,3.454061746597290039e+00,3.356568098068237305e+00,3.264426469802856445e+00,3.177208900451660156e+00,3.094530105590820312e+00,3.016045570373535156e+00,2.941443443298339844e+00,2.870442867279052734e+00,2.802788972854614258e+00,2.738250732421875000e+00,2.676618099212646484e+00,2.617698669433593750e+00,2.561317205429077148e+00,2.507313489913940430e+00,2.455539941787719727e+00,2.405861139297485352e+00,2.358152866363525391e+00,2.312299728393554688e+00,2.268195867538452148e+00,2.225742816925048828e+00,2.184849977493286133e+00,2.145432233810424805e+00,2.107411861419677734e+00,2.070715427398681641e+00,2.035275459289550781e+00,2.001027822494506836e+00,1.967913985252380371e+00,1.935878038406372070e+00,1.904868245124816895e+00,1.874836564064025879e+00,1.845737099647521973e+00
3.083635330200195312e+00,3.083150863647460938e+00,3.082666158676147461e+00,3.082181692123413086e+00,3.081697702407836914e+00,3.081213474273681641e+00,3.080729722976684570e+00,3.080245733261108398e+00,3.079762220382690430e+00,3.079278707504272461e+00,3.078795671463012695e+00,3.078312397003173828e+00,3.077829122543334961e+00,3.077346563339233398e+00,3.076863765716552734e+00,3.076381206512451172e+00,3.075898885726928711e+00,3.075416803359985352e+00,3.074934482574462891e+00,3.074452638626098633e+00,3.073970794677734375e+00,3.073489189147949219e+00,3.073007583618164062e+00,3.072526216506958008e+00,3.072045087814331055e+00,3.071563959121704102e+00,3.071083307266235352e+00,3.070602416992187500e+00,3.070122003555297852e+00,3.069641351699829102e+00,3.069161415100097656e+00,3.068681001663208008e+00,3.068201065063476562e+00,3.067721366882324219e+00,3.067241430282592773e+00,3.066762208938598633e+00,3.066282510757446289e+00,3.065803527832031250e+00,3.065324306488037109e+00,1.590438246726989746e+00,1.603335499763488770e+00,3.063888311386108398e+00,3.063409566879272461e+00,3.062931299209594727e+00,3.062453269958496094e+00,3.061975002288818359e+00,3.061497211456298828e+00,3.061019420623779297e+00,3.060542106628417969e+00,3.060064554214477539e+00,3.059587240219116211e+00,3.059109926223754883e+00,3.058633089065551758e+00,3.058156251907348633e+00,3.016099452972412109e+00,2.941494703292846680e+00,2.870491743087768555e+00,2.802835702896118164e+00,2.738295555114746094e+00,2.676660537719726562e+00,2.617739439010620117e+00,2.561356067657470703e+00,2.507350921630859375e+00,2.455575704574584961e+00,2.405895709991455078e+00,2.358185768127441406e+00,2.312331438064575195e+00,2.268226385116577148e+00,2.225772142410278320e+00,2.184878110885620117e+00,2.145459651947021484e+00,2.107438325881958008e+00,2.070740938186645508e+00,2.035300016403198242e+00,2.001051664352416992e+00,1.967936992645263672e+00,1.935900092124938965e+00,1.904889941215515137e+00,1.874857544898986816e+00,1.845757365226745605e+00
2.605029106140136719e+00,2.604683399200439453e+00,2.604337453842163086e+00,2.603991746902465820e+00,2.603646039962768555e+00,2.603300571441650391e+00,2.602955102920532227e+00,2.602609634399414062e+00,2.602264642715454102e+00,2.601919412612915039e+00,2.601574420928955078e+00,2.601229190826416016e+00,2.600884437561035156e+00,2.600539684295654297e+00,2.600194931030273438e+00,2.599850177764892578e+00,2.599505662918090820e+00,2.599161386489868164e+00,2.598816871643066406e+00,2.598472595214843750e+00,2.598128557205200195e+00,2.597784519195556641e+00,2.597440481185913086e+00,2.597096681594848633e+00,2.596752882003784180e+00,2.596409082412719727e+00,2.596065521240234375e+00,2.595721960067749023e+00,2.595378637313842773e+00,2.595035076141357422e+00,2.594691991806030273e+00,2.594348669052124023e+00,2.594005823135375977e+00,2.593662738800048828e+00,2.593319892883300781e+00,2.592977046966552734e+00,2.592634201049804688e+00,2.592291593551635742e+00,2.087974548339843750e+00,1.585626602172851562e+00,1.580352544784545898e+00,2.590922117233276367e+00,2.590579986572265625e+00,2.590237855911254883e+00,2.589895963668823242e+00,2.589553833007812500e+00,2.589212179183959961e+00,2.588870286941528320e+00,2.588528871536254883e+00,2.588187217712402344e+00,2.587845802307128906e+00,2.587504386901855469e+00,2.587163209915161133e+00,2.586822032928466797e+00,2.586481094360351562e+00,2.586139917373657227e+00,2.585798978805541992e+00,2.585458278656005859e+00,2.585117578506469727e+00,2.584776878356933594e+00,2.584436416625976562e+00,2.561395168304443359e+00,2.507388114929199219e+00,2.455611467361450195e+00,2.405930042266845703e+00,2.358218908309936523e+00,2.312363147735595703e+00,2.268256902694702148e+00,2.225801706314086914e+00,2.184906482696533203e+00,2.145487070083618164e+00,2.107464551925659180e+00,2.070766448974609375e+00,2.035324573516845703e+00,2.001075267791748047e+00,1.967959880828857422e+00,1.935922503471374512e+00,1.904911518096923828e+00,1.874878287315368652e+00,1.845777511596679688e+00
2.255069732666015625e+00,2.254808664321899414e+00,2.254547834396362305e+00,2.254287004470825195e+00,2.254025936126708984e+00,2.253765344619750977e+00,2.253504753112792969e+00,2.253243923187255859e+00,2.252983331680297852e+00,2.252722740173339844e+00,2.252462387084960938e+00,2.252202033996582031e+00,2.251941680908203125e+00,2.251681327819824219e+00,2.251421213150024414e+00,2.251161098480224609e+00,2.250900983810424805e+00,2.250640869140625000e+00,2.250380992889404297e+00,2.250121116638183594e+00,2.249861001968383789e+00,2.249601364135742188e+00,2.249341726303100586e+00,2.249083042144775391e+00,2.248825311660766602e+00,2.248567581176757812e+00,2.248309612274169922e+00,2.248052120208740234e+00,2.247794389724731445e+00,2.247536897659301758e+00,2.247279405593872070e+00,2.247021913528442383e+00,2.246764659881591797e+00,2.246507406234741211e+00,2.246250152587890625e+00,2.245992898941040039e+00,2.245735883712768555e+00,2.245478630065917969e+00,1.977576613426208496e+00,1.546104073524475098e+00,1.535888910293579102e+00,2.244451045989990234e+00,2.244194269180297852e+00,2.243937492370605469e+00,2.243680715560913086e+00,2.243424177169799805e+00,2.243167638778686523e+00,2.242911338806152344e+00,2.242654800415039062e+00,2.242398262023925781e+00,2.242142200469970703e+00,2.241885900497436523e+00,2.241629600524902344e+00,2.241373538970947266e+00,2.241117477416992188e+00,2.240861415863037109e+00,2.240605592727661133e+00,2.240349531173706055e+00,2.240093708038330078e+00,2.239837884902954102e+00,2.239582061767578125e+00,2.239326715469360352e+00,2.239070892333984375e+00,2.238815546035766602e+00,2.238559961318969727e+00,2.238304615020751953e+00,2.238049030303955078e+00,2.237793922424316406e+00,2.225831031799316406e+00,2.184934854507446289e+00,2.145514249801635742e+00,2.107491016387939453e+00,2.070791959762573242e+00,2.035349130630493164e+00,2.001099348068237305e+00,1.967983007431030273e+00,1.935944795608520508e+00,1.904932975769042969e+00,1.874899148941040039e+00,1.845797777175903320e+00
1.988080859184265137e+00,1.987878084182739258e+00,1.987675309181213379e+00,1.987472534179687500e+00,1.987269878387451172e+00,1.987066984176635742e+00,1.986864328384399414e+00,1.986661791801452637e+00,1.986459255218505859e+00,1.986256837844848633e+00,1.986054062843322754e+00,1.985851764678955078e+00,1.985649347305297852e+00,1.985447049140930176e+00,1.985244750976562500e+00,1.985042572021484375e+00,1.984840154647827148e+00,1.984637975692749023e+00,1.984435796737670898e+00,1.984233736991882324e+00,1.984031677246093750e+00,1.983829498291015625e+00,1.983627557754516602e+00,1.983425617218017578e+00,1.983223795890808105e+00,1.983021974563598633e+00,1.982819914817810059e+00,1.982618212699890137e+00,1.982416510581970215e+00,1.982214808464050293e+00,1.982013225555419922e+00,1.981811642646789551e+00,1.981609821319580078e+00,1.981408357620239258e+00,1.981206893920898438e+00,1.981005430221557617e+00,1.980804085731506348e+00,1.980602502822875977e+00,1.980401158332824707e+00,1.502152800559997559e+00,1.489668607711791992e+00,1.513038396835327148e+00,1.979596138000488281e+00,1.979395031929016113e+00,1.979194045066833496e+00,1.978993058204650879e+00,1.978792071342468262e+00,1.978591084480285645e+00,1.978389978408813477e+00,1.978189110755920410e+00,1.977988362312316895e+00,1.977787613868713379e+00,1.977586865425109863e+00,1.977385878562927246e+00,1.977185249328613281e+00,1.976984739303588867e+00,1.976784110069274902e+00,1.976583600044250488e+00,1.976382851600646973e+00,1.976182460784912109e+00,1.975982069969177246e+00,1.975781679153442383e+00,1.975581407546997070e+00,1.975381135940551758e+00,1.975180625915527344e+00,1.974980354309082031e+00,1.974780321121215820e+00,1.974580168724060059e+00,1.974380016326904297e+00,1.974179863929748535e+00,1.973979830741882324e+00,1.973779797554016113e+00,1.973580002784729004e+00,1.973380088806152344e+00,1.973180055618286133e+00,1.968005776405334473e+00,1.935966849327087402e+00,1.904954552650451660e+00,1.874920129776000977e+00,1.845817923545837402e+00
1.777619957923889160e+00,1.777457594871520996e+00,1.777295470237731934e+00,1.777133345603942871e+00,1.776971340179443359e+00,1.776809334754943848e+00,1.776647090911865234e+00,1.776485085487365723e+00,1.776323199272155762e+00,1.776161313056945801e+00,1.775999426841735840e+00,1.775837302207946777e+00,1.775675535202026367e+00,1.775513768196105957e+00,1.775352001190185547e+00,1.775190234184265137e+00,1.775028467178344727e+00,1.774866580963134766e+00,1.774704933166503906e+00,1.774543404579162598e+00,1.774381756782531738e+00,1.774220228195190430e+00,1.774058461189270020e+00,1.773897051811218262e+00,1.773735523223876953e+00,1.773574113845825195e+00,1.773412704467773438e+00,1.773251056671142578e+00,1.773089766502380371e+00,1.772928357124328613e+00,1.772767066955566406e+00,1.772605776786804199e+00,1.772444605827331543e+00,1.772283196449279785e+00,1.772122025489807129e+00,1.771960854530334473e+00,1.771799683570861816e+00,1.771638631820678711e+00,1.470685124397277832e+00,1.438910722732543945e+00,1.435771465301513672e+00,1.430288434028625488e+00,1.770833373069763184e+00,1.770672321319580078e+00,1.770511388778686523e+00,1.770350575447082520e+00,1.770189762115478516e+00,1.770028948783874512e+00,1.769868135452270508e+00,1.769707202911376953e+00,1.769546508789062500e+00,1.769385814666748047e+00,1.769225239753723145e+00,1.769064545631408691e+00,1.768903732299804688e+00,1.768743157386779785e+00,1.768582701683044434e+00,1.768422126770019531e+00,1.768261671066284180e+00,1.768101096153259277e+00,1.767940640449523926e+00,1.767780184745788574e+00,1.767619848251342773e+00,1.767459511756896973e+00,1.767299294471740723e+00,1.767138719558715820e+00,1.766978502273559570e+00,1.766818284988403320e+00,1.766658186912536621e+00,1.766497969627380371e+00,1.766337633132934570e+00,1.766177535057067871e+00,1.766017436981201172e+00,1.765857458114624023e+00,1.765697479248046875e+00,1.765537261962890625e+00,1.765377402305603027e+00,1.765217423439025879e+00,1.765057563781738281e+00,1.764897704124450684e+00
1.607452630996704102e+00,1.607320070266723633e+00,1.607187271118164062e+00,1.607054710388183594e+00,1.606922268867492676e+00,1.606789708137512207e+00,1.606657266616821289e+00,1.606524586677551270e+00,1.606392145156860352e+00,1.606259822845458984e+00,1.606127381324768066e+00,1.605995059013366699e+00,1.605862498283386230e+00,1.605730175971984863e+00,1.605597853660583496e+00,1.605465531349182129e+00,1.605333328247070312e+00,1.605201005935668945e+00,1.605068683624267578e+00,1.604936480522155762e+00,1.604804277420043945e+00,1.604672193527221680e+00,1.604539990425109863e+00,1.604407668113708496e+00,1.604275584220886230e+00,1.604143619537353516e+00,1.604011535644531250e+00,1.603879451751708984e+00,1.603747367858886719e+00,1.603615403175354004e+00,1.603483438491821289e+00,1.603351473808288574e+00,1.603219509124755859e+00,1.603087663650512695e+00,1.602955579757690430e+00,1.602823734283447266e+00,1.602691888809204102e+00,1.602560162544250488e+00,1.602428317070007324e+00,1.602296352386474609e+00,1.602164626121520996e+00,1.602032899856567383e+00,1.601901292800903320e+00,1.601769566535949707e+00,1.601637721061706543e+00,1.601506114006042480e+00,1.601374506950378418e+00,1.601242899894714355e+00,1.601111292839050293e+00,1.600979804992675781e+00,1.600848078727722168e+00,1.600716590881347656e+00,1.600585103034973145e+00,1.600453615188598633e+00,1.600322246551513672e+00,1.600190639495849609e+00,1.600059270858764648e+00,1.599927783012390137e+00,1.599796533584594727e+00,1.599665164947509766e+00,1.599533677101135254e+00,1.599402427673339844e+00,1.599271178245544434e+00,1.599139928817749023e+00,1.599008679389953613e+00,1.598877429962158203e+00,1.598746180534362793e+00,1.598614931106567383e+00,1.598483800888061523e+00,1.598352670669555664e+00,1.598221659660339355e+00,1.598090410232543945e+00,1.597959280014038086e+00,1.597828269004821777e+00,1.597697257995605469e+00,1.597566246986389160e+00,1.597435116767883301e+00,1.597304224967956543e+00,1.597173333168029785e+00,1.597042441368103027e+00
1.467018485069274902e+00,1.466907978057861328e+00,1.466797590255737305e+00,1.466687083244323730e+00,1.466576695442199707e+00,1.466466307640075684e+00,1.466355919837951660e+00,1.466245651245117188e+00,1.466135144233703613e+00,1.466024875640869141e+00,1.465914607048034668e+00,1.465804338455200195e+00,1.465694069862365723e+00,1.465583682060241699e+00,1.465473413467407227e+00,1.465363264083862305e+00,1.465252995491027832e+00,1.465142846107482910e+00,1.465032696723937988e+00,1.464922428131103516e+00,1.464812278747558594e+00,1.464702248573303223e+00,1.464592099189758301e+00,1.464482069015502930e+00,1.464371800422668457e+00,1.464261770248413086e+00,1.464151740074157715e+00,1.464041829109191895e+00,1.463931798934936523e+00,1.463821649551391602e+00,1.463711738586425781e+00,1.463601827621459961e+00,1.463491797447204590e+00,1.463381886482238770e+00,1.463272094726562500e+00,1.463162064552307129e+00,1.463052153587341309e+00,1.462942361831665039e+00,1.462832570075988770e+00,1.462722659111022949e+00,1.462612748146057129e+00,1.462503075599670410e+00,1.462393283843994141e+00,1.462283492088317871e+00,1.462173819541931152e+00,1.462063908576965332e+00,1.461954236030578613e+00,1.461844563484191895e+00,1.461734890937805176e+00,1.461625337600708008e+00,1.461515665054321289e+00,1.461405873298645020e+00,1.461296319961547852e+00,1.461186766624450684e+00,1.461077213287353516e+00,1.460967659950256348e+00,1.460857987403869629e+00,1.460748434066772461e+00,1.460638999938964844e+00,1.460529446601867676e+00,1.460420012474060059e+00,1.460310459136962891e+00,1.460201025009155273e+00,1.460091590881347656e+00,1.459982275962829590e+00,1.459872841835021973e+00,1.459763526916503906e+00,1.459653973579406738e+00,1.459544658660888672e+00,1.459435343742370605e+00,1.459326028823852539e+00,1.459216713905334473e+00,1.459107398986816406e+00,1.458998084068298340e+00,1.458888888359069824e+00,1.458779692649841309e+00,1.458670496940612793e+00,1.458561182022094727e+00,1.458451986312866211e+00,1.458342790603637695e+00
1.349150657653808594e+00,1.349057197570800781e+00,1.348963856697082520e+00,1.348870515823364258e+00,1.348777055740356445e+00,1.348683595657348633e+00,1.348590254783630371e+00,1.348496913909912109e+00,1.348403692245483398e+00,1.348310232162475586e+00,1.348217010498046875e+00,1.348123669624328613e+00,1.348030447959899902e+00,1.347937226295471191e+00,1.347843885421752930e+00,1.347750544548034668e+00,1.347657442092895508e+00,1.347564220428466797e+00,1.347470998764038086e+00,1.347377777099609375e+00,1.347284555435180664e+00,1.347191452980041504e+00,1.347098350524902344e+00,1.347005248069763184e+00,1.346912145614624023e+00,1.346818923950195312e+00,1.346725821495056152e+00,1.346632719039916992e+00,1.346539735794067383e+00,1.346446633338928223e+00,1.346353530883789062e+00,1.346260428428649902e+00,1.346167445182800293e+00,1.346074461936950684e+00,1.345981478691101074e+00,1.345888495445251465e+00,1.345795512199401855e+00,1.345702528953552246e+00,1.345609545707702637e+00,1.345516681671142578e+00,1.345423817634582520e+00,1.345330834388732910e+00,1.345237851142883301e+00,1.345144987106323242e+00,1.345052123069763184e+00,1.344959378242492676e+00,1.344866394996643066e+00,1.344773650169372559e+00,1.344680786132812500e+00,1.344588041305541992e+00,1.344495177268981934e+00,1.344402432441711426e+00,1.344309568405151367e+00,1.344216823577880859e+00,1.344124197959899902e+00,1.344031453132629395e+00,1.343938708305358887e+00,1.343845963478088379e+00,1.343753218650817871e+00,1.343660593032836914e+00,1.343567967414855957e+00,1.343475341796875000e+00,1.343382596969604492e+00,1.343289971351623535e+00,1.343197345733642578e+00,1.343104839324951172e+00,1.343012213706970215e+00,1.342919707298278809e+00,1.342826962471008301e+00,1.342734456062316895e+00,1.342641949653625488e+00,1.342549443244934082e+00,1.342456936836242676e+00,1.342364311218261719e+00,1.342271924018859863e+00,1.342179417610168457e+00,1.342087030410766602e+00,1.341994524002075195e+00,1.341902017593383789e+00,1.341809630393981934e+00
1.248814463615417480e+00,1.248734474182128906e+00,1.248654484748840332e+00,1.248574495315551758e+00,1.248494505882263184e+00,1.248414397239685059e+00,1.248334407806396484e+00,1.248254418373107910e+00,1.248174428939819336e+00,1.248094558715820312e+00,1.248014450073242188e+00,1.247934579849243164e+00,1.247854590415954590e+00,1.247774720191955566e+00,1.247694849967956543e+00,1.247614860534667969e+00,1.247534990310668945e+00,1.247455120086669922e+00,1.247375249862670898e+00,1.247295379638671875e+00,1.247215628623962402e+00,1.247135639190673828e+00,1.247055888175964355e+00,1.246976017951965332e+00,1.246896266937255859e+00,1.246816515922546387e+00,1.246736645698547363e+00,1.246656894683837891e+00,1.246577143669128418e+00,1.246497392654418945e+00,1.246417641639709473e+00,1.246337771415710449e+00,1.246258020401000977e+00,1.246178388595581055e+00,1.246098637580871582e+00,1.246019005775451660e+00,1.245939373970031738e+00,1.245859622955322266e+00,1.245779871940612793e+00,1.245700240135192871e+00,1.245620608329772949e+00,1.245540976524353027e+00,1.245461344718933105e+00,1.245381712913513184e+00,1.245302081108093262e+00,1.245222568511962891e+00,1.245142936706542969e+00,1.245063304901123047e+00,1.244983792304992676e+00,1.244904279708862305e+00,1.244824767112731934e+00,1.244745135307312012e+00,1.244665622711181641e+00,1.244586110115051270e+00,1.244506597518920898e+00,1.244427084922790527e+00,1.244347691535949707e+00,1.244268178939819336e+00,1.244188666343688965e+00,1.244109272956848145e+00,1.244029760360717773e+00,1.243950366973876953e+00,1.243870973587036133e+00,1.243791460990905762e+00,1.243712067604064941e+00,1.243632674217224121e+00,1.243553400039672852e+00,1.243474006652832031e+00,1.243394613265991211e+00,1.243315219879150391e+00,1.243235945701599121e+00,1.243156552314758301e+00,1.243077278137207031e+00,1.242998003959655762e+00,1.242918610572814941e+00,1.242839336395263672e+00,1.242760062217712402e+00,1.242680788040161133e+00,1.242601633071899414e+00,1.242522239685058594e+00
1.162369251251220703e+00,1.162299990653991699e+00,1.162230610847473145e+00,1.162161350250244141e+00,1.162091970443725586e+00,1.162022709846496582e+00,1.161953330039978027e+00,1.161884069442749023e+00,1.161814808845520020e+00,1.161745548248291016e+00,1.161676287651062012e+00,1.161606907844543457e+00,1.161537647247314453e+00,1.161468386650085449e+00,1.161399245262145996e+00,1.161329984664916992e+00,1.161260724067687988e+00,1.161191463470458984e+00,1.161122322082519531e+00,1.161053061485290527e+00,1.160983920097351074e+00,1.160914778709411621e+00,1.160845518112182617e+00,1.160776376724243164e+00,1.160707235336303711e+00,1.160638093948364258e+00,1.160568952560424805e+00,1.160499811172485352e+00,1.160430669784545898e+00,1.160361528396606445e+00,1.160292506217956543e+00,1.160223364830017090e+00,1.160154223442077637e+00,1.160085082054138184e+00,1.160016059875488281e+00,1.159947037696838379e+00,1.159878015518188477e+00,1.159808874130249023e+00,1.159739851951599121e+00,1.159670829772949219e+00,1.159601807594299316e+00,1.159532785415649414e+00,1.159463763236999512e+00,1.159394741058349609e+00,1.159325718879699707e+00,1.159256696701049805e+00,1.159187793731689453e+00,1.159118890762329102e+00,1.159049749374389648e+00,1.158980846405029297e+00,1.158911943435668945e+00,1.158843040466308594e+00,1.158774137496948242e+00,1.158705234527587891e+00,1.158636212348937988e+00,1.158567309379577637e+00,1.158498406410217285e+00,1.158429503440856934e+00,1.158360719680786133e+00,1.158291816711425781e+00,1.158222913742065430e+00,1.158154129981994629e+00,1.158085227012634277e+00,1.158016443252563477e+00,1.157947540283203125e+00,1.157878756523132324e+00,1.157809972763061523e+00,1.157741189002990723e+00,1.157672405242919922e+00,1.157603502273559570e+00,1.157534718513488770e+00,1.157466053962707520e+00,1.157397270202636719e+00,1.157328486442565918e+00,1.157259821891784668e+00,1.157190918922424316e+00,1.157122254371643066e+00,1.157053589820861816e+00,1.156984806060791016e+00,1.156916141510009766e+00
1.087117075920104980e+00,1.087056398391723633e+00,1.086995720863342285e+00,1.086935043334960938e+00,1.086874485015869141e+00,1.086813807487487793e+00,1.086753249168395996e+00,1.086692571640014648e+00,1.086632013320922852e+00,1.086571335792541504e+00,1.086510777473449707e+00,1.086450219154357910e+00,1.086389541625976562e+00,1.086328983306884766e+00,1.086268424987792969e+00,1.086207866668701172e+00,1.086147308349609375e+00,1.086086750030517578e+00,1.086026191711425781e+00,1.085965633392333984e+00,1.085905194282531738e+00,1.085844635963439941e+00,1.085784196853637695e+00,1.085723519325256348e+00,1.085663080215454102e+00,1.085602641105651855e+00,1.085542082786560059e+00,1.085481643676757812e+00,1.085421085357666016e+00,1.085360646247863770e+00,1.085300207138061523e+00,1.085239768028259277e+00,1.085179328918457031e+00,1.085118770599365234e+00,1.085058450698852539e+00,1.084998011589050293e+00,1.084937572479248047e+00,1.084877133369445801e+00,1.084816813468933105e+00,1.084756374359130859e+00,1.084695935249328613e+00,1.084635496139526367e+00,1.084575176239013672e+00,1.084514856338500977e+00,1.084454417228698730e+00,1.084393978118896484e+00,1.084333658218383789e+00,1.084273338317871094e+00,1.084213018417358398e+00,1.084152579307556152e+00,1.084092259407043457e+00,1.084032058715820312e+00,1.083971738815307617e+00,1.083911418914794922e+00,1.083851099014282227e+00,1.083790779113769531e+00,1.083730459213256836e+00,1.083670258522033691e+00,1.083609938621520996e+00,1.083549737930297852e+00,1.083489418029785156e+00,1.083429098129272461e+00,1.083368897438049316e+00,1.083308696746826172e+00,1.083248496055603027e+00,1.083188176155090332e+00,1.083127975463867188e+00,1.083067774772644043e+00,1.083007574081420898e+00,1.082947373390197754e+00,1.082887053489685059e+00,1.082826972007751465e+00,1.082766771316528320e+00,1.082706570625305176e+00,1.082646489143371582e+00,1.082586288452148438e+00,1.082526087760925293e+00,1.082465887069702148e+00,1.082405805587768555e+00,1.082345724105834961e+00
1.021016120910644531e+00,1.020962595939636230e+00,1.020909070968627930e+00,1.020855545997619629e+00,1.020802140235900879e+00,1.020748615264892578e+00,1.020695090293884277e+00,1.020641684532165527e+00,1.020588159561157227e+00,1.020534753799438477e+00,1.020481228828430176e+00,1.020427823066711426e+00,1.020374417304992676e+00,1.020320892333984375e+00,1.020267486572265625e+00,1.020214080810546875e+00,1.020160675048828125e+00,1.020107269287109375e+00,1.020053744316101074e+00,1.020000338554382324e+00,1.019946932792663574e+00,1.019893646240234375e+00,1.019840240478515625e+00,1.019786834716796875e+00,1.019733428955078125e+00,1.019680023193359375e+00,1.019626736640930176e+00,1.019573330879211426e+00,1.019520044326782227e+00,1.019466638565063477e+00,1.019413232803344727e+00,1.019359946250915527e+00,1.019306659698486328e+00,1.019253253936767578e+00,1.019199967384338379e+00,1.019146680831909180e+00,1.019093275070190430e+00,1.019039988517761230e+00,1.018986701965332031e+00,1.018933415412902832e+00,1.018880128860473633e+00,1.018826842308044434e+00,1.018773555755615234e+00,1.018720269203186035e+00,1.018667101860046387e+00,1.018613696098327637e+00,1.018560528755187988e+00,1.018507242202758789e+00,1.018454074859619141e+00,1.018400788307189941e+00,1.018347501754760742e+00,1.018294334411621094e+00,1.018241047859191895e+00,1.018187880516052246e+00,1.018134713172912598e+00,1.018081545829772949e+00,1.018028259277343750e+00,1.017975091934204102e+00,1.017921924591064453e+00,1.017868757247924805e+00,1.017815589904785156e+00,1.017762303352355957e+00,1.017709136009216309e+00,1.017655968666076660e+00,1.017602920532226562e+00,1.017549753189086914e+00,1.017496585845947266e+00,1.017443418502807617e+00,1.017390251159667969e+00,1.017337203025817871e+00,1.017284035682678223e+00,1.017230868339538574e+00,1.017177820205688477e+00,1.017124652862548828e+00,1.017071604728698730e+00,1.017018556594848633e+00,1.016965389251708984e+00,1.016912341117858887e+00,1.016859173774719238e+00,1.016806125640869141e+00
9.624928236007690430e-01,9.624452590942382812e-01,9.623977541923522949e-01,9.623501300811767578e-01,9.623025655746459961e-01,9.622551202774047852e-01,9.622075557708740234e-01,9.621600508689880371e-01,9.621125459671020508e-01,9.620649814605712891e-01,9.620175361633300781e-01,9.619699716567993164e-01,9.619225263595581055e-01,9.618750214576721191e-01,9.618274569511413574e-01,9.617800712585449219e-01,9.617325067520141602e-01,9.616851210594177246e-01,9.616376161575317383e-01,9.615901112556457520e-01,9.615427255630493164e-01,9.614952206611633301e-01,9.614478349685668945e-01,9.614003300666809082e-01,9.613529443740844727e-01,9.613054394721984863e-01,9.612579941749572754e-01,9.612106084823608398e-01,9.611631631851196289e-01,9.611157774925231934e-01,9.610683321952819824e-01,9.610208868980407715e-01,9.609735608100891113e-01,9.609261155128479004e-01,9.608787894248962402e-01,9.608313441276550293e-01,9.607838988304138184e-01,9.607365727424621582e-01,9.606891870498657227e-01,9.606418609619140625e-01,9.605944752693176270e-01,9.605470299720764160e-01,9.604997634887695312e-01,9.604523777961730957e-01,9.604050517082214355e-01,9.603576660156250000e-01,9.603102803230285645e-01,9.602630138397216797e-01,9.602156281471252441e-01,9.601684212684631348e-01,9.601210355758666992e-01,9.600736498832702637e-01,9.600264430046081543e-01,9.599790573120117188e-01,9.599318504333496094e-01,9.598845243453979492e-01,9.598372578620910645e-01,9.597899317741394043e-01,9.597426056861877441e-01,9.596953988075256348e-01,9.596480727195739746e-01,9.596008658409118652e-01,9.595535397529602051e-01,9.595062732696533203e-01,9.594590663909912109e-01,9.594117403030395508e-01,9.593645930290222168e-01,9.593173265457153320e-01,9.592700004577636719e-01,9.592228531837463379e-01,9.591755867004394531e-01,9.591284394264221191e-01,9.590811729431152344e-01,9.590339064598083496e-01,9.589867591857910156e-01,9.589394927024841309e-01,9.588923454284667969e-01,9.588451385498046875e-01,9.587978720664978027e-01,9.587507843971252441e-01
9.103146791458129883e-01,9.102721810340881348e-01,9.102296233177185059e-01,9.101871848106384277e-01,9.101446270942687988e-01,9.101020693778991699e-01,9.100595712661743164e-01,9.100170135498046875e-01,9.099745750427246094e-01,9.099320173263549805e-01,9.098895192146301270e-01,9.098470807075500488e-01,9.098045229911804199e-01,9.097620844841003418e-01,9.097195863723754883e-01,9.096770882606506348e-01,9.096346497535705566e-01,9.095921516418457031e-01,9.095497131347656250e-01,9.095072150230407715e-01,9.094647169113159180e-01,9.094223380088806152e-01,9.093798398971557617e-01,9.093374609947204590e-01,9.092949628829956055e-01,9.092525839805603027e-01,9.092100858688354492e-01,9.091676473617553711e-01,9.091252684593200684e-01,9.090828299522399902e-01,9.090404510498046875e-01,9.089980125427246094e-01,9.089555144309997559e-01,9.089131951332092285e-01,9.088707566261291504e-01,9.088284373283386230e-01,9.087859988212585449e-01,9.087435603141784668e-01,9.087012410163879395e-01,9.086588025093078613e-01,9.086164832115173340e-01,9.085740447044372559e-01,9.085316658020019531e-01,9.084893465042114258e-01,9.084469079971313477e-01,9.084046483039855957e-01,9.083622097969055176e-01,9.083198308944702148e-01,9.082775712013244629e-01,9.082351922988891602e-01,9.081928730010986328e-01,9.081504940986633301e-01,9.081081151962280273e-01,9.080658555030822754e-01,9.080235362052917480e-01,9.079812169075012207e-01,9.079388976097106934e-01,9.078966379165649414e-01,9.078542590141296387e-01,9.078119397163391113e-01,9.077696800231933594e-01,9.077273607254028320e-01,9.076851010322570801e-01,9.076427817344665527e-01,9.076004624366760254e-01,9.075582623481750488e-01,9.075159430503845215e-01,9.074737429618835449e-01,9.074314236640930176e-01,9.073891043663024902e-01,9.073469042778015137e-01,9.073045849800109863e-01,9.072623848915100098e-01,9.072201251983642578e-01,9.071778655052185059e-01,9.071356654167175293e-01,9.070934057235717773e-01,9.070512056350708008e-01,9.070089459419250488e-01,9.069666862487792969e-01
8.635030388832092285e-01,8.634647130966186523e-01,8.634265065193176270e-01,8.633881807327270508e-01,8.633499741554260254e-01,8.633117079734802246e-01,8.632733821868896484e-01,8.632351756095886230e-01,8.631969094276428223e-01,8.631587028503417969e-01,8.631204366683959961e-01,8.630821704864501953e-01,8.630439639091491699e-01,8.630056977272033691e-01,8.629675507545471191e-01,8.629292845726013184e-01,8.628910183906555176e-01,8.628528714179992676e-01,8.628146052360534668e-01,8.627764582633972168e-01,8.627381920814514160e-01,8.626999855041503906e-01,8.626618385314941406e-01,8.626235723495483398e-01,8.625854253768920898e-01,8.625472187995910645e-01,8.625090718269348145e-01,8.624708652496337891e-01,8.624326586723327637e-01,8.623945116996765137e-01,8.623563051223754883e-01,8.623181581497192383e-01,8.622799515724182129e-01,8.622418045997619629e-01,8.622036576271057129e-01,8.621654510498046875e-01,8.621273636817932129e-01,8.620891571044921875e-01,8.620510101318359375e-01,8.620129227638244629e-01,8.619747161865234375e-01,8.619366288185119629e-01,8.618984818458557129e-01,8.618603348731994629e-01,8.618222475051879883e-01,8.617841005325317383e-01,8.617460131645202637e-01,8.617078661918640137e-01,8.616697192192077637e-01,8.616316318511962891e-01,8.615934848785400391e-01,8.615554571151733398e-01,8.615173101425170898e-01,8.614791631698608398e-01,8.614411354064941406e-01,8.614030480384826660e-01,8.613649606704711914e-01,8.613268733024597168e-01,8.612888455390930176e-01,8.612506985664367676e-01,8.612126111984252930e-01,8.611745834350585938e-01,8.611364960670471191e-01,8.610984683036804199e-01,8.610603809356689453e-01,8.610222935676574707e-01,8.609843254089355469e-01,8.609462380409240723e-01,8.609082102775573730e-01,8.608701229095458984e-01,8.608320951461791992e-01,8.607940673828125000e-01,8.607560396194458008e-01,8.607180118560791016e-01,8.606799840927124023e-01,8.606418967247009277e-01,8.606039285659790039e-01,8.605659008026123047e-01,8.605279326438903809e-01,8.604899048805236816e-01
8.212703466415405273e-01,8.212356567382812500e-01,8.212010264396667480e-01,8.211664557456970215e-01,8.211318254470825195e-01,8.210972547531127930e-01,8.210626244544982910e-01,8.210279941558837891e-01,8.209934234619140625e-01,8.209587931632995605e-01,8.209242820739746094e-01,8.208896517753601074e-01,8.208550214767456055e-01,8.208205103874206543e-01,8.207858800888061523e-01,8.207513093948364258e-01,8.207167387008666992e-01,8.206821084022521973e-01,8.206475973129272461e-01,8.206130266189575195e-01,8.205784559249877930e-01,8.205438852310180664e-01,8.205093145370483398e-01,8.204748034477233887e-01,8.204402327537536621e-01,8.204057216644287109e-01,8.203711509704589844e-01,8.203366398811340332e-01,8.203020691871643066e-01,8.202674984931945801e-01,8.202329874038696289e-01,8.201984167098999023e-01,8.201639652252197266e-01,8.201293945312500000e-01,8.200948238372802734e-01,8.200603723526000977e-01,8.200258016586303711e-01,8.199913501739501953e-01,8.199567794799804688e-01,8.199222683906555176e-01,8.198878169059753418e-01,8.198532462120056152e-01,8.198187947273254395e-01,8.197842836380004883e-01,8.197497725486755371e-01,8.197153210639953613e-01,8.196807503700256348e-01,8.196463584899902344e-01,8.196118474006652832e-01,8.195773363113403320e-01,8.195428848266601562e-01,8.195083737373352051e-01,8.194739222526550293e-01,8.194394707679748535e-01,8.194049596786499023e-01,8.193705081939697266e-01,8.193360567092895508e-01,8.193016052246093750e-01,8.192671537399291992e-01,8.192327618598937988e-01,8.191982507705688477e-01,8.191637992858886719e-01,8.191294074058532715e-01,8.190948963165283203e-01,8.190605044364929199e-01,8.190260529518127441e-01,8.189916014671325684e-01,8.189572095870971680e-01,8.189227581024169922e-01,8.188883662223815918e-01,8.188539147377014160e-01,8.188194632530212402e-01,8.187851309776306152e-01,8.187506794929504395e-01,8.187162876129150391e-01,8.186818361282348633e-01,8.186474442481994629e-01,8.186130523681640625e-01,8.185786604881286621e-01,8.185442686080932617e-01
7.829760313034057617e-01,7.829446196556091309e-01,7.829131484031677246e-01,7.828816175460815430e-01,7.828502058982849121e-01,7.828187346458435059e-01,7.827873229980468750e-01,7.827558517456054688e-01,7.827243804931640625e-01,7.826929688453674316e-01,7.826614975929260254e-01,7.826300859451293945e-01,7.825986146926879883e-01,7.825671434402465820e-01,7.825357913970947266e-01,7.825043201446533203e-01,7.824729084968566895e-01,7.824414372444152832e-01,7.824100255966186523e-01,7.823786139488220215e-01,7.823472023010253906e-01,7.823157906532287598e-01,7.822843790054321289e-01,7.822529077529907227e-01,7.822215557098388672e-01,7.821901440620422363e-01,7.821587324142456055e-01,7.821273207664489746e-01,7.820959687232971191e-01,7.820645570755004883e-01,7.820330858230590820e-01,7.820017933845520020e-01,7.819703221321105957e-01,7.819390296936035156e-01,7.819076180458068848e-01,7.818762063980102539e-01,7.818448543548583984e-01,7.818134427070617676e-01,7.817820906639099121e-01,7.817506790161132812e-01,7.817193269729614258e-01,7.816879749298095703e-01,7.816565632820129395e-01,7.816252708435058594e-01,7.815938591957092285e-01,7.815625071525573730e-01,7.815311551094055176e-01,7.814998030662536621e-01,7.814685106277465820e-01,7.814370989799499512e-01,7.814057469367980957e-01,7.813744544982910156e-01,7.813431024551391602e-01,7.813118100166320801e-01,7.812803983688354492e-01,7.812490463256835938e-01,7.812177538871765137e-01,7.811864018440246582e-01,7.811551690101623535e-01,7.811238169670104980e-01,7.810925245285034180e-01,7.810611724853515625e-01,7.810298204421997070e-01,7.809985876083374023e-01,7.809672355651855469e-01,7.809359431266784668e-01,7.809046506881713867e-01,7.808732986450195312e-01,7.808420658111572266e-01,7.808107137680053711e-01,7.807794809341430664e-01,7.807481288909912109e-01,7.807168364524841309e-01,7.806856036186218262e-01,7.806542515754699707e-01,7.806230187416076660e-01,7.805917263031005859e-01,7.805604338645935059e-01,7.805292010307312012e-01,7.804979085922241211e-01
