5.000000000000000000e+00,5.000000000000000000e+00,5.000000000000000000e+00,5.000000000000000000e+00,5.000000000000000000e+00,5.000000000000000000e+00,5.000000000000000000e+00,5.000000000000000000e+00,5.000000000000000000e+00,5.000000000000000000e+00,5.000000000000000000e+00,5.000000000000000000e+00,5.000000000000000000e+00,5.000000000000000000e+00,5.000000000000000000e+00,5.000000000000000000e+00,5.000000000000000000e+00,5.000000000000000000e+00,5.000000000000000000e+00,5.000000000000000000e+00,5.000000000000000000e+00,5.000000000000000000e+00,5.000000000000000000e+00,5.000000000000000000e+00,5.000000000000000000e+00,5.000000000000000000e+00,5.000000000000000000e+00,5.000000000000000000e+00,5.000000000000000000e+00,5.000000000000000000e+00,5.000000000000000000e+00,5.000000000000000000e+00,5.000000000000000000e+00,5.000000000000000000e+00,5.000000000000000000e+00,5.000000000000000000e+00,5.000000000000000000e+00,5.000000000000000000e+00,5.000000000000000000e+00,4.864639759063720703e+00,4.673455238342285156e+00,4.496730327606201172e+00,4.332883834838867188e+00,4.180557727813720703e+00,4.038577556610107422e+00,3.905925273895263672e+00,3.781709909439086914e+00,3.665151357650756836e+00,3.555563211441040039e+00,3.452338218688964844e+00,3.354937553405761719e+00,3.262882471084594727e+00,3.175743818283081055e+00,3.093138217926025391e+00,3.014721393585205078e+00,2.940182209014892578e+00,2.869239807128906250e+00,2.801640748977661133e+00,2.737153053283691406e+00,2.675567865371704102e+00,2.616692543029785156e+00,2.560352563858032227e+00,2.506387710571289062e+00,2.454650640487670898e+00,2.405006408691406250e+00,2.357330560684204102e+00,2.311507701873779297e+00,2.267432689666748047e+00,2.225007057189941406e+00,2.184139728546142578e+00,2.144746780395507812e+00,2.106749534606933594e+00,2.070075035095214844e+00,2.034655809402465820e+00,2.000428199768066406e+00,1.967333197593688965e+00,1.935315132141113281e+00,1.904322743415832520e+00,1.874307155609130859e+00,1.845223188400268555e+00
5.000000000000000000e+00,5.000000000000000000e+00,5.000000000000000000e+00,5.000000000000000000e+00,5.000000000000000000e+00,5.000000000000000000e+00,5.000000000000000000e+00,5.000000000000000000e+00,5.000000000000000000e+00,5.000000000000000000e+00,5.000000000000000000e+00,5.000000000000000000e+00,5.000000000000000000e+00,5.000000000000000000e+00,5.000000000000000000e+00,5.000000000000000000e+00,5.000000000000000000e+00,5.000000000000000000e+00,5.000000000000000000e+00,5.000000000000000000e+00,5.000000000000000000e+00,5.000000000000000000e+00,5.000000000000000000e+00,5.000000000000000000e+00,5.000000000000000000e+00,5.000000000000000000e+00,5.000000000000000000e+00,5.000000000000000000e+00,5.000000000000000000e+00,5.000000000000000000e+00,5.000000000000000000e+00,5.000000000000000000e+00,5.000000000000000000e+00,5.000000000000000000e+00,5.000000000000000000e+00,5.000000000000000000e+00,5.000000000000000000e+00,5.000000000000000000e+00,5.000000000000000000e+00,4.864778518676757812e+00,4.673583507537841797e+00,4.496849060058593750e+00,4.332993984222412109e+00,4.180659770965576172e+00,4.038673400878906250e+00,3.906014680862426758e+00,3.781793594360351562e+00,3.665230274200439453e+00,3.555637359619140625e+00,3.452408313751220703e+00,3.355003595352172852e+00,3.262944698333740234e+00,3.175802946090698242e+00,3.093194484710693359e+00,3.014774560928344727e+00,2.940232992172241211e+00,2.869288206100463867e+00,2.801686763763427734e+00,2.737197160720825195e+00,2.675609588623046875e+00,2.616732835769653320e+00,2.560391187667846680e+00,2.506424427032470703e+00,2.454686164855957031e+00,2.405040264129638672e+00,2.357363224029541016e+00,2.311539173126220703e+00,2.267462730407714844e+00,2.225036144256591797e+00,2.184167861938476562e+00,2.144773721694946289e+00,2.106775522232055664e+00,2.070100069046020508e+00,2.034680128097534180e+00,2.000451564788818359e+00,1.967355728149414062e+00,1.935337066650390625e+00,1.904343843460083008e+00,1.874327659606933594e+00,1.845243215560913086e+00
5.000000000000000000e+00,5.000000000000000000e+00,5.000000000000000000e+00,5.000000000000000000e+00,5.000000000000000000e+00,5.000000000000000000e+00,5.000000000000000000e+00,5.000000000000000000e+00,5.000000000000000000e+00,5.000000000000000000e+00,5.000000000000000000e+00,5.000000000000000000e+00,5.000000000000000000e+00,5.000000000000000000e+00,5.000000000000000000e+00,5.000000000000000000e+00,5.000000000000000000e+00,5.000000000000000000e+00,5.000000000000000000e+00,5.000000000000000000e+00,5.000000000000000000e+00,5.000000000000000000e+00,5.000000000000000000e+00,5.000000000000000000e+00,5.000000000000000000e+00,5.000000000000000000e+00,5.000000000000000000e+00,5.000000000000000000e+00,5.000000000000000000e+00,5.000000000000000000e+00,5.000000000000000000e+00,5.000000000000000000e+00,5.000000000000000000e+00,5.000000000000000000e+00,5.000000000000000000e+00,5.000000000000000000e+00,5.000000000000000000e+00,5.000000000000000000e+00,5.000000000000000000e+00,4.864917278289794922e+00,4.673711299896240234e+00,4.496967315673828125e+00,4.333104133605957031e+00,4.180762767791748047e+00,4.038768768310546875e+00,3.906104326248168945e+00,3.781877517700195312e+00,3.665309190750122070e+00,3.555711507797241211e+00,3.452477931976318359e+00,3.355069875717163086e+00,3.263007164001464844e+00,3.175861835479736328e+00,3.093250513076782227e+00,3.014827966690063477e+00,2.940283775329589844e+00,2.869336605072021484e+00,2.801732540130615234e+00,2.737241029739379883e+00,2.675651788711547852e+00,2.616772890090942383e+00,2.560429573059082031e+00,2.506461381912231445e+00,2.454721450805664062e+00,2.405074357986450195e+00,2.357395648956298828e+00,2.311570644378662109e+00,2.267493009567260742e+00,2.225064992904663086e+00,2.184195756912231445e+00,2.144800662994384766e+00,2.106801509857177734e+00,2.070125341415405273e+00,2.034704208374023438e+00,2.000475168228149414e+00,1.967378377914428711e+00,1.935358881950378418e+00,1.904365301132202148e+00,1.874348402023315430e+00,1.845263123512268066e+00
5.000000000000000000e+00,5.000000000000000000e+00,5.000000000000000000e+00,5.000000000000000000e+00,5.000000000000000000e+00,5.000000000000000000e+00,5.000000000000000000e+00,5.000000000000000000e+00,5.000000000000000000e+00,5.000000000000000000e+00,5.000000000000000000e+00,5.000000000000000000e+00,5.000000000000000000e+00,5.000000000000000000e+00,5.000000000000000000e+00,5.000000000000000000e+00,5.000000000000000000e+00,5.000000000000000000e+00,5.000000000000000000e+00,5.000000000000000000e+00,5.000000000000000000e+00,5.000000000000000000e+00,5.000000000000000000e+00,5.000000000000000000e+00,5.000000000000000000e+00,5.000000000000000000e+00,5.000000000000000000e+00,5.000000000000000000e+00,5.000000000000000000e+00,5.000000000000000000e+00,5.000000000000000000e+00,5.000000000000000000e+00,5.000000000000000000e+00,5.000000000000000000e+00,5.000000000000000000e+00,5.000000000000000000e+00,5.000000000000000000e+00,5.000000000000000000e+00,5.000000000000000000e+00,4.865056037902832031e+00,4.673839569091796875e+00,4.497086048126220703e+00,4.333213806152343750e+00,4.180864810943603516e+00,4.038864612579345703e+00,3.906193971633911133e+00,3.781961441040039062e+00,3.665387630462646484e+00,3.555785894393920898e+00,3.452547788619995117e+00,3.355135440826416016e+00,3.263069629669189453e+00,3.175921201705932617e+00,3.093306779861450195e+00,3.014881372451782227e+00,2.940334320068359375e+00,2.869385004043579102e+00,2.801778793334960938e+00,2.737284898757934570e+00,2.675693750381469727e+00,2.616812944412231445e+00,2.560467958450317383e+00,2.506498336791992188e+00,2.454756736755371094e+00,2.405108213424682617e+00,2.357428312301635742e+00,2.311601638793945312e+00,2.267523288726806641e+00,2.225094079971313477e+00,2.184223890304565430e+00,2.144827604293823242e+00,2.106827497482299805e+00,2.070150375366210938e+00,2.034728527069091797e+00,2.000498533248901367e+00,1.967401146888732910e+00,1.935381054878234863e+00,1.904386401176452637e+00,1.874368906021118164e+00,1.845283031463623047e+00
5.000000000000000000e+00,5.000000000000000000e+00,5.000000000000000000e+00,5.000000000000000000e+00,5.000000000000000000e+00,5.000000000000000000e+00,5.000000000000000000e+00,5.000000000000000000e+00,5.000000000000000000e+00,5.000000000000000000e+00,5.000000000000000000e+00,5.000000000000000000e+00,5.000000000000000000e+00,5.000000000000000000e+00,5.000000000000000000e+00,5.000000000000000000e+00,5.000000000000000000e+00,5.000000000000000000e+00,5.000000000000000000e+00,5.000000000000000000e+00,5.000000000000000000e+00,5.000000000000000000e+00,5.000000000000000000e+00,5.000000000000000000e+00,5.000000000000000000e+00,3.650783300399780273e+00,3.673164367675781250e+00,5.000000000000000000e+00,5.000000000000000000e+00,5.000000000000000000e+00,5.000000000000000000e+00,5.000000000000000000e+00,5.000000000000000000e+00,5.000000000000000000e+00,5.000000000000000000e+00,5.000000000000000000e+00,5.000000000000000000e+00,5.000000000000000000e+00,5.000000000000000000e+00,4.865194797515869141e+00,4.673967838287353516e+00,4.497204780578613281e+00,4.333323955535888672e+00,4.180967330932617188e+00,4.038960456848144531e+00,3.906283140182495117e+00,3.782045364379882812e+00,3.665466547012329102e+00,3.555859565734863281e+00,3.452617883682250977e+00,3.355201721191406250e+00,3.263132095336914062e+00,3.175980329513549805e+00,3.093362808227539062e+00,3.014934539794921875e+00,2.940385103225708008e+00,2.869432926177978516e+00,2.801824808120727539e+00,2.737328767776489258e+00,2.675735712051391602e+00,2.616853237152099609e+00,2.560506343841552734e+00,2.506535291671752930e+00,2.454792022705078125e+00,2.405142068862915039e+00,2.357460737228393555e+00,2.311633110046386719e+00,2.267553329467773438e+00,2.225123167037963867e+00,2.184251785278320312e+00,2.144854545593261719e+00,2.106853485107421875e+00,2.070175409317016602e+00,2.034752845764160156e+00,2.000521898269653320e+00,1.967423796653747559e+00,1.935402870178222656e+00,1.904407620429992676e+00,1.874389648437500000e+00,1.845303177833557129e+00
5.000000000000000000e+00,5.000000000000000000e+00,5.000000000000000000e+00,5.000000000000000000e+00,5.000000000000000000e+00,5.000000000000000000e+00,5.000000000000000000e+00,5.000000000000000000e+00,5.000000000000000000e+00,5.000000000000000000e+00,5.000000000000000000e+00,5.000000000000000000e+00,5.000000000000000000e+00,5.000000000000000000e+00,5.000000000000000000e+00,5.000000000000000000e+00,5.000000000000000000e+00,5.000000000000000000e+00,5.000000000000000000e+00,5.000000000000000000e+00,5.000000000000000000e+00,5.000000000000000000e+00,5.000000000000000000e+00,5.000000000000000000e+00,5.000000000000000000e+00,3.663814783096313477e+00,3.672804832458496094e+00,5.000000000000000000e+00,5.000000000000000000e+00,5.000000000000000000e+00,5.000000000000000000e+00,5.000000000000000000e+00,5.000000000000000000e+00,5.000000000000000000e+00,5.000000000000000000e+00,5.000000000000000000e+00,5.000000000000000000e+00,5.000000000000000000e+00,5.000000000000000000e+00,4.865333557128906250e+00,4.674096107482910156e+00,4.497323513031005859e+00,4.333434581756591797e+00,4.181069850921630859e+00,4.039055824279785156e+00,3.906372547149658203e+00,3.782129526138305664e+00,3.665545463562011719e+00,3.555933952331542969e+00,3.452687740325927734e+00,3.355267763137817383e+00,3.263194322586059570e+00,3.176039457321166992e+00,3.093418836593627930e+00,3.014987945556640625e+00,2.940435647964477539e+00,2.869481325149536133e+00,2.801870822906494141e+00,2.737372875213623047e+00,2.675777673721313477e+00,2.616893291473388672e+00,2.560544729232788086e+00,2.506572008132934570e+00,2.454827308654785156e+00,2.405175924301147461e+00,2.357493400573730469e+00,2.311664581298828125e+00,2.267583370208740234e+00,2.225152254104614258e+00,2.184279680252075195e+00,2.144881725311279297e+00,2.106879711151123047e+00,2.070200681686401367e+00,2.034777164459228516e+00,2.000545501708984375e+00,1.967446446418762207e+00,1.935425043106079102e+00,1.904429078102111816e+00,1.874410152435302734e+00,1.845323085784912109e+00
5.000000000000000000e+00,5.000000000000000000e+00,5.000000000000000000e+00,5.000000000000000000e+00,5.000000000000000000e+00,5.000000000000000000e+00,5.000000000000000000e+00,5.000000000000000000e+00,5.000000000000000000e+00,5.000000000000000000e+00,5.000000000000000000e+00,5.000000000000000000e+00,5.000000000000000000e+00,5.000000000000000000e+00,5.000000000000000000e+00,5.000000000000000000e+00,5.000000000000000000e+00,5.000000000000000000e+00,5.000000000000000000e+00,5.000000000000000000e+00,5.000000000000000000e+00,5.000000000000000000e+00,5.000000000000000000e+00,5.000000000000000000e+00,5.000000000000000000e+00,3.668549060821533203e+00,3.684982299804687500e+00,5.000000000000000000e+00,5.000000000000000000e+00,5.000000000000000000e+00,5.000000000000000000e+00,5.000000000000000000e+00,5.000000000000000000e+00,5.000000000000000000e+00,5.000000000000000000e+00,5.000000000000000000e+00,5.000000000000000000e+00,5.000000000000000000e+00,5.000000000000000000e+00,4.865472316741943359e+00,4.674224376678466797e+00,4.497441768646240234e+00,4.333544254302978516e+00,4.181172370910644531e+00,4.039151668548583984e+00,3.906462192535400391e+00,3.782212972640991211e+00,3.665624380111694336e+00,3.556008100509643555e+00,3.452757358551025391e+00,3.355333805084228516e+00,3.263256788253784180e+00,3.176098823547363281e+00,3.093475103378295898e+00,3.015041112899780273e+00,2.940486431121826172e+00,2.869529724121093750e+00,2.801916837692260742e+00,2.737416744232177734e+00,2.675819635391235352e+00,2.616933584213256836e+00,2.560583353042602539e+00,2.506608724594116211e+00,2.454862833023071289e+00,2.405210018157958984e+00,2.357525825500488281e+00,2.311695814132690430e+00,2.267613649368286133e+00,2.225181341171264648e+00,2.184307813644409180e+00,2.144908428192138672e+00,2.106905698776245117e+00,2.070225715637207031e+00,2.034801483154296875e+00,2.000568866729736328e+00,1.967469215393066406e+00,1.935446858406066895e+00,1.904450178146362305e+00,1.874430656433105469e+00,1.845343112945556641e+00
5.000000000000000000e+00,5.000000000000000000e+00,5.000000000000000000e+00,5.000000000000000000e+00,5.000000000000000000e+00,5.000000000000000000e+00,5.000000000000000000e+00,5.000000000000000000e+00,5.000000000000000000e+00,5.000000000000000000e+00,5.000000000000000000e+00,5.000000000000000000e+00,5.000000000000000000e+00,5.000000000000000000e+00,5.000000000000000000e+00,5.000000000000000000e+00,5.000000000000000000e+00,5.000000000000000000e+00,5.000000000000000000e+00,5.000000000000000000e+00,5.000000000000000000e+00,5.000000000000000000e+00,5.000000000000000000e+00,5.000000000000000000e+00,5.000000000000000000e+00,3.750559329986572266e+00,3.748982429504394531e+00,5.000000000000000000e+00,5.000000000000000000e+00,5.000000000000000000e+00,5.000000000000000000e+00,5.000000000000000000e+00,5.000000000000000000e+00,5.000000000000000000e+00,5.000000000000000000e+00,5.000000000000000000e+00,5.000000000000000000e+00,5.000000000000000000e+00,5.000000000000000000e+00,4.865611076354980469e+00,4.674352169036865234e+00,4.497560501098632812e+00,4.333654880523681641e+00,4.181274890899658203e+00,4.039247512817382812e+00,3.906551837921142578e+00,3.782296895980834961e+00,3.665702819824218750e+00,3.556082248687744141e+00,3.452827453613281250e+00,3.355399847030639648e+00,3.263319253921508789e+00,3.176157712936401367e+00,3.093531131744384766e+00,3.015094518661499023e+00,2.940536975860595703e+00,2.869578123092651367e+00,2.801962852478027344e+00,2.737460851669311523e+00,2.675861597061157227e+00,2.616973638534545898e+00,2.560621738433837891e+00,2.506645679473876953e+00,2.454898118972778320e+00,2.405243873596191406e+00,2.357558488845825195e+00,2.311727285385131836e+00,2.267643690109252930e+00,2.225210189819335938e+00,2.184335708618164062e+00,2.144935607910156250e+00,2.106931686401367188e+00,2.070250988006591797e+00,2.034825801849365234e+00,2.000592470169067383e+00,1.967491865158081055e+00,1.935468792915344238e+00,1.904471635818481445e+00,1.874451398849487305e+00,1.845363020896911621e+00
5.000000000000000000e+00,5.000000000000000000e+00,5.000000000000000000e+00,5.000000000000000000e+00,5.000000000000000000e+00,5.000000000000000000e+00,5.000000000000000000e+00,5.000000000000000000e+00,5.000000000000000000e+00,5.000000000000000000e+00,5.000000000000000000e+00,5.000000000000000000e+00,5.000000000000000000e+00,5.000000000000000000e+00,5.000000000000000000e+00,5.000000000000000000e+00,5.000000000000000000e+00,5.000000000000000000e+00,5.000000000000000000e+00,5.000000000000000000e+00,5.000000000000000000e+00,5.000000000000000000e+00,3.685784578323364258e+00,3.692733764648437500e+00,3.676779747009277344e+00,3.686991691589355469e+00,3.690788030624389648e+00,3.717060804367065430e+00,3.740861177444458008e+00,3.765870094299316406e+00,5.000000000000000000e+00,5.000000000000000000e+00,5.000000000000000000e+00,5.000000000000000000e+00,5.000000000000000000e+00,5.000000000000000000e+00,5.000000000000000000e+00,5.000000000000000000e+00,5.000000000000000000e+00,4.865750312805175781e+00,4.674480438232421875e+00,4.497679233551025391e+00,4.333764553070068359e+00,4.181377410888671875e+00,4.039343357086181641e+00,3.906641006469726562e+00,3.782381057739257812e+00,3.665781736373901367e+00,3.556156635284423828e+00,3.452897548675537109e+00,3.355465650558471680e+00,3.263381958007812500e+00,3.176216840744018555e+00,3.093587160110473633e+00,3.015147924423217773e+00,2.940587759017944336e+00,2.869626283645629883e+00,2.802008867263793945e+00,2.737504482269287109e+00,2.675903797149658203e+00,2.617013931274414062e+00,2.560660123825073242e+00,2.506682634353637695e+00,2.454933404922485352e+00,2.405277967453002930e+00,2.357591152191162109e+00,2.311758518218994141e+00,2.267673969268798828e+00,2.225239276885986328e+00,2.184363603591918945e+00,2.144962549209594727e+00,2.106957674026489258e+00,2.070276021957397461e+00,2.034850120544433594e+00,2.000615835189819336e+00,1.967514753341674805e+00,1.935490846633911133e+00,1.904492855072021484e+00,1.874472022056579590e+00,1.845382928848266602e+00
5.000000000000000000e+00,5.000000000000000000e+00,5.000000000000000000e+00,5.000000000000000000e+00,5.000000000000000000e+00,5.000000000000000000e+00,5.000000000000000000e+00,5.000000000000000000e+00,5.000000000000000000e+00,5.000000000000000000e+00,5.000000000000000000e+00,5.000000000000000000e+00,5.000000000000000000e+00,5.000000000000000000e+00,5.000000000000000000e+00,5.000000000000000000e+00,5.000000000000000000e+00,5.000000000000000000e+00,5.000000000000000000e+00,5.000000000000000000e+00,5.000000000000000000e+00,5.000000000000000000e+00,3.679941654205322266e+00,3.666594266891479492e+00,3.633403778076171875e+00,3.641476392745971680e+00,3.642039060592651367e+00,3.674998521804809570e+00,3.738860845565795898e+00,3.759981393814086914e+00,5.000000000000000000e+00,5.000000000000000000e+00,5.000000000000000000e+00,5.000000000000000000e+00,5.000000000000000000e+00,5.000000000000000000e+00,5.000000000000000000e+00,5.000000000000000000e+00,5.000000000000000000e+00,4.865888595581054688e+00,4.674608230590820312e+00,4.497797966003417969e+00,4.333874702453613281e+00,4.181479930877685547e+00,4.039438724517822266e+00,3.906730651855468750e+00,3.782464981079101562e+00,3.665860652923583984e+00,3.556230545043945312e+00,3.452967405319213867e+00,3.355531692504882812e+00,3.263444185256958008e+00,3.176276206970214844e+00,3.093643426895141602e+00,3.015201330184936523e+00,2.940638542175292969e+00,2.869674444198608398e+00,2.802055120468139648e+00,2.737548589706420898e+00,2.675945520401000977e+00,2.617053985595703125e+00,2.560698747634887695e+00,2.506719350814819336e+00,2.454968690872192383e+00,2.405311584472656250e+00,2.357623815536499023e+00,2.311789751052856445e+00,2.267704010009765625e+00,2.225268363952636719e+00,2.184391498565673828e+00,2.144989490509033203e+00,2.106983900070190430e+00,2.070301055908203125e+00,2.034874439239501953e+00,2.000639438629150391e+00,1.967537283897399902e+00,1.935512781143188477e+00,1.904513955116271973e+00,1.874492645263671875e+00,1.845402956008911133e+00
5.000000000000000000e+00,5.000000000000000000e+00,5.000000000000000000e+00,5.000000000000000000e+00,5.000000000000000000e+00,5.000000000000000000e+00,5.000000000000000000e+00,5.000000000000000000e+00,5.000000000000000000e+00,5.000000000000000000e+00,5.000000000000000000e+00,5.000000000000000000e+00,5.000000000000000000e+00,5.000000000000000000e+00,5.000000000000000000e+00,5.000000000000000000e+00,5.000000000000000000e+00,5.000000000000000000e+00,5.000000000000000000e+00,5.000000000000000000e+00,5.000000000000000000e+00,5.000000000000000000e+00,3.696751356124877930e+00,3.680867910385131836e+00,3.638758420944213867e+00,3.637231826782226562e+00,3.643110990524291992e+00,3.674426078796386719e+00,3.760930538177490234e+00,3.776527881622314453e+00,5.000000000000000000e+00,5.000000000000000000e+00,5.000000000000000000e+00,5.000000000000000000e+00,5.000000000000000000e+00,5.000000000000000000e+00,5.000000000000000000e+00,5.000000000000000000e+00,5.000000000000000000e+00,4.866027832031250000e+00,4.674736499786376953e+00,4.497916221618652344e+00,4.333984851837158203e+00,4.181582450866699219e+00,4.039534568786621094e+00,3.906820058822631836e+00,3.782548666000366211e+00,3.665939569473266602e+00,3.556304693222045898e+00,3.453037023544311523e+00,3.355597972869873047e+00,3.263506650924682617e+00,3.176335334777832031e+00,3.093699455261230469e+00,3.015254259109497070e+00,2.940689325332641602e+00,2.869722843170166016e+00,2.802100896835327148e+00,2.737592697143554688e+00,2.675987482070922852e+00,2.617094278335571289e+00,2.560737133026123047e+00,2.506756067276000977e+00,2.455004215240478516e+00,2.405345678329467773e+00,2.357656240463256836e+00,2.311821222305297852e+00,2.267734289169311523e+00,2.225297451019287109e+00,2.184419631958007812e+00,2.145016431808471680e+00,2.107009887695312500e+00,2.070326328277587891e+00,2.034898519515991211e+00,2.000662803649902344e+00,1.967559933662414551e+00,1.935534834861755371e+00,1.904535412788391113e+00,1.874513268470764160e+00,1.845422863960266113e+00
5.000000000000000000e+00,5.000000000000000000e+00,5.000000000000000000e+00,5.000000000000000000e+00,5.000000000000000000e+00,5.000000000000000000e+00,5.000000000000000000e+00,5.000000000000000000e+00,5.000000000000000000e+00,5.000000000000000000e+00,5.000000000000000000e+00,5.000000000000000000e+00,5.000000000000000000e+00,5.000000000000000000e+00,5.000000000000000000e+00,5.000000000000000000e+00,5.000000000000000000e+00,5.000000000000000000e+00,5.000000000000000000e+00,5.000000000000000000e+00,5.000000000000000000e+00,5.000000000000000000e+00,3.701502084732055664e+00,3.706945657730102539e+00,3.646394252777099609e+00,3.630033969879150391e+00,3.643630266189575195e+00,3.684113502502441406e+00,3.784889698028564453e+00,3.786705493927001953e+00,5.000000000000000000e+00,5.000000000000000000e+00,5.000000000000000000e+00,5.000000000000000000e+00,5.000000000000000000e+00,5.000000000000000000e+00,5.000000000000000000e+00,5.000000000000000000e+00,5.000000000000000000e+00,4.866167068481445312e+00,4.674864768981933594e+00,4.498034954071044922e+00,4.334095001220703125e+00,4.181685447692871094e+00,4.039629936218261719e+00,3.906909704208374023e+00,3.782632589340209961e+00,3.666018247604370117e+00,3.556378841400146484e+00,3.453107118606567383e+00,3.355664014816284180e+00,3.263569116592407227e+00,3.176394224166870117e+00,3.093755722045898438e+00,3.015307664871215820e+00,2.940740108489990234e+00,2.869771242141723633e+00,2.802146911621093750e+00,2.737636566162109375e+00,2.676029682159423828e+00,2.617134332656860352e+00,2.560775518417358398e+00,2.506793022155761719e+00,2.455039501190185547e+00,2.405379533767700195e+00,2.357688903808593750e+00,2.311852693557739258e+00,2.267764329910278320e+00,2.225326299667358398e+00,2.184447526931762695e+00,2.145043373107910156e+00,2.107035875320434570e+00,2.070351362228393555e+00,2.034922838211059570e+00,2.000686407089233398e+00,1.967582821846008301e+00,1.935556769371032715e+00,1.904556632041931152e+00,1.874533772468566895e+00,1.845443010330200195e+00
5.000000000000000000e+00,5.000000000000000000e+00,5.000000000000000000e+00,5.000000000000000000e+00,5.000000000000000000e+00,5.000000000000000000e+00,5.000000000000000000e+00,5.000000000000000000e+00,5.000000000000000000e+00,5.000000000000000000e+00,5.000000000000000000e+00,5.000000000000000000e+00,5.000000000000000000e+00,5.000000000000000000e+00,5.000000000000000000e+00,5.000000000000000000e+00,5.000000000000000000e+00,5.000000000000000000e+00,5.000000000000000000e+00,5.000000000000000000e+00,5.000000000000000000e+00,5.000000000000000000e+00,3.702990293502807617e+00,3.708526372909545898e+00,3.649124145507812500e+00,3.635990381240844727e+00,3.647395372390747070e+00,3.683619022369384766e+00,3.800949096679687500e+00,3.796466588973999023e+00,5.000000000000000000e+00,5.000000000000000000e+00,5.000000000000000000e+00,5.000000000000000000e+00,5.000000000000000000e+00,5.000000000000000000e+00,5.000000000000000000e+00,5.000000000000000000e+00,5.000000000000000000e+00,4.866305351257324219e+00,4.674993038177490234e+00,4.498153686523437500e+00,4.334205150604248047e+00,4.181787490844726562e+00,4.039725780487060547e+00,3.906999349594116211e+00,3.782716512680053711e+00,3.666096925735473633e+00,3.556453227996826172e+00,3.453176975250244141e+00,3.355729818344116211e+00,3.263631582260131836e+00,3.176453590393066406e+00,3.093811988830566406e+00,3.015361070632934570e+00,2.940790653228759766e+00,2.869819641113281250e+00,2.802193164825439453e+00,2.737680435180664062e+00,2.676071643829345703e+00,2.617174386978149414e+00,2.560814142227172852e+00,2.506829977035522461e+00,2.455074787139892578e+00,2.405413627624511719e+00,2.357721567153930664e+00,2.311883926391601562e+00,2.267794609069824219e+00,2.225355386734008789e+00,2.184475660324096680e+00,2.145070552825927734e+00,2.107061862945556641e+00,2.070376634597778320e+00,2.034947156906127930e+00,2.000709772109985352e+00,1.967605352401733398e+00,1.935578584671020508e+00,1.904577970504760742e+00,1.874554514884948730e+00,1.845462918281555176e+00
5.000000000000000000e+00,5.000000000000000000e+00,5.000000000000000000e+00,5.000000000000000000e+00,5.000000000000000000e+00,5.000000000000000000e+00,5.000000000000000000e+00,5.000000000000000000e+00,5.000000000000000000e+00,5.000000000000000000e+00,5.000000000000000000e+00,5.000000000000000000e+00,5.000000000000000000e+00,5.000000000000000000e+00,5.000000000000000000e+00,5.000000000000000000e+00,5.000000000000000000e+00,5.000000000000000000e+00,5.000000000000000000e+00,5.000000000000000000e+00,5.000000000000000000e+00,5.000000000000000000e+00,3.705336809158325195e+00,3.722967386245727539e+00,3.628881931304931641e+00,3.630352497100830078e+00,3.639125347137451172e+00,3.673635482788085938e+00,5.000000000000000000e+00,3.810431957244873047e+00,5.000000000000000000e+00,5.000000000000000000e+00,5.000000000000000000e+00,5.000000000000000000e+00,5.000000000000000000e+00,5.000000000000000000e+00,5.000000000000000000e+00,5.000000000000000000e+00,5.000000000000000000e+00,4.866444587707519531e+00,4.675120830535888672e+00,4.498272418975830078e+00,4.334315299987792969e+00,4.181890487670898438e+00,4.039821624755859375e+00,3.907088518142700195e+00,3.782800674438476562e+00,3.666175842285156250e+00,3.556527137756347656e+00,3.453247070312500000e+00,3.355795860290527344e+00,3.263694286346435547e+00,3.176512718200683594e+00,3.093867778778076172e+00,3.015414476394653320e+00,2.940841436386108398e+00,2.869867563247680664e+00,2.802239179611206055e+00,2.737724304199218750e+00,2.676113605499267578e+00,2.617214679718017578e+00,2.560852527618408203e+00,2.506866931915283203e+00,2.455110073089599609e+00,2.405447244644165039e+00,2.357754230499267578e+00,2.311915159225463867e+00,2.267824888229370117e+00,2.225384473800659180e+00,2.184503555297851562e+00,2.145097494125366211e+00,2.107087850570678711e+00,2.070401668548583984e+00,2.034971475601196289e+00,2.000733137130737305e+00,1.967628240585327148e+00,1.935600757598876953e+00,1.904599189758300781e+00,1.874575018882751465e+00,1.845482826232910156e+00
5.000000000000000000e+00,5.000000000000000000e+00,5.000000000000000000e+00,5.000000000000000000e+00,5.000000000000000000e+00,5.000000000000000000e+00,5.000000000000000000e+00,5.000000000000000000e+00,5.000000000000000000e+00,5.000000000000000000e+00,5.000000000000000000e+00,5.000000000000000000e+00,5.000000000000000000e+00,5.000000000000000000e+00,5.000000000000000000e+00,5.000000000000000000e+00,5.000000000000000000e+00,5.000000000000000000e+00,5.000000000000000000e+00,5.000000000000000000e+00,5.000000000000000000e+00,5.000000000000000000e+00,3.667943954467773438e+00,3.707864761352539062e+00,3.642473697662353516e+00,3.634021759033203125e+00,3.651506185531616211e+00,3.689143180847167969e+00,5.000000000000000000e+00,3.796192407608032227e+00,5.000000000000000000e+00,5.000000000000000000e+00,5.000000000000000000e+00,5.000000000000000000e+00,5.000000000000000000e+00,5.000000000000000000e+00,5.000000000000000000e+00,5.000000000000000000e+00,5.000000000000000000e+00,4.866583347320556641e+00,4.675249099731445312e+00,4.498391151428222656e+00,4.334425449371337891e+00,4.181993007659912109e+00,4.039917469024658203e+00,3.907178163528442383e+00,3.782884120941162109e+00,3.666254758834838867e+00,3.556601285934448242e+00,3.453317165374755859e+00,3.355861902236938477e+00,3.263756513595581055e+00,3.176572084426879883e+00,3.093924045562744141e+00,3.015467643737792969e+00,2.940892219543457031e+00,2.869915962219238281e+00,2.802285194396972656e+00,2.737768411636352539e+00,2.676155567169189453e+00,2.617254972457885742e+00,2.560890913009643555e+00,2.506903648376464844e+00,2.455145597457885742e+00,2.405481338500976562e+00,2.357786893844604492e+00,2.311946630477905273e+00,2.267854928970336914e+00,2.225413560867309570e+00,2.184531450271606445e+00,2.145124435424804688e+00,2.107113838195800781e+00,2.070426940917968750e+00,2.034995794296264648e+00,2.000756740570068359e+00,1.967650890350341797e+00,1.935622572898864746e+00,1.904620409011840820e+00,1.874595522880554199e+00,1.845502853393554688e+00
5.000000000000000000e+00,5.000000000000000000e+00,5.000000000000000000e+00,5.000000000000000000e+00,5.000000000000000000e+00,5.000000000000000000e+00,5.000000000000000000e+00,5.000000000000000000e+00,5.000000000000000000e+00,5.000000000000000000e+00,5.000000000000000000e+00,5.000000000000000000e+00,5.000000000000000000e+00,5.000000000000000000e+00,5.000000000000000000e+00,5.000000000000000000e+00,5.000000000000000000e+00,5.000000000000000000e+00,5.000000000000000000e+00,5.000000000000000000e+00,5.000000000000000000e+00,5.000000000000000000e+00,3.635876178741455078e+00,3.678258180618286133e+00,3.653478384017944336e+00,3.654735803604125977e+00,3.667203187942504883e+00,3.666227817535400391e+00,5.000000000000000000e+00,3.781974792480468750e+00,5.000000000000000000e+00,5.000000000000000000e+00,5.000000000000000000e+00,5.000000000000000000e+00,5.000000000000000000e+00,5.000000000000000000e+00,5.000000000000000000e+00,5.000000000000000000e+00,5.000000000000000000e+00,4.866722106933593750e+00,4.675377368927001953e+00,4.498509883880615234e+00,4.334535598754882812e+00,4.182095527648925781e+00,4.040012836456298828e+00,3.907267808914184570e+00,3.782968282699584961e+00,3.666333675384521484e+00,3.556675672531127930e+00,3.453386783599853516e+00,3.355928182601928711e+00,3.263818979263305664e+00,3.176630973815917969e+00,3.093980312347412109e+00,3.015521049499511719e+00,2.940943002700805664e+00,2.869964361190795898e+00,2.802331209182739258e+00,2.737812280654907227e+00,2.676197528839111328e+00,2.617295026779174805e+00,2.560929536819458008e+00,2.506940364837646484e+00,2.455180883407592773e+00,2.405515193939208984e+00,2.357819318771362305e+00,2.311977863311767578e+00,2.267884969711303711e+00,2.225442409515380859e+00,2.184559583663940430e+00,2.145151376724243164e+00,2.107140064239501953e+00,2.070451974868774414e+00,2.035019874572753906e+00,2.000780105590820312e+00,1.967673420906066895e+00,1.935644507408142090e+00,1.904641747474670410e+00,1.874616265296936035e+00,1.845522761344909668e+00
5.000000000000000000e+00,5.000000000000000000e+00,5.000000000000000000e+00,5.000000000000000000e+00,5.000000000000000000e+00,5.000000000000000000e+00,5.000000000000000000e+00,5.000000000000000000e+00,5.000000000000000000e+00,5.000000000000000000e+00,5.000000000000000000e+00,5.000000000000000000e+00,5.000000000000000000e+00,5.000000000000000000e+00,5.000000000000000000e+00,5.000000000000000000e+00,5.000000000000000000e+00,5.000000000000000000e+00,5.000000000000000000e+00,5.000000000000000000e+00,5.000000000000000000e+00,5.000000000000000000e+00,3.604453802108764648e+00,3.662994623184204102e+00,3.644160270690917969e+00,3.684294223785400391e+00,3.591996669769287109e+00,3.605141162872314453e+00,5.000000000000000000e+00,3.759622573852539062e+00,5.000000000000000000e+00,5.000000000000000000e+00,5.000000000000000000e+00,5.000000000000000000e+00,5.000000000000000000e+00,5.000000000000000000e+00,5.000000000000000000e+00,5.000000000000000000e+00,5.000000000000000000e+00,4.866860866546630859e+00,4.675505638122558594e+00,4.498628616333007812e+00,4.334645748138427734e+00,4.182198047637939453e+00,4.040108680725097656e+00,3.907357454299926758e+00,3.783052206039428711e+00,3.666412115097045898e+00,3.556749820709228516e+00,3.453456878662109375e+00,3.355993986129760742e+00,3.263881444931030273e+00,3.176690340042114258e+00,3.094036340713500977e+00,3.015574455261230469e+00,2.940993547439575195e+00,2.870012760162353516e+00,2.802377223968505859e+00,2.737856149673461914e+00,2.676239728927612305e+00,2.617335081100463867e+00,2.560967922210693359e+00,2.506977319717407227e+00,2.455216169357299805e+00,2.405549287796020508e+00,2.357851982116699219e+00,2.312009096145629883e+00,2.267915248870849609e+00,2.225471496582031250e+00,2.184587478637695312e+00,2.145178318023681641e+00,2.107165813446044922e+00,2.070477247238159180e+00,2.035044193267822266e+00,2.000803470611572266e+00,1.967696309089660645e+00,1.935666561126708984e+00,1.904662966728210449e+00,1.874636769294738770e+00,1.845542669296264648e+00
5.000000000000000000e+00,5.000000000000000000e+00,5.000000000000000000e+00,5.000000000000000000e+00,5.000000000000000000e+00,5.000000000000000000e+00,5.000000000000000000e+00,5.000000000000000000e+00,5.000000000000000000e+00,5.000000000000000000e+00,5.000000000000000000e+00,5.000000000000000000e+00,5.000000000000000000e+00,5.000000000000000000e+00,5.000000000000000000e+00,5.000000000000000000e+00,5.000000000000000000e+00,5.000000000000000000e+00,5.000000000000000000e+00,5.000000000000000000e+00,5.000000000000000000e+00,5.000000000000000000e+00,3.555960178375244141e+00,3.668249845504760742e+00,3.645170927047729492e+00,3.677035093307495117e+00,3.563305377960205078e+00,3.571964025497436523e+00,5.000000000000000000e+00,3.745701074600219727e+00,5.000000000000000000e+00,5.000000000000000000e+00,5.000000000000000000e+00,5.000000000000000000e+00,5.000000000000000000e+00,5.000000000000000000e+00,5.000000000000000000e+00,5.000000000000000000e+00,5.000000000000000000e+00,4.867000102996826172e+00,4.675633907318115234e+00,4.498746871948242188e+00,4.334756374359130859e+00,4.182300567626953125e+00,4.040204524993896484e+00,3.907446622848510742e+00,3.783136129379272461e+00,3.666491031646728516e+00,3.556824207305908203e+00,3.453526735305786133e+00,3.356060028076171875e+00,3.263944149017333984e+00,3.176749467849731445e+00,3.094092369079589844e+00,3.015627861022949219e+00,2.941044330596923828e+00,2.870061159133911133e+00,2.802423477172851562e+00,2.737900257110595703e+00,2.676281690597534180e+00,2.617375373840332031e+00,2.561006307601928711e+00,2.507014274597167969e+00,2.455251455307006836e+00,2.405583143234252930e+00,2.357884645462036133e+00,2.312040567398071289e+00,2.267945528030395508e+00,2.225500583648681641e+00,2.184615373611450195e+00,2.145205497741699219e+00,2.107192039489746094e+00,2.070502281188964844e+00,2.035068511962890625e+00,2.000827074050903320e+00,1.967718958854675293e+00,1.935688495635986328e+00,1.904684185981750488e+00,1.874657511711120605e+00,1.845562815666198730e+00
5.000000000000000000e+00,5.000000000000000000e+00,5.000000000000000000e+00,5.000000000000000000e+00,5.000000000000000000e+00,5.000000000000000000e+00,5.000000000000000000e+00,5.000000000000000000e+00,5.000000000000000000e+00,5.000000000000000000e+00,5.000000000000000000e+00,5.000000000000000000e+00,5.000000000000000000e+00,5.000000000000000000e+00,5.000000000000000000e+00,5.000000000000000000e+00,5.000000000000000000e+00,5.000000000000000000e+00,5.000000000000000000e+00,5.000000000000000000e+00,5.000000000000000000e+00,3.541602611541748047e+00,5.000000000000000000e+00,5.000000000000000000e+00,3.657149791717529297e+00,3.683994293212890625e+00,3.531067848205566406e+00,3.539354324340820312e+00,5.000000000000000000e+00,3.719453811645507812e+00,5.000000000000000000e+00,5.000000000000000000e+00,5.000000000000000000e+00,5.000000000000000000e+00,5.000000000000000000e+00,5.000000000000000000e+00,5.000000000000000000e+00,5.000000000000000000e+00,5.000000000000000000e+00,4.867138862609863281e+00,4.675762176513671875e+00,4.498865604400634766e+00,4.334866523742675781e+00,4.182403087615966797e+00,4.040299892425537109e+00,3.907536268234252930e+00,3.783220291137695312e+00,3.666569948196411133e+00,3.556898117065429688e+00,3.453596830368041992e+00,3.356126070022583008e+00,3.264006376266479492e+00,3.176808834075927734e+00,3.094148635864257812e+00,3.015681028366088867e+00,2.941095113754272461e+00,2.870109081268310547e+00,2.802469491958618164e+00,2.737944126129150391e+00,2.676323413848876953e+00,2.617415666580200195e+00,2.561044692993164062e+00,2.507051229476928711e+00,2.455286979675292969e+00,2.405616998672485352e+00,2.357917308807373047e+00,2.312072038650512695e+00,2.267975568771362305e+00,2.225529670715332031e+00,2.184643507003784180e+00,2.145232439041137695e+00,2.107218027114868164e+00,2.070527315139770508e+00,2.035092830657958984e+00,2.000850677490234375e+00,1.967741608619689941e+00,1.935710549354553223e+00,1.904705524444580078e+00,1.874678015708923340e+00,1.845582604408264160e+00
5.000000000000000000e+00,5.000000000000000000e+00,5.000000000000000000e+00,5.000000000000000000e+00,5.000000000000000000e+00,5.000000000000000000e+00,5.000000000000000000e+00,5.000000000000000000e+00,5.000000000000000000e+00,5.000000000000000000e+00,5.000000000000000000e+00,5.000000000000000000e+00,5.000000000000000000e+00,5.000000000000000000e+00,5.000000000000000000e+00,5.000000000000000000e+00,5.000000000000000000e+00,5.000000000000000000e+00,5.000000000000000000e+00,5.000000000000000000e+00,5.000000000000000000e+00,5.000000000000000000e+00,5.000000000000000000e+00,5.000000000000000000e+00,3.671210527420043945e+00,3.690483331680297852e+00,3.497275590896606445e+00,3.502651214599609375e+00,5.000000000000000000e+00,5.000000000000000000e+00,5.000000000000000000e+00,5.000000000000000000e+00,5.000000000000000000e+00,5.000000000000000000e+00,5.000000000000000000e+00,5.000000000000000000e+00,5.000000000000000000e+00,5.000000000000000000e+00,5.000000000000000000e+00,4.867278099060058594e+00,4.675890445709228516e+00,4.498984336853027344e+00,4.334976673126220703e+00,4.182505607604980469e+00,4.040395736694335938e+00,3.907625913619995117e+00,3.783303976058959961e+00,3.666648864746093750e+00,3.556972265243530273e+00,3.453666448593139648e+00,3.356192350387573242e+00,3.264068841934204102e+00,3.176867961883544922e+00,3.094204664230346680e+00,3.015734195709228516e+00,2.941145896911621094e+00,2.870157480239868164e+00,2.802515268325805664e+00,2.737988233566284180e+00,2.676365613937377930e+00,2.617455720901489258e+00,2.561083316802978516e+00,2.507087945938110352e+00,2.455322265625000000e+00,2.405651092529296875e+00,2.357949733734130859e+00,2.312103271484375000e+00,2.268005609512329102e+00,2.225558757781982422e+00,2.184671401977539062e+00,2.145259380340576172e+00,2.107244014739990234e+00,2.070552587509155273e+00,2.035117149353027344e+00,2.000874042510986328e+00,1.967764377593994141e+00,1.935732483863830566e+00,1.904726743698120117e+00,1.874698638916015625e+00,1.845602750778198242e+00
5.000000000000000000e+00,5.000000000000000000e+00,5.000000000000000000e+00,5.000000000000000000e+00,5.000000000000000000e+00,5.000000000000000000e+00,5.000000000000000000e+00,5.000000000000000000e+00,5.000000000000000000e+00,5.000000000000000000e+00,5.000000000000000000e+00,5.000000000000000000e+00,5.000000000000000000e+00,5.000000000000000000e+00,5.000000000000000000e+00,5.000000000000000000e+00,5.000000000000000000e+00,5.000000000000000000e+00,5.000000000000000000e+00,5.000000000000000000e+00,5.000000000000000000e+00,5.000000000000000000e+00,5.000000000000000000e+00,5.000000000000000000e+00,3.680262565612792969e+00,3.696544170379638672e+00,3.469213724136352539e+00,3.481598138809204102e+00,5.000000000000000000e+00,5.000000000000000000e+00,5.000000000000000000e+00,5.000000000000000000e+00,5.000000000000000000e+00,5.000000000000000000e+00,5.000000000000000000e+00,5.000000000000000000e+00,5.000000000000000000e+00,5.000000000000000000e+00,5.000000000000000000e+00,4.867416858673095703e+00,4.676018238067626953e+00,4.499103069305419922e+00,4.335086822509765625e+00,4.182608127593994141e+00,4.040491580963134766e+00,3.907715559005737305e+00,3.783387899398803711e+00,3.666727542877197266e+00,3.557046651840209961e+00,3.453736543655395508e+00,3.356258392333984375e+00,3.264131307601928711e+00,3.176926851272583008e+00,3.094260931015014648e+00,3.015787601470947266e+00,2.941196441650390625e+00,2.870205879211425781e+00,2.802561521530151367e+00,2.738032341003417969e+00,2.676407575607299805e+00,2.617495775222778320e+00,2.561121702194213867e+00,2.507124662399291992e+00,2.455357551574707031e+00,2.405684947967529297e+00,2.357982397079467773e+00,2.312134742736816406e+00,2.268035888671875000e+00,2.225587844848632812e+00,2.184699535369873047e+00,2.145286321640014648e+00,2.107270002365112305e+00,2.070577621459960938e+00,2.035141468048095703e+00,2.000897645950317383e+00,1.967787027359008789e+00,1.935754418373107910e+00,1.904748201370239258e+00,1.874719381332397461e+00,1.845622658729553223e+00
5.000000000000000000e+00,5.000000000000000000e+00,5.000000000000000000e+00,5.000000000000000000e+00,5.000000000000000000e+00,5.000000000000000000e+00,5.000000000000000000e+00,5.000000000000000000e+00,5.000000000000000000e+00,5.000000000000000000e+00,5.000000000000000000e+00,5.000000000000000000e+00,5.000000000000000000e+00,5.000000000000000000e+00,5.000000000000000000e+00,5.000000000000000000e+00,5.000000000000000000e+00,5.000000000000000000e+00,5.000000000000000000e+00,5.000000000000000000e+00,5.000000000000000000e+00,5.000000000000000000e+00,5.000000000000000000e+00,5.000000000000000000e+00,3.697395086288452148e+00,3.699574947357177734e+00,3.481083631515502930e+00,3.495333433151245117e+00,5.000000000000000000e+00,5.000000000000000000e+00,5.000000000000000000e+00,5.000000000000000000e+00,5.000000000000000000e+00,5.000000000000000000e+00,5.000000000000000000e+00,5.000000000000000000e+00,5.000000000000000000e+00,5.000000000000000000e+00,5.000000000000000000e+00,4.867555618286132812e+00,4.676146507263183594e+00,4.499221801757812500e+00,4.335196971893310547e+00,4.182710647583007812e+00,4.040587425231933594e+00,3.907804727554321289e+00,3.783472061157226562e+00,3.666806459426879883e+00,3.557120800018310547e+00,3.453806638717651367e+00,3.356324195861816406e+00,3.264194011688232422e+00,3.176986217498779297e+00,3.094316959381103516e+00,3.015841007232666016e+00,2.941247224807739258e+00,2.870254278182983398e+00,2.802607536315917969e+00,2.738076210021972656e+00,2.676449775695800781e+00,2.617536067962646484e+00,2.561160087585449219e+00,2.507161617279052734e+00,2.455392837524414062e+00,2.405719041824340820e+00,2.358015060424804688e+00,2.312165975570678711e+00,2.268066167831420898e+00,2.225616693496704102e+00,2.184727430343627930e+00,2.145313262939453125e+00,2.107296228408813477e+00,2.070602893829345703e+00,2.035165786743164062e+00,2.000921010971069336e+00,1.967809915542602539e+00,1.935776472091674805e+00,1.904769420623779297e+00,1.874739885330200195e+00,1.845642566680908203e+00
5.000000000000000000e+00,5.000000000000000000e+00,5.000000000000000000e+00,5.000000000000000000e+00,5.000000000000000000e+00,5.000000000000000000e+00,5.000000000000000000e+00,5.000000000000000000e+00,5.000000000000000000e+00,5.000000000000000000e+00,5.000000000000000000e+00,5.000000000000000000e+00,5.000000000000000000e+00,5.000000000000000000e+00,5.000000000000000000e+00,5.000000000000000000e+00,5.000000000000000000e+00,5.000000000000000000e+00,5.000000000000000000e+00,5.000000000000000000e+00,5.000000000000000000e+00,5.000000000000000000e+00,5.000000000000000000e+00,5.000000000000000000e+00,5.000000000000000000e+00,3.722732305526733398e+00,3.522671699523925781e+00,3.521020650863647461e+00,5.000000000000000000e+00,5.000000000000000000e+00,5.000000000000000000e+00,5.000000000000000000e+00,5.000000000000000000e+00,5.000000000000000000e+00,5.000000000000000000e+00,5.000000000000000000e+00,5.000000000000000000e+00,5.000000000000000000e+00,5.000000000000000000e+00,4.867693901062011719e+00,4.676274776458740234e+00,4.499340534210205078e+00,4.335307121276855469e+00,4.182813167572021484e+00,4.040682792663574219e+00,3.907894372940063477e+00,3.783555984497070312e+00,3.666885375976562500e+00,3.557194948196411133e+00,3.453876495361328125e+00,3.356390476226806641e+00,3.264256238937377930e+00,3.177045345306396484e+00,3.094373226165771484e+00,3.015894412994384766e+00,2.941298007965087891e+00,2.870302438735961914e+00,2.802653789520263672e+00,2.738120079040527344e+00,2.676491498947143555e+00,2.617576360702514648e+00,2.561198711395263672e+00,2.507198572158813477e+00,2.455428361892700195e+00,2.405752897262573242e+00,2.358047723770141602e+00,2.312197446823120117e+00,2.268096208572387695e+00,2.225645780563354492e+00,2.184755325317382812e+00,2.145340442657470703e+00,2.107322216033935547e+00,2.070627927780151367e+00,2.035190105438232422e+00,2.000944375991821289e+00,1.967832446098327637e+00,1.935798406600952148e+00,1.904790520668029785e+00,1.874760627746582031e+00,1.845662713050842285e+00
5.000000000000000000e+00,5.000000000000000000e+00,5.000000000000000000e+00,5.000000000000000000e+00,5.000000000000000000e+00,5.000000000000000000e+00,5.000000000000000000e+00,5.000000000000000000e+00,5.000000000000000000e+00,5.000000000000000000e+00,5.000000000000000000e+00,5.000000000000000000e+00,5.000000000000000000e+00,5.000000000000000000e+00,5.000000000000000000e+00,5.000000000000000000e+00,5.000000000000000000e+00,5.000000000000000000e+00,5.000000000000000000e+00,5.000000000000000000e+00,5.000000000000000000e+00,5.000000000000000000e+00,5.000000000000000000e+00,5.000000000000000000e+00,5.000000000000000000e+00,3.768456220626831055e+00,3.542394399642944336e+00,3.532537698745727539e+00,5.000000000000000000e+00,5.000000000000000000e+00,5.000000000000000000e+00,5.000000000000000000e+00,5.000000000000000000e+00,5.000000000000000000e+00,5.000000000000000000e+00,5.000000000000000000e+00,5.000000000000000000e+00,5.000000000000000000e+00,5.000000000000000000e+00,4.867833137512207031e+00,4.676402091979980469e+00,4.499459266662597656e+00,4.335417270660400391e+00,4.182916164398193359e+00,4.040779113769531250e+00,3.907984018325805664e+00,3.783639669418334961e+00,3.666964292526245117e+00,3.557269096374511719e+00,3.453946352005004883e+00,3.356456518173217773e+00,3.264318704605102539e+00,3.177104711532592773e+00,3.094429254531860352e+00,3.015947580337524414e+00,2.941348791122436523e+00,2.870350837707519531e+00,2.802699565887451172e+00,2.738164186477661133e+00,2.676533460617065430e+00,2.617616415023803711e+00,2.561237096786499023e+00,2.507235288619995117e+00,2.455463647842407227e+00,2.405786752700805664e+00,2.358080148696899414e+00,2.312228679656982422e+00,2.268126249313354492e+00,2.225674867630004883e+00,2.184783458709716797e+00,2.145367145538330078e+00,2.107348203659057617e+00,2.070653200149536133e+00,2.035214185714721680e+00,2.000967979431152344e+00,1.967855095863342285e+00,1.935820460319519043e+00,1.904811978340148926e+00,1.874781131744384766e+00,1.845682501792907715e+00
5.000000000000000000e+00,5.000000000000000000e+00,5.000000000000000000e+00,5.000000000000000000e+00,5.000000000000000000e+00,5.000000000000000000e+00,5.000000000000000000e+00,5.000000000000000000e+00,5.000000000000000000e+00,5.000000000000000000e+00,5.000000000000000000e+00,5.000000000000000000e+00,5.000000000000000000e+00,5.000000000000000000e+00,5.000000000000000000e+00,5.000000000000000000e+00,5.000000000000000000e+00,5.000000000000000000e+00,5.000000000000000000e+00,5.000000000000000000e+00,5.000000000000000000e+00,5.000000000000000000e+00,5.000000000000000000e+00,5.000000000000000000e+00,5.000000000000000000e+00,3.795234441757202148e+00,3.554281711578369141e+00,3.536628484725952148e+00,5.000000000000000000e+00,5.000000000000000000e+00,5.000000000000000000e+00,5.000000000000000000e+00,5.000000000000000000e+00,5.000000000000000000e+00,5.000000000000000000e+00,5.000000000000000000e+00,5.000000000000000000e+00,5.000000000000000000e+00,5.000000000000000000e+00,4.867972850799560547e+00,4.676530838012695312e+00,4.499577999114990234e+00,4.335527896881103516e+00,4.183018684387207031e+00,4.040874481201171875e+00,3.908073663711547852e+00,3.783723592758178711e+00,3.667043209075927734e+00,3.557343482971191406e+00,3.454016208648681641e+00,3.356522560119628906e+00,3.264381408691406250e+00,3.177163600921630859e+00,3.094485521316528320e+00,3.016000986099243164e+00,2.941399574279785156e+00,2.870399236679077148e+00,2.802745580673217773e+00,2.738208055496215820e+00,2.676575660705566406e+00,2.617656469345092773e+00,2.561275720596313477e+00,2.507272243499755859e+00,2.455499172210693359e+00,2.405820846557617188e+00,2.358112812042236328e+00,2.312260150909423828e+00,2.268156528472900391e+00,2.225703954696655273e+00,2.184811353683471680e+00,2.145394325256347656e+00,2.107374429702758789e+00,2.070678234100341797e+00,2.035238504409790039e+00,2.000991582870483398e+00,1.967877984046936035e+00,1.935842394828796387e+00,1.904833197593688965e+00,1.874801635742187500e+00,1.845702648162841797e+00
5.000000000000000000e+00,5.000000000000000000e+00,5.000000000000000000e+00,5.000000000000000000e+00,5.000000000000000000e+00,5.000000000000000000e+00,5.000000000000000000e+00,5.000000000000000000e+00,5.000000000000000000e+00,5.000000000000000000e+00,5.000000000000000000e+00,5.000000000000000000e+00,5.000000000000000000e+00,5.000000000000000000e+00,5.000000000000000000e+00,5.000000000000000000e+00,5.000000000000000000e+00,5.000000000000000000e+00,5.000000000000000000e+00,5.000000000000000000e+00,5.000000000000000000e+00,5.000000000000000000e+00,5.000000000000000000e+00,5.000000000000000000e+00,5.000000000000000000e+00,3.812999725341796875e+00,3.585558652877807617e+00,3.550616264343261719e+00,5.000000000000000000e+00,5.000000000000000000e+00,5.000000000000000000e+00,5.000000000000000000e+00,5.000000000000000000e+00,5.000000000000000000e+00,5.000000000000000000e+00,5.000000000000000000e+00,5.000000000000000000e+00,5.000000000000000000e+00,5.000000000000000000e+00,4.868112564086914062e+00,4.676659584045410156e+00,4.499696254730224609e+00,4.335637569427490234e+00,4.183121204376220703e+00,4.040970325469970703e+00,3.908163309097290039e+00,3.783807754516601562e+00,3.667121648788452148e+00,3.557417631149291992e+00,3.454086303710937500e+00,3.356588363647460938e+00,3.264443874359130859e+00,3.177222967147827148e+00,3.094541788101196289e+00,3.016054391860961914e+00,2.941450119018554688e+00,2.870447635650634766e+00,2.802791833877563477e+00,2.738251924514770508e+00,2.676617622375488281e+00,2.617696762084960938e+00,2.561314105987548828e+00,2.507309198379516602e+00,2.455534219741821289e+00,2.405854701995849609e+00,2.358145475387573242e+00,2.312291383743286133e+00,2.268186807632446289e+00,2.225733041763305664e+00,2.184839487075805664e+00,2.145421266555786133e+00,2.107400417327880859e+00,2.070703506469726562e+00,2.035262823104858398e+00,2.001014947891235352e+00,1.967900514602661133e+00,1.935864210128784180e+00,1.904854536056518555e+00,1.874822378158569336e+00,1.845722556114196777e+00
5.000000000000000000e+00,5.000000000000000000e+00,5.000000000000000000e+00,5.000000000000000000e+00,5.000000000000000000e+00,5.000000000000000000e+00,5.000000000000000000e+00,5.000000000000000000e+00,5.000000000000000000e+00,5.000000000000000000e+00,5.000000000000000000e+00,5.000000000000000000e+00,5.000000000000000000e+00,5.000000000000000000e+00,5.000000000000000000e+00,5.000000000000000000e+00,5.000000000000000000e+00,5.000000000000000000e+00,5.000000000000000000e+00,5.000000000000000000e+00,5.000000000000000000e+00,5.000000000000000000e+00,5.000000000000000000e+00,5.000000000000000000e+00,5.000000000000000000e+00,3.855202198028564453e+00,3.894579648971557617e+00,3.565915346145629883e+00,5.000000000000000000e+00,5.000000000000000000e+00,5.000000000000000000e+00,5.000000000000000000e+00,5.000000000000000000e+00,5.000000000000000000e+00,5.000000000000000000e+00,5.000000000000000000e+00,5.000000000000000000e+00,5.000000000000000000e+00,5.000000000000000000e+00,4.868252277374267578e+00,4.676788806915283203e+00,4.499815464019775391e+00,4.335747241973876953e+00,4.183224201202392578e+00,4.041066169738769531e+00,3.908252716064453125e+00,3.783891677856445312e+00,3.667200803756713867e+00,3.557491540908813477e+00,3.454156398773193359e+00,3.356654644012451172e+00,3.264506340026855469e+00,3.177282333374023438e+00,3.094597816467285156e+00,3.016107797622680664e+00,2.941500902175903320e+00,2.870495557785034180e+00,2.802837848663330078e+00,2.738296031951904297e+00,2.676659822463989258e+00,2.617737054824829102e+00,2.561352491378784180e+00,2.507345914840698242e+00,2.455569744110107422e+00,2.405888557434082031e+00,2.358178138732910156e+00,2.312322854995727539e+00,2.268216848373413086e+00,2.225762128829956055e+00,2.184867382049560547e+00,2.145448446273803711e+00,2.107426404953002930e+00,2.070728540420532227e+00,2.035287141799926758e+00,2.001038312911987305e+00,1.967923402786254883e+00,1.935886383056640625e+00,1.904875755310058594e+00,1.874842882156372070e+00,1.845742464065551758e+00
5.000000000000000000e+00,5.000000000000000000e+00,5.000000000000000000e+00,5.000000000000000000e+00,5.000000000000000000e+00,5.000000000000000000e+00,5.000000000000000000e+00,5.000000000000000000e+00,5.000000000000000000e+00,5.000000000000000000e+00,5.000000000000000000e+00,5.000000000000000000e+00,5.000000000000000000e+00,5.000000000000000000e+00,5.000000000000000000e+00,5.000000000000000000e+00,5.000000000000000000e+00,5.000000000000000000e+00,5.000000000000000000e+00,5.000000000000000000e+00,5.000000000000000000e+00,5.000000000000000000e+00,5.000000000000000000e+00,5.000000000000000000e+00,5.000000000000000000e+00,5.000000000000000000e+00,3.927040338516235352e+00,3.591301679611206055e+00,5.000000000000000000e+00,5.000000000000000000e+00,5.000000000000000000e+00,5.000000000000000000e+00,5.000000000000000000e+00,5.000000000000000000e+00,5.000000000000000000e+00,5.000000000000000000e+00,5.000000000000000000e+00,5.000000000000000000e+00,5.000000000000000000e+00,4.868391990661621094e+00,4.676917552947998047e+00,4.499934673309326172e+00,4.335858345031738281e+00,4.183325767517089844e+00,4.041162014007568359e+00,3.908342361450195312e+00,3.783975362777709961e+00,3.667279720306396484e+00,3.557565927505493164e+00,3.454226493835449219e+00,3.356720685958862305e+00,3.264568805694580078e+00,3.177341461181640625e+00,3.094653844833374023e+00,3.016160964965820312e+00,2.941551685333251953e+00,2.870543956756591797e+00,2.802884101867675781e+00,2.738339900970458984e+00,2.676701545715332031e+00,2.617777109146118164e+00,2.561390876770019531e+00,2.507382631301879883e+00,2.455605030059814453e+00,2.405922651290893555e+00,2.358210802078247070e+00,2.312354087829589844e+00,2.268247127532958984e+00,2.225791215896606445e+00,2.184895515441894531e+00,2.145475149154663086e+00,2.107452392578125000e+00,2.070753812789916992e+00,2.035311460494995117e+00,2.001061916351318359e+00,1.967946052551269531e+00,1.935908317565917969e+00,1.904896974563598633e+00,1.874863505363464355e+00,1.845762610435485840e+00
4.875828266143798828e+00,4.874617099761962891e+00,4.873406410217285156e+00,4.872196674346923828e+00,4.870986938476562500e+00,4.869778156280517578e+00,4.868569850921630859e+00,4.867362022399902344e+00,4.866155147552490234e+00,4.864948749542236328e+00,4.863742828369140625e+00,4.862537384033203125e+00,4.861332893371582031e+00,4.860128879547119141e+00,4.858924865722656250e+00,4.857722282409667969e+00,4.856520175933837891e+00,4.855318069458007812e+00,4.854117393493652344e+00,4.852916717529296875e+00,4.851716995239257812e+00,4.850517749786376953e+00,4.849318981170654297e+00,4.848120689392089844e+00,4.846923351287841797e+00,4.845726490020751953e+00,3.863810539245605469e+00,3.529831647872924805e+00,4.842139244079589844e+00,4.840944290161132812e+00,4.839750289916992188e+00,4.838557243347167969e+00,4.837364196777343750e+00,4.836172103881835938e+00,4.834980010986328125e+00,4.833788871765136719e+00,4.832598686218261719e+00,4.831408500671386719e+00,4.830219268798828125e+00,4.829030513763427734e+00,4.677046298980712891e+00,4.500053882598876953e+00,4.335968971252441406e+00,4.183428764343261719e+00,4.041257381439208984e+00,3.908432006835937500e+00,3.784059524536132812e+00,3.667358636856079102e+00,3.557640314102172852e+00,3.454296112060546875e+00,3.356786966323852539e+00,3.264631271362304688e+00,3.177400350570678711e+00,3.094710111618041992e+00,3.016214370727539062e+00,2.941602468490600586e+00,2.870592355728149414e+00,2.802929878234863281e+00,2.738384008407592773e+00,2.676743745803833008e+00,2.617817163467407227e+00,2.561429500579833984e+00,2.507419586181640625e+00,2.455640554428100586e+00,2.405956506729125977e+00,2.358243227005004883e+00,2.312385559082031250e+00,2.268277168273925781e+00,2.225820064544677734e+00,2.184923410415649414e+00,2.145502328872680664e+00,2.107478618621826172e+00,2.070778846740722656e+00,2.035335779190063477e+00,2.001085519790649414e+00,1.967968702316284180e+00,1.935930132865905762e+00,1.904918432235717773e+00,1.874884247779846191e+00,1.845782399177551270e+00
3.778626203536987305e+00,3.777898788452148438e+00,3.777171611785888672e+00,3.776444673538208008e+00,3.775717973709106445e+00,3.774991512298583984e+00,3.774265527725219727e+00,3.773539543151855469e+00,3.772814035415649414e+00,3.772088766098022461e+00,3.771363973617553711e+00,3.770639181137084961e+00,3.769914627075195312e+00,3.769190549850463867e+00,3.768466234207153320e+00,3.767742633819580078e+00,3.767019510269165039e+00,3.766296386718750000e+00,3.765573740005493164e+00,3.764851093292236328e+00,3.764128923416137695e+00,3.763406991958618164e+00,3.762685298919677734e+00,3.761964082717895508e+00,3.761242866516113281e+00,3.760522127151489258e+00,3.759801626205444336e+00,3.759081363677978516e+00,3.758361339569091797e+00,3.757641553878784180e+00,3.756922245025634766e+00,3.756202936172485352e+00,3.755484104156494141e+00,3.754765510559082031e+00,3.754047155380249023e+00,3.753329038619995117e+00,3.752611398696899414e+00,3.751893758773803711e+00,3.751176595687866211e+00,3.750459671020507812e+00,3.749742984771728516e+00,3.749026536941528320e+00,3.748310327529907227e+00,3.747594356536865234e+00,3.746878862380981445e+00,3.746163606643676758e+00,3.745448350906372070e+00,3.667437314987182617e+00,3.557714462280273438e+00,3.454366207122802734e+00,3.356852769851684570e+00,3.264693737030029297e+00,3.177459716796875000e+00,3.094766378402709961e+00,3.016267776489257812e+00,2.941653013229370117e+00,2.870640754699707031e+00,2.802976131439208984e+00,2.738427877426147461e+00,2.676785707473754883e+00,2.617857456207275391e+00,2.561468124389648438e+00,2.507456541061401367e+00,2.455675840377807617e+00,2.405990600585937500e+00,2.358275890350341797e+00,2.312416791915893555e+00,2.268307447433471680e+00,2.225849151611328125e+00,2.184951543807983398e+00,2.145529270172119141e+00,2.107504367828369141e+00,2.070804119110107422e+00,2.035360097885131836e+00,2.001108884811401367e+00,1.967991471290588379e+00,1.935952305793762207e+00,1.904939532279968262e+00,1.874904751777648926e+00,1.845802307128906250e+00
3.084519863128662109e+00,3.084035158157348633e+00,3.083550453186035156e+00,3.083065986633300781e+00,3.082581758499145508e+00,3.082097530364990234e+00,3.081613540649414062e+00,3.081129550933837891e+00,3.080646038055419922e+00,3.080162286758422852e+00,3.079679012298583984e+00,3.079195737838745117e+00,3.078712463378906250e+00,3.078229665756225586e+00,3.077746868133544922e+00,3.077264070510864258e+00,3.076781511306762695e+00,3.076299190521240234e+00,3.075817108154296875e+00,3.075335025787353516e+00,3.074852943420410156e+00,3.074371337890625000e+00,3.073889732360839844e+00,3.073408126831054688e+00,3.072926998138427734e+00,3.072445869445800781e+00,3.071964740753173828e+00,3.071483850479125977e+00,3.071003198623657227e+00,3.070522546768188477e+00,3.070042133331298828e+00,3.069561958312988281e+00,3.069081783294677734e+00,3.068601846694946289e+00,3.068121910095214844e+00,3.067642211914062500e+00,3.067162752151489258e+00,3.066683292388916016e+00,3.066204071044921875e+00,3.065725088119506836e+00,3.065246343612670898e+00,3.064767599105834961e+00,3.064288854598999023e+00,3.063810586929321289e+00,3.063332319259643555e+00,3.062854051589965820e+00,3.062376022338867188e+00,3.061898231506347656e+00,3.061420440673828125e+00,3.060942888259887695e+00,3.060465574264526367e+00,3.059988260269165039e+00,3.059511184692382812e+00,3.059034109115600586e+00,3.016321182250976562e+00,2.941703796386718750e+00,2.870689153671264648e+00,2.803022146224975586e+00,2.738471746444702148e+00,2.676827907562255859e+00,2.617897748947143555e+00,2.561506271362304688e+00,2.507493495941162109e+00,2.455711126327514648e+00,2.406024456024169922e+00,2.358308553695678711e+00,2.312448263168334961e+00,2.268337726593017578e+00,2.225878238677978516e+00,2.184979438781738281e+00,2.145556211471557617e+00,2.107530593872070312e+00,2.070829153060913086e+00,2.035384416580200195e+00,2.001132249832153320e+00,1.968014121055603027e+00,1.935974121093750000e+00,1.904960751533508301e+00,1.874925494194030762e+00,1.845822453498840332e+00
2.605845212936401367e+00,2.605499267578125000e+00,2.605153322219848633e+00,2.604807615280151367e+00,2.604461669921875000e+00,2.604116201400756836e+00,2.603770494461059570e+00,2.603425025939941406e+00,2.603079795837402344e+00,2.602734565734863281e+00,2.602389335632324219e+00,2.602044105529785156e+00,2.601699113845825195e+00,2.601354360580444336e+00,2.601009368896484375e+00,2.600664615631103516e+00,2.600319862365722656e+00,2.599975347518920898e+00,2.599630832672119141e+00,2.599286556243896484e+00,2.598942279815673828e+00,2.598598003387451172e+00,2.598253965377807617e+00,2.597909927368164062e+00,2.597566127777099609e+00,2.597222328186035156e+00,2.596878528594970703e+00,2.596534967422485352e+00,2.596191406250000000e+00,2.595847845077514648e+00,2.595504522323608398e+00,2.595161437988281250e+00,2.594818115234375000e+00,2.594475030899047852e+00,2.594132184982299805e+00,2.593789100646972656e+00,2.593446254730224609e+00,2.593103647232055664e+00,2.592761039733886719e+00,2.592418432235717773e+00,2.592076063156127930e+00,2.591733694076538086e+00,2.591391324996948242e+00,2.591049194335937500e+00,2.590707063674926758e+00,2.590365171432495117e+00,2.590023279190063477e+00,2.589681386947631836e+00,2.589339733123779297e+00,2.588998079299926758e+00,2.588656425476074219e+00,2.588315010070800781e+00,2.587973594665527344e+00,2.587632417678833008e+00,2.587291002273559570e+00,2.586949825286865234e+00,2.586608886718750000e+00,2.586267948150634766e+00,2.585927248001098633e+00,2.585586309432983398e+00,2.585245847702026367e+00,2.561544895172119141e+00,2.507530450820922852e+00,2.455746650695800781e+00,2.406058311462402344e+00,2.358341217041015625e+00,2.312479496002197266e+00,2.268367767333984375e+00,2.225907325744628906e+00,2.185007333755493164e+00,2.145583391189575195e+00,2.107556581497192383e+00,2.070854187011718750e+00,2.035408735275268555e+00,2.001155853271484375e+00,1.968036770820617676e+00,1.935996294021606445e+00,1.904982209205627441e+00,1.874945998191833496e+00,1.845842361450195312e+00
2.255779743194580078e+00,2.255520582199096680e+00,2.255261421203613281e+00,2.255002260208129883e+00,2.254743099212646484e+00,2.254483938217163086e+00,2.254224777221679688e+00,2.253965854644775391e+00,2.253706932067871094e+00,2.253448247909545898e+00,2.253189563751220703e+00,2.252930879592895508e+00,2.252672195434570312e+00,2.252413511276245117e+00,2.252155065536499023e+00,2.251896381378173828e+00,2.251638174057006836e+00,2.251379728317260742e+00,2.251121520996093750e+00,2.250863313674926758e+00,2.250605106353759766e+00,2.250346899032592773e+00,2.250088930130004883e+00,2.249830722808837891e+00,2.249572753906250000e+00,2.249315023422241211e+00,2.249057292938232422e+00,2.248799324035644531e+00,2.248541831970214844e+00,2.248284101486206055e+00,2.248026609420776367e+00,2.247769117355346680e+00,2.247511625289916992e+00,2.247254133224487305e+00,2.246996641159057617e+00,2.246739387512207031e+00,2.246482133865356445e+00,2.246225118637084961e+00,2.245967864990234375e+00,2.245710849761962891e+00,2.245453834533691406e+00,2.245197057723999023e+00,2.244940042495727539e+00,2.244683265686035156e+00,2.244426488876342773e+00,2.244169950485229492e+00,2.243913173675537109e+00,2.243656635284423828e+00,2.243400096893310547e+00,2.243143796920776367e+00,2.242887258529663086e+00,2.242630958557128906e+00,2.242374658584594727e+00,2.242118358612060547e+00,2.241862297058105469e+00,2.241606235504150391e+00,2.241350173950195312e+00,2.241094112396240234e+00,2.240838289260864258e+00,2.240582466125488281e+00,2.240326642990112305e+00,2.240070819854736328e+00,2.239814996719360352e+00,2.239559412002563477e+00,2.239303827285766602e+00,2.239048480987548828e+00,2.238792896270751953e+00,2.238537549972534180e+00,2.225936412811279297e+00,2.185035467147827148e+00,2.145610094070434570e+00,2.107582807540893555e+00,2.070879459381103516e+00,2.035432815551757812e+00,2.001179218292236328e+00,1.968059659004211426e+00,1.936018228530883789e+00,1.905003428459167480e+00,1.874966621398925781e+00,1.845862507820129395e+00
1.988630652427673340e+00,1.988429069519042969e+00,1.988227605819702148e+00,1.988026261329650879e+00,1.987824797630310059e+00,1.987623453140258789e+00,1.987422108650207520e+00,1.987220883369445801e+00,1.987019658088684082e+00,1.986818432807922363e+00,1.986617326736450195e+00,1.986416220664978027e+00,1.986215114593505859e+00,1.986014127731323242e+00,1.985812902450561523e+00,1.985612034797668457e+00,1.985411047935485840e+00,1.985210180282592773e+00,1.985009431838989258e+00,1.984808683395385742e+00,1.984607934951782227e+00,1.984407186508178711e+00,1.984206557273864746e+00,1.984005928039550781e+00,1.983805298805236816e+00,1.983604788780212402e+00,1.983404278755187988e+00,1.983203768730163574e+00,1.983003377914428711e+00,1.982802987098693848e+00,1.982602715492248535e+00,1.982402443885803223e+00,1.982202172279357910e+00,1.982001662254333496e+00,1.981801509857177734e+00,1.981601357460021973e+00,1.981401324272155762e+00,1.981201291084289551e+00,1.981001257896423340e+00,1.980801224708557129e+00,1.980601310729980469e+00,1.980401396751403809e+00,1.980201601982116699e+00,1.980001807212829590e+00,1.979802012443542480e+00,1.979602217674255371e+00,1.979402542114257812e+00,1.979202866554260254e+00,1.979003310203552246e+00,1.978803753852844238e+00,1.978604197502136230e+00,1.978404641151428223e+00,1.978205204010009766e+00,1.978005647659301758e+00,1.977806210517883301e+00,1.977606892585754395e+00,1.977407574653625488e+00,1.977208375930786133e+00,1.977009177207946777e+00,1.976809978485107422e+00,1.976610898971557617e+00,1.976411700248718262e+00,1.976212739944458008e+00,1.976013660430908203e+00,1.975814700126647949e+00,1.975615739822387695e+00,1.975416898727416992e+00,1.975218057632446289e+00,1.975019216537475586e+00,1.974820494651794434e+00,1.974621772766113281e+00,1.974423050880432129e+00,1.974224209785461426e+00,1.974025607109069824e+00,1.973827004432678223e+00,1.968082189559936523e+00,1.936040043830871582e+00,1.905024766921997070e+00,1.874987363815307617e+00,1.845882415771484375e+00
1.778057575225830078e+00,1.777896523475646973e+00,1.777735352516174316e+00,1.777574300765991211e+00,1.777413368225097656e+00,1.777252316474914551e+00,1.777091383934020996e+00,1.776930451393127441e+00,1.776769638061523438e+00,1.776608705520629883e+00,1.776447892189025879e+00,1.776287078857421875e+00,1.776126265525817871e+00,1.775965332984924316e+00,1.775804638862609863e+00,1.775643944740295410e+00,1.775483250617980957e+00,1.775322675704956055e+00,1.775162100791931152e+00,1.775001406669616699e+00,1.774840950965881348e+00,1.774680376052856445e+00,1.774519920349121094e+00,1.774359464645385742e+00,1.774199008941650391e+00,1.774038553237915039e+00,1.773878216743469238e+00,1.773717880249023438e+00,1.773557543754577637e+00,1.773397326469421387e+00,1.773236989974975586e+00,1.773076772689819336e+00,1.772916436195373535e+00,1.772756218910217285e+00,1.772596120834350586e+00,1.772436022758483887e+00,1.772275924682617188e+00,1.772115826606750488e+00,1.771955847740173340e+00,1.771795749664306641e+00,1.771635890007019043e+00,1.771475911140441895e+00,1.771315932273864746e+00,1.771156072616577148e+00,1.770996212959289551e+00,1.770836472511291504e+00,1.770676612854003906e+00,1.770516872406005859e+00,1.770357131958007812e+00,1.770197391510009766e+00,1.770037770271301270e+00,1.769878029823303223e+00,1.769718289375305176e+00,1.769558668136596680e+00,1.769399046897888184e+00,1.769239544868469238e+00,1.769080042839050293e+00,1.768920540809631348e+00,1.768761157989501953e+00,1.768601655960083008e+00,1.768442273139953613e+00,1.768282890319824219e+00,1.768123626708984375e+00,1.767964243888854980e+00,1.767804980278015137e+00,1.767645716667175293e+00,1.767486572265625000e+00,1.767327308654785156e+00,1.767168164253234863e+00,1.767009019851684570e+00,1.766849994659423828e+00,1.766690731048583984e+00,1.766531586647033691e+00,1.766372680664062500e+00,1.766213655471801758e+00,1.766054630279541016e+00,1.765895724296569824e+00,1.765736818313598633e+00,1.765577912330627441e+00,1.765419125556945801e+00
1.607809066772460938e+00,1.607677340507507324e+00,1.607545614242553711e+00,1.607414007186889648e+00,1.607282280921936035e+00,1.607150673866271973e+00,1.607019066810607910e+00,1.606887459754943848e+00,1.606755852699279785e+00,1.606624364852905273e+00,1.606492757797241211e+00,1.606361269950866699e+00,1.606229662895202637e+00,1.606098175048828125e+00,1.605966687202453613e+00,1.605835318565368652e+00,1.605703830718994141e+00,1.605572462081909180e+00,1.605441093444824219e+00,1.605309844017028809e+00,1.605178475379943848e+00,1.605047225952148438e+00,1.604915857315063477e+00,1.604784607887268066e+00,1.604653358459472656e+00,1.604522228240966797e+00,1.604390978813171387e+00,1.604259848594665527e+00,1.604128718376159668e+00,1.603997588157653809e+00,1.603866457939147949e+00,1.603735208511352539e+00,1.603604197502136230e+00,1.603473067283630371e+00,1.603342056274414062e+00,1.603211045265197754e+00,1.603080153465270996e+00,1.602949142456054688e+00,1.602818250656127930e+00,1.602687358856201172e+00,1.602556467056274414e+00,1.602425575256347656e+00,1.602294683456420898e+00,1.602163910865783691e+00,1.602033138275146484e+00,1.601902365684509277e+00,1.601771593093872070e+00,1.601640820503234863e+00,1.601510047912597656e+00,1.601379394531250000e+00,1.601248621940612793e+00,1.601117849349975586e+00,1.600987315177917480e+00,1.600856661796569824e+00,1.600726127624511719e+00,1.600595474243164062e+00,1.600464940071105957e+00,1.600334405899047852e+00,1.600203990936279297e+00,1.600073456764221191e+00,1.599942922592163086e+00,1.599812507629394531e+00,1.599682092666625977e+00,1.599551677703857422e+00,1.599421262741088867e+00,1.599290966987609863e+00,1.599160671234130859e+00,1.599030256271362305e+00,1.598899960517883301e+00,1.598769783973693848e+00,1.598639369010925293e+00,1.598509073257446289e+00,1.598378896713256836e+00,1.598248720169067383e+00,1.598118543624877930e+00,1.597988367080688477e+00,1.597858309745788574e+00,1.597728133201599121e+00,1.597598075866699219e+00,1.597468018531799316e+00
1.467314243316650391e+00,1.467204451560974121e+00,1.467094779014587402e+00,1.466985106468200684e+00,1.466875433921813965e+00,1.466765761375427246e+00,1.466656208038330078e+00,1.466546535491943359e+00,1.466436982154846191e+00,1.466327309608459473e+00,1.466217637062072754e+00,1.466108083724975586e+00,1.465998530387878418e+00,1.465889096260070801e+00,1.465779542922973633e+00,1.465670108795166016e+00,1.465560555458068848e+00,1.465451121330261230e+00,1.465341687202453613e+00,1.465232253074645996e+00,1.465122938156127930e+00,1.465013504028320312e+00,1.464904189109802246e+00,1.464794754981994629e+00,1.464685440063476562e+00,1.464576125144958496e+00,1.464466810226440430e+00,1.464357495307922363e+00,1.464248299598693848e+00,1.464138984680175781e+00,1.464029669761657715e+00,1.463920354843139648e+00,1.463811159133911133e+00,1.463701963424682617e+00,1.463592886924743652e+00,1.463483691215515137e+00,1.463374495506286621e+00,1.463265419006347656e+00,1.463156342506408691e+00,1.463047146797180176e+00,1.462938070297241211e+00,1.462829113006591797e+00,1.462720036506652832e+00,1.462610960006713867e+00,1.462502002716064453e+00,1.462393045425415039e+00,1.462283968925476074e+00,1.462175011634826660e+00,1.462066173553466797e+00,1.461957097053527832e+00,1.461848139762878418e+00,1.461739301681518555e+00,1.461630344390869141e+00,1.461521506309509277e+00,1.461412668228149414e+00,1.461303830146789551e+00,1.461194992065429688e+00,1.461086273193359375e+00,1.460977435111999512e+00,1.460868716239929199e+00,1.460759878158569336e+00,1.460651159286499023e+00,1.460542440414428711e+00,1.460433721542358398e+00,1.460325121879577637e+00,1.460216403007507324e+00,1.460107803344726562e+00,1.459999084472656250e+00,1.459890365600585938e+00,1.459781765937805176e+00,1.459673166275024414e+00,1.459564566612243652e+00,1.459456086158752441e+00,1.459347486495971680e+00,1.459239006042480469e+00,1.459130406379699707e+00,1.459021925926208496e+00,1.458913445472717285e+00,1.458805084228515625e+00,1.458696603775024414e+00
1.349399805068969727e+00,1.349307060241699219e+00,1.349214196205139160e+00,1.349121451377868652e+00,1.349028706550598145e+00,1.348935961723327637e+00,1.348843216896057129e+00,1.348750591278076172e+00,1.348657846450805664e+00,1.348565101623535156e+00,1.348472356796264648e+00,1.348379731178283691e+00,1.348287105560302734e+00,1.348194479942321777e+00,1.348101854324340820e+00,1.348009228706359863e+00,1.347916603088378906e+00,1.347823977470397949e+00,1.347731471061706543e+00,1.347638845443725586e+00,1.347546339035034180e+00,1.347453832626342773e+00,1.347361326217651367e+00,1.347268819808959961e+00,1.347176313400268555e+00,1.347083806991577148e+00,1.346991300582885742e+00,1.346898913383483887e+00,1.346806406974792480e+00,1.346713900566101074e+00,1.346621513366699219e+00,1.346529126167297363e+00,1.346436738967895508e+00,1.346344351768493652e+00,1.346251964569091797e+00,1.346159577369689941e+00,1.346067190170288086e+00,1.345974922180175781e+00,1.345882534980773926e+00,1.345790266990661621e+00,1.345697999000549316e+00,1.345605731010437012e+00,1.345513463020324707e+00,1.345421195030212402e+00,1.345328927040100098e+00,1.345236659049987793e+00,1.345144510269165039e+00,1.345052242279052734e+00,1.344959974288940430e+00,1.344867825508117676e+00,1.344775676727294922e+00,1.344683527946472168e+00,1.344591379165649414e+00,1.344499230384826660e+00,1.344407081604003906e+00,1.344314932823181152e+00,1.344222903251647949e+00,1.344130873680114746e+00,1.344038724899291992e+00,1.343946695327758789e+00,1.343854665756225586e+00,1.343762636184692383e+00,1.343670606613159180e+00,1.343578577041625977e+00,1.343486666679382324e+00,1.343394637107849121e+00,1.343302726745605469e+00,1.343210577964782715e+00,1.343118667602539062e+00,1.343026757240295410e+00,1.342934846878051758e+00,1.342842936515808105e+00,1.342751026153564453e+00,1.342659115791320801e+00,1.342567324638366699e+00,1.342475414276123047e+00,1.342383623123168945e+00,1.342291712760925293e+00,1.342199921607971191e+00,1.342108130455017090e+00
1.249027132987976074e+00,1.248947620391845703e+00,1.248868107795715332e+00,1.248788595199584961e+00,1.248709201812744141e+00,1.248629689216613770e+00,1.248550295829772949e+00,1.248470902442932129e+00,1.248391389846801758e+00,1.248311877250671387e+00,1.248232483863830566e+00,1.248153090476989746e+00,1.248073697090148926e+00,1.247994303703308105e+00,1.247915029525756836e+00,1.247835636138916016e+00,1.247756242752075195e+00,1.247676968574523926e+00,1.247597575187683105e+00,1.247518301010131836e+00,1.247439026832580566e+00,1.247359633445739746e+00,1.247280359268188477e+00,1.247201085090637207e+00,1.247121810913085938e+00,1.247042655944824219e+00,1.246963381767272949e+00,1.246883988380432129e+00,1.246804833412170410e+00,1.246725559234619141e+00,1.246646404266357422e+00,1.246567130088806152e+00,1.246487975120544434e+00,1.246408820152282715e+00,1.246329665184020996e+00,1.246250510215759277e+00,1.246171355247497559e+00,1.246092200279235840e+00,1.246013045310974121e+00,1.245934009552001953e+00,1.245854854583740234e+00,1.245775699615478516e+00,1.245696663856506348e+00,1.245617628097534180e+00,1.245538473129272461e+00,1.245459437370300293e+00,1.245380401611328125e+00,1.245301246643066406e+00,1.245222330093383789e+00,1.245143294334411621e+00,1.245064258575439453e+00,1.244985222816467285e+00,1.244906306266784668e+00,1.244827270507812500e+00,1.244748353958129883e+00,1.244669318199157715e+00,1.244590401649475098e+00,1.244511485099792480e+00,1.244432568550109863e+00,1.244353652000427246e+00,1.244274735450744629e+00,1.244195818901062012e+00,1.244117021560668945e+00,1.244038105010986328e+00,1.243959188461303711e+00,1.243880391120910645e+00,1.243801474571228027e+00,1.243722558021545410e+00,1.243643760681152344e+00,1.243564963340759277e+00,1.243486166000366211e+00,1.243407368659973145e+00,1.243328571319580078e+00,1.243249773979187012e+00,1.243171095848083496e+00,1.243092298507690430e+00,1.243013501167297363e+00,1.242934823036193848e+00,1.242856144905090332e+00,1.242777347564697266e+00
1.162552714347839355e+00,1.162483930587768555e+00,1.162415027618408203e+00,1.162346124649047852e+00,1.162277340888977051e+00,1.162208437919616699e+00,1.162139654159545898e+00,1.162070751190185547e+00,1.162001967430114746e+00,1.161933183670043945e+00,1.161864280700683594e+00,1.161795496940612793e+00,1.161726713180541992e+00,1.161657929420471191e+00,1.161589264869689941e+00,1.161520481109619141e+00,1.161451697349548340e+00,1.161382913589477539e+00,1.161314249038696289e+00,1.161245465278625488e+00,1.161176800727844238e+00,1.161108016967773438e+00,1.161039352416992188e+00,1.160970687866210938e+00,1.160902023315429688e+00,1.160833358764648438e+00,1.160764575004577637e+00,1.160695910453796387e+00,1.160627245903015137e+00,1.160558581352233887e+00,1.160489916801452637e+00,1.160421371459960938e+00,1.160352706909179688e+00,1.160284161567687988e+00,1.160215497016906738e+00,1.160146951675415039e+00,1.160078287124633789e+00,1.160009741783142090e+00,1.159941196441650391e+00,1.159872651100158691e+00,1.159803986549377441e+00,1.159735441207885742e+00,1.159666895866394043e+00,1.159598469734191895e+00,1.159529924392700195e+00,1.159461259841918945e+00,1.159392833709716797e+00,1.159324288368225098e+00,1.159255743026733398e+00,1.159187316894531250e+00,1.159118890762329102e+00,1.159050345420837402e+00,1.158981919288635254e+00,1.158913493156433105e+00,1.158845067024230957e+00,1.158776521682739258e+00,1.158708095550537109e+00,1.158639669418334961e+00,1.158571362495422363e+00,1.158502936363220215e+00,1.158434510231018066e+00,1.158366203308105469e+00,1.158297777175903320e+00,1.158229470252990723e+00,1.158161044120788574e+00,1.158092617988586426e+00,1.158024311065673828e+00,1.157955884933471680e+00,1.157887578010559082e+00,1.157819271087646484e+00,1.157750964164733887e+00,1.157682657241821289e+00,1.157614350318908691e+00,1.157546043395996094e+00,1.157477855682373047e+00,1.157409548759460449e+00,1.157341241836547852e+00,1.157273054122924805e+00,1.157204747200012207e+00,1.157136559486389160e+00
1.087276816368103027e+00,1.087216615676879883e+00,1.087156414985656738e+00,1.087096214294433594e+00,1.087035894393920898e+00,1.086975693702697754e+00,1.086915493011474609e+00,1.086855292320251465e+00,1.086795091629028320e+00,1.086734890937805176e+00,1.086674690246582031e+00,1.086614489555358887e+00,1.086554288864135742e+00,1.086494207382202148e+00,1.086434006690979004e+00,1.086373925209045410e+00,1.086313724517822266e+00,1.086253643035888672e+00,1.086193442344665527e+00,1.086133360862731934e+00,1.086073279380798340e+00,1.086013078689575195e+00,1.085952997207641602e+00,1.085892915725708008e+00,1.085832834243774414e+00,1.085772633552551270e+00,1.085712552070617676e+00,1.085652589797973633e+00,1.085592508316040039e+00,1.085532426834106445e+00,1.085472345352172852e+00,1.085412383079528809e+00,1.085352301597595215e+00,1.085292220115661621e+00,1.085232257843017578e+00,1.085172295570373535e+00,1.085112214088439941e+00,1.085052251815795898e+00,1.084992289543151855e+00,1.084932208061218262e+00,1.084872245788574219e+00,1.084812283515930176e+00,1.084752321243286133e+00,1.084692358970642090e+00,1.084632277488708496e+00,1.084572315216064453e+00,1.084512472152709961e+00,1.084452509880065918e+00,1.084392547607421875e+00,1.084332585334777832e+00,1.084272742271423340e+00,1.084212779998779297e+00,1.084152936935424805e+00,1.084092974662780762e+00,1.084033131599426270e+00,1.083973288536071777e+00,1.083913326263427734e+00,1.083853483200073242e+00,1.083793640136718750e+00,1.083733797073364258e+00,1.083673954010009766e+00,1.083614110946655273e+00,1.083554267883300781e+00,1.083494424819946289e+00,1.083434462547302246e+00,1.083374738693237305e+00,1.083314895629882812e+00,1.083255052566528320e+00,1.083195328712463379e+00,1.083135485649108887e+00,1.083075761795043945e+00,1.083015918731689453e+00,1.082956194877624512e+00,1.082896351814270020e+00,1.082836627960205078e+00,1.082776904106140137e+00,1.082717180252075195e+00,1.082657456398010254e+00,1.082597613334655762e+00,1.082537889480590820e+00
1.021156430244445801e+00,1.021103382110595703e+00,1.021050214767456055e+00,1.020997047424316406e+00,1.020943880081176758e+00,1.020890831947326660e+00,1.020837664604187012e+00,1.020784616470336914e+00,1.020731449127197266e+00,1.020678400993347168e+00,1.020625233650207520e+00,1.020572185516357422e+00,1.020519137382507324e+00,1.020466089248657227e+00,1.020413041114807129e+00,1.020359873771667480e+00,1.020306825637817383e+00,1.020253777503967285e+00,1.020200729370117188e+00,1.020147681236267090e+00,1.020094752311706543e+00,1.020041704177856445e+00,1.019988656044006348e+00,1.019935607910156250e+00,1.019882559776306152e+00,1.019829511642456055e+00,1.019776582717895508e+00,1.019723534584045410e+00,1.019670605659484863e+00,1.019617557525634766e+00,1.019564628601074219e+00,1.019511699676513672e+00,1.019458651542663574e+00,1.019405722618103027e+00,1.019352793693542480e+00,1.019299864768981934e+00,1.019246816635131836e+00,1.019193887710571289e+00,1.019140958786010742e+00,1.019088029861450195e+00,1.019035100936889648e+00,1.018982172012329102e+00,1.018929362297058105e+00,1.018876314163208008e+00,1.018823385238647461e+00,1.018770575523376465e+00,1.018717646598815918e+00,1.018664717674255371e+00,1.018611907958984375e+00,1.018558979034423828e+00,1.018506169319152832e+00,1.018453240394592285e+00,1.018400430679321289e+00,1.018347620964050293e+00,1.018294692039489746e+00,1.018241882324218750e+00,1.018189072608947754e+00,1.018136262893676758e+00,1.018083453178405762e+00,1.018030643463134766e+00,1.017977714538574219e+00,1.017924904823303223e+00,1.017872095108032227e+00,1.017819285392761230e+00,1.017766475677490234e+00,1.017713785171508789e+00,1.017660975456237793e+00,1.017608165740966797e+00,1.017555356025695801e+00,1.017502665519714355e+00,1.017449855804443359e+00,1.017397165298461914e+00,1.017344355583190918e+00,1.017291665077209473e+00,1.017238855361938477e+00,1.017186164855957031e+00,1.017133474349975586e+00,1.017080664634704590e+00,1.017027974128723145e+00,1.016975283622741699e+00
9.626170992851257324e-01,9.625698328018188477e-01,9.625226259231567383e-01,9.624753594398498535e-01,9.624280929565429688e-01,9.623809456825256348e-01,9.623336791992187500e-01,9.622865319252014160e-01,9.622393250465393066e-01,9.621921777725219727e-01,9.621449708938598633e-01,9.620978236198425293e-01,9.620506167411804199e-01,9.620035290718078613e-01,9.619562625885009766e-01,9.619091749191284180e-01,9.618619680404663086e-01,9.618148803710937500e-01,9.617676734924316406e-01,9.617206454277038574e-01,9.616734385490417480e-01,9.616263508796691895e-01,9.615792036056518555e-01,9.615319967269897461e-01,9.614849686622619629e-01,9.614377617835998535e-01,9.613907337188720703e-01,9.613435864448547363e-01,9.612965583801269531e-01,9.612494111061096191e-01,9.612023830413818359e-01,9.611552357673645020e-01,9.611082077026367188e-01,9.610610604286193848e-01,9.610140919685363770e-01,9.609669446945190430e-01,9.609199762344360352e-01,9.608728289604187012e-01,9.608258605003356934e-01,9.607787132263183594e-01,9.607317447662353516e-01,9.606846570968627930e-01,9.606375694274902344e-01,9.605906009674072266e-01,9.605435132980346680e-01,9.604965448379516602e-01,9.604495167732238770e-01,9.604025483131408691e-01,9.603554606437683105e-01,9.603085517883300781e-01,9.602615237236022949e-01,9.602145552635192871e-01,9.601675271987915039e-01,9.601206183433532715e-01,9.600735902786254883e-01,9.600266218185424805e-01,9.599796533584594727e-01,9.599326848983764648e-01,9.598857164382934570e-01,9.598388075828552246e-01,9.597917795181274414e-01,9.597448110580444336e-01,9.596979022026062012e-01,9.596509337425231934e-01,9.596040248870849609e-01,9.595570564270019531e-01,9.595102071762084961e-01,9.594632387161254883e-01,9.594163894653320312e-01,9.593694210052490234e-01,9.593225717544555664e-01,9.592756032943725586e-01,9.592287540435791016e-01,9.591818451881408691e-01,9.591349959373474121e-01,9.590880870819091797e-01,9.590412378311157227e-01,9.589943289756774902e-01,9.589474797248840332e-01,9.589005708694458008e-01
9.104254245758056641e-01,9.103831648826599121e-01,9.103408455848693848e-01,9.102986454963684082e-01,9.102563858032226562e-01,9.102142453193664551e-01,9.101719260215759277e-01,9.101297855377197266e-01,9.100875258445739746e-01,9.100453853607177734e-01,9.100031256675720215e-01,9.099609851837158203e-01,9.099187254905700684e-01,9.098765850067138672e-01,9.098343253135681152e-01,9.097921848297119141e-01,9.097499847412109375e-01,9.097078442573547363e-01,9.096656441688537598e-01,9.096235036849975586e-01,9.095813035964965820e-01,9.095391035079956055e-01,9.094969630241394043e-01,9.094547629356384277e-01,9.094126820564270020e-01,9.093704819679260254e-01,9.093284010887145996e-01,9.092862010002136230e-01,9.092441201210021973e-01,9.092019200325012207e-01,9.091598391532897949e-01,9.091176986694335938e-01,9.090756177902221680e-01,9.090334773063659668e-01,9.089913964271545410e-01,9.089492559432983398e-01,9.089071750640869141e-01,9.088650345802307129e-01,9.088230133056640625e-01,9.087808728218078613e-01,9.087387919425964355e-01,9.086967110633850098e-01,9.086545705795288086e-01,9.086125493049621582e-01,9.085704088211059570e-01,9.085283875465393066e-01,9.084863066673278809e-01,9.084442853927612305e-01,9.084021449089050293e-01,9.083601832389831543e-01,9.083180427551269531e-01,9.082760810852050781e-01,9.082340002059936523e-01,9.081919789314270020e-01,9.081498980522155762e-01,9.081079363822937012e-01,9.080658555030822754e-01,9.080238938331604004e-01,9.079818129539489746e-01,9.079398512840270996e-01,9.078978300094604492e-01,9.078557491302490234e-01,9.078137874603271484e-01,9.077717661857604980e-01,9.077298045158386230e-01,9.076877832412719727e-01,9.076458215713500977e-01,9.076038002967834473e-01,9.075618982315063477e-01,9.075198769569396973e-01,9.074779152870178223e-01,9.074359536170959473e-01,9.073939919471740723e-01,9.073520302772521973e-01,9.073101282119750977e-01,9.072681069374084473e-01,9.072262048721313477e-01,9.071842432022094727e-01,9.071423411369323730e-01,9.071003198623657227e-01
8.636022210121154785e-01,8.635641932487487793e-01,8.635261058807373047e-01,8.634881973266601562e-01,8.634501099586486816e-01,8.634122014045715332e-01,8.633741736412048340e-01,8.633362054824829102e-01,8.632981777191162109e-01,8.632602691650390625e-01,8.632222414016723633e-01,8.631842732429504395e-01,8.631463050842285156e-01,8.631083369255065918e-01,8.630703687667846680e-01,8.630324602127075195e-01,8.629944324493408203e-01,8.629565238952636719e-01,8.629185557365417480e-01,8.628806471824645996e-01,8.628426194190979004e-01,8.628046512603759766e-01,8.627667427062988281e-01,8.627287745475769043e-01,8.626909255981445312e-01,8.626529574394226074e-01,8.626150488853454590e-01,8.625770807266235352e-01,8.625392317771911621e-01,8.625012636184692383e-01,8.624634146690368652e-01,8.624254465103149414e-01,8.623875975608825684e-01,8.623496294021606445e-01,8.623117804527282715e-01,8.622738718986511230e-01,8.622360229492187500e-01,8.621981143951416016e-01,8.621602654457092285e-01,8.621222972869873047e-01,8.620843887329101562e-01,8.620465397834777832e-01,8.620086312294006348e-01,8.619708418846130371e-01,8.619329333305358887e-01,8.618951439857482910e-01,8.618572354316711426e-01,8.618193864822387695e-01,8.617815375328063965e-01,8.617436885833740234e-01,8.617058396339416504e-01,8.616680502891540527e-01,8.616301417350769043e-01,8.615923523902893066e-01,8.615545034408569336e-01,8.615167140960693359e-01,8.614788055419921875e-01,8.614410758018493652e-01,8.614032268524169922e-01,8.613653182983398438e-01,8.613275885581970215e-01,8.612897396087646484e-01,8.612519502639770508e-01,8.612141013145446777e-01,8.611763715744018555e-01,8.611385226249694824e-01,8.611007928848266602e-01,8.610629439353942871e-01,8.610252141952514648e-01,8.609874248504638672e-01,8.609496355056762695e-01,8.609118461608886719e-01,8.608741164207458496e-01,8.608363270759582520e-01,8.607985973358154297e-01,8.607608079910278320e-01,8.607230782508850098e-01,8.606852889060974121e-01,8.606474995613098145e-01,8.606097698211669922e-01
8.213595747947692871e-01,8.213252425193786621e-01,8.212908506393432617e-01,8.212565183639526367e-01,8.212220668792724609e-01,8.211877346038818359e-01,8.211533427238464355e-01,8.211190700531005859e-01,8.210846185684204102e-01,8.210503458976745605e-01,8.210159540176391602e-01,8.209816217422485352e-01,8.209472298622131348e-01,8.209129571914672852e-01,8.208785653114318848e-01,8.208442330360412598e-01,8.208099007606506348e-01,8.207755684852600098e-01,8.207412362098693848e-01,8.207068443298339844e-01,8.206725716590881348e-01,8.206381797790527344e-01,8.206039071083068848e-01,8.205695748329162598e-01,8.205353021621704102e-01,8.205009698867797852e-01,8.204666972160339355e-01,8.204323649406433105e-01,8.203980922698974609e-01,8.203637599945068359e-01,8.203294873237609863e-01,8.202951550483703613e-01,8.202608823776245117e-01,8.202265501022338867e-01,8.201923370361328125e-01,8.201580047607421875e-01,8.201237916946411133e-01,8.200894594192504883e-01,8.200551271438598633e-01,8.200209140777587891e-01,8.199865818023681641e-01,8.199523687362670898e-01,8.199180960655212402e-01,8.198838829994201660e-01,8.198495507240295410e-01,8.198153376579284668e-01,8.197810649871826172e-01,8.197468519210815430e-01,8.197125792503356934e-01,8.196783661842346191e-01,8.196440935134887695e-01,8.196098804473876953e-01,8.195756077766418457e-01,8.195414543151855469e-01,8.195071816444396973e-01,8.194729685783386230e-01,8.194387555122375488e-01,8.194045424461364746e-01,8.193702697753906250e-01,8.193360567092895508e-01,8.193018436431884766e-01,8.192676305770874023e-01,8.192334771156311035e-01,8.191992044448852539e-01,8.191650509834289551e-01,8.191308379173278809e-01,8.190966844558715820e-01,8.190624117851257324e-01,8.190283179283142090e-01,8.189940452575683594e-01,8.189599514007568359e-01,8.189256787300109863e-01,8.188915848731994629e-01,8.188573718070983887e-01,8.188232183456420898e-01,8.187890052795410156e-01,8.187549114227294922e-01,8.187206983566284180e-01,8.186864852905273438e-01,8.186523914337158203e-01
7.830569148063659668e-01,7.830256819725036621e-01,7.829943895339965820e-01,7.829632163047790527e-01,7.829319238662719727e-01,7.829006910324096680e-01,7.828694581985473633e-01,7.828382253646850586e-01,7.828069925308227539e-01,7.827757596969604492e-01,7.827445268630981445e-01,7.827133536338806152e-01,7.826820611953735352e-01,7.826508879661560059e-01,7.826196551322937012e-01,7.825884819030761719e-01,7.825572490692138672e-01,7.825260758399963379e-01,7.824948430061340332e-01,7.824635505676269531e-01,7.824324369430541992e-01,7.824011445045471191e-01,7.823700308799743652e-01,7.823387980461120605e-01,7.823076248168945312e-01,7.822763919830322266e-01,7.822452783584594727e-01,7.822140455245971680e-01,7.821828722953796387e-01,7.821516990661621094e-01,7.821205258369445801e-01,7.820893526077270508e-01,7.820581793785095215e-01,7.820270061492919922e-01,7.819958329200744629e-01,7.819646596908569336e-01,7.819335460662841797e-01,7.819023132324218750e-01,7.818711400032043457e-01,7.818400263786315918e-01,7.818088531494140625e-01,7.817777395248413086e-01,7.817465662956237793e-01,7.817154526710510254e-01,7.816842794418334961e-01,7.816531658172607422e-01,7.816219925880432129e-01,7.815908789634704590e-01,7.815597057342529297e-01,7.815286517143249512e-01,7.814974784851074219e-01,7.814663648605346680e-01,7.814352512359619141e-01,7.814041376113891602e-01,7.813730239868164062e-01,7.813419103622436523e-01,7.813107967376708984e-01,7.812796235084533691e-01,7.812485694885253906e-01,7.812173962593078613e-01,7.811863422393798828e-01,7.811552286148071289e-01,7.811241745948791504e-01,7.810930013656616211e-01,7.810619473457336426e-01,7.810308337211608887e-01,7.809997797012329102e-01,7.809686660766601562e-01,7.809376120567321777e-01,7.809064984321594238e-01,7.808755040168762207e-01,7.808443903923034668e-01,7.808133363723754883e-01,7.807822227478027344e-01,7.807511687278747559e-01,7.807201147079467773e-01,7.806890010833740234e-01,7.806579470634460449e-01,7.806268930435180664e-01,7.805958390235900879e-01
