5.000000000000000000e+00,5.000000000000000000e+00,5.000000000000000000e+00,5.000000000000000000e+00,5.000000000000000000e+00,5.000000000000000000e+00,5.000000000000000000e+00,5.000000000000000000e+00,5.000000000000000000e+00,5.000000000000000000e+00,5.000000000000000000e+00,5.000000000000000000e+00,5.000000000000000000e+00,5.000000000000000000e+00,5.000000000000000000e+00,5.000000000000000000e+00,5.000000000000000000e+00,5.000000000000000000e+00,5.000000000000000000e+00,5.000000000000000000e+00,5.000000000000000000e+00,5.000000000000000000e+00,5.000000000000000000e+00,5.000000000000000000e+00,5.000000000000000000e+00,5.000000000000000000e+00,5.000000000000000000e+00,5.000000000000000000e+00,5.000000000000000000e+00,5.000000000000000000e+00,5.000000000000000000e+00,5.000000000000000000e+00,5.000000000000000000e+00,1.779250621795654297e+00,1.760918736457824707e+00,1.770766019821166992e+00,1.809614658355712891e+00,1.797129154205322266e+00,1.773389220237731934e+00,1.765791416168212891e+00,1.768599987030029297e+00,1.780345082283020020e+00,1.799797177314758301e+00,1.813140153884887695e+00,1.857868671417236328e+00,1.995582342147827148e+00,3.772669076919555664e+00,3.656725883483886719e+00,3.547696828842163086e+00,3.444980859756469727e+00,3.348046064376831055e+00,3.256416559219360352e+00,3.169668912887573242e+00,3.087423086166381836e+00,3.009337425231933594e+00,2.935104370117187500e+00,2.864445209503173828e+00,2.797108411788940430e+00,2.732864618301391602e+00,2.671505689620971680e+00,2.612841606140136719e+00,2.556698560714721680e+00,2.502917289733886719e+00,2.451352357864379883e+00,2.401869058609008789e+00,2.354343891143798828e+00,2.308663129806518555e+00,2.264721155166625977e+00,2.222420692443847656e+00,2.181671619415283203e+00,2.142389774322509766e+00,2.104497432708740234e+00,2.067922353744506836e+00,2.032596826553344727e+00,1.998457908630371094e+00,1.965446710586547852e+00,1.933508515357971191e+00,1.902591824531555176e+00,1.872647881507873535e+00,1.843632221221923828e+00
5.000000000000000000e+00,5.000000000000000000e+00,5.000000000000000000e+00,5.000000000000000000e+00,5.000000000000000000e+00,5.000000000000000000e+00,5.000000000000000000e+00,5.000000000000000000e+00,5.000000000000000000e+00,5.000000000000000000e+00,5.000000000000000000e+00,5.000000000000000000e+00,5.000000000000000000e+00,5.000000000000000000e+00,5.000000000000000000e+00,5.000000000000000000e+00,5.000000000000000000e+00,5.000000000000000000e+00,5.000000000000000000e+00,5.000000000000000000e+00,5.000000000000000000e+00,5.000000000000000000e+00,5.000000000000000000e+00,5.000000000000000000e+00,5.000000000000000000e+00,5.000000000000000000e+00,5.000000000000000000e+00,5.000000000000000000e+00,5.000000000000000000e+00,5.000000000000000000e+00,5.000000000000000000e+00,5.000000000000000000e+00,5.000000000000000000e+00,1.776726365089416504e+00,1.736657023429870605e+00,1.745474457740783691e+00,1.824196338653564453e+00,1.793162465095520020e+00,1.768404126167297363e+00,1.769864678382873535e+00,1.765253782272338867e+00,1.775628209114074707e+00,1.791727781295776367e+00,1.808357477188110352e+00,1.843775033950805664e+00,2.006312608718872070e+00,3.772753477096557617e+00,3.656805276870727539e+00,3.547771453857421875e+00,3.445051670074462891e+00,3.348112583160400391e+00,3.256479501724243164e+00,3.169728517532348633e+00,3.087479591369628906e+00,3.009391307830810547e+00,2.935155391693115234e+00,2.864494085311889648e+00,2.797154903411865234e+00,2.732908964157104492e+00,2.671548128128051758e+00,2.612882137298583984e+00,2.556737184524536133e+00,2.502954721450805664e+00,2.451387882232666016e+00,2.401903152465820312e+00,2.354376792907714844e+00,2.308694601058959961e+00,2.264751672744750977e+00,2.222450256347656250e+00,2.181699991226196289e+00,2.142416954040527344e+00,2.104523897171020508e+00,2.067947626113891602e+00,2.032621383666992188e+00,1.998481512069702148e+00,1.965469717979431152e+00,1.933530807495117188e+00,1.902613162994384766e+00,1.872668862342834473e+00,1.843652367591857910e+00
5.000000000000000000e+00,5.000000000000000000e+00,5.000000000000000000e+00,5.000000000000000000e+00,5.000000000000000000e+00,5.000000000000000000e+00,5.000000000000000000e+00,5.000000000000000000e+00,5.000000000000000000e+00,5.000000000000000000e+00,5.000000000000000000e+00,5.000000000000000000e+00,5.000000000000000000e+00,5.000000000000000000e+00,5.000000000000000000e+00,5.000000000000000000e+00,5.000000000000000000e+00,5.000000000000000000e+00,5.000000000000000000e+00,5.000000000000000000e+00,5.000000000000000000e+00,5.000000000000000000e+00,5.000000000000000000e+00,5.000000000000000000e+00,5.000000000000000000e+00,5.000000000000000000e+00,5.000000000000000000e+00,5.000000000000000000e+00,5.000000000000000000e+00,5.000000000000000000e+00,5.000000000000000000e+00,5.000000000000000000e+00,5.000000000000000000e+00,1.775008082389831543e+00,1.714585304260253906e+00,1.710259675979614258e+00,1.760024785995483398e+00,1.787942886352539062e+00,1.781080007553100586e+00,1.774269580841064453e+00,1.777087092399597168e+00,1.784056901931762695e+00,1.798086166381835938e+00,1.805836677551269531e+00,1.838893532752990723e+00,2.020467996597290039e+00,3.772837877273559570e+00,3.656884670257568359e+00,3.547846555709838867e+00,3.445122003555297852e+00,3.348178863525390625e+00,3.256542444229125977e+00,3.169788122177124023e+00,3.087536096572875977e+00,3.009445190429687500e+00,2.935206890106201172e+00,2.864542722702026367e+00,2.797201156616210938e+00,2.732953310012817383e+00,2.671590328216552734e+00,2.612922668457031250e+00,2.556776285171508789e+00,2.502991676330566406e+00,2.451423645019531250e+00,2.401937484741210938e+00,2.354409694671630859e+00,2.308726310729980469e+00,2.264782190322875977e+00,2.222479343414306641e+00,2.181728124618530273e+00,2.142444372177124023e+00,2.104550123214721680e+00,2.067972898483276367e+00,2.032645702362060547e+00,1.998505234718322754e+00,1.965492725372314453e+00,1.933552861213684082e+00,1.902634739875793457e+00,1.872689485549926758e+00,1.843672513961791992e+00
5.000000000000000000e+00,5.000000000000000000e+00,5.000000000000000000e+00,5.000000000000000000e+00,5.000000000000000000e+00,5.000000000000000000e+00,5.000000000000000000e+00,5.000000000000000000e+00,5.000000000000000000e+00,5.000000000000000000e+00,5.000000000000000000e+00,5.000000000000000000e+00,5.000000000000000000e+00,5.000000000000000000e+00,5.000000000000000000e+00,5.000000000000000000e+00,5.000000000000000000e+00,5.000000000000000000e+00,5.000000000000000000e+00,5.000000000000000000e+00,5.000000000000000000e+00,5.000000000000000000e+00,5.000000000000000000e+00,5.000000000000000000e+00,5.000000000000000000e+00,5.000000000000000000e+00,5.000000000000000000e+00,5.000000000000000000e+00,5.000000000000000000e+00,5.000000000000000000e+00,5.000000000000000000e+00,5.000000000000000000e+00,5.000000000000000000e+00,5.000000000000000000e+00,1.697559356689453125e+00,1.685034990310668945e+00,1.710515141487121582e+00,1.783687949180603027e+00,1.778870820999145508e+00,1.775697112083435059e+00,1.781141281127929688e+00,1.785609960556030273e+00,1.805493116378784180e+00,1.823600530624389648e+00,1.877363681793212891e+00,2.028515577316284180e+00,3.772922277450561523e+00,3.656964302062988281e+00,3.547921180725097656e+00,3.445192575454711914e+00,3.348245382308959961e+00,3.256605386734008789e+00,3.169847726821899414e+00,3.087592840194702148e+00,3.009498834609985352e+00,2.935257911682128906e+00,2.864591360092163086e+00,2.797247648239135742e+00,2.732997417449951172e+00,2.671632766723632812e+00,2.612963199615478516e+00,2.556814908981323242e+00,2.503028869628906250e+00,2.451459169387817383e+00,2.401971578598022461e+00,2.354442596435546875e+00,2.308758020401000977e+00,2.264812707901000977e+00,2.222508668899536133e+00,2.181756258010864258e+00,2.142471551895141602e+00,2.104576349258422852e+00,2.067998409271240234e+00,2.032670497894287109e+00,1.998529076576232910e+00,1.965515613555908203e+00,1.933575153350830078e+00,1.902656078338623047e+00,1.872710466384887695e+00,1.843692779541015625e+00
5.000000000000000000e+00,5.000000000000000000e+00,5.000000000000000000e+00,5.000000000000000000e+00,5.000000000000000000e+00,5.000000000000000000e+00,5.000000000000000000e+00,5.000000000000000000e+00,5.000000000000000000e+00,5.000000000000000000e+00,5.000000000000000000e+00,5.000000000000000000e+00,5.000000000000000000e+00,5.000000000000000000e+00,5.000000000000000000e+00,5.000000000000000000e+00,5.000000000000000000e+00,5.000000000000000000e+00,5.000000000000000000e+00,5.000000000000000000e+00,5.000000000000000000e+00,5.000000000000000000e+00,5.000000000000000000e+00,5.000000000000000000e+00,5.000000000000000000e+00,5.000000000000000000e+00,5.000000000000000000e+00,5.000000000000000000e+00,5.000000000000000000e+00,5.000000000000000000e+00,5.000000000000000000e+00,5.000000000000000000e+00,5.000000000000000000e+00,5.000000000000000000e+00,1.676240444183349609e+00,1.662507891654968262e+00,1.669280409812927246e+00,1.783667922019958496e+00,1.781175971031188965e+00,1.779903292655944824e+00,1.785772681236267090e+00,1.797195792198181152e+00,1.814804315567016602e+00,1.839716196060180664e+00,1.891467571258544922e+00,2.017858266830444336e+00,3.773007154464721680e+00,3.657043695449829102e+00,3.547995805740356445e+00,3.445262908935546875e+00,3.348311901092529297e+00,3.256668090820312500e+00,3.169907569885253906e+00,3.087649583816528320e+00,3.009552717208862305e+00,2.935308933258056641e+00,2.864640235900878906e+00,2.797294139862060547e+00,2.733041763305664062e+00,2.671675205230712891e+00,2.613003730773925781e+00,2.556853771209716797e+00,2.503066062927246094e+00,2.451494932174682617e+00,2.402005910873413086e+00,2.354475736618041992e+00,2.308789730072021484e+00,2.264842987060546875e+00,2.222537994384765625e+00,2.181784629821777344e+00,2.142498731613159180e+00,2.104602575302124023e+00,2.068023920059204102e+00,2.032694816589355469e+00,1.998552680015563965e+00,1.965538620948791504e+00,1.933597207069396973e+00,1.902677655220031738e+00,1.872731328010559082e+00,1.843712925910949707e+00
5.000000000000000000e+00,5.000000000000000000e+00,5.000000000000000000e+00,5.000000000000000000e+00,5.000000000000000000e+00,5.000000000000000000e+00,5.000000000000000000e+00,5.000000000000000000e+00,5.000000000000000000e+00,5.000000000000000000e+00,5.000000000000000000e+00,5.000000000000000000e+00,5.000000000000000000e+00,5.000000000000000000e+00,5.000000000000000000e+00,5.000000000000000000e+00,5.000000000000000000e+00,5.000000000000000000e+00,5.000000000000000000e+00,5.000000000000000000e+00,5.000000000000000000e+00,5.000000000000000000e+00,5.000000000000000000e+00,5.000000000000000000e+00,5.000000000000000000e+00,5.000000000000000000e+00,5.000000000000000000e+00,5.000000000000000000e+00,5.000000000000000000e+00,5.000000000000000000e+00,5.000000000000000000e+00,5.000000000000000000e+00,5.000000000000000000e+00,5.000000000000000000e+00,1.672132253646850586e+00,1.652216672897338867e+00,1.806478023529052734e+00,1.784796118736267090e+00,1.783474683761596680e+00,1.794010639190673828e+00,1.807615399360656738e+00,1.797536492347717285e+00,1.837393522262573242e+00,1.834893345832824707e+00,1.875858545303344727e+00,2.011115074157714844e+00,3.773091554641723633e+00,3.657122850418090820e+00,3.548070430755615234e+00,3.445333242416381836e+00,3.348378419876098633e+00,3.256731510162353516e+00,3.169967174530029297e+00,3.087706089019775391e+00,3.009606361389160156e+00,2.935360193252563477e+00,2.864688873291015625e+00,2.797340393066406250e+00,2.733086347579956055e+00,2.671717643737792969e+00,2.613044261932373047e+00,2.556892395019531250e+00,2.503103256225585938e+00,2.451530456542968750e+00,2.402040243148803711e+00,2.354508638381958008e+00,2.308821201324462891e+00,2.264873504638671875e+00,2.222567319869995117e+00,2.181812763214111328e+00,2.142525911331176758e+00,2.104629039764404297e+00,2.068049192428588867e+00,2.032719373703002930e+00,1.998576402664184570e+00,1.965561389923095703e+00,1.933619499206542969e+00,1.902699232101440430e+00,1.872752070426940918e+00,1.843733191490173340e+00
5.000000000000000000e+00,5.000000000000000000e+00,5.000000000000000000e+00,5.000000000000000000e+00,5.000000000000000000e+00,5.000000000000000000e+00,5.000000000000000000e+00,5.000000000000000000e+00,5.000000000000000000e+00,5.000000000000000000e+00,5.000000000000000000e+00,5.000000000000000000e+00,5.000000000000000000e+00,5.000000000000000000e+00,5.000000000000000000e+00,5.000000000000000000e+00,5.000000000000000000e+00,5.000000000000000000e+00,5.000000000000000000e+00,5.000000000000000000e+00,5.000000000000000000e+00,5.000000000000000000e+00,5.000000000000000000e+00,5.000000000000000000e+00,5.000000000000000000e+00,5.000000000000000000e+00,5.000000000000000000e+00,5.000000000000000000e+00,5.000000000000000000e+00,5.000000000000000000e+00,5.000000000000000000e+00,5.000000000000000000e+00,5.000000000000000000e+00,5.000000000000000000e+00,1.672479033470153809e+00,1.630486249923706055e+00,1.621343970298767090e+00,1.787686467170715332e+00,1.787898182868957520e+00,1.796356201171875000e+00,1.829998970031738281e+00,1.841483116149902344e+00,1.807923913002014160e+00,1.788228869438171387e+00,1.779489994049072266e+00,1.831967115402221680e+00,3.773175954818725586e+00,3.657202243804931641e+00,3.548145055770874023e+00,3.445403814315795898e+00,3.348445177078247070e+00,3.256794214248657227e+00,3.170026779174804688e+00,3.087762594223022461e+00,3.009660005569458008e+00,2.935411214828491211e+00,2.864737510681152344e+00,2.797387123107910156e+00,2.733130693435668945e+00,2.671759843826293945e+00,2.613084793090820312e+00,2.556931257247924805e+00,2.503140449523925781e+00,2.451566457748413086e+00,2.402074575424194336e+00,2.354541301727294922e+00,2.308852910995483398e+00,2.264903783798217773e+00,2.222596645355224609e+00,2.181841135025024414e+00,2.142553329467773438e+00,2.104655265808105469e+00,2.068074464797973633e+00,2.032743930816650391e+00,1.998600006103515625e+00,1.965584397315979004e+00,1.933641791343688965e+00,1.902720570564270020e+00,1.872772932052612305e+00,1.843753218650817871e+00
5.000000000000000000e+00,5.000000000000000000e+00,5.000000000000000000e+00,5.000000000000000000e+00,5.000000000000000000e+00,5.000000000000000000e+00,5.000000000000000000e+00,5.000000000000000000e+00,5.000000000000000000e+00,5.000000000000000000e+00,5.000000000000000000e+00,5.000000000000000000e+00,5.000000000000000000e+00,5.000000000000000000e+00,5.000000000000000000e+00,5.000000000000000000e+00,5.000000000000000000e+00,5.000000000000000000e+00,5.000000000000000000e+00,5.000000000000000000e+00,5.000000000000000000e+00,5.000000000000000000e+00,5.000000000000000000e+00,5.000000000000000000e+00,5.000000000000000000e+00,5.000000000000000000e+00,5.000000000000000000e+00,5.000000000000000000e+00,5.000000000000000000e+00,5.000000000000000000e+00,5.000000000000000000e+00,5.000000000000000000e+00,5.000000000000000000e+00,5.000000000000000000e+00,5.000000000000000000e+00,1.608937144279479980e+00,1.584798097610473633e+00,1.610874772071838379e+00,1.791534900665283203e+00,1.797184586524963379e+00,1.839472055435180664e+00,1.823672413825988770e+00,1.778683781623840332e+00,1.770481467247009277e+00,1.763692140579223633e+00,1.790013790130615234e+00,3.773260354995727539e+00,3.657281637191772461e+00,3.548219680786132812e+00,3.445474386215209961e+00,3.348511695861816406e+00,3.256857156753540039e+00,3.170086383819580078e+00,3.087819099426269531e+00,3.009713888168334961e+00,2.935462236404418945e+00,2.864786386489868164e+00,2.797433376312255859e+00,2.733175039291381836e+00,2.671802282333374023e+00,2.613125324249267578e+00,2.556970119476318359e+00,2.503177642822265625e+00,2.451601982116699219e+00,2.402108669281005859e+00,2.354574203491210938e+00,2.308884382247924805e+00,2.264934301376342773e+00,2.222625970840454102e+00,2.181869506835937500e+00,2.142580509185791016e+00,2.104681491851806641e+00,2.068099975585937500e+00,2.032768487930297852e+00,1.998623847961425781e+00,1.965607404708862305e+00,1.933663845062255859e+00,1.902742147445678711e+00,1.872793674468994141e+00,1.843773484230041504e+00
5.000000000000000000e+00,5.000000000000000000e+00,5.000000000000000000e+00,5.000000000000000000e+00,5.000000000000000000e+00,5.000000000000000000e+00,5.000000000000000000e+00,5.000000000000000000e+00,5.000000000000000000e+00,5.000000000000000000e+00,5.000000000000000000e+00,5.000000000000000000e+00,5.000000000000000000e+00,5.000000000000000000e+00,5.000000000000000000e+00,5.000000000000000000e+00,5.000000000000000000e+00,5.000000000000000000e+00,5.000000000000000000e+00,5.000000000000000000e+00,5.000000000000000000e+00,5.000000000000000000e+00,5.000000000000000000e+00,5.000000000000000000e+00,5.000000000000000000e+00,5.000000000000000000e+00,5.000000000000000000e+00,5.000000000000000000e+00,5.000000000000000000e+00,5.000000000000000000e+00,5.000000000000000000e+00,5.000000000000000000e+00,5.000000000000000000e+00,5.000000000000000000e+00,5.000000000000000000e+00,1.598947882652282715e+00,1.590916752815246582e+00,1.792184114456176758e+00,1.587389349937438965e+00,1.796468973159790039e+00,1.841298103332519531e+00,1.816911220550537109e+00,1.778837084770202637e+00,1.758521199226379395e+00,1.752940535545349121e+00,1.757665634155273438e+00,1.816919445991516113e+00,3.657361030578613281e+00,3.548294782638549805e+00,3.445544958114624023e+00,3.348578214645385742e+00,3.256920099258422852e+00,3.170145988464355469e+00,3.087875604629516602e+00,3.009767532348632812e+00,2.935513734817504883e+00,2.864835023880004883e+00,2.797479867935180664e+00,2.733219146728515625e+00,2.671844482421875000e+00,2.613165616989135742e+00,2.557008981704711914e+00,2.503214836120605469e+00,2.451637744903564453e+00,2.402143001556396484e+00,2.354607105255126953e+00,2.308916091918945312e+00,2.264964818954467773e+00,2.222655296325683594e+00,2.181897640228271484e+00,2.142607688903808594e+00,2.104707717895507812e+00,2.068125247955322266e+00,2.032793045043945312e+00,1.998647570610046387e+00,1.965630292892456055e+00,1.933686137199401855e+00,1.902763485908508301e+00,1.872814536094665527e+00,1.843793511390686035e+00
5.000000000000000000e+00,5.000000000000000000e+00,5.000000000000000000e+00,5.000000000000000000e+00,5.000000000000000000e+00,5.000000000000000000e+00,5.000000000000000000e+00,5.000000000000000000e+00,5.000000000000000000e+00,5.000000000000000000e+00,5.000000000000000000e+00,5.000000000000000000e+00,5.000000000000000000e+00,5.000000000000000000e+00,5.000000000000000000e+00,5.000000000000000000e+00,5.000000000000000000e+00,5.000000000000000000e+00,5.000000000000000000e+00,5.000000000000000000e+00,5.000000000000000000e+00,5.000000000000000000e+00,5.000000000000000000e+00,5.000000000000000000e+00,5.000000000000000000e+00,5.000000000000000000e+00,5.000000000000000000e+00,5.000000000000000000e+00,5.000000000000000000e+00,5.000000000000000000e+00,5.000000000000000000e+00,5.000000000000000000e+00,5.000000000000000000e+00,5.000000000000000000e+00,5.000000000000000000e+00,1.586406707763671875e+00,1.559780836105346680e+00,1.534860730171203613e+00,1.800002813339233398e+00,1.801065325736999512e+00,1.844778895378112793e+00,1.822453260421752930e+00,1.778120875358581543e+00,1.745197057723999023e+00,1.742033958435058594e+00,1.736840963363647461e+00,1.785435080528259277e+00,3.657440662384033203e+00,3.548369407653808594e+00,3.445615291595458984e+00,3.348644733428955078e+00,3.256983041763305664e+00,3.170205593109130859e+00,3.087932109832763672e+00,3.009821414947509766e+00,2.935564756393432617e+00,2.864883661270141602e+00,2.797526359558105469e+00,2.733263492584228516e+00,2.671886920928955078e+00,2.613206386566162109e+00,2.557047843933105469e+00,2.503252029418945312e+00,2.451673269271850586e+00,2.402177095413208008e+00,2.354640007019042969e+00,2.308947801589965820e+00,2.264995336532592773e+00,2.222684621810913086e+00,2.181925773620605469e+00,2.142634868621826172e+00,2.104734182357788086e+00,2.068150758743286133e+00,2.032817602157592773e+00,1.998671174049377441e+00,1.965653300285339355e+00,1.933708190917968750e+00,1.902785181999206543e+00,1.872835278511047363e+00,1.843813776969909668e+00
5.000000000000000000e+00,5.000000000000000000e+00,5.000000000000000000e+00,5.000000000000000000e+00,5.000000000000000000e+00,5.000000000000000000e+00,5.000000000000000000e+00,5.000000000000000000e+00,5.000000000000000000e+00,5.000000000000000000e+00,5.000000000000000000e+00,5.000000000000000000e+00,5.000000000000000000e+00,5.000000000000000000e+00,5.000000000000000000e+00,5.000000000000000000e+00,5.000000000000000000e+00,5.000000000000000000e+00,5.000000000000000000e+00,5.000000000000000000e+00,5.000000000000000000e+00,5.000000000000000000e+00,5.000000000000000000e+00,5.000000000000000000e+00,5.000000000000000000e+00,5.000000000000000000e+00,5.000000000000000000e+00,5.000000000000000000e+00,5.000000000000000000e+00,5.000000000000000000e+00,5.000000000000000000e+00,5.000000000000000000e+00,5.000000000000000000e+00,5.000000000000000000e+00,5.000000000000000000e+00,1.571340680122375488e+00,1.537154793739318848e+00,1.809139728546142578e+00,1.808433055877685547e+00,1.809854507446289062e+00,1.857033014297485352e+00,1.839549064636230469e+00,1.777118563652038574e+00,1.738188147544860840e+00,1.728266716003417969e+00,1.725164651870727539e+00,1.755023241043090820e+00,3.657520055770874023e+00,3.548444271087646484e+00,3.445685625076293945e+00,3.348711252212524414e+00,3.257045984268188477e+00,3.170265197753906250e+00,3.087989091873168945e+00,3.009875297546386719e+00,2.935615777969360352e+00,2.864932298660278320e+00,2.797572612762451172e+00,2.733307838439941406e+00,2.671929597854614258e+00,2.613246917724609375e+00,2.557086467742919922e+00,2.503289222717285156e+00,2.451709032058715820e+00,2.402211427688598633e+00,2.354673147201538086e+00,2.308979511260986328e+00,2.265025615692138672e+00,2.222713947296142578e+00,2.181954145431518555e+00,2.142662286758422852e+00,2.104760408401489258e+00,2.068176031112670898e+00,2.032842159271240234e+00,1.998695015907287598e+00,1.965676069259643555e+00,1.933730483055114746e+00,1.902806520462036133e+00,1.872856140136718750e+00,1.843834042549133301e+00
5.000000000000000000e+00,5.000000000000000000e+00,5.000000000000000000e+00,5.000000000000000000e+00,5.000000000000000000e+00,5.000000000000000000e+00,5.000000000000000000e+00,5.000000000000000000e+00,5.000000000000000000e+00,5.000000000000000000e+00,5.000000000000000000e+00,5.000000000000000000e+00,5.000000000000000000e+00,5.000000000000000000e+00,5.000000000000000000e+00,5.000000000000000000e+00,5.000000000000000000e+00,5.000000000000000000e+00,5.000000000000000000e+00,5.000000000000000000e+00,5.000000000000000000e+00,5.000000000000000000e+00,5.000000000000000000e+00,5.000000000000000000e+00,5.000000000000000000e+00,5.000000000000000000e+00,5.000000000000000000e+00,5.000000000000000000e+00,5.000000000000000000e+00,5.000000000000000000e+00,5.000000000000000000e+00,5.000000000000000000e+00,5.000000000000000000e+00,5.000000000000000000e+00,5.000000000000000000e+00,1.894706010818481445e+00,1.829219698905944824e+00,1.819328069686889648e+00,1.818613648414611816e+00,1.825882434844970703e+00,1.871554136276245117e+00,1.853063225746154785e+00,1.776117444038391113e+00,1.737186789512634277e+00,1.715410709381103516e+00,1.712799429893493652e+00,1.714125275611877441e+00,3.657599449157714844e+00,3.548518896102905273e+00,3.445756196975708008e+00,3.348777770996093750e+00,3.257108926773071289e+00,3.170325040817260742e+00,3.088045597076416016e+00,3.009928941726684570e+00,2.935667037963867188e+00,2.864981174468994141e+00,2.797619104385375977e+00,2.733352422714233398e+00,2.671971797943115234e+00,2.613287448883056641e+00,2.557125329971313477e+00,2.503326416015625000e+00,2.451744556427001953e+00,2.402245759963989258e+00,2.354706048965454102e+00,2.309011220932006836e+00,2.265056133270263672e+00,2.222743272781372070e+00,2.181982278823852539e+00,2.142689466476440430e+00,2.104786872863769531e+00,2.068201541900634766e+00,2.032866477966308594e+00,1.998718619346618652e+00,1.965699076652526855e+00,1.933752536773681641e+00,1.902828097343444824e+00,1.872877001762390137e+00,1.843854069709777832e+00
5.000000000000000000e+00,5.000000000000000000e+00,5.000000000000000000e+00,5.000000000000000000e+00,5.000000000000000000e+00,5.000000000000000000e+00,5.000000000000000000e+00,5.000000000000000000e+00,5.000000000000000000e+00,5.000000000000000000e+00,5.000000000000000000e+00,5.000000000000000000e+00,5.000000000000000000e+00,5.000000000000000000e+00,5.000000000000000000e+00,5.000000000000000000e+00,5.000000000000000000e+00,5.000000000000000000e+00,5.000000000000000000e+00,5.000000000000000000e+00,5.000000000000000000e+00,5.000000000000000000e+00,5.000000000000000000e+00,5.000000000000000000e+00,5.000000000000000000e+00,5.000000000000000000e+00,5.000000000000000000e+00,5.000000000000000000e+00,5.000000000000000000e+00,5.000000000000000000e+00,5.000000000000000000e+00,5.000000000000000000e+00,5.000000000000000000e+00,5.000000000000000000e+00,5.000000000000000000e+00,1.914458870887756348e+00,1.843591094017028809e+00,1.830441594123840332e+00,1.828909516334533691e+00,1.842571973800659180e+00,4.660547256469726562e+00,4.484879970550537109e+00,1.777972579002380371e+00,1.733804345130920410e+00,1.701245307922363281e+00,1.700105428695678711e+00,1.698221921920776367e+00,3.657678842544555664e+00,3.548593521118164062e+00,3.445826530456542969e+00,3.348844289779663086e+00,3.257172107696533203e+00,3.170384645462036133e+00,3.088102102279663086e+00,3.009982585906982422e+00,2.935718059539794922e+00,2.865029811859130859e+00,2.797665834426879883e+00,2.733396768569946289e+00,2.672014236450195312e+00,2.613327980041503906e+00,2.557164192199707031e+00,2.503363609313964844e+00,2.451780557632446289e+00,2.402280092239379883e+00,2.354738950729370117e+00,2.309042692184448242e+00,2.265086650848388672e+00,2.222772598266601562e+00,2.182010650634765625e+00,2.142716884613037109e+00,2.104813098907470703e+00,2.068226814270019531e+00,2.032891035079956055e+00,1.998742341995239258e+00,1.965721964836120605e+00,1.933774828910827637e+00,1.902849674224853516e+00,1.872897744178771973e+00,1.843874335289001465e+00
5.000000000000000000e+00,5.000000000000000000e+00,5.000000000000000000e+00,5.000000000000000000e+00,5.000000000000000000e+00,5.000000000000000000e+00,5.000000000000000000e+00,5.000000000000000000e+00,5.000000000000000000e+00,5.000000000000000000e+00,5.000000000000000000e+00,5.000000000000000000e+00,5.000000000000000000e+00,5.000000000000000000e+00,5.000000000000000000e+00,5.000000000000000000e+00,5.000000000000000000e+00,5.000000000000000000e+00,5.000000000000000000e+00,5.000000000000000000e+00,5.000000000000000000e+00,5.000000000000000000e+00,5.000000000000000000e+00,5.000000000000000000e+00,5.000000000000000000e+00,5.000000000000000000e+00,5.000000000000000000e+00,5.000000000000000000e+00,5.000000000000000000e+00,5.000000000000000000e+00,5.000000000000000000e+00,5.000000000000000000e+00,5.000000000000000000e+00,5.000000000000000000e+00,5.000000000000000000e+00,1.933428168296813965e+00,1.858190298080444336e+00,1.841805100440979004e+00,1.839322686195373535e+00,1.858770012855529785e+00,4.660676479339599609e+00,4.484999179840087891e+00,1.801342487335205078e+00,1.730130076408386230e+00,1.698381900787353516e+00,1.683172225952148438e+00,1.684573650360107422e+00,1.705802440643310547e+00,3.548668146133422852e+00,3.445896863937377930e+00,3.348911046981811523e+00,3.257235050201416016e+00,3.170444250106811523e+00,3.088158607482910156e+00,3.010036468505859375e+00,2.935769319534301758e+00,2.865078687667846680e+00,2.797712087631225586e+00,2.733441114425659180e+00,2.672056436538696289e+00,2.613368511199951172e+00,2.557202816009521484e+00,2.503401041030883789e+00,2.451816082000732422e+00,2.402314186096191406e+00,2.354771852493286133e+00,2.309074401855468750e+00,2.265116930007934570e+00,2.222801923751831055e+00,2.182039022445678711e+00,2.142744064331054688e+00,2.104839324951171875e+00,2.068252325057983398e+00,2.032915592193603516e+00,1.998765945434570312e+00,1.965744972229003906e+00,1.933797121047973633e+00,1.902871012687683105e+00,1.872918605804443359e+00,1.843894481658935547e+00
5.000000000000000000e+00,5.000000000000000000e+00,5.000000000000000000e+00,5.000000000000000000e+00,5.000000000000000000e+00,5.000000000000000000e+00,5.000000000000000000e+00,5.000000000000000000e+00,5.000000000000000000e+00,5.000000000000000000e+00,5.000000000000000000e+00,5.000000000000000000e+00,5.000000000000000000e+00,5.000000000000000000e+00,5.000000000000000000e+00,5.000000000000000000e+00,5.000000000000000000e+00,5.000000000000000000e+00,5.000000000000000000e+00,5.000000000000000000e+00,5.000000000000000000e+00,5.000000000000000000e+00,5.000000000000000000e+00,5.000000000000000000e+00,5.000000000000000000e+00,5.000000000000000000e+00,5.000000000000000000e+00,5.000000000000000000e+00,5.000000000000000000e+00,5.000000000000000000e+00,5.000000000000000000e+00,5.000000000000000000e+00,5.000000000000000000e+00,5.000000000000000000e+00,5.000000000000000000e+00,5.000000000000000000e+00,1.874204754829406738e+00,1.851928472518920898e+00,1.850109100341796875e+00,1.872658252716064453e+00,4.660805225372314453e+00,4.485118389129638672e+00,4.322195529937744141e+00,1.726471066474914551e+00,1.695527791976928711e+00,1.668480515480041504e+00,1.670542597770690918e+00,1.673019766807556152e+00,3.548743009567260742e+00,3.445967674255371094e+00,3.348977565765380859e+00,3.257297992706298828e+00,3.170503854751586914e+00,3.088215351104736328e+00,3.010090112686157227e+00,2.935820579528808594e+00,2.865127325057983398e+00,2.797758579254150391e+00,2.733485221862792969e+00,2.672098875045776367e+00,2.613409042358398438e+00,2.557241916656494141e+00,2.503437995910644531e+00,2.451851844787597656e+00,2.402348518371582031e+00,2.354804515838623047e+00,2.309105873107910156e+00,2.265147447586059570e+00,2.222831249237060547e+00,2.182067155838012695e+00,2.142771244049072266e+00,2.104865550994873047e+00,2.068277597427368164e+00,2.032940149307250977e+00,1.998789787292480469e+00,1.965767979621887207e+00,1.933819174766540527e+00,1.902892589569091797e+00,1.872939348220825195e+00,1.843914747238159180e+00
5.000000000000000000e+00,5.000000000000000000e+00,5.000000000000000000e+00,5.000000000000000000e+00,5.000000000000000000e+00,5.000000000000000000e+00,5.000000000000000000e+00,5.000000000000000000e+00,5.000000000000000000e+00,5.000000000000000000e+00,5.000000000000000000e+00,5.000000000000000000e+00,5.000000000000000000e+00,5.000000000000000000e+00,5.000000000000000000e+00,5.000000000000000000e+00,5.000000000000000000e+00,5.000000000000000000e+00,5.000000000000000000e+00,5.000000000000000000e+00,5.000000000000000000e+00,5.000000000000000000e+00,5.000000000000000000e+00,5.000000000000000000e+00,5.000000000000000000e+00,5.000000000000000000e+00,5.000000000000000000e+00,5.000000000000000000e+00,5.000000000000000000e+00,5.000000000000000000e+00,5.000000000000000000e+00,5.000000000000000000e+00,5.000000000000000000e+00,5.000000000000000000e+00,5.000000000000000000e+00,5.000000000000000000e+00,1.891194343566894531e+00,1.860092639923095703e+00,1.858257532119750977e+00,1.887389898300170898e+00,4.660933971405029297e+00,4.485238075256347656e+00,4.322306632995605469e+00,1.757311820983886719e+00,1.691587567329406738e+00,1.667148590087890625e+00,1.662149548530578613e+00,1.666993975639343262e+00,3.548817873001098633e+00,3.446038246154785156e+00,3.349044084548950195e+00,3.257360935211181641e+00,3.170563459396362305e+00,3.088271856307983398e+00,3.010144233703613281e+00,2.935871601104736328e+00,2.865175962448120117e+00,2.797805070877075195e+00,2.733529567718505859e+00,2.672141313552856445e+00,2.613449573516845703e+00,2.557280778884887695e+00,2.503475189208984375e+00,2.451887369155883789e+00,2.402382612228393555e+00,2.354837417602539062e+00,2.309137582778930664e+00,2.265177965164184570e+00,2.222860574722290039e+00,2.182095527648925781e+00,2.142798423767089844e+00,2.104891777038574219e+00,2.068302869796752930e+00,2.032964706420898438e+00,1.998813629150390625e+00,1.965790748596191406e+00,1.933841466903686523e+00,1.902913928031921387e+00,1.872960209846496582e+00,1.843934774398803711e+00
5.000000000000000000e+00,5.000000000000000000e+00,5.000000000000000000e+00,5.000000000000000000e+00,5.000000000000000000e+00,5.000000000000000000e+00,5.000000000000000000e+00,5.000000000000000000e+00,5.000000000000000000e+00,5.000000000000000000e+00,5.000000000000000000e+00,5.000000000000000000e+00,5.000000000000000000e+00,5.000000000000000000e+00,5.000000000000000000e+00,5.000000000000000000e+00,5.000000000000000000e+00,5.000000000000000000e+00,5.000000000000000000e+00,5.000000000000000000e+00,5.000000000000000000e+00,5.000000000000000000e+00,5.000000000000000000e+00,5.000000000000000000e+00,5.000000000000000000e+00,5.000000000000000000e+00,5.000000000000000000e+00,5.000000000000000000e+00,5.000000000000000000e+00,5.000000000000000000e+00,5.000000000000000000e+00,5.000000000000000000e+00,5.000000000000000000e+00,5.000000000000000000e+00,5.000000000000000000e+00,5.000000000000000000e+00,1.908494830131530762e+00,1.871061563491821289e+00,1.866477847099304199e+00,1.899528384208679199e+00,4.661063194274902344e+00,4.485357761383056641e+00,4.322417259216308594e+00,4.170901298522949219e+00,1.694289922714233398e+00,1.670219779014587402e+00,1.665030598640441895e+00,1.668900966644287109e+00,3.548892736434936523e+00,3.446108579635620117e+00,3.349110603332519531e+00,3.257423877716064453e+00,3.170623064041137695e+00,3.088328599929809570e+00,3.010197877883911133e+00,2.935922861099243164e+00,2.865224838256835938e+00,2.797851562500000000e+00,2.733573913574218750e+00,2.672183752059936523e+00,2.613490104675292969e+00,2.557319402694702148e+00,2.503512382507324219e+00,2.451923131942749023e+00,2.402416944503784180e+00,2.354870319366455078e+00,2.309169292449951172e+00,2.265208482742309570e+00,2.222889900207519531e+00,2.182123661041259766e+00,2.142825603485107422e+00,2.104918241500854492e+00,2.068328380584716797e+00,2.032989263534545898e+00,1.998837113380432129e+00,1.965813875198364258e+00,1.933863639831542969e+00,1.902935504913330078e+00,1.872980952262878418e+00,1.843955039978027344e+00
5.000000000000000000e+00,5.000000000000000000e+00,5.000000000000000000e+00,5.000000000000000000e+00,5.000000000000000000e+00,5.000000000000000000e+00,5.000000000000000000e+00,5.000000000000000000e+00,5.000000000000000000e+00,5.000000000000000000e+00,5.000000000000000000e+00,5.000000000000000000e+00,5.000000000000000000e+00,5.000000000000000000e+00,5.000000000000000000e+00,5.000000000000000000e+00,5.000000000000000000e+00,5.000000000000000000e+00,5.000000000000000000e+00,5.000000000000000000e+00,5.000000000000000000e+00,5.000000000000000000e+00,5.000000000000000000e+00,5.000000000000000000e+00,5.000000000000000000e+00,5.000000000000000000e+00,5.000000000000000000e+00,5.000000000000000000e+00,5.000000000000000000e+00,5.000000000000000000e+00,5.000000000000000000e+00,5.000000000000000000e+00,5.000000000000000000e+00,5.000000000000000000e+00,5.000000000000000000e+00,5.000000000000000000e+00,1.926114559173583984e+00,1.883488059043884277e+00,1.875748753547668457e+00,1.910051465034484863e+00,4.661191940307617188e+00,4.485476970672607422e+00,4.322528362274169922e+00,4.171004295349121094e+00,1.701020121574401855e+00,1.676113128662109375e+00,1.669607639312744141e+00,1.673499464988708496e+00,3.548967361450195312e+00,3.446178913116455078e+00,3.349177122116088867e+00,3.257486820220947266e+00,3.170683145523071289e+00,3.088385343551635742e+00,3.010251760482788086e+00,2.935973882675170898e+00,2.865273475646972656e+00,2.797898054122924805e+00,2.733618497848510742e+00,2.672226190567016602e+00,2.613530635833740234e+00,2.557358264923095703e+00,2.503549575805664062e+00,2.451958656311035156e+00,2.402451038360595703e+00,2.354903459548950195e+00,2.309201002120971680e+00,2.265238761901855469e+00,2.222919225692749023e+00,2.182152032852172852e+00,2.142853021621704102e+00,2.104944467544555664e+00,2.068353891372680664e+00,2.033013820648193359e+00,1.998860955238342285e+00,1.965836644172668457e+00,1.933885931968688965e+00,1.902956962585449219e+00,1.873001813888549805e+00,1.843975305557250977e+00
5.000000000000000000e+00,5.000000000000000000e+00,5.000000000000000000e+00,5.000000000000000000e+00,5.000000000000000000e+00,5.000000000000000000e+00,5.000000000000000000e+00,5.000000000000000000e+00,5.000000000000000000e+00,5.000000000000000000e+00,5.000000000000000000e+00,5.000000000000000000e+00,5.000000000000000000e+00,5.000000000000000000e+00,5.000000000000000000e+00,5.000000000000000000e+00,5.000000000000000000e+00,5.000000000000000000e+00,5.000000000000000000e+00,5.000000000000000000e+00,5.000000000000000000e+00,5.000000000000000000e+00,5.000000000000000000e+00,5.000000000000000000e+00,5.000000000000000000e+00,5.000000000000000000e+00,5.000000000000000000e+00,5.000000000000000000e+00,5.000000000000000000e+00,5.000000000000000000e+00,5.000000000000000000e+00,5.000000000000000000e+00,5.000000000000000000e+00,5.000000000000000000e+00,5.000000000000000000e+00,5.000000000000000000e+00,1.944954037666320801e+00,1.895601868629455566e+00,1.890292286872863770e+00,1.922246336936950684e+00,4.661320686340332031e+00,4.485596656799316406e+00,4.322639465332031250e+00,4.171107292175292969e+00,1.708913922309875488e+00,1.681524395942687988e+00,1.676137328147888184e+00,1.682580709457397461e+00,3.549041986465454102e+00,3.446249485015869141e+00,3.349243640899658203e+00,3.257550001144409180e+00,3.170742750167846680e+00,3.088441848754882812e+00,3.010305404663085938e+00,2.936025142669677734e+00,2.865322113037109375e+00,2.797944784164428711e+00,2.733662843704223633e+00,2.672268390655517578e+00,2.613571166992187500e+00,2.557397127151489258e+00,2.503586769104003906e+00,2.451994419097900391e+00,2.402485609054565430e+00,2.354936361312866211e+00,2.309232711791992188e+00,2.265269279479980469e+00,2.222948551177978516e+00,2.182180166244506836e+00,2.142880201339721680e+00,2.104970932006835938e+00,2.068379163742065430e+00,2.033038377761840820e+00,1.998884558677673340e+00,1.965859651565551758e+00,1.933908104896545410e+00,1.902978539466857910e+00,1.873022794723510742e+00,1.843995332717895508e+00
5.000000000000000000e+00,5.000000000000000000e+00,5.000000000000000000e+00,5.000000000000000000e+00,5.000000000000000000e+00,5.000000000000000000e+00,5.000000000000000000e+00,5.000000000000000000e+00,5.000000000000000000e+00,5.000000000000000000e+00,5.000000000000000000e+00,5.000000000000000000e+00,5.000000000000000000e+00,5.000000000000000000e+00,5.000000000000000000e+00,5.000000000000000000e+00,5.000000000000000000e+00,5.000000000000000000e+00,5.000000000000000000e+00,5.000000000000000000e+00,5.000000000000000000e+00,5.000000000000000000e+00,5.000000000000000000e+00,5.000000000000000000e+00,5.000000000000000000e+00,5.000000000000000000e+00,5.000000000000000000e+00,5.000000000000000000e+00,5.000000000000000000e+00,5.000000000000000000e+00,5.000000000000000000e+00,5.000000000000000000e+00,5.000000000000000000e+00,5.000000000000000000e+00,5.000000000000000000e+00,2.008348226547241211e+00,1.948281526565551758e+00,1.914449572563171387e+00,1.915462732315063477e+00,4.851514816284179688e+00,4.661449909210205078e+00,4.485715866088867188e+00,4.322750091552734375e+00,4.171210765838623047e+00,1.716881036758422852e+00,1.689872741699218750e+00,1.684432268142700195e+00,1.694607138633728027e+00,3.549116849899291992e+00,3.446319818496704102e+00,3.349310636520385742e+00,3.257612943649291992e+00,3.170802354812622070e+00,3.088498353958129883e+00,3.010359048843383789e+00,2.936076164245605469e+00,2.865370988845825195e+00,2.797991037368774414e+00,2.733707189559936523e+00,2.672310829162597656e+00,2.613611698150634766e+00,2.557435750961303711e+00,2.503623962402343750e+00,2.452030181884765625e+00,2.402519702911376953e+00,2.354969263076782227e+00,2.309264183044433594e+00,2.265299797058105469e+00,2.222977876663208008e+00,2.182208538055419922e+00,2.142907619476318359e+00,2.104997158050537109e+00,2.068404674530029297e+00,2.033062696456909180e+00,1.998908400535583496e+00,1.965882658958435059e+00,1.933930277824401855e+00,1.903000116348266602e+00,1.873043537139892578e+00,1.844015598297119141e+00
5.000000000000000000e+00,5.000000000000000000e+00,5.000000000000000000e+00,5.000000000000000000e+00,5.000000000000000000e+00,5.000000000000000000e+00,5.000000000000000000e+00,5.000000000000000000e+00,5.000000000000000000e+00,5.000000000000000000e+00,5.000000000000000000e+00,5.000000000000000000e+00,5.000000000000000000e+00,5.000000000000000000e+00,5.000000000000000000e+00,5.000000000000000000e+00,5.000000000000000000e+00,5.000000000000000000e+00,5.000000000000000000e+00,5.000000000000000000e+00,5.000000000000000000e+00,5.000000000000000000e+00,5.000000000000000000e+00,5.000000000000000000e+00,5.000000000000000000e+00,5.000000000000000000e+00,5.000000000000000000e+00,5.000000000000000000e+00,5.000000000000000000e+00,5.000000000000000000e+00,5.000000000000000000e+00,5.000000000000000000e+00,5.000000000000000000e+00,5.000000000000000000e+00,5.000000000000000000e+00,2.002846479415893555e+00,1.960548520088195801e+00,1.942754864692687988e+00,1.959280133247375488e+00,4.851655006408691406e+00,4.661579132080078125e+00,4.485835075378417969e+00,4.322861194610595703e+00,4.171314239501953125e+00,1.721186757087707520e+00,1.691873669624328613e+00,1.686337709426879883e+00,1.689453125000000000e+00,3.549191474914550781e+00,3.446390628814697266e+00,3.349377155303955078e+00,3.257675886154174805e+00,3.170861959457397461e+00,3.088554859161376953e+00,3.010412931442260742e+00,2.936127662658691406e+00,2.865419864654541016e+00,2.798037528991699219e+00,2.733751535415649414e+00,2.672353267669677734e+00,2.613652229309082031e+00,2.557474613189697266e+00,2.503661394119262695e+00,2.452065944671630859e+00,2.402554035186767578e+00,2.355002164840698242e+00,2.309295892715454102e+00,2.265330076217651367e+00,2.223007202148437500e+00,2.182236909866333008e+00,2.142934799194335938e+00,2.105023384094238281e+00,2.068429946899414062e+00,2.033087253570556641e+00,1.998932242393493652e+00,1.965905547142028809e+00,1.933952569961547852e+00,1.903021454811096191e+00,1.873064398765563965e+00,1.844035744667053223e+00
5.000000000000000000e+00,5.000000000000000000e+00,5.000000000000000000e+00,5.000000000000000000e+00,5.000000000000000000e+00,5.000000000000000000e+00,5.000000000000000000e+00,5.000000000000000000e+00,5.000000000000000000e+00,5.000000000000000000e+00,5.000000000000000000e+00,5.000000000000000000e+00,5.000000000000000000e+00,5.000000000000000000e+00,5.000000000000000000e+00,5.000000000000000000e+00,5.000000000000000000e+00,5.000000000000000000e+00,5.000000000000000000e+00,5.000000000000000000e+00,5.000000000000000000e+00,5.000000000000000000e+00,5.000000000000000000e+00,5.000000000000000000e+00,5.000000000000000000e+00,5.000000000000000000e+00,5.000000000000000000e+00,5.000000000000000000e+00,5.000000000000000000e+00,5.000000000000000000e+00,5.000000000000000000e+00,5.000000000000000000e+00,5.000000000000000000e+00,5.000000000000000000e+00,5.000000000000000000e+00,2.011861801147460938e+00,1.982846856117248535e+00,1.972749114036560059e+00,5.000000000000000000e+00,4.851793766021728516e+00,4.661707878112792969e+00,4.485954761505126953e+00,4.322971820831298828e+00,4.171417236328125000e+00,1.720231294631958008e+00,1.687037944793701172e+00,1.682596564292907715e+00,1.677043437957763672e+00,3.549266576766967773e+00,3.446461200714111328e+00,3.349443674087524414e+00,3.257738828659057617e+00,3.170921564102172852e+00,3.088611602783203125e+00,3.010466814041137695e+00,2.936178684234619141e+00,2.865468502044677734e+00,2.798084020614624023e+00,2.733795881271362305e+00,2.672395467758178711e+00,2.613692760467529297e+00,2.557513475418090820e+00,2.503698587417602539e+00,2.452101469039916992e+00,2.402588129043579102e+00,2.355035066604614258e+00,2.309327602386474609e+00,2.265360832214355469e+00,2.223036527633666992e+00,2.182265043258666992e+00,2.142961978912353516e+00,2.105049610137939453e+00,2.068455457687377930e+00,2.033112049102783203e+00,1.998955726623535156e+00,1.965928554534912109e+00,1.933974623680114746e+00,1.903043031692504883e+00,1.873085141181945801e+00,1.844056010246276855e+00
5.000000000000000000e+00,5.000000000000000000e+00,5.000000000000000000e+00,5.000000000000000000e+00,5.000000000000000000e+00,5.000000000000000000e+00,5.000000000000000000e+00,5.000000000000000000e+00,5.000000000000000000e+00,5.000000000000000000e+00,5.000000000000000000e+00,5.000000000000000000e+00,5.000000000000000000e+00,5.000000000000000000e+00,5.000000000000000000e+00,5.000000000000000000e+00,5.000000000000000000e+00,5.000000000000000000e+00,5.000000000000000000e+00,5.000000000000000000e+00,5.000000000000000000e+00,5.000000000000000000e+00,5.000000000000000000e+00,5.000000000000000000e+00,5.000000000000000000e+00,5.000000000000000000e+00,5.000000000000000000e+00,5.000000000000000000e+00,5.000000000000000000e+00,5.000000000000000000e+00,5.000000000000000000e+00,5.000000000000000000e+00,5.000000000000000000e+00,5.000000000000000000e+00,5.000000000000000000e+00,2.029500484466552734e+00,2.002807855606079102e+00,2.001444339752197266e+00,5.000000000000000000e+00,4.851931571960449219e+00,4.661837100982666016e+00,4.486073970794677734e+00,4.323082923889160156e+00,4.171520233154296875e+00,1.719276905059814453e+00,1.685129404067993164e+00,1.678364634513854980e+00,1.673343420028686523e+00,3.549341201782226562e+00,3.446531534194946289e+00,3.349510192871093750e+00,3.257801771163940430e+00,3.170981168746948242e+00,3.088668346405029297e+00,3.010520696640014648e+00,2.936229705810546875e+00,2.865517139434814453e+00,2.798130273818969727e+00,2.733840227127075195e+00,2.672437906265258789e+00,2.613733530044555664e+00,2.557552337646484375e+00,2.503735780715942383e+00,2.452137231826782227e+00,2.402622461318969727e+00,2.355067968368530273e+00,2.309359312057495117e+00,2.265391111373901367e+00,2.223065853118896484e+00,2.182293176651000977e+00,2.142989158630371094e+00,2.105075836181640625e+00,2.068480730056762695e+00,2.033136367797851562e+00,1.998979568481445312e+00,1.965951323509216309e+00,1.933996915817260742e+00,1.903064370155334473e+00,1.873106002807617188e+00,1.844076275825500488e+00
5.000000000000000000e+00,5.000000000000000000e+00,5.000000000000000000e+00,5.000000000000000000e+00,5.000000000000000000e+00,5.000000000000000000e+00,5.000000000000000000e+00,5.000000000000000000e+00,5.000000000000000000e+00,5.000000000000000000e+00,5.000000000000000000e+00,5.000000000000000000e+00,5.000000000000000000e+00,5.000000000000000000e+00,5.000000000000000000e+00,5.000000000000000000e+00,5.000000000000000000e+00,5.000000000000000000e+00,5.000000000000000000e+00,5.000000000000000000e+00,5.000000000000000000e+00,5.000000000000000000e+00,5.000000000000000000e+00,5.000000000000000000e+00,5.000000000000000000e+00,5.000000000000000000e+00,5.000000000000000000e+00,5.000000000000000000e+00,5.000000000000000000e+00,5.000000000000000000e+00,5.000000000000000000e+00,5.000000000000000000e+00,5.000000000000000000e+00,5.000000000000000000e+00,5.000000000000000000e+00,2.047250270843505859e+00,2.019174098968505859e+00,2.026209115982055664e+00,5.000000000000000000e+00,4.852069377899169922e+00,4.661964416503906250e+00,4.486193656921386719e+00,4.323193550109863281e+00,4.171623706817626953e+00,1.758079051971435547e+00,1.684528231620788574e+00,1.673605561256408691e+00,1.669659733772277832e+00,3.549416065216064453e+00,3.446602106094360352e+00,3.349576711654663086e+00,3.257864713668823242e+00,3.171041011810302734e+00,3.088725090026855469e+00,3.010574340820312500e+00,2.936280965805053711e+00,2.865565776824951172e+00,2.798176765441894531e+00,2.733884334564208984e+00,2.672480344772338867e+00,2.613774061203002930e+00,2.557591199874877930e+00,2.503772735595703125e+00,2.452172756195068359e+00,2.402656793594360352e+00,2.355100870132446289e+00,2.309391021728515625e+00,2.265421628952026367e+00,2.223095178604125977e+00,2.182321548461914062e+00,2.143016576766967773e+00,2.105102300643920898e+00,2.068506240844726562e+00,2.033160924911499023e+00,1.999003171920776367e+00,1.965974330902099609e+00,1.934018969535827637e+00,1.903085947036743164e+00,1.873126864433288574e+00,1.844096302986145020e+00
5.000000000000000000e+00,5.000000000000000000e+00,5.000000000000000000e+00,5.000000000000000000e+00,5.000000000000000000e+00,5.000000000000000000e+00,5.000000000000000000e+00,5.000000000000000000e+00,5.000000000000000000e+00,5.000000000000000000e+00,5.000000000000000000e+00,5.000000000000000000e+00,5.000000000000000000e+00,5.000000000000000000e+00,5.000000000000000000e+00,5.000000000000000000e+00,5.000000000000000000e+00,5.000000000000000000e+00,5.000000000000000000e+00,5.000000000000000000e+00,5.000000000000000000e+00,5.000000000000000000e+00,5.000000000000000000e+00,5.000000000000000000e+00,5.000000000000000000e+00,5.000000000000000000e+00,5.000000000000000000e+00,5.000000000000000000e+00,5.000000000000000000e+00,5.000000000000000000e+00,5.000000000000000000e+00,5.000000000000000000e+00,5.000000000000000000e+00,5.000000000000000000e+00,5.000000000000000000e+00,2.065657615661621094e+00,2.036894083023071289e+00,2.050616741180419922e+00,5.000000000000000000e+00,4.852207183837890625e+00,4.662091732025146484e+00,4.486311912536621094e+00,4.323304653167724609e+00,4.171727180480957031e+00,4.030417919158935547e+00,1.684118390083312988e+00,1.668985605239868164e+00,1.665154933929443359e+00,3.549490690231323242e+00,3.446672439575195312e+00,3.349643230438232422e+00,3.257927894592285156e+00,3.171100854873657227e+00,3.088781595230102539e+00,3.010628223419189453e+00,2.936331987380981445e+00,2.865614652633666992e+00,2.798223257064819336e+00,2.733928918838500977e+00,2.672522783279418945e+00,2.613814353942871094e+00,2.557630062103271484e+00,2.503809928894042969e+00,2.452208518981933594e+00,2.402691125869750977e+00,2.355133771896362305e+00,2.309422492980957031e+00,2.265452146530151367e+00,2.223124504089355469e+00,2.182349681854248047e+00,2.143043756484985352e+00,2.105128765106201172e+00,2.068531513214111328e+00,2.033185482025146484e+00,1.999027013778686523e+00,1.965997219085693359e+00,1.934041261672973633e+00,1.903107643127441406e+00,1.873147606849670410e+00,1.844116568565368652e+00
5.000000000000000000e+00,5.000000000000000000e+00,5.000000000000000000e+00,5.000000000000000000e+00,5.000000000000000000e+00,5.000000000000000000e+00,5.000000000000000000e+00,5.000000000000000000e+00,5.000000000000000000e+00,5.000000000000000000e+00,5.000000000000000000e+00,5.000000000000000000e+00,5.000000000000000000e+00,5.000000000000000000e+00,5.000000000000000000e+00,5.000000000000000000e+00,5.000000000000000000e+00,5.000000000000000000e+00,5.000000000000000000e+00,5.000000000000000000e+00,5.000000000000000000e+00,5.000000000000000000e+00,5.000000000000000000e+00,5.000000000000000000e+00,5.000000000000000000e+00,5.000000000000000000e+00,5.000000000000000000e+00,5.000000000000000000e+00,5.000000000000000000e+00,5.000000000000000000e+00,5.000000000000000000e+00,5.000000000000000000e+00,5.000000000000000000e+00,5.000000000000000000e+00,5.000000000000000000e+00,2.085341453552246094e+00,2.056472539901733398e+00,2.075072765350341797e+00,5.000000000000000000e+00,4.852344989776611328e+00,4.662219047546386719e+00,4.486429691314697266e+00,4.323415279388427734e+00,4.171830177307128906e+00,4.030514717102050781e+00,1.686247229576110840e+00,1.665162920951843262e+00,1.661349892616271973e+00,3.549565315246582031e+00,3.446743011474609375e+00,3.349710226058959961e+00,3.257990837097167969e+00,3.171160459518432617e+00,3.088838100433349609e+00,3.010681867599487305e+00,2.936383247375488281e+00,2.865663290023803711e+00,2.798269987106323242e+00,2.733973264694213867e+00,2.672565221786499023e+00,2.613854885101318359e+00,2.557668685913085938e+00,2.503847122192382812e+00,2.452244281768798828e+00,2.402725219726562500e+00,2.355166673660278320e+00,2.309454202651977539e+00,2.265482425689697266e+00,2.223153829574584961e+00,2.182378053665161133e+00,2.143071174621582031e+00,2.105154991149902344e+00,2.068557024002075195e+00,2.033210039138793945e+00,1.999050498008728027e+00,1.966020226478576660e+00,1.934063553810119629e+00,1.903128981590270996e+00,1.873168587684631348e+00,1.844136595726013184e+00
5.000000000000000000e+00,5.000000000000000000e+00,5.000000000000000000e+00,5.000000000000000000e+00,5.000000000000000000e+00,5.000000000000000000e+00,5.000000000000000000e+00,5.000000000000000000e+00,5.000000000000000000e+00,5.000000000000000000e+00,5.000000000000000000e+00,5.000000000000000000e+00,5.000000000000000000e+00,5.000000000000000000e+00,5.000000000000000000e+00,5.000000000000000000e+00,5.000000000000000000e+00,5.000000000000000000e+00,5.000000000000000000e+00,5.000000000000000000e+00,5.000000000000000000e+00,5.000000000000000000e+00,5.000000000000000000e+00,5.000000000000000000e+00,5.000000000000000000e+00,5.000000000000000000e+00,5.000000000000000000e+00,5.000000000000000000e+00,5.000000000000000000e+00,5.000000000000000000e+00,5.000000000000000000e+00,5.000000000000000000e+00,5.000000000000000000e+00,5.000000000000000000e+00,5.000000000000000000e+00,2.106511116027832031e+00,2.081598043441772461e+00,2.102178335189819336e+00,5.000000000000000000e+00,4.852483272552490234e+00,4.662346363067626953e+00,4.486547470092773438e+00,4.323524951934814453e+00,4.171933650970458984e+00,4.030611038208007812e+00,1.688381314277648926e+00,1.662034511566162109e+00,1.657562017440795898e+00,3.549640178680419922e+00,3.446813821792602539e+00,3.349776744842529297e+00,3.258053779602050781e+00,3.171220064163208008e+00,3.088894605636596680e+00,3.010735750198364258e+00,2.936434507369995117e+00,2.865712165832519531e+00,2.798316478729248047e+00,2.734017610549926758e+00,2.672607421875000000e+00,2.613895416259765625e+00,2.557707548141479492e+00,2.503884553909301758e+00,2.452280044555664062e+00,2.402759552001953125e+00,2.355199575424194336e+00,2.309485912322998047e+00,2.265512704849243164e+00,2.223183393478393555e+00,2.182406425476074219e+00,2.143098354339599609e+00,2.105181217193603516e+00,2.068582296371459961e+00,2.033234596252441406e+00,1.999074339866638184e+00,1.966043233871459961e+00,1.934085607528686523e+00,1.903150558471679688e+00,1.873189210891723633e+00,1.844156861305236816e+00
4.876352787017822266e+00,4.875128746032714844e+00,4.873905658721923828e+00,4.872683525085449219e+00,4.871461391448974609e+00,4.870239734649658203e+00,4.869019031524658203e+00,4.867798805236816406e+00,4.866579532623291016e+00,4.865360736846923828e+00,4.864142417907714844e+00,4.862924575805664062e+00,4.861707687377929688e+00,4.860491275787353516e+00,4.859275341033935547e+00,4.858060359954833984e+00,4.856845378875732422e+00,4.855631351470947266e+00,4.854418277740478516e+00,4.853205204010009766e+00,4.851993083953857422e+00,4.850781440734863281e+00,4.849570751190185547e+00,4.848360061645507812e+00,4.847150325775146484e+00,4.845941066741943359e+00,4.844732284545898438e+00,4.843524932861328125e+00,4.842317104339599609e+00,4.841110229492187500e+00,4.839903831481933594e+00,4.838698863983154297e+00,4.837493419647216797e+00,4.836288928985595703e+00,4.835085391998291016e+00,2.128331661224365234e+00,2.102920770645141602e+00,4.831477642059326172e+00,4.830276489257812500e+00,4.829075336456298828e+00,4.662473201751708984e+00,4.486665725708007812e+00,4.323634147644042969e+00,4.172035694122314453e+00,4.030707359313964844e+00,1.690521001815795898e+00,1.660143494606018066e+00,1.653791308403015137e+00,3.549715280532836914e+00,3.446884155273437500e+00,3.349843263626098633e+00,3.258116722106933594e+00,3.171279668807983398e+00,3.088951349258422852e+00,3.010789632797241211e+00,2.936485767364501953e+00,2.865760803222656250e+00,2.798362731933593750e+00,2.734061956405639648e+00,2.672649860382080078e+00,2.613935947418212891e+00,2.557746648788452148e+00,2.503921747207641602e+00,2.452315568923950195e+00,2.402793884277343750e+00,2.355232477188110352e+00,2.309517383575439453e+00,2.265543460845947266e+00,2.223212718963623047e+00,2.182434558868408203e+00,2.143125534057617188e+00,2.105207443237304688e+00,2.068607807159423828e+00,2.033259153366088867e+00,1.999098181724548340e+00,1.966066122055053711e+00,1.934107899665832520e+00,1.903171896934509277e+00,1.873210191726684570e+00,1.844177007675170898e+00
3.778974056243896484e+00,3.778239011764526367e+00,3.777504444122314453e+00,3.776769876480102539e+00,3.776035785675048828e+00,3.775302171707153320e+00,3.774568080902099609e+00,3.773834943771362305e+00,3.773102283477783203e+00,3.772369146347045898e+00,3.771636962890625000e+00,3.770904779434204102e+00,3.770172595977783203e+00,3.769441366195678711e+00,3.768710136413574219e+00,3.767978906631469727e+00,3.767248153686523438e+00,3.766517877578735352e+00,3.765787601470947266e+00,3.765057802200317383e+00,3.764327764511108398e+00,3.763598680496215820e+00,3.762869834899902344e+00,3.762141227722167969e+00,3.761412382125854492e+00,3.760684251785278320e+00,3.759956121444702148e+00,3.759228706359863281e+00,3.758501529693603516e+00,3.757774114608764648e+00,3.757047414779663086e+00,3.756321191787719727e+00,3.755594730377197266e+00,3.754868745803833008e+00,3.754143238067626953e+00,2.166396141052246094e+00,2.140966176986694336e+00,3.751968145370483398e+00,3.751243114471435547e+00,3.750519037246704102e+00,3.749795198440551758e+00,3.749071359634399414e+00,3.748347997665405273e+00,3.747624874114990234e+00,3.746901750564575195e+00,1.702456235885620117e+00,1.661229968070983887e+00,1.650037884712219238e+00,3.549789905548095703e+00,3.446954727172851562e+00,3.349909782409667969e+00,3.258179664611816406e+00,3.171339273452758789e+00,3.089008092880249023e+00,3.010843515396118164e+00,2.936536788940429688e+00,2.865809679031372070e+00,2.798409223556518555e+00,2.734106302261352539e+00,2.672692298889160156e+00,2.613976716995239258e+00,2.557785272598266602e+00,2.503958940505981445e+00,2.452351331710815430e+00,2.402827978134155273e+00,2.355265378952026367e+00,2.309549331665039062e+00,2.265573978424072266e+00,2.223242044448852539e+00,2.182462930679321289e+00,2.143152713775634766e+00,2.105233669281005859e+00,2.068633079528808594e+00,2.033283710479736328e+00,1.999121785163879395e+00,1.966089129447937012e+00,1.934129953384399414e+00,1.903193473815917969e+00,1.873230814933776855e+00,1.844197273254394531e+00
3.084773778915405273e+00,3.084284067153930664e+00,3.083794593811035156e+00,3.083304882049560547e+00,3.082815647125244141e+00,3.082326650619506836e+00,3.081837415695190430e+00,3.081348657608032227e+00,3.080860137939453125e+00,3.080371379852294922e+00,3.079883098602294922e+00,3.079394817352294922e+00,3.078906536102294922e+00,3.078418731689453125e+00,3.077931165695190430e+00,3.077443361282348633e+00,3.076956033706665039e+00,3.076468706130981445e+00,3.075981378555297852e+00,3.075494527816772461e+00,3.075007677078247070e+00,3.074520826339721680e+00,3.074034452438354492e+00,3.073548078536987305e+00,3.073061704635620117e+00,3.072575807571411133e+00,3.072089910507202148e+00,3.071604013442993164e+00,3.071118354797363281e+00,3.070633172988891602e+00,3.070147514343261719e+00,3.069662570953369141e+00,3.069177627563476562e+00,3.068692684173583984e+00,3.068207979202270508e+00,2.169916391372680664e+00,2.136044979095458984e+00,3.066754817962646484e+00,3.066270828247070312e+00,3.065786838531494141e+00,3.065303087234497070e+00,3.064819574356079102e+00,3.064336061477661133e+00,3.063852787017822266e+00,3.063369750976562500e+00,3.062886476516723633e+00,1.676271438598632812e+00,1.660882234573364258e+00,3.061438322067260742e+00,3.060956001281738281e+00,3.060473680496215820e+00,3.059991598129272461e+00,3.059509754180908203e+00,3.059027671813964844e+00,3.010897159576416016e+00,2.936588048934936523e+00,2.865858316421508789e+00,2.798455715179443359e+00,2.734150648117065430e+00,2.672734737396240234e+00,2.614017248153686523e+00,2.557824134826660156e+00,2.503996133804321289e+00,2.452387094497680664e+00,2.402862310409545898e+00,2.355298519134521484e+00,2.309580802917480469e+00,2.265604257583618164e+00,2.223271369934082031e+00,2.182491064071655273e+00,2.143180131912231445e+00,2.105260133743286133e+00,2.068658590316772461e+00,2.033308267593383789e+00,1.999145627021789551e+00,1.966111898422241211e+00,1.934152245521545410e+00,1.903214931488037109e+00,1.873251795768737793e+00,1.844217538833618164e+00
2.606041908264160156e+00,2.605692386627197266e+00,2.605343103408813477e+00,2.604993820190429688e+00,2.604644298553466797e+00,2.604295253753662109e+00,2.603945970535278320e+00,2.603596925735473633e+00,2.603248119354248047e+00,2.602899312973022461e+00,2.602550506591796875e+00,2.602201938629150391e+00,2.601853370666503906e+00,2.601505041122436523e+00,2.601156711578369141e+00,2.600808382034301758e+00,2.600460290908813477e+00,2.600112199783325195e+00,2.599764108657836914e+00,2.599416255950927734e+00,2.599068641662597656e+00,2.598720550537109375e+00,2.598373174667358398e+00,2.598025560379028320e+00,2.597678184509277344e+00,2.597330808639526367e+00,2.596983671188354492e+00,2.596636295318603516e+00,2.596289396286010742e+00,2.595942497253417969e+00,2.595595598220825195e+00,2.595248937606811523e+00,2.594902276992797852e+00,2.594555616378784180e+00,2.594209194183349609e+00,2.155973672866821289e+00,2.115328550338745117e+00,2.109730958938598633e+00,2.592823982238769531e+00,2.592478036880493164e+00,2.592132091522216797e+00,2.591786384582519531e+00,2.591440439224243164e+00,2.591094732284545898e+00,2.590749263763427734e+00,2.590403795242309570e+00,1.669948935508728027e+00,1.647481083869934082e+00,2.589367866516113281e+00,2.589022874832153320e+00,2.588677883148193359e+00,2.588332653045654297e+00,2.587987899780273438e+00,2.587643384933471680e+00,2.587298631668090820e+00,2.586954116821289062e+00,2.586609601974487305e+00,2.586265087127685547e+00,2.585921049118041992e+00,2.585576772689819336e+00,2.585232734680175781e+00,2.557862997055053711e+00,2.504033327102661133e+00,2.452422618865966797e+00,2.402896642684936523e+00,2.355331420898437500e+00,2.309612512588500977e+00,2.265634775161743164e+00,2.223300457000732422e+00,2.182519435882568359e+00,2.143207311630249023e+00,2.105286598205566406e+00,2.068684101104736328e+00,2.033332824707031250e+00,1.999169230461120605e+00,1.966134905815124512e+00,1.934174418449401855e+00,1.903236508369445801e+00,1.873272657394409180e+00,1.844237565994262695e+00
2.255934715270996094e+00,2.255672931671142578e+00,2.255411148071289062e+00,2.255149364471435547e+00,2.254887819290161133e+00,2.254626274108886719e+00,2.254364967346191406e+00,2.254103660583496094e+00,2.253842115402221680e+00,2.253580808639526367e+00,2.253319501876831055e+00,2.253058433532714844e+00,2.252797365188598633e+00,2.252536296844482422e+00,2.252275228500366211e+00,2.252014398574829102e+00,2.251753568649291992e+00,2.251492738723754883e+00,2.251231908798217773e+00,2.250971317291259766e+00,2.250710487365722656e+00,2.250450134277343750e+00,2.250189542770385742e+00,2.249929189682006836e+00,2.249668598175048828e+00,2.249408006668090820e+00,2.249147653579711914e+00,2.248887300491333008e+00,2.248626947402954102e+00,2.248366594314575195e+00,2.248106479644775391e+00,2.247846364974975586e+00,2.247586250305175781e+00,2.247326135635375977e+00,2.247066259384155273e+00,2.246806383132934570e+00,2.086797475814819336e+00,2.068850755691528320e+00,2.062241077423095703e+00,2.245767354965209961e+00,2.245507717132568359e+00,2.245248079299926758e+00,2.244988679885864258e+00,2.244729280471801758e+00,2.244469881057739258e+00,2.244210481643676758e+00,1.662457466125488281e+00,1.621057510375976562e+00,1.578781485557556152e+00,1.539613008499145508e+00,1.502671360969543457e+00,2.242655992507934570e+00,2.242397069931030273e+00,2.242138385772705078e+00,2.241879463195800781e+00,2.241620779037475586e+00,2.241362333297729492e+00,2.241103649139404297e+00,2.240845203399658203e+00,2.240586757659912109e+00,2.240328073501586914e+00,2.240069866180419922e+00,2.239811658859252930e+00,2.239553213119506836e+00,2.239295244216918945e+00,2.239037275314331055e+00,2.238779067993164062e+00,2.238521099090576172e+00,2.223329782485961914e+00,2.182547569274902344e+00,2.143234729766845703e+00,2.105312824249267578e+00,2.068709373474121094e+00,2.033357143402099609e+00,1.999192953109741211e+00,1.966157793998718262e+00,1.934196710586547852e+00,1.903258085250854492e+00,1.873293399810791016e+00,1.844257831573486328e+00
1.988748311996459961e+00,1.988544821739196777e+00,1.988341450691223145e+00,1.988138079643249512e+00,1.987934827804565430e+00,1.987731575965881348e+00,1.987528324127197266e+00,1.987325191497802734e+00,1.987122058868408203e+00,1.986918926239013672e+00,1.986715912818908691e+00,1.986512660980224609e+00,1.986309647560119629e+00,1.986106753349304199e+00,1.985903859138488770e+00,1.985701084136962891e+00,1.985498309135437012e+00,1.985295534133911133e+00,1.985092759132385254e+00,1.984890103340148926e+00,1.984687447547912598e+00,1.984484910964965820e+00,1.984282255172729492e+00,1.984079599380493164e+00,1.983877062797546387e+00,1.983674645423889160e+00,1.983472228050231934e+00,1.983269929885864258e+00,1.983067631721496582e+00,1.982865333557128906e+00,1.982663154602050781e+00,1.982460975646972656e+00,1.982258796691894531e+00,1.982056736946105957e+00,1.981854677200317383e+00,1.981652617454528809e+00,1.981450438499450684e+00,1.981248497962951660e+00,1.981046557426452637e+00,1.980844736099243164e+00,1.980642914772033691e+00,1.980441212654113770e+00,1.980239391326904297e+00,1.980037808418273926e+00,1.979836106300354004e+00,1.979634523391723633e+00,1.668317198753356934e+00,1.629077911376953125e+00,1.561187863349914551e+00,1.534127116203308105e+00,1.549288153648376465e+00,1.565955042839050293e+00,1.978224158287048340e+00,1.978022813796997070e+00,1.977821588516235352e+00,1.977620482444763184e+00,1.977419257164001465e+00,1.977218151092529297e+00,1.977017045021057129e+00,1.976816058158874512e+00,1.976615071296691895e+00,1.976413846015930176e+00,1.976212978363037109e+00,1.976012110710144043e+00,1.975811243057250977e+00,1.975610494613647461e+00,1.975409746170043945e+00,1.975208997726440430e+00,1.975008368492126465e+00,1.974807739257812500e+00,1.974607110023498535e+00,1.974406599998474121e+00,1.974206089973449707e+00,1.974005341529846191e+00,1.973804950714111328e+00,1.966180801391601562e+00,1.934219002723693848e+00,1.903279423713684082e+00,1.873314261436462402e+00,1.844277977943420410e+00
1.778149485588073730e+00,1.777986884117126465e+00,1.777824282646179199e+00,1.777661681175231934e+00,1.777499198913574219e+00,1.777336716651916504e+00,1.777174234390258789e+00,1.777011752128601074e+00,1.776849150657653809e+00,1.776686787605285645e+00,1.776524424552917480e+00,1.776362061500549316e+00,1.776199817657470703e+00,1.776037573814392090e+00,1.775875329971313477e+00,1.775713086128234863e+00,1.775550961494445801e+00,1.775388717651367188e+00,1.775226712226867676e+00,1.775064587593078613e+00,1.774902343750000000e+00,1.774740338325500488e+00,1.774578332901000977e+00,1.774416327476501465e+00,1.774254322052001953e+00,1.774092435836791992e+00,1.773930549621582031e+00,1.773768663406372070e+00,1.773606896400451660e+00,1.773445129394531250e+00,1.773283362388610840e+00,1.773121595382690430e+00,1.772959828376770020e+00,1.772798061370849609e+00,1.772636413574218750e+00,1.772474765777587891e+00,1.772313117980957031e+00,1.772151589393615723e+00,1.771990060806274414e+00,1.771828532218933105e+00,1.771667122840881348e+00,1.771505594253540039e+00,1.771344184875488281e+00,1.771182894706726074e+00,1.771021485328674316e+00,1.770859956741333008e+00,1.683676242828369141e+00,1.770537376403808594e+00,1.770376205444335938e+00,1.770214915275573730e+00,1.770053744316101074e+00,1.769892573356628418e+00,1.769731521606445312e+00,1.769570469856262207e+00,1.769409298896789551e+00,1.769248366355895996e+00,1.769087314605712891e+00,1.768926382064819336e+00,1.768765211105346680e+00,1.768604278564453125e+00,1.768443465232849121e+00,1.768282532691955566e+00,1.768121719360351562e+00,1.767960906028747559e+00,1.767800211906433105e+00,1.767639398574829102e+00,1.767478704452514648e+00,1.767318010330200195e+00,1.767157435417175293e+00,1.766996741294860840e+00,1.766836047172546387e+00,1.766675472259521484e+00,1.766514897346496582e+00,1.766354441642761230e+00,1.766193866729736328e+00,1.766033530235290527e+00,1.765873074531555176e+00,1.765712618827819824e+00,1.765552282333374023e+00,1.765392065048217773e+00
1.607882618904113770e+00,1.607749581336975098e+00,1.607616662979125977e+00,1.607483744621276855e+00,1.607350826263427734e+00,1.607217788696289062e+00,1.607084989547729492e+00,1.606952071189880371e+00,1.606819272041320801e+00,1.606686472892761230e+00,1.606553673744201660e+00,1.606420993804931641e+00,1.606288194656372070e+00,1.606155514717102051e+00,1.606022834777832031e+00,1.605890154838562012e+00,1.605757474899291992e+00,1.605624794960021973e+00,1.605492115020751953e+00,1.605359554290771484e+00,1.605226993560791016e+00,1.605094432830810547e+00,1.604961991310119629e+00,1.604829430580139160e+00,1.604696989059448242e+00,1.604564547538757324e+00,1.604432106018066406e+00,1.604299783706665039e+00,1.604167342185974121e+00,1.604035019874572754e+00,1.603902459144592285e+00,1.603770136833190918e+00,1.603637933731079102e+00,1.603505611419677734e+00,1.603373408317565918e+00,1.603241086006164551e+00,1.603108882904052734e+00,1.602976799011230469e+00,1.602844595909118652e+00,1.602712392807006836e+00,1.602580308914184570e+00,1.602448225021362305e+00,1.602316021919250488e+00,1.602183938026428223e+00,1.602051854133605957e+00,1.601919889450073242e+00,1.601787924766540527e+00,1.601655960083007812e+00,1.601523995399475098e+00,1.601392030715942383e+00,1.601260185241699219e+00,1.601128339767456055e+00,1.600996494293212891e+00,1.600864648818969727e+00,1.600732803344726562e+00,1.600600838661193848e+00,1.600469112396240234e+00,1.600337386131286621e+00,1.600205659866333008e+00,1.600073933601379395e+00,1.599942207336425781e+00,1.599810481071472168e+00,1.599678874015808105e+00,1.599547266960144043e+00,1.599415659904479980e+00,1.599284052848815918e+00,1.599152565002441406e+00,1.599020838737487793e+00,1.598889350891113281e+00,1.598757863044738770e+00,1.598626375198364258e+00,1.598494887351989746e+00,1.598363518714904785e+00,1.598232150077819824e+00,1.598100781440734863e+00,1.597969412803649902e+00,1.597838044166564941e+00,1.597706675529479980e+00,1.597575426101684570e+00,1.597444176673889160e+00
1.467373967170715332e+00,1.467263221740722656e+00,1.467152357101440430e+00,1.467041730880737305e+00,1.466930985450744629e+00,1.466820240020751953e+00,1.466709613800048828e+00,1.466598987579345703e+00,1.466488361358642578e+00,1.466377735137939453e+00,1.466267108917236328e+00,1.466156601905822754e+00,1.466045975685119629e+00,1.465935468673706055e+00,1.465824723243713379e+00,1.465714216232299805e+00,1.465603709220886230e+00,1.465493321418762207e+00,1.465382814407348633e+00,1.465272307395935059e+00,1.465161919593811035e+00,1.465051531791687012e+00,1.464941143989562988e+00,1.464830756187438965e+00,1.464720368385314941e+00,1.464609980583190918e+00,1.464499711990356445e+00,1.464389204978942871e+00,1.464278936386108398e+00,1.464168667793273926e+00,1.464058399200439453e+00,1.463948130607604980e+00,1.463837862014770508e+00,1.463727712631225586e+00,1.463617444038391113e+00,1.463507294654846191e+00,1.463397145271301270e+00,1.463286995887756348e+00,1.463176846504211426e+00,1.463066577911376953e+00,1.462956547737121582e+00,1.462846398353576660e+00,1.462736368179321289e+00,1.462626338005065918e+00,1.462516307830810547e+00,1.462406277656555176e+00,1.462296247482299805e+00,1.462186336517333984e+00,1.462076306343078613e+00,1.461966395378112793e+00,1.461856484413146973e+00,1.461746573448181152e+00,1.461636543273925781e+00,1.461526632308959961e+00,1.461416721343994141e+00,1.461306929588317871e+00,1.461197018623352051e+00,1.461087226867675781e+00,1.460977435111999512e+00,1.460867643356323242e+00,1.460757851600646973e+00,1.460648179054260254e+00,1.460538387298583984e+00,1.460428714752197266e+00,1.460318803787231445e+00,1.460209131240844727e+00,1.460099458694458008e+00,1.459989786148071289e+00,1.459880232810974121e+00,1.459770560264587402e+00,1.459661006927490234e+00,1.459551334381103516e+00,1.459441781044006348e+00,1.459332227706909180e+00,1.459222674369812012e+00,1.459113240242004395e+00,1.459003686904907227e+00,1.458894133567810059e+00,1.458784580230712891e+00,1.458675146102905273e+00
1.349449038505554199e+00,1.349355459213256836e+00,1.349261760711669922e+00,1.349168062210083008e+00,1.349074482917785645e+00,1.348980903625488281e+00,1.348887324333190918e+00,1.348793745040893555e+00,1.348700165748596191e+00,1.348606586456298828e+00,1.348513007164001465e+00,1.348419427871704102e+00,1.348325848579406738e+00,1.348232388496398926e+00,1.348138809204101562e+00,1.348045349121093750e+00,1.347951889038085938e+00,1.347858428955078125e+00,1.347764968872070312e+00,1.347671627998352051e+00,1.347578167915344238e+00,1.347484707832336426e+00,1.347391366958618164e+00,1.347297906875610352e+00,1.347204566001892090e+00,1.347111225128173828e+00,1.347017884254455566e+00,1.346924543380737305e+00,1.346831202507019043e+00,1.346737861633300781e+00,1.346644639968872070e+00,1.346551299095153809e+00,1.346458077430725098e+00,1.346364855766296387e+00,1.346271634101867676e+00,1.346178412437438965e+00,1.346085071563720703e+00,1.345991849899291992e+00,1.345898628234863281e+00,1.345805525779724121e+00,1.345712304115295410e+00,1.345619201660156250e+00,1.345526099205017090e+00,1.345432996749877930e+00,1.345339894294738770e+00,1.345246791839599609e+00,1.345153689384460449e+00,1.345060586929321289e+00,1.344967484474182129e+00,1.344874382019042969e+00,1.344781398773193359e+00,1.344688296318054199e+00,1.344595313072204590e+00,1.344502329826354980e+00,1.344409346580505371e+00,1.344316363334655762e+00,1.344223380088806152e+00,1.344130516052246094e+00,1.344037532806396484e+00,1.343944668769836426e+00,1.343851804733276367e+00,1.343758702278137207e+00,1.343665838241577148e+00,1.343572974205017090e+00,1.343480110168457031e+00,1.343387365341186523e+00,1.343294501304626465e+00,1.343201637268066406e+00,1.343108892440795898e+00,1.343016147613525391e+00,1.342923283576965332e+00,1.342830538749694824e+00,1.342737793922424316e+00,1.342644929885864258e+00,1.342552185058593750e+00,1.342459559440612793e+00,1.342366814613342285e+00,1.342274188995361328e+00,1.342181444168090820e+00,1.342088818550109863e+00
1.249068260192871094e+00,1.248988032341003418e+00,1.248907804489135742e+00,1.248827576637268066e+00,1.248747348785400391e+00,1.248667240142822266e+00,1.248587012290954590e+00,1.248506784439086914e+00,1.248426556587219238e+00,1.248346328735351562e+00,1.248266220092773438e+00,1.248186111450195312e+00,1.248106002807617188e+00,1.248025774955749512e+00,1.247945666313171387e+00,1.247865557670593262e+00,1.247785449028015137e+00,1.247705459594726562e+00,1.247625350952148438e+00,1.247545242309570312e+00,1.247465133666992188e+00,1.247385144233703613e+00,1.247305035591125488e+00,1.247225046157836914e+00,1.247145056724548340e+00,1.247065067291259766e+00,1.246985077857971191e+00,1.246905088424682617e+00,1.246825098991394043e+00,1.246745109558105469e+00,1.246665120124816895e+00,1.246585249900817871e+00,1.246505260467529297e+00,1.246425271034240723e+00,1.246345400810241699e+00,1.246265530586242676e+00,1.246185541152954102e+00,1.246105670928955078e+00,1.246025800704956055e+00,1.245945930480957031e+00,1.245866179466247559e+00,1.245786309242248535e+00,1.245706439018249512e+00,1.245626688003540039e+00,1.245546817779541016e+00,1.245466947555541992e+00,1.245387196540832520e+00,1.245307445526123047e+00,1.245227575302124023e+00,1.245147824287414551e+00,1.245068192481994629e+00,1.244988441467285156e+00,1.244908690452575684e+00,1.244828939437866211e+00,1.244749307632446289e+00,1.244669556617736816e+00,1.244589924812316895e+00,1.244510173797607422e+00,1.244430422782897949e+00,1.244350790977478027e+00,1.244271159172058105e+00,1.244191527366638184e+00,1.244111895561218262e+00,1.244032263755798340e+00,1.243952631950378418e+00,1.243873119354248047e+00,1.243793487548828125e+00,1.243713974952697754e+00,1.243634343147277832e+00,1.243554830551147461e+00,1.243475198745727539e+00,1.243395686149597168e+00,1.243316173553466797e+00,1.243236660957336426e+00,1.243157148361206055e+00,1.243077635765075684e+00,1.242998123168945312e+00,1.242918729782104492e+00,1.242839217185974121e+00,1.242759823799133301e+00
1.162587523460388184e+00,1.162518024444580078e+00,1.162448525428771973e+00,1.162379026412963867e+00,1.162309527397155762e+00,1.162239909172058105e+00,1.162170529365539551e+00,1.162101030349731445e+00,1.162031531333923340e+00,1.161962151527404785e+00,1.161892652511596680e+00,1.161823272705078125e+00,1.161753773689270020e+00,1.161684393882751465e+00,1.161614894866943359e+00,1.161545515060424805e+00,1.161476135253906250e+00,1.161406636238098145e+00,1.161337256431579590e+00,1.161267876625061035e+00,1.161198616027832031e+00,1.161129236221313477e+00,1.161059856414794922e+00,1.160990476608276367e+00,1.160921216011047363e+00,1.160851836204528809e+00,1.160782575607299805e+00,1.160713195800781250e+00,1.160643935203552246e+00,1.160574674606323242e+00,1.160505294799804688e+00,1.160436034202575684e+00,1.160366773605346680e+00,1.160297513008117676e+00,1.160228252410888672e+00,1.160158991813659668e+00,1.160089731216430664e+00,1.160020589828491211e+00,1.159951329231262207e+00,1.159882187843322754e+00,1.159812927246093750e+00,1.159743785858154297e+00,1.159674525260925293e+00,1.159605264663696289e+00,1.159536123275756836e+00,1.159466981887817383e+00,1.159397840499877930e+00,1.159328699111938477e+00,1.159259557723999023e+00,1.159190416336059570e+00,1.159121274948120117e+00,1.159052252769470215e+00,1.158983111381530762e+00,1.158913969993591309e+00,1.158844947814941406e+00,1.158775806427001953e+00,1.158706665039062500e+00,1.158637642860412598e+00,1.158568620681762695e+00,1.158499598503112793e+00,1.158430457115173340e+00,1.158361554145812988e+00,1.158292531967163086e+00,1.158223509788513184e+00,1.158154487609863281e+00,1.158085465431213379e+00,1.158016562461853027e+00,1.157947421073913574e+00,1.157878518104553223e+00,1.157809495925903320e+00,1.157740592956542969e+00,1.157671689987182617e+00,1.157602667808532715e+00,1.157533764839172363e+00,1.157464861869812012e+00,1.157395958900451660e+00,1.157327055931091309e+00,1.157258152961730957e+00,1.157189249992370605e+00,1.157120466232299805e+00
1.087306499481201172e+00,1.087245702743530273e+00,1.087184906005859375e+00,1.087124109268188477e+00,1.087063312530517578e+00,1.087002515792846680e+00,1.086941719055175781e+00,1.086880922317504883e+00,1.086820244789123535e+00,1.086759448051452637e+00,1.086698651313781738e+00,1.086637973785400391e+00,1.086577177047729492e+00,1.086516499519348145e+00,1.086455702781677246e+00,1.086395025253295898e+00,1.086334228515625000e+00,1.086273550987243652e+00,1.086212873458862305e+00,1.086152195930480957e+00,1.086091518402099609e+00,1.086030840873718262e+00,1.085970163345336914e+00,1.085909485816955566e+00,1.085848808288574219e+00,1.085788249969482422e+00,1.085727572441101074e+00,1.085666894912719727e+00,1.085606217384338379e+00,1.085545659065246582e+00,1.085484981536865234e+00,1.085424423217773438e+00,1.085363864898681641e+00,1.085303187370300293e+00,1.085242629051208496e+00,1.085182070732116699e+00,1.085121512413024902e+00,1.085060954093933105e+00,1.085000395774841309e+00,1.084939718246459961e+00,1.084879159927368164e+00,1.084818720817565918e+00,1.084758162498474121e+00,1.084697604179382324e+00,1.084637045860290527e+00,1.084576606750488281e+00,1.084516048431396484e+00,1.084455609321594238e+00,1.084395051002502441e+00,1.084334611892700195e+00,1.084274172782897949e+00,1.084213614463806152e+00,1.084153175354003906e+00,1.084092617034912109e+00,1.084032177925109863e+00,1.083971738815307617e+00,1.083911299705505371e+00,1.083850860595703125e+00,1.083790421485900879e+00,1.083730101585388184e+00,1.083669662475585938e+00,1.083609223365783691e+00,1.083548903465270996e+00,1.083488464355468750e+00,1.083428025245666504e+00,1.083367586135864258e+00,1.083307266235351562e+00,1.083246946334838867e+00,1.083186507225036621e+00,1.083126187324523926e+00,1.083065867424011230e+00,1.083005547523498535e+00,1.082945227622985840e+00,1.082884907722473145e+00,1.082824587821960449e+00,1.082764267921447754e+00,1.082703948020935059e+00,1.082643628120422363e+00,1.082583308219909668e+00,1.082522988319396973e+00
1.021181941032409668e+00,1.021128296852111816e+00,1.021074652671813965e+00,1.021021008491516113e+00,1.020967364311218262e+00,1.020913720130920410e+00,1.020860195159912109e+00,1.020806550979614258e+00,1.020752906799316406e+00,1.020699381828308105e+00,1.020645737648010254e+00,1.020592093467712402e+00,1.020538568496704102e+00,1.020484924316406250e+00,1.020431399345397949e+00,1.020377874374389648e+00,1.020324349403381348e+00,1.020270705223083496e+00,1.020217180252075195e+00,1.020163655281066895e+00,1.020110130310058594e+00,1.020056605339050293e+00,1.020003080368041992e+00,1.019949555397033691e+00,1.019896030426025391e+00,1.019842505455017090e+00,1.019788980484008789e+00,1.019735574722290039e+00,1.019682049751281738e+00,1.019628524780273438e+00,1.019575119018554688e+00,1.019521594047546387e+00,1.019468188285827637e+00,1.019414663314819336e+00,1.019361257553100586e+00,1.019307851791381836e+00,1.019254326820373535e+00,1.019200921058654785e+00,1.019147396087646484e+00,1.019093990325927734e+00,1.019040584564208984e+00,1.018987178802490234e+00,1.018933773040771484e+00,1.018880367279052734e+00,1.018826961517333984e+00,1.018773555755615234e+00,1.018720149993896484e+00,1.018666863441467285e+00,1.018613338470458984e+00,1.018560051918029785e+00,1.018506646156311035e+00,1.018453240394592285e+00,1.018399953842163086e+00,1.018346548080444336e+00,1.018293261528015137e+00,1.018239974975585938e+00,1.018186569213867188e+00,1.018133282661437988e+00,1.018079996109008789e+00,1.018026590347290039e+00,1.017973303794860840e+00,1.017920017242431641e+00,1.017866611480712891e+00,1.017813324928283691e+00,1.017760038375854492e+00,1.017706871032714844e+00,1.017653584480285645e+00,1.017600297927856445e+00,1.017547011375427246e+00,1.017493724822998047e+00,1.017440557479858398e+00,1.017387270927429199e+00,1.017333984375000000e+00,1.017280697822570801e+00,1.017227530479431152e+00,1.017174243927001953e+00,1.017121076583862305e+00,1.017067790031433105e+00,1.017014622688293457e+00,1.016961455345153809e+00
9.626390337944030762e-01,9.625913500785827637e-01,9.625437259674072266e-01,9.624960422515869141e-01,9.624484181404113770e-01,9.624007344245910645e-01,9.623531103134155273e-01,9.623054265975952148e-01,9.622577428817749023e-01,9.622101783752441406e-01,9.621624946594238281e-01,9.621149301528930664e-01,9.620672464370727539e-01,9.620197415351867676e-01,9.619720578193664551e-01,9.619245529174804688e-01,9.618768692016601562e-01,9.618293642997741699e-01,9.617816805839538574e-01,9.617341756820678711e-01,9.616865515708923340e-01,9.616389274597167969e-01,9.615914225578308105e-01,9.615437984466552734e-01,9.614962935447692871e-01,9.614486694335937500e-01,9.614012241363525391e-01,9.613536000251770020e-01,9.613061547279357910e-01,9.612585306167602539e-01,9.612110853195190430e-01,9.611635208129882812e-01,9.611160159111022949e-01,9.610684514045715332e-01,9.610208868980407715e-01,9.609734416007995605e-01,9.609258770942687988e-01,9.608784317970275879e-01,9.608309268951416016e-01,9.607834815979003906e-01,9.607359170913696289e-01,9.606885313987731934e-01,9.606409668922424316e-01,9.605935811996459961e-01,9.605460762977600098e-01,9.604985713958740234e-01,9.604511260986328125e-01,9.604036211967468262e-01,9.603562355041503906e-01,9.603087902069091797e-01,9.602614045143127441e-01,9.602138996124267578e-01,9.601665139198303223e-01,9.601190686225891113e-01,9.600716829299926758e-01,9.600242376327514648e-01,9.599768519401550293e-01,9.599294066429138184e-01,9.598819613456726074e-01,9.598346352577209473e-01,9.597871899604797363e-01,9.597398638725280762e-01,9.596924185752868652e-01,9.596450924873352051e-01,9.595977067947387695e-01,9.595503807067871094e-01,9.595029354095458984e-01,9.594556689262390137e-01,9.594082832336425781e-01,9.593609571456909180e-01,9.593135714530944824e-01,9.592661857604980469e-01,9.592189192771911621e-01,9.591715335845947266e-01,9.591242671012878418e-01,9.590768814086914062e-01,9.590296149253845215e-01,9.589822292327880859e-01,9.589350223541259766e-01,9.588876366615295410e-01
9.104444980621337891e-01,9.104019403457641602e-01,9.103592038154602051e-01,9.103166460990905762e-01,9.102739691734313965e-01,9.102312922477722168e-01,9.101887345314025879e-01,9.101460576057434082e-01,9.101034998893737793e-01,9.100608825683593750e-01,9.100183248519897461e-01,9.099756479263305664e-01,9.099331498146057129e-01,9.098904728889465332e-01,9.098479747772216797e-01,9.098052978515625000e-01,9.097627997398376465e-01,9.097201824188232422e-01,9.096775650978088379e-01,9.096350669860839844e-01,9.095924496650695801e-01,9.095499515533447266e-01,9.095073342323303223e-01,9.094648361206054688e-01,9.094222187995910645e-01,9.093797206878662109e-01,9.093371629714965820e-01,9.092946648597717285e-01,9.092521071434020996e-01,9.092096090316772461e-01,9.091670513153076172e-01,9.091244935989379883e-01,9.090819954872131348e-01,9.090394377708435059e-01,9.089969992637634277e-01,9.089544415473937988e-01,9.089120030403137207e-01,9.088694453239440918e-01,9.088270068168640137e-01,9.087845087051391602e-01,9.087420701980590820e-01,9.086995124816894531e-01,9.086570143699645996e-01,9.086145758628845215e-01,9.085720777511596680e-01,9.085296988487243652e-01,9.084871411323547363e-01,9.084447622299194336e-01,9.084022641181945801e-01,9.083598852157592773e-01,9.083173871040344238e-01,9.082750082015991211e-01,9.082325100898742676e-01,9.081901311874389648e-01,9.081476330757141113e-01,9.081051945686340332e-01,9.080628156661987305e-01,9.080203771591186523e-01,9.079779982566833496e-01,9.079355597496032715e-01,9.078931808471679688e-01,9.078507423400878906e-01,9.078084230422973633e-01,9.077659845352172852e-01,9.077236056327819824e-01,9.076811671257019043e-01,9.076388478279113770e-01,9.075964689254760742e-01,9.075540304183959961e-01,9.075117111206054688e-01,9.074692726135253906e-01,9.074270129203796387e-01,9.073845744132995605e-01,9.073423147201538086e-01,9.072998762130737305e-01,9.072576165199279785e-01,9.072152376174926758e-01,9.071729183197021484e-01,9.071305394172668457e-01,9.070882797241210938e-01
8.636189103126525879e-01,8.635805249214172363e-01,8.635421395301818848e-01,8.635038137435913086e-01,8.634654283523559570e-01,8.634271025657653809e-01,8.633887171745300293e-01,8.633504509925842285e-01,8.633120656013488770e-01,8.632737398147583008e-01,8.632353544235229492e-01,8.631970882415771484e-01,8.631587028503417969e-01,8.631204366683959961e-01,8.630820512771606445e-01,8.630437254905700684e-01,8.630054593086242676e-01,8.629670739173889160e-01,8.629288077354431152e-01,8.628904819488525391e-01,8.628522157669067383e-01,8.628138899803161621e-01,8.627756237983703613e-01,8.627372980117797852e-01,8.626990914344787598e-01,8.626607656478881836e-01,8.626224994659423828e-01,8.625841736793518066e-01,8.625458478927612305e-01,8.625076413154602051e-01,8.624693155288696289e-01,8.624311089515686035e-01,8.623928427696228027e-01,8.623546361923217773e-01,8.623163104057312012e-01,8.622781038284301758e-01,8.622398376464843750e-01,8.622016310691833496e-01,8.621633648872375488e-01,8.621250987052917480e-01,8.620868921279907227e-01,8.620486259460449219e-01,8.620104193687438965e-01,8.619721531867980957e-01,8.619340062141418457e-01,8.618957400321960449e-01,8.618575930595397949e-01,8.618193268775939941e-01,8.617811799049377441e-01,8.617429137229919434e-01,8.617047667503356934e-01,8.616665005683898926e-01,8.616282939910888672e-01,8.615901470184326172e-01,8.615519404411315918e-01,8.615137934684753418e-01,8.614755868911743164e-01,8.614374399185180664e-01,8.613992333412170410e-01,8.613610863685607910e-01,8.613228797912597656e-01,8.612847924232482910e-01,8.612465858459472656e-01,8.612084388732910156e-01,8.611702919006347656e-01,8.611320853233337402e-01,8.610939979553222656e-01,8.610557913780212402e-01,8.610177040100097656e-01,8.609795570373535156e-01,8.609414696693420410e-01,8.609032630920410156e-01,8.608651757240295410e-01,8.608270287513732910e-01,8.607889413833618164e-01,8.607507944107055664e-01,8.607127666473388672e-01,8.606746196746826172e-01,8.606364727020263672e-01,8.605983853340148926e-01
8.213742971420288086e-01,8.213395476341247559e-01,8.213049173355102539e-01,8.212701678276062012e-01,8.212355375289916992e-01,8.212007880210876465e-01,8.211661577224731445e-01,8.211314082145690918e-01,8.210967779159545898e-01,8.210620880126953125e-01,8.210273981094360352e-01,8.209927082061767578e-01,8.209580183029174805e-01,8.209233880043029785e-01,8.208886981010437012e-01,8.208540678024291992e-01,8.208193778991699219e-01,8.207847476005554199e-01,8.207500576972961426e-01,8.207154273986816406e-01,8.206807374954223633e-01,8.206461668014526367e-01,8.206114768981933594e-01,8.205767869949340820e-01,8.205422163009643555e-01,8.205075263977050781e-01,8.204729557037353516e-01,8.204382658004760742e-01,8.204036951065063477e-01,8.203690648078918457e-01,8.203344941139221191e-01,8.202998042106628418e-01,8.202652335166931152e-01,8.202306032180786133e-01,8.201960325241088867e-01,8.201614022254943848e-01,8.201267719268798828e-01,8.200922012329101562e-01,8.200575709342956543e-01,8.200230002403259277e-01,8.199883699417114258e-01,8.199537992477416992e-01,8.199192285537719727e-01,8.198846578598022461e-01,8.198500275611877441e-01,8.198155164718627930e-01,8.197808861732482910e-01,8.197463750839233398e-01,8.197118043899536133e-01,8.196771740913391113e-01,8.196426630020141602e-01,8.196080327033996582e-01,8.195735216140747070e-01,8.195389509201049805e-01,8.195044398307800293e-01,8.194698691368103027e-01,8.194353580474853516e-01,8.194007873535156250e-01,8.193662762641906738e-01,8.193317055702209473e-01,8.192972540855407715e-01,8.192626833915710449e-01,8.192281126976013184e-01,8.191936016082763672e-01,8.191590309143066406e-01,8.191245794296264648e-01,8.190900087356567383e-01,8.190555572509765625e-01,8.190209865570068359e-01,8.189865350723266602e-01,8.189520239830017090e-01,8.189175724983215332e-01,8.188830018043518066e-01,8.188484907150268555e-01,8.188140392303466797e-01,8.187795281410217285e-01,8.187450766563415527e-01,8.187105655670166016e-01,8.186761140823364258e-01,8.186416029930114746e-01
7.830698490142822266e-01,7.830383181571960449e-01,7.830067276954650879e-01,7.829752564430236816e-01,7.829436659812927246e-01,7.829121947288513184e-01,7.828806042671203613e-01,7.828491330146789551e-01,7.828176021575927734e-01,7.827860116958618164e-01,7.827545404434204102e-01,7.827230095863342285e-01,7.826914787292480469e-01,7.826599478721618652e-01,7.826284766197204590e-01,7.825969457626342773e-01,7.825654745101928711e-01,7.825339436531066895e-01,7.825024724006652832e-01,7.824709415435791016e-01,7.824394106864929199e-01,7.824079394340515137e-01,7.823764085769653320e-01,7.823449969291687012e-01,7.823134660720825195e-01,7.822819948196411133e-01,7.822505235671997070e-01,7.822190523147583008e-01,7.821875810623168945e-01,7.821561098098754883e-01,7.821246385574340820e-01,7.820931673049926758e-01,7.820616960525512695e-01,7.820302248001098633e-01,7.819987535476684570e-01,7.819672822952270508e-01,7.819358706474304199e-01,7.819043993949890137e-01,7.818729877471923828e-01,7.818415164947509766e-01,7.818101048469543457e-01,7.817786335945129395e-01,7.817472219467163086e-01,7.817157506942749023e-01,7.816843390464782715e-01,7.816528677940368652e-01,7.816213965415954590e-01,7.815900444984436035e-01,7.815585732460021973e-01,7.815271615982055664e-01,7.814957499504089355e-01,7.814643383026123047e-01,7.814329266548156738e-01,7.814015150070190430e-01,7.813701033592224121e-01,7.813386917114257812e-01,7.813072800636291504e-01,7.812759280204772949e-01,7.812444567680358887e-01,7.812130451202392578e-01,7.811816930770874023e-01,7.811502814292907715e-01,7.811189293861389160e-01,7.810875177383422852e-01,7.810561656951904297e-01,7.810247540473937988e-01,7.809934020042419434e-01,7.809619903564453125e-01,7.809306383132934570e-01,7.808992266654968262e-01,7.808678150177001953e-01,7.808365225791931152e-01,7.808051109313964844e-01,7.807738184928894043e-01,7.807424068450927734e-01,7.807110548019409180e-01,7.806797027587890625e-01,7.806484103202819824e-01,7.806169986724853516e-01,7.805857062339782715e-01
7.481788396835327148e-01,7.481499910354614258e-01,7.481212615966796875e-01,7.480924129486083984e-01,7.480636835098266602e-01,7.480348944664001465e-01,7.480060458183288574e-01,7.479773163795471191e-01,7.479484677314758301e-01,7.479197382926940918e-01,7.478909492492675781e-01,7.478622198104858398e-01,7.478334307670593262e-01,7.478047013282775879e-01,7.477758526802062988e-01,7.477471232414245605e-01,7.477183341979980469e-01,7.476895451545715332e-01,7.476608157157897949e-01,7.476320862770080566e-01,7.476033568382263184e-01,7.475745677947998047e-01,7.475458383560180664e-01,7.475170493125915527e-01,7.474883794784545898e-01,7.474595904350280762e-01,7.474308609962463379e-01,7.474021315574645996e-01,7.473734021186828613e-01,7.473446726799011230e-01,7.473158836364746094e-01,7.472872138023376465e-01,7.472584247589111328e-01,7.472297549247741699e-01,7.472009658813476562e-01,7.471722960472106934e-01,7.471435666084289551e-01,7.471148967742919922e-01,7.470861077308654785e-01,7.470574378967285156e-01,7.470287084579467773e-01,7.470000386238098145e-01,7.469713091850280762e-01,7.469425797462463379e-01,7.469139099121093750e-01,7.468851804733276367e-01,7.468565106391906738e-01,7.468277812004089355e-01,7.467991113662719727e-01,7.467704415321350098e-01,7.467417716979980469e-01,7.467130422592163086e-01,7.466844320297241211e-01,7.466557025909423828e-01,7.466270327568054199e-01,7.465983629226684570e-01,7.465696334838867188e-01,7.465410232543945312e-01,7.465122938156127930e-01,7.464836835861206055e-01,7.464549541473388672e-01,7.464263439178466797e-01,7.463976740837097168e-01,7.463690042495727539e-01,7.463403344154357910e-01,7.463117241859436035e-01,7.462830543518066406e-01,7.462543845176696777e-01,7.462257742881774902e-01,7.461971044540405273e-01,7.461684942245483398e-01,7.461398243904113770e-01,7.461112141609191895e-01,7.460825443267822266e-01,7.460539340972900391e-01,7.460252642631530762e-01,7.459966540336608887e-01,7.459679841995239258e-01,7.459394335746765137e-01,7.459107637405395508e-01
