5.000000000000000000e+00,5.000000000000000000e+00,5.000000000000000000e+00,5.000000000000000000e+00,5.000000000000000000e+00,5.000000000000000000e+00,5.000000000000000000e+00,5.000000000000000000e+00,5.000000000000000000e+00,5.000000000000000000e+00,5.000000000000000000e+00,5.000000000000000000e+00,5.000000000000000000e+00,5.000000000000000000e+00,5.000000000000000000e+00,5.000000000000000000e+00,5.000000000000000000e+00,5.000000000000000000e+00,5.000000000000000000e+00,5.000000000000000000e+00,5.000000000000000000e+00,5.000000000000000000e+00,5.000000000000000000e+00,5.000000000000000000e+00,5.000000000000000000e+00,5.000000000000000000e+00,3.415746927261352539e+00,3.384702205657958984e+00,5.000000000000000000e+00,5.000000000000000000e+00,5.000000000000000000e+00,5.000000000000000000e+00,5.000000000000000000e+00,5.000000000000000000e+00,5.000000000000000000e+00,5.000000000000000000e+00,5.000000000000000000e+00,5.000000000000000000e+00,5.000000000000000000e+00,4.862760066986083984e+00,4.671736717224121094e+00,4.495154380798339844e+00,4.331434726715087891e+00,4.179221630096435547e+00,4.037343025207519531e+00,3.904781579971313477e+00,3.780648469924926758e+00,3.664164304733276367e+00,3.554643630981445312e+00,3.451480388641357422e+00,3.354135751724243164e+00,3.262131929397583008e+00,3.175040245056152344e+00,3.092478036880493164e+00,3.014101028442382812e+00,2.939598560333251953e+00,2.868690252304077148e+00,2.801122426986694336e+00,2.736664056777954102e+00,2.675105810165405273e+00,2.616255760192871094e+00,2.559939384460449219e+00,2.505996465682983398e+00,2.454279661178588867e+00,2.404654502868652344e+00,2.356996774673461914e+00,2.311190843582153320e+00,2.267131567001342773e+00,2.224720716476440430e+00,2.183867454528808594e+00,2.144487619400024414e+00,2.106502771377563477e+00,2.069839954376220703e+00,2.034431695938110352e+00,2.000214576721191406e+00,1.967129468917846680e+00,1.935120582580566406e+00,1.904137134552001953e+00,1.874130129814147949e+00,1.845054030418395996e+00
5.000000000000000000e+00,5.000000000000000000e+00,5.000000000000000000e+00,5.000000000000000000e+00,5.000000000000000000e+00,5.000000000000000000e+00,5.000000000000000000e+00,5.000000000000000000e+00,5.000000000000000000e+00,5.000000000000000000e+00,5.000000000000000000e+00,5.000000000000000000e+00,5.000000000000000000e+00,5.000000000000000000e+00,5.000000000000000000e+00,5.000000000000000000e+00,5.000000000000000000e+00,5.000000000000000000e+00,5.000000000000000000e+00,5.000000000000000000e+00,5.000000000000000000e+00,5.000000000000000000e+00,5.000000000000000000e+00,5.000000000000000000e+00,5.000000000000000000e+00,5.000000000000000000e+00,3.407212734222412109e+00,3.379667282104492188e+00,3.416061878204345703e+00,5.000000000000000000e+00,5.000000000000000000e+00,5.000000000000000000e+00,5.000000000000000000e+00,5.000000000000000000e+00,5.000000000000000000e+00,5.000000000000000000e+00,5.000000000000000000e+00,5.000000000000000000e+00,5.000000000000000000e+00,4.862899303436279297e+00,4.671865463256835938e+00,4.495273113250732422e+00,4.331544876098632812e+00,4.179324150085449219e+00,4.037438869476318359e+00,3.904870986938476562e+00,3.780732631683349609e+00,3.664243221282958984e+00,3.554718255996704102e+00,3.451550245285034180e+00,3.354201793670654297e+00,3.262194395065307617e+00,3.175099372863769531e+00,3.092534065246582031e+00,3.014154434204101562e+00,2.939649343490600586e+00,2.868738651275634766e+00,2.801168441772460938e+00,2.736707925796508789e+00,2.675147771835327148e+00,2.616296052932739258e+00,2.559977769851684570e+00,2.506033182144165039e+00,2.454315185546875000e+00,2.404688596725463867e+00,2.357029199600219727e+00,2.311222076416015625e+00,2.267161846160888672e+00,2.224749803543090820e+00,2.183895349502563477e+00,2.144514560699462891e+00,2.106528759002685547e+00,2.069865226745605469e+00,2.034456014633178711e+00,2.000237941741943359e+00,1.967152118682861328e+00,1.935142755508422852e+00,1.904158353805541992e+00,1.874150633811950684e+00,1.845074057579040527e+00
5.000000000000000000e+00,5.000000000000000000e+00,5.000000000000000000e+00,5.000000000000000000e+00,5.000000000000000000e+00,5.000000000000000000e+00,5.000000000000000000e+00,5.000000000000000000e+00,5.000000000000000000e+00,5.000000000000000000e+00,5.000000000000000000e+00,5.000000000000000000e+00,5.000000000000000000e+00,5.000000000000000000e+00,5.000000000000000000e+00,5.000000000000000000e+00,5.000000000000000000e+00,5.000000000000000000e+00,5.000000000000000000e+00,5.000000000000000000e+00,5.000000000000000000e+00,5.000000000000000000e+00,5.000000000000000000e+00,5.000000000000000000e+00,5.000000000000000000e+00,5.000000000000000000e+00,3.425065994262695312e+00,3.392027616500854492e+00,3.430838108062744141e+00,5.000000000000000000e+00,5.000000000000000000e+00,5.000000000000000000e+00,5.000000000000000000e+00,5.000000000000000000e+00,5.000000000000000000e+00,5.000000000000000000e+00,5.000000000000000000e+00,5.000000000000000000e+00,5.000000000000000000e+00,4.863038063049316406e+00,4.671993255615234375e+00,4.495391845703125000e+00,4.331655025482177734e+00,4.179426670074462891e+00,4.037534713745117188e+00,3.904961109161376953e+00,3.780816316604614258e+00,3.664322137832641602e+00,3.554792404174804688e+00,3.451620101928710938e+00,3.354268074035644531e+00,3.262256860733032227e+00,3.175158739089965820e+00,3.092590570449829102e+00,3.014207839965820312e+00,2.939700126647949219e+00,2.868787050247192383e+00,2.801214456558227539e+00,2.736752271652221680e+00,2.675189733505249023e+00,2.616336107254028320e+00,2.560016393661499023e+00,2.506070137023925781e+00,2.454350471496582031e+00,2.404722690582275391e+00,2.357061862945556641e+00,2.311253786087036133e+00,2.267191886901855469e+00,2.224778890609741211e+00,2.183923482894897461e+00,2.144541501998901367e+00,2.106554746627807617e+00,2.069890260696411133e+00,2.034480333328247070e+00,2.000261545181274414e+00,1.967174887657165527e+00,1.935164570808410645e+00,1.904179692268371582e+00,1.874171376228332520e+00,1.845093965530395508e+00
5.000000000000000000e+00,5.000000000000000000e+00,5.000000000000000000e+00,5.000000000000000000e+00,5.000000000000000000e+00,5.000000000000000000e+00,5.000000000000000000e+00,5.000000000000000000e+00,5.000000000000000000e+00,5.000000000000000000e+00,5.000000000000000000e+00,5.000000000000000000e+00,5.000000000000000000e+00,5.000000000000000000e+00,5.000000000000000000e+00,5.000000000000000000e+00,5.000000000000000000e+00,5.000000000000000000e+00,5.000000000000000000e+00,5.000000000000000000e+00,5.000000000000000000e+00,5.000000000000000000e+00,5.000000000000000000e+00,5.000000000000000000e+00,5.000000000000000000e+00,5.000000000000000000e+00,3.473681926727294922e+00,3.409069061279296875e+00,5.000000000000000000e+00,5.000000000000000000e+00,5.000000000000000000e+00,5.000000000000000000e+00,5.000000000000000000e+00,5.000000000000000000e+00,5.000000000000000000e+00,5.000000000000000000e+00,5.000000000000000000e+00,5.000000000000000000e+00,5.000000000000000000e+00,4.863177299499511719e+00,4.672121524810791016e+00,4.495510578155517578e+00,4.331765174865722656e+00,4.179529190063476562e+00,4.037630081176757812e+00,3.905050516128540039e+00,3.780900478363037109e+00,3.664401292800903320e+00,3.554866552352905273e+00,3.451690196990966797e+00,3.354334115982055664e+00,3.262319326400756836e+00,3.175217866897583008e+00,3.092646837234497070e+00,3.014261007308959961e+00,2.939750909805297852e+00,2.868835449218750000e+00,2.801260709762573242e+00,2.736796140670776367e+00,2.675231933593750000e+00,2.616376399993896484e+00,2.560054779052734375e+00,2.506107091903686523e+00,2.454385995864868164e+00,2.404756546020507812e+00,2.357094526290893555e+00,2.311285018920898438e+00,2.267222166061401367e+00,2.224807977676391602e+00,2.183951616287231445e+00,2.144568443298339844e+00,2.106580972671508789e+00,2.069915533065795898e+00,2.034504652023315430e+00,2.000285148620605469e+00,1.967197537422180176e+00,1.935186624526977539e+00,1.904201149940490723e+00,1.874191880226135254e+00,1.845114111900329590e+00
5.000000000000000000e+00,5.000000000000000000e+00,5.000000000000000000e+00,5.000000000000000000e+00,5.000000000000000000e+00,5.000000000000000000e+00,5.000000000000000000e+00,5.000000000000000000e+00,5.000000000000000000e+00,5.000000000000000000e+00,5.000000000000000000e+00,5.000000000000000000e+00,5.000000000000000000e+00,5.000000000000000000e+00,5.000000000000000000e+00,5.000000000000000000e+00,5.000000000000000000e+00,5.000000000000000000e+00,5.000000000000000000e+00,5.000000000000000000e+00,5.000000000000000000e+00,5.000000000000000000e+00,5.000000000000000000e+00,3.361757040023803711e+00,3.358489274978637695e+00,3.397373199462890625e+00,3.382098197937011719e+00,3.471049308776855469e+00,3.452483654022216797e+00,5.000000000000000000e+00,5.000000000000000000e+00,5.000000000000000000e+00,5.000000000000000000e+00,5.000000000000000000e+00,5.000000000000000000e+00,5.000000000000000000e+00,5.000000000000000000e+00,5.000000000000000000e+00,5.000000000000000000e+00,4.863316059112548828e+00,4.672250270843505859e+00,4.495629310607910156e+00,4.331875324249267578e+00,4.179632186889648438e+00,4.037726402282714844e+00,3.905140161514282227e+00,3.780984401702880859e+00,3.664480209350585938e+00,3.554940700531005859e+00,3.451760053634643555e+00,3.354400396347045898e+00,3.262381792068481445e+00,3.175277233123779297e+00,3.092702865600585938e+00,3.014314413070678711e+00,2.939801692962646484e+00,2.868883609771728516e+00,2.801306724548339844e+00,2.736840009689331055e+00,2.675273895263671875e+00,2.616416692733764648e+00,2.560093402862548828e+00,2.506143808364868164e+00,2.454421520233154297e+00,2.404790639877319336e+00,2.357127189636230469e+00,2.311316490173339844e+00,2.267252206802368164e+00,2.224837064743041992e+00,2.183979511260986328e+00,2.144595623016357422e+00,2.106606960296630859e+00,2.069940567016601562e+00,2.034528970718383789e+00,2.000308513641357422e+00,1.967220306396484375e+00,1.935208797454833984e+00,1.904222249984741211e+00,1.874212622642517090e+00,1.845134139060974121e+00
5.000000000000000000e+00,5.000000000000000000e+00,5.000000000000000000e+00,5.000000000000000000e+00,5.000000000000000000e+00,5.000000000000000000e+00,5.000000000000000000e+00,5.000000000000000000e+00,5.000000000000000000e+00,5.000000000000000000e+00,5.000000000000000000e+00,5.000000000000000000e+00,5.000000000000000000e+00,5.000000000000000000e+00,5.000000000000000000e+00,5.000000000000000000e+00,5.000000000000000000e+00,5.000000000000000000e+00,5.000000000000000000e+00,5.000000000000000000e+00,5.000000000000000000e+00,5.000000000000000000e+00,5.000000000000000000e+00,3.329210996627807617e+00,3.345525264739990234e+00,3.343926668167114258e+00,3.363964557647705078e+00,3.390491008758544922e+00,3.431181907653808594e+00,3.478052377700805664e+00,3.539363861083984375e+00,5.000000000000000000e+00,5.000000000000000000e+00,5.000000000000000000e+00,5.000000000000000000e+00,5.000000000000000000e+00,5.000000000000000000e+00,5.000000000000000000e+00,5.000000000000000000e+00,4.863454818725585938e+00,4.672378063201904297e+00,4.495748043060302734e+00,4.331985950469970703e+00,4.179734706878662109e+00,4.037821769714355469e+00,3.905229568481445312e+00,3.781068563461303711e+00,3.664558887481689453e+00,3.555015087127685547e+00,3.451830387115478516e+00,3.354466438293457031e+00,3.262444257736206055e+00,3.175336599349975586e+00,3.092759132385253906e+00,3.014368057250976562e+00,2.939852476119995117e+00,2.868932008743286133e+00,2.801352977752685547e+00,2.736884117126464844e+00,2.675315856933593750e+00,2.616456985473632812e+00,2.560131788253784180e+00,2.506181001663208008e+00,2.454456806182861328e+00,2.404824495315551758e+00,2.357159852981567383e+00,2.311347723007202148e+00,2.267282485961914062e+00,2.224866151809692383e+00,2.184007644653320312e+00,2.144622802734375000e+00,2.106633186340332031e+00,2.069965839385986328e+00,2.034553527832031250e+00,2.000332117080688477e+00,1.967242956161499023e+00,1.935230612754821777e+00,1.904243707656860352e+00,1.874233365058898926e+00,1.845154047012329102e+00
5.000000000000000000e+00,5.000000000000000000e+00,5.000000000000000000e+00,5.000000000000000000e+00,5.000000000000000000e+00,5.000000000000000000e+00,5.000000000000000000e+00,5.000000000000000000e+00,5.000000000000000000e+00,5.000000000000000000e+00,5.000000000000000000e+00,5.000000000000000000e+00,5.000000000000000000e+00,5.000000000000000000e+00,5.000000000000000000e+00,5.000000000000000000e+00,5.000000000000000000e+00,5.000000000000000000e+00,5.000000000000000000e+00,5.000000000000000000e+00,5.000000000000000000e+00,5.000000000000000000e+00,5.000000000000000000e+00,3.351223707199096680e+00,3.367325544357299805e+00,3.346981048583984375e+00,3.341920852661132812e+00,3.362168073654174805e+00,3.392013788223266602e+00,3.442155122756958008e+00,3.561472892761230469e+00,5.000000000000000000e+00,5.000000000000000000e+00,5.000000000000000000e+00,5.000000000000000000e+00,5.000000000000000000e+00,5.000000000000000000e+00,5.000000000000000000e+00,5.000000000000000000e+00,4.863594055175781250e+00,4.672506332397460938e+00,4.495866775512695312e+00,4.332096099853515625e+00,4.179837226867675781e+00,4.037917613983154297e+00,3.905319213867187500e+00,3.781152486801147461e+00,3.664637804031372070e+00,3.555089235305786133e+00,3.451900243759155273e+00,3.354532480239868164e+00,3.262507200241088867e+00,3.175395727157592773e+00,3.092815160751342773e+00,3.014421463012695312e+00,2.939903259277343750e+00,2.868980407714843750e+00,2.801398992538452148e+00,2.736927986145019531e+00,2.675358057022094727e+00,2.616497039794921875e+00,2.560170412063598633e+00,2.506217956542968750e+00,2.454492092132568359e+00,2.404858350753784180e+00,2.357192516326904297e+00,2.311379194259643555e+00,2.267312765121459961e+00,2.224895238876342773e+00,2.184035539627075195e+00,2.144649744033813477e+00,2.106659173965454102e+00,2.069990873336791992e+00,2.034577608108520508e+00,2.000355482101440430e+00,1.967265725135803223e+00,1.935252785682678223e+00,1.904264807701110840e+00,1.874253869056701660e+00,1.845174193382263184e+00
5.000000000000000000e+00,5.000000000000000000e+00,5.000000000000000000e+00,5.000000000000000000e+00,5.000000000000000000e+00,5.000000000000000000e+00,5.000000000000000000e+00,5.000000000000000000e+00,5.000000000000000000e+00,5.000000000000000000e+00,5.000000000000000000e+00,5.000000000000000000e+00,5.000000000000000000e+00,5.000000000000000000e+00,5.000000000000000000e+00,5.000000000000000000e+00,5.000000000000000000e+00,5.000000000000000000e+00,5.000000000000000000e+00,5.000000000000000000e+00,5.000000000000000000e+00,5.000000000000000000e+00,5.000000000000000000e+00,3.369066476821899414e+00,3.367064714431762695e+00,3.354941129684448242e+00,3.353630304336547852e+00,3.355833530426025391e+00,3.391076326370239258e+00,3.446341037750244141e+00,3.566139936447143555e+00,5.000000000000000000e+00,5.000000000000000000e+00,5.000000000000000000e+00,5.000000000000000000e+00,5.000000000000000000e+00,5.000000000000000000e+00,5.000000000000000000e+00,5.000000000000000000e+00,4.863732814788818359e+00,4.672635078430175781e+00,4.495985507965087891e+00,4.332206249237060547e+00,4.179939746856689453e+00,4.038013458251953125e+00,3.905408620834350586e+00,3.781236410140991211e+00,3.664716720581054688e+00,3.555163860321044922e+00,3.451970338821411133e+00,3.354598522186279297e+00,3.262569665908813477e+00,3.175454854965209961e+00,3.092871427536010742e+00,3.014474630355834961e+00,2.939954042434692383e+00,2.869028806686401367e+00,2.801445245742797852e+00,2.736972093582153320e+00,2.675400257110595703e+00,2.616537332534790039e+00,2.560208797454833984e+00,2.506254673004150391e+00,2.454527616500854492e+00,2.404892683029174805e+00,2.357225179672241211e+00,2.311410427093505859e+00,2.267343044281005859e+00,2.224924325942993164e+00,2.184063673019409180e+00,2.144676685333251953e+00,2.106685161590576172e+00,2.070016145706176758e+00,2.034601926803588867e+00,2.000379085540771484e+00,1.967288613319396973e+00,1.935274600982666016e+00,1.904286265373229980e+00,1.874274611473083496e+00,1.845193982124328613e+00
5.000000000000000000e+00,5.000000000000000000e+00,5.000000000000000000e+00,5.000000000000000000e+00,5.000000000000000000e+00,5.000000000000000000e+00,5.000000000000000000e+00,5.000000000000000000e+00,5.000000000000000000e+00,5.000000000000000000e+00,5.000000000000000000e+00,5.000000000000000000e+00,5.000000000000000000e+00,5.000000000000000000e+00,5.000000000000000000e+00,5.000000000000000000e+00,5.000000000000000000e+00,5.000000000000000000e+00,5.000000000000000000e+00,5.000000000000000000e+00,5.000000000000000000e+00,5.000000000000000000e+00,5.000000000000000000e+00,3.373191595077514648e+00,3.364408493041992188e+00,3.366178512573242188e+00,3.348632812500000000e+00,3.357090234756469727e+00,3.386253833770751953e+00,3.456317186355590820e+00,3.567229270935058594e+00,5.000000000000000000e+00,5.000000000000000000e+00,5.000000000000000000e+00,5.000000000000000000e+00,5.000000000000000000e+00,5.000000000000000000e+00,5.000000000000000000e+00,5.000000000000000000e+00,4.863872051239013672e+00,4.672763347625732422e+00,4.496104717254638672e+00,4.332316875457763672e+00,4.180042743682861328e+00,4.038109302520751953e+00,3.905498743057250977e+00,3.781320571899414062e+00,3.664795637130737305e+00,3.555238008499145508e+00,3.452040195465087891e+00,3.354664802551269531e+00,3.262632131576538086e+00,3.175514221191406250e+00,3.092927932739257812e+00,3.014528036117553711e+00,2.940004825592041016e+00,2.869077205657958984e+00,2.801491260528564453e+00,2.737016201019287109e+00,2.675442218780517578e+00,2.616577625274658203e+00,2.560247421264648438e+00,2.506291627883911133e+00,2.454562902450561523e+00,2.404926538467407227e+00,2.357257843017578125e+00,2.311442136764526367e+00,2.267373085021972656e+00,2.224953413009643555e+00,2.184091806411743164e+00,2.144703626632690430e+00,2.106711387634277344e+00,2.070041418075561523e+00,2.034626245498657227e+00,2.000402688980102539e+00,1.967311263084411621e+00,1.935296773910522461e+00,1.904307603836059570e+00,1.874295115470886230e+00,1.845214128494262695e+00
5.000000000000000000e+00,5.000000000000000000e+00,5.000000000000000000e+00,5.000000000000000000e+00,5.000000000000000000e+00,5.000000000000000000e+00,5.000000000000000000e+00,5.000000000000000000e+00,5.000000000000000000e+00,5.000000000000000000e+00,5.000000000000000000e+00,5.000000000000000000e+00,5.000000000000000000e+00,5.000000000000000000e+00,5.000000000000000000e+00,5.000000000000000000e+00,5.000000000000000000e+00,5.000000000000000000e+00,5.000000000000000000e+00,5.000000000000000000e+00,5.000000000000000000e+00,5.000000000000000000e+00,5.000000000000000000e+00,3.379822969436645508e+00,3.367935895919799805e+00,3.371319055557250977e+00,3.344527721405029297e+00,3.359647035598754883e+00,3.391177177429199219e+00,3.455374002456665039e+00,3.570994615554809570e+00,5.000000000000000000e+00,5.000000000000000000e+00,5.000000000000000000e+00,5.000000000000000000e+00,5.000000000000000000e+00,5.000000000000000000e+00,5.000000000000000000e+00,5.000000000000000000e+00,4.864011287689208984e+00,4.672891139984130859e+00,4.496223449707031250e+00,4.332427024841308594e+00,4.180145263671875000e+00,4.038205146789550781e+00,3.905588388442993164e+00,3.781404495239257812e+00,3.664874792098999023e+00,3.555312156677246094e+00,3.452110290527343750e+00,3.354731082916259766e+00,3.262694597244262695e+00,3.175573348999023438e+00,3.092983961105346680e+00,3.014581441879272461e+00,2.940055608749389648e+00,2.869125604629516602e+00,2.801537275314331055e+00,2.737060308456420898e+00,2.675484180450439453e+00,2.616617679595947266e+00,2.560286045074462891e+00,2.506328582763671875e+00,2.454598426818847656e+00,2.404960393905639648e+00,2.357290506362915039e+00,2.311473369598388672e+00,2.267403364181518555e+00,2.224982261657714844e+00,2.184119701385498047e+00,2.144730806350708008e+00,2.106737375259399414e+00,2.070066452026367188e+00,2.034650564193725586e+00,2.000426292419433594e+00,1.967334032058715820e+00,1.935318589210510254e+00,1.904328823089599609e+00,1.874315857887268066e+00,1.845234274864196777e+00
5.000000000000000000e+00,5.000000000000000000e+00,5.000000000000000000e+00,5.000000000000000000e+00,5.000000000000000000e+00,5.000000000000000000e+00,5.000000000000000000e+00,5.000000000000000000e+00,5.000000000000000000e+00,5.000000000000000000e+00,5.000000000000000000e+00,5.000000000000000000e+00,5.000000000000000000e+00,5.000000000000000000e+00,5.000000000000000000e+00,5.000000000000000000e+00,5.000000000000000000e+00,5.000000000000000000e+00,5.000000000000000000e+00,5.000000000000000000e+00,5.000000000000000000e+00,5.000000000000000000e+00,5.000000000000000000e+00,5.000000000000000000e+00,3.383266925811767578e+00,3.356802463531494141e+00,3.332081556320190430e+00,3.348315000534057617e+00,3.381057739257812500e+00,3.438735961914062500e+00,3.592664241790771484e+00,5.000000000000000000e+00,5.000000000000000000e+00,5.000000000000000000e+00,5.000000000000000000e+00,5.000000000000000000e+00,5.000000000000000000e+00,5.000000000000000000e+00,5.000000000000000000e+00,4.864150047302246094e+00,4.673019886016845703e+00,4.496342182159423828e+00,4.332537174224853516e+00,4.180247783660888672e+00,4.038300991058349609e+00,3.905677795410156250e+00,3.781488418579101562e+00,3.664953708648681641e+00,3.555386304855346680e+00,3.452180147171020508e+00,3.354797124862670898e+00,3.262757062911987305e+00,3.175632953643798828e+00,3.093040227890014648e+00,3.014634847640991211e+00,2.940106391906738281e+00,2.869174003601074219e+00,2.801583290100097656e+00,2.737104177474975586e+00,2.675526142120361328e+00,2.616658210754394531e+00,2.560324430465698242e+00,2.506365299224853516e+00,2.454633712768554688e+00,2.404994487762451172e+00,2.357322931289672852e+00,2.311504840850830078e+00,2.267433643341064453e+00,2.225011587142944336e+00,2.184147834777832031e+00,2.144757747650146484e+00,2.106763601303100586e+00,2.070091724395751953e+00,2.034674882888793945e+00,2.000449657440185547e+00,1.967356681823730469e+00,1.935340762138366699e+00,1.904350280761718750e+00,1.874336361885070801e+00,1.845254063606262207e+00
5.000000000000000000e+00,5.000000000000000000e+00,5.000000000000000000e+00,5.000000000000000000e+00,5.000000000000000000e+00,5.000000000000000000e+00,5.000000000000000000e+00,5.000000000000000000e+00,5.000000000000000000e+00,5.000000000000000000e+00,5.000000000000000000e+00,5.000000000000000000e+00,5.000000000000000000e+00,5.000000000000000000e+00,5.000000000000000000e+00,5.000000000000000000e+00,5.000000000000000000e+00,5.000000000000000000e+00,5.000000000000000000e+00,5.000000000000000000e+00,5.000000000000000000e+00,5.000000000000000000e+00,5.000000000000000000e+00,3.372052669525146484e+00,3.361329555511474609e+00,3.345269680023193359e+00,3.343111991882324219e+00,3.358449697494506836e+00,3.391223430633544922e+00,3.460714340209960938e+00,3.581187963485717773e+00,5.000000000000000000e+00,5.000000000000000000e+00,5.000000000000000000e+00,5.000000000000000000e+00,5.000000000000000000e+00,5.000000000000000000e+00,5.000000000000000000e+00,5.000000000000000000e+00,4.864288806915283203e+00,4.673148155212402344e+00,4.496460914611816406e+00,4.332647800445556641e+00,4.180350780487060547e+00,4.038396835327148438e+00,3.905767440795898438e+00,3.781572818756103516e+00,3.665032386779785156e+00,3.555460691452026367e+00,3.452250480651855469e+00,3.354863166809082031e+00,3.262819528579711914e+00,3.175692081451416016e+00,3.093096256256103516e+00,3.014688491821289062e+00,2.940157175064086914e+00,2.869222164154052734e+00,2.801629781723022461e+00,2.737148284912109375e+00,2.675568342208862305e+00,2.616698265075683594e+00,2.560363054275512695e+00,2.506402492523193359e+00,2.454669237136840820e+00,2.405028343200683594e+00,2.357355833053588867e+00,2.311536073684692383e+00,2.267463684082031250e+00,2.225040674209594727e+00,2.184175729751586914e+00,2.144784927368164062e+00,2.106789588928222656e+00,2.070116758346557617e+00,2.034699440002441406e+00,2.000473260879516602e+00,1.967379570007324219e+00,1.935362815856933594e+00,1.904371380805969238e+00,1.874357104301452637e+00,1.845274209976196289e+00
5.000000000000000000e+00,5.000000000000000000e+00,5.000000000000000000e+00,5.000000000000000000e+00,5.000000000000000000e+00,5.000000000000000000e+00,5.000000000000000000e+00,5.000000000000000000e+00,5.000000000000000000e+00,5.000000000000000000e+00,5.000000000000000000e+00,5.000000000000000000e+00,5.000000000000000000e+00,5.000000000000000000e+00,5.000000000000000000e+00,5.000000000000000000e+00,5.000000000000000000e+00,5.000000000000000000e+00,5.000000000000000000e+00,5.000000000000000000e+00,5.000000000000000000e+00,5.000000000000000000e+00,5.000000000000000000e+00,5.000000000000000000e+00,3.341548204421997070e+00,3.336025953292846680e+00,3.340333700180053711e+00,3.381071805953979492e+00,3.412292957305908203e+00,3.455081701278686523e+00,3.572227954864501953e+00,3.609172344207763672e+00,5.000000000000000000e+00,5.000000000000000000e+00,5.000000000000000000e+00,5.000000000000000000e+00,5.000000000000000000e+00,5.000000000000000000e+00,5.000000000000000000e+00,4.864428043365478516e+00,4.673276424407958984e+00,4.496579647064208984e+00,4.332757949829101562e+00,4.180453300476074219e+00,4.038492679595947266e+00,3.905856847763061523e+00,3.781656742095947266e+00,3.665111303329467773e+00,3.555534839630126953e+00,3.452320575714111328e+00,3.354929208755493164e+00,3.262882471084594727e+00,3.175751209259033203e+00,3.093152523040771484e+00,3.014741897583007812e+00,2.940207958221435547e+00,2.869270563125610352e+00,2.801675796508789062e+00,2.737192153930664062e+00,2.675610542297363281e+00,2.616738557815551758e+00,2.560401439666748047e+00,2.506439208984375000e+00,2.454704523086547852e+00,2.405062437057495117e+00,2.357388496398925781e+00,2.311567544937133789e+00,2.267494201660156250e+00,2.225069761276245117e+00,2.184203863143920898e+00,2.144811868667602539e+00,2.106815576553344727e+00,2.070142030715942383e+00,2.034723758697509766e+00,2.000496625900268555e+00,1.967402338981628418e+00,1.935384750366210938e+00,1.904392838478088379e+00,1.874377846717834473e+00,1.845294117927551270e+00
5.000000000000000000e+00,5.000000000000000000e+00,5.000000000000000000e+00,5.000000000000000000e+00,5.000000000000000000e+00,5.000000000000000000e+00,5.000000000000000000e+00,5.000000000000000000e+00,5.000000000000000000e+00,5.000000000000000000e+00,5.000000000000000000e+00,5.000000000000000000e+00,5.000000000000000000e+00,5.000000000000000000e+00,5.000000000000000000e+00,5.000000000000000000e+00,5.000000000000000000e+00,5.000000000000000000e+00,5.000000000000000000e+00,5.000000000000000000e+00,5.000000000000000000e+00,5.000000000000000000e+00,5.000000000000000000e+00,5.000000000000000000e+00,3.315982103347778320e+00,3.318042516708374023e+00,3.325960397720336914e+00,3.390842676162719727e+00,3.385938167572021484e+00,3.382333040237426758e+00,3.581972599029541016e+00,3.561624765396118164e+00,5.000000000000000000e+00,5.000000000000000000e+00,5.000000000000000000e+00,5.000000000000000000e+00,5.000000000000000000e+00,5.000000000000000000e+00,5.000000000000000000e+00,4.864567279815673828e+00,4.673404693603515625e+00,4.496698856353759766e+00,4.332868099212646484e+00,4.180555820465087891e+00,4.038588523864746094e+00,3.905946969985961914e+00,3.781740665435791016e+00,3.665190219879150391e+00,3.555609464645385742e+00,3.452390432357788086e+00,3.354995250701904297e+00,3.262944936752319336e+00,3.175810575485229492e+00,3.093209028244018555e+00,3.014795064926147461e+00,2.940258741378784180e+00,2.869319200515747070e+00,2.801721811294555664e+00,2.737236261367797852e+00,2.675652503967285156e+00,2.616778612136840820e+00,2.560440063476562500e+00,2.506476163864135742e+00,2.454740047454833984e+00,2.405096530914306641e+00,2.357421159744262695e+00,2.311598777770996094e+00,2.267524242401123047e+00,2.225098848342895508e+00,2.184231996536254883e+00,2.144838809967041016e+00,2.106841802597045898e+00,2.070167303085327148e+00,2.034748077392578125e+00,2.000520229339599609e+00,1.967424988746643066e+00,1.935406804084777832e+00,1.904414176940917969e+00,1.874398350715637207e+00,1.845314145088195801e+00
5.000000000000000000e+00,5.000000000000000000e+00,5.000000000000000000e+00,5.000000000000000000e+00,5.000000000000000000e+00,5.000000000000000000e+00,5.000000000000000000e+00,5.000000000000000000e+00,5.000000000000000000e+00,5.000000000000000000e+00,5.000000000000000000e+00,5.000000000000000000e+00,5.000000000000000000e+00,5.000000000000000000e+00,5.000000000000000000e+00,5.000000000000000000e+00,5.000000000000000000e+00,5.000000000000000000e+00,5.000000000000000000e+00,5.000000000000000000e+00,5.000000000000000000e+00,5.000000000000000000e+00,5.000000000000000000e+00,5.000000000000000000e+00,3.310782194137573242e+00,3.316087245941162109e+00,3.320533514022827148e+00,3.364351034164428711e+00,3.367657423019409180e+00,3.362489461898803711e+00,3.425702571868896484e+00,3.547138690948486328e+00,5.000000000000000000e+00,5.000000000000000000e+00,5.000000000000000000e+00,5.000000000000000000e+00,5.000000000000000000e+00,5.000000000000000000e+00,5.000000000000000000e+00,4.864706039428710938e+00,4.673532962799072266e+00,4.496817588806152344e+00,4.332978725433349609e+00,4.180658817291259766e+00,4.038684368133544922e+00,3.906036615371704102e+00,3.781824588775634766e+00,3.665269136428833008e+00,3.555683612823486328e+00,3.452460527420043945e+00,3.355061769485473633e+00,3.263007402420043945e+00,3.175869703292846680e+00,3.093265056610107422e+00,3.014848470687866211e+00,2.940309524536132812e+00,2.869367599487304688e+00,2.801767826080322266e+00,2.737280368804931641e+00,2.675694465637207031e+00,2.616818904876708984e+00,2.560478687286376953e+00,2.506513118743896484e+00,2.454775333404541016e+00,2.405130386352539062e+00,2.357453823089599609e+00,2.311630487442016602e+00,2.267554521560668945e+00,2.225127935409545898e+00,2.184259891510009766e+00,2.144865989685058594e+00,2.106867790222167969e+00,2.070192337036132812e+00,2.034772396087646484e+00,2.000543832778930664e+00,1.967447757720947266e+00,1.935428619384765625e+00,1.904435396194458008e+00,1.874419093132019043e+00,1.845334053039550781e+00
5.000000000000000000e+00,5.000000000000000000e+00,5.000000000000000000e+00,5.000000000000000000e+00,5.000000000000000000e+00,5.000000000000000000e+00,5.000000000000000000e+00,5.000000000000000000e+00,5.000000000000000000e+00,5.000000000000000000e+00,5.000000000000000000e+00,5.000000000000000000e+00,5.000000000000000000e+00,5.000000000000000000e+00,5.000000000000000000e+00,5.000000000000000000e+00,5.000000000000000000e+00,5.000000000000000000e+00,5.000000000000000000e+00,5.000000000000000000e+00,5.000000000000000000e+00,5.000000000000000000e+00,5.000000000000000000e+00,5.000000000000000000e+00,3.275473594665527344e+00,3.325312852859497070e+00,3.322230577468872070e+00,3.361907243728637695e+00,3.366508483886718750e+00,3.347384929656982422e+00,3.391949176788330078e+00,3.526430606842041016e+00,5.000000000000000000e+00,5.000000000000000000e+00,5.000000000000000000e+00,5.000000000000000000e+00,5.000000000000000000e+00,5.000000000000000000e+00,5.000000000000000000e+00,4.864845275878906250e+00,4.673661231994628906e+00,4.496936321258544922e+00,4.333088874816894531e+00,4.180761337280273438e+00,4.038780212402343750e+00,3.906126022338867188e+00,3.781908750534057617e+00,3.665348291397094727e+00,3.555757999420166016e+00,3.452530384063720703e+00,3.355127811431884766e+00,3.263069868087768555e+00,3.175928831100463867e+00,3.093321323394775391e+00,3.014901876449584961e+00,2.940360546112060547e+00,2.869415760040283203e+00,2.801814079284667969e+00,2.737324476242065430e+00,2.675736665725708008e+00,2.616859197616577148e+00,2.560517072677612305e+00,2.506550073623657227e+00,2.454810857772827148e+00,2.405164480209350586e+00,2.357486248016357422e+00,2.311661720275878906e+00,2.267584562301635742e+00,2.225157022476196289e+00,2.184288024902343750e+00,2.144892930984497070e+00,2.106894016265869141e+00,2.070217609405517578e+00,2.034796476364135742e+00,2.000567197799682617e+00,1.967470407485961914e+00,1.935450792312622070e+00,1.904456853866577148e+00,1.874439597129821777e+00,1.845354199409484863e+00
5.000000000000000000e+00,5.000000000000000000e+00,5.000000000000000000e+00,5.000000000000000000e+00,5.000000000000000000e+00,5.000000000000000000e+00,5.000000000000000000e+00,5.000000000000000000e+00,5.000000000000000000e+00,5.000000000000000000e+00,5.000000000000000000e+00,5.000000000000000000e+00,5.000000000000000000e+00,5.000000000000000000e+00,5.000000000000000000e+00,5.000000000000000000e+00,5.000000000000000000e+00,5.000000000000000000e+00,5.000000000000000000e+00,5.000000000000000000e+00,5.000000000000000000e+00,5.000000000000000000e+00,5.000000000000000000e+00,5.000000000000000000e+00,3.244827270507812500e+00,3.351346969604492188e+00,3.325171947479248047e+00,3.358420848846435547e+00,3.364852905273437500e+00,3.330029964447021484e+00,3.355475902557373047e+00,5.000000000000000000e+00,5.000000000000000000e+00,5.000000000000000000e+00,5.000000000000000000e+00,5.000000000000000000e+00,5.000000000000000000e+00,5.000000000000000000e+00,5.000000000000000000e+00,4.864984512329101562e+00,4.673789978027343750e+00,4.497055053710937500e+00,4.333199024200439453e+00,4.180864334106445312e+00,4.038876056671142578e+00,3.906215667724609375e+00,3.781992673873901367e+00,3.665427207946777344e+00,3.555832147598266602e+00,3.452600717544555664e+00,3.355193853378295898e+00,3.263132572174072266e+00,3.175988435745239258e+00,3.093377590179443359e+00,3.014955282211303711e+00,2.940411329269409180e+00,2.869464159011840820e+00,2.801860332489013672e+00,2.737368345260620117e+00,2.675778627395629883e+00,2.616899490356445312e+00,2.560555696487426758e+00,2.506586790084838867e+00,2.454846382141113281e+00,2.405198335647583008e+00,2.357519149780273438e+00,2.311693191528320312e+00,2.267614841461181641e+00,2.225186109542846680e+00,2.184315919876098633e+00,2.144919872283935547e+00,2.106920003890991211e+00,2.070242881774902344e+00,2.034821033477783203e+00,2.000590801239013672e+00,1.967493295669555664e+00,1.935472846031188965e+00,1.904477953910827637e+00,1.874460339546203613e+00,1.845374226570129395e+00
5.000000000000000000e+00,5.000000000000000000e+00,5.000000000000000000e+00,5.000000000000000000e+00,5.000000000000000000e+00,5.000000000000000000e+00,5.000000000000000000e+00,5.000000000000000000e+00,5.000000000000000000e+00,5.000000000000000000e+00,5.000000000000000000e+00,5.000000000000000000e+00,5.000000000000000000e+00,5.000000000000000000e+00,5.000000000000000000e+00,5.000000000000000000e+00,5.000000000000000000e+00,5.000000000000000000e+00,5.000000000000000000e+00,5.000000000000000000e+00,5.000000000000000000e+00,5.000000000000000000e+00,5.000000000000000000e+00,5.000000000000000000e+00,5.000000000000000000e+00,3.390022516250610352e+00,3.323995828628540039e+00,3.354841947555541992e+00,3.372558116912841797e+00,3.309553861618041992e+00,3.326090097427368164e+00,5.000000000000000000e+00,5.000000000000000000e+00,5.000000000000000000e+00,5.000000000000000000e+00,5.000000000000000000e+00,5.000000000000000000e+00,5.000000000000000000e+00,5.000000000000000000e+00,4.865123271942138672e+00,4.673918247222900391e+00,4.497173786163330078e+00,4.333309650421142578e+00,4.180966854095458984e+00,4.038971900939941406e+00,3.906305313110351562e+00,3.782077074050903320e+00,3.665506124496459961e+00,3.555906295776367188e+00,3.452670812606811523e+00,3.355259895324707031e+00,3.263195037841796875e+00,3.176047563552856445e+00,3.093433618545532227e+00,3.015008926391601562e+00,2.940462112426757812e+00,2.869512557983398438e+00,2.801906347274780273e+00,2.737412452697753906e+00,2.675820589065551758e+00,2.616939783096313477e+00,2.560594081878662109e+00,2.506623983383178711e+00,2.454881668090820312e+00,2.405232429504394531e+00,2.357551813125610352e+00,2.311724662780761719e+00,2.267645120620727539e+00,2.225215196609497070e+00,2.184344053268432617e+00,2.144947052001953125e+00,2.106945991516113281e+00,2.070267915725708008e+00,2.034845352172851562e+00,2.000614166259765625e+00,1.967515826225280762e+00,1.935494780540466309e+00,1.904499411582946777e+00,1.874481081962585449e+00,1.845394134521484375e+00
5.000000000000000000e+00,5.000000000000000000e+00,5.000000000000000000e+00,5.000000000000000000e+00,5.000000000000000000e+00,5.000000000000000000e+00,5.000000000000000000e+00,5.000000000000000000e+00,5.000000000000000000e+00,5.000000000000000000e+00,5.000000000000000000e+00,5.000000000000000000e+00,5.000000000000000000e+00,5.000000000000000000e+00,5.000000000000000000e+00,5.000000000000000000e+00,5.000000000000000000e+00,5.000000000000000000e+00,5.000000000000000000e+00,5.000000000000000000e+00,5.000000000000000000e+00,5.000000000000000000e+00,5.000000000000000000e+00,5.000000000000000000e+00,5.000000000000000000e+00,5.000000000000000000e+00,3.327703475952148438e+00,3.348134517669677734e+00,5.000000000000000000e+00,3.304684162139892578e+00,3.311877489089965820e+00,5.000000000000000000e+00,5.000000000000000000e+00,5.000000000000000000e+00,5.000000000000000000e+00,5.000000000000000000e+00,5.000000000000000000e+00,5.000000000000000000e+00,5.000000000000000000e+00,4.865262508392333984e+00,4.674046516418457031e+00,4.497292518615722656e+00,4.333419799804687500e+00,4.181069850921630859e+00,4.039067745208740234e+00,3.906394958496093750e+00,3.782160997390747070e+00,3.665585041046142578e+00,3.555980682373046875e+00,3.452740669250488281e+00,3.355326175689697266e+00,3.263257741928100586e+00,3.176106929779052734e+00,3.093489885330200195e+00,3.015062332153320312e+00,2.940512895584106445e+00,2.869560956954956055e+00,2.801952600479125977e+00,2.737456321716308594e+00,2.675863027572631836e+00,2.616979837417602539e+00,2.560632467269897461e+00,2.506660938262939453e+00,2.454916954040527344e+00,2.405266284942626953e+00,2.357584476470947266e+00,2.311755895614624023e+00,2.267675399780273438e+00,2.225244283676147461e+00,2.184371948242187500e+00,2.144973993301391602e+00,2.106972217559814453e+00,2.070293188095092773e+00,2.034869670867919922e+00,2.000637769699096680e+00,1.967538714408874512e+00,1.935516834259033203e+00,1.904520630836486816e+00,1.874501585960388184e+00,1.845414280891418457e+00
5.000000000000000000e+00,5.000000000000000000e+00,5.000000000000000000e+00,5.000000000000000000e+00,5.000000000000000000e+00,5.000000000000000000e+00,5.000000000000000000e+00,5.000000000000000000e+00,5.000000000000000000e+00,5.000000000000000000e+00,5.000000000000000000e+00,5.000000000000000000e+00,5.000000000000000000e+00,5.000000000000000000e+00,5.000000000000000000e+00,5.000000000000000000e+00,5.000000000000000000e+00,5.000000000000000000e+00,5.000000000000000000e+00,5.000000000000000000e+00,5.000000000000000000e+00,5.000000000000000000e+00,5.000000000000000000e+00,5.000000000000000000e+00,5.000000000000000000e+00,5.000000000000000000e+00,3.339303731918334961e+00,3.347029685974121094e+00,5.000000000000000000e+00,3.315441131591796875e+00,3.319623708724975586e+00,5.000000000000000000e+00,5.000000000000000000e+00,5.000000000000000000e+00,5.000000000000000000e+00,5.000000000000000000e+00,5.000000000000000000e+00,5.000000000000000000e+00,5.000000000000000000e+00,4.865401744842529297e+00,4.674174785614013672e+00,4.497411727905273438e+00,4.333529949188232422e+00,4.181172370910644531e+00,4.039163589477539062e+00,3.906484842300415039e+00,3.782244920730590820e+00,3.665663957595825195e+00,3.556055307388305664e+00,3.452810764312744141e+00,3.355392217636108398e+00,3.263320207595825195e+00,3.176166057586669922e+00,3.093546390533447266e+00,3.015115499496459961e+00,2.940563440322875977e+00,2.869609355926513672e+00,2.801998615264892578e+00,2.737500429153442383e+00,2.675904989242553711e+00,2.617020130157470703e+00,2.560671329498291016e+00,2.506697654724121094e+00,2.454952478408813477e+00,2.405300378799438477e+00,2.357617139816284180e+00,2.311787366867065430e+00,2.267705678939819336e+00,2.225273370742797852e+00,2.184400081634521484e+00,2.145001173019409180e+00,2.106998205184936523e+00,2.070318460464477539e+00,2.034893989562988281e+00,2.000661373138427734e+00,1.967561602592468262e+00,1.935538768768310547e+00,1.904541969299316406e+00,1.874522328376770020e+00,1.845434188842773438e+00
5.000000000000000000e+00,5.000000000000000000e+00,5.000000000000000000e+00,5.000000000000000000e+00,5.000000000000000000e+00,5.000000000000000000e+00,5.000000000000000000e+00,5.000000000000000000e+00,5.000000000000000000e+00,5.000000000000000000e+00,5.000000000000000000e+00,5.000000000000000000e+00,5.000000000000000000e+00,5.000000000000000000e+00,5.000000000000000000e+00,5.000000000000000000e+00,5.000000000000000000e+00,5.000000000000000000e+00,5.000000000000000000e+00,5.000000000000000000e+00,5.000000000000000000e+00,5.000000000000000000e+00,5.000000000000000000e+00,5.000000000000000000e+00,5.000000000000000000e+00,5.000000000000000000e+00,3.369085311889648438e+00,3.384749650955200195e+00,3.420928001403808594e+00,3.366076231002807617e+00,3.414036035537719727e+00,5.000000000000000000e+00,5.000000000000000000e+00,5.000000000000000000e+00,5.000000000000000000e+00,5.000000000000000000e+00,5.000000000000000000e+00,5.000000000000000000e+00,5.000000000000000000e+00,4.865539550781250000e+00,4.674303054809570312e+00,4.497530460357666016e+00,4.333640575408935547e+00,4.181274890899658203e+00,4.039259433746337891e+00,3.906574487686157227e+00,3.782329082489013672e+00,3.665742874145507812e+00,3.556129455566406250e+00,3.452880620956420898e+00,3.355458736419677734e+00,3.263382911682128906e+00,3.176225423812866211e+00,3.093602657318115234e+00,3.015168905258178711e+00,2.940614223480224609e+00,2.869657754898071289e+00,2.802044630050659180e+00,2.737544536590576172e+00,2.675946950912475586e+00,2.617060422897338867e+00,2.560709714889526367e+00,2.506734609603881836e+00,2.454987764358520508e+00,2.405334472656250000e+00,2.357649564743041992e+00,2.311818838119506836e+00,2.267735719680786133e+00,2.225302457809448242e+00,2.184428215026855469e+00,2.145028114318847656e+00,2.107024192810058594e+00,2.070343494415283203e+00,2.034918308258056641e+00,2.000684976577758789e+00,1.967584133148193359e+00,1.935560822486877441e+00,1.904563426971435547e+00,1.874542832374572754e+00,1.845454216003417969e+00
5.000000000000000000e+00,5.000000000000000000e+00,5.000000000000000000e+00,5.000000000000000000e+00,5.000000000000000000e+00,5.000000000000000000e+00,5.000000000000000000e+00,5.000000000000000000e+00,5.000000000000000000e+00,5.000000000000000000e+00,5.000000000000000000e+00,5.000000000000000000e+00,5.000000000000000000e+00,5.000000000000000000e+00,5.000000000000000000e+00,5.000000000000000000e+00,5.000000000000000000e+00,5.000000000000000000e+00,5.000000000000000000e+00,5.000000000000000000e+00,5.000000000000000000e+00,5.000000000000000000e+00,5.000000000000000000e+00,5.000000000000000000e+00,5.000000000000000000e+00,5.000000000000000000e+00,3.398818016052246094e+00,3.444449424743652344e+00,3.440256834030151367e+00,3.418748617172241211e+00,5.000000000000000000e+00,5.000000000000000000e+00,5.000000000000000000e+00,5.000000000000000000e+00,5.000000000000000000e+00,5.000000000000000000e+00,5.000000000000000000e+00,5.000000000000000000e+00,5.000000000000000000e+00,4.865677833557128906e+00,4.674430847167968750e+00,4.497649192810058594e+00,4.333750724792480469e+00,4.181377887725830078e+00,4.039355278015136719e+00,3.906664133071899414e+00,3.782413005828857422e+00,3.665822029113769531e+00,3.556203603744506836e+00,3.452950716018676758e+00,3.355524778366088867e+00,3.263445377349853516e+00,3.176284551620483398e+00,3.093658685684204102e+00,3.015222311019897461e+00,2.940665245056152344e+00,2.869706153869628906e+00,2.802090883255004883e+00,2.737588644027709961e+00,2.675989151000976562e+00,2.617100477218627930e+00,2.560748338699340820e+00,2.506771564483642578e+00,2.455023288726806641e+00,2.405368328094482422e+00,2.357682228088378906e+00,2.311850309371948242e+00,2.267765998840332031e+00,2.225331544876098633e+00,2.184456110000610352e+00,2.145055055618286133e+00,2.107050418853759766e+00,2.070368766784667969e+00,2.034942626953125000e+00,2.000708341598510742e+00,1.967607021331787109e+00,1.935582756996154785e+00,1.904584527015686035e+00,1.874563574790954590e+00,1.845474362373352051e+00
5.000000000000000000e+00,5.000000000000000000e+00,5.000000000000000000e+00,5.000000000000000000e+00,5.000000000000000000e+00,5.000000000000000000e+00,5.000000000000000000e+00,5.000000000000000000e+00,5.000000000000000000e+00,5.000000000000000000e+00,5.000000000000000000e+00,5.000000000000000000e+00,5.000000000000000000e+00,5.000000000000000000e+00,5.000000000000000000e+00,5.000000000000000000e+00,5.000000000000000000e+00,5.000000000000000000e+00,5.000000000000000000e+00,5.000000000000000000e+00,5.000000000000000000e+00,5.000000000000000000e+00,5.000000000000000000e+00,5.000000000000000000e+00,5.000000000000000000e+00,5.000000000000000000e+00,3.414882898330688477e+00,3.458174705505371094e+00,3.463006496429443359e+00,3.456028938293457031e+00,5.000000000000000000e+00,5.000000000000000000e+00,5.000000000000000000e+00,5.000000000000000000e+00,5.000000000000000000e+00,5.000000000000000000e+00,5.000000000000000000e+00,5.000000000000000000e+00,5.000000000000000000e+00,4.865816593170166016e+00,4.674558639526367188e+00,4.497768402099609375e+00,4.333861351013183594e+00,4.181480407714843750e+00,4.039451122283935547e+00,3.906753778457641602e+00,3.782496929168701172e+00,3.665900945663452148e+00,3.556277990341186523e+00,3.453021049499511719e+00,3.355590820312500000e+00,3.263507843017578125e+00,3.176344156265258789e+00,3.093714952468872070e+00,3.015275716781616211e+00,2.940716028213500977e+00,2.869754552841186523e+00,2.802137136459350586e+00,2.737632513046264648e+00,2.676031112670898438e+00,2.617141008377075195e+00,2.560786724090576172e+00,2.506808280944824219e+00,2.455058813095092773e+00,2.405402421951293945e+00,2.357715129852294922e+00,2.311881542205810547e+00,2.267796039581298828e+00,2.225360631942749023e+00,2.184484243392944336e+00,2.145082235336303711e+00,2.107076406478881836e+00,2.070393800735473633e+00,2.034966945648193359e+00,2.000731945037841797e+00,1.967629671096801758e+00,1.935604810714721680e+00,1.904605984687805176e+00,1.874584078788757324e+00,1.845494270324707031e+00
5.000000000000000000e+00,5.000000000000000000e+00,5.000000000000000000e+00,5.000000000000000000e+00,5.000000000000000000e+00,5.000000000000000000e+00,5.000000000000000000e+00,5.000000000000000000e+00,5.000000000000000000e+00,5.000000000000000000e+00,5.000000000000000000e+00,5.000000000000000000e+00,5.000000000000000000e+00,5.000000000000000000e+00,5.000000000000000000e+00,5.000000000000000000e+00,5.000000000000000000e+00,5.000000000000000000e+00,5.000000000000000000e+00,5.000000000000000000e+00,5.000000000000000000e+00,5.000000000000000000e+00,5.000000000000000000e+00,5.000000000000000000e+00,5.000000000000000000e+00,5.000000000000000000e+00,3.433394670486450195e+00,3.471707105636596680e+00,3.494456529617309570e+00,5.000000000000000000e+00,5.000000000000000000e+00,5.000000000000000000e+00,5.000000000000000000e+00,5.000000000000000000e+00,5.000000000000000000e+00,5.000000000000000000e+00,5.000000000000000000e+00,5.000000000000000000e+00,5.000000000000000000e+00,4.865955352783203125e+00,4.674686908721923828e+00,4.497886180877685547e+00,4.333971977233886719e+00,4.181582927703857422e+00,4.039546966552734375e+00,3.906843423843383789e+00,3.782581329345703125e+00,3.665979862213134766e+00,3.556352138519287109e+00,3.453091144561767578e+00,3.355656862258911133e+00,3.263570547103881836e+00,3.176403284072875977e+00,3.093771219253540039e+00,3.015329360961914062e+00,2.940766811370849609e+00,2.869802951812744141e+00,2.802183151245117188e+00,2.737676620483398438e+00,2.676073074340820312e+00,2.617181301116943359e+00,2.560825347900390625e+00,2.506845474243164062e+00,2.455094099044799805e+00,2.405436277389526367e+00,2.357747793197631836e+00,2.311913013458251953e+00,2.267826318740844727e+00,2.225389719009399414e+00,2.184512138366699219e+00,2.145109176635742188e+00,2.107102632522583008e+00,2.070419073104858398e+00,2.034991264343261719e+00,2.000755310058593750e+00,1.967652440071105957e+00,1.935626983642578125e+00,1.904627203941345215e+00,1.874604821205139160e+00,1.845514297485351562e+00
5.000000000000000000e+00,5.000000000000000000e+00,5.000000000000000000e+00,5.000000000000000000e+00,5.000000000000000000e+00,5.000000000000000000e+00,5.000000000000000000e+00,5.000000000000000000e+00,5.000000000000000000e+00,5.000000000000000000e+00,5.000000000000000000e+00,5.000000000000000000e+00,5.000000000000000000e+00,5.000000000000000000e+00,5.000000000000000000e+00,5.000000000000000000e+00,5.000000000000000000e+00,5.000000000000000000e+00,5.000000000000000000e+00,5.000000000000000000e+00,5.000000000000000000e+00,5.000000000000000000e+00,5.000000000000000000e+00,5.000000000000000000e+00,5.000000000000000000e+00,5.000000000000000000e+00,3.458017587661743164e+00,3.490809917449951172e+00,3.534855365753173828e+00,5.000000000000000000e+00,5.000000000000000000e+00,5.000000000000000000e+00,5.000000000000000000e+00,5.000000000000000000e+00,5.000000000000000000e+00,5.000000000000000000e+00,5.000000000000000000e+00,5.000000000000000000e+00,5.000000000000000000e+00,4.866094112396240234e+00,4.674814701080322266e+00,4.498003959655761719e+00,4.334081172943115234e+00,4.181685924530029297e+00,4.039642810821533203e+00,3.906933069229125977e+00,3.782665491104125977e+00,3.666058778762817383e+00,3.556426525115966797e+00,3.453161001205444336e+00,3.355723142623901367e+00,3.263633251190185547e+00,3.176462650299072266e+00,3.093827247619628906e+00,3.015382766723632812e+00,2.940817594528198242e+00,2.869851112365722656e+00,2.802229404449462891e+00,2.737720489501953125e+00,2.676115274429321289e+00,2.617221355438232422e+00,2.560863733291625977e+00,2.506882429122924805e+00,2.455129623413085938e+00,2.405470371246337891e+00,2.357780456542968750e+00,2.311944246292114258e+00,2.267856597900390625e+00,2.225418806076049805e+00,2.184540271759033203e+00,2.145136356353759766e+00,2.107128620147705078e+00,2.070444107055664062e+00,2.035015583038330078e+00,2.000778913497924805e+00,1.967675328254699707e+00,1.935648798942565918e+00,1.904648542404174805e+00,1.874625563621520996e+00,1.845534205436706543e+00
5.000000000000000000e+00,5.000000000000000000e+00,5.000000000000000000e+00,5.000000000000000000e+00,5.000000000000000000e+00,5.000000000000000000e+00,5.000000000000000000e+00,5.000000000000000000e+00,5.000000000000000000e+00,5.000000000000000000e+00,5.000000000000000000e+00,5.000000000000000000e+00,5.000000000000000000e+00,5.000000000000000000e+00,5.000000000000000000e+00,5.000000000000000000e+00,5.000000000000000000e+00,5.000000000000000000e+00,5.000000000000000000e+00,5.000000000000000000e+00,5.000000000000000000e+00,5.000000000000000000e+00,5.000000000000000000e+00,5.000000000000000000e+00,5.000000000000000000e+00,5.000000000000000000e+00,3.484380960464477539e+00,5.000000000000000000e+00,3.551326513290405273e+00,5.000000000000000000e+00,5.000000000000000000e+00,5.000000000000000000e+00,5.000000000000000000e+00,5.000000000000000000e+00,5.000000000000000000e+00,5.000000000000000000e+00,5.000000000000000000e+00,5.000000000000000000e+00,5.000000000000000000e+00,4.866232872009277344e+00,4.674942493438720703e+00,4.498122692108154297e+00,4.334190845489501953e+00,4.181787967681884766e+00,4.039739131927490234e+00,3.907022953033447266e+00,3.782749414443969727e+00,3.666137695312500000e+00,3.556501150131225586e+00,3.453231096267700195e+00,3.355789184570312500e+00,3.263695716857910156e+00,3.176521778106689453e+00,3.093883752822875977e+00,3.015436172485351562e+00,2.940868377685546875e+00,2.869899749755859375e+00,2.802275419235229492e+00,2.737764596939086914e+00,2.676157474517822266e+00,2.617261648178100586e+00,2.560902357101440430e+00,2.506919384002685547e+00,2.455164909362792969e+00,2.405504465103149414e+00,2.357813119888305664e+00,2.311975717544555664e+00,2.267886877059936523e+00,2.225447893142700195e+00,2.184568405151367188e+00,2.145163297653198242e+00,2.107154607772827148e+00,2.070469617843627930e+00,2.035039901733398438e+00,2.000802278518676758e+00,1.967697978019714355e+00,1.935670971870422363e+00,1.904670000076293945e+00,1.874646067619323730e+00,1.845554351806640625e+00
4.875521183013916016e+00,4.874310493469238281e+00,4.873099327087402344e+00,4.871889591217041016e+00,4.870680332183837891e+00,4.869471073150634766e+00,4.868262767791748047e+00,4.867055416107177734e+00,4.865848064422607422e+00,4.864642143249511719e+00,4.863435745239257812e+00,4.862230777740478516e+00,4.861026287078857422e+00,4.859821796417236328e+00,4.858618736267089844e+00,4.857416152954101562e+00,4.856213569641113281e+00,4.855011940002441406e+00,4.853811264038085938e+00,4.852610588073730469e+00,4.851410865783691406e+00,4.850211620330810547e+00,4.849012851715087891e+00,4.847814559936523438e+00,4.846617221832275391e+00,4.845420360565185547e+00,3.512554645538330078e+00,3.515882492065429688e+00,3.514784336090087891e+00,3.570253849029541016e+00,4.839444637298583984e+00,4.838251113891601562e+00,4.837058544158935547e+00,4.835866451263427734e+00,4.834674358367919922e+00,4.833483695983886719e+00,4.832293033599853516e+00,4.831103324890136719e+00,4.829914093017578125e+00,4.828725337982177734e+00,4.675070285797119141e+00,4.498240947723388672e+00,4.334300994873046875e+00,4.181890487670898438e+00,4.039834976196289062e+00,3.907112598419189453e+00,3.782833337783813477e+00,3.666216611862182617e+00,3.556575298309326172e+00,3.453301191329956055e+00,3.355855703353881836e+00,3.263758420944213867e+00,3.176581144332885742e+00,3.093940019607543945e+00,3.015489578247070312e+00,2.940919160842895508e+00,2.869948148727416992e+00,2.802321672439575195e+00,2.737808704376220703e+00,2.676199436187744141e+00,2.617301940917968750e+00,2.560940980911254883e+00,2.506956100463867188e+00,2.455200195312500000e+00,2.405538320541381836e+00,2.357845544815063477e+00,2.312007188796997070e+00,2.267917156219482422e+00,2.225476980209350586e+00,2.184596300125122070e+00,2.145190238952636719e+00,2.107180833816528320e+00,2.070494651794433594e+00,2.035064220428466797e+00,2.000826120376586914e+00,1.967720746994018555e+00,1.935692787170410156e+00,1.904691219329833984e+00,1.874666810035705566e+00,1.845574259757995605e+00
3.778318166732788086e+00,3.777590751647949219e+00,3.776863813400268555e+00,3.776136875152587891e+00,3.775410413742065430e+00,3.774683713912963867e+00,3.773957729339599609e+00,3.773231983184814453e+00,3.772506475448608398e+00,3.771781444549560547e+00,3.771056175231933594e+00,3.770331621170043945e+00,3.769607305526733398e+00,3.768883228302001953e+00,3.768159389495849609e+00,3.767436027526855469e+00,3.766712427139282227e+00,3.765989542007446289e+00,3.765266895294189453e+00,3.764544486999511719e+00,3.763822317123413086e+00,3.763100624084472656e+00,3.762378692626953125e+00,3.761657476425170898e+00,3.760936498641967773e+00,3.760215759277343750e+00,3.759495258331298828e+00,3.429325103759765625e+00,3.758054971694946289e+00,3.757335186004638672e+00,3.756615877151489258e+00,3.755896806716918945e+00,3.755178213119506836e+00,3.754459619522094727e+00,3.753741025924682617e+00,3.753023147583007812e+00,3.752305269241333008e+00,3.751587867736816406e+00,3.750870943069458008e+00,3.750154018402099609e+00,3.749437093734741211e+00,3.748720645904541016e+00,3.748004674911499023e+00,3.747288942337036133e+00,3.746573448181152344e+00,3.745858192443847656e+00,3.745142936706542969e+00,3.666296005249023438e+00,3.556649684906005859e+00,3.453371047973632812e+00,3.355921745300292969e+00,3.263820886611938477e+00,3.176640272140502930e+00,3.093996286392211914e+00,3.015542984008789062e+00,2.940970182418823242e+00,2.869996547698974609e+00,2.802367687225341797e+00,2.737852811813354492e+00,2.676241636276245117e+00,2.617341995239257812e+00,2.560979366302490234e+00,2.506993055343627930e+00,2.455235958099365234e+00,2.405572414398193359e+00,2.357878208160400391e+00,2.312038660049438477e+00,2.267947196960449219e+00,2.225506067276000977e+00,2.184624433517456055e+00,2.145217418670654297e+00,2.107207059860229492e+00,2.070519924163818359e+00,2.035088539123535156e+00,2.000849485397338867e+00,1.967743396759033203e+00,1.935714960098266602e+00,1.904712557792663574e+00,1.874687433242797852e+00,1.845594286918640137e+00
3.084232807159423828e+00,3.083748102188110352e+00,3.083263158798217773e+00,3.082778930664062500e+00,3.082294702529907227e+00,3.081810474395751953e+00,3.081326484680175781e+00,3.080842733383178711e+00,3.080358982086181641e+00,3.079875469207763672e+00,3.079392194747924805e+00,3.078908920288085938e+00,3.078425884246826172e+00,3.077942609786987305e+00,3.077460050582885742e+00,3.076977491378784180e+00,3.076494932174682617e+00,3.076012611389160156e+00,3.075530529022216797e+00,3.075048446655273438e+00,3.074566602706909180e+00,3.074084758758544922e+00,3.073603391647338867e+00,3.073122024536132812e+00,3.072640657424926758e+00,3.072159290313720703e+00,3.071678400039672852e+00,3.071197748184204102e+00,3.070717096328735352e+00,3.070236682891845703e+00,3.069756269454956055e+00,3.069275856018066406e+00,3.068795919418334961e+00,3.068315982818603516e+00,3.067836284637451172e+00,3.067356824874877930e+00,3.066877365112304688e+00,3.066397905349731445e+00,3.065918684005737305e+00,3.065439701080322266e+00,3.064960956573486328e+00,3.064482450485229492e+00,3.064003467559814453e+00,3.063525199890136719e+00,3.063046932220458984e+00,3.062568902969360352e+00,3.062090873718261719e+00,3.061613321304321289e+00,3.061135292053222656e+00,3.060657978057861328e+00,3.060180425643920898e+00,3.059703350067138672e+00,3.059226274490356445e+00,3.058749437332153320e+00,3.015596389770507812e+00,2.941020965576171875e+00,2.870044946670532227e+00,2.802413940429687500e+00,2.737896919250488281e+00,2.676283597946166992e+00,2.617382526397705078e+00,2.561017990112304688e+00,2.507030010223388672e+00,2.455271244049072266e+00,2.405606269836425781e+00,2.357911109924316406e+00,2.312070131301879883e+00,2.267977476119995117e+00,2.225535392761230469e+00,2.184652328491210938e+00,2.145244359970092773e+00,2.107233047485351562e+00,2.070544958114624023e+00,2.035113096237182617e+00,2.000873088836669922e+00,1.967766284942626953e+00,1.935737013816833496e+00,1.904733777046203613e+00,1.874708056449890137e+00,1.845614433288574219e+00
2.605581283569335938e+00,2.605235338211059570e+00,2.604889631271362305e+00,2.604543924331665039e+00,2.604198217391967773e+00,2.603852510452270508e+00,2.603507041931152344e+00,2.603161573410034180e+00,2.602816343307495117e+00,2.602471113204956055e+00,2.602125644683837891e+00,2.601780652999877930e+00,2.601435661315917969e+00,2.601090908050537109e+00,2.600746154785156250e+00,2.600401639938354492e+00,2.600056886672973633e+00,2.599712371826171875e+00,2.599367856979370117e+00,2.599023580551147461e+00,2.598679304122924805e+00,2.598335266113281250e+00,2.597990989685058594e+00,2.597647190093994141e+00,2.597303390502929688e+00,2.596959590911865234e+00,2.596616029739379883e+00,2.596272468566894531e+00,2.595928668975830078e+00,2.595585346221923828e+00,2.595242023468017578e+00,2.594898939132690430e+00,2.594555616378784180e+00,2.594212770462036133e+00,2.593869686126708984e+00,2.593526840209960938e+00,2.593183994293212891e+00,2.592841386795043945e+00,2.592498779296875000e+00,2.592156410217285156e+00,2.591813802719116211e+00,2.591471433639526367e+00,2.591129302978515625e+00,2.590787172317504883e+00,2.590445041656494141e+00,2.590103149414062500e+00,2.589761018753051758e+00,2.589419364929199219e+00,2.589077711105346680e+00,2.588736057281494141e+00,2.588394641876220703e+00,2.588052988052368164e+00,2.587711811065673828e+00,2.587370634078979492e+00,2.587029457092285156e+00,2.586688518524169922e+00,2.586347579956054688e+00,2.586006402969360352e+00,2.585665702819824219e+00,2.585325002670288086e+00,2.584984540939331055e+00,2.561056375503540039e+00,2.507066965103149414e+00,2.455306768417358398e+00,2.405640363693237305e+00,2.357943773269653320e+00,2.312101364135742188e+00,2.268007755279541016e+00,2.225564479827880859e+00,2.184680461883544922e+00,2.145271539688110352e+00,2.107259035110473633e+00,2.070570230484008789e+00,2.035137414932250977e+00,2.000896453857421875e+00,1.967788815498352051e+00,1.935758948326110840e+00,1.904755234718322754e+00,1.874728798866271973e+00,1.845634341239929199e+00
2.255550861358642578e+00,2.255290985107421875e+00,2.255031347274780273e+00,2.254771471023559570e+00,2.254511833190917969e+00,2.254252195358276367e+00,2.253992795944213867e+00,2.253733158111572266e+00,2.253473758697509766e+00,2.253214359283447266e+00,2.252955198287963867e+00,2.252695798873901367e+00,2.252436637878417969e+00,2.252177476882934570e+00,2.251918554306030273e+00,2.251659631729125977e+00,2.251400470733642578e+00,2.251141786575317383e+00,2.250882863998413086e+00,2.250624179840087891e+00,2.250365257263183594e+00,2.250106811523437500e+00,2.249848127365112305e+00,2.249589920043945312e+00,2.249331951141357422e+00,2.249073982238769531e+00,2.248816251754760742e+00,2.248558521270751953e+00,2.248301029205322266e+00,2.248043298721313477e+00,2.247785806655883789e+00,2.247528314590454102e+00,2.247270822525024414e+00,2.247013568878173828e+00,2.246756315231323242e+00,2.246499061584472656e+00,2.246241807937622070e+00,2.245984554290771484e+00,2.245727539062500000e+00,2.245470523834228516e+00,2.245213508605957031e+00,2.244956731796264648e+00,2.244699716567993164e+00,2.244442939758300781e+00,2.244186401367187500e+00,2.243929624557495117e+00,2.243673086166381836e+00,2.243416547775268555e+00,2.243160009384155273e+00,2.242903709411621094e+00,2.242647171020507812e+00,2.242391109466552734e+00,2.242134809494018555e+00,2.241878509521484375e+00,2.241622447967529297e+00,2.241366386413574219e+00,2.241110324859619141e+00,2.240854501724243164e+00,2.240598440170288086e+00,2.240342617034912109e+00,2.240086793899536133e+00,2.239831209182739258e+00,2.239575386047363281e+00,2.239319801330566406e+00,2.239064455032348633e+00,2.238808870315551758e+00,2.238553285598754883e+00,2.238297939300537109e+00,2.225593566894531250e+00,2.184708595275878906e+00,2.145298480987548828e+00,2.107285261154174805e+00,2.070595264434814453e+00,2.035161733627319336e+00,2.000920057296752930e+00,1.967811703681945801e+00,1.935781002044677734e+00,1.904776334762573242e+00,1.874749422073364258e+00,1.845654368400573730e+00
1.988453388214111328e+00,1.988251447677612305e+00,1.988049507141113281e+00,1.987847685813903809e+00,1.987645864486694336e+00,1.987444043159484863e+00,1.987242341041564941e+00,1.987040638923645020e+00,1.986838936805725098e+00,1.986637353897094727e+00,1.986435770988464355e+00,1.986234188079833984e+00,1.986032724380493164e+00,1.985831260681152344e+00,1.985629796981811523e+00,1.985428452491760254e+00,1.985227108001708984e+00,1.985025882720947266e+00,1.984824657440185547e+00,1.984623432159423828e+00,1.984422206878662109e+00,1.984221100807189941e+00,1.984019994735717773e+00,1.983818888664245605e+00,1.983617901802062988e+00,1.983416914939880371e+00,1.983216047286987305e+00,1.983015179634094238e+00,1.982814311981201172e+00,1.982613444328308105e+00,1.982412695884704590e+00,1.982211947441101074e+00,1.982011318206787109e+00,1.981810688972473145e+00,1.981610059738159180e+00,1.981409430503845215e+00,1.981208920478820801e+00,1.981008529663085938e+00,1.980808019638061523e+00,1.980607628822326660e+00,1.980407238006591797e+00,1.980206966400146484e+00,1.980006694793701172e+00,1.979806423187255859e+00,1.979606270790100098e+00,1.979406118392944336e+00,1.979205965995788574e+00,1.979005813598632812e+00,1.978805780410766602e+00,1.978605866432189941e+00,1.978405833244323730e+00,1.978205919265747070e+00,1.978006124496459961e+00,1.977806448936462402e+00,1.977606654167175293e+00,1.977406859397888184e+00,1.977207183837890625e+00,1.977007508277893066e+00,1.976807832717895508e+00,1.976608276367187500e+00,1.976408720016479492e+00,1.976209163665771484e+00,1.976009726524353027e+00,1.975810289382934570e+00,1.975610971450805664e+00,1.975411534309387207e+00,1.975212216377258301e+00,1.975013017654418945e+00,1.974813699722290039e+00,1.974614500999450684e+00,1.974415421485900879e+00,1.974216222763061523e+00,1.974017143249511719e+00,1.973818182945251465e+00,1.973619222640991211e+00,1.967834591865539551e+00,1.935802936553955078e+00,1.904797792434692383e+00,1.874770164489746094e+00,1.845674276351928711e+00
1.777916431427001953e+00,1.777755022048950195e+00,1.777593493461608887e+00,1.777432203292846680e+00,1.777270793914794922e+00,1.777109503746032715e+00,1.776948213577270508e+00,1.776786923408508301e+00,1.776625633239746094e+00,1.776464462280273438e+00,1.776303291320800781e+00,1.776142120361328125e+00,1.775980949401855469e+00,1.775819897651672363e+00,1.775658726692199707e+00,1.775497794151306152e+00,1.775336742401123047e+00,1.775175809860229492e+00,1.775014758110046387e+00,1.774853825569152832e+00,1.774693012237548828e+00,1.774532079696655273e+00,1.774371266365051270e+00,1.774210453033447266e+00,1.774049639701843262e+00,1.773888945579528809e+00,1.773728251457214355e+00,1.773567557334899902e+00,1.773406863212585449e+00,1.773246169090270996e+00,1.773085594177246094e+00,1.772925019264221191e+00,1.772764444351196289e+00,1.772603988647460938e+00,1.772443413734436035e+00,1.772282958030700684e+00,1.772122621536254883e+00,1.771962165832519531e+00,1.771801829338073730e+00,1.771641492843627930e+00,1.771481156349182129e+00,1.771320819854736328e+00,1.771160602569580078e+00,1.771000385284423828e+00,1.770840167999267578e+00,1.770679950714111328e+00,1.770519852638244629e+00,1.770359754562377930e+00,1.770199656486511230e+00,1.770039558410644531e+00,1.769879579544067383e+00,1.769719600677490234e+00,1.769559621810913086e+00,1.769399642944335938e+00,1.769239783287048340e+00,1.769079804420471191e+00,1.768920063972473145e+00,1.768760204315185547e+00,1.768600344657897949e+00,1.768440604209899902e+00,1.768280863761901855e+00,1.768121361732482910e+00,1.767961740493774414e+00,1.767802000045776367e+00,1.767642378807067871e+00,1.767482876777648926e+00,1.767323255538940430e+00,1.767163753509521484e+00,1.767004251480102539e+00,1.766844749450683594e+00,1.766685247421264648e+00,1.766525864601135254e+00,1.766366481781005859e+00,1.766207098960876465e+00,1.766047835350036621e+00,1.765888452529907227e+00,1.765729188919067383e+00,1.765569925308227539e+00,1.765410780906677246e+00,1.765251636505126953e+00
1.607694149017333984e+00,1.607562184333801270e+00,1.607430100440979004e+00,1.607298135757446289e+00,1.607166171073913574e+00,1.607034325599670410e+00,1.606902360916137695e+00,1.606770515441894531e+00,1.606638669967651367e+00,1.606506824493408203e+00,1.606374979019165039e+00,1.606243133544921875e+00,1.606111407279968262e+00,1.605979681015014648e+00,1.605847835540771484e+00,1.605716228485107422e+00,1.605584502220153809e+00,1.605452775955200195e+00,1.605321168899536133e+00,1.605189561843872070e+00,1.605057954788208008e+00,1.604926347732543945e+00,1.604794740676879883e+00,1.604663252830505371e+00,1.604531764984130859e+00,1.604400157928466797e+00,1.604268789291381836e+00,1.604137301445007324e+00,1.604005813598632812e+00,1.603874444961547852e+00,1.603743076324462891e+00,1.603611707687377930e+00,1.603480339050292969e+00,1.603348970413208008e+00,1.603217720985412598e+00,1.603086352348327637e+00,1.602955102920532227e+00,1.602823853492736816e+00,1.602692723274230957e+00,1.602561473846435547e+00,1.602430343627929688e+00,1.602299213409423828e+00,1.602168083190917969e+00,1.602036952972412109e+00,1.601905822753906250e+00,1.601774811744689941e+00,1.601643681526184082e+00,1.601512670516967773e+00,1.601381659507751465e+00,1.601250767707824707e+00,1.601119756698608398e+00,1.600988864898681641e+00,1.600857853889465332e+00,1.600726962089538574e+00,1.600596070289611816e+00,1.600465297698974609e+00,1.600334405899047852e+00,1.600203633308410645e+00,1.600072860717773438e+00,1.599941968917846680e+00,1.599811315536499023e+00,1.599680542945861816e+00,1.599549889564514160e+00,1.599419116973876953e+00,1.599288463592529297e+00,1.599157810211181641e+00,1.599027276039123535e+00,1.598896622657775879e+00,1.598766088485717773e+00,1.598635673522949219e+00,1.598505139350891113e+00,1.598374605178833008e+00,1.598244190216064453e+00,1.598113656044006348e+00,1.597983241081237793e+00,1.597852826118469238e+00,1.597722411155700684e+00,1.597591996192932129e+00,1.597461700439453125e+00,1.597331285476684570e+00
1.467218875885009766e+00,1.467108845710754395e+00,1.466998934745788574e+00,1.466889023780822754e+00,1.466779112815856934e+00,1.466669201850891113e+00,1.466559410095214844e+00,1.466449499130249023e+00,1.466339707374572754e+00,1.466229796409606934e+00,1.466120004653930664e+00,1.466010212898254395e+00,1.465900421142578125e+00,1.465790748596191406e+00,1.465680956840515137e+00,1.465571284294128418e+00,1.465461492538452148e+00,1.465351819992065430e+00,1.465242147445678711e+00,1.465132474899291992e+00,1.465022802352905273e+00,1.464913249015808105e+00,1.464803576469421387e+00,1.464694023132324219e+00,1.464584469795227051e+00,1.464474916458129883e+00,1.464365363121032715e+00,1.464255809783935547e+00,1.464146256446838379e+00,1.464036822319030762e+00,1.463927268981933594e+00,1.463817834854125977e+00,1.463708400726318359e+00,1.463598966598510742e+00,1.463489532470703125e+00,1.463380098342895508e+00,1.463270783424377441e+00,1.463161349296569824e+00,1.463052034378051758e+00,1.462942719459533691e+00,1.462833404541015625e+00,1.462724089622497559e+00,1.462614774703979492e+00,1.462505578994750977e+00,1.462396264076232910e+00,1.462287068367004395e+00,1.462177872657775879e+00,1.462068676948547363e+00,1.461959481239318848e+00,1.461850285530090332e+00,1.461741209030151367e+00,1.461632013320922852e+00,1.461522936820983887e+00,1.461413860321044922e+00,1.461304783821105957e+00,1.461195707321166992e+00,1.461086630821228027e+00,1.460977554321289062e+00,1.460868597030639648e+00,1.460759520530700684e+00,1.460650563240051270e+00,1.460541605949401855e+00,1.460432648658752441e+00,1.460323691368103027e+00,1.460214734077453613e+00,1.460105895996093750e+00,1.459996938705444336e+00,1.459888100624084473e+00,1.459779262542724609e+00,1.459670424461364746e+00,1.459561586380004883e+00,1.459452748298645020e+00,1.459343910217285156e+00,1.459235191345214844e+00,1.459126353263854980e+00,1.459017634391784668e+00,1.458908915519714355e+00,1.458800315856933594e+00,1.458691596984863281e+00,1.458582997322082520e+00
1.349319458007812500e+00,1.349226474761962891e+00,1.349133491516113281e+00,1.349040508270263672e+00,1.348947525024414062e+00,1.348854660987854004e+00,1.348761677742004395e+00,1.348668813705444336e+00,1.348575830459594727e+00,1.348482966423034668e+00,1.348390102386474609e+00,1.348297238349914551e+00,1.348204374313354492e+00,1.348111510276794434e+00,1.348018765449523926e+00,1.347925901412963867e+00,1.347833156585693359e+00,1.347740292549133301e+00,1.347647547721862793e+00,1.347554802894592285e+00,1.347462058067321777e+00,1.347369313240051270e+00,1.347276568412780762e+00,1.347183942794799805e+00,1.347091197967529297e+00,1.346998453140258789e+00,1.346905827522277832e+00,1.346813201904296875e+00,1.346720457077026367e+00,1.346627831459045410e+00,1.346535205841064453e+00,1.346442580223083496e+00,1.346350073814392090e+00,1.346257448196411133e+00,1.346164822578430176e+00,1.346072316169738770e+00,1.345979809761047363e+00,1.345887184143066406e+00,1.345794677734375000e+00,1.345702171325683594e+00,1.345609664916992188e+00,1.345517277717590332e+00,1.345424771308898926e+00,1.345332264900207520e+00,1.345239877700805664e+00,1.345147371292114258e+00,1.345054984092712402e+00,1.344962596893310547e+00,1.344870209693908691e+00,1.344777822494506836e+00,1.344685435295104980e+00,1.344593048095703125e+00,1.344500660896301270e+00,1.344408392906188965e+00,1.344316124916076660e+00,1.344223737716674805e+00,1.344131469726562500e+00,1.344039201736450195e+00,1.343946933746337891e+00,1.343854665756225586e+00,1.343762397766113281e+00,1.343670129776000977e+00,1.343577980995178223e+00,1.343485713005065918e+00,1.343393564224243164e+00,1.343301415443420410e+00,1.343209266662597656e+00,1.343116998672485352e+00,1.343024849891662598e+00,1.342932820320129395e+00,1.342840671539306641e+00,1.342748522758483887e+00,1.342656493186950684e+00,1.342564344406127930e+00,1.342472314834594727e+00,1.342380285263061523e+00,1.342288255691528320e+00,1.342196226119995117e+00,1.342104196548461914e+00,1.342012166976928711e+00
1.248958587646484375e+00,1.248878955841064453e+00,1.248799204826354980e+00,1.248719573020935059e+00,1.248639941215515137e+00,1.248560309410095215e+00,1.248480677604675293e+00,1.248401045799255371e+00,1.248321533203125000e+00,1.248241901397705078e+00,1.248162269592285156e+00,1.248082756996154785e+00,1.248003125190734863e+00,1.247923612594604492e+00,1.247844099998474121e+00,1.247764587402343750e+00,1.247684955596923828e+00,1.247605443000793457e+00,1.247526049613952637e+00,1.247446537017822266e+00,1.247367024421691895e+00,1.247287511825561523e+00,1.247208118438720703e+00,1.247128605842590332e+00,1.247049212455749512e+00,1.246969699859619141e+00,1.246890306472778320e+00,1.246810913085937500e+00,1.246731519699096680e+00,1.246652126312255859e+00,1.246572732925415039e+00,1.246493339538574219e+00,1.246413946151733398e+00,1.246334671974182129e+00,1.246255278587341309e+00,1.246176004409790039e+00,1.246096611022949219e+00,1.246017336845397949e+00,1.245938062667846680e+00,1.245858788490295410e+00,1.245779514312744141e+00,1.245700240135192871e+00,1.245620965957641602e+00,1.245541691780090332e+00,1.245462417602539062e+00,1.245383143424987793e+00,1.245303988456726074e+00,1.245224714279174805e+00,1.245145559310913086e+00,1.245066404342651367e+00,1.244987249374389648e+00,1.244907975196838379e+00,1.244828820228576660e+00,1.244749665260314941e+00,1.244670629501342773e+00,1.244591474533081055e+00,1.244512319564819336e+00,1.244433164596557617e+00,1.244354128837585449e+00,1.244274973869323730e+00,1.244195938110351562e+00,1.244116902351379395e+00,1.244037866592407227e+00,1.243958711624145508e+00,1.243879675865173340e+00,1.243800759315490723e+00,1.243721723556518555e+00,1.243642687797546387e+00,1.243563652038574219e+00,1.243484735488891602e+00,1.243405699729919434e+00,1.243326783180236816e+00,1.243247747421264648e+00,1.243168830871582031e+00,1.243089914321899414e+00,1.243010997772216797e+00,1.242932081222534180e+00,1.242853164672851562e+00,1.242774248123168945e+00,1.242695331573486328e+00
1.162493586540222168e+00,1.162424564361572266e+00,1.162355542182922363e+00,1.162286639213562012e+00,1.162217617034912109e+00,1.162148594856262207e+00,1.162079572677612305e+00,1.162010669708251953e+00,1.161941647529602051e+00,1.161872744560241699e+00,1.161803722381591797e+00,1.161734819412231445e+00,1.161665916442871094e+00,1.161596894264221191e+00,1.161527991294860840e+00,1.161459088325500488e+00,1.161390185356140137e+00,1.161321282386779785e+00,1.161252379417419434e+00,1.161183595657348633e+00,1.161114692687988281e+00,1.161045789718627930e+00,1.160977005958557129e+00,1.160908102989196777e+00,1.160839200019836426e+00,1.160770416259765625e+00,1.160701632499694824e+00,1.160632848739624023e+00,1.160563945770263672e+00,1.160495162010192871e+00,1.160426378250122070e+00,1.160357594490051270e+00,1.160288810729980469e+00,1.160220026969909668e+00,1.160151362419128418e+00,1.160082578659057617e+00,1.160013794898986816e+00,1.159945130348205566e+00,1.159876346588134766e+00,1.159807682037353516e+00,1.159738898277282715e+00,1.159670233726501465e+00,1.159601569175720215e+00,1.159532904624938965e+00,1.159464120864868164e+00,1.159395456314086914e+00,1.159326791763305664e+00,1.159258246421813965e+00,1.159189581871032715e+00,1.159120917320251465e+00,1.159052252769470215e+00,1.158983707427978516e+00,1.158915042877197266e+00,1.158846497535705566e+00,1.158777832984924316e+00,1.158709287643432617e+00,1.158640742301940918e+00,1.158572077751159668e+00,1.158503532409667969e+00,1.158434987068176270e+00,1.158366441726684570e+00,1.158297896385192871e+00,1.158229470252990723e+00,1.158160924911499023e+00,1.158092379570007324e+00,1.158023834228515625e+00,1.157955408096313477e+00,1.157886862754821777e+00,1.157818436622619629e+00,1.157749891281127930e+00,1.157681465148925781e+00,1.157613039016723633e+00,1.157544612884521484e+00,1.157476186752319336e+00,1.157407760620117188e+00,1.157339334487915039e+00,1.157270908355712891e+00,1.157202482223510742e+00,1.157134056091308594e+00,1.157065629959106445e+00
1.087225317955017090e+00,1.087164998054504395e+00,1.087104678153991699e+00,1.087044239044189453e+00,1.086983919143676758e+00,1.086923599243164062e+00,1.086863160133361816e+00,1.086802840232849121e+00,1.086742520332336426e+00,1.086682200431823730e+00,1.086621880531311035e+00,1.086561560630798340e+00,1.086501240730285645e+00,1.086441040039062500e+00,1.086380720138549805e+00,1.086320400238037109e+00,1.086260080337524414e+00,1.086199879646301270e+00,1.086139559745788574e+00,1.086079359054565430e+00,1.086019039154052734e+00,1.085958838462829590e+00,1.085898637771606445e+00,1.085838437080383301e+00,1.085778117179870605e+00,1.085717916488647461e+00,1.085657715797424316e+00,1.085597515106201172e+00,1.085537314414978027e+00,1.085477113723754883e+00,1.085416913032531738e+00,1.085356831550598145e+00,1.085296630859375000e+00,1.085236430168151855e+00,1.085176348686218262e+00,1.085116147994995117e+00,1.085056066513061523e+00,1.084995865821838379e+00,1.084935784339904785e+00,1.084875583648681641e+00,1.084815502166748047e+00,1.084755420684814453e+00,1.084695219993591309e+00,1.084635138511657715e+00,1.084575057029724121e+00,1.084514975547790527e+00,1.084454894065856934e+00,1.084394812583923340e+00,1.084334850311279297e+00,1.084274768829345703e+00,1.084214687347412109e+00,1.084154605865478516e+00,1.084094643592834473e+00,1.084034562110900879e+00,1.083974599838256836e+00,1.083914518356323242e+00,1.083854556083679199e+00,1.083794593811035156e+00,1.083734512329101562e+00,1.083674550056457520e+00,1.083614587783813477e+00,1.083554625511169434e+00,1.083494663238525391e+00,1.083434700965881348e+00,1.083374738693237305e+00,1.083314776420593262e+00,1.083254814147949219e+00,1.083194851875305176e+00,1.083134889602661133e+00,1.083075046539306641e+00,1.083015084266662598e+00,1.082955241203308105e+00,1.082895278930664062e+00,1.082835435867309570e+00,1.082775473594665527e+00,1.082715630531311035e+00,1.082655668258666992e+00,1.082595825195312500e+00,1.082535982131958008e+00,1.082476139068603516e+00
1.021111249923706055e+00,1.021057963371276855e+00,1.021004676818847656e+00,1.020951509475708008e+00,1.020898222923278809e+00,1.020845055580139160e+00,1.020791769027709961e+00,1.020738601684570312e+00,1.020685315132141113e+00,1.020632147789001465e+00,1.020578861236572266e+00,1.020525693893432617e+00,1.020472526550292969e+00,1.020419359207153320e+00,1.020366072654724121e+00,1.020312905311584473e+00,1.020259737968444824e+00,1.020206570625305176e+00,1.020153403282165527e+00,1.020100235939025879e+00,1.020047187805175781e+00,1.019994020462036133e+00,1.019940853118896484e+00,1.019887685775756836e+00,1.019834637641906738e+00,1.019781470298767090e+00,1.019728302955627441e+00,1.019675254821777344e+00,1.019622087478637695e+00,1.019569039344787598e+00,1.019515872001647949e+00,1.019462823867797852e+00,1.019409775733947754e+00,1.019356608390808105e+00,1.019303560256958008e+00,1.019250512123107910e+00,1.019197463989257812e+00,1.019144415855407715e+00,1.019091367721557617e+00,1.019038319587707520e+00,1.018985271453857422e+00,1.018932223320007324e+00,1.018879175186157227e+00,1.018826127052307129e+00,1.018773198127746582e+00,1.018720149993896484e+00,1.018667101860046387e+00,1.018614172935485840e+00,1.018561124801635742e+00,1.018508076667785645e+00,1.018455147743225098e+00,1.018402218818664551e+00,1.018349170684814453e+00,1.018296241760253906e+00,1.018243312835693359e+00,1.018190264701843262e+00,1.018137335777282715e+00,1.018084406852722168e+00,1.018031477928161621e+00,1.017978549003601074e+00,1.017925620079040527e+00,1.017872691154479980e+00,1.017819762229919434e+00,1.017766833305358887e+00,1.017713904380798340e+00,1.017660975456237793e+00,1.017608165740966797e+00,1.017555236816406250e+00,1.017502307891845703e+00,1.017449498176574707e+00,1.017396569252014160e+00,1.017343640327453613e+00,1.017290830612182617e+00,1.017238020896911621e+00,1.017185091972351074e+00,1.017132282257080078e+00,1.017079472541809082e+00,1.017026543617248535e+00,1.016973733901977539e+00,1.016920924186706543e+00
9.625769853591918945e-01,9.625297188758850098e-01,9.624823331832885742e-01,9.624350666999816895e-01,9.623876810073852539e-01,9.623404145240783691e-01,9.622930884361267090e-01,9.622458219528198242e-01,9.621984958648681641e-01,9.621512293815612793e-01,9.621039032936096191e-01,9.620566964149475098e-01,9.620093703269958496e-01,9.619621634483337402e-01,9.619148373603820801e-01,9.618676304817199707e-01,9.618203043937683105e-01,9.617730975151062012e-01,9.617258310317993164e-01,9.616786241531372070e-01,9.616312980651855469e-01,9.615841507911682129e-01,9.615368843078613281e-01,9.614896774291992188e-01,9.614424109458923340e-01,9.613952636718750000e-01,9.613479971885681152e-01,9.613008499145507812e-01,9.612535834312438965e-01,9.612064361572265625e-01,9.611591696739196777e-01,9.611120820045471191e-01,9.610648155212402344e-01,9.610177278518676758e-01,9.609704613685607910e-01,9.609233736991882324e-01,9.608761668205261230e-01,9.608290195465087891e-01,9.607818126678466797e-01,9.607347249984741211e-01,9.606875181198120117e-01,9.606404304504394531e-01,9.605932235717773438e-01,9.605461955070495605e-01,9.604989886283874512e-01,9.604519009590148926e-01,9.604047536849975586e-01,9.603576660156250000e-01,9.603105187416076660e-01,9.602634906768798828e-01,9.602163434028625488e-01,9.601692557334899902e-01,9.601221084594726562e-01,9.600750803947448730e-01,9.600279927253723145e-01,9.599809646606445312e-01,9.599338173866271973e-01,9.598867893218994141e-01,9.598397016525268555e-01,9.597926735877990723e-01,9.597455859184265137e-01,9.596985578536987305e-01,9.596514701843261719e-01,9.596045017242431641e-01,9.595574140548706055e-01,9.595104455947875977e-01,9.594633579254150391e-01,9.594163894653320312e-01,9.593693017959594727e-01,9.593223333358764648e-01,9.592753052711486816e-01,9.592283368110656738e-01,9.591813087463378906e-01,9.591343402862548828e-01,9.590873122215270996e-01,9.590403437614440918e-01,9.589933156967163086e-01,9.589464068412780762e-01,9.588993787765502930e-01,9.588524699211120605e-01
9.103896617889404297e-01,9.103474020957946777e-01,9.103050231933593750e-01,9.102627038955688477e-01,9.102203249931335449e-01,9.101780652999877930e-01,9.101358056068420410e-01,9.100934267044067383e-01,9.100511670112609863e-01,9.100088477134704590e-01,9.099665880203247070e-01,9.099242687225341797e-01,9.098820090293884277e-01,9.098396897315979004e-01,9.097974300384521484e-01,9.097551107406616211e-01,9.097128510475158691e-01,9.096705317497253418e-01,9.096283316612243652e-01,9.095860123634338379e-01,9.095438122749328613e-01,9.095014929771423340e-01,9.094592928886413574e-01,9.094170331954956055e-01,9.093748331069946289e-01,9.093325138092041016e-01,9.092903137207031250e-01,9.092480540275573730e-01,9.092058539390563965e-01,9.091635942459106445e-01,9.091214537620544434e-01,9.090791940689086914e-01,9.090369939804077148e-01,9.089947342872619629e-01,9.089525938034057617e-01,9.089103341102600098e-01,9.088681936264038086e-01,9.088259339332580566e-01,9.087837934494018555e-01,9.087415933609008789e-01,9.086994528770446777e-01,9.086571931838989258e-01,9.086151123046875000e-01,9.085728526115417480e-01,9.085307717323303223e-01,9.084885716438293457e-01,9.084464311599731445e-01,9.084042310714721680e-01,9.083621501922607422e-01,9.083199501037597656e-01,9.082778692245483398e-01,9.082356691360473633e-01,9.081935882568359375e-01,9.081513881683349609e-01,9.081093072891235352e-01,9.080671668052673340e-01,9.080250859260559082e-01,9.079829454421997070e-01,9.079408645629882812e-01,9.078987240791320801e-01,9.078566431999206543e-01,9.078145027160644531e-01,9.077724218368530273e-01,9.077302813529968262e-01,9.076882600784301758e-01,9.076461195945739746e-01,9.076040983200073242e-01,9.075619578361511230e-01,9.075199365615844727e-01,9.074778556823730469e-01,9.074358344078063965e-01,9.073936939239501953e-01,9.073517322540283203e-01,9.073095917701721191e-01,9.072676301002502441e-01,9.072254896163940430e-01,9.071835279464721680e-01,9.071414470672607422e-01,9.070994257926940918e-01,9.070574045181274414e-01
8.635702133178710938e-01,8.635320663452148438e-01,8.634940385818481445e-01,8.634558916091918945e-01,8.634178638458251953e-01,8.633797764778137207e-01,8.633416891098022461e-01,8.633036017417907715e-01,8.632655739784240723e-01,8.632274866104125977e-01,8.631894588470458984e-01,8.631513714790344238e-01,8.631133437156677246e-01,8.630753159523010254e-01,8.630372285842895508e-01,8.629992604255676270e-01,8.629611730575561523e-01,8.629231452941894531e-01,8.628850579261779785e-01,8.628470897674560547e-01,8.628090023994445801e-01,8.627710342407226562e-01,8.627329468727111816e-01,8.626949787139892578e-01,8.626569509506225586e-01,8.626189827919006348e-01,8.625808954238891602e-01,8.625429272651672363e-01,8.625048995018005371e-01,8.624669313430786133e-01,8.624289035797119141e-01,8.623909354209899902e-01,8.623529076576232910e-01,8.623149991035461426e-01,8.622769713401794434e-01,8.622390031814575195e-01,8.622010350227355957e-01,8.621630668640136719e-01,8.621250987052917480e-01,8.620871305465698242e-01,8.620491623878479004e-01,8.620112538337707520e-01,8.619732260704040527e-01,8.619353175163269043e-01,8.618973493576049805e-01,8.618594408035278320e-01,8.618214130401611328e-01,8.617835640907287598e-01,8.617455959320068359e-01,8.617076873779296875e-01,8.616697192192077637e-01,8.616318106651306152e-01,8.615938425064086914e-01,8.615559935569763184e-01,8.615180253982543945e-01,8.614801764488220215e-01,8.614422082901000977e-01,8.614043593406677246e-01,8.613663911819458008e-01,8.613285422325134277e-01,8.612906336784362793e-01,8.612527847290039062e-01,8.612148165702819824e-01,8.611769676208496094e-01,8.611390590667724609e-01,8.611012101173400879e-01,8.610633015632629395e-01,8.610255122184753418e-01,8.609875440597534180e-01,8.609497547149658203e-01,8.609118461608886719e-01,8.608740568161010742e-01,8.608361482620239258e-01,8.607982993125915527e-01,8.607604503631591797e-01,8.607226610183715820e-01,8.606847524642944336e-01,8.606469631195068359e-01,8.606090545654296875e-01,8.605712652206420898e-01
8.213307857513427734e-01,8.212963938713073730e-01,8.212618827819824219e-01,8.212274909019470215e-01,8.211929798126220703e-01,8.211585879325866699e-01,8.211240768432617188e-01,8.210896849632263184e-01,8.210552334785461426e-01,8.210208415985107422e-01,8.209863901138305664e-01,8.209519982337951660e-01,8.209174871444702148e-01,8.208831548690795898e-01,8.208486437797546387e-01,8.208143115043640137e-01,8.207798600196838379e-01,8.207454681396484375e-01,8.207110166549682617e-01,8.206766843795776367e-01,8.206422328948974609e-01,8.206078410148620605e-01,8.205735087394714355e-01,8.205390572547912598e-01,8.205047249794006348e-01,8.204702734947204590e-01,8.204359412193298340e-01,8.204015493392944336e-01,8.203672170639038086e-01,8.203327655792236328e-01,8.202984333038330078e-01,8.202640414237976074e-01,8.202297091484069824e-01,8.201953172683715820e-01,8.201609849929809570e-01,8.201265931129455566e-01,8.200922608375549316e-01,8.200578689575195312e-01,8.200235366821289062e-01,8.199892044067382812e-01,8.199548721313476562e-01,8.199204802513122559e-01,8.198862075805664062e-01,8.198518157005310059e-01,8.198175430297851562e-01,8.197831511497497559e-01,8.197488784790039062e-01,8.197144865989685059e-01,8.196802139282226562e-01,8.196458816528320312e-01,8.196116089820861816e-01,8.195772171020507812e-01,8.195429444313049316e-01,8.195086121559143066e-01,8.194743394851684570e-01,8.194400072097778320e-01,8.194057345390319824e-01,8.193714022636413574e-01,8.193371295928955078e-01,8.193027973175048828e-01,8.192685842514038086e-01,8.192342519760131836e-01,8.192000389099121094e-01,8.191657066345214844e-01,8.191314339637756348e-01,8.190971612930297852e-01,8.190628886222839355e-01,8.190286159515380859e-01,8.189944028854370117e-01,8.189600706100463867e-01,8.189258575439453125e-01,8.188915848731994629e-01,8.188573718070983887e-01,8.188230395317077637e-01,8.187888860702514648e-01,8.187545537948608398e-01,8.187203407287597656e-01,8.186860680580139160e-01,8.186519145965576172e-01,8.186176419258117676e-01
7.830308675765991211e-01,7.829995155334472656e-01,7.829682230949401855e-01,7.829368710517883301e-01,7.829056382179260254e-01,7.828742861747741699e-01,7.828429937362670898e-01,7.828116416931152344e-01,7.827804088592529297e-01,7.827490568161010742e-01,7.827178239822387695e-01,7.826864719390869141e-01,7.826551795005798340e-01,7.826238870620727539e-01,7.825926542282104492e-01,7.825613021850585938e-01,7.825300693511962891e-01,7.824987769126892090e-01,7.824674844741821289e-01,7.824361920356750488e-01,7.824049592018127441e-01,7.823736667633056641e-01,7.823424339294433594e-01,7.823111414909362793e-01,7.822799086570739746e-01,7.822486162185668945e-01,7.822173833847045898e-01,7.821860909461975098e-01,7.821549177169799805e-01,7.821236848831176758e-01,7.820923924446105957e-01,7.820611596107482910e-01,7.820299267768859863e-01,7.819986939430236816e-01,7.819674015045166016e-01,7.819362282752990723e-01,7.819049358367919922e-01,7.818737626075744629e-01,7.818425297737121582e-01,7.818112969398498535e-01,7.817800641059875488e-01,7.817488908767700195e-01,7.817175984382629395e-01,7.816864252090454102e-01,7.816551923751831055e-01,7.816240191459655762e-01,7.815927863121032715e-01,7.815616130828857422e-01,7.815303802490234375e-01,7.814992070198059082e-01,7.814679741859436035e-01,7.814368009567260742e-01,7.814056277275085449e-01,7.813744544982910156e-01,7.813432216644287109e-01,7.813120484352111816e-01,7.812808752059936523e-01,7.812497019767761230e-01,7.812185287475585938e-01,7.811873555183410645e-01,7.811561822891235352e-01,7.811250090599060059e-01,7.810938358306884766e-01,7.810627222061157227e-01,7.810314893722534180e-01,7.810003757476806641e-01,7.809692025184631348e-01,7.809380888938903809e-01,7.809068560600280762e-01,7.808757424354553223e-01,7.808445692062377930e-01,7.808134555816650391e-01,7.807822823524475098e-01,7.807511687278747559e-01,7.807199954986572266e-01,7.806889414787292480e-01,7.806577682495117188e-01,7.806266546249389648e-01,7.805954813957214355e-01,7.805644273757934570e-01
7.481436729431152344e-01,7.481151223182678223e-01,7.480865120887756348e-01,7.480579614639282227e-01,7.480293512344360352e-01,7.480008006095886230e-01,7.479721903800964355e-01,7.479436397552490234e-01,7.479150295257568359e-01,7.478864789009094238e-01,7.478578686714172363e-01,7.478293180465698242e-01,7.478007674217224121e-01,7.477722167968750000e-01,7.477436065673828125e-01,7.477151155471801758e-01,7.476865053176879883e-01,7.476579546928405762e-01,7.476294040679931641e-01,7.476008534431457520e-01,7.475723028182983398e-01,7.475437521934509277e-01,7.475152015686035156e-01,7.474867105484008789e-01,7.474581003189086914e-01,7.474296092987060547e-01,7.474010586738586426e-01,7.473725676536560059e-01,7.473439574241638184e-01,7.473154664039611816e-01,7.472869157791137695e-01,7.472584247589111328e-01,7.472298741340637207e-01,7.472013831138610840e-01,7.471728324890136719e-01,7.471443414688110352e-01,7.471157908439636230e-01,7.470873594284057617e-01,7.470588684082031250e-01,7.470303177833557129e-01,7.470018267631530762e-01,7.469732761383056641e-01,7.469448447227478027e-01,7.469162940979003906e-01,7.468878626823425293e-01,7.468593120574951172e-01,7.468308806419372559e-01,7.468023300170898438e-01,7.467738986015319824e-01,7.467453479766845703e-01,7.467169165611267090e-01,7.466883659362792969e-01,7.466599345207214355e-01,7.466314435005187988e-01,7.466030120849609375e-01,7.465744614601135254e-01,7.465460300445556641e-01,7.465175390243530273e-01,7.464891076087951660e-01,7.464606165885925293e-01,7.464321851730346680e-01,7.464036941528320312e-01,7.463752627372741699e-01,7.463467717170715332e-01,7.463183403015136719e-01,7.462899088859558105e-01,7.462614774703979492e-01,7.462329864501953125e-01,7.462045550346374512e-01,7.461761236190795898e-01,7.461476922035217285e-01,7.461192011833190918e-01,7.460908293724060059e-01,7.460623383522033691e-01,7.460339665412902832e-01,7.460054755210876465e-01,7.459771037101745605e-01,7.459486126899719238e-01,7.459202408790588379e-01,7.458918094635009766e-01
7.162326574325561523e-01,7.162064313888549805e-01,7.161802649497985840e-01,7.161540389060974121e-01,7.161278724670410156e-01,7.161016464233398438e-01,7.160754799842834473e-01,7.160492539405822754e-01,7.160230875015258789e-01,7.159968614578247070e-01,7.159707546234130859e-01,7.159445285797119141e-01,7.159183621406555176e-01,7.158921360969543457e-01,7.158660292625427246e-01,7.158398032188415527e-01,7.158136367797851562e-01,7.157874703407287598e-01,7.157613039016723633e-01,7.157351374626159668e-01,7.157089710235595703e-01,7.156828045845031738e-01,7.156566381454467773e-01,7.156304717063903809e-01,7.156043052673339844e-01,7.155781388282775879e-01,7.155520319938659668e-01,7.155258059501647949e-01,7.154996991157531738e-01,7.154735326766967773e-01,7.154474258422851562e-01,7.154212594032287598e-01,7.153951525688171387e-01,7.153689265251159668e-01,7.153428196907043457e-01,7.153166532516479492e-01,7.152905464172363281e-01,7.152643799781799316e-01,7.152383327484130859e-01,7.152121663093566895e-01,7.151860594749450684e-01,7.151598930358886719e-01,7.151337862014770508e-01,7.151076197624206543e-01,7.150815725326538086e-01,7.150554656982421875e-01,7.150292992591857910e-01,7.150032520294189453e-01,7.149770855903625488e-01,7.149510383605957031e-01,7.149248719215393066e-01,7.148987650871276855e-01,7.148726582527160645e-01,7.148466110229492188e-01,7.148204445838928223e-01,7.147943973541259766e-01,7.147682309150695801e-01,7.147421836853027344e-01,7.147160768508911133e-01,7.146900296211242676e-01,7.146638631820678711e-01,7.146378159523010254e-01,7.146117091178894043e-01,7.145856618881225586e-01,7.145595550537109375e-01,7.145335078239440918e-01,7.145074009895324707e-01,7.144813537597656250e-01,7.144552469253540039e-01,7.144291996955871582e-01,7.144030928611755371e-01,7.143770456314086914e-01,7.143509387969970703e-01,7.143248915672302246e-01,7.142988443374633789e-01,7.142727971076965332e-01,7.142466902732849121e-01,7.142206430435180664e-01,7.141945958137512207e-01,7.141685485839843750e-01
