5.000000000000000000e+00,5.000000000000000000e+00,5.000000000000000000e+00,5.000000000000000000e+00,5.000000000000000000e+00,5.000000000000000000e+00,5.000000000000000000e+00,5.000000000000000000e+00,5.000000000000000000e+00,5.000000000000000000e+00,5.000000000000000000e+00,5.000000000000000000e+00,5.000000000000000000e+00,5.000000000000000000e+00,5.000000000000000000e+00,5.000000000000000000e+00,5.000000000000000000e+00,5.000000000000000000e+00,5.000000000000000000e+00,5.000000000000000000e+00,5.000000000000000000e+00,5.000000000000000000e+00,5.000000000000000000e+00,5.000000000000000000e+00,5.000000000000000000e+00,5.000000000000000000e+00,5.000000000000000000e+00,5.000000000000000000e+00,5.000000000000000000e+00,5.000000000000000000e+00,5.000000000000000000e+00,5.000000000000000000e+00,5.000000000000000000e+00,1.756283998489379883e+00,1.737650394439697266e+00,1.744668126106262207e+00,1.873919844627380371e+00,1.872664809226989746e+00,1.889914393424987793e+00,1.902675032615661621e+00,1.914932012557983398e+00,1.925387382507324219e+00,1.920565962791442871e+00,2.096977710723876953e+00,2.113535881042480469e+00,3.904782533645629883e+00,3.780651569366455078e+00,3.664169549942016602e+00,3.554650783538818359e+00,3.451488733291625977e+00,3.354145765304565430e+00,3.262143373489379883e+00,3.175052881240844727e+00,3.092491626739501953e+00,3.014115333557128906e+00,2.939613819122314453e+00,2.868706226348876953e+00,2.801138877868652344e+00,2.736680984497070312e+00,2.675122976303100586e+00,2.616273641586303711e+00,2.559957742691040039e+00,2.506014823913574219e+00,2.454298734664916992e+00,2.404673576354980469e+00,2.357015848159790039e+00,2.311210155487060547e+00,2.267151117324829102e+00,2.224740266799926758e+00,2.183887243270874023e+00,2.144507408142089844e+00,2.106522560119628906e+00,2.069859981536865234e+00,2.034451723098754883e+00,2.000234603881835938e+00,1.967149257659912109e+00,1.935140728950500488e+00,1.904157042503356934e+00,1.874150037765502930e+00,1.845073938369750977e+00
5.000000000000000000e+00,5.000000000000000000e+00,5.000000000000000000e+00,5.000000000000000000e+00,5.000000000000000000e+00,5.000000000000000000e+00,5.000000000000000000e+00,5.000000000000000000e+00,5.000000000000000000e+00,5.000000000000000000e+00,5.000000000000000000e+00,5.000000000000000000e+00,5.000000000000000000e+00,5.000000000000000000e+00,5.000000000000000000e+00,5.000000000000000000e+00,5.000000000000000000e+00,5.000000000000000000e+00,5.000000000000000000e+00,5.000000000000000000e+00,5.000000000000000000e+00,5.000000000000000000e+00,5.000000000000000000e+00,5.000000000000000000e+00,5.000000000000000000e+00,5.000000000000000000e+00,5.000000000000000000e+00,5.000000000000000000e+00,5.000000000000000000e+00,5.000000000000000000e+00,5.000000000000000000e+00,5.000000000000000000e+00,5.000000000000000000e+00,1.764041662216186523e+00,1.712197184562683105e+00,1.703326940536499023e+00,1.877656340599060059e+00,1.877535939216613770e+00,1.896313905715942383e+00,1.923883080482482910e+00,1.904323577880859375e+00,1.883219480514526367e+00,1.871241688728332520e+00,1.882791519165039062e+00,2.108091115951538086e+00,3.904871940612792969e+00,3.780735492706298828e+00,3.664248466491699219e+00,3.554724931716918945e+00,3.451558828353881836e+00,3.354212284088134766e+00,3.262205839157104492e+00,3.175112009048461914e+00,3.092547893524169922e+00,3.014168739318847656e+00,2.939664363861083984e+00,2.868754386901855469e+00,2.801184892654418945e+00,2.736724853515625000e+00,2.675165176391601562e+00,2.616313695907592773e+00,2.559996128082275391e+00,2.506051778793334961e+00,2.454334020614624023e+00,2.404707670211791992e+00,2.357048511505126953e+00,2.311241626739501953e+00,2.267181158065795898e+00,2.224769353866577148e+00,2.183915138244628906e+00,2.144534349441528320e+00,2.106548547744750977e+00,2.069885015487670898e+00,2.034476041793823242e+00,2.000257968902587891e+00,1.967172145843505859e+00,1.935162544250488281e+00,1.904178380966186523e+00,1.874170541763305664e+00,1.845093965530395508e+00
5.000000000000000000e+00,5.000000000000000000e+00,5.000000000000000000e+00,5.000000000000000000e+00,5.000000000000000000e+00,5.000000000000000000e+00,5.000000000000000000e+00,5.000000000000000000e+00,5.000000000000000000e+00,5.000000000000000000e+00,5.000000000000000000e+00,5.000000000000000000e+00,5.000000000000000000e+00,5.000000000000000000e+00,5.000000000000000000e+00,5.000000000000000000e+00,5.000000000000000000e+00,5.000000000000000000e+00,5.000000000000000000e+00,5.000000000000000000e+00,5.000000000000000000e+00,5.000000000000000000e+00,5.000000000000000000e+00,5.000000000000000000e+00,5.000000000000000000e+00,5.000000000000000000e+00,5.000000000000000000e+00,5.000000000000000000e+00,5.000000000000000000e+00,5.000000000000000000e+00,5.000000000000000000e+00,5.000000000000000000e+00,5.000000000000000000e+00,5.000000000000000000e+00,1.687758684158325195e+00,1.668788433074951172e+00,1.691036701202392578e+00,1.881656885147094727e+00,1.898143053054809570e+00,1.942005038261413574e+00,1.895825028419494629e+00,1.861581444740295410e+00,1.855005264282226562e+00,1.849906682968139648e+00,1.905750513076782227e+00,3.904961585998535156e+00,3.780819416046142578e+00,3.664327383041381836e+00,3.554799079895019531e+00,3.451628684997558594e+00,3.354278326034545898e+00,3.262268304824829102e+00,3.175171375274658203e+00,3.092603921890258789e+00,3.014222145080566406e+00,2.939715147018432617e+00,2.868802785873413086e+00,2.801230907440185547e+00,2.736768960952758789e+00,2.675207138061523438e+00,2.616353988647460938e+00,2.560034513473510742e+00,2.506088733673095703e+00,2.454369306564331055e+00,2.404741525650024414e+00,2.357081174850463867e+00,2.311272859573364258e+00,2.267211437225341797e+00,2.224798440933227539e+00,2.183943271636962891e+00,2.144561290740966797e+00,2.106574773788452148e+00,2.069910287857055664e+00,2.034500360488891602e+00,2.000281572341918945e+00,1.967194795608520508e+00,1.935184717178344727e+00,1.904199600219726562e+00,1.874191284179687500e+00,1.845113873481750488e+00
5.000000000000000000e+00,5.000000000000000000e+00,5.000000000000000000e+00,5.000000000000000000e+00,5.000000000000000000e+00,5.000000000000000000e+00,5.000000000000000000e+00,5.000000000000000000e+00,5.000000000000000000e+00,5.000000000000000000e+00,5.000000000000000000e+00,5.000000000000000000e+00,5.000000000000000000e+00,5.000000000000000000e+00,5.000000000000000000e+00,5.000000000000000000e+00,5.000000000000000000e+00,5.000000000000000000e+00,5.000000000000000000e+00,5.000000000000000000e+00,5.000000000000000000e+00,5.000000000000000000e+00,5.000000000000000000e+00,5.000000000000000000e+00,5.000000000000000000e+00,5.000000000000000000e+00,5.000000000000000000e+00,5.000000000000000000e+00,5.000000000000000000e+00,5.000000000000000000e+00,5.000000000000000000e+00,5.000000000000000000e+00,5.000000000000000000e+00,5.000000000000000000e+00,1.685004711151123047e+00,1.892382144927978516e+00,1.883784055709838867e+00,1.884063720703125000e+00,1.898753643035888672e+00,1.944360733032226562e+00,1.893616199493408203e+00,1.853328227996826172e+00,1.843621611595153809e+00,1.838585257530212402e+00,1.872892618179321289e+00,3.905050992965698242e+00,3.780903339385986328e+00,3.664406061172485352e+00,3.554873466491699219e+00,3.451698541641235352e+00,3.354344367980957031e+00,3.262330770492553711e+00,3.175230503082275391e+00,3.092660188674926758e+00,3.014275312423706055e+00,2.939765930175781250e+00,2.868851184844970703e+00,2.801276922225952148e+00,2.736812829971313477e+00,2.675249099731445312e+00,2.616394281387329102e+00,2.560073137283325195e+00,2.506125450134277344e+00,2.454404830932617188e+00,2.404775619506835938e+00,2.357113838195800781e+00,2.311304330825805664e+00,2.267241477966308594e+00,2.224827527999877930e+00,2.183971166610717773e+00,2.144588232040405273e+00,2.106600761413574219e+00,2.069935321807861328e+00,2.034524679183959961e+00,2.000304937362670898e+00,1.967217564582824707e+00,1.935206532478332520e+00,1.904220938682556152e+00,1.874211788177490234e+00,1.845134019851684570e+00
5.000000000000000000e+00,5.000000000000000000e+00,5.000000000000000000e+00,5.000000000000000000e+00,5.000000000000000000e+00,5.000000000000000000e+00,5.000000000000000000e+00,5.000000000000000000e+00,5.000000000000000000e+00,5.000000000000000000e+00,5.000000000000000000e+00,5.000000000000000000e+00,5.000000000000000000e+00,5.000000000000000000e+00,5.000000000000000000e+00,5.000000000000000000e+00,5.000000000000000000e+00,5.000000000000000000e+00,5.000000000000000000e+00,5.000000000000000000e+00,5.000000000000000000e+00,5.000000000000000000e+00,5.000000000000000000e+00,5.000000000000000000e+00,5.000000000000000000e+00,5.000000000000000000e+00,5.000000000000000000e+00,5.000000000000000000e+00,5.000000000000000000e+00,5.000000000000000000e+00,5.000000000000000000e+00,5.000000000000000000e+00,5.000000000000000000e+00,5.000000000000000000e+00,1.666649341583251953e+00,1.648237943649291992e+00,1.892458915710449219e+00,1.892352461814880371e+00,1.906599521636962891e+00,1.979234695434570312e+00,1.893094539642333984e+00,1.851663112640380859e+00,1.829880356788635254e+00,1.827401638031005859e+00,1.841148853302001953e+00,3.905140638351440430e+00,3.780987262725830078e+00,3.664484977722167969e+00,3.554947614669799805e+00,3.451768875122070312e+00,3.354410409927368164e+00,3.262393236160278320e+00,3.175289630889892578e+00,3.092716217041015625e+00,3.014328718185424805e+00,2.939816713333129883e+00,2.868899345397949219e+00,2.801322937011718750e+00,2.736856937408447266e+00,2.675291061401367188e+00,2.616434574127197266e+00,2.560111522674560547e+00,2.506162405014038086e+00,2.454440116882324219e+00,2.404809474945068359e+00,2.357146263122558594e+00,2.311335802078247070e+00,2.267271757125854492e+00,2.224856615066528320e+00,2.183999300003051758e+00,2.144615411758422852e+00,2.106626987457275391e+00,2.069960594177246094e+00,2.034548997879028320e+00,2.000328540802001953e+00,1.967240214347839355e+00,1.935228586196899414e+00,1.904242157936096191e+00,1.874232530593872070e+00,1.845153808593750000e+00
5.000000000000000000e+00,5.000000000000000000e+00,5.000000000000000000e+00,5.000000000000000000e+00,5.000000000000000000e+00,5.000000000000000000e+00,5.000000000000000000e+00,5.000000000000000000e+00,5.000000000000000000e+00,5.000000000000000000e+00,5.000000000000000000e+00,5.000000000000000000e+00,5.000000000000000000e+00,5.000000000000000000e+00,5.000000000000000000e+00,5.000000000000000000e+00,5.000000000000000000e+00,5.000000000000000000e+00,5.000000000000000000e+00,5.000000000000000000e+00,5.000000000000000000e+00,5.000000000000000000e+00,5.000000000000000000e+00,5.000000000000000000e+00,5.000000000000000000e+00,5.000000000000000000e+00,5.000000000000000000e+00,5.000000000000000000e+00,5.000000000000000000e+00,5.000000000000000000e+00,5.000000000000000000e+00,5.000000000000000000e+00,5.000000000000000000e+00,5.000000000000000000e+00,1.646811842918395996e+00,1.904263257980346680e+00,1.902748703956604004e+00,1.901991486549377441e+00,1.918870329856872559e+00,4.863431453704833984e+00,1.902474284172058105e+00,1.850000858306884766e+00,1.815470457077026367e+00,1.813076496124267578e+00,1.811085820198059082e+00,3.905230045318603516e+00,3.781071186065673828e+00,3.664563894271850586e+00,3.555021762847900391e+00,3.451838970184326172e+00,3.354476451873779297e+00,3.262455701828002930e+00,3.175348758697509766e+00,3.092772483825683594e+00,3.014382123947143555e+00,2.939867496490478516e+00,2.868947744369506836e+00,2.801369190216064453e+00,2.736900806427001953e+00,2.675333261489868164e+00,2.616474628448486328e+00,2.560149908065795898e+00,2.506199359893798828e+00,2.454475402832031250e+00,2.404843330383300781e+00,2.357178926467895508e+00,2.311367034912109375e+00,2.267302036285400391e+00,2.224885702133178711e+00,2.184027194976806641e+00,2.144642353057861328e+00,2.106652975082397461e+00,2.069985628128051758e+00,2.034573316574096680e+00,2.000351905822753906e+00,1.967262983322143555e+00,1.935250520706176758e+00,1.904263496398925781e+00,1.874253034591674805e+00,1.845173954963684082e+00
5.000000000000000000e+00,5.000000000000000000e+00,5.000000000000000000e+00,5.000000000000000000e+00,5.000000000000000000e+00,5.000000000000000000e+00,5.000000000000000000e+00,5.000000000000000000e+00,5.000000000000000000e+00,5.000000000000000000e+00,5.000000000000000000e+00,5.000000000000000000e+00,5.000000000000000000e+00,5.000000000000000000e+00,5.000000000000000000e+00,5.000000000000000000e+00,5.000000000000000000e+00,5.000000000000000000e+00,5.000000000000000000e+00,5.000000000000000000e+00,5.000000000000000000e+00,5.000000000000000000e+00,5.000000000000000000e+00,5.000000000000000000e+00,5.000000000000000000e+00,5.000000000000000000e+00,5.000000000000000000e+00,5.000000000000000000e+00,5.000000000000000000e+00,5.000000000000000000e+00,5.000000000000000000e+00,5.000000000000000000e+00,5.000000000000000000e+00,5.000000000000000000e+00,1.985237836837768555e+00,1.916326284408569336e+00,1.913832187652587891e+00,1.913066029548645020e+00,1.936956644058227539e+00,4.863570690155029297e+00,1.916786670684814453e+00,1.848341464996337891e+00,1.807284116744995117e+00,1.800287842750549316e+00,1.798324823379516602e+00,1.837257146835327148e+00,3.781155109405517578e+00,3.664642572402954102e+00,3.555095911026000977e+00,3.451908826828002930e+00,3.354542493820190430e+00,3.262518167495727539e+00,3.175408124923706055e+00,3.092828750610351562e+00,3.014435529708862305e+00,2.939918279647827148e+00,2.868996143341064453e+00,2.801415205001831055e+00,2.736944913864135742e+00,2.675375461578369141e+00,2.616514921188354492e+00,2.560188531875610352e+00,2.506236076354980469e+00,2.454510927200317383e+00,2.404877424240112305e+00,2.357211589813232422e+00,2.311398506164550781e+00,2.267332077026367188e+00,2.224914550781250000e+00,2.184055089950561523e+00,2.144669532775878906e+00,2.106678962707519531e+00,2.070010900497436523e+00,2.034597635269165039e+00,2.000375509262084961e+00,1.967285633087158203e+00,1.935272574424743652e+00,1.904284715652465820e+00,1.874273777008056641e+00,1.845193862915039062e+00
5.000000000000000000e+00,5.000000000000000000e+00,5.000000000000000000e+00,5.000000000000000000e+00,5.000000000000000000e+00,5.000000000000000000e+00,5.000000000000000000e+00,5.000000000000000000e+00,5.000000000000000000e+00,5.000000000000000000e+00,5.000000000000000000e+00,5.000000000000000000e+00,5.000000000000000000e+00,5.000000000000000000e+00,5.000000000000000000e+00,5.000000000000000000e+00,5.000000000000000000e+00,5.000000000000000000e+00,5.000000000000000000e+00,5.000000000000000000e+00,5.000000000000000000e+00,5.000000000000000000e+00,5.000000000000000000e+00,5.000000000000000000e+00,5.000000000000000000e+00,5.000000000000000000e+00,5.000000000000000000e+00,5.000000000000000000e+00,5.000000000000000000e+00,5.000000000000000000e+00,5.000000000000000000e+00,5.000000000000000000e+00,5.000000000000000000e+00,5.000000000000000000e+00,2.005941867828369141e+00,1.931586980819702148e+00,1.925847887992858887e+00,1.924270272254943848e+00,1.954463958740234375e+00,4.863709449768066406e+00,4.672616958618164062e+00,1.844460964202880859e+00,1.803760886192321777e+00,1.783177256584167480e+00,1.785534501075744629e+00,1.793943285942077637e+00,3.781239032745361328e+00,3.664721488952636719e+00,3.555170536041259766e+00,3.451978921890258789e+00,3.354608535766601562e+00,3.262580633163452148e+00,3.175467252731323242e+00,3.092884778976440430e+00,3.014488697052001953e+00,2.939968824386596680e+00,2.869044303894042969e+00,2.801461219787597656e+00,2.736988782882690430e+00,2.675417423248291016e+00,2.616554975509643555e+00,2.560226917266845703e+00,2.506273031234741211e+00,2.454546213150024414e+00,2.404911279678344727e+00,2.357244253158569336e+00,2.311429738998413086e+00,2.267362356185913086e+00,2.224943637847900391e+00,2.184083223342895508e+00,2.144696474075317383e+00,2.106704950332641602e+00,2.070035934448242188e+00,2.034621953964233398e+00,2.000399112701416016e+00,1.967308521270751953e+00,1.935294508934020996e+00,1.904306173324584961e+00,1.874294281005859375e+00,1.845213890075683594e+00
5.000000000000000000e+00,5.000000000000000000e+00,5.000000000000000000e+00,5.000000000000000000e+00,5.000000000000000000e+00,5.000000000000000000e+00,5.000000000000000000e+00,5.000000000000000000e+00,5.000000000000000000e+00,5.000000000000000000e+00,5.000000000000000000e+00,5.000000000000000000e+00,5.000000000000000000e+00,5.000000000000000000e+00,5.000000000000000000e+00,5.000000000000000000e+00,5.000000000000000000e+00,5.000000000000000000e+00,5.000000000000000000e+00,5.000000000000000000e+00,5.000000000000000000e+00,5.000000000000000000e+00,5.000000000000000000e+00,5.000000000000000000e+00,5.000000000000000000e+00,5.000000000000000000e+00,5.000000000000000000e+00,5.000000000000000000e+00,5.000000000000000000e+00,5.000000000000000000e+00,5.000000000000000000e+00,5.000000000000000000e+00,5.000000000000000000e+00,5.000000000000000000e+00,2.028372049331665039e+00,1.947270989418029785e+00,1.938186764717102051e+00,1.935606479644775391e+00,1.969643115997314453e+00,4.863848209381103516e+00,4.672744750976562500e+00,1.854067325592041016e+00,1.800251245498657227e+00,1.771391749382019043e+00,1.767902851104736328e+00,1.770219683647155762e+00,3.781322956085205078e+00,3.664800405502319336e+00,3.555244684219360352e+00,3.452048778533935547e+00,3.354674577713012695e+00,3.262643098831176758e+00,3.175526380538940430e+00,3.092941045761108398e+00,3.014542102813720703e+00,2.940019607543945312e+00,2.869092702865600586e+00,2.801507234573364258e+00,2.737032651901245117e+00,2.675459384918212891e+00,2.616595268249511719e+00,2.560265541076660156e+00,2.506309986114501953e+00,2.454581499099731445e+00,2.404945373535156250e+00,2.357276916503906250e+00,2.311461210250854492e+00,2.267392396926879883e+00,2.224972724914550781e+00,2.184111356735229492e+00,2.144723415374755859e+00,2.106731176376342773e+00,2.070061206817626953e+00,2.034646272659301758e+00,2.000422477722167969e+00,1.967331051826477051e+00,1.935316562652587891e+00,1.904327273368835449e+00,1.874315023422241211e+00,1.845233798027038574e+00
5.000000000000000000e+00,5.000000000000000000e+00,5.000000000000000000e+00,5.000000000000000000e+00,5.000000000000000000e+00,5.000000000000000000e+00,5.000000000000000000e+00,5.000000000000000000e+00,5.000000000000000000e+00,5.000000000000000000e+00,5.000000000000000000e+00,5.000000000000000000e+00,5.000000000000000000e+00,5.000000000000000000e+00,5.000000000000000000e+00,5.000000000000000000e+00,5.000000000000000000e+00,5.000000000000000000e+00,5.000000000000000000e+00,5.000000000000000000e+00,5.000000000000000000e+00,5.000000000000000000e+00,5.000000000000000000e+00,5.000000000000000000e+00,5.000000000000000000e+00,5.000000000000000000e+00,5.000000000000000000e+00,5.000000000000000000e+00,5.000000000000000000e+00,5.000000000000000000e+00,5.000000000000000000e+00,5.000000000000000000e+00,5.000000000000000000e+00,5.000000000000000000e+00,2.046764850616455078e+00,1.965008616447448730e+00,1.947575092315673828e+00,1.945684552192687988e+00,1.985360026359558105e+00,4.863986968994140625e+00,4.672873020172119141e+00,4.496209621429443359e+00,1.796755433082580566e+00,1.767760515213012695e+00,1.754534959793090820e+00,1.758833527565002441e+00,3.781406879425048828e+00,3.664879083633422852e+00,3.555318832397460938e+00,3.452118635177612305e+00,3.354740619659423828e+00,3.262705802917480469e+00,3.175585746765136719e+00,3.092997074127197266e+00,3.014595508575439453e+00,2.940070390701293945e+00,2.869141101837158203e+00,2.801553487777709961e+00,2.737076997756958008e+00,2.675501585006713867e+00,2.616635560989379883e+00,2.560303926467895508e+00,2.506346940994262695e+00,2.454617023468017578e+00,2.404979228973388672e+00,2.357309579849243164e+00,2.311492443084716797e+00,2.267422676086425781e+00,2.225001811981201172e+00,2.184139251708984375e+00,2.144750356674194336e+00,2.106757164001464844e+00,2.070086240768432617e+00,2.034670591354370117e+00,2.000446081161499023e+00,1.967353940010070801e+00,1.935338497161865234e+00,1.904348731040954590e+00,1.874335527420043945e+00,1.845253944396972656e+00
5.000000000000000000e+00,5.000000000000000000e+00,5.000000000000000000e+00,5.000000000000000000e+00,5.000000000000000000e+00,5.000000000000000000e+00,5.000000000000000000e+00,5.000000000000000000e+00,5.000000000000000000e+00,5.000000000000000000e+00,5.000000000000000000e+00,5.000000000000000000e+00,5.000000000000000000e+00,5.000000000000000000e+00,5.000000000000000000e+00,5.000000000000000000e+00,5.000000000000000000e+00,5.000000000000000000e+00,5.000000000000000000e+00,5.000000000000000000e+00,5.000000000000000000e+00,5.000000000000000000e+00,5.000000000000000000e+00,5.000000000000000000e+00,5.000000000000000000e+00,5.000000000000000000e+00,5.000000000000000000e+00,5.000000000000000000e+00,5.000000000000000000e+00,5.000000000000000000e+00,5.000000000000000000e+00,5.000000000000000000e+00,5.000000000000000000e+00,5.000000000000000000e+00,5.000000000000000000e+00,1.982591032981872559e+00,1.956480741500854492e+00,1.959032177925109863e+00,1.997782826423645020e+00,4.864126205444335938e+00,4.673001289367675781e+00,4.496328353881835938e+00,1.793077707290649414e+00,1.768346190452575684e+00,1.753419876098632812e+00,1.757871508598327637e+00,3.781491041183471680e+00,3.664958477020263672e+00,3.555393218994140625e+00,3.452188730239868164e+00,3.354806661605834961e+00,3.262768268585205078e+00,3.175644874572753906e+00,3.093053340911865234e+00,3.014648914337158203e+00,2.940121173858642578e+00,2.869189262390136719e+00,2.801599502563476562e+00,2.737120866775512695e+00,2.675543546676635742e+00,2.616675615310668945e+00,2.560342550277709961e+00,2.506383657455444336e+00,2.454652309417724609e+00,2.405013322830200195e+00,2.357342004776000977e+00,2.311523914337158203e+00,2.267452955245971680e+00,2.225030899047851562e+00,2.184167385101318359e+00,2.144777536392211914e+00,2.106783151626586914e+00,2.070111513137817383e+00,2.034694910049438477e+00,2.000469446182250977e+00,1.967376470565795898e+00,1.935360550880432129e+00,1.904369950294494629e+00,1.874356269836425781e+00,1.845273971557617188e+00
5.000000000000000000e+00,5.000000000000000000e+00,5.000000000000000000e+00,5.000000000000000000e+00,5.000000000000000000e+00,5.000000000000000000e+00,5.000000000000000000e+00,5.000000000000000000e+00,5.000000000000000000e+00,5.000000000000000000e+00,5.000000000000000000e+00,5.000000000000000000e+00,5.000000000000000000e+00,5.000000000000000000e+00,5.000000000000000000e+00,5.000000000000000000e+00,5.000000000000000000e+00,5.000000000000000000e+00,5.000000000000000000e+00,5.000000000000000000e+00,5.000000000000000000e+00,5.000000000000000000e+00,5.000000000000000000e+00,5.000000000000000000e+00,5.000000000000000000e+00,5.000000000000000000e+00,5.000000000000000000e+00,5.000000000000000000e+00,5.000000000000000000e+00,5.000000000000000000e+00,5.000000000000000000e+00,5.000000000000000000e+00,5.000000000000000000e+00,5.000000000000000000e+00,5.000000000000000000e+00,2.000208616256713867e+00,1.968059539794921875e+00,1.974843978881835938e+00,5.000000000000000000e+00,4.864264965057373047e+00,4.673129558563232422e+00,4.496447086334228516e+00,1.831352710723876953e+00,1.774137496948242188e+00,1.758347749710083008e+00,1.762931942939758301e+00,3.781574964523315430e+00,3.665037393569946289e+00,3.555467367172241211e+00,3.452258586883544922e+00,3.354872941970825195e+00,3.262830734252929688e+00,3.175704002380371094e+00,3.093109369277954102e+00,3.014702320098876953e+00,2.940171957015991211e+00,2.869237661361694336e+00,2.801645517349243164e+00,2.737164974212646484e+00,2.675585508346557617e+00,2.616715908050537109e+00,2.560380935668945312e+00,2.506420612335205078e+00,2.454687595367431641e+00,2.405047178268432617e+00,2.357374668121337891e+00,2.311555147171020508e+00,2.267482995986938477e+00,2.225060224533081055e+00,2.184195280075073242e+00,2.144804477691650391e+00,2.106809377670288086e+00,2.070136547088623047e+00,2.034718990325927734e+00,2.000493049621582031e+00,1.967399358749389648e+00,1.935382485389709473e+00,1.904391288757324219e+00,1.874376773834228516e+00,1.845293879508972168e+00
5.000000000000000000e+00,5.000000000000000000e+00,5.000000000000000000e+00,5.000000000000000000e+00,5.000000000000000000e+00,5.000000000000000000e+00,5.000000000000000000e+00,5.000000000000000000e+00,5.000000000000000000e+00,5.000000000000000000e+00,5.000000000000000000e+00,5.000000000000000000e+00,5.000000000000000000e+00,5.000000000000000000e+00,5.000000000000000000e+00,5.000000000000000000e+00,5.000000000000000000e+00,5.000000000000000000e+00,5.000000000000000000e+00,5.000000000000000000e+00,5.000000000000000000e+00,5.000000000000000000e+00,5.000000000000000000e+00,5.000000000000000000e+00,5.000000000000000000e+00,5.000000000000000000e+00,5.000000000000000000e+00,5.000000000000000000e+00,5.000000000000000000e+00,5.000000000000000000e+00,5.000000000000000000e+00,5.000000000000000000e+00,5.000000000000000000e+00,5.000000000000000000e+00,5.000000000000000000e+00,2.018814563751220703e+00,1.981004357337951660e+00,1.987383484840393066e+00,5.000000000000000000e+00,4.864403724670410156e+00,4.673257827758789062e+00,4.496566295623779297e+00,4.332748413085937500e+00,1.781391382217407227e+00,1.766852259635925293e+00,1.768356204032897949e+00,3.781658887863159180e+00,3.665116071701049805e+00,3.555541515350341797e+00,3.452328681945800781e+00,3.354938983917236328e+00,3.262893199920654297e+00,3.175763368606567383e+00,3.093165636062622070e+00,3.014755487442016602e+00,2.940222740173339844e+00,2.869286060333251953e+00,2.801692008972167969e+00,2.737208843231201172e+00,2.675627470016479492e+00,2.616755962371826172e+00,2.560419321060180664e+00,2.506457567214965820e+00,2.454723119735717773e+00,2.405081033706665039e+00,2.357407331466674805e+00,2.311586618423461914e+00,2.267513275146484375e+00,2.225089311599731445e+00,2.184223413467407227e+00,2.144831418991088867e+00,2.106835365295410156e+00,2.070161819458007812e+00,2.034743309020996094e+00,2.000516414642333984e+00,1.967422008514404297e+00,1.935404539108276367e+00,1.904412508010864258e+00,1.874397516250610352e+00,1.845314025878906250e+00
5.000000000000000000e+00,5.000000000000000000e+00,5.000000000000000000e+00,5.000000000000000000e+00,5.000000000000000000e+00,5.000000000000000000e+00,5.000000000000000000e+00,5.000000000000000000e+00,5.000000000000000000e+00,5.000000000000000000e+00,5.000000000000000000e+00,5.000000000000000000e+00,5.000000000000000000e+00,5.000000000000000000e+00,5.000000000000000000e+00,5.000000000000000000e+00,5.000000000000000000e+00,5.000000000000000000e+00,5.000000000000000000e+00,5.000000000000000000e+00,5.000000000000000000e+00,5.000000000000000000e+00,5.000000000000000000e+00,5.000000000000000000e+00,5.000000000000000000e+00,5.000000000000000000e+00,5.000000000000000000e+00,5.000000000000000000e+00,5.000000000000000000e+00,5.000000000000000000e+00,5.000000000000000000e+00,5.000000000000000000e+00,5.000000000000000000e+00,5.000000000000000000e+00,2.093350410461425781e+00,2.030146837234497070e+00,1.996258139610290527e+00,2.008847951889038086e+00,5.000000000000000000e+00,4.864542961120605469e+00,4.673386096954345703e+00,4.496685028076171875e+00,1.815778374671936035e+00,1.785717844963073730e+00,1.776018738746643066e+00,1.773814201354980469e+00,3.781743288040161133e+00,3.665194988250732422e+00,3.555615901947021484e+00,3.452398538589477539e+00,3.355005025863647461e+00,3.262955665588378906e+00,3.175822496414184570e+00,3.093221902847290039e+00,3.014808893203735352e+00,2.940273523330688477e+00,2.869334459304809570e+00,2.801738023757934570e+00,2.737252950668334961e+00,2.675669670104980469e+00,2.616796255111694336e+00,2.560457944869995117e+00,2.506494283676147461e+00,2.454758405685424805e+00,2.405115127563476562e+00,2.357439994812011719e+00,2.311618089675903320e+00,2.267543315887451172e+00,2.225118160247802734e+00,2.184251308441162109e+00,2.144858598709106445e+00,2.106861352920532227e+00,2.070186853408813477e+00,2.034767627716064453e+00,2.000540018081665039e+00,1.967444777488708496e+00,1.935426473617553711e+00,1.904433846473693848e+00,1.874418258666992188e+00,1.845333933830261230e+00
5.000000000000000000e+00,5.000000000000000000e+00,5.000000000000000000e+00,5.000000000000000000e+00,5.000000000000000000e+00,5.000000000000000000e+00,5.000000000000000000e+00,5.000000000000000000e+00,5.000000000000000000e+00,5.000000000000000000e+00,5.000000000000000000e+00,5.000000000000000000e+00,5.000000000000000000e+00,5.000000000000000000e+00,5.000000000000000000e+00,5.000000000000000000e+00,5.000000000000000000e+00,5.000000000000000000e+00,5.000000000000000000e+00,5.000000000000000000e+00,5.000000000000000000e+00,5.000000000000000000e+00,5.000000000000000000e+00,5.000000000000000000e+00,5.000000000000000000e+00,5.000000000000000000e+00,5.000000000000000000e+00,5.000000000000000000e+00,5.000000000000000000e+00,5.000000000000000000e+00,5.000000000000000000e+00,5.000000000000000000e+00,5.000000000000000000e+00,5.000000000000000000e+00,2.086952686309814453e+00,2.045048236846923828e+00,2.022942066192626953e+00,2.057874917984008789e+00,5.000000000000000000e+00,4.864681720733642578e+00,4.673514366149902344e+00,4.496803760528564453e+00,1.824419975280761719e+00,1.788629055023193359e+00,1.781916975975036621e+00,1.776944994926452637e+00,3.781827211380004883e+00,3.665273904800415039e+00,3.555690050125122070e+00,3.452468633651733398e+00,3.355071067810058594e+00,3.263018131256103516e+00,3.175881624221801758e+00,3.093277931213378906e+00,3.014862298965454102e+00,2.940324068069458008e+00,2.869382619857788086e+00,2.801784038543701172e+00,2.737296819686889648e+00,2.675711631774902344e+00,2.616836547851562500e+00,2.560496330261230469e+00,2.506531238555908203e+00,2.454793930053710938e+00,2.405148983001708984e+00,2.357472658157348633e+00,2.311649322509765625e+00,2.267573833465576172e+00,2.225147247314453125e+00,2.184279441833496094e+00,2.144885540008544922e+00,2.106887578964233398e+00,2.070212125778198242e+00,2.034791946411132812e+00,2.000563383102416992e+00,1.967467427253723145e+00,1.935448527336120605e+00,1.904455065727233887e+00,1.874438762664794922e+00,1.845353960990905762e+00
5.000000000000000000e+00,5.000000000000000000e+00,5.000000000000000000e+00,5.000000000000000000e+00,5.000000000000000000e+00,5.000000000000000000e+00,5.000000000000000000e+00,5.000000000000000000e+00,5.000000000000000000e+00,5.000000000000000000e+00,5.000000000000000000e+00,5.000000000000000000e+00,5.000000000000000000e+00,5.000000000000000000e+00,5.000000000000000000e+00,5.000000000000000000e+00,5.000000000000000000e+00,5.000000000000000000e+00,5.000000000000000000e+00,5.000000000000000000e+00,5.000000000000000000e+00,5.000000000000000000e+00,5.000000000000000000e+00,5.000000000000000000e+00,5.000000000000000000e+00,5.000000000000000000e+00,5.000000000000000000e+00,5.000000000000000000e+00,5.000000000000000000e+00,5.000000000000000000e+00,5.000000000000000000e+00,5.000000000000000000e+00,5.000000000000000000e+00,5.000000000000000000e+00,2.100118875503540039e+00,2.073588609695434570e+00,2.065002202987670898e+00,5.000000000000000000e+00,5.000000000000000000e+00,4.864819049835205078e+00,4.673642635345458984e+00,4.496922492980957031e+00,1.861688017845153809e+00,1.787821650505065918e+00,1.778366327285766602e+00,1.773127675056457520e+00,3.781911134719848633e+00,3.665352821350097656e+00,3.555764198303222656e+00,3.452538490295410156e+00,3.355137109756469727e+00,3.263080835342407227e+00,3.175940990447998047e+00,3.093334197998046875e+00,3.014915704727172852e+00,2.940374851226806641e+00,2.869431257247924805e+00,2.801830053329467773e+00,2.737340927124023438e+00,2.675753593444824219e+00,2.616876602172851562e+00,2.560534954071044922e+00,2.506568193435668945e+00,2.454829216003417969e+00,2.405183076858520508e+00,2.357505321502685547e+00,2.311680793762207031e+00,2.267603874206542969e+00,2.225176334381103516e+00,2.184307336807250977e+00,2.144912481307983398e+00,2.106913566589355469e+00,2.070237398147583008e+00,2.034816265106201172e+00,2.000586986541748047e+00,1.967490196228027344e+00,1.935470461845397949e+00,1.904476523399353027e+00,1.874459505081176758e+00,1.845373868942260742e+00
5.000000000000000000e+00,5.000000000000000000e+00,5.000000000000000000e+00,5.000000000000000000e+00,5.000000000000000000e+00,5.000000000000000000e+00,5.000000000000000000e+00,5.000000000000000000e+00,5.000000000000000000e+00,5.000000000000000000e+00,5.000000000000000000e+00,5.000000000000000000e+00,5.000000000000000000e+00,5.000000000000000000e+00,5.000000000000000000e+00,5.000000000000000000e+00,5.000000000000000000e+00,5.000000000000000000e+00,5.000000000000000000e+00,5.000000000000000000e+00,5.000000000000000000e+00,5.000000000000000000e+00,5.000000000000000000e+00,5.000000000000000000e+00,5.000000000000000000e+00,5.000000000000000000e+00,5.000000000000000000e+00,5.000000000000000000e+00,5.000000000000000000e+00,5.000000000000000000e+00,5.000000000000000000e+00,5.000000000000000000e+00,5.000000000000000000e+00,5.000000000000000000e+00,2.119454860687255859e+00,2.097013711929321289e+00,2.113908529281616211e+00,5.000000000000000000e+00,5.000000000000000000e+00,4.864957809448242188e+00,4.673769474029541016e+00,4.497041225433349609e+00,4.333189487457275391e+00,1.787015318870544434e+00,1.774158596992492676e+00,1.769611954689025879e+00,3.781995058059692383e+00,3.665431737899780273e+00,3.555838584899902344e+00,3.452608585357666016e+00,3.355203390121459961e+00,3.263143301010131836e+00,3.176000118255615234e+00,3.093390464782714844e+00,3.014969110488891602e+00,2.940425634384155273e+00,2.869479656219482422e+00,2.801876306533813477e+00,2.737384796142578125e+00,2.675795793533325195e+00,2.616916894912719727e+00,2.560573339462280273e+00,2.506604909896850586e+00,2.454864501953125000e+00,2.405216932296752930e+00,2.357537746429443359e+00,2.311712026596069336e+00,2.267634153366088867e+00,2.225205421447753906e+00,2.184335470199584961e+00,2.144939422607421875e+00,2.106939554214477539e+00,2.070262432098388672e+00,2.034840583801269531e+00,2.000610351562500000e+00,1.967512845993041992e+00,1.935492515563964844e+00,1.904497861862182617e+00,1.874480009078979492e+00,1.845393896102905273e+00
5.000000000000000000e+00,5.000000000000000000e+00,5.000000000000000000e+00,5.000000000000000000e+00,5.000000000000000000e+00,5.000000000000000000e+00,5.000000000000000000e+00,5.000000000000000000e+00,5.000000000000000000e+00,5.000000000000000000e+00,5.000000000000000000e+00,5.000000000000000000e+00,5.000000000000000000e+00,5.000000000000000000e+00,5.000000000000000000e+00,5.000000000000000000e+00,5.000000000000000000e+00,5.000000000000000000e+00,5.000000000000000000e+00,5.000000000000000000e+00,5.000000000000000000e+00,5.000000000000000000e+00,5.000000000000000000e+00,5.000000000000000000e+00,5.000000000000000000e+00,5.000000000000000000e+00,5.000000000000000000e+00,5.000000000000000000e+00,5.000000000000000000e+00,5.000000000000000000e+00,5.000000000000000000e+00,5.000000000000000000e+00,5.000000000000000000e+00,5.000000000000000000e+00,2.138902425765991211e+00,2.114533424377441406e+00,2.141996383666992188e+00,5.000000000000000000e+00,5.000000000000000000e+00,4.865096569061279297e+00,4.673897266387939453e+00,4.497159957885742188e+00,4.333299636840820312e+00,1.786209464073181152e+00,1.769567728042602539e+00,1.766110181808471680e+00,3.782079219818115234e+00,3.665510654449462891e+00,3.555912733078002930e+00,3.452678680419921875e+00,3.355269432067871094e+00,3.263205766677856445e+00,3.176059484481811523e+00,3.093446493148803711e+00,3.015022516250610352e+00,2.940476417541503906e+00,2.869528055191040039e+00,2.801922321319580078e+00,2.737428903579711914e+00,2.675837755203247070e+00,2.616957187652587891e+00,2.560611963272094727e+00,2.506641864776611328e+00,2.454900026321411133e+00,2.405251026153564453e+00,2.357570409774780273e+00,2.311743736267089844e+00,2.267664432525634766e+00,2.225234508514404297e+00,2.184363365173339844e+00,2.144966602325439453e+00,2.106965541839599609e+00,2.070287704467773438e+00,2.034864902496337891e+00,2.000633955001831055e+00,1.967535734176635742e+00,1.935514450073242188e+00,1.904519081115722656e+00,1.874500751495361328e+00,1.845413804054260254e+00
5.000000000000000000e+00,5.000000000000000000e+00,5.000000000000000000e+00,5.000000000000000000e+00,5.000000000000000000e+00,5.000000000000000000e+00,5.000000000000000000e+00,5.000000000000000000e+00,5.000000000000000000e+00,5.000000000000000000e+00,5.000000000000000000e+00,5.000000000000000000e+00,5.000000000000000000e+00,5.000000000000000000e+00,5.000000000000000000e+00,5.000000000000000000e+00,5.000000000000000000e+00,5.000000000000000000e+00,5.000000000000000000e+00,5.000000000000000000e+00,5.000000000000000000e+00,5.000000000000000000e+00,5.000000000000000000e+00,5.000000000000000000e+00,5.000000000000000000e+00,5.000000000000000000e+00,5.000000000000000000e+00,5.000000000000000000e+00,5.000000000000000000e+00,5.000000000000000000e+00,5.000000000000000000e+00,5.000000000000000000e+00,5.000000000000000000e+00,5.000000000000000000e+00,2.159077644348144531e+00,2.132963657379150391e+00,2.168464660644531250e+00,5.000000000000000000e+00,5.000000000000000000e+00,4.865235328674316406e+00,4.674025535583496094e+00,4.497276782989501953e+00,4.333409786224365234e+00,1.785455226898193359e+00,1.765078306198120117e+00,1.761660575866699219e+00,3.782163143157958984e+00,3.665589332580566406e+00,3.555987119674682617e+00,3.452748537063598633e+00,3.355335474014282227e+00,3.263268232345581055e+00,3.176118612289428711e+00,3.093502759933471680e+00,3.015075683593750000e+00,2.940527439117431641e+00,2.869576215744018555e+00,2.801968336105346680e+00,2.737472772598266602e+00,2.675879716873168945e+00,2.616997241973876953e+00,2.560650348663330078e+00,2.506678819656372070e+00,2.454935312271118164e+00,2.405284881591796875e+00,2.357603073120117188e+00,2.311774969100952148e+00,2.267694473266601562e+00,2.225263595581054688e+00,2.184391498565673828e+00,2.144993543624877930e+00,2.106991767883300781e+00,2.070312738418579102e+00,2.034889221191406250e+00,2.000657558441162109e+00,1.967558383941650391e+00,1.935536503791809082e+00,1.904540538787841797e+00,1.874521255493164062e+00,1.845433950424194336e+00
5.000000000000000000e+00,5.000000000000000000e+00,5.000000000000000000e+00,5.000000000000000000e+00,5.000000000000000000e+00,5.000000000000000000e+00,5.000000000000000000e+00,5.000000000000000000e+00,5.000000000000000000e+00,5.000000000000000000e+00,5.000000000000000000e+00,5.000000000000000000e+00,5.000000000000000000e+00,5.000000000000000000e+00,5.000000000000000000e+00,5.000000000000000000e+00,5.000000000000000000e+00,5.000000000000000000e+00,5.000000000000000000e+00,5.000000000000000000e+00,5.000000000000000000e+00,5.000000000000000000e+00,5.000000000000000000e+00,5.000000000000000000e+00,5.000000000000000000e+00,5.000000000000000000e+00,5.000000000000000000e+00,5.000000000000000000e+00,5.000000000000000000e+00,5.000000000000000000e+00,5.000000000000000000e+00,5.000000000000000000e+00,5.000000000000000000e+00,5.000000000000000000e+00,2.180776596069335938e+00,2.155216217041015625e+00,2.199102878570556641e+00,5.000000000000000000e+00,5.000000000000000000e+00,4.865374088287353516e+00,4.674153327941894531e+00,4.497395038604736328e+00,4.333518505096435547e+00,1.787602305412292480e+00,1.761466503143310547e+00,1.758062601089477539e+00,3.782247066497802734e+00,3.665668249130249023e+00,3.556061267852783203e+00,3.452818632125854492e+00,3.355401515960693359e+00,3.263330698013305664e+00,3.176177740097045898e+00,3.093558788299560547e+00,3.015129089355468750e+00,2.940578222274780273e+00,2.869624614715576172e+00,2.802014589309692383e+00,2.737516880035400391e+00,2.675921916961669922e+00,2.617037534713745117e+00,2.560688972473144531e+00,2.506715774536132812e+00,2.454970836639404297e+00,2.405318975448608398e+00,2.357635736465454102e+00,2.311806440353393555e+00,2.267724752426147461e+00,2.225292682647705078e+00,2.184419393539428711e+00,2.145020484924316406e+00,2.107017755508422852e+00,2.070338010787963867e+00,2.034913539886474609e+00,2.000680923461914062e+00,1.967581152915954590e+00,1.935558676719665527e+00,1.904561638832092285e+00,1.874541997909545898e+00,1.845453858375549316e+00
5.000000000000000000e+00,5.000000000000000000e+00,5.000000000000000000e+00,5.000000000000000000e+00,5.000000000000000000e+00,5.000000000000000000e+00,5.000000000000000000e+00,5.000000000000000000e+00,5.000000000000000000e+00,5.000000000000000000e+00,5.000000000000000000e+00,5.000000000000000000e+00,5.000000000000000000e+00,5.000000000000000000e+00,5.000000000000000000e+00,5.000000000000000000e+00,5.000000000000000000e+00,5.000000000000000000e+00,5.000000000000000000e+00,5.000000000000000000e+00,5.000000000000000000e+00,5.000000000000000000e+00,5.000000000000000000e+00,5.000000000000000000e+00,5.000000000000000000e+00,5.000000000000000000e+00,5.000000000000000000e+00,5.000000000000000000e+00,5.000000000000000000e+00,5.000000000000000000e+00,5.000000000000000000e+00,5.000000000000000000e+00,5.000000000000000000e+00,5.000000000000000000e+00,2.204034805297851562e+00,2.184893131256103516e+00,5.000000000000000000e+00,5.000000000000000000e+00,5.000000000000000000e+00,4.865512371063232422e+00,4.674281120300292969e+00,4.497513771057128906e+00,4.333628654479980469e+00,1.789754509925842285e+00,1.759201645851135254e+00,1.754479527473449707e+00,3.782330989837646484e+00,3.665747165679931641e+00,3.556135416030883789e+00,3.452888488769531250e+00,3.355467796325683594e+00,3.263393402099609375e+00,3.176237106323242188e+00,3.093615055084228516e+00,3.015182495117187500e+00,2.940629005432128906e+00,2.869673013687133789e+00,2.802060604095458984e+00,2.737560987472534180e+00,2.675963878631591797e+00,2.617077827453613281e+00,2.560727357864379883e+00,2.506752490997314453e+00,2.455006122589111328e+00,2.405352830886840820e+00,2.357668638229370117e+00,2.311837673187255859e+00,2.267755031585693359e+00,2.225321769714355469e+00,2.184447526931762695e+00,2.145047664642333984e+00,2.107043743133544922e+00,2.070363044738769531e+00,2.034937858581542969e+00,2.000704526901245117e+00,1.967603802680969238e+00,1.935580492019653320e+00,1.904583096504211426e+00,1.874562501907348633e+00,1.845473885536193848e+00
4.874053001403808594e+00,4.872855663299560547e+00,4.871658325195312500e+00,4.870461940765380859e+00,4.869265556335449219e+00,4.868070125579833984e+00,4.866875171661376953e+00,4.865681171417236328e+00,4.864487648010253906e+00,4.863294124603271484e+00,4.862102031707763672e+00,4.860909938812255859e+00,4.859718322753906250e+00,4.858527660369873047e+00,4.857337474822998047e+00,4.856147766113281250e+00,4.854959011077880859e+00,4.853770256042480469e+00,4.852582931518554688e+00,4.851395130157470703e+00,4.850208759307861328e+00,4.849022388458251953e+00,4.847836971282958984e+00,4.846652507781982422e+00,4.845467567443847656e+00,4.844284057617187500e+00,4.843100547790527344e+00,4.841918468475341797e+00,4.840735912322998047e+00,4.839554786682128906e+00,4.838373661041259766e+00,4.837193489074707031e+00,4.836013317108154297e+00,4.834834575653076172e+00,2.228150844573974609e+00,2.213555097579956055e+00,4.831300258636474609e+00,4.830123424530029297e+00,4.828947067260742188e+00,4.827771186828613281e+00,4.674409389495849609e+00,4.497632503509521484e+00,4.333738803863525391e+00,1.802335619926452637e+00,1.758571028709411621e+00,1.750911116600036621e+00,3.782415151596069336e+00,3.665826082229614258e+00,3.556209802627563477e+00,3.452958583831787109e+00,3.355533838272094727e+00,3.263455867767333984e+00,3.176296234130859375e+00,3.093671321868896484e+00,3.015236139297485352e+00,2.940679788589477539e+00,2.869721412658691406e+00,2.802106618881225586e+00,2.737604856491088867e+00,2.676005840301513672e+00,2.617117881774902344e+00,2.560765743255615234e+00,2.506789445877075195e+00,2.455041408538818359e+00,2.405386924743652344e+00,2.357701301574707031e+00,2.311869144439697266e+00,2.267785072326660156e+00,2.225350856781005859e+00,2.184475421905517578e+00,2.145074605941772461e+00,2.107069969177246094e+00,2.070388317108154297e+00,2.034962177276611328e+00,2.000727891921997070e+00,1.967626571655273438e+00,1.935602664947509766e+00,1.904604315757751465e+00,1.874583244323730469e+00,1.845493793487548828e+00
3.777045249938964844e+00,3.776325941085815430e+00,3.775606632232666016e+00,3.774888038635253906e+00,3.774169445037841797e+00,3.773451328277587891e+00,3.772732973098754883e+00,3.772015571594238281e+00,3.771298170089721680e+00,3.770581007003784180e+00,3.769864320755004883e+00,3.769147396087646484e+00,3.768431186676025391e+00,3.767715215682983398e+00,3.766999483108520508e+00,3.766283750534057617e+00,3.765568494796752930e+00,3.764853715896606445e+00,3.764138936996459961e+00,3.763424396514892578e+00,3.762710332870483398e+00,3.761996507644653320e+00,3.761282920837402344e+00,3.760569810867309570e+00,3.759856224060058594e+00,3.759143590927124023e+00,3.758431196212768555e+00,3.757719039916992188e+00,3.757006645202636719e+00,3.756294965744018555e+00,3.755583763122558594e+00,3.754872560501098633e+00,3.754161357879638672e+00,3.753450870513916016e+00,2.262048006057739258e+00,2.249845027923583984e+00,3.751320362091064453e+00,3.750610828399658203e+00,3.749901771545410156e+00,3.749192714691162109e+00,3.748484134674072266e+00,3.747775316238403320e+00,3.747067213058471680e+00,3.746359348297119141e+00,1.760601758956909180e+00,1.747356891632080078e+00,3.744236946105957031e+00,3.665904998779296875e+00,3.556283950805664062e+00,3.453028440475463867e+00,3.355599880218505859e+00,3.263518333435058594e+00,3.176355600357055664e+00,3.093727588653564453e+00,3.015289545059204102e+00,2.940730571746826172e+00,2.869769811630249023e+00,2.802152872085571289e+00,2.737648963928222656e+00,2.676048040390014648e+00,2.617158174514770508e+00,2.560804367065429688e+00,2.506826400756835938e+00,2.455076932907104492e+00,2.405420780181884766e+00,2.357733726501464844e+00,2.311900615692138672e+00,2.267815351486206055e+00,2.225379943847656250e+00,2.184503555297851562e+00,2.145101547241210938e+00,2.107095956802368164e+00,2.070413351058959961e+00,2.034986495971679688e+00,2.000751495361328125e+00,1.967649459838867188e+00,1.935624480247497559e+00,1.904625654220581055e+00,1.874603748321533203e+00,1.845513939857482910e+00
3.083123683929443359e+00,3.082644224166870117e+00,3.082165002822875977e+00,3.081686019897460938e+00,3.081207275390625000e+00,3.080728530883789062e+00,3.080249786376953125e+00,3.079771280288696289e+00,3.079293251037597656e+00,3.078815221786499023e+00,3.078337192535400391e+00,3.077859163284301758e+00,3.077381610870361328e+00,3.076904058456420898e+00,3.076426744461059570e+00,3.075949192047119141e+00,3.075472116470336914e+00,3.074995279312133789e+00,3.074518680572509766e+00,3.074041843414306641e+00,3.073565244674682617e+00,3.073089122772216797e+00,3.072612762451171875e+00,3.072136878967285156e+00,3.071660757064819336e+00,3.071185111999511719e+00,3.070709466934204102e+00,3.070234060287475586e+00,3.069758653640747070e+00,3.069283485412597656e+00,3.068808555603027344e+00,3.068333625793457031e+00,3.067858695983886719e+00,3.067384243011474609e+00,2.253188848495483398e+00,2.229879379272460938e+00,3.065961360931396484e+00,3.065487384796142578e+00,3.065013647079467773e+00,3.064539909362792969e+00,3.064066410064697266e+00,3.063592910766601562e+00,3.063119649887084961e+00,3.062646627426147461e+00,1.774670720100402832e+00,1.755921483039855957e+00,3.061228036880493164e+00,3.060755491256713867e+00,3.060283184051513672e+00,3.059810876846313477e+00,3.059338808059692383e+00,3.058866739273071289e+00,3.058395147323608398e+00,3.057923555374145508e+00,3.015342950820922852e+00,2.940781354904174805e+00,2.869817972183227539e+00,2.802198886871337891e+00,2.737692832946777344e+00,2.676090002059936523e+00,2.617198467254638672e+00,2.560842752456665039e+00,2.506863355636596680e+00,2.455112218856811523e+00,2.405454874038696289e+00,2.357766389846801758e+00,2.311931848526000977e+00,2.267845392227172852e+00,2.225409030914306641e+00,2.184531450271606445e+00,2.145128726959228516e+00,2.107121944427490234e+00,2.070438623428344727e+00,2.035010814666748047e+00,2.000774860382080078e+00,1.967672109603881836e+00,1.935646653175354004e+00,1.904646873474121094e+00,1.874624490737915039e+00,1.845533847808837891e+00
2.604603767395019531e+00,2.604261636734008789e+00,2.603919506072998047e+00,2.603577613830566406e+00,2.603235960006713867e+00,2.602894067764282227e+00,2.602552413940429688e+00,2.602210998535156250e+00,2.601869583129882812e+00,2.601528167724609375e+00,2.601186990737915039e+00,2.600845575332641602e+00,2.600504636764526367e+00,2.600163459777832031e+00,2.599822759628295898e+00,2.599481582641601562e+00,2.599141120910644531e+00,2.598800420761108398e+00,2.598459720611572266e+00,2.598119258880615234e+00,2.597778797149658203e+00,2.597438573837280273e+00,2.597098350524902344e+00,2.596758365631103516e+00,2.596418142318725586e+00,2.596078395843505859e+00,2.595738410949707031e+00,2.595398902893066406e+00,2.595058917999267578e+00,2.594719409942626953e+00,2.594379901885986328e+00,2.594040632247924805e+00,2.593701124191284180e+00,2.593361854553222656e+00,2.220415115356445312e+00,2.203279256820678711e+00,2.207300901412963867e+00,2.592005968093872070e+00,2.591667175292968750e+00,2.591328620910644531e+00,2.590990066528320312e+00,2.590651273727416992e+00,2.590312957763671875e+00,2.589974641799926758e+00,1.764605164527893066e+00,1.736442804336547852e+00,1.733474612236022949e+00,2.588622093200683594e+00,2.588284254074096680e+00,2.587946176528930664e+00,2.587608575820922852e+00,2.587270975112915039e+00,2.586933612823486328e+00,2.586596012115478516e+00,2.586258649826049805e+00,2.585921287536621094e+00,2.585584163665771484e+00,2.585247278213500977e+00,2.584909915924072266e+00,2.584573030471801758e+00,2.584236383438110352e+00,2.560881376266479492e+00,2.506900072097778320e+00,2.455147743225097656e+00,2.405488967895507812e+00,2.357799053192138672e+00,2.311963319778442383e+00,2.267875671386718750e+00,2.225438117980957031e+00,2.184559583663940430e+00,2.145155668258666992e+00,2.107148170471191406e+00,2.070463657379150391e+00,2.035035133361816406e+00,2.000798463821411133e+00,1.967694878578186035e+00,1.935668468475341797e+00,1.904668211936950684e+00,1.874645113945007324e+00,1.845553874969482422e+00
2.254719972610473633e+00,2.254461050033569336e+00,2.254202365875244141e+00,2.253943920135498047e+00,2.253685235977172852e+00,2.253426790237426758e+00,2.253168106079101562e+00,2.252909660339355469e+00,2.252651453018188477e+00,2.252393245697021484e+00,2.252135038375854492e+00,2.251876831054687500e+00,2.251618623733520508e+00,2.251360654830932617e+00,2.251102447509765625e+00,2.250844717025756836e+00,2.250586748123168945e+00,2.250329017639160156e+00,2.250071287155151367e+00,2.249813556671142578e+00,2.249555826187133789e+00,2.249298334121704102e+00,2.249040842056274414e+00,2.248784542083740234e+00,2.248529434204101562e+00,2.248274564743041992e+00,2.248019695281982422e+00,2.247764825820922852e+00,2.247509956359863281e+00,2.247255325317382812e+00,2.247000694274902344e+00,2.246746063232421875e+00,2.246491432189941406e+00,2.246237039566040039e+00,2.245982646942138672e+00,2.167155027389526367e+00,2.155796051025390625e+00,2.245219469070434570e+00,2.244965314865112305e+00,2.244711160659790039e+00,2.244457244873046875e+00,2.244203090667724609e+00,2.243949174880981445e+00,2.243695259094238281e+00,1.763938188552856445e+00,1.712413191795349121e+00,1.661372184753417969e+00,1.614800572395324707e+00,1.607332348823547363e+00,2.242172718048095703e+00,2.241919279098510742e+00,2.241665840148925781e+00,2.241412639617919922e+00,2.241159200668334961e+00,2.240905761718750000e+00,2.240652561187744141e+00,2.240399599075317383e+00,2.240146398544311523e+00,2.239893198013305664e+00,2.239640235900878906e+00,2.239387512207031250e+00,2.239134550094604492e+00,2.238881587982177734e+00,2.238628864288330078e+00,2.238376140594482422e+00,2.238123655319213867e+00,2.237870931625366211e+00,2.237618446350097656e+00,2.225467205047607422e+00,2.184587478637695312e+00,2.145182609558105469e+00,2.107174158096313477e+00,2.070488929748535156e+00,2.035059452056884766e+00,2.000822067260742188e+00,1.967717528343200684e+00,1.935690641403198242e+00,1.904689431190490723e+00,1.874665856361389160e+00,1.845573782920837402e+00
1.987811923027038574e+00,1.987610816955566406e+00,1.987409710884094238e+00,1.987208604812622070e+00,1.987007617950439453e+00,1.986806750297546387e+00,1.986605763435363770e+00,1.986404895782470703e+00,1.986204147338867188e+00,1.986003279685974121e+00,1.985802650451660156e+00,1.985601902008056641e+00,1.985401272773742676e+00,1.985200405120849609e+00,1.984999775886535645e+00,1.984799265861511230e+00,1.984598755836486816e+00,1.984398245811462402e+00,1.984197854995727539e+00,1.983997464179992676e+00,1.983797073364257812e+00,1.983596801757812500e+00,1.983396530151367188e+00,1.983196377754211426e+00,1.982996106147766113e+00,1.982795953750610352e+00,1.982595920562744141e+00,1.982395648956298828e+00,1.982195615768432617e+00,1.981995582580566406e+00,1.981795668601989746e+00,1.981595754623413086e+00,1.981395959854125977e+00,1.981196045875549316e+00,1.980996370315551758e+00,1.980796575546264648e+00,1.980596899986267090e+00,1.980397224426269531e+00,1.980197548866271973e+00,1.979997992515563965e+00,1.979798436164855957e+00,1.979598999023437500e+00,1.979399323463439941e+00,1.979199886322021484e+00,1.767639756202697754e+00,1.739054083824157715e+00,1.651680231094360352e+00,1.647897005081176758e+00,1.701132178306579590e+00,1.978004217147827148e+00,1.977805018424987793e+00,1.977605938911437988e+00,1.977406859397888184e+00,1.977207899093627930e+00,1.977008938789367676e+00,1.976809978485107422e+00,1.976611137390136719e+00,1.976411938667297363e+00,1.976213216781616211e+00,1.976014375686645508e+00,1.975815653800964355e+00,1.975616931915283203e+00,1.975418329238891602e+00,1.975219726562500000e+00,1.975021123886108398e+00,1.974822521209716797e+00,1.974624037742614746e+00,1.974425673484802246e+00,1.974227190017700195e+00,1.974028825759887695e+00,1.973830461502075195e+00,1.973631978034973145e+00,1.973433732986450195e+00,1.973235487937927246e+00,1.973037242889404297e+00,1.967740416526794434e+00,1.935712456703186035e+00,1.904710888862609863e+00,1.874686360359191895e+00,1.845593929290771484e+00
1.777407169342041016e+00,1.777246356010437012e+00,1.777085542678833008e+00,1.776924848556518555e+00,1.776764154434204102e+00,1.776603460311889648e+00,1.776442646980285645e+00,1.776281952857971191e+00,1.776121377944946289e+00,1.775960803031921387e+00,1.775800347328186035e+00,1.775639772415161133e+00,1.775479316711425781e+00,1.775318861007690430e+00,1.775158524513244629e+00,1.774998068809509277e+00,1.774837732315063477e+00,1.774677395820617676e+00,1.774517059326171875e+00,1.774356842041015625e+00,1.774196386337280273e+00,1.774036169052124023e+00,1.773875951766967773e+00,1.773715853691101074e+00,1.773555755615234375e+00,1.773395657539367676e+00,1.773235559463500977e+00,1.773075461387634277e+00,1.772915482521057129e+00,1.772755503654479980e+00,1.772595524787902832e+00,1.772435545921325684e+00,1.772275686264038086e+00,1.772115826606750488e+00,1.771955966949462891e+00,1.771795988082885742e+00,1.771636247634887695e+00,1.771476507186889648e+00,1.771316766738891602e+00,1.771157026290893555e+00,1.770997405052185059e+00,1.770837783813476562e+00,1.770678162574768066e+00,1.770518541336059570e+00,1.770358920097351074e+00,1.770199418067932129e+00,1.770039916038513184e+00,1.769880533218383789e+00,1.769721031188964844e+00,1.769561409950256348e+00,1.769402027130126953e+00,1.769242763519287109e+00,1.769083380699157715e+00,1.768924117088317871e+00,1.768764853477478027e+00,1.768605589866638184e+00,1.768446445465087891e+00,1.768287181854248047e+00,1.768128037452697754e+00,1.767968893051147461e+00,1.767809867858886719e+00,1.767650842666625977e+00,1.767491817474365234e+00,1.767332792282104492e+00,1.767173528671264648e+00,1.767014622688293457e+00,1.766855716705322266e+00,1.766696810722351074e+00,1.766537904739379883e+00,1.766379117965698242e+00,1.766220331192016602e+00,1.766061544418334961e+00,1.765902757644653320e+00,1.765744090080261230e+00,1.765585422515869141e+00,1.765426754951477051e+00,1.765268087387084961e+00,1.765109539031982422e+00,1.764950752258300781e+00,1.764792203903198242e+00
1.607280492782592773e+00,1.607149004936218262e+00,1.607017517089843750e+00,1.606886029243469238e+00,1.606754660606384277e+00,1.606623291969299316e+00,1.606491804122924805e+00,1.606360554695129395e+00,1.606229186058044434e+00,1.606097817420959473e+00,1.605966567993164062e+00,1.605835318565368652e+00,1.605704069137573242e+00,1.605572700500488281e+00,1.605441451072692871e+00,1.605310201644897461e+00,1.605179071426391602e+00,1.605047941207885742e+00,1.604916810989379883e+00,1.604785680770874023e+00,1.604654669761657715e+00,1.604523539543151855e+00,1.604392528533935547e+00,1.604261517524719238e+00,1.604130506515502930e+00,1.603999614715576172e+00,1.603868603706359863e+00,1.603737473487854004e+00,1.603606581687927246e+00,1.603475689888000488e+00,1.603344917297363281e+00,1.603214025497436523e+00,1.603083133697509766e+00,1.602952361106872559e+00,1.602821588516235352e+00,1.602690815925598145e+00,1.602560162544250488e+00,1.602429389953613281e+00,1.602298736572265625e+00,1.602168083190917969e+00,1.602037429809570312e+00,1.601906776428222656e+00,1.601776003837585449e+00,1.601645350456237793e+00,1.601514816284179688e+00,1.601384282112121582e+00,1.601253747940063477e+00,1.601123213768005371e+00,1.600992798805236816e+00,1.600862264633178711e+00,1.600731849670410156e+00,1.600601434707641602e+00,1.600471019744873047e+00,1.600340723991394043e+00,1.600210309028625488e+00,1.600080013275146484e+00,1.599949598312377930e+00,1.599819183349609375e+00,1.599688887596130371e+00,1.599558711051940918e+00,1.599428415298461914e+00,1.599298238754272461e+00,1.599168062210083008e+00,1.599037885665893555e+00,1.598907828330993652e+00,1.598777651786804199e+00,1.598647594451904297e+00,1.598517417907714844e+00,1.598387479782104492e+00,1.598257422447204590e+00,1.598127365112304688e+00,1.597997188568115234e+00,1.597867250442504883e+00,1.597737312316894531e+00,1.597607374191284180e+00,1.597477436065673828e+00,1.597347617149353027e+00,1.597217679023742676e+00,1.597087860107421875e+00,1.596958041191101074e+00
1.466876745223999023e+00,1.466767191886901855e+00,1.466657757759094238e+00,1.466548204421997070e+00,1.466438770294189453e+00,1.466329336166381836e+00,1.466219663619995117e+00,1.466110348701477051e+00,1.466000914573669434e+00,1.465891480445861816e+00,1.465782165527343750e+00,1.465672731399536133e+00,1.465563416481018066e+00,1.465454101562500000e+00,1.465344786643981934e+00,1.465235471725463867e+00,1.465126276016235352e+00,1.465016961097717285e+00,1.464907765388488770e+00,1.464798450469970703e+00,1.464689135551452637e+00,1.464579939842224121e+00,1.464470744132995605e+00,1.464361667633056641e+00,1.464252471923828125e+00,1.464143395423889160e+00,1.464034199714660645e+00,1.463925123214721680e+00,1.463816046714782715e+00,1.463706970214843750e+00,1.463597893714904785e+00,1.463488936424255371e+00,1.463379859924316406e+00,1.463270902633666992e+00,1.463161945343017578e+00,1.463052868843078613e+00,1.462943911552429199e+00,1.462834954261779785e+00,1.462725996971130371e+00,1.462617158889770508e+00,1.462508201599121094e+00,1.462399363517761230e+00,1.462290525436401367e+00,1.462181687355041504e+00,1.462072849273681641e+00,1.461964130401611328e+00,1.461855292320251465e+00,1.461746573448181152e+00,1.461637735366821289e+00,1.461528897285461426e+00,1.461420178413391113e+00,1.461311459541320801e+00,1.461202740669250488e+00,1.461094141006469727e+00,1.460985422134399414e+00,1.460876822471618652e+00,1.460768222808837891e+00,1.460659623146057129e+00,1.460551023483276367e+00,1.460442423820495605e+00,1.460333824157714844e+00,1.460225343704223633e+00,1.460116744041442871e+00,1.460008263587951660e+00,1.459899663925170898e+00,1.459791183471679688e+00,1.459682703018188477e+00,1.459574222564697266e+00,1.459465861320495605e+00,1.459357380867004395e+00,1.459249019622802734e+00,1.459140658378601074e+00,1.459032297134399414e+00,1.458923935890197754e+00,1.458815574645996094e+00,1.458707213401794434e+00,1.458598971366882324e+00,1.458490610122680664e+00,1.458382248878479004e+00,1.458274006843566895e+00
1.349032044410705566e+00,1.348939418792724609e+00,1.348846793174743652e+00,1.348754286766052246e+00,1.348661661148071289e+00,1.348569035530090332e+00,1.348476529121398926e+00,1.348383903503417969e+00,1.348291397094726562e+00,1.348198890686035156e+00,1.348106384277343750e+00,1.348013877868652344e+00,1.347921371459960938e+00,1.347828745841979980e+00,1.347736358642578125e+00,1.347643852233886719e+00,1.347551465034484863e+00,1.347458958625793457e+00,1.347366571426391602e+00,1.347274184226989746e+00,1.347181797027587891e+00,1.347089409828186035e+00,1.346997141838073730e+00,1.346904754638671875e+00,1.346812367439270020e+00,1.346720099449157715e+00,1.346627712249755859e+00,1.346535325050354004e+00,1.346443057060241699e+00,1.346350789070129395e+00,1.346258521080017090e+00,1.346166253089904785e+00,1.346074104309082031e+00,1.345981836318969727e+00,1.345889568328857422e+00,1.345797419548034668e+00,1.345705270767211914e+00,1.345613002777099609e+00,1.345520853996276855e+00,1.345428705215454102e+00,1.345336556434631348e+00,1.345244526863098145e+00,1.345152258872985840e+00,1.345060110092163086e+00,1.344968080520629883e+00,1.344876050949096680e+00,1.344783902168273926e+00,1.344691872596740723e+00,1.344599843025207520e+00,1.344507813453674316e+00,1.344415783882141113e+00,1.344323873519897461e+00,1.344231843948364258e+00,1.344139814376831055e+00,1.344047904014587402e+00,1.343955993652343750e+00,1.343863964080810547e+00,1.343771934509277344e+00,1.343680024147033691e+00,1.343588232994079590e+00,1.343496322631835938e+00,1.343404412269592285e+00,1.343312621116638184e+00,1.343220710754394531e+00,1.343128919601440430e+00,1.343037009239196777e+00,1.342945218086242676e+00,1.342853426933288574e+00,1.342761635780334473e+00,1.342669844627380371e+00,1.342578172683715820e+00,1.342486262321472168e+00,1.342394590377807617e+00,1.342302799224853516e+00,1.342211127281188965e+00,1.342119455337524414e+00,1.342027783393859863e+00,1.341936111450195312e+00,1.341844439506530762e+00,1.341752767562866211e+00
1.248714089393615723e+00,1.248634815216064453e+00,1.248555421829223633e+00,1.248476028442382812e+00,1.248396754264831543e+00,1.248317360877990723e+00,1.248237967491149902e+00,1.248158693313598633e+00,1.248079419136047363e+00,1.248000144958496094e+00,1.247920870780944824e+00,1.247841596603393555e+00,1.247762322425842285e+00,1.247683048248291016e+00,1.247603774070739746e+00,1.247524619102478027e+00,1.247445344924926758e+00,1.247366189956665039e+00,1.247287034988403320e+00,1.247207760810852051e+00,1.247128486633300781e+00,1.247049331665039062e+00,1.246970176696777344e+00,1.246891021728515625e+00,1.246811985969543457e+00,1.246732831001281738e+00,1.246653676033020020e+00,1.246574640274047852e+00,1.246495485305786133e+00,1.246416449546813965e+00,1.246337294578552246e+00,1.246258258819580078e+00,1.246179223060607910e+00,1.246100187301635742e+00,1.246021151542663574e+00,1.245941996574401855e+00,1.245862960815429688e+00,1.245784044265747070e+00,1.245705008506774902e+00,1.245625972747802734e+00,1.245547056198120117e+00,1.245468020439147949e+00,1.245389103889465332e+00,1.245310187339782715e+00,1.245231270790100098e+00,1.245152354240417480e+00,1.245073437690734863e+00,1.244994521141052246e+00,1.244915604591369629e+00,1.244836568832397461e+00,1.244757771492004395e+00,1.244678854942321777e+00,1.244600057601928711e+00,1.244521141052246094e+00,1.244442343711853027e+00,1.244363546371459961e+00,1.244284749031066895e+00,1.244205951690673828e+00,1.244127154350280762e+00,1.244048357009887695e+00,1.243969559669494629e+00,1.243890762329101562e+00,1.243812084197998047e+00,1.243733286857604980e+00,1.243654489517211914e+00,1.243575692176818848e+00,1.243497014045715332e+00,1.243418335914611816e+00,1.243339657783508301e+00,1.243260979652404785e+00,1.243182301521301270e+00,1.243103623390197754e+00,1.243024945259094238e+00,1.242946267127990723e+00,1.242867708206176758e+00,1.242789030075073242e+00,1.242710471153259277e+00,1.242631912231445312e+00,1.242553114891052246e+00,1.242474555969238281e+00
1.162283301353454590e+00,1.162214517593383789e+00,1.162145733833312988e+00,1.162077069282531738e+00,1.162008285522460938e+00,1.161939620971679688e+00,1.161870837211608887e+00,1.161802172660827637e+00,1.161733388900756836e+00,1.161664724349975586e+00,1.161596059799194336e+00,1.161527395248413086e+00,1.161458730697631836e+00,1.161389946937561035e+00,1.161321282386779785e+00,1.161252617835998535e+00,1.161184072494506836e+00,1.161115407943725586e+00,1.161046743392944336e+00,1.160978198051452637e+00,1.160909533500671387e+00,1.160840988159179688e+00,1.160772323608398438e+00,1.160703778266906738e+00,1.160635232925415039e+00,1.160566687583923340e+00,1.160498023033142090e+00,1.160429477691650391e+00,1.160360932350158691e+00,1.160292387008666992e+00,1.160223841667175293e+00,1.160155296325683594e+00,1.160086870193481445e+00,1.160018324851989746e+00,1.159949779510498047e+00,1.159881353378295898e+00,1.159812808036804199e+00,1.159744381904602051e+00,1.159675955772399902e+00,1.159607529640197754e+00,1.159538984298706055e+00,1.159470558166503906e+00,1.159402132034301758e+00,1.159333705902099609e+00,1.159265279769897461e+00,1.159196853637695312e+00,1.159128427505493164e+00,1.159060001373291016e+00,1.158991694450378418e+00,1.158923268318176270e+00,1.158854961395263672e+00,1.158786535263061523e+00,1.158718228340148926e+00,1.158649921417236328e+00,1.158581614494323730e+00,1.158513188362121582e+00,1.158444881439208984e+00,1.158376574516296387e+00,1.158308267593383789e+00,1.158239960670471191e+00,1.158171653747558594e+00,1.158103466033935547e+00,1.158035159111022949e+00,1.157966852188110352e+00,1.157898664474487305e+00,1.157830357551574707e+00,1.157762169837951660e+00,1.157693982124328613e+00,1.157625675201416016e+00,1.157557487487792969e+00,1.157489299774169922e+00,1.157420992851257324e+00,1.157352805137634277e+00,1.157284617424011230e+00,1.157216548919677734e+00,1.157148361206054688e+00,1.157080173492431641e+00,1.157012104988098145e+00,1.156943917274475098e+00,1.156875729560852051e+00
1.087042689323425293e+00,1.086982607841491699e+00,1.086922407150268555e+00,1.086862325668334961e+00,1.086802124977111816e+00,1.086742043495178223e+00,1.086681842803955078e+00,1.086621761322021484e+00,1.086561679840087891e+00,1.086501598358154297e+00,1.086441516876220703e+00,1.086381435394287109e+00,1.086321353912353516e+00,1.086261272430419922e+00,1.086201190948486328e+00,1.086141109466552734e+00,1.086081147193908691e+00,1.086021065711975098e+00,1.085960984230041504e+00,1.085901021957397461e+00,1.085840940475463867e+00,1.085780858993530273e+00,1.085720896720886230e+00,1.085660934448242188e+00,1.085600852966308594e+00,1.085540890693664551e+00,1.085480928421020508e+00,1.085420966148376465e+00,1.085361003875732422e+00,1.085301041603088379e+00,1.085241079330444336e+00,1.085181117057800293e+00,1.085121154785156250e+00,1.085061311721801758e+00,1.085001349449157715e+00,1.084941387176513672e+00,1.084881424903869629e+00,1.084821581840515137e+00,1.084761619567871094e+00,1.084701776504516602e+00,1.084641814231872559e+00,1.084581971168518066e+00,1.084522128105163574e+00,1.084462285041809082e+00,1.084402322769165039e+00,1.084342479705810547e+00,1.084282636642456055e+00,1.084222793579101562e+00,1.084162950515747070e+00,1.084103107452392578e+00,1.084043264389038086e+00,1.083983421325683594e+00,1.083923697471618652e+00,1.083863854408264160e+00,1.083804011344909668e+00,1.083744287490844727e+00,1.083684444427490234e+00,1.083624720573425293e+00,1.083564996719360352e+00,1.083505153656005859e+00,1.083445429801940918e+00,1.083385705947875977e+00,1.083325982093811035e+00,1.083266258239746094e+00,1.083206415176391602e+00,1.083146691322326660e+00,1.083086967468261719e+00,1.083027243614196777e+00,1.082967519760131836e+00,1.082907915115356445e+00,1.082848191261291504e+00,1.082788467407226562e+00,1.082728862762451172e+00,1.082669138908386230e+00,1.082609534263610840e+00,1.082549810409545898e+00,1.082490205764770508e+00,1.082430481910705566e+00,1.082370758056640625e+00,1.082311153411865234e+00
1.020951271057128906e+00,1.020898222923278809e+00,1.020845174789428711e+00,1.020792126655578613e+00,1.020739078521728516e+00,1.020686030387878418e+00,1.020632982254028320e+00,1.020579934120178223e+00,1.020526885986328125e+00,1.020473957061767578e+00,1.020420908927917480e+00,1.020367980003356934e+00,1.020314931869506836e+00,1.020261883735656738e+00,1.020208954811096191e+00,1.020155906677246094e+00,1.020102977752685547e+00,1.020049929618835449e+00,1.019997000694274902e+00,1.019944071769714355e+00,1.019891142845153809e+00,1.019838213920593262e+00,1.019785284996032715e+00,1.019732356071472168e+00,1.019679427146911621e+00,1.019626498222351074e+00,1.019573569297790527e+00,1.019520521163940430e+00,1.019467711448669434e+00,1.019414782524108887e+00,1.019361853599548340e+00,1.019308924674987793e+00,1.019256114959716797e+00,1.019203186035156250e+00,1.019150376319885254e+00,1.019097447395324707e+00,1.019044637680053711e+00,1.018991708755493164e+00,1.018938899040222168e+00,1.018886089324951172e+00,1.018833279609680176e+00,1.018780350685119629e+00,1.018727540969848633e+00,1.018674612045288086e+00,1.018621802330017090e+00,1.018568992614746094e+00,1.018516182899475098e+00,1.018463373184204102e+00,1.018410682678222656e+00,1.018357872962951660e+00,1.018305063247680664e+00,1.018252253532409668e+00,1.018199443817138672e+00,1.018146753311157227e+00,1.018093943595886230e+00,1.018041253089904785e+00,1.017988443374633789e+00,1.017935633659362793e+00,1.017882943153381348e+00,1.017830133438110352e+00,1.017777442932128906e+00,1.017724752426147461e+00,1.017671942710876465e+00,1.017619252204895020e+00,1.017566561698913574e+00,1.017513871192932129e+00,1.017461180686950684e+00,1.017408490180969238e+00,1.017355799674987793e+00,1.017303109169006348e+00,1.017250418663024902e+00,1.017197728157043457e+00,1.017145037651062012e+00,1.017092347145080566e+00,1.017039775848388672e+00,1.016987085342407227e+00,1.016934394836425781e+00,1.016881823539733887e+00,1.016829133033752441e+00,1.016776561737060547e+00
9.624358415603637695e-01,9.623886942863464355e-01,9.623415470123291016e-01,9.622943997383117676e-01,9.622472524642944336e-01,9.622001647949218750e-01,9.621530175209045410e-01,9.621058702468872070e-01,9.620587825775146484e-01,9.620116949081420898e-01,9.619645476341247559e-01,9.619174599647521973e-01,9.618703722953796387e-01,9.618232846260070801e-01,9.617761969566345215e-01,9.617291092872619629e-01,9.616820216178894043e-01,9.616349339485168457e-01,9.615879058837890625e-01,9.615408182144165039e-01,9.614936709403991699e-01,9.614465832710266113e-01,9.613995552062988281e-01,9.613525271415710449e-01,9.613054394721984863e-01,9.612584114074707031e-01,9.612113833427429199e-01,9.611643552780151367e-01,9.611173272132873535e-01,9.610702991485595703e-01,9.610233306884765625e-01,9.609763026237487793e-01,9.609293341636657715e-01,9.608823060989379883e-01,9.608352780342102051e-01,9.607883095741271973e-01,9.607413411140441895e-01,9.606943726539611816e-01,9.606473445892333984e-01,9.606003761291503906e-01,9.605534076690673828e-01,9.605064392089843750e-01,9.604595303535461426e-01,9.604125618934631348e-01,9.603655934333801270e-01,9.603186845779418945e-01,9.602717161178588867e-01,9.602248072624206543e-01,9.601778388023376465e-01,9.601308107376098633e-01,9.600839018821716309e-01,9.600369930267333984e-01,9.599900841712951660e-01,9.599431753158569336e-01,9.598962664604187012e-01,9.598493576049804688e-01,9.598024487495422363e-01,9.597555398941040039e-01,9.597086906433105469e-01,9.596617817878723145e-01,9.596149325370788574e-01,9.595680236816406250e-01,9.595211744308471680e-01,9.594743251800537109e-01,9.594274759292602539e-01,9.593806266784667969e-01,9.593337774276733398e-01,9.592869281768798828e-01,9.592400789260864258e-01,9.591932296752929688e-01,9.591463804244995117e-01,9.590995907783508301e-01,9.590527415275573730e-01,9.590059518814086914e-01,9.589591026306152344e-01,9.589123129844665527e-01,9.588655233383178711e-01,9.588187336921691895e-01,9.587718248367309570e-01,9.587250351905822754e-01
9.102643728256225586e-01,9.102222323417663574e-01,9.101800322532653809e-01,9.101378917694091797e-01,9.100957512855529785e-01,9.100535511970520020e-01,9.100114107131958008e-01,9.099692702293395996e-01,9.099271297454833984e-01,9.098849892616271973e-01,9.098428487777709961e-01,9.098007082939147949e-01,9.097585678100585938e-01,9.097163081169128418e-01,9.096742272377014160e-01,9.096320867538452148e-01,9.095899462699890137e-01,9.095478653907775879e-01,9.095057249069213867e-01,9.094636440277099609e-01,9.094215631484985352e-01,9.093794226646423340e-01,9.093373417854309082e-01,9.092952609062194824e-01,9.092531800270080566e-01,9.092110991477966309e-01,9.091690182685852051e-01,9.091269373893737793e-01,9.090848565101623535e-01,9.090428352355957031e-01,9.090007543563842773e-01,9.089586734771728516e-01,9.089166522026062012e-01,9.088745713233947754e-01,9.088325500488281250e-01,9.087905287742614746e-01,9.087484478950500488e-01,9.087064266204833984e-01,9.086644053459167480e-01,9.086223840713500977e-01,9.085803627967834473e-01,9.085383415222167969e-01,9.084962010383605957e-01,9.084542393684387207e-01,9.084122180938720703e-01,9.083701968193054199e-01,9.083281755447387695e-01,9.082862138748168945e-01,9.082441926002502441e-01,9.082022309303283691e-01,9.081602692604064941e-01,9.081182479858398438e-01,9.080762863159179688e-01,9.080343246459960938e-01,9.079923629760742188e-01,9.079504013061523438e-01,9.079084396362304688e-01,9.078664779663085938e-01,9.078245162963867188e-01,9.077825546264648438e-01,9.077405929565429688e-01,9.076986908912658691e-01,9.076567292213439941e-01,9.076148271560668945e-01,9.075728654861450195e-01,9.075309634208679199e-01,9.074890613555908203e-01,9.074470996856689453e-01,9.074051976203918457e-01,9.073632955551147461e-01,9.073213934898376465e-01,9.072793722152709961e-01,9.072374701499938965e-01,9.071955680847167969e-01,9.071537256240844727e-01,9.071118235588073730e-01,9.070699214935302734e-01,9.070280790328979492e-01,9.069861769676208496e-01,9.069443345069885254e-01
8.634582757949829102e-01,8.634203672409057617e-01,8.633823990821838379e-01,8.633444905281066895e-01,8.633065223693847656e-01,8.632686138153076172e-01,8.632305860519409180e-01,8.631926178932189941e-01,8.631547093391418457e-01,8.631168007850646973e-01,8.630788922309875488e-01,8.630409836769104004e-01,8.630030751228332520e-01,8.629651665687561035e-01,8.629272580146789551e-01,8.628893494606018066e-01,8.628514409065246582e-01,8.628135323524475098e-01,8.627756237983703613e-01,8.627377748489379883e-01,8.626998662948608398e-01,8.626620173454284668e-01,8.626241087913513184e-01,8.625862598419189453e-01,8.625483512878417969e-01,8.625105023384094238e-01,8.624725937843322754e-01,8.624347448348999023e-01,8.623968958854675293e-01,8.623590469360351562e-01,8.623211979866027832e-01,8.622833490371704102e-01,8.622455000877380371e-01,8.622076511383056641e-01,8.621698021888732910e-01,8.621318936347961426e-01,8.620940446853637695e-01,8.620562553405761719e-01,8.620184063911437988e-01,8.619805574417114258e-01,8.619427680969238281e-01,8.619049191474914551e-01,8.618671298027038574e-01,8.618293404579162598e-01,8.617914915084838867e-01,8.617537021636962891e-01,8.617159128189086914e-01,8.616781234741210938e-01,8.616403341293334961e-01,8.616025447845458984e-01,8.615647554397583008e-01,8.615269660949707031e-01,8.614891767501831055e-01,8.614513874053955078e-01,8.614136576652526855e-01,8.613758683204650879e-01,8.613380789756774902e-01,8.613003492355346680e-01,8.612625598907470703e-01,8.612248301506042480e-01,8.611870408058166504e-01,8.611493110656738281e-01,8.611115813255310059e-01,8.610738515853881836e-01,8.610360026359558105e-01,8.609982728958129883e-01,8.609605431556701660e-01,8.609228134155273438e-01,8.608850836753845215e-01,8.608473539352416992e-01,8.608096241950988770e-01,8.607718944549560547e-01,8.607342243194580078e-01,8.606964945793151855e-01,8.606587648391723633e-01,8.606210947036743164e-01,8.605833649635314941e-01,8.605456948280334473e-01,8.605079650878906250e-01,8.604702949523925781e-01
8.212302923202514648e-01,8.211959600448608398e-01,8.211616277694702148e-01,8.211272954940795898e-01,8.210930228233337402e-01,8.210586905479431152e-01,8.210243582725524902e-01,8.209900856018066406e-01,8.209557533264160156e-01,8.209214210510253906e-01,8.208871483802795410e-01,8.208528757095336914e-01,8.208185434341430664e-01,8.207842707633972168e-01,8.207499980926513672e-01,8.207156658172607422e-01,8.206813931465148926e-01,8.206471204757690430e-01,8.206128478050231934e-01,8.205785751342773438e-01,8.205443024635314941e-01,8.205100297927856445e-01,8.204757571220397949e-01,8.204414844512939453e-01,8.204072117805480957e-01,8.203729987144470215e-01,8.203387260437011719e-01,8.203043937683105469e-01,8.202701210975646973e-01,8.202359080314636230e-01,8.202016353607177734e-01,8.201674222946166992e-01,8.201331496238708496e-01,8.200989365577697754e-01,8.200646638870239258e-01,8.200304508209228516e-01,8.199962377548217773e-01,8.199620246887207031e-01,8.199277520179748535e-01,8.198935389518737793e-01,8.198593258857727051e-01,8.198251128196716309e-01,8.197908997535705566e-01,8.197566866874694824e-01,8.197225332260131836e-01,8.196883201599121094e-01,8.196541070938110352e-01,8.196198940277099609e-01,8.195857405662536621e-01,8.195515275001525879e-01,8.195173144340515137e-01,8.194831609725952148e-01,8.194489479064941406e-01,8.194147944450378418e-01,8.193806409835815430e-01,8.193464279174804688e-01,8.193122744560241699e-01,8.192780017852783203e-01,8.192438483238220215e-01,8.192096948623657227e-01,8.191755414009094238e-01,8.191413879394531250e-01,8.191072344779968262e-01,8.190730810165405273e-01,8.190389275550842285e-01,8.190047740936279297e-01,8.189706206321716309e-01,8.189364671707153320e-01,8.189023733139038086e-01,8.188682198524475098e-01,8.188340663909912109e-01,8.187999725341796875e-01,8.187658190727233887e-01,8.187317252159118652e-01,8.186975717544555664e-01,8.186634778976440430e-01,8.186293840408325195e-01,8.185952305793762207e-01,8.185611367225646973e-01,8.185270428657531738e-01
7.829401493072509766e-01,7.829089760780334473e-01,7.828777432441711426e-01,7.828465700149536133e-01,7.828153967857360840e-01,7.827841639518737793e-01,7.827529907226562500e-01,7.827218174934387207e-01,7.826906442642211914e-01,7.826594710350036621e-01,7.826282382011413574e-01,7.825970649719238281e-01,7.825658917427062988e-01,7.825347185134887695e-01,7.825035452842712402e-01,7.824724316596984863e-01,7.824412584304809570e-01,7.824100852012634277e-01,7.823789119720458984e-01,7.823477387428283691e-01,7.823165059089660645e-01,7.822853922843933105e-01,7.822542190551757812e-01,7.822231054306030273e-01,7.821919322013854980e-01,7.821608185768127441e-01,7.821296453475952148e-01,7.820985317230224609e-01,7.820673584938049316e-01,7.820362448692321777e-01,7.820051312446594238e-01,7.819740176200866699e-01,7.819428443908691406e-01,7.819117307662963867e-01,7.818806171417236328e-01,7.818495035171508789e-01,7.818183898925781250e-01,7.817872762680053711e-01,7.817561626434326172e-01,7.817250490188598633e-01,7.816939353942871094e-01,7.816628813743591309e-01,7.816317677497863770e-01,7.816006541252136230e-01,7.815695405006408691e-01,7.815384864807128906e-01,7.815073728561401367e-01,7.814762592315673828e-01,7.814452052116394043e-01,7.814140319824218750e-01,7.813829779624938965e-01,7.813518643379211426e-01,7.813208103179931641e-01,7.812897562980651855e-01,7.812586426734924316e-01,7.812275886535644531e-01,7.811965346336364746e-01,7.811654806137084961e-01,7.811344265937805176e-01,7.811033725738525391e-01,7.810723185539245605e-01,7.810412645339965820e-01,7.810102105140686035e-01,7.809791564941406250e-01,7.809481024742126465e-01,7.809170484542846680e-01,7.808859944343566895e-01,7.808550000190734863e-01,7.808239459991455078e-01,7.807928919792175293e-01,7.807618975639343262e-01,7.807308435440063477e-01,7.806998491287231445e-01,7.806687951087951660e-01,7.806378006935119629e-01,7.806067466735839844e-01,7.805757522583007812e-01,7.805447578430175781e-01,7.805136442184448242e-01,7.804826498031616211e-01
7.480615377426147461e-01,7.480330467224121094e-01,7.480045557022094727e-01,7.479761242866516113e-01,7.479476332664489746e-01,7.479191422462463379e-01,7.478906512260437012e-01,7.478622198104858398e-01,7.478337287902832031e-01,7.478052973747253418e-01,7.477768063545227051e-01,7.477483749389648438e-01,7.477198839187622070e-01,7.476913928985595703e-01,7.476629018783569336e-01,7.476344704627990723e-01,7.476059794425964355e-01,7.475775480270385742e-01,7.475491166114807129e-01,7.475206851959228516e-01,7.474921941757202148e-01,7.474637627601623535e-01,7.474353313446044922e-01,7.474068999290466309e-01,7.473784685134887695e-01,7.473500370979309082e-01,7.473216056823730469e-01,7.472931742668151855e-01,7.472647428512573242e-01,7.472363114356994629e-01,7.472079396247863770e-01,7.471795082092285156e-01,7.471510767936706543e-01,7.471226453781127930e-01,7.470942735671997070e-01,7.470658421516418457e-01,7.470374107360839844e-01,7.470090389251708984e-01,7.469806075096130371e-01,7.469522356986999512e-01,7.469238042831420898e-01,7.468954324722290039e-01,7.468669414520263672e-01,7.468385696411132812e-01,7.468101978302001953e-01,7.467817664146423340e-01,7.467533946037292480e-01,7.467250227928161621e-01,7.466966509819030762e-01,7.466682791709899902e-01,7.466398477554321289e-01,7.466114759445190430e-01,7.465831041336059570e-01,7.465547323226928711e-01,7.465263605117797852e-01,7.464980483055114746e-01,7.464696764945983887e-01,7.464413046836853027e-01,7.464129328727722168e-01,7.463845610618591309e-01,7.463561892509460449e-01,7.463278770446777344e-01,7.462995052337646484e-01,7.462711334228515625e-01,7.462428212165832520e-01,7.462144494056701660e-01,7.461861371994018555e-01,7.461577653884887695e-01,7.461294531822204590e-01,7.461010813713073730e-01,7.460727691650390625e-01,7.460443973541259766e-01,7.460160255432128906e-01,7.459877133369445801e-01,7.459594011306762695e-01,7.459310889244079590e-01,7.459027171134948730e-01,7.458744049072265625e-01,7.458460927009582520e-01,7.458177804946899414e-01
7.161579728126525879e-01,7.161318659782409668e-01,7.161057591438293457e-01,7.160796523094177246e-01,7.160535454750061035e-01,7.160274386405944824e-01,7.160012722015380859e-01,7.159751653671264648e-01,7.159491181373596191e-01,7.159230113029479980e-01,7.158969044685363770e-01,7.158708572387695312e-01,7.158447504043579102e-01,7.158186435699462891e-01,7.157925963401794434e-01,7.157664895057678223e-01,7.157404422760009766e-01,7.157143354415893555e-01,7.156882882118225098e-01,7.156621813774108887e-01,7.156361341476440430e-01,7.156100869178771973e-01,7.155839800834655762e-01,7.155579328536987305e-01,7.155318856239318848e-01,7.155058383941650391e-01,7.154797315597534180e-01,7.154536843299865723e-01,7.154276371002197266e-01,7.154015898704528809e-01,7.153755426406860352e-01,7.153494954109191895e-01,7.153234481811523438e-01,7.152974009513854980e-01,7.152713537216186523e-01,7.152452468872070312e-01,7.152191996574401855e-01,7.151931524276733398e-01,7.151671648025512695e-01,7.151411175727844238e-01,7.151150703430175781e-01,7.150890231132507324e-01,7.150630354881286621e-01,7.150369882583618164e-01,7.150110006332397461e-01,7.149849534034729004e-01,7.149589061737060547e-01,7.149329185485839844e-01,7.149068713188171387e-01,7.148808836936950684e-01,7.148548960685729980e-01,7.148288488388061523e-01,7.148028612136840820e-01,7.147768139839172363e-01,7.147508263587951660e-01,7.147248387336730957e-01,7.146988511085510254e-01,7.146728634834289551e-01,7.146468162536621094e-01,7.146208286285400391e-01,7.145948410034179688e-01,7.145688533782958984e-01,7.145428657531738281e-01,7.145168781280517578e-01,7.144908308982849121e-01,7.144648432731628418e-01,7.144388556480407715e-01,7.144128680229187012e-01,7.143868803977966309e-01,7.143609523773193359e-01,7.143349647521972656e-01,7.143089771270751953e-01,7.142829895019531250e-01,7.142570614814758301e-01,7.142310738563537598e-01,7.142050862312316895e-01,7.141791582107543945e-01,7.141531705856323242e-01,7.141272425651550293e-01,7.141012549400329590e-01
6.868642568588256836e-01,6.868402361869812012e-01,6.868162751197814941e-01,6.867922544479370117e-01,6.867682337760925293e-01,6.867442131042480469e-01,6.867201924324035645e-01,6.866962313652038574e-01,6.866722106933593750e-01,6.866481900215148926e-01,6.866242289543151855e-01,6.866002082824707031e-01,6.865761876106262207e-01,6.865522265434265137e-01,6.865282058715820312e-01,6.865042448043823242e-01,6.864802241325378418e-01,6.864562630653381348e-01,6.864323019981384277e-01,6.864082813262939453e-01,6.863843202590942383e-01,6.863603591918945312e-01,6.863363385200500488e-01,6.863123774528503418e-01,6.862884163856506348e-01,6.862644553184509277e-01,6.862404346466064453e-01,6.862164139747619629e-01,6.861924529075622559e-01,6.861684918403625488e-01,6.861445307731628418e-01,6.861205697059631348e-01,6.860966086387634277e-01,6.860726475715637207e-01,6.860486865043640137e-01,6.860247254371643066e-01,6.860007643699645996e-01,6.859768033027648926e-01,6.859528422355651855e-01,6.859289407730102539e-01,6.859049797058105469e-01,6.858810186386108398e-01,6.858570575714111328e-01,6.858331561088562012e-01,6.858091950416564941e-01,6.857852339744567871e-01,6.857613325119018555e-01,6.857373714447021484e-01,6.857134103775024414e-01,6.856895089149475098e-01,6.856655478477478027e-01,6.856416463851928711e-01,6.856176853179931641e-01,6.855937838554382324e-01,6.855698823928833008e-01,6.855459213256835938e-01,6.855220198631286621e-01,6.854980587959289551e-01,6.854740977287292480e-01,6.854501962661743164e-01,6.854262948036193848e-01,6.854023933410644531e-01,6.853784322738647461e-01,6.853545308113098145e-01,6.853306293487548828e-01,6.853067278861999512e-01,6.852828264236450195e-01,6.852589249610900879e-01,6.852350234985351562e-01,6.852111220359802246e-01,6.851872205734252930e-01,6.851633191108703613e-01,6.851394176483154297e-01,6.851155161857604980e-01,6.850916743278503418e-01,6.850677728652954102e-01,6.850438714027404785e-01,6.850199699401855469e-01,6.849960684776306152e-01,6.849722266197204590e-01
6.598729491233825684e-01,6.598507761955261230e-01,6.598286032676696777e-01,6.598064303398132324e-01,6.597842574119567871e-01,6.597621440887451172e-01,6.597399711608886719e-01,6.597177982330322266e-01,6.596956849098205566e-01,6.596735119819641113e-01,6.596513390541076660e-01,6.596292257308959961e-01,6.596070528030395508e-01,6.595849394798278809e-01,6.595627665519714355e-01,6.595406532287597656e-01,6.595184803009033203e-01,6.594963669776916504e-01,6.594741940498352051e-01,6.594520807266235352e-01,6.594299077987670898e-01,6.594077348709106445e-01,6.593856215476989746e-01,6.593635082244873047e-01,6.593413352966308594e-01,6.593192219734191895e-01,6.592971086502075195e-01,6.592749953269958496e-01,6.592528820037841797e-01,6.592307090759277344e-01,6.592085957527160645e-01,6.591864824295043945e-01,6.591643691062927246e-01,6.591422557830810547e-01,6.591201424598693848e-01,6.590980291366577148e-01,6.590759158134460449e-01,6.590538024902343750e-01,6.590316891670227051e-01,6.590095758438110352e-01,6.589874625205993652e-01,6.589654088020324707e-01,6.589432954788208008e-01,6.589211821556091309e-01,6.588990688323974609e-01,6.588769555091857910e-01,6.588549017906188965e-01,6.588327884674072266e-01,6.588106751441955566e-01,6.587885618209838867e-01,6.587664484977722168e-01,6.587443947792053223e-01,6.587222814559936523e-01,6.587001681327819824e-01,6.586781144142150879e-01,6.586560010910034180e-01,6.586339473724365234e-01,6.586118936538696289e-01,6.585897803306579590e-01,6.585677266120910645e-01,6.585456132888793945e-01,6.585235595703125000e-01,6.585015058517456055e-01,6.584793925285339355e-01,6.584573388099670410e-01,6.584352850914001465e-01,6.584132313728332520e-01,6.583911180496215820e-01,6.583690643310546875e-01,6.583470106124877930e-01,6.583249568939208984e-01,6.583029031753540039e-01,6.582808494567871094e-01,6.582587957382202148e-01,6.582367420196533203e-01,6.582146883010864258e-01,6.581926345825195312e-01,6.581705808639526367e-01,6.581484675407409668e-01,6.581264138221740723e-01
6.349226832389831543e-01,6.349021792411804199e-01,6.348816156387329102e-01,6.348611116409301758e-01,6.348406076431274414e-01,6.348201036453247070e-01,6.347995996475219727e-01,6.347790956497192383e-01,6.347585320472717285e-01,6.347380280494689941e-01,6.347175240516662598e-01,6.346970200538635254e-01,6.346765160560607910e-01,6.346559524536132812e-01,6.346355080604553223e-01,6.346150040626525879e-01,6.345945000648498535e-01,6.345739960670471191e-01,6.345534920692443848e-01,6.345329880714416504e-01,6.345124840736389160e-01,6.344919800758361816e-01,6.344715356826782227e-01,6.344510316848754883e-01,6.344305276870727539e-01,6.344100236892700195e-01,6.343895792961120605e-01,6.343690752983093262e-01,6.343485713005065918e-01,6.343281269073486328e-01,6.343076229095458984e-01,6.342871189117431641e-01,6.342666745185852051e-01,6.342461705207824707e-01,6.342257261276245117e-01,6.342052221298217773e-01,6.341847777366638184e-01,6.341642737388610840e-01,6.341438293457031250e-01,6.341233849525451660e-01,6.341028809547424316e-01,6.340824365615844727e-01,6.340619325637817383e-01,6.340414285659790039e-01,6.340209841728210449e-01,6.340005397796630859e-01,6.339800357818603516e-01,6.339595913887023926e-01,6.339391469955444336e-01,6.339187026023864746e-01,6.338982582092285156e-01,6.338778138160705566e-01,6.338573098182678223e-01,6.338368654251098633e-01,6.338164210319519043e-01,6.337959766387939453e-01,6.337755322456359863e-01,6.337550878524780273e-01,6.337346434593200684e-01,6.337141990661621094e-01,6.336937546730041504e-01,6.336733102798461914e-01,6.336528658866882324e-01,6.336324214935302734e-01,6.336119771003723145e-01,6.335915923118591309e-01,6.335711479187011719e-01,6.335507035255432129e-01,6.335302591323852539e-01,6.335098743438720703e-01,6.334894299507141113e-01,6.334689259529113770e-01,6.334485411643981934e-01,6.334280967712402344e-01,6.334076523780822754e-01,6.333872675895690918e-01,6.333668231964111328e-01,6.333464384078979492e-01,6.333259940147399902e-01,6.333055496215820312e-01
6.117904782295227051e-01,6.117714643478393555e-01,6.117523908615112305e-01,6.117333173751831055e-01,6.117143034934997559e-01,6.116952300071716309e-01,6.116761565208435059e-01,6.116571426391601562e-01,6.116380691528320312e-01,6.116190552711486816e-01,6.115999817848205566e-01,6.115809679031372070e-01,6.115618944168090820e-01,6.115428805351257324e-01,6.115238666534423828e-01,6.115047931671142578e-01,6.114857792854309082e-01,6.114667654037475586e-01,6.114476919174194336e-01,6.114286780357360840e-01,6.114096641540527344e-01,6.113905906677246094e-01,6.113715767860412598e-01,6.113525629043579102e-01,6.113335490226745605e-01,6.113145351409912109e-01,6.112955212593078613e-01,6.112764477729797363e-01,6.112574338912963867e-01,6.112384200096130371e-01,6.112194061279296875e-01,6.112003922462463379e-01,6.111813783645629883e-01,6.111623644828796387e-01,6.111433506011962891e-01,6.111242771148681641e-01,6.111053228378295898e-01,6.110863089561462402e-01,6.110672950744628906e-01,6.110482811927795410e-01,6.110292673110961914e-01,6.110102534294128418e-01,6.109912395477294922e-01,6.109722852706909180e-01,6.109532713890075684e-01,6.109342575073242188e-01,6.109152436256408691e-01,6.108962893486022949e-01,6.108772754669189453e-01,6.108582615852355957e-01,6.108392477035522461e-01,6.108202934265136719e-01,6.108012795448303223e-01,6.107823252677917480e-01,6.107633113861083984e-01,6.107442975044250488e-01,6.107253432273864746e-01,6.107063293457031250e-01,6.106873750686645508e-01,6.106683611869812012e-01,6.106494069099426270e-01,6.106304526329040527e-01,6.106114387512207031e-01,6.105924844741821289e-01,6.105734705924987793e-01,6.105544567108154297e-01,6.105355024337768555e-01,6.105165481567382812e-01,6.104975342750549316e-01,6.104785799980163574e-01,6.104596257209777832e-01,6.104406118392944336e-01,6.104216575622558594e-01,6.104027032852172852e-01,6.103837490081787109e-01,6.103647947311401367e-01,6.103457808494567871e-01,6.103268265724182129e-01,6.103078722953796387e-01,6.102889180183410645e-01
5.902845263481140137e-01,5.902668237686157227e-01,5.902490615844726562e-01,5.902313590049743652e-01,5.902135968208312988e-01,5.901958942413330078e-01,5.901781320571899414e-01,5.901604294776916504e-01,5.901426672935485840e-01,5.901249647140502930e-01,5.901072621345520020e-01,5.900894999504089355e-01,5.900717973709106445e-01,5.900540351867675781e-01,5.900363326072692871e-01,5.900186300277709961e-01,5.900009274482727051e-01,5.899831652641296387e-01,5.899654626846313477e-01,5.899477601051330566e-01,5.899300575256347656e-01,5.899122953414916992e-01,5.898945927619934082e-01,5.898768901824951172e-01,5.898591876029968262e-01,5.898414850234985352e-01,5.898237824440002441e-01,5.898060202598571777e-01,5.897883176803588867e-01,5.897706151008605957e-01,5.897529125213623047e-01,5.897352099418640137e-01,5.897175073623657227e-01,5.896998047828674316e-01,5.896821022033691406e-01,5.896643996238708496e-01,5.896466970443725586e-01,5.896289944648742676e-01,5.896112918853759766e-01,5.895935893058776855e-01,5.895759463310241699e-01,5.895582437515258789e-01,5.895405411720275879e-01,5.895228385925292969e-01,5.895051360130310059e-01,5.894874930381774902e-01,5.894697904586791992e-01,5.894520878791809082e-01,5.894343852996826172e-01,5.894167423248291016e-01,5.893990397453308105e-01,5.893813371658325195e-01,5.893636941909790039e-01,5.893459916114807129e-01,5.893282890319824219e-01,5.893106460571289062e-01,5.892929434776306152e-01,5.892752408981323242e-01,5.892575979232788086e-01,5.892398953437805176e-01,5.892222523689270020e-01,5.892045497894287109e-01,5.891869068145751953e-01,5.891692042350769043e-01,5.891515612602233887e-01,5.891338586807250977e-01,5.891162157058715820e-01,5.890985131263732910e-01,5.890808701515197754e-01,5.890632271766662598e-01,5.890455245971679688e-01,5.890278816223144531e-01,5.890102386474609375e-01,5.889925956726074219e-01,5.889748930931091309e-01,5.889572501182556152e-01,5.889396071434020996e-01,5.889219641685485840e-01,5.889042615890502930e-01,5.888866186141967773e-01
