5.000000000000000000e+00,5.000000000000000000e+00,5.000000000000000000e+00,5.000000000000000000e+00,5.000000000000000000e+00,5.000000000000000000e+00,5.000000000000000000e+00,5.000000000000000000e+00,5.000000000000000000e+00,5.000000000000000000e+00,5.000000000000000000e+00,5.000000000000000000e+00,5.000000000000000000e+00,5.000000000000000000e+00,5.000000000000000000e+00,5.000000000000000000e+00,5.000000000000000000e+00,5.000000000000000000e+00,5.000000000000000000e+00,5.000000000000000000e+00,5.000000000000000000e+00,5.000000000000000000e+00,5.000000000000000000e+00,5.000000000000000000e+00,5.000000000000000000e+00,5.000000000000000000e+00,5.000000000000000000e+00,5.000000000000000000e+00,5.000000000000000000e+00,2.244632005691528320e+00,2.226464509963989258e+00,2.229368448257446289e+00,2.218446731567382812e+00,2.191373348236083984e+00,2.187288045883178711e+00,2.193004131317138672e+00,2.208865165710449219e+00,2.234890222549438477e+00,2.289369583129882812e+00,2.378445625305175781e+00,2.413837432861328125e+00,4.494649887084960938e+00,4.330968856811523438e+00,4.178790092468261719e+00,4.036942481994628906e+00,3.904409408569335938e+00,3.780301570892333984e+00,3.663840293884277344e+00,3.554340600967407227e+00,3.451195955276489258e+00,3.353868961334228516e+00,3.261880636215209961e+00,3.174803972244262695e+00,3.092255115509033203e+00,3.013890504837036133e+00,2.939399480819702148e+00,2.868501901626586914e+00,2.800943851470947266e+00,2.736494541168212891e+00,2.674944877624511719e+00,2.616102695465087891e+00,2.559793710708618164e+00,2.505857706069946289e+00,2.454147577285766602e+00,2.404528617858886719e+00,2.356876373291015625e+00,2.311075925827026367e+00,2.267021656036376953e+00,2.224615573883056641e+00,2.183766841888427734e+00,2.144391059875488281e+00,2.106410264968872070e+00,2.069751501083374023e+00,2.034346818923950195e+00,2.000133037567138672e+00,1.967051029205322266e+00,1.935045361518859863e+00,1.904064774513244629e+00,1.874060392379760742e+00,1.844987034797668457e+00
5.000000000000000000e+00,5.000000000000000000e+00,5.000000000000000000e+00,5.000000000000000000e+00,5.000000000000000000e+00,5.000000000000000000e+00,5.000000000000000000e+00,5.000000000000000000e+00,5.000000000000000000e+00,5.000000000000000000e+00,5.000000000000000000e+00,5.000000000000000000e+00,5.000000000000000000e+00,5.000000000000000000e+00,5.000000000000000000e+00,5.000000000000000000e+00,5.000000000000000000e+00,5.000000000000000000e+00,5.000000000000000000e+00,5.000000000000000000e+00,5.000000000000000000e+00,5.000000000000000000e+00,5.000000000000000000e+00,5.000000000000000000e+00,5.000000000000000000e+00,5.000000000000000000e+00,5.000000000000000000e+00,5.000000000000000000e+00,5.000000000000000000e+00,2.251972198486328125e+00,2.232402801513671875e+00,2.241103887557983398e+00,2.204356193542480469e+00,2.179213047027587891e+00,2.175983905792236328e+00,2.187494039535522461e+00,2.216655731201171875e+00,2.238610506057739258e+00,2.316984176635742188e+00,2.387580871582031250e+00,2.418356895446777344e+00,4.494768142700195312e+00,4.331078529357910156e+00,4.178892135620117188e+00,4.037037849426269531e+00,3.904499053955078125e+00,3.780385255813598633e+00,3.663919210433959961e+00,3.554414749145507812e+00,3.451265811920166016e+00,3.353935003280639648e+00,3.261943101882934570e+00,3.174863100051879883e+00,3.092311382293701172e+00,3.013943672180175781e+00,2.939450263977050781e+00,2.868550062179565430e+00,2.800989866256713867e+00,2.736538648605346680e+00,2.674986839294433594e+00,2.616142988204956055e+00,2.559832334518432617e+00,2.505894660949707031e+00,2.454183101654052734e+00,2.404562473297119141e+00,2.356909036636352539e+00,2.311107158660888672e+00,2.267051696777343750e+00,2.224644660949707031e+00,2.183794736862182617e+00,2.144418001174926758e+00,2.106436252593994141e+00,2.069776296615600586e+00,2.034370899200439453e+00,2.000156402587890625e+00,1.967073678970336914e+00,1.935067296028137207e+00,1.904085874557495117e+00,1.874080896377563477e+00,1.845006942749023438e+00
5.000000000000000000e+00,5.000000000000000000e+00,5.000000000000000000e+00,5.000000000000000000e+00,5.000000000000000000e+00,5.000000000000000000e+00,5.000000000000000000e+00,5.000000000000000000e+00,5.000000000000000000e+00,5.000000000000000000e+00,5.000000000000000000e+00,5.000000000000000000e+00,5.000000000000000000e+00,5.000000000000000000e+00,5.000000000000000000e+00,5.000000000000000000e+00,5.000000000000000000e+00,5.000000000000000000e+00,5.000000000000000000e+00,5.000000000000000000e+00,5.000000000000000000e+00,5.000000000000000000e+00,5.000000000000000000e+00,5.000000000000000000e+00,5.000000000000000000e+00,5.000000000000000000e+00,5.000000000000000000e+00,5.000000000000000000e+00,5.000000000000000000e+00,2.260266065597534180e+00,2.239088058471679688e+00,2.237117052078247070e+00,2.198540210723876953e+00,2.173252820968627930e+00,2.167948484420776367e+00,2.181588649749755859e+00,2.206786870956420898e+00,2.227356195449829102e+00,2.282234668731689453e+00,2.400674104690551758e+00,2.424854040145874023e+00,4.494886875152587891e+00,4.331188678741455078e+00,4.178994655609130859e+00,4.037133693695068359e+00,3.904587984085083008e+00,3.780468940734863281e+00,3.663997650146484375e+00,3.554488420486450195e+00,3.451335430145263672e+00,3.354001045227050781e+00,3.262005567550659180e+00,3.174922227859497070e+00,3.092367410659790039e+00,3.013997077941894531e+00,2.939501047134399414e+00,2.868598461151123047e+00,2.801035881042480469e+00,2.736582517623901367e+00,2.675028800964355469e+00,2.616183042526245117e+00,2.559870719909667969e+00,2.505931377410888672e+00,2.454218387603759766e+00,2.404596567153930664e+00,2.356941461563110352e+00,2.311138629913330078e+00,2.267081975936889648e+00,2.224673748016357422e+00,2.183822870254516602e+00,2.144445180892944336e+00,2.106462478637695312e+00,2.069801568984985352e+00,2.034395217895507812e+00,2.000179767608642578e+00,1.967096209526062012e+00,1.935089111328125000e+00,1.904107093811035156e+00,1.874101400375366211e+00,1.845026850700378418e+00
5.000000000000000000e+00,5.000000000000000000e+00,5.000000000000000000e+00,5.000000000000000000e+00,5.000000000000000000e+00,5.000000000000000000e+00,5.000000000000000000e+00,5.000000000000000000e+00,5.000000000000000000e+00,5.000000000000000000e+00,5.000000000000000000e+00,5.000000000000000000e+00,5.000000000000000000e+00,5.000000000000000000e+00,5.000000000000000000e+00,5.000000000000000000e+00,5.000000000000000000e+00,5.000000000000000000e+00,5.000000000000000000e+00,5.000000000000000000e+00,5.000000000000000000e+00,5.000000000000000000e+00,5.000000000000000000e+00,5.000000000000000000e+00,5.000000000000000000e+00,5.000000000000000000e+00,5.000000000000000000e+00,5.000000000000000000e+00,5.000000000000000000e+00,5.000000000000000000e+00,2.244621753692626953e+00,2.229763507843017578e+00,2.192775964736938477e+00,2.184598445892333984e+00,2.180136442184448242e+00,2.190938472747802734e+00,2.205224990844726562e+00,2.222412824630737305e+00,2.272696018218994141e+00,2.415326833724975586e+00,2.432285785675048828e+00,4.495005607604980469e+00,4.331298828125000000e+00,4.179097175598144531e+00,4.037229537963867188e+00,3.904677391052246094e+00,3.780552864074707031e+00,3.664076328277587891e+00,3.554562807083129883e+00,3.451405286788940430e+00,3.354066610336303711e+00,3.262067794799804688e+00,3.174981117248535156e+00,3.092423200607299805e+00,3.014050245285034180e+00,2.939551591873168945e+00,2.868646860122680664e+00,2.801081895828247070e+00,2.736626386642456055e+00,2.675070762634277344e+00,2.616223335266113281e+00,2.559909105300903320e+00,2.505968332290649414e+00,2.454253673553466797e+00,2.404630422592163086e+00,2.356974124908447266e+00,2.311169862747192383e+00,2.267112255096435547e+00,2.224702596664428711e+00,2.183850765228271484e+00,2.144472122192382812e+00,2.106488466262817383e+00,2.069826602935791016e+00,2.034419536590576172e+00,2.000203371047973633e+00,1.967119097709655762e+00,1.935111284255981445e+00,1.904128432273864746e+00,1.874122142791748047e+00,1.845046877861022949e+00
5.000000000000000000e+00,5.000000000000000000e+00,5.000000000000000000e+00,5.000000000000000000e+00,5.000000000000000000e+00,5.000000000000000000e+00,5.000000000000000000e+00,5.000000000000000000e+00,5.000000000000000000e+00,5.000000000000000000e+00,5.000000000000000000e+00,5.000000000000000000e+00,5.000000000000000000e+00,5.000000000000000000e+00,5.000000000000000000e+00,5.000000000000000000e+00,5.000000000000000000e+00,5.000000000000000000e+00,5.000000000000000000e+00,5.000000000000000000e+00,5.000000000000000000e+00,5.000000000000000000e+00,5.000000000000000000e+00,5.000000000000000000e+00,5.000000000000000000e+00,5.000000000000000000e+00,5.000000000000000000e+00,5.000000000000000000e+00,5.000000000000000000e+00,2.254185438156127930e+00,2.228795528411865234e+00,2.223052263259887695e+00,2.183840513229370117e+00,2.182339191436767578e+00,2.183127164840698242e+00,2.192804336547851562e+00,2.205941200256347656e+00,2.240145921707153320e+00,2.305205583572387695e+00,2.402435064315795898e+00,2.404654264450073242e+00,4.495123863220214844e+00,4.331408500671386719e+00,4.179199695587158203e+00,4.037325382232666016e+00,3.904767036437988281e+00,3.780636548995971680e+00,3.664155244827270508e+00,3.554636955261230469e+00,3.451475381851196289e+00,3.354132652282714844e+00,3.262130260467529297e+00,3.175040245056152344e+00,3.092479467391967773e+00,3.014103412628173828e+00,2.939602136611938477e+00,2.868694782257080078e+00,2.801127672195434570e+00,2.736670255661010742e+00,2.675112724304199219e+00,2.616263628005981445e+00,2.559947729110717773e+00,2.506005287170410156e+00,2.454289197921752930e+00,2.404664278030395508e+00,2.357006788253784180e+00,2.311201333999633789e+00,2.267142295837402344e+00,2.224731683731079102e+00,2.183878898620605469e+00,2.144499063491821289e+00,2.106514453887939453e+00,2.069851875305175781e+00,2.034443855285644531e+00,2.000226736068725586e+00,1.967141747474670410e+00,1.935133099555969238e+00,1.904149651527404785e+00,1.874142646789550781e+00,1.845066785812377930e+00
5.000000000000000000e+00,5.000000000000000000e+00,5.000000000000000000e+00,5.000000000000000000e+00,5.000000000000000000e+00,5.000000000000000000e+00,5.000000000000000000e+00,5.000000000000000000e+00,5.000000000000000000e+00,5.000000000000000000e+00,5.000000000000000000e+00,5.000000000000000000e+00,5.000000000000000000e+00,5.000000000000000000e+00,5.000000000000000000e+00,5.000000000000000000e+00,5.000000000000000000e+00,5.000000000000000000e+00,5.000000000000000000e+00,5.000000000000000000e+00,5.000000000000000000e+00,5.000000000000000000e+00,5.000000000000000000e+00,5.000000000000000000e+00,5.000000000000000000e+00,5.000000000000000000e+00,5.000000000000000000e+00,5.000000000000000000e+00,5.000000000000000000e+00,5.000000000000000000e+00,2.218401193618774414e+00,2.215829133987426758e+00,2.175458669662475586e+00,2.176915407180786133e+00,2.197671890258789062e+00,2.210403919219970703e+00,2.224488496780395508e+00,2.248514652252197266e+00,2.307893037796020508e+00,2.394395589828491211e+00,2.387970685958862305e+00,4.495242118835449219e+00,4.331518650054931641e+00,4.179302215576171875e+00,4.037420749664306641e+00,3.904856443405151367e+00,3.780720472335815430e+00,3.664234161376953125e+00,3.554711103439331055e+00,3.451545238494873047e+00,3.354198694229125977e+00,3.262192726135253906e+00,3.175099372863769531e+00,3.092535495758056641e+00,3.014156818389892578e+00,2.939652919769287109e+00,2.868743181228637695e+00,2.801173925399780273e+00,2.736714124679565430e+00,2.675154685974121094e+00,2.616303443908691406e+00,2.559985876083374023e+00,2.506042003631591797e+00,2.454324245452880859e+00,2.404698133468627930e+00,2.357039451599121094e+00,2.311232566833496094e+00,2.267172574996948242e+00,2.224760770797729492e+00,2.183906793594360352e+00,2.144526004791259766e+00,2.106540441513061523e+00,2.069876909255981445e+00,2.034468173980712891e+00,2.000250339508056641e+00,1.967164516448974609e+00,1.935155153274536133e+00,1.904171109199523926e+00,1.874163389205932617e+00,1.845086932182312012e+00
5.000000000000000000e+00,5.000000000000000000e+00,5.000000000000000000e+00,5.000000000000000000e+00,5.000000000000000000e+00,5.000000000000000000e+00,5.000000000000000000e+00,5.000000000000000000e+00,5.000000000000000000e+00,5.000000000000000000e+00,5.000000000000000000e+00,5.000000000000000000e+00,5.000000000000000000e+00,5.000000000000000000e+00,5.000000000000000000e+00,5.000000000000000000e+00,5.000000000000000000e+00,5.000000000000000000e+00,5.000000000000000000e+00,5.000000000000000000e+00,5.000000000000000000e+00,5.000000000000000000e+00,5.000000000000000000e+00,5.000000000000000000e+00,5.000000000000000000e+00,5.000000000000000000e+00,5.000000000000000000e+00,5.000000000000000000e+00,5.000000000000000000e+00,5.000000000000000000e+00,2.208659887313842773e+00,2.208801746368408203e+00,2.162218093872070312e+00,2.163660049438476562e+00,2.171959638595581055e+00,2.229388952255249023e+00,2.246998071670532227e+00,2.252304792404174805e+00,2.282895326614379883e+00,2.403529644012451172e+00,2.368464231491088867e+00,4.495360851287841797e+00,4.331628799438476562e+00,4.179404735565185547e+00,4.037516117095947266e+00,3.904946088790893555e+00,3.780804395675659180e+00,3.664312839508056641e+00,3.554785251617431641e+00,3.451615095138549805e+00,3.354264736175537109e+00,3.262255191802978516e+00,3.175158739089965820e+00,3.092591762542724609e+00,3.014210224151611328e+00,2.939703702926635742e+00,2.868791580200195312e+00,2.801219940185546875e+00,2.736758232116699219e+00,2.675196647644042969e+00,2.616343736648559570e+00,2.560024499893188477e+00,2.506078720092773438e+00,2.454359769821166992e+00,2.404731988906860352e+00,2.357071876525878906e+00,2.311263799667358398e+00,2.267202615737915039e+00,2.224789619445800781e+00,2.183934688568115234e+00,2.144553184509277344e+00,2.106566667556762695e+00,2.069902181625366211e+00,2.034492492675781250e+00,2.000273704528808594e+00,1.967187166213989258e+00,1.935177087783813477e+00,1.904192209243774414e+00,1.874183893203735352e+00,1.845106720924377441e+00
5.000000000000000000e+00,5.000000000000000000e+00,5.000000000000000000e+00,5.000000000000000000e+00,5.000000000000000000e+00,5.000000000000000000e+00,5.000000000000000000e+00,5.000000000000000000e+00,5.000000000000000000e+00,5.000000000000000000e+00,5.000000000000000000e+00,5.000000000000000000e+00,5.000000000000000000e+00,5.000000000000000000e+00,5.000000000000000000e+00,5.000000000000000000e+00,5.000000000000000000e+00,5.000000000000000000e+00,5.000000000000000000e+00,5.000000000000000000e+00,5.000000000000000000e+00,5.000000000000000000e+00,5.000000000000000000e+00,5.000000000000000000e+00,5.000000000000000000e+00,5.000000000000000000e+00,5.000000000000000000e+00,5.000000000000000000e+00,5.000000000000000000e+00,5.000000000000000000e+00,2.193753719329833984e+00,2.205435514450073242e+00,2.154145956039428711e+00,2.152932882308959961e+00,2.154866456985473633e+00,2.205819129943847656e+00,2.233240842819213867e+00,2.230558633804321289e+00,2.228518247604370117e+00,2.299080848693847656e+00,2.366178035736083984e+00,2.362650156021118164e+00,4.331738948822021484e+00,4.179506778717041016e+00,4.037611961364746094e+00,3.905035495758056641e+00,3.780888319015502930e+00,3.664391756057739258e+00,3.554859399795532227e+00,3.451685190200805664e+00,3.354330778121948242e+00,3.262317657470703125e+00,3.175217866897583008e+00,3.092648029327392578e+00,3.014263391494750977e+00,2.939754247665405273e+00,2.868839740753173828e+00,2.801265954971313477e+00,2.736802101135253906e+00,2.675238609313964844e+00,2.616383790969848633e+00,2.560062885284423828e+00,2.506115674972534180e+00,2.454395055770874023e+00,2.404766082763671875e+00,2.357104539871215820e+00,2.311295270919799805e+00,2.267232656478881836e+00,2.224818706512451172e+00,2.183962583541870117e+00,2.144579887390136719e+00,2.106592416763305664e+00,2.069927215576171875e+00,2.034516572952270508e+00,2.000297069549560547e+00,1.967209696769714355e+00,1.935199141502380371e+00,1.904213666915893555e+00,1.874204635620117188e+00,1.845126867294311523e+00
5.000000000000000000e+00,5.000000000000000000e+00,5.000000000000000000e+00,5.000000000000000000e+00,5.000000000000000000e+00,5.000000000000000000e+00,5.000000000000000000e+00,5.000000000000000000e+00,5.000000000000000000e+00,5.000000000000000000e+00,5.000000000000000000e+00,5.000000000000000000e+00,5.000000000000000000e+00,5.000000000000000000e+00,5.000000000000000000e+00,5.000000000000000000e+00,5.000000000000000000e+00,5.000000000000000000e+00,5.000000000000000000e+00,5.000000000000000000e+00,5.000000000000000000e+00,5.000000000000000000e+00,5.000000000000000000e+00,5.000000000000000000e+00,5.000000000000000000e+00,5.000000000000000000e+00,5.000000000000000000e+00,5.000000000000000000e+00,5.000000000000000000e+00,5.000000000000000000e+00,2.197470426559448242e+00,2.214679002761840820e+00,2.148389816284179688e+00,2.149618387222290039e+00,2.151019334793090820e+00,2.183624505996704102e+00,2.227415084838867188e+00,2.214282989501953125e+00,2.215843677520751953e+00,2.271960020065307617e+00,2.390308141708374023e+00,2.357975721359252930e+00,4.331849098205566406e+00,4.179609775543212891e+00,4.037707328796386719e+00,3.905124664306640625e+00,3.780972003936767578e+00,3.664470195770263672e+00,3.554933309555053711e+00,3.451755046844482422e+00,3.354397058486938477e+00,3.262380123138427734e+00,3.175276994705200195e+00,3.092704057693481445e+00,3.014316797256469727e+00,2.939805030822753906e+00,2.868888139724731445e+00,2.801311969757080078e+00,2.736846208572387695e+00,2.675280809402465820e+00,2.616424083709716797e+00,2.560101270675659180e+00,2.506152629852294922e+00,2.454430341720581055e+00,2.404799938201904297e+00,2.357136964797973633e+00,2.311326503753662109e+00,2.267262935638427734e+00,2.224847793579101562e+00,2.183990716934204102e+00,2.144606828689575195e+00,2.106618642807006836e+00,2.069952249526977539e+00,2.034540891647338867e+00,2.000320672988891602e+00,1.967232584953308105e+00,1.935221076011657715e+00,1.904234766960144043e+00,1.874225139617919922e+00,1.845146775245666504e+00
5.000000000000000000e+00,5.000000000000000000e+00,5.000000000000000000e+00,5.000000000000000000e+00,5.000000000000000000e+00,5.000000000000000000e+00,5.000000000000000000e+00,5.000000000000000000e+00,5.000000000000000000e+00,5.000000000000000000e+00,5.000000000000000000e+00,5.000000000000000000e+00,5.000000000000000000e+00,5.000000000000000000e+00,5.000000000000000000e+00,5.000000000000000000e+00,5.000000000000000000e+00,5.000000000000000000e+00,5.000000000000000000e+00,5.000000000000000000e+00,5.000000000000000000e+00,5.000000000000000000e+00,5.000000000000000000e+00,5.000000000000000000e+00,5.000000000000000000e+00,5.000000000000000000e+00,5.000000000000000000e+00,5.000000000000000000e+00,5.000000000000000000e+00,5.000000000000000000e+00,2.183505535125732422e+00,2.201778650283813477e+00,2.160057306289672852e+00,2.148952484130859375e+00,2.150247812271118164e+00,2.178179264068603516e+00,2.229953527450561523e+00,2.208114624023437500e+00,2.210083723068237305e+00,2.253228425979614258e+00,2.339570760726928711e+00,2.327270746231079102e+00,4.331959247589111328e+00,4.179712295532226562e+00,4.037803173065185547e+00,3.905214071273803711e+00,3.781055927276611328e+00,3.664548873901367188e+00,3.555007457733154297e+00,3.451824665069580078e+00,3.354462623596191406e+00,3.262442350387573242e+00,3.175335884094238281e+00,3.092759847640991211e+00,3.014370203018188477e+00,2.939855813980102539e+00,2.868936538696289062e+00,2.801358222961425781e+00,2.736890077590942383e+00,2.675322771072387695e+00,2.616464376449584961e+00,2.560139894485473633e+00,2.506189346313476562e+00,2.454465866088867188e+00,2.404834032058715820e+00,2.357169628143310547e+00,2.311357975006103516e+00,2.267292976379394531e+00,2.224876880645751953e+00,2.184018611907958984e+00,2.144634008407592773e+00,2.106644630432128906e+00,2.069977521896362305e+00,2.034565210342407227e+00,2.000344038009643555e+00,1.967255115509033203e+00,1.935242891311645508e+00,1.904255986213684082e+00,1.874245643615722656e+00,1.845166683197021484e+00
5.000000000000000000e+00,5.000000000000000000e+00,5.000000000000000000e+00,5.000000000000000000e+00,5.000000000000000000e+00,5.000000000000000000e+00,5.000000000000000000e+00,5.000000000000000000e+00,5.000000000000000000e+00,5.000000000000000000e+00,5.000000000000000000e+00,5.000000000000000000e+00,5.000000000000000000e+00,5.000000000000000000e+00,5.000000000000000000e+00,5.000000000000000000e+00,5.000000000000000000e+00,5.000000000000000000e+00,5.000000000000000000e+00,5.000000000000000000e+00,5.000000000000000000e+00,5.000000000000000000e+00,5.000000000000000000e+00,5.000000000000000000e+00,5.000000000000000000e+00,5.000000000000000000e+00,5.000000000000000000e+00,5.000000000000000000e+00,5.000000000000000000e+00,5.000000000000000000e+00,2.160821676254272461e+00,2.168633937835693359e+00,2.173503875732421875e+00,2.149382114410400391e+00,2.149581432342529297e+00,2.174865007400512695e+00,2.231646537780761719e+00,2.202053070068359375e+00,2.205960273742675781e+00,2.237288713455200195e+00,4.672469139099121094e+00,2.399349689483642578e+00,4.332068920135498047e+00,4.179814815521240234e+00,4.037899017333984375e+00,3.905303716659545898e+00,3.781139850616455078e+00,3.664627790451049805e+00,3.555081605911254883e+00,3.451894760131835938e+00,3.354528665542602539e+00,3.262504816055297852e+00,3.175395250320434570e+00,3.092816114425659180e+00,3.014423370361328125e+00,2.939906358718872070e+00,2.868984460830688477e+00,2.801403999328613281e+00,2.736933946609497070e+00,2.675364732742309570e+00,2.616504430770874023e+00,2.560178279876708984e+00,2.506226301193237305e+00,2.454501152038574219e+00,2.404867887496948242e+00,2.357202291488647461e+00,2.311389446258544922e+00,2.267323255538940430e+00,2.224905967712402344e+00,2.184046745300292969e+00,2.144660949707031250e+00,2.106670618057250977e+00,2.070002555847167969e+00,2.034589529037475586e+00,2.000367641448974609e+00,1.967278003692626953e+00,1.935265064239501953e+00,1.904277443885803223e+00,1.874266386032104492e+00,1.845186710357666016e+00
5.000000000000000000e+00,5.000000000000000000e+00,5.000000000000000000e+00,5.000000000000000000e+00,5.000000000000000000e+00,5.000000000000000000e+00,5.000000000000000000e+00,5.000000000000000000e+00,5.000000000000000000e+00,5.000000000000000000e+00,5.000000000000000000e+00,5.000000000000000000e+00,5.000000000000000000e+00,5.000000000000000000e+00,5.000000000000000000e+00,5.000000000000000000e+00,5.000000000000000000e+00,5.000000000000000000e+00,5.000000000000000000e+00,5.000000000000000000e+00,5.000000000000000000e+00,5.000000000000000000e+00,5.000000000000000000e+00,5.000000000000000000e+00,5.000000000000000000e+00,5.000000000000000000e+00,5.000000000000000000e+00,5.000000000000000000e+00,5.000000000000000000e+00,2.219266653060913086e+00,2.148495912551879883e+00,2.158063411712646484e+00,2.187119245529174805e+00,2.150163412094116211e+00,2.149593353271484375e+00,2.169802904129028320e+00,2.232945442199707031e+00,2.195419311523437500e+00,2.200202226638793945e+00,2.222972154617309570e+00,4.672597408294677734e+00,4.495953559875488281e+00,2.289304494857788086e+00,4.179916858673095703e+00,4.037994384765625000e+00,3.905393362045288086e+00,3.781223773956298828e+00,3.664706707000732422e+00,3.555155754089355469e+00,3.451964616775512695e+00,3.354594707489013672e+00,3.262567281723022461e+00,3.175454378128051758e+00,3.092872142791748047e+00,3.014476537704467773e+00,2.939957141876220703e+00,2.869032859802246094e+00,2.801450014114379883e+00,2.736977815628051758e+00,2.675406455993652344e+00,2.616544485092163086e+00,2.560216665267944336e+00,2.506263017654418945e+00,2.454536437988281250e+00,2.404901981353759766e+00,2.357234954833984375e+00,2.311420679092407227e+00,2.267353534698486328e+00,2.224935054779052734e+00,2.184074640274047852e+00,2.144687891006469727e+00,2.106696605682373047e+00,2.070027828216552734e+00,2.034613847732543945e+00,2.000391244888305664e+00,1.967300653457641602e+00,1.935286879539489746e+00,1.904298543930053711e+00,1.874286890029907227e+00,1.845206618309020996e+00
5.000000000000000000e+00,5.000000000000000000e+00,5.000000000000000000e+00,5.000000000000000000e+00,5.000000000000000000e+00,5.000000000000000000e+00,5.000000000000000000e+00,5.000000000000000000e+00,5.000000000000000000e+00,5.000000000000000000e+00,5.000000000000000000e+00,5.000000000000000000e+00,5.000000000000000000e+00,5.000000000000000000e+00,5.000000000000000000e+00,5.000000000000000000e+00,5.000000000000000000e+00,5.000000000000000000e+00,5.000000000000000000e+00,5.000000000000000000e+00,5.000000000000000000e+00,5.000000000000000000e+00,5.000000000000000000e+00,5.000000000000000000e+00,5.000000000000000000e+00,5.000000000000000000e+00,5.000000000000000000e+00,5.000000000000000000e+00,5.000000000000000000e+00,5.000000000000000000e+00,2.136815071105957031e+00,5.000000000000000000e+00,2.205235719680786133e+00,2.149758815765380859e+00,2.147539138793945312e+00,2.164245128631591797e+00,2.234203100204467773e+00,2.195486783981323242e+00,2.194621801376342773e+00,2.205585956573486328e+00,4.672725200653076172e+00,4.496072292327880859e+00,4.332289218902587891e+00,4.180019855499267578e+00,4.038090229034423828e+00,3.905482769012451172e+00,3.781307697296142578e+00,3.664785623550415039e+00,3.555230140686035156e+00,3.452034473419189453e+00,3.354660749435424805e+00,3.262629985809326172e+00,3.175513505935668945e+00,3.092928409576416016e+00,3.014529943466186523e+00,2.940007925033569336e+00,2.869081258773803711e+00,2.801496028900146484e+00,2.737021923065185547e+00,2.675448656082153320e+00,2.616584539413452148e+00,2.560255050659179688e+00,2.506299734115600586e+00,2.454571723937988281e+00,2.404935598373413086e+00,2.357267379760742188e+00,2.311451911926269531e+00,2.267383575439453125e+00,2.224963903427124023e+00,2.184102773666381836e+00,2.144715070724487305e+00,2.106722831726074219e+00,2.070053100585937500e+00,2.034638166427612305e+00,2.000414609909057617e+00,1.967323422431945801e+00,1.935309052467346191e+00,1.904320001602172852e+00,1.874307632446289062e+00,1.845226764678955078e+00
5.000000000000000000e+00,5.000000000000000000e+00,5.000000000000000000e+00,5.000000000000000000e+00,5.000000000000000000e+00,5.000000000000000000e+00,5.000000000000000000e+00,5.000000000000000000e+00,5.000000000000000000e+00,5.000000000000000000e+00,5.000000000000000000e+00,5.000000000000000000e+00,5.000000000000000000e+00,5.000000000000000000e+00,5.000000000000000000e+00,5.000000000000000000e+00,5.000000000000000000e+00,5.000000000000000000e+00,5.000000000000000000e+00,5.000000000000000000e+00,5.000000000000000000e+00,5.000000000000000000e+00,5.000000000000000000e+00,5.000000000000000000e+00,5.000000000000000000e+00,5.000000000000000000e+00,5.000000000000000000e+00,5.000000000000000000e+00,5.000000000000000000e+00,5.000000000000000000e+00,5.000000000000000000e+00,5.000000000000000000e+00,2.232058048248291016e+00,2.161060571670532227e+00,2.144133090972900391e+00,2.158931732177734375e+00,2.237790584564208984e+00,2.194482564926147461e+00,2.189668416976928711e+00,2.195996761322021484e+00,4.672853469848632812e+00,4.496190547943115234e+00,4.332399845123291016e+00,4.180122375488281250e+00,4.038186073303222656e+00,3.905572414398193359e+00,3.781391620635986328e+00,3.664864301681518555e+00,3.555304288864135742e+00,3.452104568481445312e+00,3.354727029800415039e+00,3.262692451477050781e+00,3.175572872161865234e+00,3.092984676361083984e+00,3.014583349227905273e+00,2.940058469772338867e+00,2.869129419326782227e+00,2.801542282104492188e+00,2.737065792083740234e+00,2.675490617752075195e+00,2.616624832153320312e+00,2.560293674468994141e+00,2.506336688995361328e+00,2.454607009887695312e+00,2.404969692230224609e+00,2.357300043106079102e+00,2.311483383178710938e+00,2.267413616180419922e+00,2.224992990493774414e+00,2.184130668640136719e+00,2.144741773605346680e+00,2.106748819351196289e+00,2.070077896118164062e+00,2.034662246704101562e+00,2.000438213348388672e+00,1.967346072196960449e+00,1.935330867767333984e+00,1.904341220855712891e+00,1.874328136444091797e+00,1.845246553421020508e+00
5.000000000000000000e+00,5.000000000000000000e+00,5.000000000000000000e+00,5.000000000000000000e+00,5.000000000000000000e+00,5.000000000000000000e+00,5.000000000000000000e+00,5.000000000000000000e+00,5.000000000000000000e+00,5.000000000000000000e+00,5.000000000000000000e+00,5.000000000000000000e+00,5.000000000000000000e+00,5.000000000000000000e+00,5.000000000000000000e+00,5.000000000000000000e+00,5.000000000000000000e+00,5.000000000000000000e+00,5.000000000000000000e+00,5.000000000000000000e+00,5.000000000000000000e+00,5.000000000000000000e+00,5.000000000000000000e+00,5.000000000000000000e+00,5.000000000000000000e+00,5.000000000000000000e+00,5.000000000000000000e+00,5.000000000000000000e+00,5.000000000000000000e+00,5.000000000000000000e+00,5.000000000000000000e+00,5.000000000000000000e+00,5.000000000000000000e+00,2.177059412002563477e+00,2.144628763198852539e+00,2.153285741806030273e+00,2.268416166305541992e+00,2.194557905197143555e+00,2.181105852127075195e+00,2.191697120666503906e+00,4.672981262207031250e+00,4.496309280395507812e+00,4.332509517669677734e+00,4.180224418640136719e+00,4.038281440734863281e+00,3.905661344528198242e+00,3.781475067138671875e+00,3.664943218231201172e+00,3.555378437042236328e+00,3.452174425125122070e+00,3.354793071746826172e+00,3.262754917144775391e+00,3.175631999969482422e+00,3.093040704727172852e+00,3.014636754989624023e+00,2.940109252929687500e+00,2.869177818298339844e+00,2.801588296890258789e+00,2.737109899520874023e+00,2.675532579421997070e+00,2.616665124893188477e+00,2.560332059860229492e+00,2.506373643875122070e+00,2.454642534255981445e+00,2.405003547668457031e+00,2.357332706451416016e+00,2.311514616012573242e+00,2.267443895339965820e+00,2.225022077560424805e+00,2.184158563613891602e+00,2.144768714904785156e+00,2.106774806976318359e+00,2.070103168487548828e+00,2.034686565399169922e+00,2.000461578369140625e+00,1.967368721961975098e+00,1.935352802276611328e+00,1.904362320899963379e+00,1.874348759651184082e+00,1.845266699790954590e+00
5.000000000000000000e+00,5.000000000000000000e+00,5.000000000000000000e+00,5.000000000000000000e+00,5.000000000000000000e+00,5.000000000000000000e+00,5.000000000000000000e+00,5.000000000000000000e+00,5.000000000000000000e+00,5.000000000000000000e+00,5.000000000000000000e+00,5.000000000000000000e+00,5.000000000000000000e+00,5.000000000000000000e+00,5.000000000000000000e+00,5.000000000000000000e+00,5.000000000000000000e+00,5.000000000000000000e+00,5.000000000000000000e+00,5.000000000000000000e+00,5.000000000000000000e+00,5.000000000000000000e+00,5.000000000000000000e+00,5.000000000000000000e+00,5.000000000000000000e+00,5.000000000000000000e+00,5.000000000000000000e+00,5.000000000000000000e+00,5.000000000000000000e+00,5.000000000000000000e+00,5.000000000000000000e+00,5.000000000000000000e+00,5.000000000000000000e+00,2.193944215774536133e+00,2.146856069564819336e+00,2.147761344909667969e+00,5.000000000000000000e+00,2.194633245468139648e+00,2.172610044479370117e+00,2.184546470642089844e+00,4.673109531402587891e+00,4.496428012847900391e+00,4.332619667053222656e+00,4.180326938629150391e+00,4.038377285003662109e+00,3.905750989913940430e+00,3.781559228897094727e+00,3.665021657943725586e+00,3.555452346801757812e+00,3.452244043350219727e+00,3.354858875274658203e+00,3.262817144393920898e+00,3.175690889358520508e+00,3.093096971511840820e+00,3.014689922332763672e+00,2.940160036087036133e+00,2.869226217269897461e+00,2.801634311676025391e+00,2.737153768539428711e+00,2.675574541091918945e+00,2.616705179214477539e+00,2.560370683670043945e+00,2.506410598754882812e+00,2.454677820205688477e+00,2.405037641525268555e+00,2.357365369796752930e+00,2.311546087265014648e+00,2.267473936080932617e+00,2.225051164627075195e+00,2.184186458587646484e+00,2.144795894622802734e+00,2.106800794601440430e+00,2.070128440856933594e+00,2.034710884094238281e+00,2.000484943389892578e+00,1.967391490936279297e+00,1.935374855995178223e+00,1.904383778572082520e+00,1.874369502067565918e+00,1.845286607742309570e+00
5.000000000000000000e+00,5.000000000000000000e+00,5.000000000000000000e+00,5.000000000000000000e+00,5.000000000000000000e+00,5.000000000000000000e+00,5.000000000000000000e+00,5.000000000000000000e+00,5.000000000000000000e+00,5.000000000000000000e+00,5.000000000000000000e+00,5.000000000000000000e+00,5.000000000000000000e+00,5.000000000000000000e+00,5.000000000000000000e+00,5.000000000000000000e+00,5.000000000000000000e+00,5.000000000000000000e+00,5.000000000000000000e+00,5.000000000000000000e+00,5.000000000000000000e+00,5.000000000000000000e+00,5.000000000000000000e+00,5.000000000000000000e+00,5.000000000000000000e+00,5.000000000000000000e+00,5.000000000000000000e+00,5.000000000000000000e+00,5.000000000000000000e+00,5.000000000000000000e+00,5.000000000000000000e+00,5.000000000000000000e+00,5.000000000000000000e+00,2.209255933761596680e+00,2.156777620315551758e+00,2.154674530029296875e+00,5.000000000000000000e+00,2.199258804321289062e+00,2.176674842834472656e+00,2.189865112304687500e+00,4.673237800598144531e+00,4.496546745300292969e+00,4.332729816436767578e+00,4.180429935455322266e+00,4.038473129272460938e+00,3.905840635299682617e+00,3.781643152236938477e+00,3.665100574493408203e+00,3.555526494979858398e+00,3.452314138412475586e+00,3.354924917221069336e+00,3.262879610061645508e+00,3.175750017166137695e+00,3.093152761459350586e+00,3.014743089675903320e+00,2.940210580825805664e+00,2.869274139404296875e+00,2.801680088043212891e+00,2.737197875976562500e+00,2.675616741180419922e+00,2.616745471954345703e+00,2.560409069061279297e+00,2.506447315216064453e+00,2.454713106155395508e+00,2.405071496963500977e+00,2.357397794723510742e+00,2.311577320098876953e+00,2.267504215240478516e+00,2.225080251693725586e+00,2.184214591979980469e+00,2.144822835922241211e+00,2.106826782226562500e+00,2.070153474807739258e+00,2.034735202789306641e+00,2.000508546829223633e+00,1.967414140701293945e+00,1.935396790504455566e+00,1.904404878616333008e+00,1.874390006065368652e+00,1.845306515693664551e+00
5.000000000000000000e+00,5.000000000000000000e+00,5.000000000000000000e+00,5.000000000000000000e+00,5.000000000000000000e+00,5.000000000000000000e+00,5.000000000000000000e+00,5.000000000000000000e+00,5.000000000000000000e+00,5.000000000000000000e+00,5.000000000000000000e+00,5.000000000000000000e+00,5.000000000000000000e+00,5.000000000000000000e+00,5.000000000000000000e+00,5.000000000000000000e+00,5.000000000000000000e+00,5.000000000000000000e+00,5.000000000000000000e+00,5.000000000000000000e+00,5.000000000000000000e+00,5.000000000000000000e+00,5.000000000000000000e+00,5.000000000000000000e+00,5.000000000000000000e+00,5.000000000000000000e+00,5.000000000000000000e+00,5.000000000000000000e+00,5.000000000000000000e+00,5.000000000000000000e+00,5.000000000000000000e+00,5.000000000000000000e+00,5.000000000000000000e+00,2.203559875488281250e+00,2.175439596176147461e+00,2.176507472991943359e+00,2.270925283432006836e+00,2.225300550460815430e+00,2.196426868438720703e+00,2.207723855972290039e+00,4.673365592956542969e+00,4.496665000915527344e+00,4.332839965820312500e+00,4.180531978607177734e+00,4.038568496704101562e+00,3.905930042266845703e+00,3.781727075576782227e+00,3.665179491043090820e+00,3.555600881576538086e+00,3.452383995056152344e+00,3.354990959167480469e+00,3.262942075729370117e+00,3.175809383392333984e+00,3.093209028244018555e+00,3.014796495437622070e+00,2.940261363983154297e+00,2.869322538375854492e+00,2.801726341247558594e+00,2.737241506576538086e+00,2.675658464431762695e+00,2.616785526275634766e+00,2.560447454452514648e+00,2.506484031677246094e+00,2.454748630523681641e+00,2.405105352401733398e+00,2.357430458068847656e+00,2.311608791351318359e+00,2.267534494400024414e+00,2.225109338760375977e+00,2.184242486953735352e+00,2.144849777221679688e+00,2.106853008270263672e+00,2.070178747177124023e+00,2.034759521484375000e+00,2.000531911849975586e+00,1.967436909675598145e+00,1.935418844223022461e+00,1.904426336288452148e+00,1.874410748481750488e+00,1.845326542854309082e+00
5.000000000000000000e+00,5.000000000000000000e+00,5.000000000000000000e+00,5.000000000000000000e+00,5.000000000000000000e+00,5.000000000000000000e+00,5.000000000000000000e+00,5.000000000000000000e+00,5.000000000000000000e+00,5.000000000000000000e+00,5.000000000000000000e+00,5.000000000000000000e+00,5.000000000000000000e+00,5.000000000000000000e+00,5.000000000000000000e+00,5.000000000000000000e+00,5.000000000000000000e+00,5.000000000000000000e+00,5.000000000000000000e+00,5.000000000000000000e+00,5.000000000000000000e+00,5.000000000000000000e+00,5.000000000000000000e+00,5.000000000000000000e+00,5.000000000000000000e+00,5.000000000000000000e+00,5.000000000000000000e+00,5.000000000000000000e+00,5.000000000000000000e+00,5.000000000000000000e+00,5.000000000000000000e+00,5.000000000000000000e+00,5.000000000000000000e+00,2.207954883575439453e+00,2.191802978515625000e+00,2.200122117996215820e+00,2.302023649215698242e+00,2.261404514312744141e+00,2.250021696090698242e+00,4.864660739898681641e+00,4.673493862152099609e+00,4.496783733367919922e+00,4.332950115203857422e+00,4.180634498596191406e+00,4.038664340972900391e+00,3.906019687652587891e+00,3.781810998916625977e+00,3.665258407592773438e+00,3.555675029754638672e+00,3.452454090118408203e+00,3.355057001113891602e+00,3.263004541397094727e+00,3.175868511199951172e+00,3.093265056610107422e+00,3.014849901199340820e+00,2.940312147140502930e+00,2.869370937347412109e+00,2.801772356033325195e+00,2.737285614013671875e+00,2.675700426101684570e+00,2.616825580596923828e+00,2.560485839843750000e+00,2.506520986557006836e+00,2.454783678054809570e+00,2.405139207839965820e+00,2.357462882995605469e+00,2.311640024185180664e+00,2.267564535140991211e+00,2.225138425827026367e+00,2.184270620346069336e+00,2.144876956939697266e+00,2.106878995895385742e+00,2.070203781127929688e+00,2.034783840179443359e+00,2.000555515289306641e+00,1.967459559440612793e+00,1.935440778732299805e+00,1.904447555541992188e+00,1.874431252479553223e+00,1.845346450805664062e+00
5.000000000000000000e+00,5.000000000000000000e+00,5.000000000000000000e+00,5.000000000000000000e+00,5.000000000000000000e+00,5.000000000000000000e+00,5.000000000000000000e+00,5.000000000000000000e+00,5.000000000000000000e+00,5.000000000000000000e+00,5.000000000000000000e+00,5.000000000000000000e+00,5.000000000000000000e+00,5.000000000000000000e+00,5.000000000000000000e+00,5.000000000000000000e+00,5.000000000000000000e+00,5.000000000000000000e+00,5.000000000000000000e+00,5.000000000000000000e+00,5.000000000000000000e+00,5.000000000000000000e+00,5.000000000000000000e+00,5.000000000000000000e+00,5.000000000000000000e+00,5.000000000000000000e+00,5.000000000000000000e+00,5.000000000000000000e+00,5.000000000000000000e+00,5.000000000000000000e+00,5.000000000000000000e+00,5.000000000000000000e+00,5.000000000000000000e+00,2.220067501068115234e+00,2.207209110260009766e+00,2.234943628311157227e+00,2.318192720413208008e+00,2.311085224151611328e+00,5.000000000000000000e+00,4.864798545837402344e+00,4.673622131347656250e+00,4.496902465820312500e+00,4.333060264587402344e+00,4.180737495422363281e+00,4.038759708404541016e+00,3.906109333038330078e+00,3.781894922256469727e+00,3.665337085723876953e+00,3.555749177932739258e+00,3.452523946762084961e+00,3.355123043060302734e+00,3.263067007064819336e+00,3.175927639007568359e+00,3.093321323394775391e+00,3.014903306961059570e+00,2.940362930297851562e+00,2.869419336318969727e+00,2.801818370819091797e+00,2.737329483032226562e+00,2.675742626190185547e+00,2.616865873336791992e+00,2.560524225234985352e+00,2.506557941436767578e+00,2.454819202423095703e+00,2.405173301696777344e+00,2.357495546340942383e+00,2.311671257019042969e+00,2.267594575881958008e+00,2.225167274475097656e+00,2.184298515319824219e+00,2.144903659820556641e+00,2.106904983520507812e+00,2.070228815078735352e+00,2.034808158874511719e+00,2.000578880310058594e+00,1.967482447624206543e+00,1.935462832450866699e+00,1.904468894004821777e+00,1.874451994895935059e+00,1.845366597175598145e+00
5.000000000000000000e+00,5.000000000000000000e+00,5.000000000000000000e+00,5.000000000000000000e+00,5.000000000000000000e+00,5.000000000000000000e+00,5.000000000000000000e+00,5.000000000000000000e+00,5.000000000000000000e+00,5.000000000000000000e+00,5.000000000000000000e+00,5.000000000000000000e+00,5.000000000000000000e+00,5.000000000000000000e+00,5.000000000000000000e+00,5.000000000000000000e+00,5.000000000000000000e+00,5.000000000000000000e+00,5.000000000000000000e+00,5.000000000000000000e+00,5.000000000000000000e+00,5.000000000000000000e+00,5.000000000000000000e+00,5.000000000000000000e+00,5.000000000000000000e+00,5.000000000000000000e+00,5.000000000000000000e+00,5.000000000000000000e+00,5.000000000000000000e+00,5.000000000000000000e+00,5.000000000000000000e+00,5.000000000000000000e+00,5.000000000000000000e+00,2.231058120727539062e+00,2.213150501251220703e+00,2.240245580673217773e+00,2.350377321243286133e+00,2.345533847808837891e+00,5.000000000000000000e+00,4.864936828613281250e+00,4.673749446868896484e+00,4.497021198272705078e+00,4.333170413970947266e+00,4.180839538574218750e+00,4.038855552673339844e+00,3.906198501586914062e+00,3.781979084014892578e+00,3.665416002273559570e+00,3.555823564529418945e+00,3.452594041824340820e+00,3.355189085006713867e+00,3.263129711151123047e+00,3.175987005233764648e+00,3.093377590179443359e+00,3.014956474304199219e+00,2.940413475036621094e+00,2.869467496871948242e+00,2.801864624023437500e+00,2.737373590469360352e+00,2.675784587860107422e+00,2.616906166076660156e+00,2.560562849044799805e+00,2.506594657897949219e+00,2.454854488372802734e+00,2.405207157135009766e+00,2.357528209686279297e+00,2.311702728271484375e+00,2.267624855041503906e+00,2.225196361541748047e+00,2.184326410293579102e+00,2.144930839538574219e+00,2.106930971145629883e+00,2.070254087448120117e+00,2.034832477569580078e+00,2.000602245330810547e+00,1.967504978179931641e+00,1.935484766960144043e+00,1.904490113258361816e+00,1.874472498893737793e+00,1.845386385917663574e+00
5.000000000000000000e+00,5.000000000000000000e+00,5.000000000000000000e+00,5.000000000000000000e+00,5.000000000000000000e+00,5.000000000000000000e+00,5.000000000000000000e+00,5.000000000000000000e+00,5.000000000000000000e+00,5.000000000000000000e+00,5.000000000000000000e+00,5.000000000000000000e+00,5.000000000000000000e+00,5.000000000000000000e+00,5.000000000000000000e+00,5.000000000000000000e+00,5.000000000000000000e+00,5.000000000000000000e+00,5.000000000000000000e+00,5.000000000000000000e+00,5.000000000000000000e+00,5.000000000000000000e+00,5.000000000000000000e+00,5.000000000000000000e+00,5.000000000000000000e+00,5.000000000000000000e+00,5.000000000000000000e+00,5.000000000000000000e+00,5.000000000000000000e+00,5.000000000000000000e+00,5.000000000000000000e+00,5.000000000000000000e+00,5.000000000000000000e+00,2.242126464843750000e+00,2.219809055328369141e+00,2.244675397872924805e+00,2.385615348815917969e+00,5.000000000000000000e+00,5.000000000000000000e+00,4.865075588226318359e+00,4.673877239227294922e+00,4.497139930725097656e+00,4.333280563354492188e+00,4.180942058563232422e+00,4.038951396942138672e+00,3.906287908554077148e+00,3.782062530517578125e+00,3.665494441986083984e+00,3.555897235870361328e+00,3.452663660049438477e+00,3.355254888534545898e+00,3.263192176818847656e+00,3.176046133041381836e+00,3.093433618545532227e+00,3.015009880065917969e+00,2.940464258193969727e+00,2.869515895843505859e+00,2.801910638809204102e+00,2.737417459487915039e+00,2.675826549530029297e+00,2.616946220397949219e+00,2.560601234436035156e+00,2.506631612777709961e+00,2.454890012741088867e+00,2.405241250991821289e+00,2.357560873031616211e+00,2.311734199523925781e+00,2.267654895782470703e+00,2.225225448608398438e+00,2.184354543685913086e+00,2.144957780838012695e+00,2.106956958770751953e+00,2.070279121398925781e+00,2.034856796264648438e+00,2.000625848770141602e+00,1.967527627944946289e+00,1.935506582260131836e+00,1.904511332511901855e+00,1.874493002891540527e+00,1.845406293869018555e+00
5.000000000000000000e+00,5.000000000000000000e+00,5.000000000000000000e+00,5.000000000000000000e+00,5.000000000000000000e+00,5.000000000000000000e+00,5.000000000000000000e+00,5.000000000000000000e+00,5.000000000000000000e+00,5.000000000000000000e+00,5.000000000000000000e+00,5.000000000000000000e+00,5.000000000000000000e+00,5.000000000000000000e+00,5.000000000000000000e+00,5.000000000000000000e+00,5.000000000000000000e+00,5.000000000000000000e+00,5.000000000000000000e+00,5.000000000000000000e+00,5.000000000000000000e+00,5.000000000000000000e+00,5.000000000000000000e+00,5.000000000000000000e+00,5.000000000000000000e+00,5.000000000000000000e+00,5.000000000000000000e+00,5.000000000000000000e+00,5.000000000000000000e+00,5.000000000000000000e+00,5.000000000000000000e+00,5.000000000000000000e+00,5.000000000000000000e+00,2.253527879714965820e+00,2.228422880172729492e+00,2.248675107955932617e+00,2.423820257186889648e+00,5.000000000000000000e+00,5.000000000000000000e+00,4.865214347839355469e+00,4.674005031585693359e+00,4.497257709503173828e+00,4.333390712738037109e+00,4.181045055389404297e+00,4.039047241210937500e+00,3.906377553939819336e+00,3.782146453857421875e+00,3.665573358535766602e+00,3.555971622467041016e+00,3.452733516693115234e+00,3.355320930480957031e+00,3.263254404067993164e+00,3.176105022430419922e+00,3.093489646911621094e+00,3.015063047409057617e+00,2.940514802932739258e+00,2.869564294815063477e+00,2.801956653594970703e+00,2.737461566925048828e+00,2.675868749618530273e+00,2.616986513137817383e+00,2.560639858245849609e+00,2.506668567657470703e+00,2.454925298690795898e+00,2.405275106430053711e+00,2.357593536376953125e+00,2.311765432357788086e+00,2.267685174942016602e+00,2.225254535675048828e+00,2.184382438659667969e+00,2.144984722137451172e+00,2.106983184814453125e+00,2.070304393768310547e+00,2.034881114959716797e+00,2.000649452209472656e+00,1.967550516128540039e+00,1.935528755187988281e+00,1.904532670974731445e+00,1.874513745307922363e+00,1.845426440238952637e+00
5.000000000000000000e+00,5.000000000000000000e+00,5.000000000000000000e+00,5.000000000000000000e+00,5.000000000000000000e+00,5.000000000000000000e+00,5.000000000000000000e+00,5.000000000000000000e+00,5.000000000000000000e+00,5.000000000000000000e+00,5.000000000000000000e+00,5.000000000000000000e+00,5.000000000000000000e+00,5.000000000000000000e+00,5.000000000000000000e+00,5.000000000000000000e+00,5.000000000000000000e+00,5.000000000000000000e+00,5.000000000000000000e+00,5.000000000000000000e+00,5.000000000000000000e+00,5.000000000000000000e+00,5.000000000000000000e+00,5.000000000000000000e+00,5.000000000000000000e+00,5.000000000000000000e+00,5.000000000000000000e+00,5.000000000000000000e+00,5.000000000000000000e+00,5.000000000000000000e+00,5.000000000000000000e+00,5.000000000000000000e+00,5.000000000000000000e+00,2.265862703323364258e+00,2.239756345748901367e+00,2.254798412322998047e+00,5.000000000000000000e+00,5.000000000000000000e+00,5.000000000000000000e+00,4.865352630615234375e+00,4.674133300781250000e+00,4.497375965118408203e+00,4.333499908447265625e+00,4.181147098541259766e+00,4.039142608642578125e+00,3.906467199325561523e+00,3.782230377197265625e+00,3.665652275085449219e+00,3.556045770645141602e+00,3.452803611755371094e+00,3.355387210845947266e+00,3.263316869735717773e+00,3.176164388656616211e+00,3.093545675277709961e+00,3.015116453170776367e+00,2.940565586090087891e+00,2.869612455368041992e+00,2.802002668380737305e+00,2.737505197525024414e+00,2.675910472869873047e+00,2.617026567459106445e+00,2.560678005218505859e+00,2.506705284118652344e+00,2.454960584640502930e+00,2.405308961868286133e+00,2.357626199722290039e+00,2.311796903610229492e+00,2.267715454101562500e+00,2.225283622741699219e+00,2.184410572052001953e+00,2.145011663436889648e+00,2.107009172439575195e+00,2.070329427719116211e+00,2.034905195236206055e+00,2.000672817230224609e+00,1.967573046684265137e+00,1.935550570487976074e+00,1.904553890228271484e+00,1.874534249305725098e+00,1.845446348190307617e+00
5.000000000000000000e+00,5.000000000000000000e+00,5.000000000000000000e+00,5.000000000000000000e+00,5.000000000000000000e+00,5.000000000000000000e+00,5.000000000000000000e+00,5.000000000000000000e+00,5.000000000000000000e+00,5.000000000000000000e+00,5.000000000000000000e+00,5.000000000000000000e+00,5.000000000000000000e+00,5.000000000000000000e+00,5.000000000000000000e+00,5.000000000000000000e+00,5.000000000000000000e+00,5.000000000000000000e+00,5.000000000000000000e+00,5.000000000000000000e+00,5.000000000000000000e+00,5.000000000000000000e+00,5.000000000000000000e+00,5.000000000000000000e+00,5.000000000000000000e+00,5.000000000000000000e+00,5.000000000000000000e+00,5.000000000000000000e+00,5.000000000000000000e+00,5.000000000000000000e+00,5.000000000000000000e+00,5.000000000000000000e+00,5.000000000000000000e+00,2.279143095016479492e+00,2.250715732574462891e+00,2.261336326599121094e+00,5.000000000000000000e+00,5.000000000000000000e+00,5.000000000000000000e+00,4.865490913391113281e+00,4.674260616302490234e+00,4.497494220733642578e+00,4.333610057830810547e+00,4.181249141693115234e+00,4.039238452911376953e+00,3.906556844711303711e+00,3.782314538955688477e+00,3.665731191635131836e+00,3.556120157241821289e+00,3.452873706817626953e+00,3.355453252792358398e+00,3.263379335403442383e+00,3.176223516464233398e+00,3.093601942062377930e+00,3.015169858932495117e+00,2.940616369247436523e+00,2.869660615921020508e+00,2.802048683166503906e+00,2.737549304962158203e+00,2.675952434539794922e+00,2.617066621780395508e+00,2.560716629028320312e+00,2.506742000579833984e+00,2.454995870590209961e+00,2.405342817306518555e+00,2.357658624649047852e+00,2.311828136444091797e+00,2.267745494842529297e+00,2.225312709808349609e+00,2.184438467025756836e+00,2.145038843154907227e+00,2.107035160064697266e+00,2.070354700088500977e+00,2.034929513931274414e+00,2.000696420669555664e+00,1.967595934867858887e+00,1.935572743415832520e+00,1.904575228691101074e+00,1.874554991722106934e+00,1.845466375350952148e+00
4.875731945037841797e+00,4.874520778656005859e+00,4.873310565948486328e+00,4.872100830078125000e+00,4.870891094207763672e+00,4.869682788848876953e+00,4.868474483489990234e+00,4.867267131805419922e+00,4.866060256958007812e+00,4.864853858947753906e+00,4.863647937774658203e+00,4.862442970275878906e+00,4.861238479614257812e+00,4.860034465789794922e+00,4.858830928802490234e+00,4.857628822326660156e+00,4.856426239013671875e+00,4.855225086212158203e+00,4.854024410247802734e+00,4.852823734283447266e+00,4.851624011993408203e+00,4.850425243377685547e+00,4.849226474761962891e+00,4.848028182983398438e+00,4.846830844879150391e+00,4.845634460449218750e+00,4.844438076019287109e+00,4.843242168426513672e+00,4.842047691345214844e+00,4.840853214263916016e+00,4.839659214019775391e+00,4.838466167449951172e+00,4.837273120880126953e+00,2.303800821304321289e+00,2.264064311981201172e+00,2.267911911010742188e+00,4.832508087158203125e+00,4.831318378448486328e+00,4.830129623413085938e+00,4.828940868377685547e+00,4.674388885498046875e+00,4.497612476348876953e+00,4.333719730377197266e+00,4.181351661682128906e+00,4.039334297180175781e+00,3.906646490097045898e+00,3.782398462295532227e+00,3.665810108184814453e+00,3.556194305419921875e+00,3.452943563461303711e+00,3.355519294738769531e+00,3.263441801071166992e+00,3.176282882690429688e+00,3.093658208847045898e+00,3.015223264694213867e+00,2.940667152404785156e+00,2.869709014892578125e+00,2.802094697952270508e+00,2.737593173980712891e+00,2.675994634628295898e+00,2.617106914520263672e+00,2.560755014419555664e+00,2.506778955459594727e+00,2.455031156539916992e+00,2.405376911163330078e+00,2.357691287994384766e+00,2.311859369277954102e+00,2.267775535583496094e+00,2.225341558456420898e+00,2.184466361999511719e+00,2.145065784454345703e+00,2.107061147689819336e+00,2.070379734039306641e+00,2.034953832626342773e+00,2.000719785690307617e+00,1.967618584632873535e+00,1.935594558715820312e+00,1.904596447944641113e+00,1.874575495719909668e+00,1.845486283302307129e+00
3.778546333312988281e+00,3.777818918228149414e+00,3.777091979980468750e+00,3.776365041732788086e+00,3.775638580322265625e+00,3.774912118911743164e+00,3.774186134338378906e+00,3.773460388183593750e+00,3.772735118865966797e+00,3.772009849548339844e+00,3.771285057067871094e+00,3.770560264587402344e+00,3.769835948944091797e+00,3.769111871719360352e+00,3.768388032913208008e+00,3.767664909362792969e+00,3.766941547393798828e+00,3.766218662261962891e+00,3.765496015548706055e+00,3.764773368835449219e+00,3.764051198959350586e+00,3.763329744338989258e+00,3.762608051300048828e+00,3.761886835098266602e+00,3.761165857315063477e+00,3.760444879531860352e+00,3.759724378585815430e+00,3.759004354476928711e+00,3.758284807205200195e+00,3.757565021514892578e+00,3.756845712661743164e+00,3.756126403808593750e+00,3.755407571792602539e+00,3.754688978195190430e+00,2.289434909820556641e+00,2.312896013259887695e+00,3.752535343170166016e+00,3.751817941665649414e+00,3.751100540161132812e+00,3.750383615493774414e+00,3.749666929244995117e+00,3.748950958251953125e+00,3.748234987258911133e+00,3.747519016265869141e+00,3.746803522109985352e+00,3.746088266372680664e+00,3.745373249053955078e+00,3.665889024734497070e+00,3.556268453598022461e+00,3.453013658523559570e+00,3.355585575103759766e+00,3.263504505157470703e+00,3.176342010498046875e+00,3.093714237213134766e+00,3.015276670455932617e+00,2.940717935562133789e+00,2.869757413864135742e+00,2.802140951156616211e+00,2.737637281417846680e+00,2.676036596298217773e+00,2.617147207260131836e+00,2.560793638229370117e+00,2.506815910339355469e+00,2.455066680908203125e+00,2.405410766601562500e+00,2.357723951339721680e+00,2.311890840530395508e+00,2.267805814743041992e+00,2.225370645523071289e+00,2.184494495391845703e+00,2.145092725753784180e+00,2.107087135314941406e+00,2.070404767990112305e+00,2.034978151321411133e+00,2.000743150711059570e+00,1.967641115188598633e+00,1.935616493225097656e+00,1.904617905616760254e+00,1.874596238136291504e+00,1.845506429672241211e+00
3.084452152252197266e+00,3.083967447280883789e+00,3.083483219146728516e+00,3.082998752593994141e+00,3.082514286041259766e+00,3.082030296325683594e+00,3.081546068191528320e+00,3.081062316894531250e+00,3.080578804016113281e+00,3.080095291137695312e+00,3.079612016677856445e+00,3.079128742218017578e+00,3.078645706176757812e+00,3.078162670135498047e+00,3.077679872512817383e+00,3.077197551727294922e+00,3.076714992523193359e+00,3.076232671737670898e+00,3.075750589370727539e+00,3.075268507003784180e+00,3.074786663055419922e+00,3.074305057525634766e+00,3.073823451995849609e+00,3.073342084884643555e+00,3.072860717773437500e+00,3.072379589080810547e+00,3.071898698806762695e+00,3.071417808532714844e+00,3.070937395095825195e+00,3.070456981658935547e+00,3.069976568222045898e+00,3.069496154785156250e+00,3.069016218185424805e+00,3.068536281585693359e+00,2.287642240524291992e+00,2.267818927764892578e+00,3.067097663879394531e+00,3.066618442535400391e+00,3.066139221191406250e+00,3.065660238265991211e+00,3.065181255340576172e+00,3.064702987670898438e+00,3.064224243164062500e+00,3.063745975494384766e+00,3.063267707824707031e+00,3.062789440155029297e+00,3.062311410903930664e+00,3.061833858489990234e+00,3.061356306076049805e+00,3.060878753662109375e+00,3.060401201248168945e+00,3.059924125671386719e+00,3.059447050094604492e+00,3.058969974517822266e+00,3.015329837799072266e+00,2.940768718719482422e+00,2.869805812835693359e+00,2.802186965942382812e+00,2.737681150436401367e+00,2.676078796386718750e+00,2.617187261581420898e+00,2.560832023620605469e+00,2.506852865219116211e+00,2.455101966857910156e+00,2.405444860458374023e+00,2.357756614685058594e+00,2.311922311782836914e+00,2.267836093902587891e+00,2.225399732589721680e+00,2.184522390365600586e+00,2.145119667053222656e+00,2.107113361358642578e+00,2.070430040359497070e+00,2.035002470016479492e+00,2.000766754150390625e+00,1.967664003372192383e+00,1.935638546943664551e+00,1.904639124870300293e+00,1.874616742134094238e+00,1.845526337623596191e+00
2.605786323547363281e+00,2.605440378189086914e+00,2.605094671249389648e+00,2.604748964309692383e+00,2.604403257369995117e+00,2.604057550430297852e+00,2.603712081909179688e+00,2.603366613388061523e+00,2.603021383285522461e+00,2.602676153182983398e+00,2.602330923080444336e+00,2.601985931396484375e+00,2.601640939712524414e+00,2.601295948028564453e+00,2.600951194763183594e+00,2.600606679916381836e+00,2.600262165069580078e+00,2.599917650222778320e+00,2.599573135375976562e+00,2.599228858947753906e+00,2.598884582519531250e+00,2.598540544509887695e+00,2.598196506500244141e+00,2.597852468490600586e+00,2.597508668899536133e+00,2.597164869308471680e+00,2.596821069717407227e+00,2.596477508544921875e+00,2.596134185791015625e+00,2.595790624618530273e+00,2.595447301864624023e+00,2.595104217529296875e+00,2.594760894775390625e+00,2.594417810440063477e+00,2.263576745986938477e+00,2.235591650009155273e+00,2.231093883514404297e+00,2.593046665191650391e+00,2.592704057693481445e+00,2.592361688613891602e+00,2.592019081115722656e+00,2.591676950454711914e+00,2.591334819793701172e+00,2.590992450714111328e+00,2.590650558471679688e+00,2.590308427810668945e+00,2.589966535568237305e+00,2.589625120162963867e+00,2.589283227920532227e+00,2.588941574096679688e+00,2.588600158691406250e+00,2.588258743286132812e+00,2.587917327880859375e+00,2.587576150894165039e+00,2.587235212326049805e+00,2.586894035339355469e+00,2.586553096771240234e+00,2.586212158203125000e+00,2.585871458053588867e+00,2.585530519485473633e+00,2.585190296173095703e+00,2.560870647430419922e+00,2.506889581680297852e+00,2.455137491226196289e+00,2.405478715896606445e+00,2.357789278030395508e+00,2.311953544616699219e+00,2.267866134643554688e+00,2.225428819656372070e+00,2.184550523757934570e+00,2.145146608352661133e+00,2.107139348983764648e+00,2.070455312728881836e+00,2.035026788711547852e+00,2.000790119171142578e+00,1.967686653137207031e+00,1.935660481452941895e+00,1.904660224914550781e+00,1.874637365341186523e+00,1.845546245574951172e+00
2.255730152130126953e+00,2.255470991134643555e+00,2.255211591720581055e+00,2.254952430725097656e+00,2.254693269729614258e+00,2.254434108734130859e+00,2.254174947738647461e+00,2.253916025161743164e+00,2.253656864166259766e+00,2.253398180007934570e+00,2.253139257431030273e+00,2.252880334854125977e+00,2.252621889114379883e+00,2.252362966537475586e+00,2.252104520797729492e+00,2.251846075057983398e+00,2.251587390899658203e+00,2.251328945159912109e+00,2.251070737838745117e+00,2.250812292098999023e+00,2.250554084777832031e+00,2.250295877456665039e+00,2.250037670135498047e+00,2.249779701232910156e+00,2.249521970748901367e+00,2.249264001846313477e+00,2.249006271362304688e+00,2.248748540878295898e+00,2.248491048812866211e+00,2.248233318328857422e+00,2.247975826263427734e+00,2.247718334197998047e+00,2.247460842132568359e+00,2.247203350067138672e+00,2.246946334838867188e+00,2.191925048828125000e+00,2.183822870254516602e+00,2.184834241867065430e+00,2.245917558670043945e+00,2.245660543441772461e+00,2.245403528213500977e+00,2.245146751403808594e+00,2.244889974594116211e+00,2.244633197784423828e+00,2.244376420974731445e+00,2.244119644165039062e+00,2.243863105773925781e+00,2.243606805801391602e+00,2.243350267410278320e+00,2.243093729019165039e+00,2.242837429046630859e+00,2.242581129074096680e+00,2.242324829101562500e+00,2.242068529129028320e+00,2.241812467575073242e+00,2.241556406021118164e+00,2.241300344467163086e+00,2.241044521331787109e+00,2.240788459777832031e+00,2.240532636642456055e+00,2.240277051925659180e+00,2.240021228790283203e+00,2.239765644073486328e+00,2.239510059356689453e+00,2.239254474639892578e+00,2.238998889923095703e+00,2.238743543624877930e+00,2.238488197326660156e+00,2.225457906723022461e+00,2.184578418731689453e+00,2.145173788070678711e+00,2.107165336608886719e+00,2.070480346679687500e+00,2.035051107406616211e+00,2.000813722610473633e+00,1.967709422111511230e+00,1.935682535171508789e+00,1.904681682586669922e+00,1.874657988548278809e+00,1.845566272735595703e+00
1.988592863082885742e+00,1.988391160964965820e+00,1.988189697265625000e+00,1.987988233566284180e+00,1.987786650657653809e+00,1.987585306167602539e+00,1.987384080886840820e+00,1.987182497978210449e+00,1.986981272697448730e+00,1.986780166625976562e+00,1.986578702926635742e+00,1.986377716064453125e+00,1.986176609992980957e+00,1.985975623130798340e+00,1.985774397850036621e+00,1.985573410987854004e+00,1.985372543334960938e+00,1.985171437263488770e+00,1.984970688819885254e+00,1.984769940376281738e+00,1.984568953514099121e+00,1.984368205070495605e+00,1.984167575836181641e+00,1.983966708183288574e+00,1.983766198158264160e+00,1.983565568923950195e+00,1.983364939689636230e+00,1.983164429664611816e+00,1.982964038848876953e+00,1.982763409614562988e+00,1.982563138008117676e+00,1.982362866401672363e+00,1.982162356376647949e+00,1.981962084770202637e+00,1.981761932373046875e+00,1.981561660766601562e+00,1.981361508369445801e+00,1.981161475181579590e+00,1.980961203575134277e+00,1.980761289596557617e+00,1.980561375617980957e+00,1.980361223220825195e+00,1.980161428451538086e+00,1.979961514472961426e+00,1.979761838912963867e+00,1.979561805725097656e+00,1.979362130165100098e+00,1.979162573814392090e+00,1.978962659835815430e+00,1.978763103485107422e+00,1.978563547134399414e+00,1.978363871574401855e+00,1.978164434432983398e+00,1.977964997291564941e+00,1.977765440940856934e+00,1.977566123008728027e+00,1.977366805076599121e+00,1.977167367935180664e+00,1.976968169212341309e+00,1.976768970489501953e+00,1.976569652557373047e+00,1.976370573043823242e+00,1.976171493530273438e+00,1.975972294807434082e+00,1.975773334503173828e+00,1.975574374198913574e+00,1.975375294685363770e+00,1.975176453590393066e+00,1.974977612495422363e+00,1.974778652191162109e+00,1.974579930305480957e+00,1.974381208419799805e+00,1.974182367324829102e+00,1.973983764648437500e+00,1.973785161972045898e+00,1.967732071876525879e+00,1.935704469680786133e+00,1.904702901840209961e+00,1.874678611755371094e+00,1.845586180686950684e+00
1.778027772903442383e+00,1.777866721153259277e+00,1.777705669403076172e+00,1.777544617652893066e+00,1.777383446693420410e+00,1.777222394943237305e+00,1.777061462402343750e+00,1.776900410652160645e+00,1.776739478111267090e+00,1.776578664779663086e+00,1.776417613029479980e+00,1.776256799697875977e+00,1.776095986366271973e+00,1.775935053825378418e+00,1.775774359703063965e+00,1.775613665580749512e+00,1.775452852249145508e+00,1.775292158126831055e+00,1.775131583213806152e+00,1.774970889091491699e+00,1.774810314178466797e+00,1.774649858474731445e+00,1.774489164352416992e+00,1.774328708648681641e+00,1.774168252944946289e+00,1.774007678031921387e+00,1.773847341537475586e+00,1.773687005043029785e+00,1.773526430130004883e+00,1.773366212844848633e+00,1.773205876350402832e+00,1.773045539855957031e+00,1.772885322570800781e+00,1.772725105285644531e+00,1.772564768791198730e+00,1.772404670715332031e+00,1.772244572639465332e+00,1.772084593772888184e+00,1.771924376487731934e+00,1.771764397621154785e+00,1.771604418754577637e+00,1.771444320678710938e+00,1.771284341812133789e+00,1.771124482154846191e+00,1.770964503288269043e+00,1.770804643630981445e+00,1.770644903182983398e+00,1.770484924316406250e+00,1.770325183868408203e+00,1.770165443420410156e+00,1.770005583763122559e+00,1.769845962524414062e+00,1.769686341285705566e+00,1.769526600837707520e+00,1.769366979598999023e+00,1.769207477569580078e+00,1.769047737121582031e+00,1.768888354301452637e+00,1.768728852272033691e+00,1.768569231033325195e+00,1.768409848213195801e+00,1.768250465393066406e+00,1.768090963363647461e+00,1.767931699752807617e+00,1.767772436141967773e+00,1.767612934112548828e+00,1.767453789710998535e+00,1.767294526100158691e+00,1.767135381698608398e+00,1.766976118087768555e+00,1.766816973686218262e+00,1.766657948493957520e+00,1.766498684883117676e+00,1.766339659690856934e+00,1.766180753707885742e+00,1.766021609306335449e+00,1.765862703323364258e+00,1.765703797340393066e+00,1.765544652938842773e+00,1.765385866165161133e+00
1.607785224914550781e+00,1.607653498649597168e+00,1.607521772384643555e+00,1.607389926910400391e+00,1.607258319854736328e+00,1.607126712799072266e+00,1.606994867324829102e+00,1.606863260269165039e+00,1.606731772422790527e+00,1.606600046157836914e+00,1.606468439102172852e+00,1.606336951255798340e+00,1.606205344200134277e+00,1.606073856353759766e+00,1.605942368507385254e+00,1.605810880661010742e+00,1.605679392814636230e+00,1.605548024177551270e+00,1.605416536331176758e+00,1.605285167694091797e+00,1.605153918266296387e+00,1.605022430419921875e+00,1.604891180992126465e+00,1.604759931564331055e+00,1.604628562927246094e+00,1.604497313499450684e+00,1.604366183280944824e+00,1.604234933853149414e+00,1.604103684425354004e+00,1.603972554206848145e+00,1.603841423988342285e+00,1.603710293769836426e+00,1.603579163551330566e+00,1.603448152542114258e+00,1.603317022323608398e+00,1.603186011314392090e+00,1.603055000305175781e+00,1.602923870086669922e+00,1.602792978286743164e+00,1.602662086486816406e+00,1.602531075477600098e+00,1.602400183677673340e+00,1.602269291877746582e+00,1.602138400077819824e+00,1.602007508277893066e+00,1.601876735687255859e+00,1.601745843887329102e+00,1.601615071296691895e+00,1.601484417915344238e+00,1.601353526115417480e+00,1.601222872734069824e+00,1.601092219352722168e+00,1.600961446762084961e+00,1.600830793380737305e+00,1.600700259208679199e+00,1.600569605827331543e+00,1.600439071655273438e+00,1.600308537483215332e+00,1.600177884101867676e+00,1.600047349929809570e+00,1.599916815757751465e+00,1.599786400794982910e+00,1.599655866622924805e+00,1.599525451660156250e+00,1.599395036697387695e+00,1.599264621734619141e+00,1.599134206771850586e+00,1.599003911018371582e+00,1.598873496055603027e+00,1.598743200302124023e+00,1.598613023757934570e+00,1.598482608795166016e+00,1.598352432250976562e+00,1.598222255706787109e+00,1.598091959953308105e+00,1.597961783409118652e+00,1.597831606864929199e+00,1.597701430320739746e+00,1.597571372985839844e+00,1.597441315650939941e+00
1.467294692993164062e+00,1.467185020446777344e+00,1.467075109481811523e+00,1.466965436935424805e+00,1.466855883598327637e+00,1.466746091842651367e+00,1.466636419296264648e+00,1.466526746749877930e+00,1.466417074203491211e+00,1.466307520866394043e+00,1.466197967529296875e+00,1.466088294982910156e+00,1.465978741645812988e+00,1.465869188308715820e+00,1.465759634971618652e+00,1.465650081634521484e+00,1.465540647506713867e+00,1.465431094169616699e+00,1.465321660041809082e+00,1.465212225914001465e+00,1.465102791786193848e+00,1.464993238449096680e+00,1.464883923530578613e+00,1.464774608612060547e+00,1.464665174484252930e+00,1.464555740356445312e+00,1.464446544647216797e+00,1.464337110519409180e+00,1.464227795600891113e+00,1.464118599891662598e+00,1.464009165763854980e+00,1.463899970054626465e+00,1.463790774345397949e+00,1.463681459426879883e+00,1.463572263717651367e+00,1.463463068008422852e+00,1.463353872299194336e+00,1.463244676589965820e+00,1.463135600090026855e+00,1.463026404380798340e+00,1.462917327880859375e+00,1.462808251380920410e+00,1.462699174880981445e+00,1.462590098381042480e+00,1.462481141090393066e+00,1.462371945381164551e+00,1.462262988090515137e+00,1.462154030799865723e+00,1.462044954299926758e+00,1.461935997009277344e+00,1.461827158927917480e+00,1.461718201637268066e+00,1.461609244346618652e+00,1.461500406265258789e+00,1.461391568183898926e+00,1.461282610893249512e+00,1.461173772811889648e+00,1.461064934730529785e+00,1.460956096649169922e+00,1.460847258567810059e+00,1.460738539695739746e+00,1.460629701614379883e+00,1.460520982742309570e+00,1.460412263870239258e+00,1.460303425788879395e+00,1.460194826126098633e+00,1.460086107254028320e+00,1.459977388381958008e+00,1.459868788719177246e+00,1.459760189056396484e+00,1.459651470184326172e+00,1.459542870521545410e+00,1.459434270858764648e+00,1.459325671195983887e+00,1.459217190742492676e+00,1.459108591079711914e+00,1.458999991416931152e+00,1.458891510963439941e+00,1.458783030509948730e+00,1.458674550056457520e+00
1.349383592605590820e+00,1.349290728569030762e+00,1.349197983741760254e+00,1.349105238914489746e+00,1.349012374877929688e+00,1.348919630050659180e+00,1.348826885223388672e+00,1.348734021186828613e+00,1.348641395568847656e+00,1.348548650741577148e+00,1.348455905914306641e+00,1.348363280296325684e+00,1.348270535469055176e+00,1.348177909851074219e+00,1.348085284233093262e+00,1.347992658615112305e+00,1.347900032997131348e+00,1.347807288169860840e+00,1.347714781761169434e+00,1.347622156143188477e+00,1.347529530525207520e+00,1.347437024116516113e+00,1.347344517707824707e+00,1.347251892089843750e+00,1.347159385681152344e+00,1.347066998481750488e+00,1.346974372863769531e+00,1.346881866455078125e+00,1.346789479255676270e+00,1.346696972846984863e+00,1.346604585647583008e+00,1.346512079238891602e+00,1.346419572830200195e+00,1.346327185630798340e+00,1.346234917640686035e+00,1.346142411231994629e+00,1.346050024032592773e+00,1.345957756042480469e+00,1.345865368843078613e+00,1.345772981643676758e+00,1.345680713653564453e+00,1.345588326454162598e+00,1.345496058464050293e+00,1.345403790473937988e+00,1.345311522483825684e+00,1.345219254493713379e+00,1.345126986503601074e+00,1.345034837722778320e+00,1.344942569732666016e+00,1.344850301742553711e+00,1.344758152961730957e+00,1.344665884971618652e+00,1.344573736190795898e+00,1.344481706619262695e+00,1.344389438629150391e+00,1.344297289848327637e+00,1.344205260276794434e+00,1.344112992286682129e+00,1.344020962715148926e+00,1.343928933143615723e+00,1.343836784362792969e+00,1.343744754791259766e+00,1.343652725219726562e+00,1.343560576438903809e+00,1.343468666076660156e+00,1.343376636505126953e+00,1.343284606933593750e+00,1.343192696571350098e+00,1.343100666999816895e+00,1.343008637428283691e+00,1.342916727066040039e+00,1.342824816703796387e+00,1.342732906341552734e+00,1.342640995979309082e+00,1.342549085617065430e+00,1.342457294464111328e+00,1.342365384101867676e+00,1.342273473739624023e+00,1.342181682586669922e+00,1.342089772224426270e+00
1.249013423919677734e+00,1.248933911323547363e+00,1.248854398727416992e+00,1.248775005340576172e+00,1.248695492744445801e+00,1.248615980148315430e+00,1.248536586761474609e+00,1.248457074165344238e+00,1.248377561569213867e+00,1.248298168182373047e+00,1.248218655586242676e+00,1.248139262199401855e+00,1.248059868812561035e+00,1.247980475425720215e+00,1.247901082038879395e+00,1.247821688652038574e+00,1.247742295265197754e+00,1.247662901878356934e+00,1.247583627700805664e+00,1.247504234313964844e+00,1.247424840927124023e+00,1.247345566749572754e+00,1.247266173362731934e+00,1.247186899185180664e+00,1.247107625007629395e+00,1.247028350830078125e+00,1.246949076652526855e+00,1.246869802474975586e+00,1.246790528297424316e+00,1.246711254119873047e+00,1.246632099151611328e+00,1.246552824974060059e+00,1.246473670005798340e+00,1.246394515037536621e+00,1.246315240859985352e+00,1.246236085891723633e+00,1.246156930923461914e+00,1.246077775955200195e+00,1.245998501777648926e+00,1.245919466018676758e+00,1.245840311050415039e+00,1.245761156082153320e+00,1.245682001113891602e+00,1.245602965354919434e+00,1.245523810386657715e+00,1.245444774627685547e+00,1.245365738868713379e+00,1.245286583900451660e+00,1.245207548141479492e+00,1.245128512382507324e+00,1.245049476623535156e+00,1.244970440864562988e+00,1.244891524314880371e+00,1.244812369346618652e+00,1.244733452796936035e+00,1.244654536247253418e+00,1.244575500488281250e+00,1.244496583938598633e+00,1.244417667388916016e+00,1.244338631629943848e+00,1.244259715080261230e+00,1.244180798530578613e+00,1.244101881980895996e+00,1.244022965431213379e+00,1.243944048881530762e+00,1.243865132331848145e+00,1.243786334991455078e+00,1.243707537651062012e+00,1.243628621101379395e+00,1.243549704551696777e+00,1.243470907211303711e+00,1.243392109870910645e+00,1.243313312530517578e+00,1.243234515190124512e+00,1.243155717849731445e+00,1.243076920509338379e+00,1.242998123168945312e+00,1.242919445037841797e+00,1.242840647697448730e+00,1.242761969566345215e+00
1.162541151046752930e+00,1.162472248077392578e+00,1.162403464317321777e+00,1.162334442138671875e+00,1.162265658378601074e+00,1.162196755409240723e+00,1.162127852439880371e+00,1.162059068679809570e+00,1.161990284919738770e+00,1.161921381950378418e+00,1.161852598190307617e+00,1.161783814430236816e+00,1.161714911460876465e+00,1.161646127700805664e+00,1.161577343940734863e+00,1.161508560180664062e+00,1.161439776420593262e+00,1.161371111869812012e+00,1.161302208900451660e+00,1.161233544349670410e+00,1.161164760589599609e+00,1.161095976829528809e+00,1.161027312278747559e+00,1.160958647727966309e+00,1.160889863967895508e+00,1.160821199417114258e+00,1.160752534866333008e+00,1.160683870315551758e+00,1.160615086555480957e+00,1.160546422004699707e+00,1.160477876663208008e+00,1.160409092903137207e+00,1.160340547561645508e+00,1.160271883010864258e+00,1.160203218460083008e+00,1.160134673118591309e+00,1.160066008567810059e+00,1.159997344017028809e+00,1.159928798675537109e+00,1.159860253334045410e+00,1.159791588783264160e+00,1.159723043441772461e+00,1.159654498100280762e+00,1.159585952758789062e+00,1.159517407417297363e+00,1.159448862075805664e+00,1.159380316734313965e+00,1.159311771392822266e+00,1.159243345260620117e+00,1.159174680709838867e+00,1.159106254577636719e+00,1.159037828445434570e+00,1.158969283103942871e+00,1.158900856971740723e+00,1.158832311630249023e+00,1.158763885498046875e+00,1.158695459365844727e+00,1.158627033233642578e+00,1.158558487892150879e+00,1.158490061759948730e+00,1.158421754837036133e+00,1.158353328704833984e+00,1.158284902572631836e+00,1.158216595649719238e+00,1.158148169517517090e+00,1.158079743385314941e+00,1.158011436462402344e+00,1.157943129539489746e+00,1.157874703407287598e+00,1.157806396484375000e+00,1.157738089561462402e+00,1.157669663429260254e+00,1.157601356506347656e+00,1.157533049583435059e+00,1.157464742660522461e+00,1.157396435737609863e+00,1.157328128814697266e+00,1.157259821891784668e+00,1.157191634178161621e+00,1.157123327255249023e+00
1.087266921997070312e+00,1.087206721305847168e+00,1.087146401405334473e+00,1.087086200714111328e+00,1.087026000022888184e+00,1.086965680122375488e+00,1.086905479431152344e+00,1.086845278739929199e+00,1.086784958839416504e+00,1.086724758148193359e+00,1.086664676666259766e+00,1.086604356765747070e+00,1.086544156074523926e+00,1.086484074592590332e+00,1.086423873901367188e+00,1.086363673210144043e+00,1.086303472518920898e+00,1.086243271827697754e+00,1.086183190345764160e+00,1.086123108863830566e+00,1.086062908172607422e+00,1.086002826690673828e+00,1.085942745208740234e+00,1.085882544517517090e+00,1.085822463035583496e+00,1.085762381553649902e+00,1.085702300071716309e+00,1.085642099380493164e+00,1.085582137107849121e+00,1.085522055625915527e+00,1.085461974143981934e+00,1.085401892662048340e+00,1.085341811180114746e+00,1.085281729698181152e+00,1.085221767425537109e+00,1.085161685943603516e+00,1.085101604461669922e+00,1.085041642189025879e+00,1.084981679916381836e+00,1.084921598434448242e+00,1.084861636161804199e+00,1.084801673889160156e+00,1.084741592407226562e+00,1.084681630134582520e+00,1.084621667861938477e+00,1.084561586380004883e+00,1.084501743316650391e+00,1.084441781044006348e+00,1.084381818771362305e+00,1.084321856498718262e+00,1.084261894226074219e+00,1.084202051162719727e+00,1.084142088890075684e+00,1.084082126617431641e+00,1.084022283554077148e+00,1.083962321281433105e+00,1.083902478218078613e+00,1.083842515945434570e+00,1.083782672882080078e+00,1.083722829818725586e+00,1.083662986755371094e+00,1.083603024482727051e+00,1.083543181419372559e+00,1.083483338356018066e+00,1.083423495292663574e+00,1.083363652229309082e+00,1.083303809165954590e+00,1.083243966102600098e+00,1.083184123039245605e+00,1.083124399185180664e+00,1.083064556121826172e+00,1.083004713058471680e+00,1.082944989204406738e+00,1.082885146141052246e+00,1.082825422286987305e+00,1.082765579223632812e+00,1.082705855369567871e+00,1.082646131515502930e+00,1.082586407661437988e+00,1.082526564598083496e+00
1.021147847175598145e+00,1.021094679832458496e+00,1.021041631698608398e+00,1.020988464355468750e+00,1.020935297012329102e+00,1.020882129669189453e+00,1.020829081535339355e+00,1.020775914192199707e+00,1.020722746849060059e+00,1.020669698715209961e+00,1.020616531372070312e+00,1.020563483238220215e+00,1.020510315895080566e+00,1.020457267761230469e+00,1.020404219627380371e+00,1.020351171493530273e+00,1.020298004150390625e+00,1.020244956016540527e+00,1.020191907882690430e+00,1.020138859748840332e+00,1.020085811614990234e+00,1.020032763481140137e+00,1.019979715347290039e+00,1.019926667213439941e+00,1.019873619079589844e+00,1.019820690155029297e+00,1.019767522811889648e+00,1.019714593887329102e+00,1.019661545753479004e+00,1.019608497619628906e+00,1.019555568695068359e+00,1.019502639770507812e+00,1.019449591636657715e+00,1.019396662712097168e+00,1.019343614578247070e+00,1.019290685653686523e+00,1.019237756729125977e+00,1.019184708595275879e+00,1.019131779670715332e+00,1.019078850746154785e+00,1.019025921821594238e+00,1.018972992897033691e+00,1.018920063972473145e+00,1.018867135047912598e+00,1.018814206123352051e+00,1.018761277198791504e+00,1.018708348274230957e+00,1.018655538558959961e+00,1.018602609634399414e+00,1.018549680709838867e+00,1.018496870994567871e+00,1.018443942070007324e+00,1.018391013145446777e+00,1.018338203430175781e+00,1.018285274505615234e+00,1.018232464790344238e+00,1.018179655075073242e+00,1.018126726150512695e+00,1.018073916435241699e+00,1.018021106719970703e+00,1.017968177795410156e+00,1.017915368080139160e+00,1.017862558364868164e+00,1.017809748649597168e+00,1.017756938934326172e+00,1.017704129219055176e+00,1.017651319503784180e+00,1.017598509788513184e+00,1.017545819282531738e+00,1.017492890357971191e+00,1.017440199851989746e+00,1.017387390136718750e+00,1.017334580421447754e+00,1.017281889915466309e+00,1.017229199409484863e+00,1.017176389694213867e+00,1.017123579978942871e+00,1.017070889472961426e+00,1.017018198966979980e+00,1.016965389251708984e+00
9.626095890998840332e-01,9.625623226165771484e-01,9.625151157379150391e-01,9.624678492546081543e-01,9.624205827713012695e-01,9.623734354972839355e-01,9.623261690139770508e-01,9.622789621353149414e-01,9.622318148612976074e-01,9.621845483779907227e-01,9.621373414993286133e-01,9.620902538299560547e-01,9.620429873466491699e-01,9.619957804679870605e-01,9.619486927986145020e-01,9.619014859199523926e-01,9.618542790412902832e-01,9.618071913719177246e-01,9.617599844932556152e-01,9.617127776145935059e-01,9.616656899452209473e-01,9.616185426712036133e-01,9.615713357925415039e-01,9.615243077278137207e-01,9.614771008491516113e-01,9.614299535751342773e-01,9.613829255104064941e-01,9.613357782363891602e-01,9.612886309623718262e-01,9.612416028976440430e-01,9.611944556236267090e-01,9.611473083496093750e-01,9.611002802848815918e-01,9.610531330108642578e-01,9.610060453414916992e-01,9.609590172767639160e-01,9.609119296073913574e-01,9.608649015426635742e-01,9.608178138732910156e-01,9.607707262039184570e-01,9.607236981391906738e-01,9.606766104698181152e-01,9.606295228004455566e-01,9.605825543403625488e-01,9.605355262756347656e-01,9.604884386062622070e-01,9.604414701461791992e-01,9.603943824768066406e-01,9.603473544120788574e-01,9.603003859519958496e-01,9.602533578872680664e-01,9.602063298225402832e-01,9.601593613624572754e-01,9.601123332977294922e-01,9.600653052330017090e-01,9.600183963775634766e-01,9.599713683128356934e-01,9.599243402481079102e-01,9.598774909973144531e-01,9.598304629325866699e-01,9.597834348678588867e-01,9.597365856170654297e-01,9.596895575523376465e-01,9.596425890922546387e-01,9.595956802368164062e-01,9.595487117767333984e-01,9.595017433166503906e-01,9.594548940658569336e-01,9.594079256057739258e-01,9.593609571456909180e-01,9.593141078948974609e-01,9.592671394348144531e-01,9.592202305793762207e-01,9.591733813285827637e-01,9.591264724731445312e-01,9.590795040130615234e-01,9.590327143669128418e-01,9.589857459068298340e-01,9.589388370513916016e-01,9.588920474052429199e-01
9.104188084602355957e-01,9.103766083717346191e-01,9.103343486785888672e-01,9.102920293807983398e-01,9.102498888969421387e-01,9.102076292037963867e-01,9.101653695106506348e-01,9.101231694221496582e-01,9.100809097290039062e-01,9.100386500358581543e-01,9.099965095520019531e-01,9.099542498588562012e-01,9.099119901657104492e-01,9.098698496818542480e-01,9.098276495933532715e-01,9.097853899002075195e-01,9.097432494163513184e-01,9.097010493278503418e-01,9.096587896347045898e-01,9.096167087554931641e-01,9.095745086669921875e-01,9.095322489738464355e-01,9.094901680946350098e-01,9.094479680061340332e-01,9.094057679176330566e-01,9.093636870384216309e-01,9.093214869499206543e-01,9.092794060707092285e-01,9.092372059822082520e-01,9.091950654983520508e-01,9.091529846191406250e-01,9.091107845306396484e-01,9.090686440467834473e-01,9.090265631675720215e-01,9.089844226837158203e-01,9.089422225952148438e-01,9.089002013206481934e-01,9.088580608367919922e-01,9.088159203529357910e-01,9.087738394737243652e-01,9.087317585945129395e-01,9.086896181106567383e-01,9.086475968360900879e-01,9.086054563522338867e-01,9.085633158683776855e-01,9.085212945938110352e-01,9.084792137145996094e-01,9.084370732307434082e-01,9.083951115608215332e-01,9.083529710769653320e-01,9.083108901977539062e-01,9.082688689231872559e-01,9.082267880439758301e-01,9.081847071647644043e-01,9.081427454948425293e-01,9.081006646156311035e-01,9.080585837364196777e-01,9.080166220664978027e-01,9.079745411872863770e-01,9.079325199127197266e-01,9.078905582427978516e-01,9.078484773635864258e-01,9.078064560890197754e-01,9.077644944190979004e-01,9.077224731445312500e-01,9.076803922653198242e-01,9.076384902000427246e-01,9.075964689254760742e-01,9.075543880462646484e-01,9.075124859809875488e-01,9.074704647064208984e-01,9.074284434318542480e-01,9.073865413665771484e-01,9.073445200920104980e-01,9.073025584220886230e-01,9.072606563568115234e-01,9.072186350822448730e-01,9.071766734123229980e-01,9.071347713470458984e-01,9.070928096771240234e-01
8.635964393615722656e-01,8.635584115982055664e-01,8.635203242301940918e-01,8.634824156761169434e-01,8.634443283081054688e-01,8.634063005447387695e-01,8.633683919906616211e-01,8.633303642272949219e-01,8.632923364639282227e-01,8.632543683052062988e-01,8.632163405418395996e-01,8.631783723831176758e-01,8.631404042243957520e-01,8.631024360656738281e-01,8.630644083023071289e-01,8.630264997482299805e-01,8.629884719848632812e-01,8.629505038261413574e-01,8.629125952720642090e-01,8.628746271133422852e-01,8.628367185592651367e-01,8.627986907958984375e-01,8.627607226371765137e-01,8.627228736877441406e-01,8.626848459243774414e-01,8.626468777656555176e-01,8.626090288162231445e-01,8.625710606575012207e-01,8.625330924987792969e-01,8.624952435493469238e-01,8.624572753906250000e-01,8.624193072319030762e-01,8.623814582824707031e-01,8.623435497283935547e-01,8.623055815696716309e-01,8.622677326202392578e-01,8.622298240661621094e-01,8.621918559074401855e-01,8.621540665626525879e-01,8.621160984039306641e-01,8.620781898498535156e-01,8.620404005050659180e-01,8.620024323463439941e-01,8.619645237922668457e-01,8.619267344474792480e-01,8.618888258934020996e-01,8.618509173393249512e-01,8.618131279945373535e-01,8.617752194404602051e-01,8.617373108863830566e-01,8.616995215415954590e-01,8.616616725921630859e-01,8.616237640380859375e-01,8.615859746932983398e-01,8.615481257438659668e-01,8.615102171897888184e-01,8.614724874496459961e-01,8.614345788955688477e-01,8.613967299461364746e-01,8.613590002059936523e-01,8.613210916519165039e-01,8.612832427024841309e-01,8.612455129623413086e-01,8.612076640129089355e-01,8.611698150634765625e-01,8.611320853233337402e-01,8.610942363739013672e-01,8.610563874244689941e-01,8.610186576843261719e-01,8.609808683395385742e-01,8.609430193901062012e-01,8.609052896499633789e-01,8.608675003051757812e-01,8.608297109603881836e-01,8.607919812202453613e-01,8.607541918754577637e-01,8.607163429260253906e-01,8.606786727905273438e-01,8.606408834457397461e-01,8.606030941009521484e-01
8.213545083999633789e-01,8.213201165199279785e-01,8.212857842445373535e-01,8.212513327598571777e-01,8.212169408798217773e-01,8.211826086044311523e-01,8.211482167243957520e-01,8.211138248443603516e-01,8.210794925689697266e-01,8.210451006889343262e-01,8.210107088088989258e-01,8.209763765335083008e-01,8.209419846534729004e-01,8.209077119827270508e-01,8.208733201026916504e-01,8.208389282226562500e-01,8.208046555519104004e-01,8.207702636718750000e-01,8.207359313964843750e-01,8.207016587257385254e-01,8.206672668457031250e-01,8.206329345703125000e-01,8.205986022949218750e-01,8.205642700195312500e-01,8.205299377441406250e-01,8.204956650733947754e-01,8.204613327980041504e-01,8.204269409179687500e-01,8.203927278518676758e-01,8.203583955764770508e-01,8.203240633010864258e-01,8.202897906303405762e-01,8.202554583549499512e-01,8.202211260795593262e-01,8.201868534088134766e-01,8.201525807380676270e-01,8.201182484626770020e-01,8.200840353965759277e-01,8.200497031211853027e-01,8.200153708457946777e-01,8.199811577796936035e-01,8.199468851089477539e-01,8.199125528335571289e-01,8.198783397674560547e-01,8.198440670967102051e-01,8.198097348213195801e-01,8.197755217552185059e-01,8.197412490844726562e-01,8.197069764137268066e-01,8.196727633476257324e-01,8.196384906768798828e-01,8.196042180061340332e-01,8.195700049400329590e-01,8.195357322692871094e-01,8.195014595985412598e-01,8.194673061370849609e-01,8.194330334663391113e-01,8.193987607955932617e-01,8.193646073341369629e-01,8.193303346633911133e-01,8.192961215972900391e-01,8.192619681358337402e-01,8.192276954650878906e-01,8.191934823989868164e-01,8.191592693328857422e-01,8.191250562667846680e-01,8.190908432006835938e-01,8.190566897392272949e-01,8.190224766731262207e-01,8.189882040023803711e-01,8.189541101455688477e-01,8.189198374748229980e-01,8.188856244087219238e-01,8.188515305519104004e-01,8.188173174858093262e-01,8.187831640243530273e-01,8.187489509582519531e-01,8.187147974967956543e-01,8.186806440353393555e-01,8.186464905738830566e-01
7.830523848533630371e-01,7.830211520195007324e-01,7.829898595809936523e-01,7.829586863517761230e-01,7.829273939132690430e-01,7.828961014747619629e-01,7.828649282455444336e-01,7.828336358070373535e-01,7.828024029731750488e-01,7.827711701393127441e-01,7.827399373054504395e-01,7.827086448669433594e-01,7.826774716377258301e-01,7.826462388038635254e-01,7.826149463653564453e-01,7.825837731361389160e-01,7.825525403022766113e-01,7.825213074684143066e-01,7.824901342391967773e-01,7.824589014053344727e-01,7.824276685714721680e-01,7.823964953422546387e-01,7.823652625083923340e-01,7.823340296745300293e-01,7.823029160499572754e-01,7.822716832160949707e-01,7.822404503822326660e-01,7.822092771530151367e-01,7.821781039237976074e-01,7.821468710899353027e-01,7.821156978607177734e-01,7.820845246315002441e-01,7.820532917976379395e-01,7.820221781730651855e-01,7.819910049438476562e-01,7.819597721099853516e-01,7.819286584854125977e-01,7.818974852561950684e-01,7.818662524223327637e-01,7.818351387977600098e-01,7.818039655685424805e-01,7.817727923393249512e-01,7.817416787147521973e-01,7.817105054855346680e-01,7.816793322563171387e-01,7.816482186317443848e-01,7.816170454025268555e-01,7.815858721733093262e-01,7.815547585487365723e-01,7.815235853195190430e-01,7.814924716949462891e-01,7.814613580703735352e-01,7.814301848411560059e-01,7.813990712165832520e-01,7.813679575920104980e-01,7.813368439674377441e-01,7.813056707382202148e-01,7.812746167182922363e-01,7.812434434890747070e-01,7.812123298645019531e-01,7.811812758445739746e-01,7.811501026153564453e-01,7.811189889907836914e-01,7.810879349708557129e-01,7.810568213462829590e-01,7.810257077217102051e-01,7.809946537017822266e-01,7.809635400772094727e-01,7.809324860572814941e-01,7.809013724327087402e-01,7.808702588081359863e-01,7.808392047882080078e-01,7.808080911636352539e-01,7.807769775390625000e-01,7.807459831237792969e-01,7.807148694992065430e-01,7.806837558746337891e-01,7.806527614593505859e-01,7.806216478347778320e-01,7.805905342102050781e-01
7.481633424758911133e-01,7.481347918510437012e-01,7.481063008308410645e-01,7.480777502059936523e-01,7.480491995811462402e-01,7.480207085609436035e-01,7.479921579360961914e-01,7.479636073112487793e-01,7.479351758956909180e-01,7.479066252708435059e-01,7.478780746459960938e-01,7.478495836257934570e-01,7.478210926055908203e-01,7.477925419807434082e-01,7.477640509605407715e-01,7.477355599403381348e-01,7.477070093154907227e-01,7.476785778999328613e-01,7.476500272750854492e-01,7.476215362548828125e-01,7.475931048393249512e-01,7.475645542144775391e-01,7.475360631942749023e-01,7.475076317787170410e-01,7.474790811538696289e-01,7.474505901336669922e-01,7.474221587181091309e-01,7.473936676979064941e-01,7.473651766777038574e-01,7.473367452621459961e-01,7.473082542419433594e-01,7.472797632217407227e-01,7.472513318061828613e-01,7.472228407859802246e-01,7.471943497657775879e-01,7.471659183502197266e-01,7.471374273300170898e-01,7.471089363098144531e-01,7.470805644989013672e-01,7.470520734786987305e-01,7.470235824584960938e-01,7.469952106475830078e-01,7.469667196273803711e-01,7.469382286071777344e-01,7.469098567962646484e-01,7.468813657760620117e-01,7.468529343605041504e-01,7.468245625495910645e-01,7.467960715293884277e-01,7.467676401138305664e-01,7.467392683029174805e-01,7.467107772827148438e-01,7.466823458671569824e-01,7.466539740562438965e-01,7.466255426406860352e-01,7.465970516204833984e-01,7.465686798095703125e-01,7.465402483940124512e-01,7.465118169784545898e-01,7.464834451675415039e-01,7.464550137519836426e-01,7.464267015457153320e-01,7.463982701301574707e-01,7.463698387145996094e-01,7.463414669036865234e-01,7.463130354881286621e-01,7.462846636772155762e-01,7.462562918663024902e-01,7.462278604507446289e-01,7.461994886398315430e-01,7.461711168289184570e-01,7.461427450180053711e-01,7.461143136024475098e-01,7.460860013961791992e-01,7.460575699806213379e-01,7.460291981697082520e-01,7.460008263587951660e-01,7.459724545478820801e-01,7.459440827369689941e-01,7.459157109260559082e-01
7.162506580352783203e-01,7.162245512008666992e-01,7.161983847618103027e-01,7.161722183227539062e-01,7.161461114883422852e-01,7.161199450492858887e-01,7.160937786102294922e-01,7.160676717758178711e-01,7.160415053367614746e-01,7.160153388977050781e-01,7.159892320632934570e-01,7.159630656242370605e-01,7.159369587898254395e-01,7.159108519554138184e-01,7.158846855163574219e-01,7.158585786819458008e-01,7.158324718475341797e-01,7.158063054084777832e-01,7.157801985740661621e-01,7.157540917396545410e-01,7.157279849052429199e-01,7.157018184661865234e-01,7.156757712364196777e-01,7.156496047973632812e-01,7.156234979629516602e-01,7.155974507331848145e-01,7.155712842941284180e-01,7.155451774597167969e-01,7.155191302299499512e-01,7.154930233955383301e-01,7.154668569564819336e-01,7.154408097267150879e-01,7.154147028923034668e-01,7.153885960578918457e-01,7.153625488281250000e-01,7.153364419937133789e-01,7.153103351593017578e-01,7.152842879295349121e-01,7.152581810951232910e-01,7.152320742607116699e-01,7.152060270309448242e-01,7.151799201965332031e-01,7.151538729667663574e-01,7.151278257369995117e-01,7.151017189025878906e-01,7.150756716728210449e-01,7.150496244430541992e-01,7.150235176086425781e-01,7.149974703788757324e-01,7.149714231491088867e-01,7.149453163146972656e-01,7.149193286895751953e-01,7.148932218551635742e-01,7.148671746253967285e-01,7.148411870002746582e-01,7.148150801658630371e-01,7.147890329360961914e-01,7.147630453109741211e-01,7.147369384765625000e-01,7.147108912467956543e-01,7.146849036216735840e-01,7.146588563919067383e-01,7.146327495574951172e-01,7.146067619323730469e-01,7.145807147026062012e-01,7.145546674728393555e-01,7.145286798477172852e-01,7.145026326179504395e-01,7.144765853881835938e-01,7.144505977630615234e-01,7.144245505332946777e-01,7.143985033035278320e-01,7.143725156784057617e-01,7.143465280532836914e-01,7.143204808235168457e-01,7.142944931983947754e-01,7.142684459686279297e-01,7.142424583435058594e-01,7.142164707183837891e-01,7.141904234886169434e-01
6.869490742683410645e-01,6.869249939918518066e-01,6.869009733200073242e-01,6.868769526481628418e-01,6.868528723716735840e-01,6.868287920951843262e-01,6.868047714233398438e-01,6.867806911468505859e-01,6.867566704750061035e-01,6.867326498031616211e-01,6.867085695266723633e-01,6.866844892501831055e-01,6.866605281829833984e-01,6.866364479064941406e-01,6.866124272346496582e-01,6.865884065628051758e-01,6.865643858909606934e-01,6.865403056144714355e-01,6.865163445472717285e-01,6.864922642707824707e-01,6.864682435989379883e-01,6.864442229270935059e-01,6.864202022552490234e-01,6.863961815834045410e-01,6.863721609115600586e-01,6.863481402397155762e-01,6.863241195678710938e-01,6.863001585006713867e-01,6.862760782241821289e-01,6.862520575523376465e-01,6.862280964851379395e-01,6.862040758132934570e-01,6.861800551414489746e-01,6.861560940742492676e-01,6.861320734024047852e-01,6.861080527305603027e-01,6.860840916633605957e-01,6.860600709915161133e-01,6.860360503196716309e-01,6.860120892524719238e-01,6.859880685806274414e-01,6.859641075134277344e-01,6.859401464462280273e-01,6.859161257743835449e-01,6.858921647071838379e-01,6.858681440353393555e-01,6.858441829681396484e-01,6.858202219009399414e-01,6.857962608337402344e-01,6.857722401618957520e-01,6.857482790946960449e-01,6.857243180274963379e-01,6.857002973556518555e-01,6.856763958930969238e-01,6.856523752212524414e-01,6.856284141540527344e-01,6.856045126914978027e-01,6.855804920196533203e-01,6.855565309524536133e-01,6.855325698852539062e-01,6.855086088180541992e-01,6.854846477508544922e-01,6.854607462882995605e-01,6.854367852210998535e-01,6.854127645492553711e-01,6.853888630867004395e-01,6.853649020195007324e-01,6.853409409523010254e-01,6.853170394897460938e-01,6.852930784225463867e-01,6.852691173553466797e-01,6.852452158927917480e-01,6.852212548255920410e-01,6.851972937583923340e-01,6.851733922958374023e-01,6.851494312286376953e-01,6.851254701614379883e-01,6.851016283035278320e-01,6.850776672363281250e-01,6.850537061691284180e-01
