5.000000000000000000e+00,5.000000000000000000e+00,5.000000000000000000e+00,5.000000000000000000e+00,5.000000000000000000e+00,5.000000000000000000e+00,5.000000000000000000e+00,5.000000000000000000e+00,5.000000000000000000e+00,5.000000000000000000e+00,5.000000000000000000e+00,5.000000000000000000e+00,5.000000000000000000e+00,5.000000000000000000e+00,5.000000000000000000e+00,5.000000000000000000e+00,5.000000000000000000e+00,5.000000000000000000e+00,5.000000000000000000e+00,5.000000000000000000e+00,5.000000000000000000e+00,5.000000000000000000e+00,5.000000000000000000e+00,5.000000000000000000e+00,5.000000000000000000e+00,5.000000000000000000e+00,5.000000000000000000e+00,5.000000000000000000e+00,5.000000000000000000e+00,5.000000000000000000e+00,5.000000000000000000e+00,5.000000000000000000e+00,5.000000000000000000e+00,5.000000000000000000e+00,5.000000000000000000e+00,5.000000000000000000e+00,5.000000000000000000e+00,5.000000000000000000e+00,5.000000000000000000e+00,4.862316608428955078e+00,1.573850989341735840e+00,1.556025862693786621e+00,1.555580139160156250e+00,1.534417629241943359e+00,1.489068746566772461e+00,1.482528805732727051e+00,1.476045966148376465e+00,1.469619631767272949e+00,1.493316054344177246e+00,1.621921777725219727e+00,1.621042013168334961e+00,1.621157050132751465e+00,1.659021735191345215e+00,1.761532783508300781e+00,1.770763397216796875e+00,2.939466714859008789e+00,2.868566274642944336e+00,2.801005840301513672e+00,2.736554622650146484e+00,2.675002574920654297e+00,2.616158723831176758e+00,2.559847831726074219e+00,2.505909919738769531e+00,2.454198360443115234e+00,2.404577732086181641e+00,2.356924057006835938e+00,2.311121940612792969e+00,2.267066478729248047e+00,2.224659204483032227e+00,2.183809041976928711e+00,2.144432306289672852e+00,2.106450557708740234e+00,2.069790363311767578e+00,2.034384727478027344e+00,2.000169992446899414e+00,1.967087030410766602e+00,1.935080766677856445e+00,1.904099225997924805e+00,1.874094009399414062e+00,1.845020055770874023e+00
5.000000000000000000e+00,5.000000000000000000e+00,5.000000000000000000e+00,5.000000000000000000e+00,5.000000000000000000e+00,5.000000000000000000e+00,5.000000000000000000e+00,5.000000000000000000e+00,5.000000000000000000e+00,5.000000000000000000e+00,5.000000000000000000e+00,5.000000000000000000e+00,5.000000000000000000e+00,5.000000000000000000e+00,5.000000000000000000e+00,5.000000000000000000e+00,5.000000000000000000e+00,5.000000000000000000e+00,5.000000000000000000e+00,5.000000000000000000e+00,5.000000000000000000e+00,5.000000000000000000e+00,5.000000000000000000e+00,5.000000000000000000e+00,5.000000000000000000e+00,5.000000000000000000e+00,5.000000000000000000e+00,5.000000000000000000e+00,5.000000000000000000e+00,5.000000000000000000e+00,5.000000000000000000e+00,5.000000000000000000e+00,5.000000000000000000e+00,5.000000000000000000e+00,5.000000000000000000e+00,5.000000000000000000e+00,5.000000000000000000e+00,5.000000000000000000e+00,5.000000000000000000e+00,4.862455368041992188e+00,1.575165987014770508e+00,1.547518372535705566e+00,1.544466257095336914e+00,1.525208473205566406e+00,1.481934189796447754e+00,1.472089290618896484e+00,1.465697169303894043e+00,1.459360599517822266e+00,1.472235441207885742e+00,1.611055970191955566e+00,1.605734586715698242e+00,1.605327248573303223e+00,1.614937186241149902e+00,1.758023262023925781e+00,1.748383879661560059e+00,2.939517498016357422e+00,2.868614673614501953e+00,2.801052093505859375e+00,2.736598491668701172e+00,2.675044536590576172e+00,2.616198778152465820e+00,2.559886455535888672e+00,2.505947113037109375e+00,2.454233646392822266e+00,2.404611587524414062e+00,2.356956720352172852e+00,2.311153411865234375e+00,2.267096757888793945e+00,2.224688291549682617e+00,2.183837175369262695e+00,2.144459247589111328e+00,2.106476545333862305e+00,2.069815397262573242e+00,2.034409046173095703e+00,2.000193595886230469e+00,1.967109799385070801e+00,1.935102701187133789e+00,1.904120564460754395e+00,1.874114751815795898e+00,1.845039963722229004e+00
5.000000000000000000e+00,5.000000000000000000e+00,5.000000000000000000e+00,5.000000000000000000e+00,5.000000000000000000e+00,5.000000000000000000e+00,5.000000000000000000e+00,5.000000000000000000e+00,5.000000000000000000e+00,5.000000000000000000e+00,5.000000000000000000e+00,5.000000000000000000e+00,5.000000000000000000e+00,5.000000000000000000e+00,5.000000000000000000e+00,5.000000000000000000e+00,5.000000000000000000e+00,5.000000000000000000e+00,5.000000000000000000e+00,5.000000000000000000e+00,5.000000000000000000e+00,5.000000000000000000e+00,5.000000000000000000e+00,5.000000000000000000e+00,5.000000000000000000e+00,5.000000000000000000e+00,5.000000000000000000e+00,5.000000000000000000e+00,5.000000000000000000e+00,5.000000000000000000e+00,5.000000000000000000e+00,5.000000000000000000e+00,5.000000000000000000e+00,5.000000000000000000e+00,5.000000000000000000e+00,5.000000000000000000e+00,5.000000000000000000e+00,5.000000000000000000e+00,5.000000000000000000e+00,4.862594127655029297e+00,1.579393148422241211e+00,1.547483444213867188e+00,1.547872185707092285e+00,1.525179624557495117e+00,1.486302971839904785e+00,1.463242769241333008e+00,1.455721735954284668e+00,1.449243545532226562e+00,1.453066587448120117e+00,1.493700027465820312e+00,1.595794916152954102e+00,1.597332715988159180e+00,1.599799513816833496e+00,1.765475630760192871e+00,1.748570799827575684e+00,2.939568042755126953e+00,2.868663072586059570e+00,2.801098108291625977e+00,2.736642599105834961e+00,2.675086736679077148e+00,2.616239070892333984e+00,2.559924840927124023e+00,2.505983829498291016e+00,2.454268932342529297e+00,2.404645681381225586e+00,2.356989145278930664e+00,2.311184644699096680e+00,2.267126798629760742e+00,2.224717378616333008e+00,2.183865070343017578e+00,2.144486427307128906e+00,2.106502532958984375e+00,2.069840669631958008e+00,2.034433364868164062e+00,2.000216960906982422e+00,1.967132687568664551e+00,1.935124754905700684e+00,1.904141783714294434e+00,1.874135494232177734e+00,1.845059990882873535e+00
5.000000000000000000e+00,5.000000000000000000e+00,5.000000000000000000e+00,5.000000000000000000e+00,5.000000000000000000e+00,5.000000000000000000e+00,5.000000000000000000e+00,5.000000000000000000e+00,5.000000000000000000e+00,5.000000000000000000e+00,5.000000000000000000e+00,5.000000000000000000e+00,5.000000000000000000e+00,5.000000000000000000e+00,5.000000000000000000e+00,5.000000000000000000e+00,5.000000000000000000e+00,5.000000000000000000e+00,5.000000000000000000e+00,5.000000000000000000e+00,5.000000000000000000e+00,5.000000000000000000e+00,5.000000000000000000e+00,5.000000000000000000e+00,5.000000000000000000e+00,5.000000000000000000e+00,5.000000000000000000e+00,5.000000000000000000e+00,5.000000000000000000e+00,5.000000000000000000e+00,5.000000000000000000e+00,5.000000000000000000e+00,5.000000000000000000e+00,5.000000000000000000e+00,5.000000000000000000e+00,5.000000000000000000e+00,5.000000000000000000e+00,5.000000000000000000e+00,5.000000000000000000e+00,4.862733364105224609e+00,4.671717166900634766e+00,1.534401774406433105e+00,1.517267823219299316e+00,1.522727608680725098e+00,1.490697741508483887e+00,1.454591631889343262e+00,1.447158932685852051e+00,1.439801692962646484e+00,1.434390664100646973e+00,1.471679806709289551e+00,1.592629432678222656e+00,1.593638658523559570e+00,1.595002532005310059e+00,1.676089048385620117e+00,1.749449253082275391e+00,2.939618825912475586e+00,2.868711471557617188e+00,2.801144123077392578e+00,2.736686468124389648e+00,2.675128936767578125e+00,2.616279125213623047e+00,2.559963226318359375e+00,2.506020784378051758e+00,2.454304456710815430e+00,2.404679536819458008e+00,2.357021808624267578e+00,2.311216115951538086e+00,2.267157077789306641e+00,2.224746465682983398e+00,2.183893203735351562e+00,2.144513368606567383e+00,2.106528520584106445e+00,2.069865942001342773e+00,2.034457683563232422e+00,2.000240564346313477e+00,1.967155337333679199e+00,1.935146570205688477e+00,1.904163241386413574e+00,1.874155998229980469e+00,1.845079898834228516e+00
5.000000000000000000e+00,5.000000000000000000e+00,5.000000000000000000e+00,5.000000000000000000e+00,5.000000000000000000e+00,5.000000000000000000e+00,5.000000000000000000e+00,5.000000000000000000e+00,5.000000000000000000e+00,5.000000000000000000e+00,5.000000000000000000e+00,5.000000000000000000e+00,5.000000000000000000e+00,5.000000000000000000e+00,5.000000000000000000e+00,5.000000000000000000e+00,5.000000000000000000e+00,5.000000000000000000e+00,5.000000000000000000e+00,5.000000000000000000e+00,5.000000000000000000e+00,5.000000000000000000e+00,5.000000000000000000e+00,5.000000000000000000e+00,5.000000000000000000e+00,5.000000000000000000e+00,5.000000000000000000e+00,5.000000000000000000e+00,5.000000000000000000e+00,5.000000000000000000e+00,5.000000000000000000e+00,5.000000000000000000e+00,5.000000000000000000e+00,5.000000000000000000e+00,5.000000000000000000e+00,5.000000000000000000e+00,5.000000000000000000e+00,5.000000000000000000e+00,5.000000000000000000e+00,4.862872123718261719e+00,4.671844959259033203e+00,1.522591948509216309e+00,1.500204920768737793e+00,1.522089958190917969e+00,1.494681119918823242e+00,1.454225182533264160e+00,1.438407182693481445e+00,1.430730462074279785e+00,1.423135042190551758e+00,1.450299143791198730e+00,1.590758562088012695e+00,1.592463612556457520e+00,1.593825340270996094e+00,1.672533512115478516e+00,1.719591736793518066e+00,1.732927680015563965e+00,2.868759870529174805e+00,2.801190137863159180e+00,2.736730575561523438e+00,2.675170898437500000e+00,2.616319417953491211e+00,2.560001850128173828e+00,2.506057500839233398e+00,2.454339742660522461e+00,2.404713392257690430e+00,2.357054471969604492e+00,2.311247587203979492e+00,2.267187118530273438e+00,2.224775314331054688e+00,2.183921337127685547e+00,2.144540309906005859e+00,2.106554746627807617e+00,2.069890975952148438e+00,2.034482002258300781e+00,2.000263929367065430e+00,1.967178106307983398e+00,1.935168743133544922e+00,1.904184341430664062e+00,1.874176740646362305e+00,1.845100045204162598e+00
5.000000000000000000e+00,5.000000000000000000e+00,5.000000000000000000e+00,5.000000000000000000e+00,5.000000000000000000e+00,5.000000000000000000e+00,5.000000000000000000e+00,5.000000000000000000e+00,5.000000000000000000e+00,5.000000000000000000e+00,5.000000000000000000e+00,5.000000000000000000e+00,5.000000000000000000e+00,5.000000000000000000e+00,5.000000000000000000e+00,5.000000000000000000e+00,5.000000000000000000e+00,5.000000000000000000e+00,5.000000000000000000e+00,5.000000000000000000e+00,5.000000000000000000e+00,5.000000000000000000e+00,5.000000000000000000e+00,5.000000000000000000e+00,5.000000000000000000e+00,5.000000000000000000e+00,5.000000000000000000e+00,5.000000000000000000e+00,5.000000000000000000e+00,5.000000000000000000e+00,5.000000000000000000e+00,5.000000000000000000e+00,5.000000000000000000e+00,5.000000000000000000e+00,5.000000000000000000e+00,5.000000000000000000e+00,5.000000000000000000e+00,5.000000000000000000e+00,5.000000000000000000e+00,4.863011360168457031e+00,4.671973228454589844e+00,1.519295334815979004e+00,1.495572566986083984e+00,1.564050436019897461e+00,1.500321030616760254e+00,1.458811044692993164e+00,1.428221106529235840e+00,1.420316100120544434e+00,1.412830829620361328e+00,1.432623624801635742e+00,1.587772965431213379e+00,1.591290235519409180e+00,1.592649936676025391e+00,3.092608928680419922e+00,1.711253404617309570e+00,1.727279305458068848e+00,2.868808269500732422e+00,2.801236391067504883e+00,2.736774444580078125e+00,2.675212860107421875e+00,2.616359710693359375e+00,2.560040235519409180e+00,2.506094455718994141e+00,2.454375267028808594e+00,2.404747486114501953e+00,2.357087135314941406e+00,2.311279058456420898e+00,2.267217397689819336e+00,2.224804401397705078e+00,2.183949232101440430e+00,2.144567251205444336e+00,2.106580734252929688e+00,2.069916248321533203e+00,2.034506320953369141e+00,2.000287532806396484e+00,1.967200756072998047e+00,1.935190558433532715e+00,1.904205799102783203e+00,1.874197244644165039e+00,1.845120072364807129e+00
5.000000000000000000e+00,5.000000000000000000e+00,5.000000000000000000e+00,5.000000000000000000e+00,5.000000000000000000e+00,5.000000000000000000e+00,5.000000000000000000e+00,5.000000000000000000e+00,5.000000000000000000e+00,5.000000000000000000e+00,5.000000000000000000e+00,5.000000000000000000e+00,5.000000000000000000e+00,5.000000000000000000e+00,5.000000000000000000e+00,5.000000000000000000e+00,5.000000000000000000e+00,5.000000000000000000e+00,5.000000000000000000e+00,5.000000000000000000e+00,5.000000000000000000e+00,5.000000000000000000e+00,5.000000000000000000e+00,5.000000000000000000e+00,5.000000000000000000e+00,5.000000000000000000e+00,5.000000000000000000e+00,5.000000000000000000e+00,5.000000000000000000e+00,5.000000000000000000e+00,5.000000000000000000e+00,5.000000000000000000e+00,5.000000000000000000e+00,5.000000000000000000e+00,5.000000000000000000e+00,5.000000000000000000e+00,5.000000000000000000e+00,5.000000000000000000e+00,5.000000000000000000e+00,4.863150119781494141e+00,4.672101497650146484e+00,1.521532297134399414e+00,1.504055500030517578e+00,1.471115589141845703e+00,1.512600302696228027e+00,1.463673591613769531e+00,1.423172712326049805e+00,1.410052537918090820e+00,1.402674555778503418e+00,1.415571689605712891e+00,1.443521857261657715e+00,1.588786602020263672e+00,1.591476321220397949e+00,3.092664957046508789e+00,3.014280319213867188e+00,1.705416679382324219e+00,2.868856430053710938e+00,2.801282405853271484e+00,2.736818552017211914e+00,2.675254821777343750e+00,2.616400003433227539e+00,2.560078620910644531e+00,2.506131410598754883e+00,2.454410552978515625e+00,2.404781341552734375e+00,2.357119798660278320e+00,2.311310291290283203e+00,2.267247676849365234e+00,2.224833488464355469e+00,2.183977365493774414e+00,2.144594430923461914e+00,2.106606721878051758e+00,2.069941282272338867e+00,2.034530639648437500e+00,2.000310897827148438e+00,1.967223525047302246e+00,1.935212731361389160e+00,1.904226899147033691e+00,1.874217987060546875e+00,1.845139980316162109e+00
5.000000000000000000e+00,5.000000000000000000e+00,5.000000000000000000e+00,5.000000000000000000e+00,5.000000000000000000e+00,5.000000000000000000e+00,5.000000000000000000e+00,5.000000000000000000e+00,5.000000000000000000e+00,5.000000000000000000e+00,5.000000000000000000e+00,5.000000000000000000e+00,5.000000000000000000e+00,5.000000000000000000e+00,5.000000000000000000e+00,5.000000000000000000e+00,5.000000000000000000e+00,5.000000000000000000e+00,5.000000000000000000e+00,5.000000000000000000e+00,5.000000000000000000e+00,5.000000000000000000e+00,5.000000000000000000e+00,5.000000000000000000e+00,5.000000000000000000e+00,5.000000000000000000e+00,5.000000000000000000e+00,5.000000000000000000e+00,5.000000000000000000e+00,5.000000000000000000e+00,5.000000000000000000e+00,5.000000000000000000e+00,5.000000000000000000e+00,5.000000000000000000e+00,5.000000000000000000e+00,5.000000000000000000e+00,5.000000000000000000e+00,5.000000000000000000e+00,5.000000000000000000e+00,4.863288879394531250e+00,4.672229766845703125e+00,1.510479807853698730e+00,1.484881997108459473e+00,4.179626941680908203e+00,1.525453567504882812e+00,1.469304800033569336e+00,1.429311037063598633e+00,1.403314113616943359e+00,1.392663359642028809e+00,1.398920893669128418e+00,1.424113392829895020e+00,1.585808396339416504e+00,1.589801788330078125e+00,3.092721223831176758e+00,3.014333963394165039e+00,1.794155240058898926e+00,1.701768159866333008e+00,2.801328659057617188e+00,2.736862421035766602e+00,2.675297021865844727e+00,2.616440296173095703e+00,2.560117244720458984e+00,2.506168127059936523e+00,2.454446077346801758e+00,2.404815435409545898e+00,2.357152223587036133e+00,2.311341762542724609e+00,2.267277717590332031e+00,2.224862575531005859e+00,2.184005260467529297e+00,2.144621372222900391e+00,2.106632947921752930e+00,2.069966554641723633e+00,2.034554958343505859e+00,2.000334501266479492e+00,1.967246174812316895e+00,1.935234785079956055e+00,1.904248356819152832e+00,1.874238491058349609e+00,1.845160007476806641e+00
5.000000000000000000e+00,5.000000000000000000e+00,5.000000000000000000e+00,5.000000000000000000e+00,5.000000000000000000e+00,5.000000000000000000e+00,5.000000000000000000e+00,5.000000000000000000e+00,5.000000000000000000e+00,5.000000000000000000e+00,5.000000000000000000e+00,5.000000000000000000e+00,5.000000000000000000e+00,5.000000000000000000e+00,5.000000000000000000e+00,5.000000000000000000e+00,5.000000000000000000e+00,5.000000000000000000e+00,5.000000000000000000e+00,5.000000000000000000e+00,5.000000000000000000e+00,5.000000000000000000e+00,5.000000000000000000e+00,5.000000000000000000e+00,5.000000000000000000e+00,5.000000000000000000e+00,5.000000000000000000e+00,5.000000000000000000e+00,5.000000000000000000e+00,5.000000000000000000e+00,5.000000000000000000e+00,5.000000000000000000e+00,5.000000000000000000e+00,5.000000000000000000e+00,5.000000000000000000e+00,5.000000000000000000e+00,5.000000000000000000e+00,5.000000000000000000e+00,5.000000000000000000e+00,4.863427639007568359e+00,4.672357559204101562e+00,1.502978086471557617e+00,4.331976413726806641e+00,4.179729938507080078e+00,4.037820816040039062e+00,1.481842398643493652e+00,1.434665918350219727e+00,1.397193193435668945e+00,1.385225534439086914e+00,1.382643580436706543e+00,1.405219912528991699e+00,1.583716273307800293e+00,1.587768197059631348e+00,3.092777252197265625e+00,3.014387369155883789e+00,1.796517014503479004e+00,1.735354781150817871e+00,2.801374673843383789e+00,2.736906528472900391e+00,2.675338983535766602e+00,2.616480350494384766e+00,2.560155630111694336e+00,2.506205081939697266e+00,2.454481363296508789e+00,2.404849290847778320e+00,2.357184886932373047e+00,2.311372995376586914e+00,2.267307996749877930e+00,2.224891662597656250e+00,2.184033393859863281e+00,2.144648551940917969e+00,2.106658935546875000e+00,2.069991588592529297e+00,2.034579277038574219e+00,2.000357866287231445e+00,1.967269062995910645e+00,1.935256719589233398e+00,1.904269456863403320e+00,1.874259233474731445e+00,1.845179915428161621e+00
5.000000000000000000e+00,5.000000000000000000e+00,5.000000000000000000e+00,5.000000000000000000e+00,5.000000000000000000e+00,5.000000000000000000e+00,5.000000000000000000e+00,5.000000000000000000e+00,5.000000000000000000e+00,5.000000000000000000e+00,5.000000000000000000e+00,5.000000000000000000e+00,5.000000000000000000e+00,5.000000000000000000e+00,5.000000000000000000e+00,5.000000000000000000e+00,5.000000000000000000e+00,5.000000000000000000e+00,5.000000000000000000e+00,5.000000000000000000e+00,5.000000000000000000e+00,5.000000000000000000e+00,5.000000000000000000e+00,5.000000000000000000e+00,5.000000000000000000e+00,5.000000000000000000e+00,5.000000000000000000e+00,5.000000000000000000e+00,5.000000000000000000e+00,5.000000000000000000e+00,5.000000000000000000e+00,5.000000000000000000e+00,5.000000000000000000e+00,5.000000000000000000e+00,5.000000000000000000e+00,5.000000000000000000e+00,5.000000000000000000e+00,5.000000000000000000e+00,5.000000000000000000e+00,4.863566398620605469e+00,4.672486305236816406e+00,4.495852470397949219e+00,4.332086563110351562e+00,4.179832458496093750e+00,4.037916660308837891e+00,1.490291595458984375e+00,1.440655708312988281e+00,1.397808432579040527e+00,1.380597829818725586e+00,1.372668385505676270e+00,1.391322016716003418e+00,1.581415772438049316e+00,1.585772991180419922e+00,3.092833518981933594e+00,3.014440536499023438e+00,2.939923286437988281e+00,2.869001388549804688e+00,2.801420688629150391e+00,2.736950397491455078e+00,2.675380945205688477e+00,2.616520643234252930e+00,2.560194253921508789e+00,2.506242036819458008e+00,2.454516649246215820e+00,2.404883384704589844e+00,2.357217550277709961e+00,2.311404466629028320e+00,2.267338275909423828e+00,2.224920749664306641e+00,2.184061288833618164e+00,2.144675493240356445e+00,2.106684923171997070e+00,2.070016860961914062e+00,2.034603595733642578e+00,2.000381469726562500e+00,1.967291593551635742e+00,1.935278773307800293e+00,1.904290914535522461e+00,1.874279737472534180e+00,1.845200061798095703e+00
5.000000000000000000e+00,5.000000000000000000e+00,5.000000000000000000e+00,5.000000000000000000e+00,5.000000000000000000e+00,5.000000000000000000e+00,5.000000000000000000e+00,5.000000000000000000e+00,5.000000000000000000e+00,5.000000000000000000e+00,5.000000000000000000e+00,5.000000000000000000e+00,5.000000000000000000e+00,5.000000000000000000e+00,5.000000000000000000e+00,5.000000000000000000e+00,5.000000000000000000e+00,5.000000000000000000e+00,5.000000000000000000e+00,5.000000000000000000e+00,5.000000000000000000e+00,5.000000000000000000e+00,5.000000000000000000e+00,5.000000000000000000e+00,5.000000000000000000e+00,5.000000000000000000e+00,5.000000000000000000e+00,5.000000000000000000e+00,5.000000000000000000e+00,5.000000000000000000e+00,5.000000000000000000e+00,5.000000000000000000e+00,5.000000000000000000e+00,5.000000000000000000e+00,5.000000000000000000e+00,5.000000000000000000e+00,5.000000000000000000e+00,5.000000000000000000e+00,5.000000000000000000e+00,4.863705635070800781e+00,4.672614574432373047e+00,4.495971202850341797e+00,4.332196712493896484e+00,4.179934978485107422e+00,4.038012504577636719e+00,3.905411481857299805e+00,1.448851108551025391e+00,1.404507398605346680e+00,1.379768133163452148e+00,1.370110869407653809e+00,1.387755990028381348e+00,1.576551318168640137e+00,1.583782553672790527e+00,3.092889547348022461e+00,3.014493942260742188e+00,2.939974069595336914e+00,2.869049787521362305e+00,2.801466941833496094e+00,2.736994266510009766e+00,2.675422906875610352e+00,2.616560697555541992e+00,2.560232877731323242e+00,2.506278753280639648e+00,2.454552173614501953e+00,2.404917478561401367e+00,2.357250213623046875e+00,2.311435937881469727e+00,2.267368555068969727e+00,2.224949836730957031e+00,2.184089422225952148e+00,2.144702434539794922e+00,2.106710910797119141e+00,2.070041894912719727e+00,2.034627914428710938e+00,2.000405073165893555e+00,1.967314481735229492e+00,1.935300588607788086e+00,1.904312372207641602e+00,1.874300479888916016e+00,1.845219969749450684e+00
5.000000000000000000e+00,5.000000000000000000e+00,5.000000000000000000e+00,5.000000000000000000e+00,5.000000000000000000e+00,5.000000000000000000e+00,5.000000000000000000e+00,5.000000000000000000e+00,5.000000000000000000e+00,5.000000000000000000e+00,5.000000000000000000e+00,5.000000000000000000e+00,5.000000000000000000e+00,5.000000000000000000e+00,5.000000000000000000e+00,5.000000000000000000e+00,5.000000000000000000e+00,5.000000000000000000e+00,5.000000000000000000e+00,5.000000000000000000e+00,5.000000000000000000e+00,5.000000000000000000e+00,5.000000000000000000e+00,5.000000000000000000e+00,5.000000000000000000e+00,5.000000000000000000e+00,5.000000000000000000e+00,5.000000000000000000e+00,5.000000000000000000e+00,5.000000000000000000e+00,5.000000000000000000e+00,5.000000000000000000e+00,5.000000000000000000e+00,5.000000000000000000e+00,5.000000000000000000e+00,5.000000000000000000e+00,5.000000000000000000e+00,5.000000000000000000e+00,5.000000000000000000e+00,4.863844871520996094e+00,4.672742843627929688e+00,4.496089935302734375e+00,4.332307338714599609e+00,4.180037498474121094e+00,4.038108348846435547e+00,3.905500888824462891e+00,1.456807971000671387e+00,1.407592058181762695e+00,1.382514119148254395e+00,1.373064517974853516e+00,1.388985276222229004e+00,1.571716666221618652e+00,1.580303907394409180e+00,3.092945814132690430e+00,3.014547348022460938e+00,2.940025091171264648e+00,2.869098186492919922e+00,2.801512956619262695e+00,2.737038612365722656e+00,2.675465106964111328e+00,2.616600990295410156e+00,2.560271263122558594e+00,2.506315708160400391e+00,2.454587459564208984e+00,2.404951333999633789e+00,2.357282876968383789e+00,2.311467170715332031e+00,2.267398595809936523e+00,2.224978923797607422e+00,2.184117317199707031e+00,2.144729375839233398e+00,2.106737136840820312e+00,2.070067167282104492e+00,2.034652233123779297e+00,2.000428676605224609e+00,1.967337012290954590e+00,1.935322761535644531e+00,1.904333472251892090e+00,1.874320983886718750e+00,1.845239996910095215e+00
5.000000000000000000e+00,5.000000000000000000e+00,5.000000000000000000e+00,5.000000000000000000e+00,5.000000000000000000e+00,5.000000000000000000e+00,5.000000000000000000e+00,5.000000000000000000e+00,5.000000000000000000e+00,5.000000000000000000e+00,5.000000000000000000e+00,5.000000000000000000e+00,5.000000000000000000e+00,5.000000000000000000e+00,5.000000000000000000e+00,5.000000000000000000e+00,5.000000000000000000e+00,5.000000000000000000e+00,5.000000000000000000e+00,5.000000000000000000e+00,5.000000000000000000e+00,5.000000000000000000e+00,5.000000000000000000e+00,5.000000000000000000e+00,5.000000000000000000e+00,5.000000000000000000e+00,5.000000000000000000e+00,5.000000000000000000e+00,5.000000000000000000e+00,5.000000000000000000e+00,5.000000000000000000e+00,5.000000000000000000e+00,5.000000000000000000e+00,5.000000000000000000e+00,5.000000000000000000e+00,5.000000000000000000e+00,5.000000000000000000e+00,5.000000000000000000e+00,5.000000000000000000e+00,4.863983631134033203e+00,4.672870635986328125e+00,4.496208667755126953e+00,4.332417488098144531e+00,4.180140018463134766e+00,4.038204193115234375e+00,3.905590534210205078e+00,1.446851849555969238e+00,1.410415887832641602e+00,1.388688445091247559e+00,1.382857918739318848e+00,1.399773478507995605e+00,1.569305658340454102e+00,1.578041434288024902e+00,3.093002080917358398e+00,3.014600753784179688e+00,2.940075874328613281e+00,2.869146347045898438e+00,2.801558971405029297e+00,2.737082481384277344e+00,2.675507068634033203e+00,2.616641283035278320e+00,2.560309886932373047e+00,2.506352663040161133e+00,2.454622983932495117e+00,2.404985189437866211e+00,2.357315540313720703e+00,2.311498641967773438e+00,2.267428874969482422e+00,2.225008010864257812e+00,2.184145450592041016e+00,2.144756555557250977e+00,2.106763362884521484e+00,2.070092201232910156e+00,2.034676551818847656e+00,2.000452041625976562e+00,1.967359900474548340e+00,1.935344576835632324e+00,1.904354929924011230e+00,1.874341726303100586e+00,1.845259904861450195e+00
5.000000000000000000e+00,5.000000000000000000e+00,5.000000000000000000e+00,5.000000000000000000e+00,5.000000000000000000e+00,5.000000000000000000e+00,5.000000000000000000e+00,5.000000000000000000e+00,5.000000000000000000e+00,5.000000000000000000e+00,5.000000000000000000e+00,5.000000000000000000e+00,5.000000000000000000e+00,5.000000000000000000e+00,5.000000000000000000e+00,5.000000000000000000e+00,5.000000000000000000e+00,5.000000000000000000e+00,5.000000000000000000e+00,5.000000000000000000e+00,5.000000000000000000e+00,5.000000000000000000e+00,5.000000000000000000e+00,5.000000000000000000e+00,5.000000000000000000e+00,5.000000000000000000e+00,5.000000000000000000e+00,5.000000000000000000e+00,5.000000000000000000e+00,5.000000000000000000e+00,5.000000000000000000e+00,5.000000000000000000e+00,5.000000000000000000e+00,5.000000000000000000e+00,5.000000000000000000e+00,5.000000000000000000e+00,5.000000000000000000e+00,5.000000000000000000e+00,5.000000000000000000e+00,4.864122390747070312e+00,4.672998905181884766e+00,4.496327400207519531e+00,4.332527637481689453e+00,4.180243015289306641e+00,4.038300037384033203e+00,1.488517165184020996e+00,1.446426630020141602e+00,1.422544598579406738e+00,1.404699683189392090e+00,1.408406853675842285e+00,1.435567855834960938e+00,1.570652604103088379e+00,1.579023003578186035e+00,3.093058109283447266e+00,3.014653921127319336e+00,2.940126657485961914e+00,2.869194746017456055e+00,2.801605224609375000e+00,2.737126588821411133e+00,2.675549030303955078e+00,2.616681337356567383e+00,2.560348272323608398e+00,2.506389617919921875e+00,2.454658269882202148e+00,2.405019283294677734e+00,2.357348203659057617e+00,2.311529874801635742e+00,2.267458915710449219e+00,2.225037097930908203e+00,2.184173345565795898e+00,2.144783496856689453e+00,2.106789350509643555e+00,2.070117473602294922e+00,2.034700870513916016e+00,2.000475645065307617e+00,1.967382550239562988e+00,1.935366749763488770e+00,1.904376029968261719e+00,1.874362230300903320e+00,1.845280051231384277e+00
5.000000000000000000e+00,5.000000000000000000e+00,5.000000000000000000e+00,5.000000000000000000e+00,5.000000000000000000e+00,5.000000000000000000e+00,5.000000000000000000e+00,5.000000000000000000e+00,5.000000000000000000e+00,5.000000000000000000e+00,5.000000000000000000e+00,5.000000000000000000e+00,5.000000000000000000e+00,5.000000000000000000e+00,5.000000000000000000e+00,5.000000000000000000e+00,5.000000000000000000e+00,5.000000000000000000e+00,5.000000000000000000e+00,5.000000000000000000e+00,5.000000000000000000e+00,5.000000000000000000e+00,5.000000000000000000e+00,5.000000000000000000e+00,5.000000000000000000e+00,5.000000000000000000e+00,5.000000000000000000e+00,5.000000000000000000e+00,5.000000000000000000e+00,5.000000000000000000e+00,5.000000000000000000e+00,5.000000000000000000e+00,5.000000000000000000e+00,5.000000000000000000e+00,5.000000000000000000e+00,5.000000000000000000e+00,5.000000000000000000e+00,5.000000000000000000e+00,5.000000000000000000e+00,4.864261627197265625e+00,4.673127174377441406e+00,4.496446132659912109e+00,4.332637786865234375e+00,4.180345535278320312e+00,4.038395404815673828e+00,1.485490679740905762e+00,1.457088232040405273e+00,1.441215515136718750e+00,1.422870159149169922e+00,1.444063544273376465e+00,1.584136843681335449e+00,1.583900213241577148e+00,1.590216994285583496e+00,3.093114376068115234e+00,3.014707326889038086e+00,2.940177202224731445e+00,2.869243144989013672e+00,2.801651239395141602e+00,2.737170457839965820e+00,2.675590991973876953e+00,2.616721630096435547e+00,2.560386896133422852e+00,2.506426572799682617e+00,2.454693555831909180e+00,2.405053138732910156e+00,2.357380867004394531e+00,2.311561346054077148e+00,2.267489194869995117e+00,2.225066184997558594e+00,2.184201240539550781e+00,2.144810438156127930e+00,2.106815338134765625e+00,2.070142745971679688e+00,2.034725189208984375e+00,2.000499010086059570e+00,1.967405319213867188e+00,1.935388565063476562e+00,1.904397487640380859e+00,1.874382972717285156e+00,1.845299839973449707e+00
5.000000000000000000e+00,5.000000000000000000e+00,5.000000000000000000e+00,5.000000000000000000e+00,5.000000000000000000e+00,5.000000000000000000e+00,5.000000000000000000e+00,5.000000000000000000e+00,5.000000000000000000e+00,5.000000000000000000e+00,5.000000000000000000e+00,5.000000000000000000e+00,5.000000000000000000e+00,5.000000000000000000e+00,5.000000000000000000e+00,5.000000000000000000e+00,5.000000000000000000e+00,5.000000000000000000e+00,5.000000000000000000e+00,5.000000000000000000e+00,5.000000000000000000e+00,5.000000000000000000e+00,5.000000000000000000e+00,5.000000000000000000e+00,5.000000000000000000e+00,5.000000000000000000e+00,5.000000000000000000e+00,5.000000000000000000e+00,5.000000000000000000e+00,5.000000000000000000e+00,5.000000000000000000e+00,5.000000000000000000e+00,5.000000000000000000e+00,5.000000000000000000e+00,5.000000000000000000e+00,5.000000000000000000e+00,5.000000000000000000e+00,5.000000000000000000e+00,5.000000000000000000e+00,4.864400386810302734e+00,4.673255920410156250e+00,4.496564865112304688e+00,4.332747936248779297e+00,4.180448055267333984e+00,1.567355036735534668e+00,1.497047066688537598e+00,1.471671581268310547e+00,1.460383176803588867e+00,1.457162261009216309e+00,1.612080216407775879e+00,1.598748445510864258e+00,1.601931452751159668e+00,3.175768136978149414e+00,3.093170404434204102e+00,3.014760732650756836e+00,2.940227985382080078e+00,2.869291782379150391e+00,2.801697254180908203e+00,2.737214565277099609e+00,2.675633430480957031e+00,2.616761684417724609e+00,2.560425281524658203e+00,2.506463527679443359e+00,2.454729080200195312e+00,2.405087232589721680e+00,2.357413530349731445e+00,2.311592578887939453e+00,2.267519474029541016e+00,2.225095272064208984e+00,2.184229373931884766e+00,2.144837617874145508e+00,2.106841325759887695e+00,2.070168018341064453e+00,2.034749507904052734e+00,2.000522613525390625e+00,1.967428207397460938e+00,1.935410737991333008e+00,1.904418706893920898e+00,1.874403715133666992e+00,1.845319986343383789e+00
5.000000000000000000e+00,5.000000000000000000e+00,5.000000000000000000e+00,5.000000000000000000e+00,5.000000000000000000e+00,5.000000000000000000e+00,5.000000000000000000e+00,5.000000000000000000e+00,5.000000000000000000e+00,5.000000000000000000e+00,5.000000000000000000e+00,5.000000000000000000e+00,5.000000000000000000e+00,5.000000000000000000e+00,5.000000000000000000e+00,5.000000000000000000e+00,5.000000000000000000e+00,5.000000000000000000e+00,5.000000000000000000e+00,5.000000000000000000e+00,5.000000000000000000e+00,5.000000000000000000e+00,5.000000000000000000e+00,5.000000000000000000e+00,5.000000000000000000e+00,5.000000000000000000e+00,5.000000000000000000e+00,5.000000000000000000e+00,5.000000000000000000e+00,5.000000000000000000e+00,5.000000000000000000e+00,5.000000000000000000e+00,5.000000000000000000e+00,5.000000000000000000e+00,5.000000000000000000e+00,5.000000000000000000e+00,5.000000000000000000e+00,5.000000000000000000e+00,5.000000000000000000e+00,4.864539146423339844e+00,4.673384189605712891e+00,4.496683597564697266e+00,4.332858562469482422e+00,4.180551052093505859e+00,1.539424657821655273e+00,1.508883833885192871e+00,1.488299131393432617e+00,1.478780150413513184e+00,1.510360121726989746e+00,1.621781945228576660e+00,1.616428732872009277e+00,1.620377779006958008e+00,3.175827264785766602e+00,3.093226909637451172e+00,3.014814138412475586e+00,2.940278768539428711e+00,2.869339942932128906e+00,2.801743268966674805e+00,2.737258434295654297e+00,2.675675392150878906e+00,2.616801977157592773e+00,2.560463666915893555e+00,2.506500244140625000e+00,2.454764366149902344e+00,2.405121088027954102e+00,2.357446193695068359e+00,2.311624050140380859e+00,2.267549514770507812e+00,2.225124359130859375e+00,2.184257507324218750e+00,2.144864559173583984e+00,2.106867551803588867e+00,2.070193052291870117e+00,2.034773826599121094e+00,2.000545978546142578e+00,1.967450857162475586e+00,1.935432553291320801e+00,1.904440045356750488e+00,1.874424219131469727e+00,1.845339894294738770e+00
5.000000000000000000e+00,5.000000000000000000e+00,5.000000000000000000e+00,5.000000000000000000e+00,5.000000000000000000e+00,5.000000000000000000e+00,5.000000000000000000e+00,5.000000000000000000e+00,5.000000000000000000e+00,5.000000000000000000e+00,5.000000000000000000e+00,5.000000000000000000e+00,5.000000000000000000e+00,5.000000000000000000e+00,5.000000000000000000e+00,5.000000000000000000e+00,5.000000000000000000e+00,5.000000000000000000e+00,5.000000000000000000e+00,5.000000000000000000e+00,5.000000000000000000e+00,5.000000000000000000e+00,5.000000000000000000e+00,5.000000000000000000e+00,5.000000000000000000e+00,5.000000000000000000e+00,5.000000000000000000e+00,5.000000000000000000e+00,5.000000000000000000e+00,5.000000000000000000e+00,5.000000000000000000e+00,5.000000000000000000e+00,5.000000000000000000e+00,5.000000000000000000e+00,5.000000000000000000e+00,5.000000000000000000e+00,5.000000000000000000e+00,5.000000000000000000e+00,5.000000000000000000e+00,4.864678382873535156e+00,4.673512458801269531e+00,4.496802330017089844e+00,4.332968711853027344e+00,4.180653572082519531e+00,1.551943778991699219e+00,1.521254062652587891e+00,1.502486467361450195e+00,1.497535824775695801e+00,1.542079687118530273e+00,1.639978289604187012e+00,1.634504318237304688e+00,3.263022661209106445e+00,3.175886631011962891e+00,3.093283176422119141e+00,3.014867544174194336e+00,2.940329551696777344e+00,2.869388341903686523e+00,2.801789522171020508e+00,2.737302541732788086e+00,2.675717353820800781e+00,2.616842269897460938e+00,2.560502290725708008e+00,2.506537199020385742e+00,2.454799652099609375e+00,2.405155181884765625e+00,2.357478618621826172e+00,2.311655521392822266e+00,2.267579793930053711e+00,2.225153446197509766e+00,2.184285640716552734e+00,2.144891500473022461e+00,2.106893539428710938e+00,2.070218324661254883e+00,2.034798145294189453e+00,2.000569581985473633e+00,1.967473626136779785e+00,1.935454726219177246e+00,1.904461264610290527e+00,1.874444961547851562e+00,1.845359921455383301e+00
5.000000000000000000e+00,5.000000000000000000e+00,5.000000000000000000e+00,5.000000000000000000e+00,5.000000000000000000e+00,5.000000000000000000e+00,5.000000000000000000e+00,5.000000000000000000e+00,5.000000000000000000e+00,5.000000000000000000e+00,5.000000000000000000e+00,5.000000000000000000e+00,5.000000000000000000e+00,5.000000000000000000e+00,5.000000000000000000e+00,5.000000000000000000e+00,5.000000000000000000e+00,5.000000000000000000e+00,5.000000000000000000e+00,5.000000000000000000e+00,5.000000000000000000e+00,5.000000000000000000e+00,5.000000000000000000e+00,5.000000000000000000e+00,5.000000000000000000e+00,5.000000000000000000e+00,5.000000000000000000e+00,5.000000000000000000e+00,5.000000000000000000e+00,5.000000000000000000e+00,5.000000000000000000e+00,5.000000000000000000e+00,5.000000000000000000e+00,5.000000000000000000e+00,5.000000000000000000e+00,5.000000000000000000e+00,5.000000000000000000e+00,5.000000000000000000e+00,5.000000000000000000e+00,4.864816188812255859e+00,4.673640727996826172e+00,4.496921062469482422e+00,4.333078861236572266e+00,4.180756092071533203e+00,1.564766407012939453e+00,1.533971667289733887e+00,1.516946911811828613e+00,1.531687378883361816e+00,1.648900270462036133e+00,1.648294091224670410e+00,1.649031519889831543e+00,3.263085126876831055e+00,3.175945758819580078e+00,3.093339204788208008e+00,3.014920711517333984e+00,2.940380334854125977e+00,2.869436740875244141e+00,2.801835536956787109e+00,2.737346410751342773e+00,2.675759315490722656e+00,2.616882324218750000e+00,2.560540676116943359e+00,2.506574153900146484e+00,2.454835414886474609e+00,2.405189037322998047e+00,2.357511281967163086e+00,2.311686992645263672e+00,2.267609834671020508e+00,2.225182533264160156e+00,2.184313535690307617e+00,2.144918441772460938e+00,2.106919527053833008e+00,2.070243358612060547e+00,2.034822463989257812e+00,2.000592947006225586e+00,1.967496275901794434e+00,1.935476541519165039e+00,1.904482603073120117e+00,1.874465465545654297e+00,1.845380067825317383e+00
5.000000000000000000e+00,5.000000000000000000e+00,5.000000000000000000e+00,5.000000000000000000e+00,5.000000000000000000e+00,5.000000000000000000e+00,5.000000000000000000e+00,5.000000000000000000e+00,5.000000000000000000e+00,5.000000000000000000e+00,5.000000000000000000e+00,5.000000000000000000e+00,5.000000000000000000e+00,5.000000000000000000e+00,5.000000000000000000e+00,5.000000000000000000e+00,5.000000000000000000e+00,5.000000000000000000e+00,5.000000000000000000e+00,5.000000000000000000e+00,5.000000000000000000e+00,5.000000000000000000e+00,5.000000000000000000e+00,5.000000000000000000e+00,5.000000000000000000e+00,5.000000000000000000e+00,5.000000000000000000e+00,5.000000000000000000e+00,5.000000000000000000e+00,5.000000000000000000e+00,5.000000000000000000e+00,5.000000000000000000e+00,5.000000000000000000e+00,5.000000000000000000e+00,5.000000000000000000e+00,5.000000000000000000e+00,5.000000000000000000e+00,5.000000000000000000e+00,5.000000000000000000e+00,4.864954948425292969e+00,4.673767566680908203e+00,4.497040271759033203e+00,4.333189487457275391e+00,4.180858612060546875e+00,1.578225255012512207e+00,1.546950340270996094e+00,1.531688451766967773e+00,1.563405513763427734e+00,1.655023694038391113e+00,1.654793739318847656e+00,1.680677175521850586e+00,3.263147592544555664e+00,3.176004886627197266e+00,3.093395471572875977e+00,3.014974117279052734e+00,2.940431118011474609e+00,2.869485139846801758e+00,2.801881790161132812e+00,2.737390518188476562e+00,2.675801515579223633e+00,2.616922855377197266e+00,2.560579299926757812e+00,2.506611108779907227e+00,2.454870700836181641e+00,2.405223131179809570e+00,2.357543945312500000e+00,2.311718225479125977e+00,2.267640113830566406e+00,2.225211620330810547e+00,2.184341669082641602e+00,2.144945621490478516e+00,2.106945753097534180e+00,2.070268630981445312e+00,2.034846782684326172e+00,2.000616550445556641e+00,1.967519044876098633e+00,1.935498714447021484e+00,1.904503822326660156e+00,1.874486207962036133e+00,1.845399975776672363e+00
5.000000000000000000e+00,5.000000000000000000e+00,5.000000000000000000e+00,5.000000000000000000e+00,5.000000000000000000e+00,5.000000000000000000e+00,5.000000000000000000e+00,5.000000000000000000e+00,5.000000000000000000e+00,5.000000000000000000e+00,5.000000000000000000e+00,5.000000000000000000e+00,5.000000000000000000e+00,5.000000000000000000e+00,5.000000000000000000e+00,5.000000000000000000e+00,5.000000000000000000e+00,5.000000000000000000e+00,5.000000000000000000e+00,5.000000000000000000e+00,5.000000000000000000e+00,5.000000000000000000e+00,5.000000000000000000e+00,5.000000000000000000e+00,5.000000000000000000e+00,5.000000000000000000e+00,5.000000000000000000e+00,5.000000000000000000e+00,5.000000000000000000e+00,5.000000000000000000e+00,5.000000000000000000e+00,5.000000000000000000e+00,5.000000000000000000e+00,5.000000000000000000e+00,5.000000000000000000e+00,5.000000000000000000e+00,5.000000000000000000e+00,5.000000000000000000e+00,5.000000000000000000e+00,4.865093708038330078e+00,4.673895835876464844e+00,4.497159004211425781e+00,4.333299636840820312e+00,1.654893994331359863e+00,1.593194007873535156e+00,1.564969182014465332e+00,1.552983403205871582e+00,1.671057105064392090e+00,1.661192893981933594e+00,1.661344766616821289e+00,3.355273723602294922e+00,3.263210296630859375e+00,3.176064252853393555e+00,3.093451738357543945e+00,3.015027761459350586e+00,2.940481901168823242e+00,2.869533300399780273e+00,2.801928043365478516e+00,2.737434387207031250e+00,2.675843477249145508e+00,2.616962909698486328e+00,2.560617685317993164e+00,2.506647825241088867e+00,2.454905986785888672e+00,2.405256986618041992e+00,2.357576608657836914e+00,2.311749696731567383e+00,2.267670392990112305e+00,2.225240707397460938e+00,2.184369564056396484e+00,2.144972801208496094e+00,2.106971740722656250e+00,2.070293664932250977e+00,2.034871101379394531e+00,2.000640153884887695e+00,1.967541694641113281e+00,1.935520768165588379e+00,1.904525279998779297e+00,1.874506711959838867e+00,1.845420002937316895e+00
5.000000000000000000e+00,5.000000000000000000e+00,5.000000000000000000e+00,5.000000000000000000e+00,5.000000000000000000e+00,5.000000000000000000e+00,5.000000000000000000e+00,5.000000000000000000e+00,5.000000000000000000e+00,5.000000000000000000e+00,5.000000000000000000e+00,5.000000000000000000e+00,5.000000000000000000e+00,5.000000000000000000e+00,5.000000000000000000e+00,5.000000000000000000e+00,5.000000000000000000e+00,5.000000000000000000e+00,5.000000000000000000e+00,5.000000000000000000e+00,5.000000000000000000e+00,5.000000000000000000e+00,5.000000000000000000e+00,5.000000000000000000e+00,5.000000000000000000e+00,5.000000000000000000e+00,5.000000000000000000e+00,5.000000000000000000e+00,5.000000000000000000e+00,5.000000000000000000e+00,5.000000000000000000e+00,5.000000000000000000e+00,5.000000000000000000e+00,5.000000000000000000e+00,5.000000000000000000e+00,5.000000000000000000e+00,5.000000000000000000e+00,5.000000000000000000e+00,5.000000000000000000e+00,4.865232467651367188e+00,4.674024105072021484e+00,4.497276306152343750e+00,4.333409786224365234e+00,1.643366932868957520e+00,1.608815908432006836e+00,1.587706565856933594e+00,1.589111447334289551e+00,1.672427415847778320e+00,1.667408227920532227e+00,1.667948007583618164e+00,3.355339765548706055e+00,3.263273000717163086e+00,3.176123380661010742e+00,3.093507766723632812e+00,3.015081167221069336e+00,2.940532684326171875e+00,2.869581699371337891e+00,2.801974058151245117e+00,2.737478494644165039e+00,2.675885438919067383e+00,2.617003202438354492e+00,2.560656309127807617e+00,2.506684780120849609e+00,2.454941511154174805e+00,2.405291080474853516e+00,2.357609272003173828e+00,2.311781167984008789e+00,2.267700672149658203e+00,2.225269556045532227e+00,2.184397459030151367e+00,2.144999742507934570e+00,2.106997728347778320e+00,2.070318937301635742e+00,2.034895420074462891e+00,2.000663518905639648e+00,1.967564582824707031e+00,1.935542702674865723e+00,1.904546380043029785e+00,1.874527454376220703e+00,1.845439910888671875e+00
5.000000000000000000e+00,5.000000000000000000e+00,5.000000000000000000e+00,5.000000000000000000e+00,5.000000000000000000e+00,5.000000000000000000e+00,5.000000000000000000e+00,5.000000000000000000e+00,5.000000000000000000e+00,5.000000000000000000e+00,5.000000000000000000e+00,5.000000000000000000e+00,5.000000000000000000e+00,5.000000000000000000e+00,5.000000000000000000e+00,5.000000000000000000e+00,5.000000000000000000e+00,5.000000000000000000e+00,5.000000000000000000e+00,5.000000000000000000e+00,5.000000000000000000e+00,5.000000000000000000e+00,5.000000000000000000e+00,5.000000000000000000e+00,5.000000000000000000e+00,5.000000000000000000e+00,5.000000000000000000e+00,5.000000000000000000e+00,5.000000000000000000e+00,5.000000000000000000e+00,5.000000000000000000e+00,5.000000000000000000e+00,5.000000000000000000e+00,5.000000000000000000e+00,5.000000000000000000e+00,5.000000000000000000e+00,5.000000000000000000e+00,5.000000000000000000e+00,5.000000000000000000e+00,4.865370750427246094e+00,4.674151897430419922e+00,4.497394561767578125e+00,4.333519458770751953e+00,1.659850835800170898e+00,1.625164508819580078e+00,1.610564112663269043e+00,1.631445646286010742e+00,1.675534129142761230e+00,1.674033880233764648e+00,1.674407601356506348e+00,3.355406045913696289e+00,3.263335466384887695e+00,3.176182746887207031e+00,3.093564033508300781e+00,3.015134572982788086e+00,2.940583467483520508e+00,2.869630098342895508e+00,2.802020072937011719e+00,2.737522363662719727e+00,2.675927639007568359e+00,2.617043495178222656e+00,2.560694694519042969e+00,2.506721735000610352e+00,2.454976797103881836e+00,2.405325174331665039e+00,2.357641935348510742e+00,2.311812400817871094e+00,2.267730951309204102e+00,2.225298643112182617e+00,2.184425592422485352e+00,2.145026683807373047e+00,2.107023715972900391e+00,2.070343971252441406e+00,2.034919738769531250e+00,2.000687122344970703e+00,1.967587113380432129e+00,1.935564756393432617e+00,1.904567837715148926e+00,1.874547958374023438e+00,1.845460057258605957e+00
5.000000000000000000e+00,5.000000000000000000e+00,5.000000000000000000e+00,5.000000000000000000e+00,5.000000000000000000e+00,5.000000000000000000e+00,5.000000000000000000e+00,5.000000000000000000e+00,5.000000000000000000e+00,5.000000000000000000e+00,5.000000000000000000e+00,5.000000000000000000e+00,5.000000000000000000e+00,5.000000000000000000e+00,5.000000000000000000e+00,5.000000000000000000e+00,5.000000000000000000e+00,5.000000000000000000e+00,5.000000000000000000e+00,5.000000000000000000e+00,5.000000000000000000e+00,5.000000000000000000e+00,5.000000000000000000e+00,5.000000000000000000e+00,5.000000000000000000e+00,5.000000000000000000e+00,5.000000000000000000e+00,5.000000000000000000e+00,5.000000000000000000e+00,5.000000000000000000e+00,5.000000000000000000e+00,5.000000000000000000e+00,5.000000000000000000e+00,5.000000000000000000e+00,5.000000000000000000e+00,5.000000000000000000e+00,5.000000000000000000e+00,5.000000000000000000e+00,5.000000000000000000e+00,4.865509986877441406e+00,4.674279689788818359e+00,4.497513771057128906e+00,4.333629131317138672e+00,1.697208642959594727e+00,1.641848564147949219e+00,1.633448719978332520e+00,1.703749418258666992e+00,1.681650161743164062e+00,1.681222081184387207e+00,3.452892541885375977e+00,3.355472087860107422e+00,3.263398170471191406e+00,3.176241874694824219e+00,3.093620300292968750e+00,3.015187978744506836e+00,2.940634250640869141e+00,2.869678497314453125e+00,2.802066326141357422e+00,2.737566709518432617e+00,2.675969600677490234e+00,2.617083549499511719e+00,2.560733318328857422e+00,2.506758689880371094e+00,2.455012321472167969e+00,2.405359029769897461e+00,2.357674598693847656e+00,2.311843872070312500e+00,2.267760992050170898e+00,2.225327730178833008e+00,2.184453725814819336e+00,2.145053625106811523e+00,2.107049942016601562e+00,2.070369243621826172e+00,2.034944057464599609e+00,2.000710725784301758e+00,1.967610001564025879e+00,1.935586690902709961e+00,1.904589295387268066e+00,1.874568700790405273e+00,1.845479965209960938e+00
4.875665664672851562e+00,4.874454498291015625e+00,4.873244285583496094e+00,4.872034549713134766e+00,4.870825290679931641e+00,4.869616508483886719e+00,4.868408679962158203e+00,4.867200851440429688e+00,4.865993976593017578e+00,4.864787578582763672e+00,4.863582134246826172e+00,4.862377166748046875e+00,4.861172199249267578e+00,4.859968185424804688e+00,4.858765602111816406e+00,4.857562541961669922e+00,4.856360435485839844e+00,4.855158805847167969e+00,4.853958129882812500e+00,4.852757930755615234e+00,4.851558208465576172e+00,4.850358963012695312e+00,4.849160671234130859e+00,4.847962379455566406e+00,4.846765041351318359e+00,4.845568180084228516e+00,4.844372272491455078e+00,4.843176364898681641e+00,4.841981410980224609e+00,4.840786933898925781e+00,4.839593410491943359e+00,4.838399887084960938e+00,4.837207317352294922e+00,4.836015224456787109e+00,4.834824085235595703e+00,4.833632946014404297e+00,4.832442760467529297e+00,4.831252574920654297e+00,4.830063819885253906e+00,4.828875064849853516e+00,4.674407958984375000e+00,4.497632026672363281e+00,4.333739280700683594e+00,1.700798392295837402e+00,1.674380660057067871e+00,1.684835672378540039e+00,1.707493662834167480e+00,1.688721299171447754e+00,1.688472390174865723e+00,3.452962398529052734e+00,3.355538129806518555e+00,3.263460636138916016e+00,3.176301002502441406e+00,3.093676328659057617e+00,3.015241384506225586e+00,2.940685272216796875e+00,2.869726657867431641e+00,2.802112340927124023e+00,2.737610578536987305e+00,2.676011562347412109e+00,2.617123842239379883e+00,2.560771942138671875e+00,2.506795406341552734e+00,2.455047607421875000e+00,2.405393123626708984e+00,2.357707262039184570e+00,2.311875104904174805e+00,2.267791271209716797e+00,2.225356817245483398e+00,2.184481620788574219e+00,2.145080804824829102e+00,2.107076168060302734e+00,2.070394515991210938e+00,2.034968376159667969e+00,2.000734090805053711e+00,1.967632651329040527e+00,1.935608744621276855e+00,1.904610395431518555e+00,1.874589204788208008e+00,1.845499992370605469e+00
3.778481721878051758e+00,3.777754545211791992e+00,3.777027368545532227e+00,3.776300430297851562e+00,3.775573968887329102e+00,3.774847507476806641e+00,3.774121522903442383e+00,3.773395776748657227e+00,3.772670269012451172e+00,3.771945476531982422e+00,3.771220684051513672e+00,3.770495891571044922e+00,3.769771575927734375e+00,3.769047498703002930e+00,3.768323659896850586e+00,3.767600059509277344e+00,3.766876935958862305e+00,3.766154289245605469e+00,3.765431642532348633e+00,3.764709234237670898e+00,3.763987064361572266e+00,3.763265132904052734e+00,3.762543678283691406e+00,3.761822223663330078e+00,3.761101245880126953e+00,3.760380983352661133e+00,3.759660482406616211e+00,3.758940219879150391e+00,3.758220195770263672e+00,3.757500648498535156e+00,3.756781339645385742e+00,3.756062030792236328e+00,3.755343198776245117e+00,3.754625082015991211e+00,3.753906965255737305e+00,3.753188848495483398e+00,3.752471208572387695e+00,3.751753568649291992e+00,3.751036405563354492e+00,3.750319480895996094e+00,3.749603033065795898e+00,3.748887062072753906e+00,3.748170852661132812e+00,1.690632224082946777e+00,1.665761470794677734e+00,1.670915484428405762e+00,1.711011409759521484e+00,1.695852160453796387e+00,1.717265605926513672e+00,3.453032493591308594e+00,3.355604171752929688e+00,3.263523101806640625e+00,3.176360607147216797e+00,3.093732595443725586e+00,3.015294790267944336e+00,2.940736055374145508e+00,2.869775056838989258e+00,2.802158355712890625e+00,2.737654685974121094e+00,2.676053762435913086e+00,2.617164134979248047e+00,2.560810327529907227e+00,2.506832361221313477e+00,2.455082893371582031e+00,2.405426979064941406e+00,2.357739686965942383e+00,2.311906576156616211e+00,2.267821550369262695e+00,2.225386142730712891e+00,2.184509754180908203e+00,2.145107746124267578e+00,2.107102155685424805e+00,2.070419549942016602e+00,2.034992694854736328e+00,2.000757694244384766e+00,1.967655420303344727e+00,1.935630679130554199e+00,1.904631853103637695e+00,1.874609947204589844e+00,1.845519900321960449e+00
3.084392547607421875e+00,3.083907842636108398e+00,3.083423376083374023e+00,3.082938909530639648e+00,3.082454919815063477e+00,3.081970691680908203e+00,3.081486701965332031e+00,3.081002950668334961e+00,3.080519199371337891e+00,3.080035686492919922e+00,3.079552412033081055e+00,3.079069137573242188e+00,3.078586339950561523e+00,3.078103303909301758e+00,3.077620506286621094e+00,3.077137947082519531e+00,3.076655387878417969e+00,3.076173067092895508e+00,3.075690984725952148e+00,3.075208902359008789e+00,3.074727296829223633e+00,3.074245691299438477e+00,3.073764085769653320e+00,3.073282718658447266e+00,3.072801351547241211e+00,3.072320222854614258e+00,3.071839332580566406e+00,3.071358442306518555e+00,3.070878028869628906e+00,3.070397615432739258e+00,3.069917201995849609e+00,3.069437026977539062e+00,3.068956851959228516e+00,3.068477153778076172e+00,3.067997217178344727e+00,3.067517757415771484e+00,3.067038536071777344e+00,3.066559314727783203e+00,3.066080093383789062e+00,3.065601110458374023e+00,3.065122365951538086e+00,3.064643621444702148e+00,3.064164876937866211e+00,1.674318671226501465e+00,1.656923174858093262e+00,1.653901576995849609e+00,1.726785063743591309e+00,1.703043222427368164e+00,3.061296939849853516e+00,3.060819625854492188e+00,3.060342073440551758e+00,3.059864997863769531e+00,3.059387922286987305e+00,3.058911085128784180e+00,3.015348196029663086e+00,2.940786838531494141e+00,2.869823455810546875e+00,2.802204608917236328e+00,2.737698793411254883e+00,2.676095724105834961e+00,2.617204189300537109e+00,2.560848951339721680e+00,2.506869316101074219e+00,2.455118417739868164e+00,2.405461072921752930e+00,2.357772588729858398e+00,2.311938047409057617e+00,2.267851591110229492e+00,2.225415229797363281e+00,2.184537649154663086e+00,2.145134687423706055e+00,2.107128143310546875e+00,2.070444822311401367e+00,2.035017013549804688e+00,2.000781059265136719e+00,1.967678070068359375e+00,1.935652732849121094e+00,1.904653072357177734e+00,1.874630570411682129e+00,1.845540046691894531e+00
2.605732202529907227e+00,2.605386257171630859e+00,2.605040311813354492e+00,2.604694366455078125e+00,2.604348659515380859e+00,2.604003190994262695e+00,2.603657722473144531e+00,2.603312492370605469e+00,2.602967023849487305e+00,2.602621793746948242e+00,2.602276563644409180e+00,2.601931571960449219e+00,2.601586580276489258e+00,2.601241827011108398e+00,2.600897073745727539e+00,2.600552558898925781e+00,2.600207805633544922e+00,2.599863290786743164e+00,2.599519014358520508e+00,2.599174737930297852e+00,2.598830223083496094e+00,2.598486185073852539e+00,2.598142147064208984e+00,2.597798347473144531e+00,2.597454547882080078e+00,2.597110748291015625e+00,2.596766948699951172e+00,2.596423387527465820e+00,2.596079826354980469e+00,2.595736503601074219e+00,2.595393180847167969e+00,2.595050096511840820e+00,2.594707012176513672e+00,2.594363927841186523e+00,2.594021081924438477e+00,2.593677997589111328e+00,2.593335390090942383e+00,2.592992544174194336e+00,2.592649936676025391e+00,2.592307806015014648e+00,2.591965198516845703e+00,2.591622829437255859e+00,2.591280698776245117e+00,1.651137590408325195e+00,1.643349409103393555e+00,1.640821576118469238e+00,1.722358584403991699e+00,2.589570760726928711e+00,2.589229345321655273e+00,2.588887691497802734e+00,2.588546276092529297e+00,2.588204860687255859e+00,2.587863445281982422e+00,2.587522268295288086e+00,2.587181091308593750e+00,2.586839914321899414e+00,2.586499214172363281e+00,2.586158275604248047e+00,2.585817575454711914e+00,2.585476875305175781e+00,2.585136175155639648e+00,2.560887336730957031e+00,2.506906270980834961e+00,2.455153703689575195e+00,2.405494928359985352e+00,2.357805252075195312e+00,2.311969280242919922e+00,2.267881870269775391e+00,2.225444316864013672e+00,2.184565782546997070e+00,2.145161867141723633e+00,2.107154369354248047e+00,2.070469856262207031e+00,2.035041332244873047e+00,2.000804662704467773e+00,1.967700958251953125e+00,1.935674667358398438e+00,1.904674410820007324e+00,1.874651312828063965e+00,1.845559954643249512e+00
2.255681514739990234e+00,2.255421876907348633e+00,2.255162715911865234e+00,2.254903316497802734e+00,2.254644155502319336e+00,2.254384994506835938e+00,2.254126071929931641e+00,2.253866910934448242e+00,2.253607988357543945e+00,2.253349065780639648e+00,2.253090143203735352e+00,2.252831220626831055e+00,2.252572536468505859e+00,2.252313852310180664e+00,2.252055168151855469e+00,2.251796722412109375e+00,2.251538276672363281e+00,2.251279830932617188e+00,2.251021385192871094e+00,2.250762939453125000e+00,2.250504732131958008e+00,2.250246524810791016e+00,2.249988317489624023e+00,2.249730348587036133e+00,2.249472379684448242e+00,2.249214649200439453e+00,2.248956918716430664e+00,2.248699188232421875e+00,2.248441457748413086e+00,2.248183965682983398e+00,2.247926473617553711e+00,2.247668981552124023e+00,2.247411489486694336e+00,2.247153997421264648e+00,2.246896982192993164e+00,2.246639728546142578e+00,2.246382474899291992e+00,2.246125459671020508e+00,2.245868206024169922e+00,2.245611190795898438e+00,2.245354175567626953e+00,2.245097398757934570e+00,2.244840621948242188e+00,2.244583845138549805e+00,1.622064828872680664e+00,1.622156023979187012e+00,1.623399853706359863e+00,1.688177704811096191e+00,2.243300914764404297e+00,2.243044376373291016e+00,2.242788076400756836e+00,2.242531776428222656e+00,2.242275714874267578e+00,2.242019414901733398e+00,2.241763353347778320e+00,2.241507291793823242e+00,2.241251230239868164e+00,2.240995168685913086e+00,2.240739345550537109e+00,2.240483522415161133e+00,2.240227937698364258e+00,2.239972114562988281e+00,2.239716529846191406e+00,2.239460706710815430e+00,2.239205360412597656e+00,2.238949775695800781e+00,2.238694429397583008e+00,2.238439083099365234e+00,2.225473403930664062e+00,2.184593677520751953e+00,2.145188808441162109e+00,2.107180356979370117e+00,2.070495128631591797e+00,2.035065650939941406e+00,2.000828266143798828e+00,1.967723727226257324e+00,1.935696721076965332e+00,1.904695630073547363e+00,1.874671936035156250e+00,1.845579981803894043e+00
1.988550066947937012e+00,1.988348484039306641e+00,1.988146781921386719e+00,1.987945437431335449e+00,1.987743854522705078e+00,1.987542510032653809e+00,1.987341165542602539e+00,1.987139701843261719e+00,1.986938476562500000e+00,1.986737132072448730e+00,1.986535906791687012e+00,1.986334681510925293e+00,1.986133575439453125e+00,1.985932350158691406e+00,1.985731363296508789e+00,1.985530257225036621e+00,1.985329389572143555e+00,1.985128521919250488e+00,1.984927415847778320e+00,1.984726667404174805e+00,1.984525799751281738e+00,1.984325051307678223e+00,1.984124183654785156e+00,1.983923554420471191e+00,1.983722805976867676e+00,1.983522176742553711e+00,1.983321547508239746e+00,1.983121037483215332e+00,1.982920646667480469e+00,1.982720136642456055e+00,1.982519745826721191e+00,1.982319235801696777e+00,1.982118964195251465e+00,1.981918573379516602e+00,1.981718420982360840e+00,1.981518030166625977e+00,1.981317996978759766e+00,1.981117963790893555e+00,1.980917692184448242e+00,1.980717778205871582e+00,1.980517625808715820e+00,1.980317711830139160e+00,1.980117678642272949e+00,1.979917883872985840e+00,1.979717850685119629e+00,1.610709667205810547e+00,1.602397322654724121e+00,1.640488505363464355e+00,1.681633710861206055e+00,1.978719234466552734e+00,1.978519678115844727e+00,1.978320002555847168e+00,1.978120565414428711e+00,1.977921009063720703e+00,1.977721571922302246e+00,1.977522015571594238e+00,1.977322816848754883e+00,1.977123260498046875e+00,1.976924061775207520e+00,1.976724982261657715e+00,1.976525664329528809e+00,1.976326584815979004e+00,1.976127266883850098e+00,1.975928306579589844e+00,1.975729107856750488e+00,1.975530147552490234e+00,1.975331068038940430e+00,1.975132226943969727e+00,1.974933505058288574e+00,1.974734425544738770e+00,1.974535703659057617e+00,1.974336862564086914e+00,1.974138259887695312e+00,1.973939418792724609e+00,1.973740816116333008e+00,1.967746376991271973e+00,1.935718655586242676e+00,1.904717087745666504e+00,1.874692559242248535e+00,1.845599889755249023e+00
1.777989983558654785e+00,1.777828693389892578e+00,1.777667522430419922e+00,1.777506351470947266e+00,1.777345418930053711e+00,1.777184247970581055e+00,1.777023315429687500e+00,1.776862382888793945e+00,1.776701331138610840e+00,1.776540398597717285e+00,1.776379466056823730e+00,1.776218652725219727e+00,1.776057720184326172e+00,1.775896906852722168e+00,1.775736093521118164e+00,1.775575399398803711e+00,1.775414466857910156e+00,1.775253891944885254e+00,1.775093317031860352e+00,1.774932503700256348e+00,1.774772047996520996e+00,1.774611353874206543e+00,1.774450898170471191e+00,1.774290204048156738e+00,1.774129748344421387e+00,1.773969173431396484e+00,1.773808836936950684e+00,1.773648381233215332e+00,1.773488044738769531e+00,1.773327708244323730e+00,1.773167252540588379e+00,1.773007035255432129e+00,1.772846698760986328e+00,1.772686600685119629e+00,1.772526264190673828e+00,1.772366166114807129e+00,1.772205829620361328e+00,1.772045850753784180e+00,1.771885871887207031e+00,1.771725654602050781e+00,1.771565675735473633e+00,1.771405577659606934e+00,1.771245718002319336e+00,1.771085619926452637e+00,1.770925760269165039e+00,1.770765781402587891e+00,1.770606040954589844e+00,1.607491970062255859e+00,1.590490341186523438e+00,1.642740726470947266e+00,1.769966721534729004e+00,1.769807100296020508e+00,1.769647359848022461e+00,1.769487738609313965e+00,1.769327998161315918e+00,1.769168496131896973e+00,1.769008755683898926e+00,1.768849372863769531e+00,1.768689632415771484e+00,1.768530249595642090e+00,1.768370866775512695e+00,1.768211364746093750e+00,1.768052101135253906e+00,1.767892599105834961e+00,1.767733335494995117e+00,1.767573833465576172e+00,1.767414689064025879e+00,1.767255306243896484e+00,1.767096161842346191e+00,1.766937017440795898e+00,1.766777753829956055e+00,1.766618728637695312e+00,1.766459465026855469e+00,1.766300439834594727e+00,1.766141295433044434e+00,1.765982389450073242e+00,1.765823245048522949e+00,1.765664339065551758e+00,1.765505313873291016e+00,1.765346527099609375e+00
1.607751011848449707e+00,1.607619285583496094e+00,1.607487440109252930e+00,1.607355713844299316e+00,1.607223987579345703e+00,1.607092380523681641e+00,1.606960535049438477e+00,1.606828927993774414e+00,1.606697201728820801e+00,1.606565713882446289e+00,1.606434226036071777e+00,1.606302499771118164e+00,1.606171011924743652e+00,1.606039404869079590e+00,1.605908036231994629e+00,1.605776429176330566e+00,1.605645060539245605e+00,1.605513453483581543e+00,1.605382084846496582e+00,1.605250835418701172e+00,1.605119347572326660e+00,1.604988098144531250e+00,1.604856610298156738e+00,1.604725360870361328e+00,1.604593992233276367e+00,1.604462862014770508e+00,1.604331493377685547e+00,1.604200363159179688e+00,1.604068994522094727e+00,1.603937864303588867e+00,1.603806853294372559e+00,1.603675603866577148e+00,1.603544592857360840e+00,1.603413343429565430e+00,1.603282332420349121e+00,1.603151202201843262e+00,1.603020191192626953e+00,1.602889180183410645e+00,1.602758169174194336e+00,1.602627277374267578e+00,1.602496266365051270e+00,1.602365374565124512e+00,1.602234482765197754e+00,1.602103590965270996e+00,1.601972699165344238e+00,1.601841926574707031e+00,1.601711034774780273e+00,1.601580262184143066e+00,1.601449370384216309e+00,1.601318717002868652e+00,1.601188063621520996e+00,1.601057291030883789e+00,1.600926637649536133e+00,1.600795865058898926e+00,1.600665330886840820e+00,1.600534558296203613e+00,1.600404024124145508e+00,1.600273370742797852e+00,1.600142836570739746e+00,1.600012302398681641e+00,1.599881768226623535e+00,1.599751353263854980e+00,1.599620819091796875e+00,1.599490404129028320e+00,1.599359869956970215e+00,1.599229454994201660e+00,1.599099040031433105e+00,1.598968744277954102e+00,1.598838329315185547e+00,1.598708033561706543e+00,1.598577618598937988e+00,1.598447442054748535e+00,1.598317265510559082e+00,1.598186850547790527e+00,1.598056793212890625e+00,1.597926497459411621e+00,1.597796320915222168e+00,1.597666144371032715e+00,1.597535967826843262e+00,1.597405791282653809e+00
1.467263698577880859e+00,1.467153787612915039e+00,1.467044115066528320e+00,1.466934323310852051e+00,1.466824650764465332e+00,1.466714859008789062e+00,1.466605305671691895e+00,1.466495513916015625e+00,1.466385960578918457e+00,1.466276288032531738e+00,1.466166615486145020e+00,1.466057181358337402e+00,1.465947508811950684e+00,1.465837955474853516e+00,1.465728282928466797e+00,1.465618848800659180e+00,1.465509295463562012e+00,1.465399861335754395e+00,1.465290307998657227e+00,1.465180873870849609e+00,1.465071439743041992e+00,1.464962005615234375e+00,1.464852571487426758e+00,1.464743137359619141e+00,1.464633822441101074e+00,1.464524388313293457e+00,1.464415073394775391e+00,1.464305639266967773e+00,1.464196324348449707e+00,1.464087009429931641e+00,1.463977813720703125e+00,1.463868498802185059e+00,1.463759183883666992e+00,1.463649988174438477e+00,1.463540792465209961e+00,1.463431596755981445e+00,1.463322281837463379e+00,1.463213205337524414e+00,1.463104009628295898e+00,1.462994933128356934e+00,1.462885737419128418e+00,1.462776660919189453e+00,1.462667584419250488e+00,1.462558507919311523e+00,1.462449431419372559e+00,1.462340354919433594e+00,1.462231397628784180e+00,1.462122321128845215e+00,1.462013363838195801e+00,1.461904287338256836e+00,1.461795449256896973e+00,1.461686491966247559e+00,1.461577534675598145e+00,1.461468696594238281e+00,1.461359739303588867e+00,1.461250901222229004e+00,1.461141943931579590e+00,1.461033105850219727e+00,1.460924267768859863e+00,1.460815548896789551e+00,1.460706591606140137e+00,1.460597872734069824e+00,1.460489153861999512e+00,1.460380315780639648e+00,1.460271716117858887e+00,1.460162878036499023e+00,1.460054278373718262e+00,1.459945559501647949e+00,1.459836840629577637e+00,1.459728121757507324e+00,1.459619522094726562e+00,1.459510922431945801e+00,1.459402322769165039e+00,1.459293842315673828e+00,1.459185123443603516e+00,1.459076642990112305e+00,1.458968043327331543e+00,1.458859562873840332e+00,1.458750963211059570e+00,1.458642601966857910e+00
1.349355101585388184e+00,1.349262356758117676e+00,1.349169373512268066e+00,1.349076628684997559e+00,1.348983764648437500e+00,1.348891019821166992e+00,1.348798274993896484e+00,1.348705530166625977e+00,1.348612785339355469e+00,1.348520040512084961e+00,1.348427295684814453e+00,1.348334670066833496e+00,1.348242044448852539e+00,1.348149299621582031e+00,1.348056674003601074e+00,1.347963929176330566e+00,1.347871303558349609e+00,1.347778677940368652e+00,1.347686052322387695e+00,1.347593426704406738e+00,1.347500920295715332e+00,1.347408294677734375e+00,1.347315788269042969e+00,1.347223281860351562e+00,1.347130656242370605e+00,1.347038149833679199e+00,1.346945643424987793e+00,1.346853137016296387e+00,1.346760630607604980e+00,1.346668243408203125e+00,1.346575617790222168e+00,1.346483230590820312e+00,1.346390843391418457e+00,1.346298456192016602e+00,1.346206068992614746e+00,1.346113562583923340e+00,1.346021294593811035e+00,1.345928788185119629e+00,1.345836520195007324e+00,1.345744132995605469e+00,1.345651745796203613e+00,1.345559358596801758e+00,1.345467209815979004e+00,1.345374941825866699e+00,1.345282554626464844e+00,1.345190286636352539e+00,1.345098018646240234e+00,1.345005869865417480e+00,1.344913482666015625e+00,1.344821333885192871e+00,1.344729065895080566e+00,1.344636917114257812e+00,1.344544649124145508e+00,1.344452500343322754e+00,1.344360470771789551e+00,1.344268202781677246e+00,1.344176173210144043e+00,1.344084024429321289e+00,1.343991875648498535e+00,1.343899726867675781e+00,1.343807697296142578e+00,1.343715548515319824e+00,1.343623638153076172e+00,1.343531608581542969e+00,1.343439459800720215e+00,1.343347549438476562e+00,1.343255400657653809e+00,1.343163490295410156e+00,1.343071460723876953e+00,1.342979550361633301e+00,1.342887520790100098e+00,1.342795610427856445e+00,1.342703580856323242e+00,1.342611789703369141e+00,1.342519879341125488e+00,1.342427968978881836e+00,1.342336058616638184e+00,1.342244148254394531e+00,1.342152357101440430e+00,1.342060446739196777e+00
1.248987078666687012e+00,1.248907685279846191e+00,1.248828172683715820e+00,1.248748660087585449e+00,1.248669147491455078e+00,1.248589634895324707e+00,1.248510122299194336e+00,1.248430609703063965e+00,1.248351216316223145e+00,1.248271703720092773e+00,1.248192310333251953e+00,1.248112797737121582e+00,1.248033404350280762e+00,1.247954010963439941e+00,1.247874617576599121e+00,1.247795224189758301e+00,1.247715830802917480e+00,1.247636437416076660e+00,1.247557044029235840e+00,1.247477769851684570e+00,1.247398376464843750e+00,1.247319102287292480e+00,1.247239708900451660e+00,1.247160434722900391e+00,1.247081160545349121e+00,1.247001767158508301e+00,1.246922612190246582e+00,1.246843218803405762e+00,1.246764063835144043e+00,1.246684670448303223e+00,1.246605515480041504e+00,1.246526241302490234e+00,1.246447086334228516e+00,1.246367931365966797e+00,1.246288657188415527e+00,1.246209502220153809e+00,1.246130228042602539e+00,1.246051073074340820e+00,1.245971918106079102e+00,1.245892763137817383e+00,1.245813608169555664e+00,1.245734453201293945e+00,1.245655298233032227e+00,1.245576262474060059e+00,1.245497226715087891e+00,1.245418071746826172e+00,1.245339035987854004e+00,1.245259881019592285e+00,1.245180845260620117e+00,1.245101809501647949e+00,1.245022773742675781e+00,1.244943737983703613e+00,1.244864702224731445e+00,1.244785666465759277e+00,1.244706630706787109e+00,1.244627714157104492e+00,1.244548678398132324e+00,1.244469761848449707e+00,1.244390726089477539e+00,1.244311809539794922e+00,1.244232892990112305e+00,1.244153976440429688e+00,1.244074940681457520e+00,1.243996143341064453e+00,1.243917226791381836e+00,1.243838310241699219e+00,1.243759512901306152e+00,1.243680596351623535e+00,1.243601799011230469e+00,1.243522882461547852e+00,1.243444085121154785e+00,1.243365168571472168e+00,1.243286371231079102e+00,1.243207573890686035e+00,1.243128776550292969e+00,1.243049979209899902e+00,1.242971181869506836e+00,1.242892503738403320e+00,1.242813587188720703e+00,1.242734909057617188e+00
1.162516713142395020e+00,1.162447810173034668e+00,1.162378907203674316e+00,1.162310123443603516e+00,1.162241220474243164e+00,1.162172317504882812e+00,1.162103414535522461e+00,1.162034630775451660e+00,1.161965727806091309e+00,1.161896944046020508e+00,1.161828041076660156e+00,1.161759257316589355e+00,1.161690354347229004e+00,1.161621570587158203e+00,1.161552906036376953e+00,1.161484003067016602e+00,1.161415338516235352e+00,1.161346435546875000e+00,1.161277770996093750e+00,1.161208987236022949e+00,1.161140203475952148e+00,1.161071419715881348e+00,1.161002755165100098e+00,1.160933971405029297e+00,1.160865306854248047e+00,1.160796642303466797e+00,1.160727858543395996e+00,1.160659193992614746e+00,1.160590529441833496e+00,1.160521864891052246e+00,1.160453081130981445e+00,1.160384535789489746e+00,1.160315752029418945e+00,1.160247206687927246e+00,1.160178542137145996e+00,1.160109877586364746e+00,1.160041332244873047e+00,1.159972667694091797e+00,1.159904122352600098e+00,1.159835457801818848e+00,1.159766912460327148e+00,1.159698247909545898e+00,1.159629702568054199e+00,1.159561157226562500e+00,1.159492611885070801e+00,1.159424066543579102e+00,1.159355521202087402e+00,1.159286975860595703e+00,1.159218430519104004e+00,1.159150004386901855e+00,1.159081459045410156e+00,1.159012913703918457e+00,1.158944487571716309e+00,1.158875942230224609e+00,1.158807516098022461e+00,1.158739089965820312e+00,1.158670663833618164e+00,1.158602118492126465e+00,1.158533692359924316e+00,1.158465266227722168e+00,1.158396840095520020e+00,1.158328413963317871e+00,1.158259987831115723e+00,1.158191561698913574e+00,1.158123254776000977e+00,1.158054947853088379e+00,1.157986521720886230e+00,1.157918095588684082e+00,1.157849788665771484e+00,1.157781481742858887e+00,1.157713055610656738e+00,1.157644748687744141e+00,1.157576322555541992e+00,1.157508134841918945e+00,1.157439708709716797e+00,1.157371401786804199e+00,1.157303214073181152e+00,1.157234907150268555e+00,1.157166600227355957e+00,1.157098293304443359e+00
1.087244153022766113e+00,1.087183833122253418e+00,1.087123513221740723e+00,1.087063312530517578e+00,1.087003111839294434e+00,1.086942791938781738e+00,1.086882591247558594e+00,1.086822390556335449e+00,1.086762189865112305e+00,1.086701869964599609e+00,1.086641788482666016e+00,1.086581468582153320e+00,1.086521387100219727e+00,1.086461067199707031e+00,1.086400985717773438e+00,1.086340785026550293e+00,1.086280584335327148e+00,1.086220502853393555e+00,1.086160302162170410e+00,1.086100101470947266e+00,1.086040019989013672e+00,1.085979819297790527e+00,1.085919737815856934e+00,1.085859656333923340e+00,1.085799455642700195e+00,1.085739374160766602e+00,1.085679292678833008e+00,1.085619211196899414e+00,1.085559129714965820e+00,1.085499048233032227e+00,1.085438966751098633e+00,1.085378885269165039e+00,1.085318803787231445e+00,1.085258722305297852e+00,1.085198640823364258e+00,1.085138678550720215e+00,1.085078597068786621e+00,1.085018634796142578e+00,1.084958553314208984e+00,1.084898591041564941e+00,1.084838509559631348e+00,1.084778547286987305e+00,1.084718465805053711e+00,1.084658503532409668e+00,1.084598541259765625e+00,1.084538578987121582e+00,1.084478616714477539e+00,1.084418654441833496e+00,1.084358692169189453e+00,1.084298729896545410e+00,1.084238767623901367e+00,1.084178805351257324e+00,1.084118962287902832e+00,1.084059000015258789e+00,1.083999037742614746e+00,1.083939075469970703e+00,1.083879232406616211e+00,1.083819389343261719e+00,1.083759427070617676e+00,1.083699584007263184e+00,1.083639740943908691e+00,1.083579897880554199e+00,1.083519935607910156e+00,1.083460092544555664e+00,1.083400249481201172e+00,1.083340406417846680e+00,1.083280563354492188e+00,1.083220720291137695e+00,1.083160996437072754e+00,1.083101034164428711e+00,1.083041310310363770e+00,1.082981467247009277e+00,1.082921743392944336e+00,1.082861900329589844e+00,1.082802057266235352e+00,1.082742333412170410e+00,1.082682609558105469e+00,1.082622766494750977e+00,1.082563042640686035e+00,1.082503318786621094e+00
1.021126508712768555e+00,1.021073341369628906e+00,1.021020174026489258e+00,1.020967006683349609e+00,1.020913839340209961e+00,1.020860671997070312e+00,1.020807623863220215e+00,1.020754456520080566e+00,1.020701289176940918e+00,1.020648241043090820e+00,1.020595073699951172e+00,1.020542025566101074e+00,1.020488858222961426e+00,1.020435810089111328e+00,1.020382642745971680e+00,1.020329594612121582e+00,1.020276546478271484e+00,1.020223498344421387e+00,1.020170450210571289e+00,1.020117402076721191e+00,1.020064353942871094e+00,1.020011186599731445e+00,1.019958257675170898e+00,1.019905090332031250e+00,1.019852161407470703e+00,1.019799113273620605e+00,1.019746065139770508e+00,1.019693136215209961e+00,1.019640088081359863e+00,1.019587039947509766e+00,1.019533991813659668e+00,1.019481062889099121e+00,1.019428014755249023e+00,1.019375085830688477e+00,1.019322037696838379e+00,1.019269108772277832e+00,1.019216060638427734e+00,1.019163131713867188e+00,1.019110202789306641e+00,1.019057273864746094e+00,1.019004344940185547e+00,1.018951296806335449e+00,1.018898487091064453e+00,1.018845438957214355e+00,1.018792629241943359e+00,1.018739581108093262e+00,1.018686771392822266e+00,1.018633842468261719e+00,1.018580913543701172e+00,1.018527984619140625e+00,1.018475055694580078e+00,1.018422245979309082e+00,1.018369317054748535e+00,1.018316507339477539e+00,1.018263578414916992e+00,1.018210768699645996e+00,1.018157839775085449e+00,1.018105030059814453e+00,1.018052220344543457e+00,1.017999291419982910e+00,1.017946481704711914e+00,1.017893671989440918e+00,1.017840862274169922e+00,1.017788052558898926e+00,1.017735242843627930e+00,1.017682313919067383e+00,1.017629623413085938e+00,1.017576694488525391e+00,1.017524003982543945e+00,1.017471194267272949e+00,1.017418384552001953e+00,1.017365694046020508e+00,1.017312884330749512e+00,1.017260074615478516e+00,1.017207264900207520e+00,1.017154574394226074e+00,1.017101764678955078e+00,1.017049074172973633e+00,1.016996264457702637e+00,1.016943573951721191e+00
9.625894427299499512e-01,9.625421762466430664e-01,9.624949097633361816e-01,9.624477624893188477e-01,9.624004960060119629e-01,9.623532295227050781e-01,9.623059630393981934e-01,9.622588753700256348e-01,9.622116088867187500e-01,9.621644020080566406e-01,9.621172547340393066e-01,9.620700478553771973e-01,9.620228409767150879e-01,9.619755744934082031e-01,9.619284868240356445e-01,9.618812799453735352e-01,9.618340730667114258e-01,9.617869853973388672e-01,9.617397785186767578e-01,9.616926312446594238e-01,9.616454243659973145e-01,9.615983366966247559e-01,9.615511894226074219e-01,9.615040421485900879e-01,9.614568352699279785e-01,9.614098072052001953e-01,9.613626599311828613e-01,9.613155126571655273e-01,9.612684845924377441e-01,9.612213373184204102e-01,9.611741900444030762e-01,9.611270427703857422e-01,9.610800147056579590e-01,9.610328674316406250e-01,9.609857797622680664e-01,9.609386324882507324e-01,9.608916640281677246e-01,9.608445763587951660e-01,9.607974290847778320e-01,9.607504606246948242e-01,9.607033729553222656e-01,9.606562852859497070e-01,9.606091976165771484e-01,9.605622291564941406e-01,9.605151414871215820e-01,9.604681134223937988e-01,9.604210257530212402e-01,9.603740572929382324e-01,9.603270292282104492e-01,9.602799415588378906e-01,9.602330327033996582e-01,9.601860046386718750e-01,9.601389765739440918e-01,9.600918889045715332e-01,9.600449800491333008e-01,9.599979519844055176e-01,9.599509239196777344e-01,9.599039554595947266e-01,9.598570466041564941e-01,9.598100185394287109e-01,9.597630500793457031e-01,9.597161412239074707e-01,9.596691727638244629e-01,9.596221446990966797e-01,9.595751762390136719e-01,9.595283269882202148e-01,9.594813585281372070e-01,9.594343900680541992e-01,9.593874216079711914e-01,9.593405723571777344e-01,9.592936038970947266e-01,9.592466354370117188e-01,9.591997861862182617e-01,9.591528773307800293e-01,9.591059088706970215e-01,9.590590000152587891e-01,9.590122103691101074e-01,9.589652419090270996e-01,9.589183330535888672e-01,9.588714241981506348e-01
9.103998541831970215e-01,9.103575348854064941e-01,9.103153944015502930e-01,9.102730751037597656e-01,9.102308154106140137e-01,9.101885557174682617e-01,9.101463556289672852e-01,9.101040959358215332e-01,9.100618362426757812e-01,9.100196957588195801e-01,9.099774360656738281e-01,9.099351763725280762e-01,9.098929762840270996e-01,9.098508358001708984e-01,9.098085761070251465e-01,9.097663760185241699e-01,9.097241163253784180e-01,9.096819758415222168e-01,9.096397757530212402e-01,9.095975756645202637e-01,9.095554351806640625e-01,9.095132350921630859e-01,9.094710350036621094e-01,9.094288349151611328e-01,9.093867540359497070e-01,9.093445539474487305e-01,9.093023538589477539e-01,9.092601537704467773e-01,9.092180728912353516e-01,9.091759324073791504e-01,9.091337323188781738e-01,9.090916514396667480e-01,9.090495109558105469e-01,9.090073704719543457e-01,9.089651703834533691e-01,9.089231491088867188e-01,9.088810086250305176e-01,9.088388681411743164e-01,9.087967276573181152e-01,9.087546467781066895e-01,9.087125062942504883e-01,9.086704254150390625e-01,9.086284041404724121e-01,9.085862636566162109e-01,9.085441231727600098e-01,9.085020422935485840e-01,9.084600210189819336e-01,9.084178805351257324e-01,9.083757996559143066e-01,9.083337187767028809e-01,9.082916975021362305e-01,9.082496166229248047e-01,9.082075357437133789e-01,9.081655740737915039e-01,9.081234931945800781e-01,9.080814123153686523e-01,9.080393314361572266e-01,9.079973697662353516e-01,9.079552888870239258e-01,9.079132676124572754e-01,9.078713059425354004e-01,9.078292250633239746e-01,9.077872037887573242e-01,9.077451229095458984e-01,9.077032208442687988e-01,9.076611399650573730e-01,9.076191186904907227e-01,9.075770974159240723e-01,9.075351953506469727e-01,9.074931740760803223e-01,9.074511528015136719e-01,9.074092507362365723e-01,9.073672294616699219e-01,9.073252081871032715e-01,9.072831869125366211e-01,9.072413444519042969e-01,9.071993231773376465e-01,9.071573615074157715e-01,9.071153402328491211e-01,9.070734381675720215e-01
8.635783791542053223e-01,8.635404109954833984e-01,8.635023832321166992e-01,8.634643554687500000e-01,8.634263277053833008e-01,8.633883595466613770e-01,8.633503317832946777e-01,8.633123040199279785e-01,8.632742762565612793e-01,8.632363677024841309e-01,8.631983399391174316e-01,8.631603121757507324e-01,8.631224036216735840e-01,8.630843758583068848e-01,8.630463480949401855e-01,8.630083799362182617e-01,8.629704713821411133e-01,8.629324436187744141e-01,8.628944754600524902e-01,8.628565073013305664e-01,8.628185987472534180e-01,8.627806305885314941e-01,8.627426624298095703e-01,8.627047538757324219e-01,8.626667857170104980e-01,8.626288175582885742e-01,8.625908493995666504e-01,8.625530004501342773e-01,8.625150322914123535e-01,8.624770641326904297e-01,8.624390959739685059e-01,8.624012470245361328e-01,8.623632788658142090e-01,8.623253703117370605e-01,8.622875213623046875e-01,8.622495532035827637e-01,8.622116446495056152e-01,8.621737360954284668e-01,8.621358871459960938e-01,8.620979785919189453e-01,8.620600104331970215e-01,8.620222210884094238e-01,8.619843125343322754e-01,8.619464039802551270e-01,8.619084954261779785e-01,8.618706464767456055e-01,8.618327975273132324e-01,8.617948889732360840e-01,8.617569804191589355e-01,8.617191910743713379e-01,8.616812825202941895e-01,8.616434335708618164e-01,8.616056442260742188e-01,8.615677356719970703e-01,8.615298867225646973e-01,8.614920377731323242e-01,8.614542484283447266e-01,8.614163994789123535e-01,8.613784909248352051e-01,8.613406419754028320e-01,8.613029122352600098e-01,8.612650632858276367e-01,8.612272143363952637e-01,8.611894845962524414e-01,8.611516356468200684e-01,8.611137866973876953e-01,8.610759377479553223e-01,8.610382080078125000e-01,8.610003590583801270e-01,8.609625697135925293e-01,8.609247207641601562e-01,8.608869910240173340e-01,8.608492016792297363e-01,8.608114123344421387e-01,8.607736825942993164e-01,8.607358932495117188e-01,8.606981039047241211e-01,8.606603145599365234e-01,8.606225848197937012e-01,8.605847954750061035e-01
8.213374018669128418e-01,8.213030695915222168e-01,8.212686181068420410e-01,8.212342262268066406e-01,8.211998939514160156e-01,8.211655020713806152e-01,8.211311101913452148e-01,8.210967183113098145e-01,8.210623860359191895e-01,8.210279941558837891e-01,8.209936022758483887e-01,8.209592700004577637e-01,8.209248781204223633e-01,8.208905458450317383e-01,8.208561539649963379e-01,8.208218216896057129e-01,8.207874894142150879e-01,8.207530975341796875e-01,8.207187056541442871e-01,8.206844329833984375e-01,8.206501007080078125e-01,8.206157088279724121e-01,8.205814361572265625e-01,8.205471038818359375e-01,8.205127716064453125e-01,8.204783797264099121e-01,8.204441666603088379e-01,8.204097747802734375e-01,8.203754425048828125e-01,8.203411102294921875e-01,8.203068971633911133e-01,8.202725648880004883e-01,8.202382326126098633e-01,8.202039599418640137e-01,8.201696276664733887e-01,8.201352953910827637e-01,8.201010227203369141e-01,8.200667500495910645e-01,8.200324773788452148e-01,8.199981451034545898e-01,8.199638724327087402e-01,8.199295997619628906e-01,8.198953270912170410e-01,8.198610544204711914e-01,8.198268413543701172e-01,8.197925090789794922e-01,8.197582364082336426e-01,8.197239637374877930e-01,8.196897506713867188e-01,8.196554780006408691e-01,8.196212053298950195e-01,8.195869326591491699e-01,8.195527195930480957e-01,8.195184469223022461e-01,8.194841742515563965e-01,8.194500207901000977e-01,8.194157481193542480e-01,8.193814754486083984e-01,8.193472623825073242e-01,8.193130493164062500e-01,8.192788362503051758e-01,8.192445635795593262e-01,8.192103505134582520e-01,8.191761970520019531e-01,8.191419243812561035e-01,8.191077113151550293e-01,8.190735578536987305e-01,8.190393447875976562e-01,8.190050721168518066e-01,8.189708590507507324e-01,8.189367651939392090e-01,8.189024925231933594e-01,8.188682794570922852e-01,8.188341856002807617e-01,8.187999725341796875e-01,8.187657594680786133e-01,8.187315464019775391e-01,8.186974525451660156e-01,8.186632394790649414e-01,8.186290264129638672e-01
7.830361127853393555e-01,7.830048799514770508e-01,7.829735875129699707e-01,7.829423546791076660e-01,7.829110622406005859e-01,7.828798294067382812e-01,7.828485369682312012e-01,7.828173637390136719e-01,7.827860713005065918e-01,7.827548384666442871e-01,7.827235460281372070e-01,7.826923727989196777e-01,7.826611399650573730e-01,7.826298475265502930e-01,7.825986742973327637e-01,7.825674414634704590e-01,7.825362086296081543e-01,7.825049757957458496e-01,7.824738025665283203e-01,7.824425697326660156e-01,7.824113368988037109e-01,7.823801040649414062e-01,7.823489308357238770e-01,7.823176980018615723e-01,7.822864651679992676e-01,7.822553515434265137e-01,7.822241187095642090e-01,7.821928858757019043e-01,7.821616530418395996e-01,7.821305394172668457e-01,7.820993065834045410e-01,7.820681333541870117e-01,7.820369005203247070e-01,7.820057868957519531e-01,7.819745540618896484e-01,7.819433808326721191e-01,7.819122672080993652e-01,7.818810343742370605e-01,7.818498611450195312e-01,7.818186879158020020e-01,7.817875742912292480e-01,7.817564010620117188e-01,7.817252278327941895e-01,7.816941142082214355e-01,7.816629409790039062e-01,7.816317677497863770e-01,7.816005945205688477e-01,7.815694808959960938e-01,7.815383076667785645e-01,7.815071344375610352e-01,7.814760208129882812e-01,7.814449071884155273e-01,7.814137339591979980e-01,7.813826203346252441e-01,7.813515067100524902e-01,7.813203930854797363e-01,7.812892198562622070e-01,7.812581062316894531e-01,7.812269926071166992e-01,7.811958789825439453e-01,7.811647653579711914e-01,7.811335921287536621e-01,7.811025381088256836e-01,7.810714244842529297e-01,7.810403108596801758e-01,7.810092568397521973e-01,7.809781432151794434e-01,7.809470295906066895e-01,7.809159159660339355e-01,7.808848619461059570e-01,7.808537483215332031e-01,7.808226346969604492e-01,7.807915210723876953e-01,7.807604670524597168e-01,7.807294130325317383e-01,7.806982994079589844e-01,7.806672453880310059e-01,7.806361913681030273e-01,7.806050777435302734e-01,7.805740237236022949e-01
7.481477856636047363e-01,7.481192350387573242e-01,7.480906844139099121e-01,7.480621933937072754e-01,7.480336427688598633e-01,7.480050921440124512e-01,7.479766607284545898e-01,7.479481101036071777e-01,7.479195594787597656e-01,7.478910088539123535e-01,7.478625178337097168e-01,7.478340268135070801e-01,7.478054761886596680e-01,7.477769851684570312e-01,7.477484941482543945e-01,7.477199435234069824e-01,7.476914525032043457e-01,7.476629614830017090e-01,7.476344704627990723e-01,7.476059198379516602e-01,7.475774288177490234e-01,7.475489974021911621e-01,7.475204467773437500e-01,7.474919557571411133e-01,7.474635243415832520e-01,7.474350333213806152e-01,7.474064826965332031e-01,7.473779916763305664e-01,7.473495602607727051e-01,7.473210692405700684e-01,7.472925782203674316e-01,7.472640872001647949e-01,7.472356557846069336e-01,7.472071647644042969e-01,7.471786737442016602e-01,7.471503019332885742e-01,7.471218109130859375e-01,7.470933198928833008e-01,7.470648288726806641e-01,7.470364570617675781e-01,7.470079660415649414e-01,7.469794750213623047e-01,7.469510436058044434e-01,7.469226121902465820e-01,7.468941807746887207e-01,7.468656897544860840e-01,7.468373179435729980e-01,7.468088269233703613e-01,7.467803955078125000e-01,7.467519640922546387e-01,7.467235326766967773e-01,7.466951012611389160e-01,7.466666698455810547e-01,7.466382384300231934e-01,7.466098666191101074e-01,7.465813755989074707e-01,7.465529441833496094e-01,7.465245723724365234e-01,7.464961409568786621e-01,7.464677095413208008e-01,7.464392781257629395e-01,7.464109659194946289e-01,7.463825345039367676e-01,7.463541030883789062e-01,7.463256716728210449e-01,7.462972998619079590e-01,7.462689280509948730e-01,7.462404966354370117e-01,7.462121248245239258e-01,7.461837530136108398e-01,7.461553215980529785e-01,7.461268901824951172e-01,7.460985779762268066e-01,7.460702061653137207e-01,7.460417747497558594e-01,7.460134029388427734e-01,7.459850311279296875e-01,7.459566593170166016e-01,7.459282875061035156e-01,7.458999752998352051e-01
7.162358164787292480e-01,7.162095904350280762e-01,7.161834836006164551e-01,7.161573171615600586e-01,7.161311507225036621e-01,7.161050438880920410e-01,7.160789370536804199e-01,7.160527706146240234e-01,7.160266041755676270e-01,7.160004973411560059e-01,7.159743309020996094e-01,7.159481644630432129e-01,7.159220576286315918e-01,7.158959507942199707e-01,7.158697843551635742e-01,7.158436179161071777e-01,7.158175706863403320e-01,7.157914042472839355e-01,7.157652974128723145e-01,7.157391309738159180e-01,7.157130837440490723e-01,7.156869173049926758e-01,7.156608104705810547e-01,7.156346440315246582e-01,7.156085968017578125e-01,7.155824899673461914e-01,7.155563235282897949e-01,7.155302762985229492e-01,7.155041694641113281e-01,7.154780626296997070e-01,7.154519557952880859e-01,7.154258489608764648e-01,7.153997421264648438e-01,7.153736352920532227e-01,7.153475284576416016e-01,7.153214812278747559e-01,7.152953743934631348e-01,7.152692675590515137e-01,7.152432203292846680e-01,7.152171730995178223e-01,7.151910662651062012e-01,7.151649594306945801e-01,7.151389122009277344e-01,7.151128053665161133e-01,7.150867581367492676e-01,7.150606513023376465e-01,7.150346040725708008e-01,7.150085568428039551e-01,7.149824500083923340e-01,7.149564623832702637e-01,7.149303555488586426e-01,7.149042487144470215e-01,7.148782014846801758e-01,7.148522138595581055e-01,7.148261070251464844e-01,7.148000597953796387e-01,7.147739529609680176e-01,7.147479653358459473e-01,7.147219181060791016e-01,7.146958708763122559e-01,7.146698236465454102e-01,7.146437764167785645e-01,7.146177291870117188e-01,7.145916819572448730e-01,7.145656943321228027e-01,7.145396471023559570e-01,7.145135998725891113e-01,7.144876122474670410e-01,7.144615650177001953e-01,7.144355177879333496e-01,7.144094705581665039e-01,7.143834829330444336e-01,7.143574357032775879e-01,7.143314480781555176e-01,7.143054008483886719e-01,7.142794132232666016e-01,7.142533659934997559e-01,7.142273783683776855e-01,7.142013907432556152e-01,7.141753435134887695e-01
6.869348287582397461e-01,6.869108080863952637e-01,6.868867278099060059e-01,6.868626475334167480e-01,6.868385672569274902e-01,6.868145465850830078e-01,6.867904663085937500e-01,6.867664456367492676e-01,6.867424249649047852e-01,6.867183446884155273e-01,6.866943240165710449e-01,6.866702437400817871e-01,6.866462230682373047e-01,6.866222023963928223e-01,6.865981221199035645e-01,6.865741014480590820e-01,6.865500807762145996e-01,6.865260601043701172e-01,6.865019798278808594e-01,6.864780187606811523e-01,6.864539384841918945e-01,6.864299178123474121e-01,6.864058971405029297e-01,6.863818764686584473e-01,6.863578557968139648e-01,6.863338351249694824e-01,6.863098144531250000e-01,6.862857937812805176e-01,6.862617731094360352e-01,6.862377524375915527e-01,6.862137913703918457e-01,6.861897706985473633e-01,6.861657500267028809e-01,6.861417293548583984e-01,6.861177682876586914e-01,6.860937476158142090e-01,6.860697269439697266e-01,6.860457658767700195e-01,6.860217452049255371e-01,6.859977245330810547e-01,6.859737038612365723e-01,6.859498023986816406e-01,6.859257817268371582e-01,6.859017610549926758e-01,6.858777403831481934e-01,6.858538389205932617e-01,6.858298182487487793e-01,6.858057975769042969e-01,6.857818961143493652e-01,6.857578754425048828e-01,6.857339143753051758e-01,6.857098937034606934e-01,6.856859922409057617e-01,6.856619715690612793e-01,6.856380105018615723e-01,6.856139898300170898e-01,6.855900883674621582e-01,6.855661273002624512e-01,6.855421066284179688e-01,6.855182051658630371e-01,6.854942440986633301e-01,6.854702234268188477e-01,6.854462623596191406e-01,6.854223608970642090e-01,6.853983998298645020e-01,6.853744387626647949e-01,6.853504776954650879e-01,6.853265762329101562e-01,6.853026151657104492e-01,6.852786540985107422e-01,6.852547526359558105e-01,6.852307915687561035e-01,6.852068305015563965e-01,6.851828694343566895e-01,6.851589679718017578e-01,6.851350069046020508e-01,6.851110458374023438e-01,6.850871443748474121e-01,6.850632429122924805e-01,6.850392818450927734e-01
6.599370241165161133e-01,6.599147915840148926e-01,6.598926186561584473e-01,6.598703861236572266e-01,6.598482131958007812e-01,6.598259806632995605e-01,6.598038077354431152e-01,6.597816348075866699e-01,6.597594022750854492e-01,6.597372293472290039e-01,6.597149968147277832e-01,6.596928834915161133e-01,6.596706509590148926e-01,6.596484780311584473e-01,6.596262454986572266e-01,6.596041321754455566e-01,6.595818996429443359e-01,6.595597267150878906e-01,6.595375537872314453e-01,6.595153808593750000e-01,6.594932079315185547e-01,6.594709753990173340e-01,6.594488620758056641e-01,6.594266891479492188e-01,6.594044566154479980e-01,6.593822836875915527e-01,6.593601703643798828e-01,6.593379974365234375e-01,6.593158245086669922e-01,6.592937111854553223e-01,6.592715382575988770e-01,6.592493057250976562e-01,6.592271327972412109e-01,6.592050194740295410e-01,6.591828465461730957e-01,6.591606736183166504e-01,6.591385602951049805e-01,6.591164469718933105e-01,6.590942740440368652e-01,6.590721011161804199e-01,6.590499877929687500e-01,6.590278148651123047e-01,6.590056419372558594e-01,6.589835286140441895e-01,6.589614152908325195e-01,6.589392423629760742e-01,6.589170694351196289e-01,6.588949561119079590e-01,6.588728427886962891e-01,6.588506698608398438e-01,6.588285565376281738e-01,6.588064432144165039e-01,6.587843298912048340e-01,6.587621569633483887e-01,6.587400436401367188e-01,6.587179303169250488e-01,6.586958169937133789e-01,6.586736440658569336e-01,6.586515307426452637e-01,6.586294174194335938e-01,6.586073040962219238e-01,6.585851907730102539e-01,6.585630774497985840e-01,6.585409641265869141e-01,6.585188508033752441e-01,6.584967374801635742e-01,6.584746837615966797e-01,6.584525108337402344e-01,6.584303975105285645e-01,6.584083437919616699e-01,6.583862304687500000e-01,6.583641171455383301e-01,6.583420038223266602e-01,6.583199501037597656e-01,6.582978367805480957e-01,6.582757234573364258e-01,6.582536101341247559e-01,6.582315564155578613e-01,6.582094430923461914e-01,6.581873297691345215e-01
