5.000000000000000000e+00,5.000000000000000000e+00,5.000000000000000000e+00,5.000000000000000000e+00,5.000000000000000000e+00,5.000000000000000000e+00,5.000000000000000000e+00,5.000000000000000000e+00,5.000000000000000000e+00,5.000000000000000000e+00,5.000000000000000000e+00,5.000000000000000000e+00,5.000000000000000000e+00,5.000000000000000000e+00,5.000000000000000000e+00,5.000000000000000000e+00,5.000000000000000000e+00,5.000000000000000000e+00,5.000000000000000000e+00,5.000000000000000000e+00,5.000000000000000000e+00,5.000000000000000000e+00,5.000000000000000000e+00,5.000000000000000000e+00,5.000000000000000000e+00,5.000000000000000000e+00,5.000000000000000000e+00,5.000000000000000000e+00,5.000000000000000000e+00,5.000000000000000000e+00,5.000000000000000000e+00,5.000000000000000000e+00,5.000000000000000000e+00,5.000000000000000000e+00,5.000000000000000000e+00,5.000000000000000000e+00,5.000000000000000000e+00,5.000000000000000000e+00,5.000000000000000000e+00,5.000000000000000000e+00,5.000000000000000000e+00,4.496379375457763672e+00,4.332557678222656250e+00,4.180253505706787109e+00,4.038293838500976562e+00,3.905659198760986328e+00,3.781460285186767578e+00,3.664916753768920898e+00,3.555342197418212891e+00,3.452129840850830078e+00,3.354740381240844727e+00,3.262695550918579102e+00,3.175566673278808594e+00,3.092970371246337891e+00,3.014561414718627930e+00,2.940029859542846680e+00,2.869094848632812500e+00,2.801502227783203125e+00,2.737020969390869141e+00,2.675441026687622070e+00,2.616571426391601562e+00,2.560236454010009766e+00,2.506276369094848633e+00,2.454543828964233398e+00,2.404903650283813477e+00,2.357231616973876953e+00,2.311412811279296875e+00,2.267341136932373047e+00,2.224918603897094727e+00,2.184054613113403320e+00,2.144664525985717773e+00,2.106670141220092773e+00,2.069998264312744141e+00,2.034581661224365234e+00,2.000356197357177734e+00,1.967263460159301758e+00,1.935247778892517090e+00,1.904257416725158691e+00,1.874243974685668945e+00,1.845161914825439453e+00
5.000000000000000000e+00,5.000000000000000000e+00,5.000000000000000000e+00,5.000000000000000000e+00,5.000000000000000000e+00,5.000000000000000000e+00,5.000000000000000000e+00,5.000000000000000000e+00,5.000000000000000000e+00,5.000000000000000000e+00,5.000000000000000000e+00,5.000000000000000000e+00,5.000000000000000000e+00,5.000000000000000000e+00,5.000000000000000000e+00,5.000000000000000000e+00,5.000000000000000000e+00,5.000000000000000000e+00,5.000000000000000000e+00,5.000000000000000000e+00,5.000000000000000000e+00,5.000000000000000000e+00,5.000000000000000000e+00,5.000000000000000000e+00,5.000000000000000000e+00,5.000000000000000000e+00,5.000000000000000000e+00,5.000000000000000000e+00,5.000000000000000000e+00,5.000000000000000000e+00,5.000000000000000000e+00,5.000000000000000000e+00,5.000000000000000000e+00,5.000000000000000000e+00,5.000000000000000000e+00,5.000000000000000000e+00,5.000000000000000000e+00,5.000000000000000000e+00,5.000000000000000000e+00,5.000000000000000000e+00,4.673204898834228516e+00,4.496498107910156250e+00,4.332667827606201172e+00,4.180356502532958984e+00,4.038389682769775391e+00,3.905749320983886719e+00,3.781544685363769531e+00,3.664995670318603516e+00,3.555416584014892578e+00,3.452199697494506836e+00,3.354806661605834961e+00,3.262758016586303711e+00,3.175626039505004883e+00,3.093026399612426758e+00,3.014615058898925781e+00,2.940080881118774414e+00,2.869143247604370117e+00,2.801548242568969727e+00,2.737064838409423828e+00,2.675483465194702148e+00,2.616611480712890625e+00,2.560275077819824219e+00,2.506313323974609375e+00,2.454579353332519531e+00,2.404937744140625000e+00,2.357264280319213867e+00,2.311444044113159180e+00,2.267371416091918945e+00,2.224947929382324219e+00,2.184082746505737305e+00,2.144691467285156250e+00,2.106696128845214844e+00,2.070023536682128906e+00,2.034605979919433594e+00,2.000379800796508789e+00,1.967286348342895508e+00,1.935269832611083984e+00,1.904278755187988281e+00,1.874264597892761230e+00,1.845181822776794434e+00
5.000000000000000000e+00,5.000000000000000000e+00,5.000000000000000000e+00,5.000000000000000000e+00,5.000000000000000000e+00,5.000000000000000000e+00,5.000000000000000000e+00,5.000000000000000000e+00,5.000000000000000000e+00,5.000000000000000000e+00,5.000000000000000000e+00,5.000000000000000000e+00,5.000000000000000000e+00,5.000000000000000000e+00,5.000000000000000000e+00,5.000000000000000000e+00,5.000000000000000000e+00,5.000000000000000000e+00,5.000000000000000000e+00,5.000000000000000000e+00,5.000000000000000000e+00,5.000000000000000000e+00,5.000000000000000000e+00,5.000000000000000000e+00,5.000000000000000000e+00,5.000000000000000000e+00,5.000000000000000000e+00,5.000000000000000000e+00,5.000000000000000000e+00,5.000000000000000000e+00,5.000000000000000000e+00,5.000000000000000000e+00,5.000000000000000000e+00,5.000000000000000000e+00,5.000000000000000000e+00,5.000000000000000000e+00,5.000000000000000000e+00,5.000000000000000000e+00,5.000000000000000000e+00,4.864508152008056641e+00,4.673333644866943359e+00,4.496616840362548828e+00,4.332778453826904297e+00,4.180459022521972656e+00,4.038485527038574219e+00,3.905838727951049805e+00,3.781628608703613281e+00,3.665074825286865234e+00,3.555490732192993164e+00,3.452269792556762695e+00,3.354872941970825195e+00,3.262820959091186523e+00,3.175685405731201172e+00,3.093082666397094727e+00,3.014668464660644531e+00,2.940131664276123047e+00,2.869191884994506836e+00,2.801594257354736328e+00,2.737108945846557617e+00,2.675525426864624023e+00,2.616652011871337891e+00,2.560313701629638672e+00,2.506350278854370117e+00,2.454614639282226562e+00,2.404971599578857422e+00,2.357296943664550781e+00,2.311475515365600586e+00,2.267401456832885742e+00,2.224977016448974609e+00,2.184110879898071289e+00,2.144718647003173828e+00,2.106722354888916016e+00,2.070048570632934570e+00,2.034630298614501953e+00,2.000403404235839844e+00,1.967309117317199707e+00,1.935291767120361328e+00,1.904299974441528320e+00,1.874285221099853516e+00,1.845201849937438965e+00
5.000000000000000000e+00,5.000000000000000000e+00,5.000000000000000000e+00,5.000000000000000000e+00,5.000000000000000000e+00,5.000000000000000000e+00,5.000000000000000000e+00,5.000000000000000000e+00,5.000000000000000000e+00,5.000000000000000000e+00,5.000000000000000000e+00,5.000000000000000000e+00,5.000000000000000000e+00,5.000000000000000000e+00,5.000000000000000000e+00,5.000000000000000000e+00,5.000000000000000000e+00,5.000000000000000000e+00,5.000000000000000000e+00,5.000000000000000000e+00,5.000000000000000000e+00,5.000000000000000000e+00,5.000000000000000000e+00,5.000000000000000000e+00,5.000000000000000000e+00,5.000000000000000000e+00,5.000000000000000000e+00,5.000000000000000000e+00,5.000000000000000000e+00,5.000000000000000000e+00,5.000000000000000000e+00,5.000000000000000000e+00,5.000000000000000000e+00,5.000000000000000000e+00,5.000000000000000000e+00,5.000000000000000000e+00,5.000000000000000000e+00,5.000000000000000000e+00,5.000000000000000000e+00,4.864647388458251953e+00,4.673461914062500000e+00,4.496736049652099609e+00,4.332889080047607422e+00,4.180561542510986328e+00,4.038581371307373047e+00,3.905928373336791992e+00,3.781712532043457031e+00,3.665153741836547852e+00,3.555565357208251953e+00,3.452340126037597656e+00,3.354938983917236328e+00,3.262883424758911133e+00,3.175744771957397461e+00,3.093139171600341797e+00,3.014721632003784180e+00,2.940182447433471680e+00,2.869240045547485352e+00,2.801640748977661133e+00,2.737153053283691406e+00,2.675567388534545898e+00,2.616692066192626953e+00,2.560352087020874023e+00,2.506387233734130859e+00,2.454649925231933594e+00,2.405005693435668945e+00,2.357329607009887695e+00,2.311506986618041992e+00,2.267431974411010742e+00,2.225006103515625000e+00,2.184138774871826172e+00,2.144745588302612305e+00,2.106748342514038086e+00,2.070073843002319336e+00,2.034654617309570312e+00,2.000427007675170898e+00,1.967331767082214355e+00,1.935313820838928223e+00,1.904321432113647461e+00,1.874305844306945801e+00,1.845221996307373047e+00
5.000000000000000000e+00,5.000000000000000000e+00,5.000000000000000000e+00,5.000000000000000000e+00,5.000000000000000000e+00,5.000000000000000000e+00,5.000000000000000000e+00,5.000000000000000000e+00,5.000000000000000000e+00,5.000000000000000000e+00,5.000000000000000000e+00,5.000000000000000000e+00,5.000000000000000000e+00,5.000000000000000000e+00,5.000000000000000000e+00,5.000000000000000000e+00,5.000000000000000000e+00,5.000000000000000000e+00,5.000000000000000000e+00,5.000000000000000000e+00,5.000000000000000000e+00,5.000000000000000000e+00,5.000000000000000000e+00,5.000000000000000000e+00,5.000000000000000000e+00,5.000000000000000000e+00,5.000000000000000000e+00,5.000000000000000000e+00,5.000000000000000000e+00,5.000000000000000000e+00,5.000000000000000000e+00,5.000000000000000000e+00,5.000000000000000000e+00,5.000000000000000000e+00,5.000000000000000000e+00,5.000000000000000000e+00,5.000000000000000000e+00,5.000000000000000000e+00,5.000000000000000000e+00,4.864786624908447266e+00,4.673590183258056641e+00,4.496855258941650391e+00,4.332999229431152344e+00,4.180664539337158203e+00,4.038677215576171875e+00,3.906018257141113281e+00,3.781796455383300781e+00,3.665232658386230469e+00,3.555639505386352539e+00,3.452409982681274414e+00,3.355005264282226562e+00,3.262945890426635742e+00,3.175803899765014648e+00,3.093195199966430664e+00,3.014775276184082031e+00,2.940233469009399414e+00,2.869288444519042969e+00,2.801686763763427734e+00,2.737197160720825195e+00,2.675609588623046875e+00,2.616732358932495117e+00,2.560390710830688477e+00,2.506424188613891602e+00,2.454685449600219727e+00,2.405039787292480469e+00,2.357362270355224609e+00,2.311538457870483398e+00,2.267462015151977539e+00,2.225035190582275391e+00,2.184166908264160156e+00,2.144772768020629883e+00,2.106774568557739258e+00,2.070099115371704102e+00,2.034678936004638672e+00,2.000450372695922852e+00,1.967354536056518555e+00,1.935335874557495117e+00,1.904342770576477051e+00,1.874326467514038086e+00,1.845241904258728027e+00
5.000000000000000000e+00,5.000000000000000000e+00,5.000000000000000000e+00,5.000000000000000000e+00,5.000000000000000000e+00,5.000000000000000000e+00,5.000000000000000000e+00,5.000000000000000000e+00,5.000000000000000000e+00,5.000000000000000000e+00,5.000000000000000000e+00,5.000000000000000000e+00,5.000000000000000000e+00,5.000000000000000000e+00,5.000000000000000000e+00,5.000000000000000000e+00,5.000000000000000000e+00,5.000000000000000000e+00,5.000000000000000000e+00,5.000000000000000000e+00,5.000000000000000000e+00,5.000000000000000000e+00,5.000000000000000000e+00,5.000000000000000000e+00,5.000000000000000000e+00,5.000000000000000000e+00,5.000000000000000000e+00,5.000000000000000000e+00,5.000000000000000000e+00,5.000000000000000000e+00,5.000000000000000000e+00,5.000000000000000000e+00,5.000000000000000000e+00,5.000000000000000000e+00,5.000000000000000000e+00,5.000000000000000000e+00,5.000000000000000000e+00,5.000000000000000000e+00,5.000000000000000000e+00,4.864925384521484375e+00,4.673718929290771484e+00,4.496973991394042969e+00,4.333109378814697266e+00,4.180767059326171875e+00,4.038773536682128906e+00,3.906107902526855469e+00,3.781880855560302734e+00,3.665312051773071289e+00,3.555713891983032227e+00,3.452480077743530273e+00,3.355071544647216797e+00,3.263008594512939453e+00,3.175863027572631836e+00,3.093251466751098633e+00,3.014828681945800781e+00,2.940284252166748047e+00,2.869337081909179688e+00,2.801732778549194336e+00,2.737241029739379883e+00,2.675651788711547852e+00,2.616772890090942383e+00,2.560429096221923828e+00,2.506461143493652344e+00,2.454720973968505859e+00,2.405073642730712891e+00,2.357395172119140625e+00,2.311569690704345703e+00,2.267492294311523438e+00,2.225064277648925781e+00,2.184195041656494141e+00,2.144799709320068359e+00,2.106800556182861328e+00,2.070124149322509766e+00,2.034703254699707031e+00,2.000473976135253906e+00,1.967377185821533203e+00,1.935357809066772461e+00,1.904363989830017090e+00,1.874347209930419922e+00,1.845261931419372559e+00
5.000000000000000000e+00,5.000000000000000000e+00,5.000000000000000000e+00,5.000000000000000000e+00,5.000000000000000000e+00,5.000000000000000000e+00,5.000000000000000000e+00,5.000000000000000000e+00,5.000000000000000000e+00,5.000000000000000000e+00,5.000000000000000000e+00,5.000000000000000000e+00,5.000000000000000000e+00,5.000000000000000000e+00,5.000000000000000000e+00,5.000000000000000000e+00,5.000000000000000000e+00,5.000000000000000000e+00,5.000000000000000000e+00,5.000000000000000000e+00,5.000000000000000000e+00,5.000000000000000000e+00,5.000000000000000000e+00,5.000000000000000000e+00,5.000000000000000000e+00,5.000000000000000000e+00,5.000000000000000000e+00,5.000000000000000000e+00,5.000000000000000000e+00,5.000000000000000000e+00,5.000000000000000000e+00,5.000000000000000000e+00,5.000000000000000000e+00,5.000000000000000000e+00,5.000000000000000000e+00,5.000000000000000000e+00,5.000000000000000000e+00,5.000000000000000000e+00,5.000000000000000000e+00,4.865064620971679688e+00,4.673847198486328125e+00,4.497092723846435547e+00,4.333220005035400391e+00,4.180870056152343750e+00,4.038869380950927734e+00,3.906197547912597656e+00,3.781965017318725586e+00,3.665390729904174805e+00,3.555788516998291016e+00,3.452549934387207031e+00,3.355137586593627930e+00,3.263071298599243164e+00,3.175922632217407227e+00,3.093307971954345703e+00,3.014882087707519531e+00,2.940335035324096680e+00,2.869385480880737305e+00,2.801779270172119141e+00,2.737285137176513672e+00,2.675693750381469727e+00,2.616812944412231445e+00,2.560467958450317383e+00,2.506498098373413086e+00,2.454756259918212891e+00,2.405107736587524414e+00,2.357427597045898438e+00,2.311601161956787109e+00,2.267522573471069336e+00,2.225093364715576172e+00,2.184222936630249023e+00,2.144826889038085938e+00,2.106826782226562500e+00,2.070149421691894531e+00,2.034727573394775391e+00,2.000497579574584961e+00,1.967400074005126953e+00,1.935379862785339355e+00,1.904385328292846680e+00,1.874367833137512207e+00,1.845282077789306641e+00
5.000000000000000000e+00,5.000000000000000000e+00,5.000000000000000000e+00,5.000000000000000000e+00,5.000000000000000000e+00,5.000000000000000000e+00,5.000000000000000000e+00,5.000000000000000000e+00,5.000000000000000000e+00,5.000000000000000000e+00,5.000000000000000000e+00,5.000000000000000000e+00,5.000000000000000000e+00,5.000000000000000000e+00,5.000000000000000000e+00,5.000000000000000000e+00,5.000000000000000000e+00,5.000000000000000000e+00,5.000000000000000000e+00,5.000000000000000000e+00,5.000000000000000000e+00,5.000000000000000000e+00,5.000000000000000000e+00,5.000000000000000000e+00,5.000000000000000000e+00,5.000000000000000000e+00,5.000000000000000000e+00,5.000000000000000000e+00,5.000000000000000000e+00,5.000000000000000000e+00,5.000000000000000000e+00,5.000000000000000000e+00,5.000000000000000000e+00,5.000000000000000000e+00,5.000000000000000000e+00,5.000000000000000000e+00,5.000000000000000000e+00,5.000000000000000000e+00,5.000000000000000000e+00,4.865203857421875000e+00,4.673975944519042969e+00,4.497211456298828125e+00,4.333330154418945312e+00,4.180973052978515625e+00,4.038965225219726562e+00,3.906287670135498047e+00,3.782048940658569336e+00,3.665469646453857422e+00,3.555862665176391602e+00,3.452620267868041992e+00,3.355203866958618164e+00,3.263133764266967773e+00,3.175981760025024414e+00,3.093364000320434570e+00,3.014935731887817383e+00,2.940385818481445312e+00,2.869433641433715820e+00,2.801825284957885742e+00,2.737329244613647461e+00,2.675735950469970703e+00,2.616853237152099609e+00,2.560506343841552734e+00,2.506535053253173828e+00,2.454791784286499023e+00,2.405141592025756836e+00,2.357460260391235352e+00,2.311632633209228516e+00,2.267552852630615234e+00,2.225122451782226562e+00,2.184251070022583008e+00,2.144853830337524414e+00,2.106852769851684570e+00,2.070174694061279297e+00,2.034751892089843750e+00,2.000520944595336914e+00,1.967422842979431152e+00,1.935402035713195801e+00,1.904406785964965820e+00,1.874388456344604492e+00,1.845301866531372070e+00
5.000000000000000000e+00,5.000000000000000000e+00,5.000000000000000000e+00,5.000000000000000000e+00,5.000000000000000000e+00,5.000000000000000000e+00,5.000000000000000000e+00,5.000000000000000000e+00,5.000000000000000000e+00,5.000000000000000000e+00,5.000000000000000000e+00,5.000000000000000000e+00,5.000000000000000000e+00,5.000000000000000000e+00,5.000000000000000000e+00,5.000000000000000000e+00,5.000000000000000000e+00,5.000000000000000000e+00,5.000000000000000000e+00,5.000000000000000000e+00,5.000000000000000000e+00,5.000000000000000000e+00,5.000000000000000000e+00,5.000000000000000000e+00,5.000000000000000000e+00,3.856642723083496094e+00,3.929631710052490234e+00,5.000000000000000000e+00,5.000000000000000000e+00,5.000000000000000000e+00,5.000000000000000000e+00,5.000000000000000000e+00,5.000000000000000000e+00,5.000000000000000000e+00,5.000000000000000000e+00,5.000000000000000000e+00,5.000000000000000000e+00,5.000000000000000000e+00,5.000000000000000000e+00,4.865343093872070312e+00,4.674104213714599609e+00,4.497330665588378906e+00,4.333440780639648438e+00,4.181075572967529297e+00,4.039061069488525391e+00,3.906377077102661133e+00,3.782133340835571289e+00,3.665548563003540039e+00,3.555936813354492188e+00,3.452690362930297852e+00,3.355270147323608398e+00,3.263196468353271484e+00,3.176041126251220703e+00,3.093420267105102539e+00,3.014989137649536133e+00,2.940436840057373047e+00,2.869482278823852539e+00,2.801871299743652344e+00,2.737373352050781250e+00,2.675777912139892578e+00,2.616893529891967773e+00,2.560544729232788086e+00,2.506571769714355469e+00,2.454827308654785156e+00,2.405175685882568359e+00,2.357493162155151367e+00,2.311664104461669922e+00,2.267582893371582031e+00,2.225151538848876953e+00,2.184279203414916992e+00,2.144880771636962891e+00,2.106878757476806641e+00,2.070199966430664062e+00,2.034776449203491211e+00,2.000544548034667969e+00,1.967445492744445801e+00,1.935423851013183594e+00,1.904428005218505859e+00,1.874409079551696777e+00,1.845322012901306152e+00
5.000000000000000000e+00,5.000000000000000000e+00,5.000000000000000000e+00,5.000000000000000000e+00,5.000000000000000000e+00,5.000000000000000000e+00,5.000000000000000000e+00,5.000000000000000000e+00,5.000000000000000000e+00,5.000000000000000000e+00,5.000000000000000000e+00,5.000000000000000000e+00,5.000000000000000000e+00,5.000000000000000000e+00,5.000000000000000000e+00,5.000000000000000000e+00,5.000000000000000000e+00,5.000000000000000000e+00,5.000000000000000000e+00,5.000000000000000000e+00,5.000000000000000000e+00,5.000000000000000000e+00,5.000000000000000000e+00,5.000000000000000000e+00,3.961721658706665039e+00,3.856954574584960938e+00,3.914498329162597656e+00,5.000000000000000000e+00,5.000000000000000000e+00,5.000000000000000000e+00,5.000000000000000000e+00,5.000000000000000000e+00,5.000000000000000000e+00,5.000000000000000000e+00,5.000000000000000000e+00,5.000000000000000000e+00,5.000000000000000000e+00,5.000000000000000000e+00,5.000000000000000000e+00,4.865482330322265625e+00,4.674232482910156250e+00,4.497449874877929688e+00,4.333550930023193359e+00,4.181178569793701172e+00,4.039156913757324219e+00,3.906466722488403320e+00,3.782217264175415039e+00,3.665627956390380859e+00,3.556011438369750977e+00,3.452760219573974609e+00,3.355336189270019531e+00,3.263259172439575195e+00,3.176100492477416992e+00,3.093476533889770508e+00,3.015042543411254883e+00,2.940487623214721680e+00,2.869530677795410156e+00,2.801917552947998047e+00,2.737417221069335938e+00,2.675820112228393555e+00,2.616933822631835938e+00,2.560583591461181641e+00,2.506608963012695312e+00,2.454862594604492188e+00,2.405209779739379883e+00,2.357525825500488281e+00,2.311695575714111328e+00,2.267613172531127930e+00,2.225180625915527344e+00,2.184307098388671875e+00,2.144907951354980469e+00,2.106904983520507812e+00,2.070225000381469727e+00,2.034800767898559570e+00,2.000568151473999023e+00,1.967468380928039551e+00,1.935446023941040039e+00,1.904449343681335449e+00,1.874429821968078613e+00,1.845342159271240234e+00
5.000000000000000000e+00,5.000000000000000000e+00,5.000000000000000000e+00,5.000000000000000000e+00,5.000000000000000000e+00,5.000000000000000000e+00,5.000000000000000000e+00,5.000000000000000000e+00,5.000000000000000000e+00,5.000000000000000000e+00,5.000000000000000000e+00,5.000000000000000000e+00,5.000000000000000000e+00,5.000000000000000000e+00,5.000000000000000000e+00,5.000000000000000000e+00,5.000000000000000000e+00,5.000000000000000000e+00,5.000000000000000000e+00,5.000000000000000000e+00,5.000000000000000000e+00,5.000000000000000000e+00,5.000000000000000000e+00,5.000000000000000000e+00,5.000000000000000000e+00,3.878485679626464844e+00,3.942435979843139648e+00,5.000000000000000000e+00,5.000000000000000000e+00,5.000000000000000000e+00,5.000000000000000000e+00,5.000000000000000000e+00,5.000000000000000000e+00,5.000000000000000000e+00,5.000000000000000000e+00,5.000000000000000000e+00,5.000000000000000000e+00,5.000000000000000000e+00,5.000000000000000000e+00,4.865621566772460938e+00,4.674361228942871094e+00,4.497568607330322266e+00,4.333661556243896484e+00,4.181281089782714844e+00,4.039252758026123047e+00,3.906556844711303711e+00,3.782301187515258789e+00,3.665706872940063477e+00,3.556085824966430664e+00,3.452830553054809570e+00,3.355402231216430664e+00,3.263321638107299805e+00,3.176159858703613281e+00,3.093533039093017578e+00,3.015096187591552734e+00,2.940538406372070312e+00,2.869579076766967773e+00,2.801963806152343750e+00,2.737461566925048828e+00,2.675862073898315430e+00,2.616974115371704102e+00,2.560621976852416992e+00,2.506645917892456055e+00,2.454898118972778320e+00,2.405243635177612305e+00,2.357558488845825195e+00,2.311727046966552734e+00,2.267643451690673828e+00,2.225209951400756836e+00,2.184335231781005859e+00,2.144934892654418945e+00,2.106931209564208984e+00,2.070250272750854492e+00,2.034825086593627930e+00,2.000591516494750977e+00,1.967491149902343750e+00,1.935468077659606934e+00,1.904470801353454590e+00,1.874450445175170898e+00,1.845361948013305664e+00
5.000000000000000000e+00,5.000000000000000000e+00,5.000000000000000000e+00,5.000000000000000000e+00,5.000000000000000000e+00,5.000000000000000000e+00,5.000000000000000000e+00,5.000000000000000000e+00,5.000000000000000000e+00,5.000000000000000000e+00,5.000000000000000000e+00,5.000000000000000000e+00,5.000000000000000000e+00,5.000000000000000000e+00,5.000000000000000000e+00,5.000000000000000000e+00,5.000000000000000000e+00,5.000000000000000000e+00,5.000000000000000000e+00,5.000000000000000000e+00,5.000000000000000000e+00,5.000000000000000000e+00,5.000000000000000000e+00,5.000000000000000000e+00,3.988607406616210938e+00,3.953273296356201172e+00,3.915065765380859375e+00,5.000000000000000000e+00,5.000000000000000000e+00,5.000000000000000000e+00,5.000000000000000000e+00,5.000000000000000000e+00,5.000000000000000000e+00,5.000000000000000000e+00,5.000000000000000000e+00,5.000000000000000000e+00,5.000000000000000000e+00,5.000000000000000000e+00,5.000000000000000000e+00,4.865760803222656250e+00,4.674489498138427734e+00,4.497687339782714844e+00,4.333772182464599609e+00,4.181384086608886719e+00,4.039349079132080078e+00,3.906646490097045898e+00,3.782385587692260742e+00,3.665785551071166992e+00,3.556159973144531250e+00,3.452900648117065430e+00,3.355468750000000000e+00,3.263384342193603516e+00,3.176218986511230469e+00,3.093589067459106445e+00,3.015149593353271484e+00,2.940589427947998047e+00,2.869627237319946289e+00,2.802009820938110352e+00,2.737505435943603516e+00,2.675904273986816406e+00,2.617014408111572266e+00,2.560660600662231445e+00,2.506682634353637695e+00,2.454933643341064453e+00,2.405277967453002930e+00,2.357590913772583008e+00,2.311758279800415039e+00,2.267673730850219727e+00,2.225239038467407227e+00,2.184363365173339844e+00,2.144962072372436523e+00,2.106957197189331055e+00,2.070275545120239258e+00,2.034849405288696289e+00,2.000615119934082031e+00,1.967513799667358398e+00,1.935490012168884277e+00,1.904491901397705078e+00,1.874471068382263184e+00,1.845382094383239746e+00
5.000000000000000000e+00,5.000000000000000000e+00,5.000000000000000000e+00,5.000000000000000000e+00,5.000000000000000000e+00,5.000000000000000000e+00,5.000000000000000000e+00,5.000000000000000000e+00,5.000000000000000000e+00,5.000000000000000000e+00,5.000000000000000000e+00,5.000000000000000000e+00,5.000000000000000000e+00,5.000000000000000000e+00,5.000000000000000000e+00,5.000000000000000000e+00,5.000000000000000000e+00,5.000000000000000000e+00,5.000000000000000000e+00,5.000000000000000000e+00,5.000000000000000000e+00,5.000000000000000000e+00,3.899175882339477539e+00,3.888284206390380859e+00,3.876215696334838867e+00,3.877779722213745117e+00,3.884197473526000977e+00,3.902017593383789062e+00,3.945011377334594727e+00,3.995441675186157227e+00,5.000000000000000000e+00,5.000000000000000000e+00,5.000000000000000000e+00,5.000000000000000000e+00,5.000000000000000000e+00,5.000000000000000000e+00,5.000000000000000000e+00,5.000000000000000000e+00,5.000000000000000000e+00,4.865899562835693359e+00,4.674618244171142578e+00,4.497806549072265625e+00,4.333882331848144531e+00,4.181487083435058594e+00,4.039444923400878906e+00,3.906735897064208984e+00,3.782469749450683594e+00,3.665864944458007812e+00,3.556234598159790039e+00,3.452970504760742188e+00,3.355534791946411133e+00,3.263447046279907227e+00,3.176278591156005859e+00,3.093645334243774414e+00,3.015202760696411133e+00,2.940639972686767578e+00,2.869675874710083008e+00,2.802056074142456055e+00,2.737549543380737305e+00,2.675946474075317383e+00,2.617054700851440430e+00,2.560699224472045898e+00,2.506719589233398438e+00,2.454968929290771484e+00,2.405311822891235352e+00,2.357623815536499023e+00,2.311789751052856445e+00,2.267703771591186523e+00,2.225268125534057617e+00,2.184391260147094727e+00,2.144989252090454102e+00,2.106983184814453125e+00,2.070300579071044922e+00,2.034873723983764648e+00,2.000638723373413086e+00,1.967536687850952148e+00,1.935512065887451172e+00,1.904513359069824219e+00,1.874491810798645020e+00,1.845402240753173828e+00
5.000000000000000000e+00,5.000000000000000000e+00,5.000000000000000000e+00,5.000000000000000000e+00,5.000000000000000000e+00,5.000000000000000000e+00,5.000000000000000000e+00,5.000000000000000000e+00,5.000000000000000000e+00,5.000000000000000000e+00,5.000000000000000000e+00,5.000000000000000000e+00,5.000000000000000000e+00,5.000000000000000000e+00,5.000000000000000000e+00,5.000000000000000000e+00,5.000000000000000000e+00,5.000000000000000000e+00,5.000000000000000000e+00,5.000000000000000000e+00,5.000000000000000000e+00,5.000000000000000000e+00,3.907293558120727539e+00,3.875751733779907227e+00,3.836860179901123047e+00,3.842371225357055664e+00,3.851446866989135742e+00,3.892908334732055664e+00,3.964022636413574219e+00,3.986407041549682617e+00,5.000000000000000000e+00,5.000000000000000000e+00,5.000000000000000000e+00,5.000000000000000000e+00,5.000000000000000000e+00,5.000000000000000000e+00,5.000000000000000000e+00,5.000000000000000000e+00,5.000000000000000000e+00,4.866039276123046875e+00,4.674746990203857422e+00,4.497925281524658203e+00,4.333992958068847656e+00,4.181589603424072266e+00,4.039540767669677734e+00,3.906825542449951172e+00,3.782553672790527344e+00,3.665943861007690430e+00,3.556308984756469727e+00,3.453041076660156250e+00,3.355600833892822266e+00,3.263509511947631836e+00,3.176337718963623047e+00,3.093701839447021484e+00,3.015256404876708984e+00,2.940690755844116211e+00,2.869724273681640625e+00,2.802102327346801758e+00,2.737593650817871094e+00,2.675988435745239258e+00,2.617094755172729492e+00,2.560737609863281250e+00,2.506756782531738281e+00,2.455004453659057617e+00,2.405345678329467773e+00,2.357656478881835938e+00,2.311821222305297852e+00,2.267734289169311523e+00,2.225297212600708008e+00,2.184419393539428711e+00,2.145016193389892578e+00,2.107009410858154297e+00,2.070325851440429688e+00,2.034898042678833008e+00,2.000662326812744141e+00,1.967559456825256348e+00,1.935534238815307617e+00,1.904534578323364258e+00,1.874512434005737305e+00,1.845422029495239258e+00
5.000000000000000000e+00,5.000000000000000000e+00,5.000000000000000000e+00,5.000000000000000000e+00,5.000000000000000000e+00,5.000000000000000000e+00,5.000000000000000000e+00,5.000000000000000000e+00,5.000000000000000000e+00,5.000000000000000000e+00,5.000000000000000000e+00,5.000000000000000000e+00,5.000000000000000000e+00,5.000000000000000000e+00,5.000000000000000000e+00,5.000000000000000000e+00,5.000000000000000000e+00,5.000000000000000000e+00,5.000000000000000000e+00,5.000000000000000000e+00,5.000000000000000000e+00,5.000000000000000000e+00,3.944023132324218750e+00,3.902432680130004883e+00,3.843368053436279297e+00,3.837087869644165039e+00,3.858068704605102539e+00,3.898420333862304688e+00,3.959833145141601562e+00,3.987797737121582031e+00,5.000000000000000000e+00,5.000000000000000000e+00,5.000000000000000000e+00,5.000000000000000000e+00,5.000000000000000000e+00,5.000000000000000000e+00,5.000000000000000000e+00,5.000000000000000000e+00,5.000000000000000000e+00,4.866178512573242188e+00,4.674875259399414062e+00,4.498044490814208984e+00,4.334103107452392578e+00,4.181692600250244141e+00,4.039637088775634766e+00,3.906915664672851562e+00,3.782638072967529297e+00,3.666022777557373047e+00,3.556383132934570312e+00,3.453110933303833008e+00,3.355667352676391602e+00,3.263571977615356445e+00,3.176397085189819336e+00,3.093758106231689453e+00,3.015309810638427734e+00,2.940741777420043945e+00,2.869772672653198242e+00,2.802148342132568359e+00,2.737637758255004883e+00,2.676030635833740234e+00,2.617135286331176758e+00,2.560776233673095703e+00,2.506793498992919922e+00,2.455039978027343750e+00,2.405380010604858398e+00,2.357689142227172852e+00,2.311852693557739258e+00,2.267764329910278320e+00,2.225326299667358398e+00,2.184447526931762695e+00,2.145043134689331055e+00,2.107035398483276367e+00,2.070351123809814453e+00,2.034922361373901367e+00,2.000685691833496094e+00,1.967582106590270996e+00,1.935556054115295410e+00,1.904555916786193848e+00,1.874533176422119141e+00,1.845442175865173340e+00
5.000000000000000000e+00,5.000000000000000000e+00,5.000000000000000000e+00,5.000000000000000000e+00,5.000000000000000000e+00,5.000000000000000000e+00,5.000000000000000000e+00,5.000000000000000000e+00,5.000000000000000000e+00,5.000000000000000000e+00,5.000000000000000000e+00,5.000000000000000000e+00,5.000000000000000000e+00,5.000000000000000000e+00,5.000000000000000000e+00,5.000000000000000000e+00,5.000000000000000000e+00,5.000000000000000000e+00,5.000000000000000000e+00,5.000000000000000000e+00,5.000000000000000000e+00,5.000000000000000000e+00,3.967011213302612305e+00,3.932202577590942383e+00,3.839366674423217773e+00,3.835680246353149414e+00,3.853936910629272461e+00,3.910661458969116211e+00,3.959269762039184570e+00,3.989095926284790039e+00,5.000000000000000000e+00,5.000000000000000000e+00,5.000000000000000000e+00,5.000000000000000000e+00,5.000000000000000000e+00,5.000000000000000000e+00,5.000000000000000000e+00,5.000000000000000000e+00,5.000000000000000000e+00,4.866317749023437500e+00,4.675003528594970703e+00,4.498163223266601562e+00,4.334213733673095703e+00,4.181795597076416016e+00,4.039732456207275391e+00,3.907005310058593750e+00,3.782721996307373047e+00,3.666102170944213867e+00,3.556457281112670898e+00,3.453181028366088867e+00,3.355733394622802734e+00,3.263634920120239258e+00,3.176456451416015625e+00,3.093814134597778320e+00,3.015363216400146484e+00,2.940792560577392578e+00,2.869821310043334961e+00,2.802194595336914062e+00,2.737681627273559570e+00,2.676072597503662109e+00,2.617175579071044922e+00,2.560814857482910156e+00,2.506830453872680664e+00,2.455075263977050781e+00,2.405413866043090820e+00,2.357721805572509766e+00,2.311884164810180664e+00,2.267794609069824219e+00,2.225355386734008789e+00,2.184475421905517578e+00,2.145070314407348633e+00,2.107061624526977539e+00,2.070376157760620117e+00,2.034946680068969727e+00,2.000709295272827148e+00,1.967604994773864746e+00,1.935578227043151855e+00,1.904577374458312988e+00,1.874553799629211426e+00,1.845462322235107422e+00
5.000000000000000000e+00,5.000000000000000000e+00,5.000000000000000000e+00,5.000000000000000000e+00,5.000000000000000000e+00,5.000000000000000000e+00,5.000000000000000000e+00,5.000000000000000000e+00,5.000000000000000000e+00,5.000000000000000000e+00,5.000000000000000000e+00,5.000000000000000000e+00,5.000000000000000000e+00,5.000000000000000000e+00,5.000000000000000000e+00,5.000000000000000000e+00,5.000000000000000000e+00,5.000000000000000000e+00,5.000000000000000000e+00,5.000000000000000000e+00,5.000000000000000000e+00,5.000000000000000000e+00,5.000000000000000000e+00,3.897967815399169922e+00,3.828159570693969727e+00,3.839130163192749023e+00,3.849342346191406250e+00,3.918720483779907227e+00,3.992719650268554688e+00,3.996144294738769531e+00,5.000000000000000000e+00,5.000000000000000000e+00,5.000000000000000000e+00,5.000000000000000000e+00,5.000000000000000000e+00,5.000000000000000000e+00,5.000000000000000000e+00,5.000000000000000000e+00,5.000000000000000000e+00,4.866456985473632812e+00,4.675132274627685547e+00,4.498282432556152344e+00,4.334324359893798828e+00,4.181898117065429688e+00,4.039828777313232422e+00,3.907094955444335938e+00,3.782806158065795898e+00,3.666181087493896484e+00,3.556531906127929688e+00,3.453251361846923828e+00,3.355799674987792969e+00,3.263697385787963867e+00,3.176515817642211914e+00,3.093870639801025391e+00,3.015416622161865234e+00,2.940843343734741211e+00,2.869869709014892578e+00,2.802240848541259766e+00,2.737725973129272461e+00,2.676114797592163086e+00,2.617215633392333984e+00,2.560853481292724609e+00,2.506867647171020508e+00,2.455110788345336914e+00,2.405447959899902344e+00,2.357754468917846680e+00,2.311915636062622070e+00,2.267824888229370117e+00,2.225384473800659180e+00,2.184503555297851562e+00,2.145097255706787109e+00,2.107087612152099609e+00,2.070401668548583984e+00,2.034970998764038086e+00,2.000732898712158203e+00,1.967627763748168945e+00,1.935600280761718750e+00,1.904598593711853027e+00,1.874574422836303711e+00,1.845482110977172852e+00
5.000000000000000000e+00,5.000000000000000000e+00,5.000000000000000000e+00,5.000000000000000000e+00,5.000000000000000000e+00,5.000000000000000000e+00,5.000000000000000000e+00,5.000000000000000000e+00,5.000000000000000000e+00,5.000000000000000000e+00,5.000000000000000000e+00,5.000000000000000000e+00,5.000000000000000000e+00,5.000000000000000000e+00,5.000000000000000000e+00,5.000000000000000000e+00,5.000000000000000000e+00,5.000000000000000000e+00,5.000000000000000000e+00,5.000000000000000000e+00,5.000000000000000000e+00,5.000000000000000000e+00,5.000000000000000000e+00,3.902918338775634766e+00,3.833613157272338867e+00,3.831516981124877930e+00,3.858037710189819336e+00,3.908533334732055664e+00,3.987693071365356445e+00,3.969013452529907227e+00,5.000000000000000000e+00,5.000000000000000000e+00,5.000000000000000000e+00,5.000000000000000000e+00,5.000000000000000000e+00,5.000000000000000000e+00,5.000000000000000000e+00,5.000000000000000000e+00,5.000000000000000000e+00,4.866596221923828125e+00,4.675260543823242188e+00,4.498401165008544922e+00,4.334434986114501953e+00,4.182001113891601562e+00,4.039924621582031250e+00,3.907185077667236328e+00,3.782890558242797852e+00,3.666260004043579102e+00,3.556606292724609375e+00,3.453321456909179688e+00,3.355865955352783203e+00,3.263759851455688477e+00,3.176574945449829102e+00,3.093926906585693359e+00,3.015470266342163086e+00,2.940894365310668945e+00,2.869917869567871094e+00,2.802286863327026367e+00,2.737769842147827148e+00,2.676156997680664062e+00,2.617255926132202148e+00,2.560891866683959961e+00,2.506904363632202148e+00,2.455146312713623047e+00,2.405482053756713867e+00,2.357787132263183594e+00,2.311946868896484375e+00,2.267855167388916016e+00,2.225413799285888672e+00,2.184531450271606445e+00,2.145124435424804688e+00,2.107113838195800781e+00,2.070426702499389648e+00,2.034995555877685547e+00,2.000756263732910156e+00,1.967650413513183594e+00,1.935622215270996094e+00,1.904619932174682617e+00,1.874595165252685547e+00,1.845502257347106934e+00
5.000000000000000000e+00,5.000000000000000000e+00,5.000000000000000000e+00,5.000000000000000000e+00,5.000000000000000000e+00,5.000000000000000000e+00,5.000000000000000000e+00,5.000000000000000000e+00,5.000000000000000000e+00,5.000000000000000000e+00,5.000000000000000000e+00,5.000000000000000000e+00,5.000000000000000000e+00,5.000000000000000000e+00,5.000000000000000000e+00,5.000000000000000000e+00,5.000000000000000000e+00,5.000000000000000000e+00,5.000000000000000000e+00,5.000000000000000000e+00,5.000000000000000000e+00,5.000000000000000000e+00,5.000000000000000000e+00,3.858411550521850586e+00,3.848191738128662109e+00,3.840871572494506836e+00,3.864442586898803711e+00,3.905998945236206055e+00,5.000000000000000000e+00,3.943008422851562500e+00,5.000000000000000000e+00,5.000000000000000000e+00,5.000000000000000000e+00,5.000000000000000000e+00,5.000000000000000000e+00,5.000000000000000000e+00,5.000000000000000000e+00,5.000000000000000000e+00,5.000000000000000000e+00,4.866735458374023438e+00,4.675389289855957031e+00,4.498520374298095703e+00,4.334545135498046875e+00,4.182103633880615234e+00,4.040020465850830078e+00,3.907274723052978516e+00,3.782974481582641602e+00,3.666339159011840820e+00,3.556680440902709961e+00,3.453391313552856445e+00,3.355932235717773438e+00,3.263822793960571289e+00,3.176634550094604492e+00,3.093983173370361328e+00,3.015523672103881836e+00,2.940945148468017578e+00,2.869966506958007812e+00,2.802333116531372070e+00,2.737813949584960938e+00,2.676198959350585938e+00,2.617296218872070312e+00,2.560930490493774414e+00,2.506941318511962891e+00,2.455181598663330078e+00,2.405515909194946289e+00,2.357820034027099609e+00,2.311978340148925781e+00,2.267885446548461914e+00,2.225442886352539062e+00,2.184559583663940430e+00,2.145151615142822266e+00,2.107139825820922852e+00,2.070451974868774414e+00,2.035019874572753906e+00,2.000779867172241211e+00,1.967673182487487793e+00,1.935644268989562988e+00,1.904641389846801758e+00,1.874615907669067383e+00,1.845522403717041016e+00
5.000000000000000000e+00,5.000000000000000000e+00,5.000000000000000000e+00,5.000000000000000000e+00,5.000000000000000000e+00,5.000000000000000000e+00,5.000000000000000000e+00,5.000000000000000000e+00,5.000000000000000000e+00,5.000000000000000000e+00,5.000000000000000000e+00,5.000000000000000000e+00,5.000000000000000000e+00,5.000000000000000000e+00,5.000000000000000000e+00,5.000000000000000000e+00,5.000000000000000000e+00,5.000000000000000000e+00,5.000000000000000000e+00,5.000000000000000000e+00,5.000000000000000000e+00,5.000000000000000000e+00,3.957761526107788086e+00,3.828614711761474609e+00,3.821863174438476562e+00,3.905376911163330078e+00,3.848857641220092773e+00,3.871523141860961914e+00,5.000000000000000000e+00,3.919838905334472656e+00,5.000000000000000000e+00,5.000000000000000000e+00,5.000000000000000000e+00,5.000000000000000000e+00,5.000000000000000000e+00,5.000000000000000000e+00,5.000000000000000000e+00,5.000000000000000000e+00,5.000000000000000000e+00,4.866874694824218750e+00,4.675517559051513672e+00,4.498639106750488281e+00,4.334655761718750000e+00,4.182206630706787109e+00,4.040116786956787109e+00,3.907364130020141602e+00,3.783058643341064453e+00,3.666418075561523438e+00,3.556755304336547852e+00,3.453461408615112305e+00,3.355998277664184570e+00,3.263885259628295898e+00,3.176693916320800781e+00,3.094039440155029297e+00,3.015577077865600586e+00,2.940995931625366211e+00,2.870014905929565430e+00,2.802379369735717773e+00,2.737858057022094727e+00,2.676241159439086914e+00,2.617336511611938477e+00,2.560969114303588867e+00,2.506978511810302734e+00,2.455217123031616211e+00,2.405550003051757812e+00,2.357852697372436523e+00,2.312009811401367188e+00,2.267915725708007812e+00,2.225471973419189453e+00,2.184587717056274414e+00,2.145178556442260742e+00,2.107166051864624023e+00,2.070477008819580078e+00,2.035044193267822266e+00,2.000803470611572266e+00,1.967696070671081543e+00,1.935666441917419434e+00,1.904662489891052246e+00,1.874636411666870117e+00,1.845542311668395996e+00
5.000000000000000000e+00,5.000000000000000000e+00,5.000000000000000000e+00,5.000000000000000000e+00,5.000000000000000000e+00,5.000000000000000000e+00,5.000000000000000000e+00,5.000000000000000000e+00,5.000000000000000000e+00,5.000000000000000000e+00,5.000000000000000000e+00,5.000000000000000000e+00,5.000000000000000000e+00,5.000000000000000000e+00,5.000000000000000000e+00,5.000000000000000000e+00,5.000000000000000000e+00,5.000000000000000000e+00,5.000000000000000000e+00,5.000000000000000000e+00,5.000000000000000000e+00,5.000000000000000000e+00,3.930670022964477539e+00,3.819766521453857422e+00,3.802205324172973633e+00,3.865387916564941406e+00,3.823468208312988281e+00,3.851451635360717773e+00,5.000000000000000000e+00,3.875222444534301758e+00,5.000000000000000000e+00,5.000000000000000000e+00,5.000000000000000000e+00,5.000000000000000000e+00,5.000000000000000000e+00,5.000000000000000000e+00,5.000000000000000000e+00,5.000000000000000000e+00,5.000000000000000000e+00,4.867013931274414062e+00,4.675646305084228516e+00,4.498758316040039062e+00,4.334766387939453125e+00,4.182309627532958984e+00,4.040212631225585938e+00,3.907454252243041992e+00,3.783142566680908203e+00,3.666496992111206055e+00,3.556829452514648438e+00,3.453531742095947266e+00,3.356064796447753906e+00,3.263947963714599609e+00,3.176753044128417969e+00,3.094095706939697266e+00,3.015630722045898438e+00,2.941046714782714844e+00,2.870063304901123047e+00,2.802425384521484375e+00,2.737902164459228516e+00,2.676283359527587891e+00,2.617376804351806641e+00,2.561007499694824219e+00,2.507015466690063477e+00,2.455252647399902344e+00,2.405584096908569336e+00,2.357885360717773438e+00,2.312041282653808594e+00,2.267946004867553711e+00,2.225501060485839844e+00,2.184615850448608398e+00,2.145205497741699219e+00,2.107192039489746094e+00,2.070502281188964844e+00,2.035068511962890625e+00,2.000827074050903320e+00,1.967718720436096191e+00,1.935688257217407227e+00,1.904683947563171387e+00,1.874657154083251953e+00,1.845562338829040527e+00
5.000000000000000000e+00,5.000000000000000000e+00,5.000000000000000000e+00,5.000000000000000000e+00,5.000000000000000000e+00,5.000000000000000000e+00,5.000000000000000000e+00,5.000000000000000000e+00,5.000000000000000000e+00,5.000000000000000000e+00,5.000000000000000000e+00,5.000000000000000000e+00,5.000000000000000000e+00,5.000000000000000000e+00,5.000000000000000000e+00,5.000000000000000000e+00,5.000000000000000000e+00,5.000000000000000000e+00,5.000000000000000000e+00,5.000000000000000000e+00,5.000000000000000000e+00,5.000000000000000000e+00,3.882300853729248047e+00,3.818844318389892578e+00,3.797234058380126953e+00,3.855468750000000000e+00,3.818321704864501953e+00,3.841245651245117188e+00,5.000000000000000000e+00,3.864341735839843750e+00,5.000000000000000000e+00,5.000000000000000000e+00,5.000000000000000000e+00,5.000000000000000000e+00,5.000000000000000000e+00,5.000000000000000000e+00,5.000000000000000000e+00,5.000000000000000000e+00,5.000000000000000000e+00,4.867153167724609375e+00,4.675775051116943359e+00,4.498877048492431641e+00,4.334877014160156250e+00,4.182412624359130859e+00,4.040308475494384766e+00,3.907543897628784180e+00,3.783226966857910156e+00,3.666576385498046875e+00,3.556903839111328125e+00,3.453601837158203125e+00,3.356130838394165039e+00,3.264010667800903320e+00,3.176812410354614258e+00,3.094151973724365234e+00,3.015684127807617188e+00,2.941097736358642578e+00,2.870111942291259766e+00,2.802471637725830078e+00,2.737946271896362305e+00,2.676325321197509766e+00,2.617417097091674805e+00,2.561046123504638672e+00,2.507052183151245117e+00,2.455287933349609375e+00,2.405618190765380859e+00,2.357918024063110352e+00,2.312072515487670898e+00,2.267976045608520508e+00,2.225530147552490234e+00,2.184643983840942383e+00,2.145232677459716797e+00,2.107218265533447266e+00,2.070527553558349609e+00,2.035092830657958984e+00,2.000850677490234375e+00,1.967741608619689941e+00,1.935710430145263672e+00,1.904705405235290527e+00,1.874677896499633789e+00,1.845582485198974609e+00
5.000000000000000000e+00,5.000000000000000000e+00,5.000000000000000000e+00,5.000000000000000000e+00,5.000000000000000000e+00,5.000000000000000000e+00,5.000000000000000000e+00,5.000000000000000000e+00,5.000000000000000000e+00,5.000000000000000000e+00,5.000000000000000000e+00,5.000000000000000000e+00,5.000000000000000000e+00,5.000000000000000000e+00,5.000000000000000000e+00,5.000000000000000000e+00,5.000000000000000000e+00,5.000000000000000000e+00,5.000000000000000000e+00,5.000000000000000000e+00,5.000000000000000000e+00,5.000000000000000000e+00,3.859124660491943359e+00,5.000000000000000000e+00,3.791295289993286133e+00,3.841416597366333008e+00,3.810315608978271484e+00,3.832431793212890625e+00,5.000000000000000000e+00,5.000000000000000000e+00,5.000000000000000000e+00,5.000000000000000000e+00,5.000000000000000000e+00,5.000000000000000000e+00,5.000000000000000000e+00,5.000000000000000000e+00,5.000000000000000000e+00,5.000000000000000000e+00,5.000000000000000000e+00,4.867292881011962891e+00,4.675903320312500000e+00,4.498996257781982422e+00,4.334987163543701172e+00,4.182515144348144531e+00,4.040404796600341797e+00,3.907633543014526367e+00,3.783311128616333008e+00,3.666655302047729492e+00,3.556978464126586914e+00,3.453671932220458984e+00,3.356196880340576172e+00,3.264073371887207031e+00,3.176872014999389648e+00,3.094208478927612305e+00,3.015737533569335938e+00,2.941148519515991211e+00,2.870160341262817383e+00,2.802517890930175781e+00,2.737990379333496094e+00,2.676367521286010742e+00,2.617457389831542969e+00,2.561084747314453125e+00,2.507089376449584961e+00,2.455323457717895508e+00,2.405652046203613281e+00,2.357950687408447266e+00,2.312104225158691406e+00,2.268006324768066406e+00,2.225559234619140625e+00,2.184671878814697266e+00,2.145259618759155273e+00,2.107244491577148438e+00,2.070552587509155273e+00,2.035117149353027344e+00,2.000874042510986328e+00,1.967764377593994141e+00,1.935732483863830566e+00,1.904726505279541016e+00,1.874698400497436523e+00,1.845602393150329590e+00
5.000000000000000000e+00,5.000000000000000000e+00,5.000000000000000000e+00,5.000000000000000000e+00,5.000000000000000000e+00,5.000000000000000000e+00,5.000000000000000000e+00,5.000000000000000000e+00,5.000000000000000000e+00,5.000000000000000000e+00,5.000000000000000000e+00,5.000000000000000000e+00,5.000000000000000000e+00,5.000000000000000000e+00,5.000000000000000000e+00,5.000000000000000000e+00,5.000000000000000000e+00,5.000000000000000000e+00,5.000000000000000000e+00,5.000000000000000000e+00,5.000000000000000000e+00,5.000000000000000000e+00,5.000000000000000000e+00,5.000000000000000000e+00,3.783760547637939453e+00,3.831293344497680664e+00,3.804020881652832031e+00,3.819788694381713867e+00,5.000000000000000000e+00,5.000000000000000000e+00,5.000000000000000000e+00,5.000000000000000000e+00,5.000000000000000000e+00,5.000000000000000000e+00,5.000000000000000000e+00,5.000000000000000000e+00,5.000000000000000000e+00,5.000000000000000000e+00,5.000000000000000000e+00,4.867431640625000000e+00,4.676032066345214844e+00,4.499115467071533203e+00,4.335097789764404297e+00,4.182618141174316406e+00,4.040500640869140625e+00,3.907723665237426758e+00,3.783395051956176758e+00,3.666734218597412109e+00,3.557052612304687500e+00,3.453742265701293945e+00,3.356263160705566406e+00,3.264135837554931641e+00,3.176931142807006836e+00,3.094264745712280273e+00,3.015791177749633789e+00,2.941199302673339844e+00,2.870208501815795898e+00,2.802564144134521484e+00,2.738034486770629883e+00,2.676409721374511719e+00,2.617497682571411133e+00,2.561123371124267578e+00,2.507126331329345703e+00,2.455358982086181641e+00,2.405686140060424805e+00,2.357983350753784180e+00,2.312135457992553711e+00,2.268036603927612305e+00,2.225588560104370117e+00,2.184700012207031250e+00,2.145286798477172852e+00,2.107270479202270508e+00,2.070578098297119141e+00,2.035141468048095703e+00,2.000897645950317383e+00,1.967787027359008789e+00,1.935754418373107910e+00,1.904747962951660156e+00,1.874719142913818359e+00,1.845622420310974121e+00
5.000000000000000000e+00,5.000000000000000000e+00,5.000000000000000000e+00,5.000000000000000000e+00,5.000000000000000000e+00,5.000000000000000000e+00,5.000000000000000000e+00,5.000000000000000000e+00,5.000000000000000000e+00,5.000000000000000000e+00,5.000000000000000000e+00,5.000000000000000000e+00,5.000000000000000000e+00,5.000000000000000000e+00,5.000000000000000000e+00,5.000000000000000000e+00,5.000000000000000000e+00,5.000000000000000000e+00,5.000000000000000000e+00,5.000000000000000000e+00,5.000000000000000000e+00,5.000000000000000000e+00,5.000000000000000000e+00,5.000000000000000000e+00,3.778095722198486328e+00,3.823091030120849609e+00,3.794652938842773438e+00,3.815923452377319336e+00,5.000000000000000000e+00,5.000000000000000000e+00,5.000000000000000000e+00,5.000000000000000000e+00,5.000000000000000000e+00,5.000000000000000000e+00,5.000000000000000000e+00,5.000000000000000000e+00,5.000000000000000000e+00,5.000000000000000000e+00,5.000000000000000000e+00,4.867571353912353516e+00,4.676160335540771484e+00,4.499234199523925781e+00,4.335208415985107422e+00,4.182721138000488281e+00,4.040596485137939453e+00,3.907813310623168945e+00,3.783479690551757812e+00,3.666813135147094727e+00,3.557126998901367188e+00,3.453812360763549805e+00,3.356329679489135742e+00,3.264198780059814453e+00,3.176990509033203125e+00,3.094321012496948242e+00,3.015844583511352539e+00,2.941250562667846680e+00,2.870256900787353516e+00,2.802610158920288086e+00,2.738078594207763672e+00,2.676451683044433594e+00,2.617537975311279297e+00,2.561161756515502930e+00,2.507163047790527344e+00,2.455394268035888672e+00,2.405720233917236328e+00,2.358016252517700195e+00,2.312166929244995117e+00,2.268066883087158203e+00,2.225617647171020508e+00,2.184728145599365234e+00,2.145313739776611328e+00,2.107296466827392578e+00,2.070603132247924805e+00,2.035166025161743164e+00,2.000921249389648438e+00,1.967809915542602539e+00,1.935776472091674805e+00,1.904769420623779297e+00,1.874739885330200195e+00,1.845642328262329102e+00
5.000000000000000000e+00,5.000000000000000000e+00,5.000000000000000000e+00,5.000000000000000000e+00,5.000000000000000000e+00,5.000000000000000000e+00,5.000000000000000000e+00,5.000000000000000000e+00,5.000000000000000000e+00,5.000000000000000000e+00,5.000000000000000000e+00,5.000000000000000000e+00,5.000000000000000000e+00,5.000000000000000000e+00,5.000000000000000000e+00,5.000000000000000000e+00,5.000000000000000000e+00,5.000000000000000000e+00,5.000000000000000000e+00,5.000000000000000000e+00,5.000000000000000000e+00,5.000000000000000000e+00,5.000000000000000000e+00,5.000000000000000000e+00,3.808989048004150391e+00,3.842000246047973633e+00,3.817745447158813477e+00,3.845464706420898438e+00,5.000000000000000000e+00,5.000000000000000000e+00,5.000000000000000000e+00,5.000000000000000000e+00,5.000000000000000000e+00,5.000000000000000000e+00,5.000000000000000000e+00,5.000000000000000000e+00,5.000000000000000000e+00,5.000000000000000000e+00,5.000000000000000000e+00,4.867709636688232422e+00,4.676289081573486328e+00,4.499353408813476562e+00,4.335318565368652344e+00,4.182824134826660156e+00,4.040692329406738281e+00,3.907902956008911133e+00,3.783563613891601562e+00,3.666892528533935547e+00,3.557201623916625977e+00,3.453882217407226562e+00,3.356395721435546875e+00,3.264261245727539062e+00,3.177049875259399414e+00,3.094377040863037109e+00,3.015897989273071289e+00,2.941301345825195312e+00,2.870305538177490234e+00,2.802656412124633789e+00,2.738122701644897461e+00,2.676493883132934570e+00,2.617578268051147461e+00,2.561200618743896484e+00,2.507200002670288086e+00,2.455429792404174805e+00,2.405754089355468750e+00,2.358048915863037109e+00,2.312198400497436523e+00,2.268097162246704102e+00,2.225646734237670898e+00,2.184756040573120117e+00,2.145340919494628906e+00,2.107322692871093750e+00,2.070628404617309570e+00,2.035190343856811523e+00,2.000944614410400391e+00,1.967832684516906738e+00,1.935798406600952148e+00,1.904790520668029785e+00,1.874760389328002930e+00,1.845662474632263184e+00
5.000000000000000000e+00,5.000000000000000000e+00,5.000000000000000000e+00,5.000000000000000000e+00,5.000000000000000000e+00,5.000000000000000000e+00,5.000000000000000000e+00,5.000000000000000000e+00,5.000000000000000000e+00,5.000000000000000000e+00,5.000000000000000000e+00,5.000000000000000000e+00,5.000000000000000000e+00,5.000000000000000000e+00,5.000000000000000000e+00,5.000000000000000000e+00,5.000000000000000000e+00,5.000000000000000000e+00,5.000000000000000000e+00,5.000000000000000000e+00,5.000000000000000000e+00,5.000000000000000000e+00,5.000000000000000000e+00,5.000000000000000000e+00,3.850926876068115234e+00,3.873842716217041016e+00,3.954057455062866211e+00,3.951904535293579102e+00,5.000000000000000000e+00,5.000000000000000000e+00,5.000000000000000000e+00,5.000000000000000000e+00,5.000000000000000000e+00,5.000000000000000000e+00,5.000000000000000000e+00,5.000000000000000000e+00,5.000000000000000000e+00,5.000000000000000000e+00,5.000000000000000000e+00,4.867848873138427734e+00,4.676417350769042969e+00,4.499472618103027344e+00,4.335429191589355469e+00,4.182926654815673828e+00,4.040788650512695312e+00,3.907993078231811523e+00,3.783647775650024414e+00,3.666971445083618164e+00,3.557276010513305664e+00,3.453952789306640625e+00,3.356462001800537109e+00,3.264323949813842773e+00,3.177109241485595703e+00,3.094433546066284180e+00,3.015951633453369141e+00,2.941352128982543945e+00,2.870353937149047852e+00,2.802702665328979492e+00,2.738166809082031250e+00,2.676535844802856445e+00,2.617618560791015625e+00,2.561239004135131836e+00,2.507237195968627930e+00,2.455465316772460938e+00,2.405788183212280273e+00,2.358081340789794922e+00,2.312229871749877930e+00,2.268127441406250000e+00,2.225675821304321289e+00,2.184784173965454102e+00,2.145367860794067383e+00,2.107348918914794922e+00,2.070653676986694336e+00,2.035214662551879883e+00,2.000968217849731445e+00,1.967855334281921387e+00,1.935820460319519043e+00,1.904811978340148926e+00,1.874781131744384766e+00,1.845682501792907715e+00
5.000000000000000000e+00,5.000000000000000000e+00,5.000000000000000000e+00,5.000000000000000000e+00,5.000000000000000000e+00,5.000000000000000000e+00,5.000000000000000000e+00,5.000000000000000000e+00,5.000000000000000000e+00,5.000000000000000000e+00,5.000000000000000000e+00,5.000000000000000000e+00,5.000000000000000000e+00,5.000000000000000000e+00,5.000000000000000000e+00,5.000000000000000000e+00,5.000000000000000000e+00,5.000000000000000000e+00,5.000000000000000000e+00,5.000000000000000000e+00,5.000000000000000000e+00,5.000000000000000000e+00,5.000000000000000000e+00,5.000000000000000000e+00,3.867078542709350586e+00,3.877490520477294922e+00,4.050932407379150391e+00,4.021238803863525391e+00,5.000000000000000000e+00,5.000000000000000000e+00,5.000000000000000000e+00,5.000000000000000000e+00,5.000000000000000000e+00,5.000000000000000000e+00,5.000000000000000000e+00,5.000000000000000000e+00,5.000000000000000000e+00,5.000000000000000000e+00,5.000000000000000000e+00,4.867988109588623047e+00,4.676545143127441406e+00,4.499591350555419922e+00,4.335539817810058594e+00,4.183029651641845703e+00,4.040884494781494141e+00,3.908082723617553711e+00,3.783732175827026367e+00,3.667050361633300781e+00,3.557350158691406250e+00,3.454022645950317383e+00,3.356528282165527344e+00,3.264386653900146484e+00,3.177168607711791992e+00,3.094489812850952148e+00,3.016005039215087891e+00,2.941403150558471680e+00,2.870402336120605469e+00,2.802748680114746094e+00,2.738210916519165039e+00,2.676578283309936523e+00,2.617658853530883789e+00,2.561277627944946289e+00,2.507274150848388672e+00,2.455500841140747070e+00,2.405822277069091797e+00,2.358114004135131836e+00,2.312261343002319336e+00,2.268157720565795898e+00,2.225704908370971680e+00,2.184812307357788086e+00,2.145395040512084961e+00,2.107374906539916992e+00,2.070678710937500000e+00,2.035238981246948242e+00,2.000991821289062500e+00,1.967878222465515137e+00,1.935842633247375488e+00,1.904833436012268066e+00,1.874801874160766602e+00,1.845702409744262695e+00
5.000000000000000000e+00,5.000000000000000000e+00,5.000000000000000000e+00,5.000000000000000000e+00,5.000000000000000000e+00,5.000000000000000000e+00,5.000000000000000000e+00,5.000000000000000000e+00,5.000000000000000000e+00,5.000000000000000000e+00,5.000000000000000000e+00,5.000000000000000000e+00,5.000000000000000000e+00,5.000000000000000000e+00,5.000000000000000000e+00,5.000000000000000000e+00,5.000000000000000000e+00,5.000000000000000000e+00,5.000000000000000000e+00,5.000000000000000000e+00,5.000000000000000000e+00,5.000000000000000000e+00,5.000000000000000000e+00,5.000000000000000000e+00,3.906426429748535156e+00,3.881203889846801758e+00,5.000000000000000000e+00,4.113277435302734375e+00,5.000000000000000000e+00,5.000000000000000000e+00,5.000000000000000000e+00,5.000000000000000000e+00,5.000000000000000000e+00,5.000000000000000000e+00,5.000000000000000000e+00,5.000000000000000000e+00,5.000000000000000000e+00,5.000000000000000000e+00,5.000000000000000000e+00,4.868126869201660156e+00,4.676673412322998047e+00,4.499709606170654297e+00,4.335650444030761719e+00,4.183132648468017578e+00,4.040980815887451172e+00,3.908172369003295898e+00,3.783816337585449219e+00,3.667129755020141602e+00,3.557424545288085938e+00,3.454092741012573242e+00,3.356594562530517578e+00,3.264449357986450195e+00,3.177227973937988281e+00,3.094546079635620117e+00,3.016058444976806641e+00,2.941453933715820312e+00,2.870450973510742188e+00,2.802795171737670898e+00,2.738254785537719727e+00,2.676620244979858398e+00,2.617699146270751953e+00,2.561316251754760742e+00,2.507310867309570312e+00,2.455536127090454102e+00,2.405856370925903320e+00,2.358146905899047852e+00,2.312292814254760742e+00,2.268187761306762695e+00,2.225733995437622070e+00,2.184840440750122070e+00,2.145422220230102539e+00,2.107400894165039062e+00,2.070703983306884766e+00,2.035263299942016602e+00,2.001015424728393555e+00,1.967900991439819336e+00,1.935864448547363281e+00,1.904854536056518555e+00,1.874822378158569336e+00,1.845722556114196777e+00
5.000000000000000000e+00,5.000000000000000000e+00,5.000000000000000000e+00,5.000000000000000000e+00,5.000000000000000000e+00,5.000000000000000000e+00,5.000000000000000000e+00,5.000000000000000000e+00,5.000000000000000000e+00,5.000000000000000000e+00,5.000000000000000000e+00,5.000000000000000000e+00,5.000000000000000000e+00,5.000000000000000000e+00,5.000000000000000000e+00,5.000000000000000000e+00,5.000000000000000000e+00,5.000000000000000000e+00,5.000000000000000000e+00,5.000000000000000000e+00,5.000000000000000000e+00,5.000000000000000000e+00,5.000000000000000000e+00,5.000000000000000000e+00,5.000000000000000000e+00,3.887040138244628906e+00,5.000000000000000000e+00,4.190256595611572266e+00,5.000000000000000000e+00,5.000000000000000000e+00,5.000000000000000000e+00,5.000000000000000000e+00,5.000000000000000000e+00,5.000000000000000000e+00,5.000000000000000000e+00,5.000000000000000000e+00,5.000000000000000000e+00,5.000000000000000000e+00,5.000000000000000000e+00,4.868265628814697266e+00,4.676802158355712891e+00,4.499828815460205078e+00,4.335760116577148438e+00,4.183235645294189453e+00,4.041076660156250000e+00,3.908262252807617188e+00,3.783900260925292969e+00,3.667208671569824219e+00,3.557499170303344727e+00,3.454163074493408203e+00,3.356660604476928711e+00,3.264511823654174805e+00,3.177287340164184570e+00,3.094602584838867188e+00,3.016111850738525391e+00,2.941504716873168945e+00,2.870499372482299805e+00,2.802841186523437500e+00,2.738299131393432617e+00,2.676662206649780273e+00,2.617739439010620117e+00,2.561354875564575195e+00,2.507348060607910156e+00,2.455571651458740234e+00,2.405890226364135742e+00,2.358179569244384766e+00,2.312324285507202148e+00,2.268218278884887695e+00,2.225763082504272461e+00,2.184868335723876953e+00,2.145449161529541016e+00,2.107427120208740234e+00,2.070729255676269531e+00,2.035287618637084961e+00,2.001038789749145508e+00,1.967923641204833984e+00,1.935886621475219727e+00,1.904875993728637695e+00,1.874843120574951172e+00,1.845742702484130859e+00
5.000000000000000000e+00,5.000000000000000000e+00,5.000000000000000000e+00,5.000000000000000000e+00,5.000000000000000000e+00,5.000000000000000000e+00,5.000000000000000000e+00,5.000000000000000000e+00,5.000000000000000000e+00,5.000000000000000000e+00,5.000000000000000000e+00,5.000000000000000000e+00,5.000000000000000000e+00,5.000000000000000000e+00,5.000000000000000000e+00,5.000000000000000000e+00,5.000000000000000000e+00,5.000000000000000000e+00,5.000000000000000000e+00,5.000000000000000000e+00,5.000000000000000000e+00,5.000000000000000000e+00,5.000000000000000000e+00,5.000000000000000000e+00,5.000000000000000000e+00,3.897790431976318359e+00,5.000000000000000000e+00,4.178390502929687500e+00,5.000000000000000000e+00,5.000000000000000000e+00,5.000000000000000000e+00,5.000000000000000000e+00,5.000000000000000000e+00,5.000000000000000000e+00,5.000000000000000000e+00,5.000000000000000000e+00,5.000000000000000000e+00,5.000000000000000000e+00,5.000000000000000000e+00,4.868404865264892578e+00,4.676930427551269531e+00,4.499947071075439453e+00,4.335870742797851562e+00,4.183338165283203125e+00,4.041172504425048828e+00,3.908352375030517578e+00,3.783984899520874023e+00,3.667287588119506836e+00,3.557573556900024414e+00,3.454233169555664062e+00,3.356727123260498047e+00,3.264574527740478516e+00,3.177346706390380859e+00,3.094658851623535156e+00,3.016165494918823242e+00,2.941555738449096680e+00,2.870547771453857422e+00,2.802887439727783203e+00,2.738343238830566406e+00,2.676704645156860352e+00,2.617779731750488281e+00,2.561393260955810547e+00,2.507385015487670898e+00,2.455607175827026367e+00,2.405924320220947266e+00,2.358212232589721680e+00,2.312355518341064453e+00,2.268248319625854492e+00,2.225792407989501953e+00,2.184896469116210938e+00,2.145476102828979492e+00,2.107453346252441406e+00,2.070754528045654297e+00,2.035312175750732422e+00,2.001062393188476562e+00,1.967946529388427734e+00,1.935908675193786621e+00,1.904897451400756836e+00,1.874863862991333008e+00,1.845762610435485840e+00
4.875811100006103516e+00,4.874599933624267578e+00,4.873389244079589844e+00,4.872179508209228516e+00,4.870970249176025391e+00,4.869761466979980469e+00,4.868553161621093750e+00,4.867345809936523438e+00,4.866138935089111328e+00,4.864932537078857422e+00,4.863726615905761719e+00,4.862521648406982422e+00,4.861317157745361328e+00,4.860113143920898438e+00,4.858910083770751953e+00,4.857707023620605469e+00,4.856504917144775391e+00,4.855303764343261719e+00,4.854102611541748047e+00,4.852902412414550781e+00,4.851702690124511719e+00,4.850503444671630859e+00,4.849304676055908203e+00,4.848106861114501953e+00,4.846909046173095703e+00,3.871425628662109375e+00,4.844516277313232422e+00,4.843320369720458984e+00,4.842125892639160156e+00,4.840931415557861328e+00,4.839737415313720703e+00,4.838544368743896484e+00,4.837351322174072266e+00,4.836159229278564453e+00,4.834967613220214844e+00,4.833776950836181641e+00,4.832586765289306641e+00,4.831396579742431641e+00,4.830207347869873047e+00,4.829019069671630859e+00,4.677058696746826172e+00,4.500066280364990234e+00,4.335980892181396484e+00,4.183440685272216797e+00,4.041268825531005859e+00,3.908442020416259766e+00,3.784068822860717773e+00,3.667366981506347656e+00,3.557647705078125000e+00,3.454303264617919922e+00,3.356793403625488281e+00,3.264637231826782227e+00,3.177406072616577148e+00,3.094715118408203125e+00,3.016218900680541992e+00,2.941606521606445312e+00,2.870596408843994141e+00,2.802933454513549805e+00,2.738387107849121094e+00,2.676746606826782227e+00,2.617820024490356445e+00,2.561432123184204102e+00,2.507421970367431641e+00,2.455642461776733398e+00,2.405958414077758789e+00,2.358245134353637695e+00,2.312386989593505859e+00,2.268278598785400391e+00,2.225821495056152344e+00,2.184924602508544922e+00,2.145503282546997070e+00,2.107479333877563477e+00,2.070779561996459961e+00,2.035336494445800781e+00,2.001085996627807617e+00,1.967969417572021484e+00,1.935930609703063965e+00,1.904918551445007324e+00,1.874884486198425293e+00,1.845782637596130371e+00
3.778621673583984375e+00,3.777894020080566406e+00,3.777166843414306641e+00,3.776439905166625977e+00,3.775713205337524414e+00,3.774987220764160156e+00,3.774261236190795898e+00,3.773535490036010742e+00,3.772809743881225586e+00,3.772084474563598633e+00,3.771360158920288086e+00,3.770635366439819336e+00,3.769910812377929688e+00,3.769186735153198242e+00,3.768462896347045898e+00,3.767739295959472656e+00,3.767016410827636719e+00,3.766293525695800781e+00,3.765570640563964844e+00,3.764848232269287109e+00,3.764126062393188477e+00,3.763404369354248047e+00,3.762682914733886719e+00,3.761961460113525391e+00,3.761240482330322266e+00,3.760519504547119141e+00,3.759799003601074219e+00,3.759079217910766602e+00,3.758359193801879883e+00,3.757639408111572266e+00,3.756920099258422852e+00,3.756200790405273438e+00,3.755481958389282227e+00,3.754763841629028320e+00,3.754045486450195312e+00,3.753327369689941406e+00,3.752609729766845703e+00,3.751892089843750000e+00,3.751175165176391602e+00,3.750458240509033203e+00,3.749741554260253906e+00,3.749025106430053711e+00,3.748309135437011719e+00,3.747593164443969727e+00,3.746877908706665039e+00,3.746162652969360352e+00,3.745447635650634766e+00,3.667446136474609375e+00,3.557722568511962891e+00,3.454373598098754883e+00,3.356859445571899414e+00,3.264699935913085938e+00,3.177465438842773438e+00,3.094771623611450195e+00,3.016272306442260742e+00,2.941657304763793945e+00,2.870644807815551758e+00,2.802979707717895508e+00,2.738431453704833984e+00,2.676788806915283203e+00,2.617860317230224609e+00,2.561470508575439453e+00,2.507458925247192383e+00,2.455677986145019531e+00,2.405992507934570312e+00,2.358277559280395508e+00,2.312418460845947266e+00,2.268308877944946289e+00,2.225850582122802734e+00,2.184952497482299805e+00,2.145530462265014648e+00,2.107505559921264648e+00,2.070804834365844727e+00,2.035360813140869141e+00,2.001109600067138672e+00,1.967991948127746582e+00,1.935952782630920410e+00,1.904940009117126465e+00,1.874905109405517578e+00,1.845802783966064453e+00
3.084520816802978516e+00,3.084036111831665039e+00,3.083551406860351562e+00,3.083066940307617188e+00,3.082582950592041016e+00,3.082098722457885742e+00,3.081614732742309570e+00,3.081130743026733398e+00,3.080646991729736328e+00,3.080163717269897461e+00,3.079680442810058594e+00,3.079197168350219727e+00,3.078713893890380859e+00,3.078231096267700195e+00,3.077748298645019531e+00,3.077265739440917969e+00,3.076783180236816406e+00,3.076300859451293945e+00,3.075818777084350586e+00,3.075336694717407227e+00,3.074854850769042969e+00,3.074373245239257812e+00,3.073891639709472656e+00,3.073410272598266602e+00,3.072928905487060547e+00,3.072447776794433594e+00,3.071966886520385742e+00,3.071486234664916992e+00,3.071005344390869141e+00,3.070524930953979492e+00,3.070044517517089844e+00,3.069564342498779297e+00,3.069084405899047852e+00,3.068604469299316406e+00,3.068124771118164062e+00,3.067645072937011719e+00,3.067165613174438477e+00,3.066686391830444336e+00,3.066207170486450195e+00,3.065728187561035156e+00,3.065249443054199219e+00,3.064770698547363281e+00,3.064291954040527344e+00,3.063813924789428711e+00,3.063335657119750977e+00,3.062857389450073242e+00,3.062379360198974609e+00,3.061901569366455078e+00,3.061423778533935547e+00,3.060946464538574219e+00,3.060469150543212891e+00,3.059991836547851562e+00,3.059514760971069336e+00,3.059037685394287109e+00,3.016326189041137695e+00,2.941708326339721680e+00,2.870693206787109375e+00,2.803025960922241211e+00,2.738475322723388672e+00,2.676831007003784180e+00,2.617900609970092773e+00,2.561509132385253906e+00,2.507495880126953125e+00,2.455713510513305664e+00,2.406026601791381836e+00,2.358310222625732422e+00,2.312449932098388672e+00,2.268339157104492188e+00,2.225879669189453125e+00,2.184980630874633789e+00,2.145557403564453125e+00,2.107531547546386719e+00,2.070830106735229492e+00,2.035385131835937500e+00,2.001132965087890625e+00,1.968014836311340332e+00,1.935974836349487305e+00,1.904961466789245605e+00,1.874925732612609863e+00,1.845822691917419434e+00
2.605848550796508789e+00,2.605502367019653320e+00,2.605156660079956055e+00,2.604810953140258789e+00,2.604465246200561523e+00,2.604119539260864258e+00,2.603774070739746094e+00,2.603428602218627930e+00,2.603083133697509766e+00,2.602738142013549805e+00,2.602392911911010742e+00,2.602047920227050781e+00,2.601702928543090820e+00,2.601357936859130859e+00,2.601013422012329102e+00,2.600668668746948242e+00,2.600323915481567383e+00,2.599979400634765625e+00,2.599634885787963867e+00,2.599290609359741211e+00,2.598946571350097656e+00,2.598602294921875000e+00,2.598258256912231445e+00,2.597914218902587891e+00,2.597570419311523438e+00,2.597226619720458984e+00,2.596883058547973633e+00,2.596539258956909180e+00,2.596195936203002930e+00,2.595852375030517578e+00,2.595509052276611328e+00,2.595165967941284180e+00,2.594822883605957031e+00,2.594479799270629883e+00,2.594136714935302734e+00,2.593793869018554688e+00,2.593451023101806641e+00,2.593108415603637695e+00,2.592765808105468750e+00,2.592423200607299805e+00,2.592080831527709961e+00,2.591738462448120117e+00,2.591396331787109375e+00,2.591054201126098633e+00,2.590712070465087891e+00,2.590370178222656250e+00,2.590028285980224609e+00,2.589686393737792969e+00,2.589344739913940430e+00,2.589003086090087891e+00,2.588661670684814453e+00,2.588320255279541016e+00,2.587978839874267578e+00,2.587637662887573242e+00,2.587296485900878906e+00,2.586955547332763672e+00,2.586614370346069336e+00,2.586273431777954102e+00,2.585932731628417969e+00,2.585592269897460938e+00,2.585251569747924805e+00,2.561547756195068359e+00,2.507532835006713867e+00,2.455748796463012695e+00,2.406060457229614258e+00,2.358343124389648438e+00,2.312481403350830078e+00,2.268369436264038086e+00,2.225908756256103516e+00,2.185008764266967773e+00,2.145584583282470703e+00,2.107557773590087891e+00,2.070855379104614258e+00,2.035409450531005859e+00,2.001156568527221680e+00,1.968037486076354980e+00,1.935996770858764648e+00,1.904982566833496094e+00,1.874946475028991699e+00,1.845842719078063965e+00
2.255782842636108398e+00,2.255523681640625000e+00,2.255264520645141602e+00,2.255005359649658203e+00,2.254746437072753906e+00,2.254487514495849609e+00,2.254228591918945312e+00,2.253969669342041016e+00,2.253710746765136719e+00,2.253452062606811523e+00,2.253193378448486328e+00,2.252934932708740234e+00,2.252676248550415039e+00,2.252417802810668945e+00,2.252159357070922852e+00,2.251900911331176758e+00,2.251642704010009766e+00,2.251384496688842773e+00,2.251126289367675781e+00,2.250868082046508789e+00,2.250610113143920898e+00,2.250351905822753906e+00,2.250093936920166016e+00,2.249835968017578125e+00,2.249577999114990234e+00,2.249320268630981445e+00,2.249062538146972656e+00,2.248804807662963867e+00,2.248547077178955078e+00,2.248289346694946289e+00,2.248031854629516602e+00,2.247774362564086914e+00,2.247517108917236328e+00,2.247259616851806641e+00,2.247002363204956055e+00,2.246744871139526367e+00,2.246487855911254883e+00,2.246230840682983398e+00,2.245973587036132812e+00,2.245716571807861328e+00,2.245459556579589844e+00,2.245202541351318359e+00,2.244946002960205078e+00,2.244689226150512695e+00,2.244432449340820312e+00,2.244175672531127930e+00,2.243919134140014648e+00,2.243662595748901367e+00,2.243406057357788086e+00,2.243149757385253906e+00,2.242893218994140625e+00,2.242636919021606445e+00,2.242380619049072266e+00,2.242124557495117188e+00,2.241868495941162109e+00,2.241612434387207031e+00,2.241356372833251953e+00,2.241100311279296875e+00,2.240844488143920898e+00,2.240588665008544922e+00,2.240332841873168945e+00,2.240077018737792969e+00,2.239821434020996094e+00,2.239565849304199219e+00,2.239310264587402344e+00,2.239054679870605469e+00,2.238799333572387695e+00,2.238543987274169922e+00,2.225937843322753906e+00,2.185036897659301758e+00,2.145611524581909180e+00,2.107583999633789062e+00,2.070880413055419922e+00,2.035433769226074219e+00,2.001180171966552734e+00,1.968060255050659180e+00,1.936018824577331543e+00,1.905004024505615234e+00,1.874967217445373535e+00,1.845862865447998047e+00
1.988630890846252441e+00,1.988429307937622070e+00,1.988227844238281250e+00,1.988026499748229980e+00,1.987825274467468262e+00,1.987623929977416992e+00,1.987422585487365723e+00,1.987221360206604004e+00,1.987020373344421387e+00,1.986819148063659668e+00,1.986618041992187500e+00,1.986416935920715332e+00,1.986216068267822266e+00,1.986015081405639648e+00,1.985814094543457031e+00,1.985613346099853516e+00,1.985412478446960449e+00,1.985211610794067383e+00,1.985010862350463867e+00,1.984810233116149902e+00,1.984609603881835938e+00,1.984408855438232422e+00,1.984208106994628906e+00,1.984007716178894043e+00,1.983807206153869629e+00,1.983606696128845215e+00,1.983406186103820801e+00,1.983205914497375488e+00,1.983005523681640625e+00,1.982805132865905762e+00,1.982604861259460449e+00,1.982404708862304688e+00,1.982204437255859375e+00,1.982004284858703613e+00,1.981804132461547852e+00,1.981604218482971191e+00,1.981404066085815430e+00,1.981204032897949219e+00,1.981003999710083008e+00,1.980804324150085449e+00,1.980604410171508789e+00,1.980404496192932129e+00,1.980204582214355469e+00,1.980005025863647461e+00,1.979805231094360352e+00,1.979605555534362793e+00,1.979406118392944336e+00,1.979206442832946777e+00,1.979006767272949219e+00,1.978807210922241211e+00,1.978607892990112305e+00,1.978408455848693848e+00,1.978209018707275391e+00,1.978009581565856934e+00,1.977810382843017578e+00,1.977611064910888672e+00,1.977411866188049316e+00,1.977212548255920410e+00,1.977013587951660156e+00,1.976814389228820801e+00,1.976615309715270996e+00,1.976416230201721191e+00,1.976217389106750488e+00,1.976018309593200684e+00,1.975819349288940430e+00,1.975620388984680176e+00,1.975421786308288574e+00,1.975222945213317871e+00,1.975024104118347168e+00,1.974825382232666016e+00,1.974626898765563965e+00,1.974428176879882812e+00,1.974229454994201660e+00,1.974030852317810059e+00,1.973832607269287109e+00,1.968083143234252930e+00,1.936040997505187988e+00,1.905025482177734375e+00,1.874987721443176270e+00,1.845882773399353027e+00
1.778055906295776367e+00,1.777894735336303711e+00,1.777733683586120605e+00,1.777572870254516602e+00,1.777411818504333496e+00,1.777250885963439941e+00,1.777089953422546387e+00,1.776929140090942383e+00,1.776768326759338379e+00,1.776607394218444824e+00,1.776446580886840820e+00,1.776285886764526367e+00,1.776125192642211914e+00,1.775964379310607910e+00,1.775803685188293457e+00,1.775643229484558105e+00,1.775482535362243652e+00,1.775321841239929199e+00,1.775161504745483398e+00,1.775000929832458496e+00,1.774840354919433594e+00,1.774679899215698242e+00,1.774519562721252441e+00,1.774359107017517090e+00,1.774198651313781738e+00,1.774038195610046387e+00,1.773878097534179688e+00,1.773717761039733887e+00,1.773557424545288086e+00,1.773397088050842285e+00,1.773236989974975586e+00,1.773076772689819336e+00,1.772916555404663086e+00,1.772756457328796387e+00,1.772596478462219238e+00,1.772436380386352539e+00,1.772276282310485840e+00,1.772116184234619141e+00,1.771956324577331543e+00,1.771796345710754395e+00,1.771636366844177246e+00,1.771476507186889648e+00,1.771316766738891602e+00,1.771156787872314453e+00,1.770997047424316406e+00,1.770837306976318359e+00,1.770677566528320312e+00,1.770517826080322266e+00,1.770358085632324219e+00,1.770198464393615723e+00,1.770038843154907227e+00,1.769879221916198730e+00,1.769719600677490234e+00,1.769560098648071289e+00,1.769400596618652344e+00,1.769241094589233398e+00,1.769081592559814453e+00,1.768922209739685059e+00,1.768762826919555664e+00,1.768603324890136719e+00,1.768443942070007324e+00,1.768284797668457031e+00,1.768125414848327637e+00,1.767966151237487793e+00,1.767806887626647949e+00,1.767647862434387207e+00,1.767488598823547363e+00,1.767329454421997070e+00,1.767170190811157227e+00,1.767011284828186035e+00,1.766852140426635742e+00,1.766693115234375000e+00,1.766534090042114258e+00,1.766375184059143066e+00,1.766216278076171875e+00,1.766057252883911133e+00,1.765898466110229492e+00,1.765739560127258301e+00,1.765580773353576660e+00,1.765421986579895020e+00
1.607806205749511719e+00,1.607674479484558105e+00,1.607542872428894043e+00,1.607411265373229980e+00,1.607279539108276367e+00,1.607147932052612305e+00,1.607016444206237793e+00,1.606884837150573730e+00,1.606753230094909668e+00,1.606621742248535156e+00,1.606490373611450195e+00,1.606358766555786133e+00,1.606227278709411621e+00,1.606095910072326660e+00,1.605964541435241699e+00,1.605833172798156738e+00,1.605701684951782227e+00,1.605570554733276367e+00,1.605439186096191406e+00,1.605307817459106445e+00,1.605176448822021484e+00,1.605045318603515625e+00,1.604914069175720215e+00,1.604782819747924805e+00,1.604651570320129395e+00,1.604520559310913086e+00,1.604389309883117676e+00,1.604258179664611816e+00,1.604127049446105957e+00,1.603996038436889648e+00,1.603864908218383789e+00,1.603733897209167480e+00,1.603602766990661621e+00,1.603471875190734863e+00,1.603340864181518555e+00,1.603209853172302246e+00,1.603078961372375488e+00,1.602948069572448730e+00,1.602817177772521973e+00,1.602686285972595215e+00,1.602555394172668457e+00,1.602424621582031250e+00,1.602293848991394043e+00,1.602162957191467285e+00,1.602032184600830078e+00,1.601901531219482422e+00,1.601770758628845215e+00,1.601639986038208008e+00,1.601509451866149902e+00,1.601378798484802246e+00,1.601248145103454590e+00,1.601117491722106934e+00,1.600986957550048828e+00,1.600856304168701172e+00,1.600725769996643066e+00,1.600595235824584961e+00,1.600464820861816406e+00,1.600334286689758301e+00,1.600203752517700195e+00,1.600073337554931641e+00,1.599942922592163086e+00,1.599812507629394531e+00,1.599682092666625977e+00,1.599551677703857422e+00,1.599421501159667969e+00,1.599291086196899414e+00,1.599160790443420410e+00,1.599030494689941406e+00,1.598900318145751953e+00,1.598770022392272949e+00,1.598639845848083496e+00,1.598509550094604492e+00,1.598379492759704590e+00,1.598249316215515137e+00,1.598119139671325684e+00,1.597989201545715332e+00,1.597859025001525879e+00,1.597728967666625977e+00,1.597598791122436523e+00,1.597468972206115723e+00
1.467310428619384766e+00,1.467200875282287598e+00,1.467091202735900879e+00,1.466981530189514160e+00,1.466871857643127441e+00,1.466762304306030273e+00,1.466652750968933105e+00,1.466543078422546387e+00,1.466433525085449219e+00,1.466324090957641602e+00,1.466214418411254883e+00,1.466104865074157715e+00,1.465995430946350098e+00,1.465885996818542480e+00,1.465776443481445312e+00,1.465667009353637695e+00,1.465557694435119629e+00,1.465448260307312012e+00,1.465338826179504395e+00,1.465229392051696777e+00,1.465120077133178711e+00,1.465010643005371094e+00,1.464901328086853027e+00,1.464792013168334961e+00,1.464682817459106445e+00,1.464573383331298828e+00,1.464464187622070312e+00,1.464354872703552246e+00,1.464245676994323730e+00,1.464136481285095215e+00,1.464027166366577148e+00,1.463917970657348633e+00,1.463808894157409668e+00,1.463699698448181152e+00,1.463590502738952637e+00,1.463481426239013672e+00,1.463372349739074707e+00,1.463263273239135742e+00,1.463154077529907227e+00,1.463045001029968262e+00,1.462936043739318848e+00,1.462827086448669434e+00,1.462718009948730469e+00,1.462608933448791504e+00,1.462500095367431641e+00,1.462391138076782227e+00,1.462282061576843262e+00,1.462173342704772949e+00,1.462064385414123535e+00,1.461955428123474121e+00,1.461846470832824707e+00,1.461737751960754395e+00,1.461628794670104980e+00,1.461519956588745117e+00,1.461411118507385254e+00,1.461302399635314941e+00,1.461193680763244629e+00,1.461084842681884766e+00,1.460976004600524902e+00,1.460867404937744141e+00,1.460758686065673828e+00,1.460649967193603516e+00,1.460541248321533203e+00,1.460432648658752441e+00,1.460323929786682129e+00,1.460215210914611816e+00,1.460106611251831055e+00,1.459998130798339844e+00,1.459889531135559082e+00,1.459780812263488770e+00,1.459672331809997559e+00,1.459563851356506348e+00,1.459455251693725586e+00,1.459346771240234375e+00,1.459238171577453613e+00,1.459129810333251953e+00,1.459021329879760742e+00,1.458912849426269531e+00,1.458804488182067871e+00,1.458696126937866211e+00
1.349395632743835449e+00,1.349302887916564941e+00,1.349210143089294434e+00,1.349117398262023926e+00,1.349024653434753418e+00,1.348931908607482910e+00,1.348839282989501953e+00,1.348746538162231445e+00,1.348653912544250488e+00,1.348561286926269531e+00,1.348468542098999023e+00,1.348375916481018066e+00,1.348283410072326660e+00,1.348190784454345703e+00,1.348098158836364746e+00,1.348005652427673340e+00,1.347913026809692383e+00,1.347820401191711426e+00,1.347727894783020020e+00,1.347635388374328613e+00,1.347542881965637207e+00,1.347450375556945801e+00,1.347357869148254395e+00,1.347265481948852539e+00,1.347172975540161133e+00,1.347080469131469727e+00,1.346987962722778320e+00,1.346895694732666016e+00,1.346803188323974609e+00,1.346710801124572754e+00,1.346618413925170898e+00,1.346526026725769043e+00,1.346433639526367188e+00,1.346341252326965332e+00,1.346248865127563477e+00,1.346156716346740723e+00,1.346064329147338867e+00,1.345971941947937012e+00,1.345879673957824707e+00,1.345787525177001953e+00,1.345695137977600098e+00,1.345602869987487793e+00,1.345510601997375488e+00,1.345418453216552734e+00,1.345326304435729980e+00,1.345234036445617676e+00,1.345141887664794922e+00,1.345049738883972168e+00,1.344957470893859863e+00,1.344865322113037109e+00,1.344773292541503906e+00,1.344681143760681152e+00,1.344588994979858398e+00,1.344496846199035645e+00,1.344404816627502441e+00,1.344312787055969238e+00,1.344220638275146484e+00,1.344128608703613281e+00,1.344036579132080078e+00,1.343944549560546875e+00,1.343852519989013672e+00,1.343760490417480469e+00,1.343668580055236816e+00,1.343576550483703613e+00,1.343484520912170410e+00,1.343392610549926758e+00,1.343300700187683105e+00,1.343208789825439453e+00,1.343116879463195801e+00,1.343024849891662598e+00,1.342933058738708496e+00,1.342841148376464844e+00,1.342749357223510742e+00,1.342657446861267090e+00,1.342565655708312988e+00,1.342473864555358887e+00,1.342381954193115234e+00,1.342290282249450684e+00,1.342198491096496582e+00,1.342106580734252930e+00
1.249022603034973145e+00,1.248943090438842773e+00,1.248863697052001953e+00,1.248784303665161133e+00,1.248704791069030762e+00,1.248625397682189941e+00,1.248545885086059570e+00,1.248466610908508301e+00,1.248387217521667480e+00,1.248307704925537109e+00,1.248228311538696289e+00,1.248149037361145020e+00,1.248069643974304199e+00,1.247990250587463379e+00,1.247910857200622559e+00,1.247831583023071289e+00,1.247752308845520020e+00,1.247672915458679199e+00,1.247593760490417480e+00,1.247514367103576660e+00,1.247435092926025391e+00,1.247355818748474121e+00,1.247276544570922852e+00,1.247197270393371582e+00,1.247117996215820312e+00,1.247038841247558594e+00,1.246959686279296875e+00,1.246880412101745605e+00,1.246801137924194336e+00,1.246721982955932617e+00,1.246642827987670898e+00,1.246563673019409180e+00,1.246484518051147461e+00,1.246405243873596191e+00,1.246326208114624023e+00,1.246247053146362305e+00,1.246167898178100586e+00,1.246088743209838867e+00,1.246009707450866699e+00,1.245930671691894531e+00,1.245851516723632812e+00,1.245772480964660645e+00,1.245693445205688477e+00,1.245614409446716309e+00,1.245535254478454590e+00,1.245456337928771973e+00,1.245377302169799805e+00,1.245298266410827637e+00,1.245219230651855469e+00,1.245140314102172852e+00,1.245061278343200684e+00,1.244982361793518066e+00,1.244903326034545898e+00,1.244824409484863281e+00,1.244745492935180664e+00,1.244666457176208496e+00,1.244587540626525879e+00,1.244508743286132812e+00,1.244429826736450195e+00,1.244350910186767578e+00,1.244271993637084961e+00,1.244193196296691895e+00,1.244114279747009277e+00,1.244035482406616211e+00,1.243956565856933594e+00,1.243877768516540527e+00,1.243798971176147461e+00,1.243720173835754395e+00,1.243641257286071777e+00,1.243562579154968262e+00,1.243483781814575195e+00,1.243404984474182129e+00,1.243326187133789062e+00,1.243247509002685547e+00,1.243168711662292480e+00,1.243090033531188965e+00,1.243011355400085449e+00,1.242932558059692383e+00,1.242853879928588867e+00,1.242775201797485352e+00
1.162548065185546875e+00,1.162479281425476074e+00,1.162410497665405273e+00,1.162341594696044922e+00,1.162272691726684570e+00,1.162203907966613770e+00,1.162135124206542969e+00,1.162066340446472168e+00,1.161997556686401367e+00,1.161928653717041016e+00,1.161859989166259766e+00,1.161791205406188965e+00,1.161722421646118164e+00,1.161653637886047363e+00,1.161584973335266113e+00,1.161516189575195312e+00,1.161447405815124512e+00,1.161378741264343262e+00,1.161310076713562012e+00,1.161241292953491211e+00,1.161172628402709961e+00,1.161103963851928711e+00,1.161035299301147461e+00,1.160966634750366211e+00,1.160897850990295410e+00,1.160829305648803711e+00,1.160760641098022461e+00,1.160691976547241211e+00,1.160623311996459961e+00,1.160554766654968262e+00,1.160486102104187012e+00,1.160417437553405762e+00,1.160348892211914062e+00,1.160280346870422363e+00,1.160211682319641113e+00,1.160143136978149414e+00,1.160074591636657715e+00,1.160006046295166016e+00,1.159937500953674316e+00,1.159868955612182617e+00,1.159800291061401367e+00,1.159731864929199219e+00,1.159663319587707520e+00,1.159594774246215820e+00,1.159526228904724121e+00,1.159457802772521973e+00,1.159389376640319824e+00,1.159320831298828125e+00,1.159252405166625977e+00,1.159183979034423828e+00,1.159115433692932129e+00,1.159047007560729980e+00,1.158978581428527832e+00,1.158910155296325684e+00,1.158841729164123535e+00,1.158773303031921387e+00,1.158704996109008789e+00,1.158636569976806641e+00,1.158568143844604492e+00,1.158499717712402344e+00,1.158431410789489746e+00,1.158362984657287598e+00,1.158294677734375000e+00,1.158226251602172852e+00,1.158158063888549805e+00,1.158089637756347656e+00,1.158021330833435059e+00,1.157953023910522461e+00,1.157884716987609863e+00,1.157816410064697266e+00,1.157748103141784668e+00,1.157679796218872070e+00,1.157611608505249023e+00,1.157543301582336426e+00,1.157474994659423828e+00,1.157406806945800781e+00,1.157338619232177734e+00,1.157270312309265137e+00,1.157202005386352539e+00,1.157133936882019043e+00
1.087272047996520996e+00,1.087211966514587402e+00,1.087151646614074707e+00,1.087091445922851562e+00,1.087031245231628418e+00,1.086971044540405273e+00,1.086910843849182129e+00,1.086850643157958984e+00,1.086790442466735840e+00,1.086730360984802246e+00,1.086670160293579102e+00,1.086609959602355957e+00,1.086549878120422363e+00,1.086489796638488770e+00,1.086429595947265625e+00,1.086369395256042480e+00,1.086309313774108887e+00,1.086249232292175293e+00,1.086189150810241699e+00,1.086128950119018555e+00,1.086068987846374512e+00,1.086008787155151367e+00,1.085948705673217773e+00,1.085888624191284180e+00,1.085828661918640137e+00,1.085768580436706543e+00,1.085708498954772949e+00,1.085648417472839355e+00,1.085588455200195312e+00,1.085528373718261719e+00,1.085468292236328125e+00,1.085408210754394531e+00,1.085348248481750488e+00,1.085288286209106445e+00,1.085228204727172852e+00,1.085168242454528809e+00,1.085108280181884766e+00,1.085048317909240723e+00,1.084988355636596680e+00,1.084928274154663086e+00,1.084868431091308594e+00,1.084808468818664551e+00,1.084748506546020508e+00,1.084688425064086914e+00,1.084628582000732422e+00,1.084568619728088379e+00,1.084508657455444336e+00,1.084448814392089844e+00,1.084388852119445801e+00,1.084329009056091309e+00,1.084269046783447266e+00,1.084209203720092773e+00,1.084149360656738281e+00,1.084089398384094238e+00,1.084029555320739746e+00,1.083969712257385254e+00,1.083909869194030762e+00,1.083850026130676270e+00,1.083790183067321777e+00,1.083730340003967285e+00,1.083670496940612793e+00,1.083610653877258301e+00,1.083550810813903809e+00,1.083491086959838867e+00,1.083431243896484375e+00,1.083371400833129883e+00,1.083311557769775391e+00,1.083251833915710449e+00,1.083192110061645508e+00,1.083132266998291016e+00,1.083072543144226074e+00,1.083012819290161133e+00,1.082952976226806641e+00,1.082893252372741699e+00,1.082833528518676758e+00,1.082773804664611816e+00,1.082714080810546875e+00,1.082654356956481934e+00,1.082594633102416992e+00,1.082534909248352051e+00
1.021151661872863770e+00,1.021098613739013672e+00,1.021045446395874023e+00,1.020992279052734375e+00,1.020939230918884277e+00,1.020886063575744629e+00,1.020833015441894531e+00,1.020779967308044434e+00,1.020726919174194336e+00,1.020673751831054688e+00,1.020620703697204590e+00,1.020567655563354492e+00,1.020514607429504395e+00,1.020461559295654297e+00,1.020408511161804199e+00,1.020355463027954102e+00,1.020302414894104004e+00,1.020249366760253906e+00,1.020196318626403809e+00,1.020143389701843262e+00,1.020090341567993164e+00,1.020037293434143066e+00,1.019984245300292969e+00,1.019931316375732422e+00,1.019878268241882324e+00,1.019825339317321777e+00,1.019772291183471680e+00,1.019719362258911133e+00,1.019666314125061035e+00,1.019613385200500488e+00,1.019560456275939941e+00,1.019507527351379395e+00,1.019454479217529297e+00,1.019401550292968750e+00,1.019348621368408203e+00,1.019295692443847656e+00,1.019242763519287109e+00,1.019189834594726562e+00,1.019136905670166016e+00,1.019084095954895020e+00,1.019031167030334473e+00,1.018978238105773926e+00,1.018925309181213379e+00,1.018872499465942383e+00,1.018819570541381836e+00,1.018766641616821289e+00,1.018713831901550293e+00,1.018660902976989746e+00,1.018608093261718750e+00,1.018555164337158203e+00,1.018502354621887207e+00,1.018449544906616211e+00,1.018396615982055664e+00,1.018343806266784668e+00,1.018290996551513672e+00,1.018238186836242676e+00,1.018185377120971680e+00,1.018132567405700684e+00,1.018079757690429688e+00,1.018026947975158691e+00,1.017974138259887695e+00,1.017921328544616699e+00,1.017868638038635254e+00,1.017815828323364258e+00,1.017763018608093262e+00,1.017710208892822266e+00,1.017657518386840820e+00,1.017604708671569824e+00,1.017551898956298828e+00,1.017499208450317383e+00,1.017446517944335938e+00,1.017393708229064941e+00,1.017341017723083496e+00,1.017288208007812500e+00,1.017235517501831055e+00,1.017182826995849609e+00,1.017130136489868164e+00,1.017077445983886719e+00,1.017024755477905273e+00,1.016972064971923828e+00
9.626122117042541504e-01,9.625650644302368164e-01,9.625177979469299316e-01,9.624706506729125977e-01,9.624235033988952637e-01,9.623761773109436035e-01,9.623290896415710449e-01,9.622819423675537109e-01,9.622346758842468262e-01,9.621875286102294922e-01,9.621403217315673828e-01,9.620932340621948242e-01,9.620460867881774902e-01,9.619988799095153809e-01,9.619517922401428223e-01,9.619046449661254883e-01,9.618574380874633789e-01,9.618103504180908203e-01,9.617633223533630371e-01,9.617161154747009277e-01,9.616690278053283691e-01,9.616218209266662598e-01,9.615747928619384766e-01,9.615277051925659180e-01,9.614805579185485840e-01,9.614334702491760254e-01,9.613864421844482422e-01,9.613392949104309082e-01,9.612922668457031250e-01,9.612451195716857910e-01,9.611980915069580078e-01,9.611510634422302246e-01,9.611039161682128906e-01,9.610568881034851074e-01,9.610098600387573242e-01,9.609627723693847656e-01,9.609157443046569824e-01,9.608686566352844238e-01,9.608216881752014160e-01,9.607746601104736328e-01,9.607275724411010742e-01,9.606806039810180664e-01,9.606336355209350586e-01,9.605865478515625000e-01,9.605395793914794922e-01,9.604926109313964844e-01,9.604455232620239258e-01,9.603986144065856934e-01,9.603515267372131348e-01,9.603046178817749023e-01,9.602576494216918945e-01,9.602106213569641113e-01,9.601636528968811035e-01,9.601167440414428711e-01,9.600697159767150879e-01,9.600228071212768555e-01,9.599757790565490723e-01,9.599288702011108398e-01,9.598819613456726074e-01,9.598349332809448242e-01,9.597880840301513672e-01,9.597411751747131348e-01,9.596942067146301270e-01,9.596472978591918945e-01,9.596003293991088867e-01,9.595534205436706543e-01,9.595065712928771973e-01,9.594596028327941895e-01,9.594127535820007324e-01,9.593659043312072754e-01,9.593189358711242676e-01,9.592720866203308105e-01,9.592251777648925781e-01,9.591783285140991211e-01,9.591314792633056641e-01,9.590845704078674316e-01,9.590377211570739746e-01,9.589909315109252930e-01,9.589440226554870605e-01,9.588971734046936035e-01
9.104205965995788574e-01,9.103783965110778809e-01,9.103361964225769043e-01,9.102939367294311523e-01,9.102517366409301758e-01,9.102094769477844238e-01,9.101673364639282227e-01,9.101251363754272461e-01,9.100828766822814941e-01,9.100407361984252930e-01,9.099985957145690918e-01,9.099563360214233398e-01,9.099141955375671387e-01,9.098719358444213867e-01,9.098297953605651855e-01,9.097876548767089844e-01,9.097454547882080078e-01,9.097033143043518066e-01,9.096611738204956055e-01,9.096189737319946289e-01,9.095768332481384277e-01,9.095347523689270020e-01,9.094925522804260254e-01,9.094504117965698242e-01,9.094082117080688477e-01,9.093661308288574219e-01,9.093240499496459961e-01,9.092818498611450195e-01,9.092397689819335938e-01,9.091976881027221680e-01,9.091555476188659668e-01,9.091134667396545410e-01,9.090712666511535645e-01,9.090291857719421387e-01,9.089871644973754883e-01,9.089450240135192871e-01,9.089029431343078613e-01,9.088609218597412109e-01,9.088187813758850098e-01,9.087767004966735840e-01,9.087345600128173828e-01,9.086925387382507324e-01,9.086505174636840820e-01,9.086083769798278809e-01,9.085663557052612305e-01,9.085243344306945801e-01,9.084822535514831543e-01,9.084402322769165039e-01,9.083982110023498535e-01,9.083561301231384277e-01,9.083141088485717773e-01,9.082720279693603516e-01,9.082300662994384766e-01,9.081880450248718262e-01,9.081459641456604004e-01,9.081040024757385254e-01,9.080620408058166504e-01,9.080199599266052246e-01,9.079779982566833496e-01,9.079359173774719238e-01,9.078939557075500488e-01,9.078520536422729492e-01,9.078099727630615234e-01,9.077680110931396484e-01,9.077260494232177734e-01,9.076840281486511230e-01,9.076421260833740234e-01,9.076001048088073730e-01,9.075581431388854980e-01,9.075162410736083984e-01,9.074742197990417480e-01,9.074323177337646484e-01,9.073903560638427734e-01,9.073483943939208984e-01,9.073064923286437988e-01,9.072645902633666992e-01,9.072225689888000488e-01,9.071806669235229492e-01,9.071387052536010742e-01,9.070968031883239746e-01
