5.000000000000000000e+00,5.000000000000000000e+00,5.000000000000000000e+00,5.000000000000000000e+00,5.000000000000000000e+00,5.000000000000000000e+00,5.000000000000000000e+00,5.000000000000000000e+00,5.000000000000000000e+00,5.000000000000000000e+00,5.000000000000000000e+00,5.000000000000000000e+00,5.000000000000000000e+00,5.000000000000000000e+00,5.000000000000000000e+00,5.000000000000000000e+00,5.000000000000000000e+00,5.000000000000000000e+00,5.000000000000000000e+00,5.000000000000000000e+00,5.000000000000000000e+00,5.000000000000000000e+00,5.000000000000000000e+00,5.000000000000000000e+00,5.000000000000000000e+00,2.948379516601562500e+00,2.936754941940307617e+00,2.958745718002319336e+00,2.957646131515502930e+00,2.984869718551635742e+00,3.017728328704833984e+00,3.066270112991333008e+00,3.127008914947509766e+00,3.192774772644042969e+00,5.000000000000000000e+00,5.000000000000000000e+00,5.000000000000000000e+00,5.000000000000000000e+00,5.000000000000000000e+00,4.863163471221923828e+00,4.672109603881835938e+00,4.495499610900878906e+00,4.331755638122558594e+00,4.179520130157470703e+00,4.037622451782226562e+00,3.905043363571166992e+00,3.780894041061401367e+00,3.664395332336425781e+00,3.554861307144165039e+00,3.451685190200805664e+00,3.354329586029052734e+00,3.262315273284912109e+00,3.175214290618896484e+00,3.092643260955810547e+00,3.014258146286010742e+00,2.939748287200927734e+00,2.868832826614379883e+00,2.801258563995361328e+00,2.736794233322143555e+00,2.675230026245117188e+00,2.616374731063842773e+00,2.560053348541259766e+00,2.506105661392211914e+00,2.454384803771972656e+00,2.404755592346191406e+00,2.357093811035156250e+00,2.311284303665161133e+00,2.267221450805664062e+00,2.224807500839233398e+00,2.183951139450073242e+00,2.144568204879760742e+00,2.106580495834350586e+00,2.069915294647216797e+00,2.034504652023315430e+00,2.000284910202026367e+00,1.967197537422180176e+00,1.935186743736267090e+00,1.904201269149780273e+00,1.874192237854003906e+00,1.845114350318908691e+00
5.000000000000000000e+00,5.000000000000000000e+00,5.000000000000000000e+00,5.000000000000000000e+00,5.000000000000000000e+00,5.000000000000000000e+00,5.000000000000000000e+00,5.000000000000000000e+00,5.000000000000000000e+00,5.000000000000000000e+00,5.000000000000000000e+00,5.000000000000000000e+00,5.000000000000000000e+00,5.000000000000000000e+00,5.000000000000000000e+00,5.000000000000000000e+00,5.000000000000000000e+00,5.000000000000000000e+00,5.000000000000000000e+00,5.000000000000000000e+00,5.000000000000000000e+00,5.000000000000000000e+00,5.000000000000000000e+00,5.000000000000000000e+00,5.000000000000000000e+00,2.961634159088134766e+00,2.955057859420776367e+00,2.963246583938598633e+00,2.956029891967773438e+00,2.963445425033569336e+00,2.989701986312866211e+00,3.023357152938842773e+00,3.080529689788818359e+00,3.205879688262939453e+00,5.000000000000000000e+00,5.000000000000000000e+00,5.000000000000000000e+00,5.000000000000000000e+00,5.000000000000000000e+00,4.863303661346435547e+00,4.672238826751708984e+00,4.495619297027587891e+00,4.331866741180419922e+00,4.179624080657958984e+00,4.037718772888183594e+00,3.905133724212646484e+00,3.780978441238403320e+00,3.664474487304687500e+00,3.554935932159423828e+00,3.451755762100219727e+00,3.354396343231201172e+00,3.262378454208374023e+00,3.175274133682250977e+00,3.092700004577636719e+00,3.014312028884887695e+00,2.939799547195434570e+00,2.868881464004516602e+00,2.801304817199707031e+00,2.736838340759277344e+00,2.675272464752197266e+00,2.616415262222290039e+00,2.560092210769653320e+00,2.506142854690551758e+00,2.454420566558837891e+00,2.404789924621582031e+00,2.357126712799072266e+00,2.311316013336181641e+00,2.267251968383789062e+00,2.224836587905883789e+00,2.183979272842407227e+00,2.144595384597778320e+00,2.106606960296630859e+00,2.069940567016601562e+00,2.034529209136962891e+00,2.000308752059936523e+00,1.967220544815063477e+00,1.935209155082702637e+00,1.904222846031188965e+00,1.874212980270385742e+00,1.845134496688842773e+00
5.000000000000000000e+00,5.000000000000000000e+00,5.000000000000000000e+00,5.000000000000000000e+00,5.000000000000000000e+00,5.000000000000000000e+00,5.000000000000000000e+00,5.000000000000000000e+00,5.000000000000000000e+00,5.000000000000000000e+00,5.000000000000000000e+00,5.000000000000000000e+00,5.000000000000000000e+00,5.000000000000000000e+00,5.000000000000000000e+00,5.000000000000000000e+00,5.000000000000000000e+00,5.000000000000000000e+00,5.000000000000000000e+00,5.000000000000000000e+00,5.000000000000000000e+00,5.000000000000000000e+00,5.000000000000000000e+00,5.000000000000000000e+00,5.000000000000000000e+00,2.999775648117065430e+00,2.958748102188110352e+00,2.989833593368530273e+00,2.963349819183349609e+00,2.972628116607666016e+00,2.984658718109130859e+00,3.019910573959350586e+00,3.078133106231689453e+00,3.217147350311279297e+00,5.000000000000000000e+00,5.000000000000000000e+00,5.000000000000000000e+00,5.000000000000000000e+00,5.000000000000000000e+00,4.863443851470947266e+00,4.672368049621582031e+00,4.495739459991455078e+00,4.331977844238281250e+00,4.179727077484130859e+00,4.037815570831298828e+00,3.905223846435546875e+00,3.781063079833984375e+00,3.664554119110107422e+00,3.555010795593261719e+00,3.451826572418212891e+00,3.354463100433349609e+00,3.262441396713256836e+00,3.175333738327026367e+00,3.092756509780883789e+00,3.014365673065185547e+00,2.939850330352783203e+00,2.868930339813232422e+00,2.801351308822631836e+00,2.736882686614990234e+00,2.675314903259277344e+00,2.616455793380737305e+00,2.560131072998046875e+00,2.506180286407470703e+00,2.454456329345703125e+00,2.404824018478393555e+00,2.357159376144409180e+00,2.311347484588623047e+00,2.267282247543334961e+00,2.224865913391113281e+00,2.184007644653320312e+00,2.144622802734375000e+00,2.106633186340332031e+00,2.069966077804565430e+00,2.034553766250610352e+00,2.000332355499267578e+00,1.967243432998657227e+00,1.935231208801269531e+00,1.904244184494018555e+00,1.874233841896057129e+00,1.845154762268066406e+00
5.000000000000000000e+00,5.000000000000000000e+00,5.000000000000000000e+00,5.000000000000000000e+00,5.000000000000000000e+00,5.000000000000000000e+00,5.000000000000000000e+00,5.000000000000000000e+00,5.000000000000000000e+00,5.000000000000000000e+00,5.000000000000000000e+00,5.000000000000000000e+00,5.000000000000000000e+00,5.000000000000000000e+00,5.000000000000000000e+00,5.000000000000000000e+00,5.000000000000000000e+00,5.000000000000000000e+00,5.000000000000000000e+00,5.000000000000000000e+00,5.000000000000000000e+00,5.000000000000000000e+00,5.000000000000000000e+00,5.000000000000000000e+00,5.000000000000000000e+00,5.000000000000000000e+00,2.961184263229370117e+00,2.974711656570434570e+00,2.971135616302490234e+00,2.969598770141601562e+00,2.980322122573852539e+00,3.012510776519775391e+00,3.095552682876586914e+00,3.234866619110107422e+00,5.000000000000000000e+00,5.000000000000000000e+00,5.000000000000000000e+00,5.000000000000000000e+00,5.000000000000000000e+00,4.863583564758300781e+00,4.672497272491455078e+00,4.495858669281005859e+00,4.332088947296142578e+00,4.179831027984619141e+00,4.037911891937255859e+00,3.905314207077026367e+00,3.781147956848144531e+00,3.664633750915527344e+00,3.555085897445678711e+00,3.451897144317626953e+00,3.354529380798339844e+00,3.262504339218139648e+00,3.175393342971801758e+00,3.092813253402709961e+00,3.014419555664062500e+00,2.939901590347290039e+00,2.868979215621948242e+00,2.801397800445556641e+00,2.736927270889282227e+00,2.675357341766357422e+00,2.616496562957763672e+00,2.560169696807861328e+00,2.506217241287231445e+00,2.454491853713989258e+00,2.404858350753784180e+00,2.357192277908325195e+00,2.311379194259643555e+00,2.267312765121459961e+00,2.224895238876342773e+00,2.184035778045654297e+00,2.144649982452392578e+00,2.106659412384033203e+00,2.069991350173950195e+00,2.034578084945678711e+00,2.000355958938598633e+00,1.967266201972961426e+00,1.935253262519836426e+00,1.904265642166137695e+00,1.874254584312438965e+00,1.845174908638000488e+00
5.000000000000000000e+00,5.000000000000000000e+00,5.000000000000000000e+00,5.000000000000000000e+00,5.000000000000000000e+00,5.000000000000000000e+00,5.000000000000000000e+00,5.000000000000000000e+00,5.000000000000000000e+00,5.000000000000000000e+00,5.000000000000000000e+00,5.000000000000000000e+00,5.000000000000000000e+00,5.000000000000000000e+00,5.000000000000000000e+00,5.000000000000000000e+00,5.000000000000000000e+00,5.000000000000000000e+00,5.000000000000000000e+00,5.000000000000000000e+00,5.000000000000000000e+00,5.000000000000000000e+00,5.000000000000000000e+00,5.000000000000000000e+00,5.000000000000000000e+00,5.000000000000000000e+00,2.965071678161621094e+00,2.978796243667602539e+00,2.982646703720092773e+00,2.971860408782958984e+00,2.984607934951782227e+00,3.014907598495483398e+00,3.079823493957519531e+00,3.249511718750000000e+00,5.000000000000000000e+00,5.000000000000000000e+00,5.000000000000000000e+00,5.000000000000000000e+00,5.000000000000000000e+00,4.863723754882812500e+00,4.672626972198486328e+00,4.495978832244873047e+00,4.332200050354003906e+00,4.179934024810791016e+00,4.038008689880371094e+00,3.905404567718505859e+00,3.781232595443725586e+00,3.664713144302368164e+00,3.555160284042358398e+00,3.451967477798461914e+00,3.354596138000488281e+00,3.262567281723022461e+00,3.175453186035156250e+00,3.092869997024536133e+00,3.014473438262939453e+00,2.939952850341796875e+00,2.869027853012084961e+00,2.801444530487060547e+00,2.736971378326416016e+00,2.675399541854858398e+00,2.616536855697631836e+00,2.560208559036254883e+00,2.506254434585571289e+00,2.454527616500854492e+00,2.404892683029174805e+00,2.357225418090820312e+00,2.311410903930664062e+00,2.267343282699584961e+00,2.224924564361572266e+00,2.184063911437988281e+00,2.144677162170410156e+00,2.106685638427734375e+00,2.070016622543334961e+00,2.034602642059326172e+00,2.000379800796508789e+00,1.967289328575134277e+00,1.935275673866271973e+00,1.904287219047546387e+00,1.874275565147399902e+00,1.845194935798645020e+00
5.000000000000000000e+00,5.000000000000000000e+00,5.000000000000000000e+00,5.000000000000000000e+00,5.000000000000000000e+00,5.000000000000000000e+00,5.000000000000000000e+00,5.000000000000000000e+00,5.000000000000000000e+00,5.000000000000000000e+00,5.000000000000000000e+00,5.000000000000000000e+00,5.000000000000000000e+00,5.000000000000000000e+00,5.000000000000000000e+00,5.000000000000000000e+00,5.000000000000000000e+00,5.000000000000000000e+00,5.000000000000000000e+00,5.000000000000000000e+00,5.000000000000000000e+00,5.000000000000000000e+00,5.000000000000000000e+00,5.000000000000000000e+00,5.000000000000000000e+00,5.000000000000000000e+00,2.969763755798339844e+00,2.993045091629028320e+00,2.970131874084472656e+00,2.959173679351806641e+00,2.978916406631469727e+00,3.008758783340454102e+00,3.064451932907104492e+00,3.286249876022338867e+00,5.000000000000000000e+00,5.000000000000000000e+00,5.000000000000000000e+00,5.000000000000000000e+00,5.000000000000000000e+00,4.863863945007324219e+00,4.672756195068359375e+00,4.496098041534423828e+00,4.332311153411865234e+00,4.180037975311279297e+00,4.038105010986328125e+00,3.905494689941406250e+00,3.781316995620727539e+00,3.664792776107788086e+00,3.555235385894775391e+00,3.452038049697875977e+00,3.354662895202636719e+00,3.262630462646484375e+00,3.175513029098510742e+00,3.092926740646362305e+00,3.014527320861816406e+00,2.940003871917724609e+00,2.869076490402221680e+00,2.801490783691406250e+00,2.737015724182128906e+00,2.675441980361938477e+00,2.616577625274658203e+00,2.560247421264648438e+00,2.506291866302490234e+00,2.454563379287719727e+00,2.404926776885986328e+00,2.357258081436157227e+00,2.311442375183105469e+00,2.267373561859130859e+00,2.224953889846801758e+00,2.184092283248901367e+00,2.144704341888427734e+00,2.106712102890014648e+00,2.070042133331298828e+00,2.034627199172973633e+00,2.000403642654418945e+00,1.967312097549438477e+00,1.935297727584838867e+00,1.904308676719665527e+00,1.874296307563781738e+00,1.845215201377868652e+00
5.000000000000000000e+00,5.000000000000000000e+00,5.000000000000000000e+00,5.000000000000000000e+00,5.000000000000000000e+00,5.000000000000000000e+00,5.000000000000000000e+00,5.000000000000000000e+00,5.000000000000000000e+00,5.000000000000000000e+00,5.000000000000000000e+00,5.000000000000000000e+00,5.000000000000000000e+00,5.000000000000000000e+00,5.000000000000000000e+00,5.000000000000000000e+00,5.000000000000000000e+00,5.000000000000000000e+00,5.000000000000000000e+00,5.000000000000000000e+00,5.000000000000000000e+00,5.000000000000000000e+00,5.000000000000000000e+00,5.000000000000000000e+00,5.000000000000000000e+00,5.000000000000000000e+00,2.948937892913818359e+00,2.976089954376220703e+00,2.975307226181030273e+00,2.971079349517822266e+00,2.982373952865600586e+00,3.000173568725585938e+00,3.047902107238769531e+00,5.000000000000000000e+00,5.000000000000000000e+00,5.000000000000000000e+00,5.000000000000000000e+00,5.000000000000000000e+00,5.000000000000000000e+00,4.864004135131835938e+00,4.672885417938232422e+00,4.496217727661132812e+00,4.332422256469726562e+00,4.180141448974609375e+00,4.038201808929443359e+00,3.905585050582885742e+00,3.781401872634887695e+00,3.664872407913208008e+00,3.555310249328613281e+00,3.452108860015869141e+00,3.354729652404785156e+00,3.262693405151367188e+00,3.175572395324707031e+00,3.092983245849609375e+00,3.014580965042114258e+00,2.940055131912231445e+00,2.869125366210937500e+00,2.801537275314331055e+00,2.737060308456420898e+00,2.675484418869018555e+00,2.616618156433105469e+00,2.560286283493041992e+00,2.506328821182250977e+00,2.454598903656005859e+00,2.404961109161376953e+00,2.357290983200073242e+00,2.311474084854125977e+00,2.267404079437255859e+00,2.224983215332031250e+00,2.184120655059814453e+00,2.144731760025024414e+00,2.106738328933715820e+00,2.070067644119262695e+00,2.034651517868041992e+00,2.000427246093750000e+00,1.967334985733032227e+00,1.935319781303405762e+00,1.904330015182495117e+00,1.874317049980163574e+00,1.845235347747802734e+00
5.000000000000000000e+00,5.000000000000000000e+00,5.000000000000000000e+00,5.000000000000000000e+00,5.000000000000000000e+00,5.000000000000000000e+00,5.000000000000000000e+00,5.000000000000000000e+00,5.000000000000000000e+00,5.000000000000000000e+00,5.000000000000000000e+00,5.000000000000000000e+00,5.000000000000000000e+00,5.000000000000000000e+00,5.000000000000000000e+00,5.000000000000000000e+00,5.000000000000000000e+00,5.000000000000000000e+00,5.000000000000000000e+00,5.000000000000000000e+00,5.000000000000000000e+00,5.000000000000000000e+00,5.000000000000000000e+00,5.000000000000000000e+00,5.000000000000000000e+00,5.000000000000000000e+00,2.923522233963012695e+00,2.930717468261718750e+00,2.970896005630493164e+00,2.969601392745971680e+00,2.982660531997680664e+00,3.015378475189208984e+00,3.073610067367553711e+00,5.000000000000000000e+00,5.000000000000000000e+00,5.000000000000000000e+00,5.000000000000000000e+00,5.000000000000000000e+00,5.000000000000000000e+00,4.864143848419189453e+00,4.673014640808105469e+00,4.496337890625000000e+00,4.332533359527587891e+00,4.180244445800781250e+00,4.038298130035400391e+00,3.905675649642944336e+00,3.781486749649047852e+00,3.664952039718627930e+00,3.555384874343872070e+00,3.452179193496704102e+00,3.354795932769775391e+00,3.262756347656250000e+00,3.175632238388061523e+00,3.093039989471435547e+00,3.014634847640991211e+00,2.940106391906738281e+00,2.869174242019653320e+00,2.801583766937255859e+00,2.737104654312133789e+00,2.675526618957519531e+00,2.616658449172973633e+00,2.560325145721435547e+00,2.506366014480590820e+00,2.454634666442871094e+00,2.404995203018188477e+00,2.357324123382568359e+00,2.311505794525146484e+00,2.267434597015380859e+00,2.225012540817260742e+00,2.184148788452148438e+00,2.144758939743041992e+00,2.106764554977416992e+00,2.070092916488647461e+00,2.034676074981689453e+00,2.000450849533081055e+00,1.967357993125915527e+00,1.935342192649841309e+00,1.904351711273193359e+00,1.874337911605834961e+00,1.845255613327026367e+00
5.000000000000000000e+00,5.000000000000000000e+00,5.000000000000000000e+00,5.000000000000000000e+00,5.000000000000000000e+00,5.000000000000000000e+00,5.000000000000000000e+00,5.000000000000000000e+00,5.000000000000000000e+00,5.000000000000000000e+00,5.000000000000000000e+00,5.000000000000000000e+00,5.000000000000000000e+00,5.000000000000000000e+00,5.000000000000000000e+00,5.000000000000000000e+00,5.000000000000000000e+00,5.000000000000000000e+00,5.000000000000000000e+00,5.000000000000000000e+00,5.000000000000000000e+00,5.000000000000000000e+00,5.000000000000000000e+00,5.000000000000000000e+00,5.000000000000000000e+00,5.000000000000000000e+00,2.898056507110595703e+00,2.890790224075317383e+00,2.966429233551025391e+00,2.978288173675537109e+00,3.011370420455932617e+00,3.043285369873046875e+00,3.047027111053466797e+00,3.270168304443359375e+00,5.000000000000000000e+00,5.000000000000000000e+00,5.000000000000000000e+00,5.000000000000000000e+00,5.000000000000000000e+00,4.864284515380859375e+00,4.673143863677978516e+00,4.496457576751708984e+00,4.332644462585449219e+00,4.180348396301269531e+00,4.038394927978515625e+00,3.905765533447265625e+00,3.781571149826049805e+00,3.665031194686889648e+00,3.555459737777709961e+00,3.452249765396118164e+00,3.354862689971923828e+00,3.262819528579711914e+00,3.175692081451416016e+00,3.093096733093261719e+00,3.014688730239868164e+00,2.940157651901245117e+00,2.869222640991210938e+00,2.801630258560180664e+00,2.737148761749267578e+00,2.675569057464599609e+00,2.616699218750000000e+00,2.560364007949829102e+00,2.506403446197509766e+00,2.454670190811157227e+00,2.405029535293579102e+00,2.357357025146484375e+00,2.311537504196166992e+00,2.267464876174926758e+00,2.225041866302490234e+00,2.184177160263061523e+00,2.144786119461059570e+00,2.106790781021118164e+00,2.070118188858032227e+00,2.034700632095336914e+00,2.000474691390991211e+00,1.967380881309509277e+00,1.935364246368408203e+00,1.904373049736022949e+00,1.874358654022216797e+00,1.845275759696960449e+00
5.000000000000000000e+00,5.000000000000000000e+00,5.000000000000000000e+00,5.000000000000000000e+00,5.000000000000000000e+00,5.000000000000000000e+00,5.000000000000000000e+00,5.000000000000000000e+00,5.000000000000000000e+00,5.000000000000000000e+00,5.000000000000000000e+00,5.000000000000000000e+00,5.000000000000000000e+00,5.000000000000000000e+00,5.000000000000000000e+00,5.000000000000000000e+00,5.000000000000000000e+00,5.000000000000000000e+00,5.000000000000000000e+00,5.000000000000000000e+00,5.000000000000000000e+00,5.000000000000000000e+00,5.000000000000000000e+00,5.000000000000000000e+00,5.000000000000000000e+00,5.000000000000000000e+00,2.890849351882934570e+00,2.876407146453857422e+00,2.954401016235351562e+00,2.965247154235839844e+00,3.058322668075561523e+00,2.998057365417480469e+00,2.999151706695556641e+00,3.065776824951171875e+00,5.000000000000000000e+00,5.000000000000000000e+00,5.000000000000000000e+00,5.000000000000000000e+00,5.000000000000000000e+00,4.864424228668212891e+00,4.673273563385009766e+00,4.496577262878417969e+00,4.332755565643310547e+00,4.180451393127441406e+00,4.038491249084472656e+00,3.905856132507324219e+00,3.781655788421630859e+00,3.665111064910888672e+00,3.555534839630126953e+00,3.452320575714111328e+00,3.354929447174072266e+00,3.262882709503173828e+00,3.175751924514770508e+00,3.093152999877929688e+00,3.014742374420166016e+00,2.940208673477172852e+00,2.869271516799926758e+00,2.801676750183105469e+00,2.737193346023559570e+00,2.675611495971679688e+00,2.616739749908447266e+00,2.560402870178222656e+00,2.506440639495849609e+00,2.454705953598022461e+00,2.405063629150390625e+00,2.357389688491821289e+00,2.311568975448608398e+00,2.267495393753051758e+00,2.225071191787719727e+00,2.184205293655395508e+00,2.144813299179077148e+00,2.106817245483398438e+00,2.070143699645996094e+00,2.034725189208984375e+00,2.000498294830322266e+00,1.967403769493103027e+00,1.935386419296264648e+00,1.904394507408142090e+00,1.874379396438598633e+00,1.845295786857604980e+00
5.000000000000000000e+00,5.000000000000000000e+00,5.000000000000000000e+00,5.000000000000000000e+00,5.000000000000000000e+00,5.000000000000000000e+00,5.000000000000000000e+00,5.000000000000000000e+00,5.000000000000000000e+00,5.000000000000000000e+00,5.000000000000000000e+00,5.000000000000000000e+00,5.000000000000000000e+00,5.000000000000000000e+00,5.000000000000000000e+00,5.000000000000000000e+00,5.000000000000000000e+00,5.000000000000000000e+00,5.000000000000000000e+00,5.000000000000000000e+00,5.000000000000000000e+00,5.000000000000000000e+00,5.000000000000000000e+00,5.000000000000000000e+00,5.000000000000000000e+00,5.000000000000000000e+00,5.000000000000000000e+00,2.818044185638427734e+00,2.846874475479125977e+00,2.954241752624511719e+00,3.053513288497924805e+00,2.984948873519897461e+00,2.982438564300537109e+00,3.033631563186645508e+00,5.000000000000000000e+00,5.000000000000000000e+00,5.000000000000000000e+00,5.000000000000000000e+00,5.000000000000000000e+00,4.864564418792724609e+00,4.673402786254882812e+00,4.496696949005126953e+00,4.332867145538330078e+00,4.180555343627929688e+00,4.038588047027587891e+00,3.905946493148803711e+00,3.781740665435791016e+00,3.665190696716308594e+00,3.555609941482543945e+00,3.452391147613525391e+00,3.354995965957641602e+00,3.262945652008056641e+00,3.175811290740966797e+00,3.093209743499755859e+00,3.014796257019042969e+00,2.940259933471679688e+00,2.869320392608642578e+00,2.801723241806030273e+00,2.737237691879272461e+00,2.675653934478759766e+00,2.616780042648315430e+00,2.560441493988037109e+00,2.506477594375610352e+00,2.454741477966308594e+00,2.405097961425781250e+00,2.357422828674316406e+00,2.311600685119628906e+00,2.267525911331176758e+00,2.225100517272949219e+00,2.184233665466308594e+00,2.144840717315673828e+00,2.106843471527099609e+00,2.070168972015380859e+00,2.034749746322631836e+00,2.000521898269653320e+00,1.967426776885986328e+00,1.935408711433410645e+00,1.904416084289550781e+00,1.874400377273559570e+00,1.845316171646118164e+00
5.000000000000000000e+00,5.000000000000000000e+00,5.000000000000000000e+00,5.000000000000000000e+00,5.000000000000000000e+00,5.000000000000000000e+00,5.000000000000000000e+00,5.000000000000000000e+00,5.000000000000000000e+00,5.000000000000000000e+00,5.000000000000000000e+00,5.000000000000000000e+00,5.000000000000000000e+00,5.000000000000000000e+00,5.000000000000000000e+00,5.000000000000000000e+00,5.000000000000000000e+00,5.000000000000000000e+00,5.000000000000000000e+00,5.000000000000000000e+00,5.000000000000000000e+00,5.000000000000000000e+00,5.000000000000000000e+00,5.000000000000000000e+00,5.000000000000000000e+00,5.000000000000000000e+00,5.000000000000000000e+00,2.981699943542480469e+00,2.954543828964233398e+00,2.957104682922363281e+00,3.071230649948120117e+00,2.979717254638671875e+00,2.969412565231323242e+00,3.007814407348632812e+00,5.000000000000000000e+00,5.000000000000000000e+00,5.000000000000000000e+00,5.000000000000000000e+00,5.000000000000000000e+00,4.864704608917236328e+00,4.673532009124755859e+00,4.496816635131835938e+00,4.332978248596191406e+00,4.180658817291259766e+00,4.038684368133544922e+00,3.906037092208862305e+00,3.781825542449951172e+00,3.665269851684570312e+00,3.555684328079223633e+00,3.452461481094360352e+00,3.355062723159790039e+00,3.263008594512939453e+00,3.175871133804321289e+00,3.093266487121582031e+00,3.014850139617919922e+00,2.940311193466186523e+00,2.869369268417358398e+00,2.801769495010375977e+00,2.737282037734985352e+00,2.675696372985839844e+00,2.616820812225341797e+00,2.560480356216430664e+00,2.506515026092529297e+00,2.454777240753173828e+00,2.405132293701171875e+00,2.357455730438232422e+00,2.311632394790649414e+00,2.267556428909301758e+00,2.225129842758178711e+00,2.184261798858642578e+00,2.144867897033691406e+00,2.106869697570800781e+00,2.070194482803344727e+00,2.034774303436279297e+00,2.000545740127563477e+00,1.967449665069580078e+00,1.935430765151977539e+00,1.904437422752380371e+00,1.874421119689941406e+00,1.845336198806762695e+00
5.000000000000000000e+00,5.000000000000000000e+00,5.000000000000000000e+00,5.000000000000000000e+00,5.000000000000000000e+00,5.000000000000000000e+00,5.000000000000000000e+00,5.000000000000000000e+00,5.000000000000000000e+00,5.000000000000000000e+00,5.000000000000000000e+00,5.000000000000000000e+00,5.000000000000000000e+00,5.000000000000000000e+00,5.000000000000000000e+00,5.000000000000000000e+00,5.000000000000000000e+00,5.000000000000000000e+00,5.000000000000000000e+00,5.000000000000000000e+00,5.000000000000000000e+00,5.000000000000000000e+00,5.000000000000000000e+00,5.000000000000000000e+00,5.000000000000000000e+00,5.000000000000000000e+00,5.000000000000000000e+00,2.782351732254028320e+00,2.959489822387695312e+00,2.965890884399414062e+00,5.000000000000000000e+00,2.974421977996826172e+00,2.953354358673095703e+00,2.981650114059448242e+00,5.000000000000000000e+00,5.000000000000000000e+00,5.000000000000000000e+00,5.000000000000000000e+00,5.000000000000000000e+00,4.864844799041748047e+00,4.673661231994628906e+00,4.496936321258544922e+00,4.333089351654052734e+00,4.180762290954589844e+00,4.038781166076660156e+00,3.906126976013183594e+00,3.781909942626953125e+00,3.665349483489990234e+00,3.555759429931640625e+00,3.452532291412353516e+00,3.355129480361938477e+00,3.263071775436401367e+00,3.175930976867675781e+00,3.093323230743408203e+00,3.014903783798217773e+00,2.940362215042114258e+00,2.869417905807495117e+00,2.801816225051879883e+00,2.737326383590698242e+00,2.675738811492919922e+00,2.616861343383789062e+00,2.560519218444824219e+00,2.506552219390869141e+00,2.454813003540039062e+00,2.405166625976562500e+00,2.357488393783569336e+00,2.311663866043090820e+00,2.267586708068847656e+00,2.225159168243408203e+00,2.184290170669555664e+00,2.144895076751708984e+00,2.106896162033081055e+00,2.070219755172729492e+00,2.034798860549926758e+00,2.000569343566894531e+00,1.967472672462463379e+00,1.935452938079833984e+00,1.904458880424499512e+00,1.874441862106323242e+00,1.845356345176696777e+00
5.000000000000000000e+00,5.000000000000000000e+00,5.000000000000000000e+00,5.000000000000000000e+00,5.000000000000000000e+00,5.000000000000000000e+00,5.000000000000000000e+00,5.000000000000000000e+00,5.000000000000000000e+00,5.000000000000000000e+00,5.000000000000000000e+00,5.000000000000000000e+00,5.000000000000000000e+00,5.000000000000000000e+00,5.000000000000000000e+00,5.000000000000000000e+00,5.000000000000000000e+00,5.000000000000000000e+00,5.000000000000000000e+00,5.000000000000000000e+00,5.000000000000000000e+00,5.000000000000000000e+00,5.000000000000000000e+00,5.000000000000000000e+00,5.000000000000000000e+00,5.000000000000000000e+00,5.000000000000000000e+00,3.024739027023315430e+00,2.964358329772949219e+00,2.973373651504516602e+00,5.000000000000000000e+00,2.964655876159667969e+00,2.935684919357299805e+00,2.947583436965942383e+00,5.000000000000000000e+00,5.000000000000000000e+00,5.000000000000000000e+00,5.000000000000000000e+00,5.000000000000000000e+00,4.864984989166259766e+00,4.673790454864501953e+00,4.497056007385253906e+00,4.333200454711914062e+00,4.180865764617919922e+00,4.038877964019775391e+00,3.906217575073242188e+00,3.781994819641113281e+00,3.665429353713989258e+00,3.555834293365478516e+00,3.452602863311767578e+00,3.355196237564086914e+00,3.263134717941284180e+00,3.175990581512451172e+00,3.093379735946655273e+00,3.014957666397094727e+00,2.940413475036621094e+00,2.869466543197631836e+00,2.801862716674804688e+00,2.737370729446411133e+00,2.675781250000000000e+00,2.616901874542236328e+00,2.560558080673217773e+00,2.506589174270629883e+00,2.454848527908325195e+00,2.405200719833374023e+00,2.357521533966064453e+00,2.311695575714111328e+00,2.267617225646972656e+00,2.225188493728637695e+00,2.184318304061889648e+00,2.144922494888305664e+00,2.106922388076782227e+00,2.070245027542114258e+00,2.034823179244995117e+00,2.000592947006225586e+00,1.967495560646057129e+00,1.935475230216979980e+00,1.904480457305908203e+00,1.874462723731994629e+00,1.845376610755920410e+00
5.000000000000000000e+00,5.000000000000000000e+00,5.000000000000000000e+00,5.000000000000000000e+00,5.000000000000000000e+00,5.000000000000000000e+00,5.000000000000000000e+00,5.000000000000000000e+00,5.000000000000000000e+00,5.000000000000000000e+00,5.000000000000000000e+00,5.000000000000000000e+00,5.000000000000000000e+00,5.000000000000000000e+00,5.000000000000000000e+00,5.000000000000000000e+00,5.000000000000000000e+00,5.000000000000000000e+00,5.000000000000000000e+00,5.000000000000000000e+00,5.000000000000000000e+00,5.000000000000000000e+00,5.000000000000000000e+00,5.000000000000000000e+00,5.000000000000000000e+00,5.000000000000000000e+00,5.000000000000000000e+00,3.055773258209228516e+00,2.965838193893432617e+00,2.980108261108398438e+00,5.000000000000000000e+00,2.954287767410278320e+00,2.917454719543457031e+00,2.931688308715820312e+00,5.000000000000000000e+00,5.000000000000000000e+00,5.000000000000000000e+00,5.000000000000000000e+00,5.000000000000000000e+00,4.865125179290771484e+00,4.673920154571533203e+00,4.497176170349121094e+00,4.333312034606933594e+00,4.180969238281250000e+00,4.038974285125732422e+00,3.906307935714721680e+00,3.782079696655273438e+00,3.665508985519409180e+00,3.555908918380737305e+00,3.452673196792602539e+00,3.355262756347656250e+00,3.263197898864746094e+00,3.176050424575805664e+00,3.093436479568481445e+00,3.015011548995971680e+00,2.940464973449707031e+00,2.869515419006347656e+00,2.801909208297729492e+00,2.737415313720703125e+00,2.675823450088500977e+00,2.616942405700683594e+00,2.560596704483032227e+00,2.506626605987548828e+00,2.454884290695190430e+00,2.405235052108764648e+00,2.357554435729980469e+00,2.311727285385131836e+00,2.267647743225097656e+00,2.225217819213867188e+00,2.184346437454223633e+00,2.144949436187744141e+00,2.106948614120483398e+00,2.070270538330078125e+00,2.034847736358642578e+00,2.000616788864135742e+00,1.967518448829650879e+00,1.935497403144836426e+00,1.904501914978027344e+00,1.874483466148376465e+00,1.845396757125854492e+00
5.000000000000000000e+00,5.000000000000000000e+00,5.000000000000000000e+00,5.000000000000000000e+00,5.000000000000000000e+00,5.000000000000000000e+00,5.000000000000000000e+00,5.000000000000000000e+00,5.000000000000000000e+00,5.000000000000000000e+00,5.000000000000000000e+00,5.000000000000000000e+00,5.000000000000000000e+00,5.000000000000000000e+00,5.000000000000000000e+00,5.000000000000000000e+00,5.000000000000000000e+00,5.000000000000000000e+00,5.000000000000000000e+00,5.000000000000000000e+00,5.000000000000000000e+00,5.000000000000000000e+00,5.000000000000000000e+00,5.000000000000000000e+00,5.000000000000000000e+00,5.000000000000000000e+00,5.000000000000000000e+00,5.000000000000000000e+00,2.971990585327148438e+00,2.985680103302001953e+00,5.000000000000000000e+00,5.000000000000000000e+00,2.916174650192260742e+00,2.927281379699707031e+00,5.000000000000000000e+00,5.000000000000000000e+00,5.000000000000000000e+00,5.000000000000000000e+00,5.000000000000000000e+00,4.865264892578125000e+00,4.674049377441406250e+00,4.497295856475830078e+00,4.333423137664794922e+00,4.181072711944580078e+00,4.039071083068847656e+00,3.906398057937622070e+00,3.782163858413696289e+00,3.665588140487670898e+00,3.555984020233154297e+00,3.452744007110595703e+00,3.355329513549804688e+00,3.263261079788208008e+00,3.176110267639160156e+00,3.093493223190307617e+00,3.015065431594848633e+00,2.940515756607055664e+00,2.869564056396484375e+00,2.801955461502075195e+00,2.737459421157836914e+00,2.675865888595581055e+00,2.616982936859130859e+00,2.560635805130004883e+00,2.506663799285888672e+00,2.454920053482055664e+00,2.405269384384155273e+00,2.357587337493896484e+00,2.311758756637573242e+00,2.267678022384643555e+00,2.225247144699096680e+00,2.184374809265136719e+00,2.144976854324340820e+00,2.106974840164184570e+00,2.070295810699462891e+00,2.034872293472290039e+00,2.000640630722045898e+00,1.967541456222534180e+00,1.935519695281982422e+00,1.904523253440856934e+00,1.874504208564758301e+00,1.845416784286499023e+00
5.000000000000000000e+00,5.000000000000000000e+00,5.000000000000000000e+00,5.000000000000000000e+00,5.000000000000000000e+00,5.000000000000000000e+00,5.000000000000000000e+00,5.000000000000000000e+00,5.000000000000000000e+00,5.000000000000000000e+00,5.000000000000000000e+00,5.000000000000000000e+00,5.000000000000000000e+00,5.000000000000000000e+00,5.000000000000000000e+00,5.000000000000000000e+00,5.000000000000000000e+00,5.000000000000000000e+00,5.000000000000000000e+00,5.000000000000000000e+00,5.000000000000000000e+00,5.000000000000000000e+00,5.000000000000000000e+00,5.000000000000000000e+00,5.000000000000000000e+00,5.000000000000000000e+00,5.000000000000000000e+00,3.077557563781738281e+00,2.982228755950927734e+00,2.993953943252563477e+00,5.000000000000000000e+00,2.965084552764892578e+00,2.932660818099975586e+00,2.943204641342163086e+00,5.000000000000000000e+00,5.000000000000000000e+00,5.000000000000000000e+00,5.000000000000000000e+00,5.000000000000000000e+00,4.865405559539794922e+00,4.674179077148437500e+00,4.497415542602539062e+00,4.333534240722656250e+00,4.181176185607910156e+00,4.039167404174804688e+00,3.906488656997680664e+00,3.782248735427856445e+00,3.665668010711669922e+00,3.556058883666992188e+00,3.452814579010009766e+00,3.355396270751953125e+00,3.263324022293090820e+00,3.176169633865356445e+00,3.093549728393554688e+00,3.015119075775146484e+00,2.940567255020141602e+00,2.869612932205200195e+00,2.802002191543579102e+00,2.737504005432128906e+00,2.675908327102661133e+00,2.617023706436157227e+00,2.560674667358398438e+00,2.506700992584228516e+00,2.454955577850341797e+00,2.405303478240966797e+00,2.357620239257812500e+00,2.311790466308593750e+00,2.267708539962768555e+00,2.225276470184326172e+00,2.184403181076049805e+00,2.145004034042358398e+00,2.107001066207885742e+00,2.070321321487426758e+00,2.034896850585937500e+00,2.000664234161376953e+00,1.967564344406127930e+00,1.935541749000549316e+00,1.904544949531555176e+00,1.874525189399719238e+00,1.845437049865722656e+00
5.000000000000000000e+00,5.000000000000000000e+00,5.000000000000000000e+00,5.000000000000000000e+00,5.000000000000000000e+00,5.000000000000000000e+00,5.000000000000000000e+00,5.000000000000000000e+00,5.000000000000000000e+00,5.000000000000000000e+00,5.000000000000000000e+00,5.000000000000000000e+00,5.000000000000000000e+00,5.000000000000000000e+00,5.000000000000000000e+00,5.000000000000000000e+00,5.000000000000000000e+00,5.000000000000000000e+00,5.000000000000000000e+00,5.000000000000000000e+00,5.000000000000000000e+00,5.000000000000000000e+00,5.000000000000000000e+00,5.000000000000000000e+00,5.000000000000000000e+00,5.000000000000000000e+00,5.000000000000000000e+00,3.072604179382324219e+00,3.010783672332763672e+00,3.031898021697998047e+00,5.000000000000000000e+00,2.980919122695922852e+00,2.955612897872924805e+00,2.994385004043579102e+00,5.000000000000000000e+00,5.000000000000000000e+00,5.000000000000000000e+00,5.000000000000000000e+00,5.000000000000000000e+00,4.865544319152832031e+00,4.674308300018310547e+00,4.497535228729248047e+00,4.333645343780517578e+00,4.181280136108398438e+00,4.039264202117919922e+00,3.906579017639160156e+00,3.782333612442016602e+00,3.665747642517089844e+00,3.556133985519409180e+00,3.452884912490844727e+00,3.355462551116943359e+00,3.263386964797973633e+00,3.176229476928710938e+00,3.093606472015380859e+00,3.015172958374023438e+00,2.940618515014648438e+00,2.869661808013916016e+00,2.802048683166503906e+00,2.737548351287841797e+00,2.675950765609741211e+00,2.617063999176025391e+00,2.560713291168212891e+00,2.506738185882568359e+00,2.454991340637207031e+00,2.405337810516357422e+00,2.357653141021728516e+00,2.311822175979614258e+00,2.267739057540893555e+00,2.225305795669555664e+00,2.184431314468383789e+00,2.145031452178955078e+00,2.107027292251586914e+00,2.070346593856811523e+00,2.034921407699584961e+00,2.000687837600708008e+00,1.967587113380432129e+00,1.935563921928405762e+00,1.904566287994384766e+00,1.874545931816101074e+00,1.845457196235656738e+00
5.000000000000000000e+00,5.000000000000000000e+00,5.000000000000000000e+00,5.000000000000000000e+00,5.000000000000000000e+00,5.000000000000000000e+00,5.000000000000000000e+00,5.000000000000000000e+00,5.000000000000000000e+00,5.000000000000000000e+00,5.000000000000000000e+00,5.000000000000000000e+00,5.000000000000000000e+00,5.000000000000000000e+00,5.000000000000000000e+00,5.000000000000000000e+00,5.000000000000000000e+00,5.000000000000000000e+00,5.000000000000000000e+00,5.000000000000000000e+00,5.000000000000000000e+00,5.000000000000000000e+00,5.000000000000000000e+00,5.000000000000000000e+00,5.000000000000000000e+00,5.000000000000000000e+00,5.000000000000000000e+00,3.116339921951293945e+00,3.130570888519287109e+00,5.000000000000000000e+00,5.000000000000000000e+00,2.980184316635131836e+00,2.963116884231567383e+00,5.000000000000000000e+00,5.000000000000000000e+00,5.000000000000000000e+00,5.000000000000000000e+00,5.000000000000000000e+00,5.000000000000000000e+00,4.865684032440185547e+00,4.674437046051025391e+00,4.497654914855957031e+00,4.333756446838378906e+00,4.181383132934570312e+00,4.039361000061035156e+00,3.906669616699218750e+00,3.782418012619018555e+00,3.665826797485351562e+00,3.556208610534667969e+00,3.452955722808837891e+00,3.355529308319091797e+00,3.263450145721435547e+00,3.176289319992065430e+00,3.093663215637207031e+00,3.015227079391479492e+00,2.940669775009155273e+00,2.869710445404052734e+00,2.802094936370849609e+00,2.737592697143554688e+00,2.675993204116821289e+00,2.617104768753051758e+00,2.560752153396606445e+00,2.506775379180908203e+00,2.455027103424072266e+00,2.405372142791748047e+00,2.357686042785644531e+00,2.311853885650634766e+00,2.267769575119018555e+00,2.225335121154785156e+00,2.184459686279296875e+00,2.145058631896972656e+00,2.107053756713867188e+00,2.070372104644775391e+00,2.034945964813232422e+00,2.000711679458618164e+00,1.967610239982604980e+00,1.935586214065551758e+00,1.904587984085083008e+00,1.874566674232482910e+00,1.845477342605590820e+00
5.000000000000000000e+00,5.000000000000000000e+00,5.000000000000000000e+00,5.000000000000000000e+00,5.000000000000000000e+00,5.000000000000000000e+00,5.000000000000000000e+00,5.000000000000000000e+00,5.000000000000000000e+00,5.000000000000000000e+00,5.000000000000000000e+00,5.000000000000000000e+00,5.000000000000000000e+00,5.000000000000000000e+00,5.000000000000000000e+00,5.000000000000000000e+00,5.000000000000000000e+00,5.000000000000000000e+00,5.000000000000000000e+00,5.000000000000000000e+00,5.000000000000000000e+00,5.000000000000000000e+00,5.000000000000000000e+00,5.000000000000000000e+00,5.000000000000000000e+00,5.000000000000000000e+00,3.230261325836181641e+00,3.166736364364624023e+00,5.000000000000000000e+00,5.000000000000000000e+00,5.000000000000000000e+00,2.977976322174072266e+00,2.964450836181640625e+00,5.000000000000000000e+00,5.000000000000000000e+00,5.000000000000000000e+00,5.000000000000000000e+00,5.000000000000000000e+00,5.000000000000000000e+00,4.865822792053222656e+00,4.674565315246582031e+00,4.497775077819824219e+00,4.333868026733398438e+00,4.181486606597900391e+00,4.039457321166992188e+00,3.906759738922119141e+00,3.782502889633178711e+00,3.665906667709350586e+00,3.556283712387084961e+00,3.453026533126831055e+00,3.355596303939819336e+00,3.263513326644897461e+00,3.176349163055419922e+00,3.093719959259033203e+00,3.015280723571777344e+00,2.940720796585083008e+00,2.869759082794189453e+00,2.802141666412353516e+00,2.737637042999267578e+00,2.676035642623901367e+00,2.617145299911499023e+00,2.560791015625000000e+00,2.506812810897827148e+00,2.455062866210937500e+00,2.405406236648559570e+00,2.357718944549560547e+00,2.311885356903076172e+00,2.267800092697143555e+00,2.225364446640014648e+00,2.184487819671630859e+00,2.145085811614990234e+00,2.107079982757568359e+00,2.070397377014160156e+00,2.034970521926879883e+00,2.000735282897949219e+00,1.967633128166198730e+00,1.935608267784118652e+00,1.904609322547912598e+00,1.874587535858154297e+00,1.845497608184814453e+00
5.000000000000000000e+00,5.000000000000000000e+00,5.000000000000000000e+00,5.000000000000000000e+00,5.000000000000000000e+00,5.000000000000000000e+00,5.000000000000000000e+00,5.000000000000000000e+00,5.000000000000000000e+00,5.000000000000000000e+00,5.000000000000000000e+00,5.000000000000000000e+00,5.000000000000000000e+00,5.000000000000000000e+00,5.000000000000000000e+00,5.000000000000000000e+00,5.000000000000000000e+00,5.000000000000000000e+00,5.000000000000000000e+00,5.000000000000000000e+00,5.000000000000000000e+00,5.000000000000000000e+00,5.000000000000000000e+00,5.000000000000000000e+00,5.000000000000000000e+00,5.000000000000000000e+00,3.280196905136108398e+00,3.241073131561279297e+00,5.000000000000000000e+00,5.000000000000000000e+00,5.000000000000000000e+00,2.978673219680786133e+00,2.965143918991088867e+00,5.000000000000000000e+00,5.000000000000000000e+00,5.000000000000000000e+00,5.000000000000000000e+00,5.000000000000000000e+00,5.000000000000000000e+00,4.865962028503417969e+00,4.674693584442138672e+00,4.497893333435058594e+00,4.333979129791259766e+00,4.181590557098388672e+00,4.039554119110107422e+00,3.906850099563598633e+00,3.782587766647338867e+00,3.665986299514770508e+00,3.556358575820922852e+00,3.453097105026245117e+00,3.355663061141967773e+00,3.263576269149780273e+00,3.176408767700195312e+00,3.093776464462280273e+00,3.015334606170654297e+00,2.940772056579589844e+00,2.869807958602905273e+00,2.802188158035278320e+00,2.737681388854980469e+00,2.676078081130981445e+00,2.617185831069946289e+00,2.560829639434814453e+00,2.506849765777587891e+00,2.455098390579223633e+00,2.405440568923950195e+00,2.357751846313476562e+00,2.311917066574096680e+00,2.267830371856689453e+00,2.225393772125244141e+00,2.184516191482543945e+00,2.145113229751586914e+00,2.107106447219848633e+00,2.070422649383544922e+00,2.034994840621948242e+00,2.000758886337280273e+00,1.967655897140502930e+00,1.935630440711975098e+00,1.904630780220031738e+00,1.874608278274536133e+00,1.845517635345458984e+00
5.000000000000000000e+00,5.000000000000000000e+00,5.000000000000000000e+00,5.000000000000000000e+00,5.000000000000000000e+00,5.000000000000000000e+00,5.000000000000000000e+00,5.000000000000000000e+00,5.000000000000000000e+00,5.000000000000000000e+00,5.000000000000000000e+00,5.000000000000000000e+00,5.000000000000000000e+00,5.000000000000000000e+00,5.000000000000000000e+00,5.000000000000000000e+00,5.000000000000000000e+00,5.000000000000000000e+00,5.000000000000000000e+00,5.000000000000000000e+00,5.000000000000000000e+00,5.000000000000000000e+00,5.000000000000000000e+00,5.000000000000000000e+00,5.000000000000000000e+00,5.000000000000000000e+00,3.337542057037353516e+00,5.000000000000000000e+00,5.000000000000000000e+00,5.000000000000000000e+00,5.000000000000000000e+00,2.982687234878540039e+00,2.967143774032592773e+00,5.000000000000000000e+00,5.000000000000000000e+00,5.000000000000000000e+00,5.000000000000000000e+00,5.000000000000000000e+00,5.000000000000000000e+00,4.866101264953613281e+00,4.674822330474853516e+00,4.498012542724609375e+00,4.334089279174804688e+00,4.181694030761718750e+00,4.039650917053222656e+00,3.906940698623657227e+00,3.782672643661499023e+00,3.666065931320190430e+00,3.556433200836181641e+00,3.453167438507080078e+00,3.355729341506958008e+00,3.263639211654663086e+00,3.176468610763549805e+00,3.093833208084106445e+00,3.015388488769531250e+00,2.940823316574096680e+00,2.869856834411621094e+00,2.802234649658203125e+00,2.737725734710693359e+00,2.676120281219482422e+00,2.617226362228393555e+00,2.560868740081787109e+00,2.506886959075927734e+00,2.455134153366088867e+00,2.405474901199340820e+00,2.357784748077392578e+00,2.311948776245117188e+00,2.267860889434814453e+00,2.225423097610473633e+00,2.184544324874877930e+00,2.145140171051025391e+00,2.107132673263549805e+00,2.070448160171508789e+00,2.035019397735595703e+00,2.000782728195190430e+00,1.967679023742675781e+00,1.935652732849121094e+00,1.904652357101440430e+00,1.874629259109497070e+00,1.845538020133972168e+00
5.000000000000000000e+00,5.000000000000000000e+00,5.000000000000000000e+00,5.000000000000000000e+00,5.000000000000000000e+00,5.000000000000000000e+00,5.000000000000000000e+00,5.000000000000000000e+00,5.000000000000000000e+00,5.000000000000000000e+00,5.000000000000000000e+00,5.000000000000000000e+00,5.000000000000000000e+00,5.000000000000000000e+00,5.000000000000000000e+00,5.000000000000000000e+00,5.000000000000000000e+00,5.000000000000000000e+00,5.000000000000000000e+00,5.000000000000000000e+00,5.000000000000000000e+00,5.000000000000000000e+00,5.000000000000000000e+00,5.000000000000000000e+00,5.000000000000000000e+00,5.000000000000000000e+00,3.349948167800903320e+00,5.000000000000000000e+00,5.000000000000000000e+00,5.000000000000000000e+00,5.000000000000000000e+00,2.986450195312500000e+00,2.976667165756225586e+00,5.000000000000000000e+00,5.000000000000000000e+00,5.000000000000000000e+00,5.000000000000000000e+00,5.000000000000000000e+00,5.000000000000000000e+00,4.866240024566650391e+00,4.674950599670410156e+00,4.498131275177001953e+00,4.334199905395507812e+00,4.181797027587890625e+00,4.039747238159179688e+00,3.907030820846557617e+00,3.782757043838500977e+00,3.666145324707031250e+00,3.556508302688598633e+00,3.453238248825073242e+00,3.355796337127685547e+00,3.263702392578125000e+00,3.176528453826904297e+00,3.093890190124511719e+00,3.015442371368408203e+00,2.940874338150024414e+00,2.869905471801757812e+00,2.802281141281127930e+00,2.737770080566406250e+00,2.676162719726562500e+00,2.617266893386840820e+00,2.560907602310180664e+00,2.506924390792846680e+00,2.455169916152954102e+00,2.405509233474731445e+00,2.357817888259887695e+00,2.311980247497558594e+00,2.267891407012939453e+00,2.225452423095703125e+00,2.184572696685791016e+00,2.145167589187622070e+00,2.107158899307250977e+00,2.070473670959472656e+00,2.035043954849243164e+00,2.000806331634521484e+00,1.967701792716979980e+00,1.935674905776977539e+00,1.904673814773559570e+00,1.874650001525878906e+00,1.845558047294616699e+00
4.871716022491455078e+00,4.870494365692138672e+00,4.869273662567138672e+00,4.868053436279296875e+00,4.866833686828613281e+00,4.865613937377929688e+00,4.864395618438720703e+00,4.863177299499511719e+00,4.861960411071777344e+00,4.860743522644042969e+00,4.859527587890625000e+00,4.858312129974365234e+00,4.857097148895263672e+00,4.855882644653320312e+00,4.854669094085693359e+00,4.853456020355224609e+00,4.852243423461914062e+00,4.851031780242919922e+00,4.849820613861083984e+00,4.848609924316406250e+00,4.847399711608886719e+00,4.846190452575683594e+00,4.844981670379638672e+00,4.843772888183593750e+00,4.842565536499023438e+00,4.841358184814453125e+00,3.347479343414306641e+00,3.380901098251342773e+00,4.837740898132324219e+00,4.836536407470703125e+00,4.835332393646240234e+00,2.997455596923828125e+00,3.014791727066040039e+00,4.831723213195800781e+00,4.830521583557128906e+00,4.829320907592773438e+00,4.828120231628417969e+00,4.826920509338378906e+00,4.825721263885498047e+00,4.824522495269775391e+00,4.675078868865966797e+00,4.498250007629394531e+00,4.334310054779052734e+00,4.181899547576904297e+00,4.039844036102294922e+00,3.907121181488037109e+00,3.782841920852661133e+00,3.666224956512451172e+00,3.556583166122436523e+00,3.453308820724487305e+00,3.355863094329833984e+00,3.263765573501586914e+00,3.176588058471679688e+00,3.093946456909179688e+00,3.015496015548706055e+00,2.940925598144531250e+00,2.869954347610473633e+00,2.802327632904052734e+00,2.737814664840698242e+00,2.676205158233642578e+00,2.617307662963867188e+00,2.560946464538574219e+00,2.506961584091186523e+00,2.455205440521240234e+00,2.405543327331542969e+00,2.357850551605224609e+00,2.312011957168579102e+00,2.267921924591064453e+00,2.225481748580932617e+00,2.184601068496704102e+00,2.145194768905639648e+00,2.107185125350952148e+00,2.070498943328857422e+00,2.035068511962890625e+00,2.000830173492431641e+00,1.967724680900573730e+00,1.935696959495544434e+00,1.904695153236389160e+00,1.874670743942260742e+00,1.845578193664550781e+00
3.776543140411376953e+00,3.775808811187744141e+00,3.775075197219848633e+00,3.774341344833374023e+00,3.773607969284057617e+00,3.772875070571899414e+00,3.772142171859741211e+00,3.771409988403320312e+00,3.770677804946899414e+00,3.769946098327636719e+00,3.769214391708374023e+00,3.768483161926269531e+00,3.767751932144165039e+00,3.767021179199218750e+00,3.766290903091430664e+00,3.765560626983642578e+00,3.764830827713012695e+00,3.764101028442382812e+00,3.763371944427490234e+00,3.762642860412597656e+00,3.761913776397705078e+00,3.761185646057128906e+00,3.760457277297973633e+00,3.759729623794555664e+00,3.759001731872558594e+00,3.758274555206298828e+00,3.757547378540039062e+00,3.756820678710937500e+00,3.756093978881835938e+00,3.755367994308471680e+00,3.754642009735107422e+00,2.977521657943725586e+00,2.936886310577392578e+00,3.752465724945068359e+00,3.751741170883178711e+00,3.751016378402709961e+00,3.750292301177978516e+00,3.749568223953247070e+00,3.748844146728515625e+00,3.748121023178100586e+00,3.747397661209106445e+00,3.746675014495849609e+00,3.745952367782592773e+00,3.745230197906494141e+00,3.744508028030395508e+00,3.743786573410034180e+00,3.743064880371093750e+00,3.666304826736450195e+00,3.556658267974853516e+00,3.453379392623901367e+00,3.355929374694824219e+00,3.263828516006469727e+00,3.176647901535034180e+00,3.094003438949584961e+00,3.015549898147583008e+00,2.940976858139038086e+00,2.870003223419189453e+00,2.802374124526977539e+00,2.737859010696411133e+00,2.676247835159301758e+00,2.617347955703735352e+00,2.560985088348388672e+00,2.506998777389526367e+00,2.455241203308105469e+00,2.405577659606933594e+00,2.357883691787719727e+00,2.312043666839599609e+00,2.267952442169189453e+00,2.225511074066162109e+00,2.184629201889038086e+00,2.145221948623657227e+00,2.107211351394653320e+00,2.070524215698242188e+00,2.035093069076538086e+00,2.000853776931762695e+00,1.967747807502746582e+00,1.935719370841979980e+00,1.904716849327087402e+00,1.874691724777221680e+00,1.845598459243774414e+00
3.083389997482299805e+00,3.082900285720825195e+00,3.082411289215087891e+00,3.081922054290771484e+00,3.081433296203613281e+00,3.080944299697875977e+00,3.080455780029296875e+00,3.079967260360717773e+00,3.079479217529296875e+00,3.078990936279296875e+00,3.078502655029296875e+00,3.078015089035034180e+00,3.077527046203613281e+00,3.077039718627929688e+00,3.076552152633666992e+00,3.076065063476562500e+00,3.075577974319458008e+00,3.075091123580932617e+00,3.074604272842407227e+00,3.074117422103881836e+00,3.073631286621093750e+00,3.073144674301147461e+00,3.072658777236938477e+00,3.072172641754150391e+00,3.071686983108520508e+00,3.071201086044311523e+00,3.070715665817260742e+00,3.070230245590209961e+00,3.069744825363159180e+00,3.069259881973266602e+00,3.068774700164794922e+00,3.068290233612060547e+00,2.839724302291870117e+00,2.906166791915893555e+00,3.066836595535278320e+00,3.066352605819702148e+00,3.065868616104125977e+00,3.065384626388549805e+00,3.064901113510131836e+00,3.064417362213134766e+00,3.063934087753295898e+00,3.063450813293457031e+00,3.062967777252197266e+00,3.062484741210937500e+00,3.062002182006835938e+00,3.061519384384155273e+00,3.061036825180053711e+00,3.060554504394531250e+00,3.060072183609008789e+00,3.059590339660644531e+00,3.059108257293701172e+00,3.058626890182495117e+00,3.058145046234130859e+00,3.057663679122924805e+00,3.015604019165039062e+00,2.941028356552124023e+00,2.870051860809326172e+00,2.802420616149902344e+00,2.737903356552124023e+00,2.676290035247802734e+00,2.617388725280761719e+00,2.561023950576782227e+00,2.507035970687866211e+00,2.455276966094970703e+00,2.405611991882324219e+00,2.357916593551635742e+00,2.312075376510620117e+00,2.267982721328735352e+00,2.225540399551391602e+00,2.184657335281372070e+00,2.145249366760253906e+00,2.107237815856933594e+00,2.070549726486206055e+00,2.035117626190185547e+00,2.000877618789672852e+00,1.967770576477050781e+00,1.935741424560546875e+00,1.904738187789916992e+00,1.874712467193603516e+00,1.845618605613708496e+00
2.605222702026367188e+00,2.604873418807983398e+00,2.604524135589599609e+00,2.604174852371215820e+00,2.603825807571411133e+00,2.603476762771606445e+00,2.603127717971801758e+00,2.602778911590576172e+00,2.602430343627929688e+00,2.602081537246704102e+00,2.601733207702636719e+00,2.601384639739990234e+00,2.601036310195922852e+00,2.600687980651855469e+00,2.600339889526367188e+00,2.599991798400878906e+00,2.599643707275390625e+00,2.599295854568481445e+00,2.598948001861572266e+00,2.598600387573242188e+00,2.598252534866333008e+00,2.597905158996582031e+00,2.597557544708251953e+00,2.597210407257080078e+00,2.596863031387329102e+00,2.596515893936157227e+00,2.596168994903564453e+00,2.595821857452392578e+00,2.595475196838378906e+00,2.595128297805786133e+00,2.594781637191772461e+00,2.594434976577758789e+00,2.594088554382324219e+00,2.593742132186889648e+00,2.593395709991455078e+00,2.593049526214599609e+00,2.592703342437744141e+00,2.592357397079467773e+00,2.592011213302612305e+00,2.591665506362915039e+00,2.591319799423217773e+00,2.590974092483520508e+00,2.590628385543823242e+00,2.590282917022705078e+00,2.589937686920166016e+00,2.589592218399047852e+00,2.589247226715087891e+00,2.588901996612548828e+00,2.588557004928588867e+00,2.588212013244628906e+00,2.587867259979248047e+00,2.587522506713867188e+00,2.587177753448486328e+00,2.586833238601684570e+00,2.586488723754882812e+00,2.586144447326660156e+00,2.585799932479858398e+00,2.585455894470214844e+00,2.585111618041992188e+00,2.584767818450927734e+00,2.584423780441284180e+00,2.561063051223754883e+00,2.507073163986206055e+00,2.455312728881835938e+00,2.405646324157714844e+00,2.357949495315551758e+00,2.312107086181640625e+00,2.268013238906860352e+00,2.225569725036621094e+00,2.184685707092285156e+00,2.145276546478271484e+00,2.107264041900634766e+00,2.070575237274169922e+00,2.035142183303833008e+00,2.000901222229003906e+00,1.967793464660644531e+00,1.935763478279113770e+00,1.904759645462036133e+00,1.874733209609985352e+00,1.845638751983642578e+00
2.255411386489868164e+00,2.255151510238647461e+00,2.254891395568847656e+00,2.254631280899047852e+00,2.254371404647827148e+00,2.254111528396606445e+00,2.253851652145385742e+00,2.253592014312744141e+00,2.253332376480102539e+00,2.253072738647460938e+00,2.252813339233398438e+00,2.252553701400756836e+00,2.252294301986694336e+00,2.252034902572631836e+00,2.251775503158569336e+00,2.251516342163085938e+00,2.251257181167602539e+00,2.250998020172119141e+00,2.250738859176635742e+00,2.250479936599731445e+00,2.250221014022827148e+00,2.249962091445922852e+00,2.249703168869018555e+00,2.249443292617797852e+00,2.249182701110839844e+00,2.248922348022460938e+00,2.248661994934082031e+00,2.248401880264282227e+00,2.248141527175903320e+00,2.247881412506103516e+00,2.247621059417724609e+00,2.247361183166503906e+00,2.247101068496704102e+00,2.246841192245483398e+00,2.246581315994262695e+00,2.246321439743041992e+00,2.246061801910400391e+00,2.245801925659179688e+00,2.245542287826538086e+00,2.245282649993896484e+00,2.245023250579833984e+00,2.244763851165771484e+00,2.244504213333129883e+00,2.244245052337646484e+00,2.243985652923583984e+00,2.243726491928100586e+00,2.243467330932617188e+00,2.243208408355712891e+00,2.242949247360229492e+00,2.242690324783325195e+00,2.242431402206420898e+00,2.242172479629516602e+00,2.241913557052612305e+00,2.241654872894287109e+00,2.241396188735961914e+00,2.241137504577636719e+00,2.240879058837890625e+00,2.240620613098144531e+00,2.240361928939819336e+00,2.240103721618652344e+00,2.239845275878906250e+00,2.239587068557739258e+00,2.239328861236572266e+00,2.239070892333984375e+00,2.238812685012817383e+00,2.238554716110229492e+00,2.238296747207641602e+00,2.238038778305053711e+00,2.225599050521850586e+00,2.184714078903198242e+00,2.145303964614868164e+00,2.107290506362915039e+00,2.070600509643554688e+00,2.035166501998901367e+00,2.000924825668334961e+00,1.967816591262817383e+00,1.935785889625549316e+00,1.904781222343444824e+00,1.874754071235656738e+00,1.845659017562866211e+00
1.988341927528381348e+00,1.988139748573303223e+00,1.987937688827514648e+00,1.987735629081726074e+00,1.987533807754516602e+00,1.987331748008728027e+00,1.987129807472229004e+00,1.986927866935729980e+00,1.986726045608520508e+00,1.986524224281311035e+00,1.986322402954101562e+00,1.986120700836181641e+00,1.985918998718261719e+00,1.985717296600341797e+00,1.985515594482421875e+00,1.985314011573791504e+00,1.985112547874450684e+00,1.984910964965820312e+00,1.984709501266479492e+00,1.984508156776428223e+00,1.984306693077087402e+00,1.984105348587036133e+00,1.983904242515563965e+00,1.983703017234802246e+00,1.983501791954040527e+00,1.983300685882568359e+00,1.983099460601806641e+00,1.982898354530334473e+00,1.982697367668151855e+00,1.982496380805969238e+00,1.982295393943786621e+00,1.982094407081604004e+00,1.981893539428710938e+00,1.981692671775817871e+00,1.981491923332214355e+00,1.981291055679321289e+00,1.981090307235717773e+00,1.980889678001403809e+00,1.980689048767089844e+00,1.980488657951354980e+00,1.980288028717041016e+00,1.980087518692016602e+00,1.979887008666992188e+00,1.979686617851257324e+00,1.979486227035522461e+00,1.979285836219787598e+00,1.979085445404052734e+00,1.978885173797607422e+00,1.978684902191162109e+00,1.978484749794006348e+00,1.978284597396850586e+00,1.978084444999694824e+00,1.977884292602539062e+00,1.977684259414672852e+00,1.977484345436096191e+00,1.977284312248229980e+00,1.977084398269653320e+00,1.976884722709655762e+00,1.976684927940368652e+00,1.976485133171081543e+00,1.976285338401794434e+00,1.976085662841796875e+00,1.975885868072509766e+00,1.975686311721801758e+00,1.975486636161804199e+00,1.975287079811096191e+00,1.975087642669677734e+00,1.974888086318969727e+00,1.974688649177551270e+00,1.974489331245422363e+00,1.974289894104003906e+00,1.974090576171875000e+00,1.973891377449035645e+00,1.973692059516906738e+00,1.973492860794067383e+00,1.967839360237121582e+00,1.935807943344116211e+00,1.904802680015563965e+00,1.874774813652038574e+00,1.845679044723510742e+00
1.777824878692626953e+00,1.777663230895996094e+00,1.777501702308654785e+00,1.777340054512023926e+00,1.777178525924682617e+00,1.777016997337341309e+00,1.776855587959289551e+00,1.776694297790527344e+00,1.776532888412475586e+00,1.776371479034423828e+00,1.776210188865661621e+00,1.776048779487609863e+00,1.775887489318847656e+00,1.775726318359375000e+00,1.775565028190612793e+00,1.775403857231140137e+00,1.775242567062377930e+00,1.775081515312194824e+00,1.774920344352722168e+00,1.774759292602539062e+00,1.774598240852355957e+00,1.774437189102172852e+00,1.774276137351989746e+00,1.774115204811096191e+00,1.773954153060913086e+00,1.773793458938598633e+00,1.773632526397705078e+00,1.773471713066101074e+00,1.773310899734497070e+00,1.773150086402893066e+00,1.772989273071289062e+00,1.772828578948974609e+00,1.772667884826660156e+00,1.772507190704345703e+00,1.772346496582031250e+00,1.772185802459716797e+00,1.772025227546691895e+00,1.771864652633666992e+00,1.771704077720642090e+00,1.771543622016906738e+00,1.771383166313171387e+00,1.771222710609436035e+00,1.771062254905700684e+00,1.770902037620544434e+00,1.770741701126098633e+00,1.770581364631652832e+00,1.770421028137207031e+00,1.770260691642761230e+00,1.770100474357604980e+00,1.769940257072448730e+00,1.769780039787292480e+00,1.769619822502136230e+00,1.769459724426269531e+00,1.769299626350402832e+00,1.769139528274536133e+00,1.768979549407958984e+00,1.768819451332092285e+00,1.768659472465515137e+00,1.768499493598937988e+00,1.768339633941650391e+00,1.768179655075073242e+00,1.768020033836364746e+00,1.767860174179077148e+00,1.767700314521789551e+00,1.767540574073791504e+00,1.767380833625793457e+00,1.767221093177795410e+00,1.767061352729797363e+00,1.766901731491088867e+00,1.766741991043090820e+00,1.766582369804382324e+00,1.766422867774963379e+00,1.766263246536254883e+00,1.766103744506835938e+00,1.765944242477416992e+00,1.765784740447998047e+00,1.765625357627868652e+00,1.765465974807739258e+00,1.765306591987609863e+00,1.765147447586059570e+00
1.607617259025573730e+00,1.607485175132751465e+00,1.607352972030639648e+00,1.607220888137817383e+00,1.607088804244995117e+00,1.606956720352172852e+00,1.606824636459350586e+00,1.606692671775817871e+00,1.606560587882995605e+00,1.606428623199462891e+00,1.606296658515930176e+00,1.606164932250976562e+00,1.606032967567443848e+00,1.605901122093200684e+00,1.605769157409667969e+00,1.605637311935424805e+00,1.605505466461181641e+00,1.605373740196228027e+00,1.605241894721984863e+00,1.605110168457031250e+00,1.604978442192077637e+00,1.604846715927124023e+00,1.604714989662170410e+00,1.604583263397216797e+00,1.604451656341552734e+00,1.604319930076599121e+00,1.604188323020935059e+00,1.604056715965270996e+00,1.603925347328186035e+00,1.603793740272521973e+00,1.603662252426147461e+00,1.603530764579772949e+00,1.603399276733398438e+00,1.603267788887023926e+00,1.603136301040649414e+00,1.603004932403564453e+00,1.602873563766479492e+00,1.602742195129394531e+00,1.602610826492309570e+00,1.602479457855224609e+00,1.602348089218139648e+00,1.602216839790344238e+00,1.602085590362548828e+00,1.601954340934753418e+00,1.601823091506958008e+00,1.601691842079162598e+00,1.601560831069946289e+00,1.601429700851440430e+00,1.601298570632934570e+00,1.601167440414428711e+00,1.601036310195922852e+00,1.600905299186706543e+00,1.600774168968200684e+00,1.600643157958984375e+00,1.600512146949768066e+00,1.600381135940551758e+00,1.600250124931335449e+00,1.600119233131408691e+00,1.599988222122192383e+00,1.599857330322265625e+00,1.599726438522338867e+00,1.599595546722412109e+00,1.599464774131774902e+00,1.599333882331848145e+00,1.599203348159790039e+00,1.599072456359863281e+00,1.598941802978515625e+00,1.598811030387878418e+00,1.598680257797241211e+00,1.598549604415893555e+00,1.598418951034545898e+00,1.598288297653198242e+00,1.598157644271850586e+00,1.598027110099792480e+00,1.597896456718444824e+00,1.597765922546386719e+00,1.597635388374328613e+00,1.597504854202270508e+00,1.597374320030212402e+00,1.597243905067443848e+00
1.467153191566467285e+00,1.467043042182922363e+00,1.466933012008666992e+00,1.466822981834411621e+00,1.466712951660156250e+00,1.466602921485900879e+00,1.466493010520935059e+00,1.466382980346679688e+00,1.466273069381713867e+00,1.466163039207458496e+00,1.466053128242492676e+00,1.465943217277526855e+00,1.465833306312561035e+00,1.465723514556884766e+00,1.465613722801208496e+00,1.465503931045532227e+00,1.465394020080566406e+00,1.465284228324890137e+00,1.465174436569213867e+00,1.465064644813537598e+00,1.464954972267150879e+00,1.464845180511474609e+00,1.464735388755798340e+00,1.464625716209411621e+00,1.464516043663024902e+00,1.464406371116638184e+00,1.464296698570251465e+00,1.464187026023864746e+00,1.464077472686767578e+00,1.463967800140380859e+00,1.463858246803283691e+00,1.463748574256896973e+00,1.463639140129089355e+00,1.463529586791992188e+00,1.463420152664184570e+00,1.463310599327087402e+00,1.463201045989990234e+00,1.463091611862182617e+00,1.462982177734375000e+00,1.462872743606567383e+00,1.462763309478759766e+00,1.462653875350952148e+00,1.462544441223144531e+00,1.462435126304626465e+00,1.462325692176818848e+00,1.462216377258300781e+00,1.462107062339782715e+00,1.461997747421264648e+00,1.461888432502746582e+00,1.461779117584228516e+00,1.461670041084289551e+00,1.461560726165771484e+00,1.461451530456542969e+00,1.461342334747314453e+00,1.461233019828796387e+00,1.461123943328857422e+00,1.461014747619628906e+00,1.460905551910400391e+00,1.460796475410461426e+00,1.460687279701232910e+00,1.460578203201293945e+00,1.460469126701354980e+00,1.460360050201416016e+00,1.460250973701477051e+00,1.460141897201538086e+00,1.460032939910888672e+00,1.459923863410949707e+00,1.459815025329589844e+00,1.459706068038940430e+00,1.459597110748291016e+00,1.459488153457641602e+00,1.459379196166992188e+00,1.459270358085632324e+00,1.459161400794982910e+00,1.459052562713623047e+00,1.458943724632263184e+00,1.458834886550903320e+00,1.458726048469543457e+00,1.458617210388183594e+00,1.458508372306823730e+00
1.349262475967407227e+00,1.349169373512268066e+00,1.349076390266418457e+00,1.348983287811279297e+00,1.348890185356140137e+00,1.348797202110290527e+00,1.348704099655151367e+00,1.348611116409301758e+00,1.348518133163452148e+00,1.348425149917602539e+00,1.348332166671752930e+00,1.348239183425903320e+00,1.348146200180053711e+00,1.348053216934204102e+00,1.347960352897644043e+00,1.347867488861083984e+00,1.347774505615234375e+00,1.347681760787963867e+00,1.347588896751403809e+00,1.347496032714843750e+00,1.347403168678283691e+00,1.347310304641723633e+00,1.347217559814453125e+00,1.347124695777893066e+00,1.347031950950622559e+00,1.346939086914062500e+00,1.346846342086791992e+00,1.346753597259521484e+00,1.346660852432250977e+00,1.346568107604980469e+00,1.346475362777709961e+00,1.346382617950439453e+00,1.346289992332458496e+00,1.346197247505187988e+00,1.346104621887207031e+00,1.346012115478515625e+00,1.345919370651245117e+00,1.345826745033264160e+00,1.345734119415283203e+00,1.345641493797302246e+00,1.345548987388610840e+00,1.345456361770629883e+00,1.345363736152648926e+00,1.345271229743957520e+00,1.345178723335266113e+00,1.345086097717285156e+00,1.344993591308593750e+00,1.344901084899902344e+00,1.344808578491210938e+00,1.344716191291809082e+00,1.344623684883117676e+00,1.344531178474426270e+00,1.344438791275024414e+00,1.344346404075622559e+00,1.344254016876220703e+00,1.344161629676818848e+00,1.344069242477416992e+00,1.343976855278015137e+00,1.343884468078613281e+00,1.343792080879211426e+00,1.343699812889099121e+00,1.343607425689697266e+00,1.343515157699584961e+00,1.343422770500183105e+00,1.343330502510070801e+00,1.343238234519958496e+00,1.343145966529846191e+00,1.343053698539733887e+00,1.342961430549621582e+00,1.342869281768798828e+00,1.342777013778686523e+00,1.342684984207153320e+00,1.342592716217041016e+00,1.342500567436218262e+00,1.342408418655395508e+00,1.342316269874572754e+00,1.342224121093750000e+00,1.342131972312927246e+00,1.342039823532104492e+00,1.341947793960571289e+00
1.248908519744873047e+00,1.248828649520874023e+00,1.248749017715454102e+00,1.248669385910034180e+00,1.248589634895324707e+00,1.248509883880615234e+00,1.248430132865905762e+00,1.248350501060485840e+00,1.248270750045776367e+00,1.248191118240356445e+00,1.248111367225646973e+00,1.248031735420227051e+00,1.247952103614807129e+00,1.247872471809387207e+00,1.247792840003967285e+00,1.247713208198547363e+00,1.247633576393127441e+00,1.247554063796997070e+00,1.247474431991577148e+00,1.247394800186157227e+00,1.247315287590026855e+00,1.247235774993896484e+00,1.247156262397766113e+00,1.247076749801635742e+00,1.246997237205505371e+00,1.246917605400085449e+00,1.246838092803955078e+00,1.246758699417114258e+00,1.246679186820983887e+00,1.246599674224853516e+00,1.246520161628723145e+00,1.246440768241882324e+00,1.246361255645751953e+00,1.246281862258911133e+00,1.246202468872070312e+00,1.246123075485229492e+00,1.246043562889099121e+00,1.245964169502258301e+00,1.245884895324707031e+00,1.245805501937866211e+00,1.245726227760314941e+00,1.245646834373474121e+00,1.245567440986633301e+00,1.245488166809082031e+00,1.245408773422241211e+00,1.245329499244689941e+00,1.245250225067138672e+00,1.245170950889587402e+00,1.245091557502746582e+00,1.245012283325195312e+00,1.244933009147644043e+00,1.244853854179382324e+00,1.244774580001831055e+00,1.244695305824279785e+00,1.244616150856018066e+00,1.244536876678466797e+00,1.244457721710205078e+00,1.244378566741943359e+00,1.244299411773681641e+00,1.244220256805419922e+00,1.244141101837158203e+00,1.244061946868896484e+00,1.243982791900634766e+00,1.243903636932373047e+00,1.243824481964111328e+00,1.243745326995849609e+00,1.243666291236877441e+00,1.243587136268615723e+00,1.243508100509643555e+00,1.243429064750671387e+00,1.243349909782409668e+00,1.243270874023437500e+00,1.243191838264465332e+00,1.243112802505493164e+00,1.243033885955810547e+00,1.242954850196838379e+00,1.242875933647155762e+00,1.242796897888183594e+00,1.242717862129211426e+00,1.242638945579528809e+00
1.162449121475219727e+00,1.162380099296569824e+00,1.162310957908630371e+00,1.162241935729980469e+00,1.162172794342041016e+00,1.162103772163391113e+00,1.162034749984741211e+00,1.161965727806091309e+00,1.161896705627441406e+00,1.161827683448791504e+00,1.161758661270141602e+00,1.161689639091491699e+00,1.161620616912841797e+00,1.161551594734191895e+00,1.161482572555541992e+00,1.161413550376892090e+00,1.161344647407531738e+00,1.161275625228881836e+00,1.161206722259521484e+00,1.161137700080871582e+00,1.161068797111511230e+00,1.160999894142150879e+00,1.160930871963500977e+00,1.160861968994140625e+00,1.160793185234069824e+00,1.160724282264709473e+00,1.160655379295349121e+00,1.160586476325988770e+00,1.160517573356628418e+00,1.160448670387268066e+00,1.160379886627197266e+00,1.160310983657836914e+00,1.160242080688476562e+00,1.160173296928405762e+00,1.160104513168334961e+00,1.160035610198974609e+00,1.159966826438903809e+00,1.159898042678833008e+00,1.159829258918762207e+00,1.159760475158691406e+00,1.159691691398620605e+00,1.159622907638549805e+00,1.159554123878479004e+00,1.159485459327697754e+00,1.159416675567626953e+00,1.159347891807556152e+00,1.159279227256774902e+00,1.159210443496704102e+00,1.159141778945922852e+00,1.159072995185852051e+00,1.159004330635070801e+00,1.158935666084289551e+00,1.158866882324218750e+00,1.158798217773437500e+00,1.158729553222656250e+00,1.158660888671875000e+00,1.158592224121093750e+00,1.158523678779602051e+00,1.158455014228820801e+00,1.158386349678039551e+00,1.158317804336547852e+00,1.158249258995056152e+00,1.158180594444274902e+00,1.158112049102783203e+00,1.158043503761291504e+00,1.157974839210510254e+00,1.157906293869018555e+00,1.157837748527526855e+00,1.157769203186035156e+00,1.157700657844543457e+00,1.157632112503051758e+00,1.157563567161560059e+00,1.157495021820068359e+00,1.157426595687866211e+00,1.157358050346374512e+00,1.157289505004882812e+00,1.157221078872680664e+00,1.157152652740478516e+00,1.157084226608276367e+00,1.157015681266784668e+00
1.087185621261596680e+00,1.087125062942504883e+00,1.087064623832702637e+00,1.087004303932189941e+00,1.086943864822387695e+00,1.086883425712585449e+00,1.086822986602783203e+00,1.086762547492980957e+00,1.086702227592468262e+00,1.086641907691955566e+00,1.086581468582153320e+00,1.086521148681640625e+00,1.086460709571838379e+00,1.086400389671325684e+00,1.086340069770812988e+00,1.086279630661010742e+00,1.086219310760498047e+00,1.086158990859985352e+00,1.086098670959472656e+00,1.086038351058959961e+00,1.085978031158447266e+00,1.085917711257934570e+00,1.085857391357421875e+00,1.085797190666198730e+00,1.085736870765686035e+00,1.085676550865173340e+00,1.085616350173950195e+00,1.085556149482727051e+00,1.085495829582214355e+00,1.085435628890991211e+00,1.085375308990478516e+00,1.085315108299255371e+00,1.085254907608032227e+00,1.085194587707519531e+00,1.085134387016296387e+00,1.085074186325073242e+00,1.085013985633850098e+00,1.084953784942626953e+00,1.084893584251403809e+00,1.084833383560180664e+00,1.084773182868957520e+00,1.084712982177734375e+00,1.084652900695800781e+00,1.084592700004577637e+00,1.084532499313354492e+00,1.084472417831420898e+00,1.084412336349487305e+00,1.084352135658264160e+00,1.084292054176330566e+00,1.084231972694396973e+00,1.084171772003173828e+00,1.084111690521240234e+00,1.084051609039306641e+00,1.083991527557373047e+00,1.083931446075439453e+00,1.083871364593505859e+00,1.083811283111572266e+00,1.083751201629638672e+00,1.083691120147705078e+00,1.083631038665771484e+00,1.083571076393127441e+00,1.083510994911193848e+00,1.083450913429260254e+00,1.083390951156616211e+00,1.083330988883972168e+00,1.083270907402038574e+00,1.083210945129394531e+00,1.083150982856750488e+00,1.083090901374816895e+00,1.083030939102172852e+00,1.082970976829528809e+00,1.082911014556884766e+00,1.082851052284240723e+00,1.082791090011596680e+00,1.082731127738952637e+00,1.082671165466308594e+00,1.082611203193664551e+00,1.082551240921020508e+00,1.082491397857666016e+00,1.082431435585021973e+00
1.021075367927551270e+00,1.021021962165832520e+00,1.020968675613403320e+00,1.020915389060974121e+00,1.020862102508544922e+00,1.020808815956115723e+00,1.020755529403686523e+00,1.020702242851257324e+00,1.020648956298828125e+00,1.020595669746398926e+00,1.020542383193969727e+00,1.020489096641540527e+00,1.020435929298400879e+00,1.020382642745971680e+00,1.020329475402832031e+00,1.020276188850402832e+00,1.020223021507263184e+00,1.020169734954833984e+00,1.020116567611694336e+00,1.020063281059265137e+00,1.020010113716125488e+00,1.019956946372985840e+00,1.019903659820556641e+00,1.019850492477416992e+00,1.019797325134277344e+00,1.019744157791137695e+00,1.019690990447998047e+00,1.019637823104858398e+00,1.019584655761718750e+00,1.019531488418579102e+00,1.019478321075439453e+00,1.019425272941589355e+00,1.019372105598449707e+00,1.019318938255310059e+00,1.019265770912170410e+00,1.019212722778320312e+00,1.019159555435180664e+00,1.019106507301330566e+00,1.019053339958190918e+00,1.019000291824340820e+00,1.018947124481201172e+00,1.018894076347351074e+00,1.018840909004211426e+00,1.018787860870361328e+00,1.018734812736511230e+00,1.018681764602661133e+00,1.018628597259521484e+00,1.018575549125671387e+00,1.018522500991821289e+00,1.018469572067260742e+00,1.018416523933410645e+00,1.018363475799560547e+00,1.018310427665710449e+00,1.018257379531860352e+00,1.018204331398010254e+00,1.018151402473449707e+00,1.018098354339599609e+00,1.018045306205749512e+00,1.017992377281188965e+00,1.017939329147338867e+00,1.017886400222778320e+00,1.017833352088928223e+00,1.017780423164367676e+00,1.017727375030517578e+00,1.017674446105957031e+00,1.017621517181396484e+00,1.017568588256835938e+00,1.017515659332275391e+00,1.017462730407714844e+00,1.017409801483154297e+00,1.017356872558593750e+00,1.017303943634033203e+00,1.017251014709472656e+00,1.017198085784912109e+00,1.017145156860351562e+00,1.017092227935791016e+00,1.017039299011230469e+00,1.016986489295959473e+00,1.016933560371398926e+00,1.016880631446838379e+00
9.625443816184997559e-01,9.624970555305480957e-01,9.624496698379516602e-01,9.624022841453552246e-01,9.623548984527587891e-01,9.623075127601623535e-01,9.622601866722106934e-01,9.622128009796142578e-01,9.621654748916625977e-01,9.621181488037109375e-01,9.620708227157592773e-01,9.620234966278076172e-01,9.619761705398559570e-01,9.619288444519042969e-01,9.618815183639526367e-01,9.618341922760009766e-01,9.617868661880493164e-01,9.617395997047424316e-01,9.616922736167907715e-01,9.616450071334838867e-01,9.615976810455322266e-01,9.615504145622253418e-01,9.615031480789184570e-01,9.614558815956115723e-01,9.614086151123046875e-01,9.613613486289978027e-01,9.613140821456909180e-01,9.612668156623840332e-01,9.612195491790771484e-01,9.611722826957702637e-01,9.611250758171081543e-01,9.610778093338012695e-01,9.610306024551391602e-01,9.609833359718322754e-01,9.609362483024597168e-01,9.608890414237976074e-01,9.608417749404907227e-01,9.607945680618286133e-01,9.607473611831665039e-01,9.607001543045043945e-01,9.606530070304870605e-01,9.606058001518249512e-01,9.605585932731628418e-01,9.605114459991455078e-01,9.604642391204833984e-01,9.604170918464660645e-01,9.603698849678039551e-01,9.603227376937866211e-01,9.602755904197692871e-01,9.602283835411071777e-01,9.601812362670898438e-01,9.601340889930725098e-01,9.600869417190551758e-01,9.600398540496826172e-01,9.599927067756652832e-01,9.599455595016479492e-01,9.598984718322753906e-01,9.598513245582580566e-01,9.598042368888854980e-01,9.597570896148681641e-01,9.597100019454956055e-01,9.596629142761230469e-01,9.596158266067504883e-01,9.595686793327331543e-01,9.595215916633605957e-01,9.594745635986328125e-01,9.594274759292602539e-01,9.593803882598876953e-01,9.593333005905151367e-01,9.592862725257873535e-01,9.592393040657043457e-01,9.591922760009765625e-01,9.591451883316040039e-01,9.590981602668762207e-01,9.590511322021484375e-01,9.590041041374206543e-01,9.589570164680480957e-01,9.589099884033203125e-01,9.588629603385925293e-01,9.588159918785095215e-01
9.103597998619079590e-01,9.103174209594726562e-01,9.102751612663269043e-01,9.102327823638916016e-01,9.101904034614562988e-01,9.101480841636657715e-01,9.101057052612304688e-01,9.100633263587951660e-01,9.100210070610046387e-01,9.099786281585693359e-01,9.099363088607788086e-01,9.098939299583435059e-01,9.098516106605529785e-01,9.098092913627624512e-01,9.097669720649719238e-01,9.097245931625366211e-01,9.096822738647460938e-01,9.096399545669555664e-01,9.095976352691650391e-01,9.095553755760192871e-01,9.095130562782287598e-01,9.094707369804382324e-01,9.094284176826477051e-01,9.093861579895019531e-01,9.093438386917114258e-01,9.093015789985656738e-01,9.092593193054199219e-01,9.092170000076293945e-01,9.091747403144836426e-01,9.091324806213378906e-01,9.090902209281921387e-01,9.090479612350463867e-01,9.090057015419006348e-01,9.089634418487548828e-01,9.089211821556091309e-01,9.088789224624633789e-01,9.088366627693176270e-01,9.087945222854614258e-01,9.087523221969604492e-01,9.087100625038146973e-01,9.086678624153137207e-01,9.086256027221679688e-01,9.085834026336669922e-01,9.085412025451660156e-01,9.084990024566650391e-01,9.084567427635192871e-01,9.084145426750183105e-01,9.083723425865173340e-01,9.083301424980163574e-01,9.082880020141601562e-01,9.082458019256591797e-01,9.082036018371582031e-01,9.081614017486572266e-01,9.081192612648010254e-01,9.080770611763000488e-01,9.080349206924438477e-01,9.079927206039428711e-01,9.079505801200866699e-01,9.079084396362304688e-01,9.078662991523742676e-01,9.078240990638732910e-01,9.077819585800170898e-01,9.077398180961608887e-01,9.076976776123046875e-01,9.076555371284484863e-01,9.076134562492370605e-01,9.075713157653808594e-01,9.075291752815246582e-01,9.074870944023132324e-01,9.074449539184570312e-01,9.074028134346008301e-01,9.073607325553894043e-01,9.073186516761779785e-01,9.072766304016113281e-01,9.072345495223999023e-01,9.071924686431884766e-01,9.071503877639770508e-01,9.071083068847656250e-01,9.070662260055541992e-01,9.070241451263427734e-01
8.635427355766296387e-01,8.635045886039733887e-01,8.634665012359619141e-01,8.634283542633056641e-01,8.633902072906494141e-01,8.633521795272827148e-01,8.633140921592712402e-01,8.632759451866149902e-01,8.632378578186035156e-01,8.631997704505920410e-01,8.631616234779357910e-01,8.631235361099243164e-01,8.630854487419128418e-01,8.630473613739013672e-01,8.630092740058898926e-01,8.629711866378784180e-01,8.629330992698669434e-01,8.628950119018554688e-01,8.628569245338439941e-01,8.628188371658325195e-01,8.627808094024658203e-01,8.627427220344543457e-01,8.627046346664428711e-01,8.626666069030761719e-01,8.626285195350646973e-01,8.625904917716979980e-01,8.625524640083312988e-01,8.625143766403198242e-01,8.624763488769531250e-01,8.624383211135864258e-01,8.624002933502197266e-01,8.623622059822082520e-01,8.623241782188415527e-01,8.622861504554748535e-01,8.622481822967529297e-01,8.622101545333862305e-01,8.621721267700195312e-01,8.621340990066528320e-01,8.620960712432861328e-01,8.620581030845642090e-01,8.620200753211975098e-01,8.619821667671203613e-01,8.619441986083984375e-01,8.619061708450317383e-01,8.618682026863098145e-01,8.618302345275878906e-01,8.617922067642211914e-01,8.617542386054992676e-01,8.617162704467773438e-01,8.616783022880554199e-01,8.616403341293334961e-01,8.616023659706115723e-01,8.615643978118896484e-01,8.615264296531677246e-01,8.614884614944458008e-01,8.614505529403686523e-01,8.614125847816467285e-01,8.613746166229248047e-01,8.613367080688476562e-01,8.612987399101257324e-01,8.612608313560485840e-01,8.612228631973266602e-01,8.611849546432495117e-01,8.611470460891723633e-01,8.611090779304504395e-01,8.610711693763732910e-01,8.610332608222961426e-01,8.609953522682189941e-01,8.609574437141418457e-01,8.609195351600646973e-01,8.608816266059875488e-01,8.608437180519104004e-01,8.608058094978332520e-01,8.607679605484008789e-01,8.607300519943237305e-01,8.606921434402465820e-01,8.606543540954589844e-01,8.606165051460266113e-01,8.605785965919494629e-01,8.605407476425170898e-01
8.213054537773132324e-01,8.212710022926330566e-01,8.212364912033081055e-01,8.212019801139831543e-01,8.211675286293029785e-01,8.211330175399780273e-01,8.210985660552978516e-01,8.210640549659729004e-01,8.210296630859375000e-01,8.209952116012573242e-01,8.209607601165771484e-01,8.209262490272521973e-01,8.208917975425720215e-01,8.208573460578918457e-01,8.208228945732116699e-01,8.207884430885314941e-01,8.207539916038513184e-01,8.207195401191711426e-01,8.206850886344909668e-01,8.206506371498107910e-01,8.206161856651306152e-01,8.205817937850952148e-01,8.205473423004150391e-01,8.205128908157348633e-01,8.204784989356994629e-01,8.204440474510192871e-01,8.204096555709838867e-01,8.203752040863037109e-01,8.203408122062683105e-01,8.203063607215881348e-01,8.202719688415527344e-01,8.202375769615173340e-01,8.202031850814819336e-01,8.201687335968017578e-01,8.201343417167663574e-01,8.200999498367309570e-01,8.200655579566955566e-01,8.200311660766601562e-01,8.199967741966247559e-01,8.199623823165893555e-01,8.199280500411987305e-01,8.198936581611633301e-01,8.198592662811279297e-01,8.198248744010925293e-01,8.197906017303466797e-01,8.197562098503112793e-01,8.197218775749206543e-01,8.196874856948852539e-01,8.196531534194946289e-01,8.196187615394592285e-01,8.195844292640686035e-01,8.195500969886779785e-01,8.195157647132873535e-01,8.194813728332519531e-01,8.194470405578613281e-01,8.194127082824707031e-01,8.193783760070800781e-01,8.193440437316894531e-01,8.193097114562988281e-01,8.192753791809082031e-01,8.192410469055175781e-01,8.192067146301269531e-01,8.191724419593811035e-01,8.191381096839904785e-01,8.191037774085998535e-01,8.190695047378540039e-01,8.190351724624633789e-01,8.190008401870727539e-01,8.189665675163269043e-01,8.189322352409362793e-01,8.188979625701904297e-01,8.188636898994445801e-01,8.188293576240539551e-01,8.187950849533081055e-01,8.187608122825622559e-01,8.187265396118164062e-01,8.186922669410705566e-01,8.186579942703247070e-01,8.186237215995788574e-01,8.185894489288330078e-01
7.830073237419128418e-01,7.829759716987609863e-01,7.829446196556091309e-01,7.829132676124572754e-01,7.828819155693054199e-01,7.828506231307983398e-01,7.828192710876464844e-01,7.827879190444946289e-01,7.827565670013427734e-01,7.827252149581909180e-01,7.826939225196838379e-01,7.826625704765319824e-01,7.826313376426696777e-01,7.825999855995178223e-01,7.825686931610107422e-01,7.825373411178588867e-01,7.825060486793518066e-01,7.824747562408447266e-01,7.824434041976928711e-01,7.824121117591857910e-01,7.823808193206787109e-01,7.823495268821716309e-01,7.823182344436645508e-01,7.822868824005126953e-01,7.822555899620056152e-01,7.822242975234985352e-01,7.821930050849914551e-01,7.821617722511291504e-01,7.821304798126220703e-01,7.820991873741149902e-01,7.820678949356079102e-01,7.820366024971008301e-01,7.820053100585937500e-01,7.819740772247314453e-01,7.819427847862243652e-01,7.819115519523620605e-01,7.818802595138549805e-01,7.818489670753479004e-01,7.818177342414855957e-01,7.817865014076232910e-01,7.817552089691162109e-01,7.817239761352539062e-01,7.816927433013916016e-01,7.816614508628845215e-01,7.816302180290222168e-01,7.815989851951599121e-01,7.815677523612976074e-01,7.815365791320800781e-01,7.815053462982177734e-01,7.814741134643554688e-01,7.814428806304931641e-01,7.814116477966308594e-01,7.813804149627685547e-01,7.813491821289062500e-01,7.813179492950439453e-01,7.812867760658264160e-01,7.812555432319641113e-01,7.812243103981018066e-01,7.811931371688842773e-01,7.811619043350219727e-01,7.811306715011596680e-01,7.810994982719421387e-01,7.810683250427246094e-01,7.810370922088623047e-01,7.810059189796447754e-01,7.809746861457824707e-01,7.809435129165649414e-01,7.809123396873474121e-01,7.808811664581298828e-01,7.808499336242675781e-01,7.808187603950500488e-01,7.807875871658325195e-01,7.807564139366149902e-01,7.807252407073974609e-01,7.806940674781799316e-01,7.806628942489624023e-01,7.806317210197448730e-01,7.806006073951721191e-01,7.805694341659545898e-01,7.805382609367370605e-01
7.481217980384826660e-01,7.480931878089904785e-01,7.480645775794982910e-01,7.480359077453613281e-01,7.480072975158691406e-01,7.479786872863769531e-01,7.479500770568847656e-01,7.479214668273925781e-01,7.478928565979003906e-01,7.478643059730529785e-01,7.478356957435607910e-01,7.478070855140686035e-01,7.477784752845764160e-01,7.477498650550842285e-01,7.477213144302368164e-01,7.476927638053894043e-01,7.476641535758972168e-01,7.476356029510498047e-01,7.476069927215576172e-01,7.475784420967102051e-01,7.475498318672180176e-01,7.475212812423706055e-01,7.474926710128784180e-01,7.474641203880310059e-01,7.474355697631835938e-01,7.474069595336914062e-01,7.473784089088439941e-01,7.473498582839965820e-01,7.473212480545043945e-01,7.472926974296569824e-01,7.472641468048095703e-01,7.472355961799621582e-01,7.472070455551147461e-01,7.471784949302673340e-01,7.471499443054199219e-01,7.471213936805725098e-01,7.470928430557250977e-01,7.470642924308776855e-01,7.470357418060302734e-01,7.470072507858276367e-01,7.469787001609802246e-01,7.469501495361328125e-01,7.469215989112854004e-01,7.468931078910827637e-01,7.468645572662353516e-01,7.468360662460327148e-01,7.468075156211853027e-01,7.467790246009826660e-01,7.467504739761352539e-01,7.467219829559326172e-01,7.466934323310852051e-01,7.466650009155273438e-01,7.466365098953247070e-01,7.466079592704772949e-01,7.465794682502746582e-01,7.465509772300720215e-01,7.465224862098693848e-01,7.464939355850219727e-01,7.464654445648193359e-01,7.464369535446166992e-01,7.464084625244140625e-01,7.463799715042114258e-01,7.463514804840087891e-01,7.463229894638061523e-01,7.462945580482482910e-01,7.462660670280456543e-01,7.462375760078430176e-01,7.462090849876403809e-01,7.461805939674377441e-01,7.461521625518798828e-01,7.461236715316772461e-01,7.460951805114746094e-01,7.460667490959167480e-01,7.460382580757141113e-01,7.460098266601562500e-01,7.459813356399536133e-01,7.459529042243957520e-01,7.459244132041931152e-01,7.458959817886352539e-01,7.458675503730773926e-01
7.162122130393981934e-01,7.161859273910522461e-01,7.161597013473510742e-01,7.161334753036499023e-01,7.161072492599487305e-01,7.160810232162475586e-01,7.160547971725463867e-01,7.160286307334899902e-01,7.160024046897888184e-01,7.159761786460876465e-01,7.159499526023864746e-01,7.159237265586853027e-01,7.158975005149841309e-01,7.158713340759277344e-01,7.158451080322265625e-01,7.158188819885253906e-01,7.157927155494689941e-01,7.157664895057678223e-01,7.157403826713562012e-01,7.157141566276550293e-01,7.156879901885986328e-01,7.156617641448974609e-01,7.156355977058410645e-01,7.156093716621398926e-01,7.155832052230834961e-01,7.155570387840270996e-01,7.155308127403259277e-01,7.155046463012695312e-01,7.154784798622131348e-01,7.154523134231567383e-01,7.154261469841003418e-01,7.153999209403991699e-01,7.153737545013427734e-01,7.153475880622863770e-01,7.153214216232299805e-01,7.152952551841735840e-01,7.152690887451171875e-01,7.152429223060607910e-01,7.152167558670043945e-01,7.151906490325927734e-01,7.151644825935363770e-01,7.151383161544799805e-01,7.151121497154235840e-01,7.150859832763671875e-01,7.150598764419555664e-01,7.150337100028991699e-01,7.150075435638427734e-01,7.149814367294311523e-01,7.149552702903747559e-01,7.149291634559631348e-01,7.149029970169067383e-01,7.148768901824951172e-01,7.148507237434387207e-01,7.148246169090270996e-01,7.147985100746154785e-01,7.147724032402038574e-01,7.147462964057922363e-01,7.147201299667358398e-01,7.146940231323242188e-01,7.146679162979125977e-01,7.146418094635009766e-01,7.146156430244445801e-01,7.145895361900329590e-01,7.145634293556213379e-01,7.145373225212097168e-01,7.145112156867980957e-01,7.144851088523864746e-01,7.144590020179748535e-01,7.144328951835632324e-01,7.144067883491516113e-01,7.143806815147399902e-01,7.143545746803283691e-01,7.143285274505615234e-01,7.143024206161499023e-01,7.142763137817382812e-01,7.142502069473266602e-01,7.142241597175598145e-01,7.141980528831481934e-01,7.141719460487365723e-01,7.141458988189697266e-01
6.869133114814758301e-01,6.868891716003417969e-01,6.868650913238525391e-01,6.868409514427185059e-01,6.868168115615844727e-01,6.867926716804504395e-01,6.867685914039611816e-01,6.867444515228271484e-01,6.867203116416931152e-01,6.866962313652038574e-01,6.866720914840698242e-01,6.866480112075805664e-01,6.866238713264465332e-01,6.865997910499572754e-01,6.865756511688232422e-01,6.865515708923339844e-01,6.865274310111999512e-01,6.865033507347106934e-01,6.864792108535766602e-01,6.864551305770874023e-01,6.864310503005981445e-01,6.864069700241088867e-01,6.863828897476196289e-01,6.863588094711303711e-01,6.863347291946411133e-01,6.863106489181518555e-01,6.862865686416625977e-01,6.862624883651733398e-01,6.862383484840393066e-01,6.862142682075500488e-01,6.861901879310607910e-01,6.861661076545715332e-01,6.861420869827270508e-01,6.861180067062377930e-01,6.860939264297485352e-01,6.860698461532592773e-01,6.860457658767700195e-01,6.860216856002807617e-01,6.859976053237915039e-01,6.859735846519470215e-01,6.859495043754577637e-01,6.859254240989685059e-01,6.859014034271240234e-01,6.858773231506347656e-01,6.858532428741455078e-01,6.858292222023010254e-01,6.858051419258117676e-01,6.857811212539672852e-01,6.857570409774780273e-01,6.857330203056335449e-01,6.857089400291442871e-01,6.856849193572998047e-01,6.856608390808105469e-01,6.856368184089660645e-01,6.856127977371215820e-01,6.855887174606323242e-01,6.855646967887878418e-01,6.855407357215881348e-01,6.855167150497436523e-01,6.854926347732543945e-01,6.854686141014099121e-01,6.854445934295654297e-01,6.854205727577209473e-01,6.853965520858764648e-01,6.853725314140319824e-01,6.853485107421875000e-01,6.853244900703430176e-01,6.853004693984985352e-01,6.852764487266540527e-01,6.852524280548095703e-01,6.852284073829650879e-01,6.852043867111206055e-01,6.851803660392761230e-01,6.851564049720764160e-01,6.851323843002319336e-01,6.851083636283874512e-01,6.850844025611877441e-01,6.850603818893432617e-01,6.850363612174987793e-01,6.850124001502990723e-01
6.599173545837402344e-01,6.598950624465942383e-01,6.598728299140930176e-01,6.598505377769470215e-01,6.598283052444458008e-01,6.598060131072998047e-01,6.597837805747985840e-01,6.597614884376525879e-01,6.597392559051513672e-01,6.597169637680053711e-01,6.596947312355041504e-01,6.596724987030029297e-01,6.596502065658569336e-01,6.596279740333557129e-01,6.596057415008544922e-01,6.595834493637084961e-01,6.595612168312072754e-01,6.595389842987060547e-01,6.595167517662048340e-01,6.594944596290588379e-01,6.594722270965576172e-01,6.594499945640563965e-01,6.594277620315551758e-01,6.594055294990539551e-01,6.593832969665527344e-01,6.593611240386962891e-01,6.593388915061950684e-01,6.593166589736938477e-01,6.592944264411926270e-01,6.592721939086914062e-01,6.592499613761901855e-01,6.592277288436889648e-01,6.592054963111877441e-01,6.591832637786865234e-01,6.591610908508300781e-01,6.591388583183288574e-01,6.591166257858276367e-01,6.590943932533264160e-01,6.590722203254699707e-01,6.590499877929687500e-01,6.590277552604675293e-01,6.590055823326110840e-01,6.589833498001098633e-01,6.589611172676086426e-01,6.589389443397521973e-01,6.589167118072509766e-01,6.588945388793945312e-01,6.588723063468933105e-01,6.588501334190368652e-01,6.588279008865356445e-01,6.588057279586791992e-01,6.587835550308227539e-01,6.587613224983215332e-01,6.587391495704650879e-01,6.587169766426086426e-01,6.586947441101074219e-01,6.586725711822509766e-01,6.586503982543945312e-01,6.586282253265380859e-01,6.586059927940368652e-01,6.585838198661804199e-01,6.585617065429687500e-01,6.585395336151123047e-01,6.585173606872558594e-01,6.584951877593994141e-01,6.584730148315429688e-01,6.584508419036865234e-01,6.584286689758300781e-01,6.584064960479736328e-01,6.583843231201171875e-01,6.583621501922607422e-01,6.583399772644042969e-01,6.583178043365478516e-01,6.582956314086914062e-01,6.582735180854797363e-01,6.582513451576232910e-01,6.582291722297668457e-01,6.582069993019104004e-01,6.581848859786987305e-01,6.581627130508422852e-01
6.349630355834960938e-01,6.349424123764038086e-01,6.349217891693115234e-01,6.349012255668640137e-01,6.348806023597717285e-01,6.348599791526794434e-01,6.348393559455871582e-01,6.348187327384948730e-01,6.347981691360473633e-01,6.347775459289550781e-01,6.347569227218627930e-01,6.347362995147705078e-01,6.347157359123229980e-01,6.346951127052307129e-01,6.346744894981384277e-01,6.346539258956909180e-01,6.346333026885986328e-01,6.346127390861511230e-01,6.345921158790588379e-01,6.345715522766113281e-01,6.345509290695190430e-01,6.345303654670715332e-01,6.345097422599792480e-01,6.344891786575317383e-01,6.344685554504394531e-01,6.344479918479919434e-01,6.344274282455444336e-01,6.344068050384521484e-01,6.343863010406494141e-01,6.343657374382019043e-01,6.343451142311096191e-01,6.343245506286621094e-01,6.343039870262145996e-01,6.342834234237670898e-01,6.342628598213195801e-01,6.342422366142272949e-01,6.342216730117797852e-01,6.342011094093322754e-01,6.341805458068847656e-01,6.341599822044372559e-01,6.341394186019897461e-01,6.341188549995422363e-01,6.340982913970947266e-01,6.340777277946472168e-01,6.340571641921997070e-01,6.340366005897521973e-01,6.340160369873046875e-01,6.339954733848571777e-01,6.339749097824096680e-01,6.339544057846069336e-01,6.339338421821594238e-01,6.339132785797119141e-01,6.338927149772644043e-01,6.338721513748168945e-01,6.338516473770141602e-01,6.338310837745666504e-01,6.338105201721191406e-01,6.337900161743164062e-01,6.337694525718688965e-01,6.337489485740661621e-01,6.337283849716186523e-01,6.337078213691711426e-01,6.336873173713684082e-01,6.336667537689208984e-01,6.336462497711181641e-01,6.336257457733154297e-01,6.336051821708679199e-01,6.335846781730651855e-01,6.335641741752624512e-01,6.335436105728149414e-01,6.335231065750122070e-01,6.335026025772094727e-01,6.334820389747619629e-01,6.334615349769592285e-01,6.334410309791564941e-01,6.334204673767089844e-01,6.333999633789062500e-01,6.333794593811035156e-01,6.333589553833007812e-01,6.333384513854980469e-01
