5.000000000000000000e+00,5.000000000000000000e+00,5.000000000000000000e+00,5.000000000000000000e+00,5.000000000000000000e+00,5.000000000000000000e+00,5.000000000000000000e+00,5.000000000000000000e+00,5.000000000000000000e+00,5.000000000000000000e+00,5.000000000000000000e+00,5.000000000000000000e+00,5.000000000000000000e+00,5.000000000000000000e+00,5.000000000000000000e+00,5.000000000000000000e+00,5.000000000000000000e+00,5.000000000000000000e+00,5.000000000000000000e+00,5.000000000000000000e+00,5.000000000000000000e+00,5.000000000000000000e+00,5.000000000000000000e+00,5.000000000000000000e+00,5.000000000000000000e+00,5.000000000000000000e+00,5.000000000000000000e+00,5.000000000000000000e+00,5.000000000000000000e+00,2.151164054870605469e+00,2.138386249542236328e+00,2.142428398132324219e+00,2.108705282211303711e+00,2.095920562744140625e+00,2.093502044677734375e+00,2.099137544631958008e+00,2.111156463623046875e+00,2.135392665863037109e+00,2.190997838973999023e+00,2.262128591537475586e+00,2.287080526351928711e+00,4.497009754180908203e+00,4.333146095275878906e+00,4.180803775787353516e+00,4.038810253143310547e+00,3.906145334243774414e+00,3.781918048858642578e+00,3.665348768234252930e+00,3.555751085281372070e+00,3.452517032623291016e+00,3.355108261108398438e+00,3.263045072555541992e+00,3.175899505615234375e+00,3.093287706375122070e+00,3.014864444732666016e+00,2.940319538116455078e+00,2.869372129440307617e+00,2.801767587661743164e+00,2.737275600433349609e+00,2.675685882568359375e+00,2.616806507110595703e+00,2.560462713241577148e+00,2.506494283676147461e+00,2.454753637313842773e+00,2.405106067657470703e+00,2.357427120208740234e+00,2.311601638793945312e+00,2.267523765563964844e+00,2.225095272064208984e+00,2.184225559234619141e+00,2.144830226898193359e+00,2.106830596923828125e+00,2.070153951644897461e+00,2.034732580184936523e+00,2.000503063201904297e+00,1.967406034469604492e+00,1.935386300086975098e+00,1.904392123222351074e+00,1.874374866485595703e+00,1.845289468765258789e+00
5.000000000000000000e+00,5.000000000000000000e+00,5.000000000000000000e+00,5.000000000000000000e+00,5.000000000000000000e+00,5.000000000000000000e+00,5.000000000000000000e+00,5.000000000000000000e+00,5.000000000000000000e+00,5.000000000000000000e+00,5.000000000000000000e+00,5.000000000000000000e+00,5.000000000000000000e+00,5.000000000000000000e+00,5.000000000000000000e+00,5.000000000000000000e+00,5.000000000000000000e+00,5.000000000000000000e+00,5.000000000000000000e+00,5.000000000000000000e+00,5.000000000000000000e+00,5.000000000000000000e+00,5.000000000000000000e+00,5.000000000000000000e+00,5.000000000000000000e+00,5.000000000000000000e+00,5.000000000000000000e+00,5.000000000000000000e+00,5.000000000000000000e+00,2.152148008346557617e+00,2.145320415496826172e+00,2.158708572387695312e+00,2.109726667404174805e+00,2.096363067626953125e+00,2.098590612411499023e+00,2.102743148803710938e+00,2.111308336257934570e+00,2.135993480682373047e+00,2.206883430480957031e+00,2.266776323318481445e+00,2.298568725585937500e+00,4.497128009796142578e+00,4.333255767822265625e+00,4.180906772613525391e+00,4.038905620574951172e+00,3.906234264373779297e+00,3.782001972198486328e+00,3.665427684783935547e+00,3.555824995040893555e+00,3.452586889266967773e+00,3.355174064636230469e+00,3.263107776641845703e+00,3.175958633422851562e+00,3.093343496322631836e+00,3.014917850494384766e+00,2.940370321273803711e+00,2.869420289993286133e+00,2.801813840866088867e+00,2.737319469451904297e+00,2.675727844238281250e+00,2.616846561431884766e+00,2.560501098632812500e+00,2.506531000137329102e+00,2.454788923263549805e+00,2.405139923095703125e+00,2.357459783554077148e+00,2.311632871627807617e+00,2.267553806304931641e+00,2.225124359130859375e+00,2.184253454208374023e+00,2.144857168197631836e+00,2.106856584548950195e+00,2.070178985595703125e+00,2.034756898880004883e+00,2.000526428222656250e+00,1.967428922653198242e+00,1.935408115386962891e+00,1.904413342475891113e+00,1.874395608901977539e+00,1.845309257507324219e+00
5.000000000000000000e+00,5.000000000000000000e+00,5.000000000000000000e+00,5.000000000000000000e+00,5.000000000000000000e+00,5.000000000000000000e+00,5.000000000000000000e+00,5.000000000000000000e+00,5.000000000000000000e+00,5.000000000000000000e+00,5.000000000000000000e+00,5.000000000000000000e+00,5.000000000000000000e+00,5.000000000000000000e+00,5.000000000000000000e+00,5.000000000000000000e+00,5.000000000000000000e+00,5.000000000000000000e+00,5.000000000000000000e+00,5.000000000000000000e+00,5.000000000000000000e+00,5.000000000000000000e+00,5.000000000000000000e+00,5.000000000000000000e+00,5.000000000000000000e+00,5.000000000000000000e+00,5.000000000000000000e+00,5.000000000000000000e+00,5.000000000000000000e+00,2.155691623687744141e+00,2.153533935546875000e+00,2.145339727401733398e+00,2.099184989929199219e+00,2.087610483169555664e+00,2.089243650436401367e+00,2.095718622207641602e+00,2.101058244705200195e+00,2.121764421463012695e+00,2.194879770278930664e+00,2.280511617660522461e+00,2.314680337905883789e+00,4.497246742248535156e+00,4.333365917205810547e+00,4.181008815765380859e+00,4.039001464843750000e+00,3.906323909759521484e+00,3.782085657119750977e+00,3.665506601333618164e+00,3.555899143218994141e+00,3.452656507492065430e+00,3.355240106582641602e+00,3.263170003890991211e+00,3.176017522811889648e+00,3.093399763107299805e+00,3.014971017837524414e+00,2.940421104431152344e+00,2.869468688964843750e+00,2.801859617233276367e+00,2.737363338470458984e+00,2.675769567489624023e+00,2.616886615753173828e+00,2.560539484024047852e+00,2.506567716598510742e+00,2.454824447631835938e+00,2.405173778533935547e+00,2.357492208480834961e+00,2.311664104461669922e+00,2.267583847045898438e+00,2.225153207778930664e+00,2.184281587600708008e+00,2.144884109497070312e+00,2.106882810592651367e+00,2.070204257965087891e+00,2.034781217575073242e+00,2.000550031661987305e+00,1.967451453208923340e+00,1.935430049896240234e+00,1.904434561729431152e+00,1.874416112899780273e+00,1.845329403877258301e+00
5.000000000000000000e+00,5.000000000000000000e+00,5.000000000000000000e+00,5.000000000000000000e+00,5.000000000000000000e+00,5.000000000000000000e+00,5.000000000000000000e+00,5.000000000000000000e+00,5.000000000000000000e+00,5.000000000000000000e+00,5.000000000000000000e+00,5.000000000000000000e+00,5.000000000000000000e+00,5.000000000000000000e+00,5.000000000000000000e+00,5.000000000000000000e+00,5.000000000000000000e+00,5.000000000000000000e+00,5.000000000000000000e+00,5.000000000000000000e+00,5.000000000000000000e+00,5.000000000000000000e+00,5.000000000000000000e+00,5.000000000000000000e+00,5.000000000000000000e+00,5.000000000000000000e+00,5.000000000000000000e+00,5.000000000000000000e+00,5.000000000000000000e+00,2.159577131271362305e+00,2.161082029342651367e+00,2.137784004211425781e+00,2.094362735748291016e+00,2.082987785339355469e+00,2.083695650100708008e+00,2.088141202926635742e+00,2.096072912216186523e+00,2.114327430725097656e+00,2.175245285034179688e+00,2.297354221343994141e+00,2.330471038818359375e+00,4.497364997863769531e+00,4.333476066589355469e+00,4.181111335754394531e+00,4.039097309112548828e+00,3.906413078308105469e+00,3.782169580459594727e+00,3.665585041046142578e+00,3.555973529815673828e+00,3.452726602554321289e+00,3.355305910110473633e+00,3.263232469558715820e+00,3.176076889038085938e+00,3.093455553054809570e+00,3.015024423599243164e+00,2.940471649169921875e+00,2.869516849517822266e+00,2.801905632019042969e+00,2.737407207489013672e+00,2.675811767578125000e+00,2.616926908493041992e+00,2.560577869415283203e+00,2.506604671478271484e+00,2.454859495162963867e+00,2.405207872390747070e+00,2.357524871826171875e+00,2.311695337295532227e+00,2.267614126205444336e+00,2.225182294845581055e+00,2.184309482574462891e+00,2.144911050796508789e+00,2.106908559799194336e+00,2.070229291915893555e+00,2.034805536270141602e+00,2.000573396682739258e+00,1.967474102973937988e+00,1.935452103614807129e+00,1.904455780982971191e+00,1.874436616897583008e+00,1.845349311828613281e+00
5.000000000000000000e+00,5.000000000000000000e+00,5.000000000000000000e+00,5.000000000000000000e+00,5.000000000000000000e+00,5.000000000000000000e+00,5.000000000000000000e+00,5.000000000000000000e+00,5.000000000000000000e+00,5.000000000000000000e+00,5.000000000000000000e+00,5.000000000000000000e+00,5.000000000000000000e+00,5.000000000000000000e+00,5.000000000000000000e+00,5.000000000000000000e+00,5.000000000000000000e+00,5.000000000000000000e+00,5.000000000000000000e+00,5.000000000000000000e+00,5.000000000000000000e+00,5.000000000000000000e+00,5.000000000000000000e+00,5.000000000000000000e+00,5.000000000000000000e+00,5.000000000000000000e+00,5.000000000000000000e+00,5.000000000000000000e+00,5.000000000000000000e+00,2.124201536178588867e+00,2.131479263305664062e+00,2.133247375488281250e+00,2.109306335449218750e+00,2.095913171768188477e+00,2.092632532119750977e+00,2.097491741180419922e+00,2.108614921569824219e+00,2.131746768951416016e+00,2.184709787368774414e+00,2.307913064956665039e+00,2.345864534378051758e+00,4.497483253479003906e+00,4.333585739135742188e+00,4.181213855743408203e+00,4.039192676544189453e+00,3.906502723693847656e+00,3.782253026962280273e+00,3.665663957595825195e+00,3.556047201156616211e+00,3.452796220779418945e+00,3.355371952056884766e+00,3.263294696807861328e+00,3.176136016845703125e+00,3.093511819839477539e+00,3.015077352523803711e+00,2.940522432327270508e+00,2.869565010070800781e+00,2.801951646804809570e+00,2.737451314926147461e+00,2.675853490829467773e+00,2.616966962814331055e+00,2.560616254806518555e+00,2.506641387939453125e+00,2.454895019531250000e+00,2.405241727828979492e+00,2.357557296752929688e+00,2.311726808547973633e+00,2.267644166946411133e+00,2.225211381912231445e+00,2.184337377548217773e+00,2.144937992095947266e+00,2.106934785842895508e+00,2.070254325866699219e+00,2.034829616546630859e+00,2.000596761703491211e+00,1.967496752738952637e+00,1.935474038124084473e+00,1.904477119445800781e+00,1.874457240104675293e+00,1.845369219779968262e+00
5.000000000000000000e+00,5.000000000000000000e+00,5.000000000000000000e+00,5.000000000000000000e+00,5.000000000000000000e+00,5.000000000000000000e+00,5.000000000000000000e+00,5.000000000000000000e+00,5.000000000000000000e+00,5.000000000000000000e+00,5.000000000000000000e+00,5.000000000000000000e+00,5.000000000000000000e+00,5.000000000000000000e+00,5.000000000000000000e+00,5.000000000000000000e+00,5.000000000000000000e+00,5.000000000000000000e+00,5.000000000000000000e+00,5.000000000000000000e+00,5.000000000000000000e+00,5.000000000000000000e+00,5.000000000000000000e+00,5.000000000000000000e+00,5.000000000000000000e+00,5.000000000000000000e+00,5.000000000000000000e+00,5.000000000000000000e+00,5.000000000000000000e+00,2.099637985229492188e+00,2.110217571258544922e+00,2.128548860549926758e+00,2.109161376953125000e+00,2.099797010421752930e+00,2.097563982009887695e+00,2.104108333587646484e+00,2.114766597747802734e+00,2.132334470748901367e+00,2.167093753814697266e+00,2.298390626907348633e+00,2.314992904663085938e+00,4.497601985931396484e+00,4.333695888519287109e+00,4.181315898895263672e+00,4.039288043975830078e+00,3.906591892242431641e+00,3.782336950302124023e+00,3.665742397308349609e+00,3.556121587753295898e+00,3.452866077423095703e+00,3.355437755584716797e+00,3.263357162475585938e+00,3.176194906234741211e+00,3.093567848205566406e+00,3.015130758285522461e+00,2.940572738647460938e+00,2.869613409042358398e+00,2.801997661590576172e+00,2.737494945526123047e+00,2.675895452499389648e+00,2.617007017135620117e+00,2.560654640197753906e+00,2.506678342819213867e+00,2.454930067062377930e+00,2.405275583267211914e+00,2.357589960098266602e+00,2.311758041381835938e+00,2.267674207687377930e+00,2.225240230560302734e+00,2.184365272521972656e+00,2.144964933395385742e+00,2.106960535049438477e+00,2.070279598236083984e+00,2.034853935241699219e+00,2.000620126724243164e+00,1.967519521713256836e+00,1.935495853424072266e+00,1.904498338699340820e+00,1.874477863311767578e+00,1.845389127731323242e+00
5.000000000000000000e+00,5.000000000000000000e+00,5.000000000000000000e+00,5.000000000000000000e+00,5.000000000000000000e+00,5.000000000000000000e+00,5.000000000000000000e+00,5.000000000000000000e+00,5.000000000000000000e+00,5.000000000000000000e+00,5.000000000000000000e+00,5.000000000000000000e+00,5.000000000000000000e+00,5.000000000000000000e+00,5.000000000000000000e+00,5.000000000000000000e+00,5.000000000000000000e+00,5.000000000000000000e+00,5.000000000000000000e+00,5.000000000000000000e+00,5.000000000000000000e+00,5.000000000000000000e+00,5.000000000000000000e+00,5.000000000000000000e+00,5.000000000000000000e+00,5.000000000000000000e+00,5.000000000000000000e+00,5.000000000000000000e+00,5.000000000000000000e+00,2.069712638854980469e+00,2.094866514205932617e+00,2.124403476715087891e+00,2.108277797698974609e+00,2.114166736602783203e+00,2.117345809936523438e+00,2.123049259185791016e+00,2.123587608337402344e+00,2.112828254699707031e+00,2.142323970794677734e+00,2.297457933425903320e+00,2.310219287872314453e+00,4.497720718383789062e+00,4.333806037902832031e+00,4.181418418884277344e+00,4.039383888244628906e+00,3.906681299209594727e+00,3.782420635223388672e+00,3.665821313858032227e+00,3.556195497512817383e+00,3.452936172485351562e+00,3.355504035949707031e+00,3.263419389724731445e+00,3.176254272460937500e+00,3.093623876571655273e+00,3.015183925628662109e+00,2.940623521804809570e+00,2.869661569595336914e+00,2.802043676376342773e+00,2.737539052963256836e+00,2.675937414169311523e+00,2.617047309875488281e+00,2.560693264007568359e+00,2.506715059280395508e+00,2.454965591430664062e+00,2.405309438705444336e+00,2.357622623443603516e+00,2.311789274215698242e+00,2.267704248428344727e+00,2.225269317626953125e+00,2.184393405914306641e+00,2.144991874694824219e+00,2.106986761093139648e+00,2.070304632186889648e+00,2.034878253936767578e+00,2.000643730163574219e+00,1.967542171478271484e+00,1.935518026351928711e+00,1.904519557952880859e+00,1.874498486518859863e+00,1.845409154891967773e+00
5.000000000000000000e+00,5.000000000000000000e+00,5.000000000000000000e+00,5.000000000000000000e+00,5.000000000000000000e+00,5.000000000000000000e+00,5.000000000000000000e+00,5.000000000000000000e+00,5.000000000000000000e+00,5.000000000000000000e+00,5.000000000000000000e+00,5.000000000000000000e+00,5.000000000000000000e+00,5.000000000000000000e+00,5.000000000000000000e+00,5.000000000000000000e+00,5.000000000000000000e+00,5.000000000000000000e+00,5.000000000000000000e+00,5.000000000000000000e+00,5.000000000000000000e+00,5.000000000000000000e+00,5.000000000000000000e+00,5.000000000000000000e+00,5.000000000000000000e+00,5.000000000000000000e+00,5.000000000000000000e+00,5.000000000000000000e+00,5.000000000000000000e+00,2.041770935058593750e+00,2.076306581497192383e+00,2.118298768997192383e+00,2.106153488159179688e+00,2.116267442703247070e+00,2.137504577636718750e+00,2.116718769073486328e+00,2.084844350814819336e+00,2.065953493118286133e+00,2.098689317703247070e+00,2.298488616943359375e+00,2.305728912353515625e+00,4.497838973999023438e+00,4.333915710449218750e+00,4.181520938873291016e+00,4.039479255676269531e+00,3.906770944595336914e+00,3.782504558563232422e+00,3.665899753570556641e+00,3.556269645690917969e+00,3.453005790710449219e+00,3.355569601058959961e+00,3.263481855392456055e+00,3.176313161849975586e+00,3.093680143356323242e+00,3.015237331390380859e+00,2.940674066543579102e+00,2.869709730148315430e+00,2.802089691162109375e+00,2.737582683563232422e+00,2.675979375839233398e+00,2.617087364196777344e+00,2.560731649398803711e+00,2.506751775741577148e+00,2.455000638961791992e+00,2.405343294143676758e+00,2.357655048370361328e+00,2.311820507049560547e+00,2.267734527587890625e+00,2.225298404693603516e+00,2.184421300888061523e+00,2.145018815994262695e+00,2.107012510299682617e+00,2.070329666137695312e+00,2.034902572631835938e+00,2.000667095184326172e+00,1.967564821243286133e+00,1.935539841651916504e+00,1.904540896415710449e+00,1.874518990516662598e+00,1.845429062843322754e+00
5.000000000000000000e+00,5.000000000000000000e+00,5.000000000000000000e+00,5.000000000000000000e+00,5.000000000000000000e+00,5.000000000000000000e+00,5.000000000000000000e+00,5.000000000000000000e+00,5.000000000000000000e+00,5.000000000000000000e+00,5.000000000000000000e+00,5.000000000000000000e+00,5.000000000000000000e+00,5.000000000000000000e+00,5.000000000000000000e+00,5.000000000000000000e+00,5.000000000000000000e+00,5.000000000000000000e+00,5.000000000000000000e+00,5.000000000000000000e+00,5.000000000000000000e+00,5.000000000000000000e+00,5.000000000000000000e+00,5.000000000000000000e+00,5.000000000000000000e+00,5.000000000000000000e+00,5.000000000000000000e+00,5.000000000000000000e+00,5.000000000000000000e+00,2.028548955917358398e+00,5.000000000000000000e+00,2.109169721603393555e+00,2.098293066024780273e+00,2.109234809875488281e+00,2.134778738021850586e+00,2.092681884765625000e+00,2.063679695129394531e+00,2.049006223678588867e+00,2.080145835876464844e+00,2.114105701446533203e+00,2.294791221618652344e+00,4.497957706451416016e+00,4.334025859832763672e+00,4.181623458862304688e+00,4.039574623107910156e+00,3.906860113143920898e+00,3.782588720321655273e+00,3.665978670120239258e+00,3.556343555450439453e+00,3.453075885772705078e+00,3.355635881423950195e+00,3.263544082641601562e+00,3.176372289657592773e+00,3.093735933303833008e+00,3.015290737152099609e+00,2.940724849700927734e+00,2.869757890701293945e+00,2.802135705947875977e+00,2.737626791000366211e+00,2.676021337509155273e+00,2.617127418518066406e+00,2.560770034790039062e+00,2.506788730621337891e+00,2.455036163330078125e+00,2.405377149581909180e+00,2.357687711715698242e+00,2.311851978302001953e+00,2.267764568328857422e+00,2.225327253341674805e+00,2.184449195861816406e+00,2.145045757293701172e+00,2.107038736343383789e+00,2.070354700088500977e+00,2.034926891326904297e+00,2.000690698623657227e+00,1.967587351799011230e+00,1.935561776161193848e+00,1.904562115669250488e+00,1.874539732933044434e+00,1.845448970794677734e+00
5.000000000000000000e+00,5.000000000000000000e+00,5.000000000000000000e+00,5.000000000000000000e+00,5.000000000000000000e+00,5.000000000000000000e+00,5.000000000000000000e+00,5.000000000000000000e+00,5.000000000000000000e+00,5.000000000000000000e+00,5.000000000000000000e+00,5.000000000000000000e+00,5.000000000000000000e+00,5.000000000000000000e+00,5.000000000000000000e+00,5.000000000000000000e+00,5.000000000000000000e+00,5.000000000000000000e+00,5.000000000000000000e+00,5.000000000000000000e+00,5.000000000000000000e+00,5.000000000000000000e+00,5.000000000000000000e+00,5.000000000000000000e+00,5.000000000000000000e+00,5.000000000000000000e+00,5.000000000000000000e+00,5.000000000000000000e+00,2.040807008743286133e+00,1.998115539550781250e+00,1.992453932762145996e+00,2.108994483947753906e+00,2.094930410385131836e+00,2.103539466857910156e+00,2.128772497177124023e+00,2.088629007339477539e+00,2.052527666091918945e+00,2.038903474807739258e+00,2.066411018371582031e+00,2.115183591842651367e+00,2.303508520126342773e+00,4.498075962066650391e+00,4.334136009216308594e+00,4.181725502014160156e+00,4.039670467376708984e+00,3.906949758529663086e+00,3.782672166824340820e+00,3.666057109832763672e+00,3.556417703628540039e+00,3.453145503997802734e+00,3.355701923370361328e+00,3.263606548309326172e+00,3.176431417465209961e+00,3.093792200088500977e+00,3.015343666076660156e+00,2.940775394439697266e+00,2.869806289672851562e+00,2.802181720733642578e+00,2.737670660018920898e+00,2.676063299179077148e+00,2.617167472839355469e+00,2.560808420181274414e+00,2.506825447082519531e+00,2.455071449279785156e+00,2.405411243438720703e+00,2.357720136642456055e+00,2.311883449554443359e+00,2.267794847488403320e+00,2.225356340408325195e+00,2.184477329254150391e+00,2.145072698593139648e+00,2.107064485549926758e+00,2.070379972457885742e+00,2.034950971603393555e+00,2.000714063644409180e+00,1.967610239982604980e+00,1.935583591461181641e+00,1.904583334922790527e+00,1.874560236930847168e+00,1.845468878746032715e+00
5.000000000000000000e+00,5.000000000000000000e+00,5.000000000000000000e+00,5.000000000000000000e+00,5.000000000000000000e+00,5.000000000000000000e+00,5.000000000000000000e+00,5.000000000000000000e+00,5.000000000000000000e+00,5.000000000000000000e+00,5.000000000000000000e+00,5.000000000000000000e+00,5.000000000000000000e+00,5.000000000000000000e+00,5.000000000000000000e+00,5.000000000000000000e+00,5.000000000000000000e+00,5.000000000000000000e+00,5.000000000000000000e+00,5.000000000000000000e+00,5.000000000000000000e+00,5.000000000000000000e+00,5.000000000000000000e+00,5.000000000000000000e+00,5.000000000000000000e+00,5.000000000000000000e+00,5.000000000000000000e+00,5.000000000000000000e+00,1.991643071174621582e+00,5.000000000000000000e+00,5.000000000000000000e+00,2.111469030380249023e+00,2.096642971038818359e+00,2.104630231857299805e+00,2.129498481750488281e+00,2.081858873367309570e+00,2.040837049484252930e+00,2.028899908065795898e+00,2.053409337997436523e+00,2.285452604293823242e+00,2.291522741317749023e+00,4.498194694519042969e+00,4.334246158599853516e+00,4.181828498840332031e+00,4.039765834808349609e+00,3.907038927078247070e+00,3.782756328582763672e+00,3.666136026382446289e+00,3.556491613388061523e+00,3.453215360641479492e+00,3.355767726898193359e+00,3.263669252395629883e+00,3.176490545272827148e+00,3.093848228454589844e+00,3.015397071838378906e+00,2.940826177597045898e+00,2.869854450225830078e+00,2.802227735519409180e+00,2.737714529037475586e+00,2.676105260848999023e+00,2.617207765579223633e+00,2.560846805572509766e+00,2.506862401962280273e+00,2.455106735229492188e+00,2.405444860458374023e+00,2.357752799987792969e+00,2.311914682388305664e+00,2.267824888229370117e+00,2.225385427474975586e+00,2.184504985809326172e+00,2.145099639892578125e+00,2.107090711593627930e+00,2.070405006408691406e+00,2.034975290298461914e+00,2.000737428665161133e+00,1.967632889747619629e+00,1.935605764389038086e+00,1.904604434967041016e+00,1.874580740928649902e+00,1.845488905906677246e+00
5.000000000000000000e+00,5.000000000000000000e+00,5.000000000000000000e+00,5.000000000000000000e+00,5.000000000000000000e+00,5.000000000000000000e+00,5.000000000000000000e+00,5.000000000000000000e+00,5.000000000000000000e+00,5.000000000000000000e+00,5.000000000000000000e+00,5.000000000000000000e+00,5.000000000000000000e+00,5.000000000000000000e+00,5.000000000000000000e+00,5.000000000000000000e+00,5.000000000000000000e+00,5.000000000000000000e+00,5.000000000000000000e+00,5.000000000000000000e+00,5.000000000000000000e+00,5.000000000000000000e+00,5.000000000000000000e+00,5.000000000000000000e+00,5.000000000000000000e+00,5.000000000000000000e+00,5.000000000000000000e+00,5.000000000000000000e+00,1.963344812393188477e+00,5.000000000000000000e+00,5.000000000000000000e+00,2.115935564041137695e+00,2.101046800613403320e+00,2.110140800476074219e+00,2.133316278457641602e+00,2.074774265289306641e+00,2.027912378311157227e+00,2.017985105514526367e+00,2.042404174804687500e+00,2.263221502304077148e+00,2.275702476501464844e+00,4.498312950134277344e+00,4.334356307983398438e+00,4.181930541992187500e+00,4.039861679077148438e+00,3.907128572463989258e+00,3.782839775085449219e+00,3.666214942932128906e+00,3.556565999984741211e+00,3.453285217285156250e+00,3.355833768844604492e+00,3.263731479644775391e+00,3.176549434661865234e+00,3.093904256820678711e+00,3.015450239181518555e+00,2.940876960754394531e+00,2.869902849197387695e+00,2.802273511886596680e+00,2.737758636474609375e+00,2.676147222518920898e+00,2.617247819900512695e+00,2.560885190963745117e+00,2.506899118423461914e+00,2.455142021179199219e+00,2.405478954315185547e+00,2.357785224914550781e+00,2.311945915222167969e+00,2.267854928970336914e+00,2.225414276123046875e+00,2.184533119201660156e+00,2.145126581192016602e+00,2.107116699218750000e+00,2.070430278778076172e+00,2.034999370574951172e+00,2.000761032104492188e+00,1.967655420303344727e+00,1.935627579689025879e+00,1.904625892639160156e+00,1.874601244926452637e+00,1.845508813858032227e+00
5.000000000000000000e+00,5.000000000000000000e+00,5.000000000000000000e+00,5.000000000000000000e+00,5.000000000000000000e+00,5.000000000000000000e+00,5.000000000000000000e+00,5.000000000000000000e+00,5.000000000000000000e+00,5.000000000000000000e+00,5.000000000000000000e+00,5.000000000000000000e+00,5.000000000000000000e+00,5.000000000000000000e+00,5.000000000000000000e+00,5.000000000000000000e+00,5.000000000000000000e+00,5.000000000000000000e+00,5.000000000000000000e+00,5.000000000000000000e+00,5.000000000000000000e+00,5.000000000000000000e+00,5.000000000000000000e+00,5.000000000000000000e+00,5.000000000000000000e+00,5.000000000000000000e+00,5.000000000000000000e+00,5.000000000000000000e+00,1.982028603553771973e+00,5.000000000000000000e+00,5.000000000000000000e+00,2.121824741363525391e+00,2.105469465255737305e+00,2.116070032119750977e+00,2.141310453414916992e+00,2.067085027694702148e+00,2.016352891921997070e+00,2.006822586059570312e+00,2.025286197662353516e+00,2.266072034835815430e+00,2.273186445236206055e+00,4.498431682586669922e+00,4.334465980529785156e+00,4.182033061981201172e+00,4.039957523345947266e+00,3.907217741012573242e+00,3.782923936843872070e+00,3.666293621063232422e+00,3.556640148162841797e+00,3.453355073928833008e+00,3.355899572372436523e+00,3.263793945312500000e+00,3.176608800888061523e+00,3.093960285186767578e+00,3.015503644943237305e+00,2.940927505493164062e+00,2.869951009750366211e+00,2.802319765090942383e+00,2.737802267074584961e+00,2.676189184188842773e+00,2.617287874221801758e+00,2.560923576354980469e+00,2.506935834884643555e+00,2.455177307128906250e+00,2.405512809753417969e+00,2.357817888259887695e+00,2.311977148056030273e+00,2.267885208129882812e+00,2.225443363189697266e+00,2.184561014175415039e+00,2.145153522491455078e+00,2.107142686843872070e+00,2.070455312728881836e+00,2.035023689270019531e+00,2.000784397125244141e+00,1.967678308486938477e+00,1.935649514198303223e+00,1.904647111892700195e+00,1.874621987342834473e+00,1.845528721809387207e+00
5.000000000000000000e+00,5.000000000000000000e+00,5.000000000000000000e+00,5.000000000000000000e+00,5.000000000000000000e+00,5.000000000000000000e+00,5.000000000000000000e+00,5.000000000000000000e+00,5.000000000000000000e+00,5.000000000000000000e+00,5.000000000000000000e+00,5.000000000000000000e+00,5.000000000000000000e+00,5.000000000000000000e+00,5.000000000000000000e+00,5.000000000000000000e+00,5.000000000000000000e+00,5.000000000000000000e+00,5.000000000000000000e+00,5.000000000000000000e+00,5.000000000000000000e+00,5.000000000000000000e+00,5.000000000000000000e+00,5.000000000000000000e+00,5.000000000000000000e+00,5.000000000000000000e+00,5.000000000000000000e+00,5.000000000000000000e+00,5.000000000000000000e+00,5.000000000000000000e+00,5.000000000000000000e+00,2.127779245376586914e+00,2.110179185867309570e+00,2.120450019836425781e+00,2.151179790496826172e+00,2.052484512329101562e+00,2.001191139221191406e+00,1.995783090591430664e+00,2.007835388183593750e+00,4.866762638092041016e+00,4.675417900085449219e+00,4.498549938201904297e+00,4.334576129913330078e+00,4.182135581970214844e+00,4.040052890777587891e+00,3.907307386398315430e+00,3.783007383346557617e+00,3.666372537612915039e+00,3.556714057922363281e+00,3.453424692153930664e+00,3.355965614318847656e+00,3.263856172561645508e+00,3.176667928695678711e+00,3.094016551971435547e+00,3.015556812286376953e+00,2.940978288650512695e+00,2.869999170303344727e+00,2.802365541458129883e+00,2.737846374511718750e+00,2.676231145858764648e+00,2.617328166961669922e+00,2.560961961746215820e+00,2.506972551345825195e+00,2.455212593078613281e+00,2.405546665191650391e+00,2.357850313186645508e+00,2.312008619308471680e+00,2.267915248870849609e+00,2.225472450256347656e+00,2.184588909149169922e+00,2.145180463790893555e+00,2.107168674468994141e+00,2.070480346679687500e+00,2.035048007965087891e+00,2.000807762145996094e+00,1.967700958251953125e+00,1.935671567916870117e+00,1.904668211936950684e+00,1.874642491340637207e+00,1.845548868179321289e+00
5.000000000000000000e+00,5.000000000000000000e+00,5.000000000000000000e+00,5.000000000000000000e+00,5.000000000000000000e+00,5.000000000000000000e+00,5.000000000000000000e+00,5.000000000000000000e+00,5.000000000000000000e+00,5.000000000000000000e+00,5.000000000000000000e+00,5.000000000000000000e+00,5.000000000000000000e+00,5.000000000000000000e+00,5.000000000000000000e+00,5.000000000000000000e+00,5.000000000000000000e+00,5.000000000000000000e+00,5.000000000000000000e+00,5.000000000000000000e+00,5.000000000000000000e+00,5.000000000000000000e+00,5.000000000000000000e+00,5.000000000000000000e+00,5.000000000000000000e+00,5.000000000000000000e+00,5.000000000000000000e+00,5.000000000000000000e+00,5.000000000000000000e+00,5.000000000000000000e+00,5.000000000000000000e+00,2.130622863769531250e+00,2.113439321517944336e+00,2.124893903732299805e+00,2.156986713409423828e+00,2.038088560104370117e+00,1.986154437065124512e+00,1.981976509094238281e+00,1.996884226799011230e+00,4.866901397705078125e+00,4.675546169281005859e+00,4.498668670654296875e+00,4.334686279296875000e+00,4.182238101959228516e+00,4.040148735046386719e+00,3.907396554946899414e+00,3.783091545104980469e+00,3.666450977325439453e+00,3.556788444519042969e+00,3.453494787216186523e+00,3.356031417846679688e+00,3.263918638229370117e+00,3.176726818084716797e+00,3.094072341918945312e+00,3.015610218048095703e+00,2.941028833389282227e+00,2.870047569274902344e+00,2.802411556243896484e+00,2.737890005111694336e+00,2.676273107528686523e+00,2.617368221282958984e+00,2.561000347137451172e+00,2.507009506225585938e+00,2.455247879028320312e+00,2.405580759048461914e+00,2.357882976531982422e+00,2.312039852142333984e+00,2.267945528030395508e+00,2.225501298904418945e+00,2.184616804122924805e+00,2.145207405090332031e+00,2.107194662094116211e+00,2.070505619049072266e+00,2.035072326660156250e+00,2.000831365585327148e+00,1.967723488807678223e+00,1.935693502426147461e+00,1.904689431190490723e+00,1.874663114547729492e+00,1.845568776130676270e+00
5.000000000000000000e+00,5.000000000000000000e+00,5.000000000000000000e+00,5.000000000000000000e+00,5.000000000000000000e+00,5.000000000000000000e+00,5.000000000000000000e+00,5.000000000000000000e+00,5.000000000000000000e+00,5.000000000000000000e+00,5.000000000000000000e+00,5.000000000000000000e+00,5.000000000000000000e+00,5.000000000000000000e+00,5.000000000000000000e+00,5.000000000000000000e+00,5.000000000000000000e+00,5.000000000000000000e+00,5.000000000000000000e+00,5.000000000000000000e+00,5.000000000000000000e+00,5.000000000000000000e+00,5.000000000000000000e+00,5.000000000000000000e+00,5.000000000000000000e+00,5.000000000000000000e+00,5.000000000000000000e+00,5.000000000000000000e+00,5.000000000000000000e+00,5.000000000000000000e+00,5.000000000000000000e+00,2.137274503707885742e+00,2.115623950958251953e+00,2.129702568054199219e+00,2.162359476089477539e+00,2.029002904891967773e+00,1.975038766860961914e+00,1.972813367843627930e+00,1.988595247268676758e+00,4.867040157318115234e+00,4.675673961639404297e+00,4.498787403106689453e+00,4.334796428680419922e+00,4.182340621948242188e+00,4.040244102478027344e+00,3.907486200332641602e+00,3.783174991607666016e+00,3.666529893875122070e+00,3.556862354278564453e+00,3.453564882278442383e+00,3.356097698211669922e+00,3.263980865478515625e+00,3.176786184310913086e+00,3.094128608703613281e+00,3.015663146972656250e+00,2.941079616546630859e+00,2.870095729827880859e+00,2.802457809448242188e+00,2.737934112548828125e+00,2.676315069198608398e+00,2.617408514022827148e+00,2.561038970947265625e+00,2.507046222686767578e+00,2.455283403396606445e+00,2.405614376068115234e+00,2.357915639877319336e+00,2.312071084976196289e+00,2.267975568771362305e+00,2.225530385971069336e+00,2.184644937515258789e+00,2.145234346389770508e+00,2.107220649719238281e+00,2.070530652999877930e+00,2.035096645355224609e+00,2.000854730606079102e+00,1.967746138572692871e+00,1.935715436935424805e+00,1.904710888862609863e+00,1.874683618545532227e+00,1.845588684082031250e+00
5.000000000000000000e+00,5.000000000000000000e+00,5.000000000000000000e+00,5.000000000000000000e+00,5.000000000000000000e+00,5.000000000000000000e+00,5.000000000000000000e+00,5.000000000000000000e+00,5.000000000000000000e+00,5.000000000000000000e+00,5.000000000000000000e+00,5.000000000000000000e+00,5.000000000000000000e+00,5.000000000000000000e+00,5.000000000000000000e+00,5.000000000000000000e+00,5.000000000000000000e+00,5.000000000000000000e+00,5.000000000000000000e+00,5.000000000000000000e+00,5.000000000000000000e+00,5.000000000000000000e+00,5.000000000000000000e+00,5.000000000000000000e+00,5.000000000000000000e+00,5.000000000000000000e+00,5.000000000000000000e+00,5.000000000000000000e+00,5.000000000000000000e+00,5.000000000000000000e+00,5.000000000000000000e+00,5.000000000000000000e+00,2.117813348770141602e+00,2.132546663284301758e+00,2.171280384063720703e+00,2.029023170471191406e+00,1.977899909019470215e+00,1.974584221839904785e+00,1.997188925743103027e+00,4.867178916931152344e+00,4.675801753997802734e+00,4.498906135559082031e+00,4.334906101226806641e+00,4.182443141937255859e+00,4.040339946746826172e+00,3.907575845718383789e+00,3.783259153366088867e+00,3.666608333587646484e+00,3.556936502456665039e+00,3.453634500503540039e+00,3.356163501739501953e+00,3.264043569564819336e+00,3.176845073699951172e+00,3.094184875488281250e+00,3.015716552734375000e+00,2.941130161285400391e+00,2.870144128799438477e+00,2.802503585815429688e+00,2.737977981567382812e+00,2.676357030868530273e+00,2.617448329925537109e+00,2.561077356338500977e+00,2.507083177566528320e+00,2.455318450927734375e+00,2.405648469924926758e+00,2.357948064804077148e+00,2.312102317810058594e+00,2.268005609512329102e+00,2.225559473037719727e+00,2.184672832489013672e+00,2.145261287689208984e+00,2.107246637344360352e+00,2.070555686950683594e+00,2.035120725631713867e+00,2.000878095626831055e+00,1.967769026756286621e+00,1.935737252235412598e+00,1.904732108116149902e+00,1.874704360961914062e+00,1.845608472824096680e+00
5.000000000000000000e+00,5.000000000000000000e+00,5.000000000000000000e+00,5.000000000000000000e+00,5.000000000000000000e+00,5.000000000000000000e+00,5.000000000000000000e+00,5.000000000000000000e+00,5.000000000000000000e+00,5.000000000000000000e+00,5.000000000000000000e+00,5.000000000000000000e+00,5.000000000000000000e+00,5.000000000000000000e+00,5.000000000000000000e+00,5.000000000000000000e+00,5.000000000000000000e+00,5.000000000000000000e+00,5.000000000000000000e+00,5.000000000000000000e+00,5.000000000000000000e+00,5.000000000000000000e+00,5.000000000000000000e+00,5.000000000000000000e+00,5.000000000000000000e+00,5.000000000000000000e+00,5.000000000000000000e+00,5.000000000000000000e+00,5.000000000000000000e+00,5.000000000000000000e+00,5.000000000000000000e+00,5.000000000000000000e+00,2.120007038116455078e+00,2.134488344192504883e+00,2.179824590682983398e+00,2.044014215469360352e+00,1.992611408233642578e+00,1.985899090766906738e+00,2.016026258468627930e+00,4.867317199707031250e+00,4.675930023193359375e+00,4.499024391174316406e+00,4.335016727447509766e+00,4.182545185089111328e+00,4.040435314178466797e+00,3.907665014266967773e+00,3.783343076705932617e+00,3.666687488555908203e+00,3.557010412216186523e+00,3.453704595565795898e+00,3.356229543685913086e+00,3.264105796813964844e+00,3.176904439926147461e+00,3.094240665435791016e+00,3.015769958496093750e+00,2.941180944442749023e+00,2.870192289352416992e+00,2.802549839019775391e+00,2.738022089004516602e+00,2.676398754119873047e+00,2.617488622665405273e+00,2.561115741729736328e+00,2.507120132446289062e+00,2.455353975296020508e+00,2.405682325363159180e+00,2.357980728149414062e+00,2.312133789062500000e+00,2.268035650253295898e+00,2.225588560104370117e+00,2.184700727462768555e+00,2.145288467407226562e+00,2.107272624969482422e+00,2.070580720901489258e+00,2.035145044326782227e+00,2.000901699066162109e+00,1.967791676521301270e+00,1.935759425163269043e+00,1.904753208160400391e+00,1.874724864959716797e+00,1.845628619194030762e+00
5.000000000000000000e+00,4.992660522460937500e+00,5.000000000000000000e+00,5.000000000000000000e+00,5.000000000000000000e+00,5.000000000000000000e+00,5.000000000000000000e+00,5.000000000000000000e+00,5.000000000000000000e+00,5.000000000000000000e+00,5.000000000000000000e+00,5.000000000000000000e+00,5.000000000000000000e+00,5.000000000000000000e+00,5.000000000000000000e+00,5.000000000000000000e+00,5.000000000000000000e+00,5.000000000000000000e+00,5.000000000000000000e+00,5.000000000000000000e+00,5.000000000000000000e+00,5.000000000000000000e+00,5.000000000000000000e+00,5.000000000000000000e+00,5.000000000000000000e+00,5.000000000000000000e+00,5.000000000000000000e+00,5.000000000000000000e+00,5.000000000000000000e+00,5.000000000000000000e+00,5.000000000000000000e+00,5.000000000000000000e+00,2.130552291870117188e+00,2.145080566406250000e+00,2.200633287429809570e+00,2.061496496200561523e+00,2.009795665740966797e+00,1.998180031776428223e+00,2.029085874557495117e+00,4.867455959320068359e+00,4.676057815551757812e+00,4.499143123626708984e+00,4.335126399993896484e+00,4.182647705078125000e+00,4.040531158447265625e+00,3.907754659652709961e+00,3.783426761627197266e+00,3.666765928268432617e+00,3.557084798812866211e+00,3.453774213790893555e+00,3.356295585632324219e+00,3.264168262481689453e+00,3.176963329315185547e+00,3.094296932220458984e+00,3.015823125839233398e+00,2.941231489181518555e+00,2.870240449905395508e+00,2.802595615386962891e+00,2.738065958023071289e+00,2.676440954208374023e+00,2.617528676986694336e+00,2.561154127120971680e+00,2.507156848907470703e+00,2.455389022827148438e+00,2.405716180801391602e+00,2.358013153076171875e+00,2.312165260314941406e+00,2.268065929412841797e+00,2.225617408752441406e+00,2.184728860855102539e+00,2.145315170288085938e+00,2.107298612594604492e+00,2.070605993270874023e+00,2.035169363021850586e+00,2.000925064086914062e+00,1.967814207077026367e+00,1.935781240463256836e+00,1.904774665832519531e+00,1.874745368957519531e+00,1.845648527145385742e+00
5.000000000000000000e+00,5.000000000000000000e+00,5.000000000000000000e+00,5.000000000000000000e+00,5.000000000000000000e+00,5.000000000000000000e+00,5.000000000000000000e+00,5.000000000000000000e+00,5.000000000000000000e+00,5.000000000000000000e+00,5.000000000000000000e+00,5.000000000000000000e+00,5.000000000000000000e+00,5.000000000000000000e+00,5.000000000000000000e+00,5.000000000000000000e+00,5.000000000000000000e+00,5.000000000000000000e+00,5.000000000000000000e+00,5.000000000000000000e+00,5.000000000000000000e+00,5.000000000000000000e+00,5.000000000000000000e+00,5.000000000000000000e+00,5.000000000000000000e+00,5.000000000000000000e+00,5.000000000000000000e+00,5.000000000000000000e+00,5.000000000000000000e+00,5.000000000000000000e+00,5.000000000000000000e+00,2.261265277862548828e+00,2.155909776687622070e+00,2.173046350479125977e+00,5.000000000000000000e+00,2.079280376434326172e+00,2.027279615402221680e+00,2.010613679885864258e+00,2.042707920074462891e+00,4.867595195770263672e+00,4.676186084747314453e+00,4.499261379241943359e+00,4.335236549377441406e+00,4.182750701904296875e+00,4.040626525878906250e+00,3.907843828201293945e+00,3.783510684967041016e+00,3.666844844818115234e+00,3.557158708572387695e+00,3.453844308853149414e+00,3.356361389160156250e+00,3.264230728149414062e+00,3.177022695541381836e+00,3.094352960586547852e+00,3.015876531600952148e+00,2.941282272338867188e+00,2.870288610458374023e+00,2.802641868591308594e+00,2.738109827041625977e+00,2.676482915878295898e+00,2.617568969726562500e+00,2.561192512512207031e+00,2.507193803787231445e+00,2.455424547195434570e+00,2.405750036239624023e+00,2.358045816421508789e+00,2.312196493148803711e+00,2.268096208572387695e+00,2.225646495819091797e+00,2.184756755828857422e+00,2.145342350006103516e+00,2.107324838638305664e+00,2.070631027221679688e+00,2.035193681716918945e+00,2.000948429107666016e+00,1.967837095260620117e+00,1.935803174972534180e+00,1.904795885086059570e+00,1.874766111373901367e+00,1.845668435096740723e+00
5.000000000000000000e+00,5.000000000000000000e+00,5.000000000000000000e+00,5.000000000000000000e+00,5.000000000000000000e+00,5.000000000000000000e+00,5.000000000000000000e+00,5.000000000000000000e+00,5.000000000000000000e+00,5.000000000000000000e+00,5.000000000000000000e+00,5.000000000000000000e+00,5.000000000000000000e+00,5.000000000000000000e+00,5.000000000000000000e+00,5.000000000000000000e+00,5.000000000000000000e+00,5.000000000000000000e+00,5.000000000000000000e+00,5.000000000000000000e+00,5.000000000000000000e+00,5.000000000000000000e+00,5.000000000000000000e+00,5.000000000000000000e+00,5.000000000000000000e+00,5.000000000000000000e+00,5.000000000000000000e+00,5.000000000000000000e+00,5.000000000000000000e+00,5.000000000000000000e+00,5.000000000000000000e+00,2.328621149063110352e+00,2.244806289672851562e+00,2.273166656494140625e+00,5.000000000000000000e+00,2.080487251281738281e+00,2.030478477478027344e+00,2.015719652175903320e+00,2.058514833450317383e+00,4.867732048034667969e+00,4.676314353942871094e+00,4.499380111694335938e+00,4.335346698760986328e+00,4.182852745056152344e+00,4.040722370147705078e+00,3.907933473587036133e+00,3.783594369888305664e+00,3.666923761367797852e+00,3.557232856750488281e+00,3.453913927078247070e+00,3.356427669525146484e+00,3.264292955398559570e+00,3.177081584930419922e+00,3.094408988952636719e+00,3.015929698944091797e+00,2.941333055496215820e+00,2.870337009429931641e+00,2.802687644958496094e+00,2.738153934478759766e+00,2.676524877548217773e+00,2.617609024047851562e+00,2.561231136322021484e+00,2.507230520248413086e+00,2.455459833145141602e+00,2.405784130096435547e+00,2.358078241348266602e+00,2.312227725982666016e+00,2.268126249313354492e+00,2.225675344467163086e+00,2.184784650802612305e+00,2.145369291305541992e+00,2.107350826263427734e+00,2.070656299591064453e+00,2.035217761993408203e+00,2.000972032546997070e+00,1.967859745025634766e+00,1.935825109481811523e+00,1.904816985130310059e+00,1.874786734580993652e+00,1.845688581466674805e+00
5.000000000000000000e+00,5.000000000000000000e+00,5.000000000000000000e+00,5.000000000000000000e+00,5.000000000000000000e+00,5.000000000000000000e+00,5.000000000000000000e+00,5.000000000000000000e+00,5.000000000000000000e+00,5.000000000000000000e+00,5.000000000000000000e+00,5.000000000000000000e+00,5.000000000000000000e+00,5.000000000000000000e+00,5.000000000000000000e+00,5.000000000000000000e+00,5.000000000000000000e+00,5.000000000000000000e+00,5.000000000000000000e+00,5.000000000000000000e+00,5.000000000000000000e+00,5.000000000000000000e+00,5.000000000000000000e+00,5.000000000000000000e+00,5.000000000000000000e+00,5.000000000000000000e+00,5.000000000000000000e+00,5.000000000000000000e+00,5.000000000000000000e+00,5.000000000000000000e+00,5.000000000000000000e+00,2.398307800292968750e+00,2.303643703460693359e+00,2.331044912338256836e+00,5.000000000000000000e+00,2.076794624328613281e+00,2.030924797058105469e+00,2.016759157180786133e+00,2.073461055755615234e+00,4.867871284484863281e+00,4.676440238952636719e+00,4.499498844146728516e+00,4.335456848144531250e+00,4.182955265045166016e+00,4.040817737579345703e+00,3.908022642135620117e+00,3.783678531646728516e+00,3.667002439498901367e+00,3.557306766510009766e+00,3.453984022140502930e+00,3.356493473052978516e+00,3.264355659484863281e+00,3.177140712738037109e+00,3.094465017318725586e+00,3.015983104705810547e+00,2.941383600234985352e+00,2.870385169982910156e+00,2.802733659744262695e+00,2.738197565078735352e+00,2.676566839218139648e+00,2.617649078369140625e+00,2.561269283294677734e+00,2.507267236709594727e+00,2.455495119094848633e+00,2.405817747116088867e+00,2.358110904693603516e+00,2.312258958816528320e+00,2.268156290054321289e+00,2.225704431533813477e+00,2.184812545776367188e+00,2.145396232604980469e+00,2.107376813888549805e+00,2.070681333541870117e+00,2.035242080688476562e+00,2.000995397567749023e+00,1.967882394790649414e+00,1.935847163200378418e+00,1.904838204383850098e+00,1.874807238578796387e+00,1.845708370208740234e+00
5.000000000000000000e+00,5.000000000000000000e+00,5.000000000000000000e+00,5.000000000000000000e+00,5.000000000000000000e+00,5.000000000000000000e+00,5.000000000000000000e+00,5.000000000000000000e+00,5.000000000000000000e+00,5.000000000000000000e+00,5.000000000000000000e+00,5.000000000000000000e+00,5.000000000000000000e+00,5.000000000000000000e+00,5.000000000000000000e+00,5.000000000000000000e+00,5.000000000000000000e+00,5.000000000000000000e+00,5.000000000000000000e+00,5.000000000000000000e+00,5.000000000000000000e+00,5.000000000000000000e+00,5.000000000000000000e+00,5.000000000000000000e+00,5.000000000000000000e+00,5.000000000000000000e+00,5.000000000000000000e+00,5.000000000000000000e+00,5.000000000000000000e+00,5.000000000000000000e+00,5.000000000000000000e+00,5.000000000000000000e+00,2.350546121597290039e+00,2.380599498748779297e+00,5.000000000000000000e+00,2.073114871978759766e+00,2.031009435653686523e+00,2.017799854278564453e+00,2.088625907897949219e+00,4.868010044097900391e+00,4.676568984985351562e+00,4.499617099761962891e+00,4.335566997528076172e+00,4.183057785034179688e+00,4.040913581848144531e+00,3.908112287521362305e+00,3.783761978149414062e+00,3.667081356048583984e+00,3.557381153106689453e+00,3.454053640365600586e+00,3.356559514999389648e+00,3.264417886734008789e+00,3.177200078964233398e+00,3.094521284103393555e+00,3.016036272048950195e+00,2.941434383392333984e+00,2.870433568954467773e+00,2.802779674530029297e+00,2.738241672515869141e+00,2.676608800888061523e+00,2.617689371109008789e+00,2.561307907104492188e+00,2.507303953170776367e+00,2.455530643463134766e+00,2.405851840972900391e+00,2.358143329620361328e+00,2.312290430068969727e+00,2.268186569213867188e+00,2.225733518600463867e+00,2.184840679168701172e+00,2.145423173904418945e+00,2.107402801513671875e+00,2.070706367492675781e+00,2.035266399383544922e+00,2.001019001007080078e+00,1.967904925346374512e+00,1.935869097709655762e+00,1.904859662055969238e+00,1.874827742576599121e+00,1.845728278160095215e+00
5.000000000000000000e+00,5.000000000000000000e+00,5.000000000000000000e+00,5.000000000000000000e+00,5.000000000000000000e+00,5.000000000000000000e+00,5.000000000000000000e+00,5.000000000000000000e+00,5.000000000000000000e+00,5.000000000000000000e+00,5.000000000000000000e+00,5.000000000000000000e+00,5.000000000000000000e+00,5.000000000000000000e+00,5.000000000000000000e+00,5.000000000000000000e+00,5.000000000000000000e+00,5.000000000000000000e+00,5.000000000000000000e+00,5.000000000000000000e+00,5.000000000000000000e+00,5.000000000000000000e+00,5.000000000000000000e+00,5.000000000000000000e+00,5.000000000000000000e+00,5.000000000000000000e+00,5.000000000000000000e+00,5.000000000000000000e+00,5.000000000000000000e+00,5.000000000000000000e+00,5.000000000000000000e+00,5.000000000000000000e+00,2.423167467117309570e+00,2.436070919036865234e+00,5.000000000000000000e+00,2.073320627212524414e+00,2.031212091445922852e+00,2.018841743469238281e+00,5.000000000000000000e+00,4.868149280548095703e+00,4.676697254180908203e+00,4.499734401702880859e+00,4.335677146911621094e+00,4.183160305023193359e+00,4.041009426116943359e+00,3.908201694488525391e+00,3.783846139907836914e+00,3.667159795761108398e+00,3.557455539703369141e+00,3.454123735427856445e+00,3.356625318527221680e+00,3.264480352401733398e+00,3.177258968353271484e+00,3.094577074050903320e+00,3.016089677810668945e+00,2.941484928131103516e+00,2.870481967926025391e+00,2.802825689315795898e+00,2.738285541534423828e+00,2.676650762557983398e+00,2.617729425430297852e+00,2.561346292495727539e+00,2.507340908050537109e+00,2.455565690994262695e+00,2.405885696411132812e+00,2.358175992965698242e+00,2.312321662902832031e+00,2.268216609954833984e+00,2.225762605667114258e+00,2.184868574142456055e+00,2.145450115203857422e+00,2.107428789138793945e+00,2.070731639862060547e+00,2.035290718078613281e+00,2.001042366027832031e+00,1.967927813529968262e+00,1.935890913009643555e+00,1.904880881309509277e+00,1.874848484992980957e+00,1.845748186111450195e+00
5.000000000000000000e+00,5.000000000000000000e+00,5.000000000000000000e+00,5.000000000000000000e+00,5.000000000000000000e+00,5.000000000000000000e+00,5.000000000000000000e+00,5.000000000000000000e+00,5.000000000000000000e+00,5.000000000000000000e+00,5.000000000000000000e+00,5.000000000000000000e+00,5.000000000000000000e+00,5.000000000000000000e+00,5.000000000000000000e+00,5.000000000000000000e+00,5.000000000000000000e+00,5.000000000000000000e+00,5.000000000000000000e+00,5.000000000000000000e+00,5.000000000000000000e+00,5.000000000000000000e+00,5.000000000000000000e+00,5.000000000000000000e+00,5.000000000000000000e+00,5.000000000000000000e+00,5.000000000000000000e+00,5.000000000000000000e+00,5.000000000000000000e+00,5.000000000000000000e+00,5.000000000000000000e+00,5.000000000000000000e+00,2.484570264816284180e+00,2.502679347991943359e+00,5.000000000000000000e+00,2.078124761581420898e+00,2.032417535781860352e+00,2.033122539520263672e+00,5.000000000000000000e+00,4.868288516998291016e+00,4.676825523376464844e+00,4.499853134155273438e+00,4.335785388946533203e+00,4.183262825012207031e+00,4.041104793548583984e+00,3.908291339874267578e+00,3.783929824829101562e+00,3.667238712310791016e+00,3.557529449462890625e+00,3.454193830490112305e+00,3.356691598892211914e+00,3.264542579650878906e+00,3.177318334579467773e+00,3.094633340835571289e+00,3.016142845153808594e+00,2.941535711288452148e+00,2.870530128479003906e+00,2.802871942520141602e+00,2.738329410552978516e+00,2.676692724227905273e+00,2.617769718170166016e+00,2.561384677886962891e+00,2.507377624511718750e+00,2.455601215362548828e+00,2.405919551849365234e+00,2.358208656311035156e+00,2.312353134155273438e+00,2.268246650695800781e+00,2.225791692733764648e+00,2.184896469116210938e+00,2.145477056503295898e+00,2.107454776763916016e+00,2.070756673812866211e+00,2.035315036773681641e+00,2.001065731048583984e+00,1.967950463294982910e+00,1.935913085937500000e+00,1.904901981353759766e+00,1.874868988990783691e+00,1.845768332481384277e+00
5.000000000000000000e+00,5.000000000000000000e+00,5.000000000000000000e+00,5.000000000000000000e+00,5.000000000000000000e+00,5.000000000000000000e+00,5.000000000000000000e+00,5.000000000000000000e+00,5.000000000000000000e+00,5.000000000000000000e+00,5.000000000000000000e+00,5.000000000000000000e+00,5.000000000000000000e+00,5.000000000000000000e+00,5.000000000000000000e+00,5.000000000000000000e+00,5.000000000000000000e+00,5.000000000000000000e+00,5.000000000000000000e+00,5.000000000000000000e+00,5.000000000000000000e+00,5.000000000000000000e+00,5.000000000000000000e+00,5.000000000000000000e+00,5.000000000000000000e+00,5.000000000000000000e+00,5.000000000000000000e+00,5.000000000000000000e+00,5.000000000000000000e+00,5.000000000000000000e+00,5.000000000000000000e+00,5.000000000000000000e+00,2.547286033630371094e+00,2.547297716140747070e+00,5.000000000000000000e+00,5.000000000000000000e+00,2.033624649047851562e+00,2.042075157165527344e+00,5.000000000000000000e+00,4.868427276611328125e+00,4.676954269409179688e+00,4.499972343444824219e+00,4.335896015167236328e+00,4.183363914489746094e+00,4.041200637817382812e+00,3.908380985260009766e+00,3.784013748168945312e+00,3.667317390441894531e+00,3.557603597640991211e+00,3.454263448715209961e+00,3.356757402420043945e+00,3.264605283737182617e+00,3.177377223968505859e+00,3.094689607620239258e+00,3.016196250915527344e+00,2.941586256027221680e+00,2.870578289031982422e+00,2.802917718887329102e+00,2.738373279571533203e+00,2.676734685897827148e+00,2.617809772491455078e+00,2.561423301696777344e+00,2.507414579391479492e+00,2.455636501312255859e+00,2.405953645706176758e+00,2.358241319656372070e+00,2.312384366989135742e+00,2.268276929855346680e+00,2.225820541381835938e+00,2.184924602508544922e+00,2.145503997802734375e+00,2.107480764389038086e+00,2.070781707763671875e+00,2.035339117050170898e+00,2.001089334487915039e+00,1.967973113059997559e+00,1.935935020446777344e+00,1.904923439025878906e+00,1.874889492988586426e+00,1.845788240432739258e+00
4.874221324920654297e+00,4.873023509979248047e+00,4.871826171875000000e+00,4.870629787445068359e+00,4.869433403015136719e+00,4.868237972259521484e+00,4.867043018341064453e+00,4.865848541259765625e+00,4.864655017852783203e+00,4.863461494445800781e+00,4.862268924713134766e+00,4.861077308654785156e+00,4.859885692596435547e+00,4.858695030212402344e+00,4.857504367828369141e+00,4.856315135955810547e+00,4.855126380920410156e+00,4.853937625885009766e+00,4.852749824523925781e+00,4.851562500000000000e+00,4.850375652313232422e+00,4.849189758300781250e+00,4.848003864288330078e+00,4.846818923950195312e+00,4.845634460449218750e+00,4.844450473785400391e+00,4.843267440795898438e+00,4.842084884643554688e+00,4.840902328491210938e+00,4.839721202850341797e+00,4.838540077209472656e+00,4.837359905242919922e+00,2.555815935134887695e+00,2.550633430480957031e+00,4.833821773529052734e+00,4.832643985748291016e+00,2.034833192825317383e+00,2.045586109161376953e+00,4.829113483428955078e+00,4.827937126159667969e+00,4.677082538604736328e+00,4.500090599060058594e+00,4.336006164550781250e+00,4.183466434478759766e+00,4.041296005249023438e+00,3.908470153808593750e+00,3.784097909927368164e+00,3.667396306991577148e+00,3.557677507400512695e+00,3.454333543777465820e+00,3.356823444366455078e+00,3.264667510986328125e+00,3.177436590194702148e+00,3.094745635986328125e+00,3.016249656677246094e+00,2.941637039184570312e+00,2.870626449584960938e+00,2.802963972091674805e+00,2.738417387008666992e+00,2.676776647567749023e+00,2.617849826812744141e+00,2.561461448669433594e+00,2.507451534271240234e+00,2.455671787261962891e+00,2.405987501144409180e+00,2.358273983001708984e+00,2.312415599822998047e+00,2.268306970596313477e+00,2.225849628448486328e+00,2.184952497482299805e+00,2.145530939102172852e+00,2.107506752014160156e+00,2.070806741714477539e+00,2.035363435745239258e+00,2.001112699508666992e+00,1.967995643615722656e+00,1.935956835746765137e+00,1.904944658279418945e+00,1.874910235404968262e+00,1.845808148384094238e+00
3.777221679687500000e+00,3.776501893997192383e+00,3.775783061981201172e+00,3.775064229965209961e+00,3.774345636367797852e+00,3.773627519607543945e+00,3.772909164428710938e+00,3.772191524505615234e+00,3.771474123001098633e+00,3.770756959915161133e+00,3.770040035247802734e+00,3.769323587417602539e+00,3.768606901168823242e+00,3.767890691757202148e+00,3.767174959182739258e+00,3.766459465026855469e+00,3.765744447708129883e+00,3.765028953552246094e+00,3.764314174652099609e+00,3.763599872589111328e+00,3.762885808944702148e+00,3.762171983718872070e+00,3.761457920074462891e+00,3.760744571685791016e+00,3.760031700134277344e+00,3.759318828582763672e+00,3.758606433868408203e+00,3.757894039154052734e+00,3.757181644439697266e+00,3.756469964981079102e+00,3.755758523941040039e+00,3.755047559738159180e+00,2.553323030471801758e+00,2.551938295364379883e+00,3.752915143966674805e+00,3.752205133438110352e+00,2.046293258666992188e+00,2.085636854171752930e+00,3.750076532363891602e+00,3.749366998672485352e+00,3.748658180236816406e+00,3.747949838638305664e+00,3.747241735458374023e+00,3.746533632278442383e+00,3.745825529098510742e+00,3.745118141174316406e+00,3.744410991668701172e+00,3.667474985122680664e+00,3.557751893997192383e+00,3.454403162002563477e+00,3.356889724731445312e+00,3.264729976654052734e+00,3.177495479583740234e+00,3.094801902770996094e+00,3.016302824020385742e+00,2.941687583923339844e+00,2.870674848556518555e+00,2.803009748458862305e+00,2.738461256027221680e+00,2.676818609237670898e+00,2.617889881134033203e+00,2.561500072479248047e+00,2.507488250732421875e+00,2.455707073211669922e+00,2.406021356582641602e+00,2.358306407928466797e+00,2.312447071075439453e+00,2.268337249755859375e+00,2.225878477096557617e+00,2.184980392456054688e+00,2.145557880401611328e+00,2.107532739639282227e+00,2.070832014083862305e+00,2.035387754440307617e+00,2.001136302947998047e+00,1.968018531799316406e+00,1.935978770256042480e+00,1.904965877532958984e+00,1.874930858612060547e+00,1.845828056335449219e+00
3.083291292190551758e+00,3.082812070846557617e+00,3.082332849502563477e+00,3.081853866577148438e+00,3.081374645233154297e+00,3.080895900726318359e+00,3.080417394638061523e+00,3.079939126968383789e+00,3.079460859298706055e+00,3.078982353210449219e+00,3.078504323959350586e+00,3.078026533126831055e+00,3.077548980712890625e+00,3.077071428298950195e+00,3.076593637466430664e+00,3.076116561889648438e+00,3.075639486312866211e+00,3.075162410736083984e+00,3.074685573577880859e+00,3.074208974838256836e+00,3.073732376098632812e+00,3.073256015777587891e+00,3.072779655456542969e+00,3.072303771972656250e+00,3.071827888488769531e+00,3.071351766586303711e+00,3.070876121520996094e+00,3.070400714874267578e+00,3.069925308227539062e+00,3.069450139999389648e+00,3.068974971771240234e+00,3.068500041961669922e+00,3.068025350570678711e+00,2.557262659072875977e+00,3.067076444625854492e+00,3.066601991653442383e+00,2.041112899780273438e+00,3.065653800964355469e+00,3.065179824829101562e+00,3.064706325531005859e+00,3.064232826232910156e+00,3.063759088516235352e+00,3.063285827636718750e+00,3.062812566757202148e+00,3.062339782714843750e+00,3.061866998672485352e+00,3.061394214630126953e+00,3.060921430587768555e+00,3.060449123382568359e+00,3.059976816177368164e+00,3.059504747390747070e+00,3.059032678604125977e+00,3.058560609817504883e+00,3.058089017868041992e+00,3.016356229782104492e+00,2.941738367080688477e+00,2.870723009109497070e+00,2.803056001663208008e+00,2.738505125045776367e+00,2.676860570907592773e+00,2.617930173873901367e+00,2.561538457870483398e+00,2.507525205612182617e+00,2.455742359161376953e+00,2.406055212020874023e+00,2.358339071273803711e+00,2.312478303909301758e+00,2.268367290496826172e+00,2.225907564163208008e+00,2.185008287429809570e+00,2.145585060119628906e+00,2.107558965682983398e+00,2.070857048034667969e+00,2.035412073135375977e+00,2.001159667968750000e+00,1.968041181564331055e+00,1.936000823974609375e+00,1.904987096786499023e+00,1.874951362609863281e+00,1.845848083496093750e+00
2.604759454727172852e+00,2.604417085647583008e+00,2.604075193405151367e+00,2.603733301162719727e+00,2.603391408920288086e+00,2.603049755096435547e+00,2.602707862854003906e+00,2.602366209030151367e+00,2.602024793624877930e+00,2.601683378219604492e+00,2.601342201232910156e+00,2.601001024246215820e+00,2.600659608840942383e+00,2.600318670272827148e+00,2.599977731704711914e+00,2.599637031555175781e+00,2.599296331405639648e+00,2.598955392837524414e+00,2.598614692687988281e+00,2.598274230957031250e+00,2.597934007644653320e+00,2.597593545913696289e+00,2.597253322601318359e+00,2.596913099288940430e+00,2.596573114395141602e+00,2.596233129501342773e+00,2.595893383026123047e+00,2.595553636550903320e+00,2.595213651657104492e+00,2.594874143600463867e+00,2.594534635543823242e+00,2.594195365905761719e+00,2.593855857849121094e+00,2.593516588211059570e+00,2.593177318572998047e+00,2.592838287353515625e+00,1.999608039855957031e+00,2.056020498275756836e+00,2.591821670532226562e+00,2.591482877731323242e+00,2.591144323348999023e+00,2.590805768966674805e+00,2.590467214584350586e+00,2.590128898620605469e+00,2.589790582656860352e+00,2.589452266693115234e+00,2.589114189147949219e+00,2.588776350021362305e+00,2.588438272476196289e+00,2.588100433349609375e+00,2.587762594223022461e+00,2.587424993515014648e+00,2.587087392807006836e+00,2.586750030517578125e+00,2.586412668228149414e+00,2.586075305938720703e+00,2.585737943649291992e+00,2.585401058197021484e+00,2.585063934326171875e+00,2.584727048873901367e+00,2.584389925003051758e+00,2.561576843261718750e+00,2.507561922073364258e+00,2.455777883529663086e+00,2.406089305877685547e+00,2.358371496200561523e+00,2.312509775161743164e+00,2.268397331237792969e+00,2.225936651229858398e+00,2.185036420822143555e+00,2.145611763000488281e+00,2.107584953308105469e+00,2.070882320404052734e+00,2.035436153411865234e+00,2.001183032989501953e+00,1.968063831329345703e+00,1.936022758483886719e+00,1.905008435249328613e+00,1.874971866607666016e+00,1.845867991447448730e+00
2.254855155944824219e+00,2.254596710205078125e+00,2.254338264465332031e+00,2.254079818725585938e+00,2.253821849822998047e+00,2.253563642501831055e+00,2.253305435180664062e+00,2.253047227859497070e+00,2.252789258956909180e+00,2.252531290054321289e+00,2.252273321151733398e+00,2.252015590667724609e+00,2.251757621765136719e+00,2.251500129699707031e+00,2.251242399215698242e+00,2.250984668731689453e+00,2.250727176666259766e+00,2.250469684600830078e+00,2.250212430953979492e+00,2.249954938888549805e+00,2.249697685241699219e+00,2.249440193176269531e+00,2.249182939529418945e+00,2.248927354812622070e+00,2.248672485351562500e+00,2.248417377471923828e+00,2.248162508010864258e+00,2.247907638549804688e+00,2.247652769088745117e+00,2.247398138046264648e+00,2.247143268585205078e+00,2.246888637542724609e+00,2.246634006500244141e+00,2.246379613876342773e+00,2.246125221252441406e+00,1.933195352554321289e+00,1.936473846435546875e+00,1.978270173072814941e+00,2.245107889175415039e+00,2.244853734970092773e+00,2.244599580764770508e+00,2.244345426559448242e+00,2.244091510772705078e+00,2.243837594985961914e+00,2.243583679199218750e+00,2.243330001831054688e+00,2.243076086044311523e+00,2.242822408676147461e+00,2.242568731307983398e+00,2.242315292358398438e+00,2.242061614990234375e+00,2.241808176040649414e+00,2.241554737091064453e+00,2.241301298141479492e+00,2.241048097610473633e+00,2.240794897079467773e+00,2.240541696548461914e+00,2.240288496017456055e+00,2.240035295486450195e+00,2.239782333374023438e+00,2.239529371261596680e+00,2.239276647567749023e+00,2.239023685455322266e+00,2.238770723342895508e+00,2.238517999649047852e+00,2.238265514373779297e+00,2.238012790679931641e+00,2.237760305404663086e+00,2.225965738296508789e+00,2.185064315795898438e+00,2.145638942718505859e+00,2.107610940933227539e+00,2.070907354354858398e+00,2.035460472106933594e+00,2.001206636428833008e+00,1.968086600303649902e+00,1.936044692993164062e+00,1.905029654502868652e+00,1.874992609024047852e+00,1.845887899398803711e+00
1.987916469573974609e+00,1.987715601921081543e+00,1.987514734268188477e+00,1.987313866615295410e+00,1.987113118171691895e+00,1.986912369728088379e+00,1.986711621284484863e+00,1.986510992050170898e+00,1.986310601234436035e+00,1.986110091209411621e+00,1.985909581184387207e+00,1.985709071159362793e+00,1.985508561134338379e+00,1.985308170318603516e+00,1.985107779502868652e+00,1.984907507896423340e+00,1.984707236289978027e+00,1.984507203102111816e+00,1.984306931495666504e+00,1.984106779098510742e+00,1.983906626701354980e+00,1.983706593513488770e+00,1.983506560325622559e+00,1.983306527137756348e+00,1.983106493949890137e+00,1.982906579971313477e+00,1.982706904411315918e+00,1.982507109642028809e+00,1.982307314872741699e+00,1.982107520103454590e+00,1.981907844543457031e+00,1.981708168983459473e+00,1.981508493423461914e+00,1.981308817863464355e+00,1.981109261512756348e+00,1.980909824371337891e+00,1.980710506439208984e+00,1.980511069297790527e+00,1.980311632156372070e+00,1.980112314224243164e+00,1.979912996292114258e+00,1.979713678359985352e+00,1.979514479637145996e+00,1.979315280914306641e+00,1.979116082191467285e+00,1.978917121887207031e+00,1.978718042373657227e+00,1.978519082069396973e+00,1.978320002555847168e+00,1.978121042251586914e+00,1.977922081947326660e+00,1.977723240852355957e+00,1.977524399757385254e+00,1.977325558662414551e+00,1.977127075195312500e+00,1.976928353309631348e+00,1.976729631423950195e+00,1.976531028747558594e+00,1.976332426071166992e+00,1.976133823394775391e+00,1.975935220718383789e+00,1.975736737251281738e+00,1.975538372993469238e+00,1.975339889526367188e+00,1.975141763687133789e+00,1.974943399429321289e+00,1.974745154380798340e+00,1.974546909332275391e+00,1.974348664283752441e+00,1.974150538444519043e+00,1.973952412605285645e+00,1.973754286766052246e+00,1.973556280136108398e+00,1.973358511924743652e+00,1.973160505294799805e+00,1.968109250068664551e+00,1.936066746711730957e+00,1.905050873756408691e+00,1.875013232231140137e+00,1.845908045768737793e+00
1.777490019798278809e+00,1.777329325675964355e+00,1.777168989181518555e+00,1.777008414268493652e+00,1.776847839355468750e+00,1.776687383651733398e+00,1.776526927947998047e+00,1.776366472244262695e+00,1.776206016540527344e+00,1.776045680046081543e+00,1.775885224342346191e+00,1.775725126266479492e+00,1.775564789772033691e+00,1.775404572486877441e+00,1.775244355201721191e+00,1.775084137916564941e+00,1.774923920631408691e+00,1.774763703346252441e+00,1.774603605270385742e+00,1.774443507194519043e+00,1.774283647537231445e+00,1.774123549461364746e+00,1.773963570594787598e+00,1.773803591728210449e+00,1.773643612861633301e+00,1.773483753204345703e+00,1.773323774337768555e+00,1.773163914680480957e+00,1.773004055023193359e+00,1.772844314575195312e+00,1.772684693336486816e+00,1.772524952888488770e+00,1.772365212440490723e+00,1.772205471992492676e+00,1.772045850753784180e+00,1.771886229515075684e+00,1.771726608276367188e+00,1.771566987037658691e+00,1.771407485008239746e+00,1.771248102188110352e+00,1.771088600158691406e+00,1.770929098129272461e+00,1.770769715309143066e+00,1.770610332489013672e+00,1.770450949668884277e+00,1.770291566848754883e+00,1.770132184028625488e+00,1.769972920417785645e+00,1.769813895225524902e+00,1.769654631614685059e+00,1.769495368003845215e+00,1.769336223602294922e+00,1.769177079200744629e+00,1.769017934799194336e+00,1.768858790397644043e+00,1.768699765205383301e+00,1.768540740013122559e+00,1.768381714820861816e+00,1.768222928047180176e+00,1.768064022064208984e+00,1.767904996871948242e+00,1.767746210098266602e+00,1.767587304115295410e+00,1.767428398132324219e+00,1.767269611358642578e+00,1.767110824584960938e+00,1.766952157020568848e+00,1.766793608665466309e+00,1.766634821891784668e+00,1.766476154327392578e+00,1.766317605972290039e+00,1.766158938407897949e+00,1.766000390052795410e+00,1.765841841697692871e+00,1.765683293342590332e+00,1.765524864196777344e+00,1.765366554260253906e+00,1.765208125114440918e+00,1.765049695968627930e+00,1.764891386032104492e+00
1.607347965240478516e+00,1.607216596603393555e+00,1.607085227966308594e+00,1.606953978538513184e+00,1.606822609901428223e+00,1.606691598892211914e+00,1.606560349464416504e+00,1.606429100036621094e+00,1.606297850608825684e+00,1.606166720390319824e+00,1.606035590171813965e+00,1.605904459953308105e+00,1.605773329734802246e+00,1.605642318725585938e+00,1.605511188507080078e+00,1.605380296707153320e+00,1.605249285697937012e+00,1.605118274688720703e+00,1.604987263679504395e+00,1.604856371879577637e+00,1.604725360870361328e+00,1.604594469070434570e+00,1.604463577270507812e+00,1.604332685470581055e+00,1.604202032089233398e+00,1.604071140289306641e+00,1.603940367698669434e+00,1.603809595108032227e+00,1.603678822517395020e+00,1.603548049926757812e+00,1.603417396545410156e+00,1.603286623954772949e+00,1.603155970573425293e+00,1.603025436401367188e+00,1.602894783020019531e+00,1.602764129638671875e+00,1.602633595466613770e+00,1.602503061294555664e+00,1.602372407913208008e+00,1.602241873741149902e+00,1.602111458778381348e+00,1.601980924606323242e+00,1.601850509643554688e+00,1.601720213890075684e+00,1.601589798927307129e+00,1.601459383964538574e+00,1.601328969001770020e+00,1.601198554039001465e+00,1.601068258285522461e+00,1.600937962532043457e+00,1.600807666778564453e+00,1.600677371025085449e+00,1.600547194480895996e+00,1.600417017936706543e+00,1.600286841392517090e+00,1.600156664848327637e+00,1.600026488304138184e+00,1.599896192550659180e+00,1.599766135215759277e+00,1.599635958671569824e+00,1.599505901336669922e+00,1.599375963211059570e+00,1.599246025085449219e+00,1.599115967750549316e+00,1.598985910415649414e+00,1.598855972290039062e+00,1.598726034164428711e+00,1.598596096038818359e+00,1.598466157913208008e+00,1.598336219787597656e+00,1.598206400871276855e+00,1.598076701164245605e+00,1.597946882247924805e+00,1.597817063331604004e+00,1.597687244415283203e+00,1.597557425498962402e+00,1.597427725791931152e+00,1.597298026084899902e+00,1.597168326377868652e+00,1.597038626670837402e+00
1.466932535171508789e+00,1.466823101043701172e+00,1.466713786125183105e+00,1.466604351997375488e+00,1.466495037078857422e+00,1.466385722160339355e+00,1.466276407241821289e+00,1.466167092323303223e+00,1.466057777404785156e+00,1.465948581695556641e+00,1.465839385986328125e+00,1.465730190277099609e+00,1.465620875358581543e+00,1.465511679649353027e+00,1.465402483940124512e+00,1.465293288230895996e+00,1.465184211730957031e+00,1.465075016021728516e+00,1.464966058731079102e+00,1.464856982231140137e+00,1.464747905731201172e+00,1.464638829231262207e+00,1.464529752731323242e+00,1.464420676231384277e+00,1.464311599731445312e+00,1.464202642440795898e+00,1.464093685150146484e+00,1.463984847068786621e+00,1.463875770568847656e+00,1.463766932487487793e+00,1.463657975196838379e+00,1.463549017906188965e+00,1.463440179824829102e+00,1.463331222534179688e+00,1.463222384452819824e+00,1.463113546371459961e+00,1.463004708290100098e+00,1.462895989418029785e+00,1.462787270545959473e+00,1.462678432464599609e+00,1.462569713592529297e+00,1.462460994720458984e+00,1.462352156639099121e+00,1.462243556976318359e+00,1.462134838104248047e+00,1.462026119232177734e+00,1.461917519569396973e+00,1.461808919906616211e+00,1.461700320243835449e+00,1.461591720581054688e+00,1.461483120918273926e+00,1.461374521255493164e+00,1.461265921592712402e+00,1.461157321929931641e+00,1.461048841476440430e+00,1.460940361022949219e+00,1.460831880569458008e+00,1.460723400115966797e+00,1.460614919662475586e+00,1.460506439208984375e+00,1.460398077964782715e+00,1.460289597511291504e+00,1.460181236267089844e+00,1.460072755813598633e+00,1.459964394569396973e+00,1.459856152534484863e+00,1.459747791290283203e+00,1.459639549255371094e+00,1.459531188011169434e+00,1.459422945976257324e+00,1.459314584732055664e+00,1.459206342697143555e+00,1.459098100662231445e+00,1.458989858627319336e+00,1.458881735801696777e+00,1.458773612976074219e+00,1.458665370941162109e+00,1.458557248115539551e+00,1.458449006080627441e+00,1.458340883255004883e+00
1.349078893661499023e+00,1.348986387252807617e+00,1.348893880844116211e+00,1.348801493644714355e+00,1.348708987236022949e+00,1.348616480827331543e+00,1.348524093627929688e+00,1.348431587219238281e+00,1.348339200019836426e+00,1.348246812820434570e+00,1.348154306411743164e+00,1.348061919212341309e+00,1.347969651222229004e+00,1.347877264022827148e+00,1.347784876823425293e+00,1.347692608833312988e+00,1.347600221633911133e+00,1.347507953643798828e+00,1.347415566444396973e+00,1.347323298454284668e+00,1.347231030464172363e+00,1.347138762474060059e+00,1.347046613693237305e+00,1.346954345703125000e+00,1.346862196922302246e+00,1.346769928932189941e+00,1.346677660942077637e+00,1.346585512161254883e+00,1.346493363380432129e+00,1.346401095390319824e+00,1.346308946609497070e+00,1.346216917037963867e+00,1.346124768257141113e+00,1.346032738685607910e+00,1.345940589904785156e+00,1.345848441123962402e+00,1.345756411552429199e+00,1.345664262771606445e+00,1.345572233200073242e+00,1.345480203628540039e+00,1.345388293266296387e+00,1.345296263694763184e+00,1.345204234123229980e+00,1.345112204551696777e+00,1.345020294189453125e+00,1.344928264617919922e+00,1.344836354255676270e+00,1.344744324684143066e+00,1.344652414321899414e+00,1.344560503959655762e+00,1.344468712806701660e+00,1.344376802444458008e+00,1.344284892082214355e+00,1.344193100929260254e+00,1.344101190567016602e+00,1.344009399414062500e+00,1.343917489051818848e+00,1.343825697898864746e+00,1.343733906745910645e+00,1.343642234802246094e+00,1.343550443649291992e+00,1.343458652496337891e+00,1.343366861343383789e+00,1.343275189399719238e+00,1.343183398246765137e+00,1.343091726303100586e+00,1.342999935150146484e+00,1.342908263206481934e+00,1.342816710472106934e+00,1.342725038528442383e+00,1.342633366584777832e+00,1.342541694641113281e+00,1.342450022697448730e+00,1.342358469963073730e+00,1.342266798019409180e+00,1.342175245285034180e+00,1.342083692550659180e+00,1.341992139816284180e+00,1.341900587081909180e+00,1.341809034347534180e+00
1.248754024505615234e+00,1.248674750328063965e+00,1.248595476150512695e+00,1.248516201972961426e+00,1.248436927795410156e+00,1.248357653617858887e+00,1.248278617858886719e+00,1.248199343681335449e+00,1.248120188713073730e+00,1.248040914535522461e+00,1.247961759567260742e+00,1.247882604598999023e+00,1.247803449630737305e+00,1.247724294662475586e+00,1.247645139694213867e+00,1.247565984725952148e+00,1.247486948966979980e+00,1.247407793998718262e+00,1.247328758239746094e+00,1.247249603271484375e+00,1.247170567512512207e+00,1.247091412544250488e+00,1.247012376785278320e+00,1.246933341026306152e+00,1.246854305267333984e+00,1.246775388717651367e+00,1.246696352958679199e+00,1.246617317199707031e+00,1.246538281440734863e+00,1.246459245681762695e+00,1.246380329132080078e+00,1.246301293373107910e+00,1.246222376823425293e+00,1.246143341064453125e+00,1.246064543724060059e+00,1.245985627174377441e+00,1.245906710624694824e+00,1.245827794075012207e+00,1.245748877525329590e+00,1.245669960975646973e+00,1.245591044425964355e+00,1.245512127876281738e+00,1.245433330535888672e+00,1.245354413986206055e+00,1.245275735855102539e+00,1.245196819305419922e+00,1.245118021965026855e+00,1.245039224624633789e+00,1.244960427284240723e+00,1.244881629943847656e+00,1.244802832603454590e+00,1.244724035263061523e+00,1.244645237922668457e+00,1.244566559791564941e+00,1.244487881660461426e+00,1.244409084320068359e+00,1.244330406188964844e+00,1.244251728057861328e+00,1.244172930717468262e+00,1.244094252586364746e+00,1.244015574455261230e+00,1.243936896324157715e+00,1.243858337402343750e+00,1.243779659271240234e+00,1.243700981140136719e+00,1.243622422218322754e+00,1.243543744087219238e+00,1.243465185165405273e+00,1.243386507034301758e+00,1.243307948112487793e+00,1.243229389190673828e+00,1.243150830268859863e+00,1.243072271347045898e+00,1.242993712425231934e+00,1.242915153503417969e+00,1.242836713790893555e+00,1.242758154869079590e+00,1.242679595947265625e+00,1.242601156234741211e+00,1.242522597312927246e+00
1.162317633628845215e+00,1.162248969078063965e+00,1.162180304527282715e+00,1.162111639976501465e+00,1.162042975425720215e+00,1.161974310874938965e+00,1.161905646324157715e+00,1.161837100982666016e+00,1.161768436431884766e+00,1.161699771881103516e+00,1.161631226539611816e+00,1.161562681198120117e+00,1.161494135856628418e+00,1.161425471305847168e+00,1.161356925964355469e+00,1.161288380622863770e+00,1.161219835281372070e+00,1.161151170730590820e+00,1.161082625389099121e+00,1.161014199256896973e+00,1.160945653915405273e+00,1.160877227783203125e+00,1.160808682441711426e+00,1.160740137100219727e+00,1.160671710968017578e+00,1.160603165626525879e+00,1.160534739494323730e+00,1.160466194152832031e+00,1.160397768020629883e+00,1.160329341888427734e+00,1.160260915756225586e+00,1.160192489624023438e+00,1.160124063491821289e+00,1.160055637359619141e+00,1.159987211227416992e+00,1.159918785095214844e+00,1.159850358963012695e+00,1.159781932830810547e+00,1.159713625907897949e+00,1.159645318984985352e+00,1.159576892852783203e+00,1.159508585929870605e+00,1.159440159797668457e+00,1.159371852874755859e+00,1.159303545951843262e+00,1.159235239028930664e+00,1.159166932106018066e+00,1.159098625183105469e+00,1.159030318260192871e+00,1.158962011337280273e+00,1.158893704414367676e+00,1.158825516700744629e+00,1.158757209777832031e+00,1.158688902854919434e+00,1.158620715141296387e+00,1.158552408218383789e+00,1.158484220504760742e+00,1.158416032791137695e+00,1.158347845077514648e+00,1.158279657363891602e+00,1.158211469650268555e+00,1.158143281936645508e+00,1.158075094223022461e+00,1.158006906509399414e+00,1.157938718795776367e+00,1.157870531082153320e+00,1.157802462577819824e+00,1.157734274864196777e+00,1.157666087150573730e+00,1.157598018646240234e+00,1.157529830932617188e+00,1.157461762428283691e+00,1.157393693923950195e+00,1.157325506210327148e+00,1.157257437705993652e+00,1.157189488410949707e+00,1.157121419906616211e+00,1.157053351402282715e+00,1.156985282897949219e+00,1.156917214393615723e+00
1.087072491645812988e+00,1.087012410163879395e+00,1.086952328681945801e+00,1.086892247200012207e+00,1.086832284927368164e+00,1.086772203445434570e+00,1.086712241172790527e+00,1.086652159690856934e+00,1.086592078208923340e+00,1.086532115936279297e+00,1.086472034454345703e+00,1.086412072181701660e+00,1.086352109909057617e+00,1.086292147636413574e+00,1.086232185363769531e+00,1.086172103881835938e+00,1.086112141609191895e+00,1.086052179336547852e+00,1.085992217063903809e+00,1.085932254791259766e+00,1.085872292518615723e+00,1.085812330245971680e+00,1.085752487182617188e+00,1.085692644119262695e+00,1.085632681846618652e+00,1.085572719573974609e+00,1.085512876510620117e+00,1.085452914237976074e+00,1.085393071174621582e+00,1.085333108901977539e+00,1.085273265838623047e+00,1.085213422775268555e+00,1.085153579711914062e+00,1.085093736648559570e+00,1.085033893585205078e+00,1.084973931312561035e+00,1.084914088249206543e+00,1.084854364395141602e+00,1.084794521331787109e+00,1.084734678268432617e+00,1.084674835205078125e+00,1.084615111351013184e+00,1.084555268287658691e+00,1.084495425224304199e+00,1.084435701370239258e+00,1.084375858306884766e+00,1.084316134452819824e+00,1.084256291389465332e+00,1.084196567535400391e+00,1.084136843681335449e+00,1.084077000617980957e+00,1.084017395973205566e+00,1.083957672119140625e+00,1.083897829055786133e+00,1.083838105201721191e+00,1.083778381347656250e+00,1.083718776702880859e+00,1.083659052848815918e+00,1.083599328994750977e+00,1.083539605140686035e+00,1.083480000495910645e+00,1.083420276641845703e+00,1.083360671997070312e+00,1.083300948143005371e+00,1.083241343498229980e+00,1.083181619644165039e+00,1.083122014999389648e+00,1.083062410354614258e+00,1.083002686500549316e+00,1.082943201065063477e+00,1.082883477210998535e+00,1.082823872566223145e+00,1.082764267921447754e+00,1.082704663276672363e+00,1.082645058631896973e+00,1.082585453987121582e+00,1.082525968551635742e+00,1.082466363906860352e+00,1.082406759262084961e+00,1.082347273826599121e+00
1.020977377891540527e+00,1.020924448966979980e+00,1.020871400833129883e+00,1.020818471908569336e+00,1.020765423774719238e+00,1.020712494850158691e+00,1.020659446716308594e+00,1.020606517791748047e+00,1.020553588867187500e+00,1.020500659942626953e+00,1.020447731018066406e+00,1.020394802093505859e+00,1.020341873168945312e+00,1.020288944244384766e+00,1.020236015319824219e+00,1.020183086395263672e+00,1.020130157470703125e+00,1.020077347755432129e+00,1.020024418830871582e+00,1.019971489906311035e+00,1.019918680191040039e+00,1.019865751266479492e+00,1.019812941551208496e+00,1.019760012626647949e+00,1.019707202911376953e+00,1.019654273986816406e+00,1.019601464271545410e+00,1.019548654556274414e+00,1.019495844841003418e+00,1.019442915916442871e+00,1.019390106201171875e+00,1.019337296485900879e+00,1.019284486770629883e+00,1.019231677055358887e+00,1.019178867340087891e+00,1.019126057624816895e+00,1.019073247909545898e+00,1.019020438194274902e+00,1.018967628479003906e+00,1.018914937973022461e+00,1.018862128257751465e+00,1.018809318542480469e+00,1.018756508827209473e+00,1.018703818321228027e+00,1.018651008605957031e+00,1.018598318099975586e+00,1.018545627593994141e+00,1.018492817878723145e+00,1.018440127372741699e+00,1.018387436866760254e+00,1.018334627151489258e+00,1.018281936645507812e+00,1.018229246139526367e+00,1.018176555633544922e+00,1.018123865127563477e+00,1.018071174621582031e+00,1.018018484115600586e+00,1.017965793609619141e+00,1.017913103103637695e+00,1.017860412597656250e+00,1.017807722091674805e+00,1.017755031585693359e+00,1.017702460289001465e+00,1.017649769783020020e+00,1.017597198486328125e+00,1.017544507980346680e+00,1.017491936683654785e+00,1.017439246177673340e+00,1.017386674880981445e+00,1.017333984375000000e+00,1.017281413078308105e+00,1.017228841781616211e+00,1.017176151275634766e+00,1.017123579978942871e+00,1.017071008682250977e+00,1.017018437385559082e+00,1.016965866088867188e+00,1.016913294792175293e+00,1.016860723495483398e+00,1.016808152198791504e+00
9.624589085578918457e-01,9.624117612838745117e-01,9.623647332191467285e-01,9.623177051544189453e-01,9.622705578804016113e-01,9.622235298156738281e-01,9.621764421463012695e-01,9.621294140815734863e-01,9.620822668075561523e-01,9.620352983474731445e-01,9.619881510734558105e-01,9.619411826133728027e-01,9.618942141532897949e-01,9.618471264839172363e-01,9.618000984191894531e-01,9.617530107498168945e-01,9.617060422897338867e-01,9.616590142250061035e-01,9.616120457649230957e-01,9.615649580955505371e-01,9.615179896354675293e-01,9.614710807800292969e-01,9.614239931106567383e-01,9.613770842552185059e-01,9.613300561904907227e-01,9.612830877304077148e-01,9.612360596656799316e-01,9.611891508102416992e-01,9.611421227455139160e-01,9.610952138900756836e-01,9.610483050346374512e-01,9.610012769699096680e-01,9.609543681144714355e-01,9.609073996543884277e-01,9.608604907989501953e-01,9.608135223388671875e-01,9.607666134834289551e-01,9.607196450233459473e-01,9.606727957725524902e-01,9.606259465217590332e-01,9.605789780616760254e-01,9.605320692062377930e-01,9.604851603507995605e-01,9.604383111000061035e-01,9.603913426399230957e-01,9.603444933891296387e-01,9.602975249290466309e-01,9.602507352828979492e-01,9.602038860321044922e-01,9.601569771766662598e-01,9.601101279258728027e-01,9.600632190704345703e-01,9.600164294242858887e-01,9.599695205688476562e-01,9.599227309226989746e-01,9.598758220672607422e-01,9.598290324211120605e-01,9.597821235656738281e-01,9.597353339195251465e-01,9.596886038780212402e-01,9.596416950225830078e-01,9.595949649810791016e-01,9.595480561256408691e-01,9.595013260841369629e-01,9.594544768333435059e-01,9.594076871871948242e-01,9.593608379364013672e-01,9.593141078948974609e-01,9.592673778533935547e-01,9.592205286026000977e-01,9.591737985610961914e-01,9.591270089149475098e-01,9.590802788734436035e-01,9.590334296226501465e-01,9.589867591857910156e-01,9.589399695396423340e-01,9.588932394981384277e-01,9.588465690612792969e-01,9.587997794151306152e-01,9.587530493736267090e-01
9.102848172187805176e-01,9.102427959442138672e-01,9.102005958557128906e-01,9.101585149765014648e-01,9.101163744926452637e-01,9.100742936134338379e-01,9.100322127342224121e-01,9.099900722503662109e-01,9.099480509757995605e-01,9.099059104919433594e-01,9.098638296127319336e-01,9.098216891288757324e-01,9.097796678543090820e-01,9.097375273704528809e-01,9.096955060958862305e-01,9.096534848213195801e-01,9.096113443374633789e-01,9.095693826675415039e-01,9.095272421836853027e-01,9.094852209091186523e-01,9.094431400299072266e-01,9.094011187553405762e-01,9.093590378761291504e-01,9.093170166015625000e-01,9.092750549316406250e-01,9.092329740524291992e-01,9.091910123825073242e-01,9.091489315032958984e-01,9.091069698333740234e-01,9.090648889541625977e-01,9.090229272842407227e-01,9.089808464050292969e-01,9.089388847351074219e-01,9.088969230651855469e-01,9.088549017906188965e-01,9.088129401206970215e-01,9.087709188461303711e-01,9.087289571762084961e-01,9.086869359016418457e-01,9.086450338363647461e-01,9.086030125617980957e-01,9.085610508918762207e-01,9.085190296173095703e-01,9.084771275520324707e-01,9.084352254867553711e-01,9.083932042121887207e-01,9.083513021469116211e-01,9.083093404769897461e-01,9.082674384117126465e-01,9.082254171371459961e-01,9.081835746765136719e-01,9.081415534019470215e-01,9.080997109413146973e-01,9.080578088760375977e-01,9.080158472061157227e-01,9.079740047454833984e-01,9.079319834709167480e-01,9.078901410102844238e-01,9.078481793403625488e-01,9.078063368797302246e-01,9.077643752098083496e-01,9.077225327491760254e-01,9.076806902885437012e-01,9.076387882232666016e-01,9.075969457626342773e-01,9.075549840927124023e-01,9.075132012367248535e-01,9.074712395668029785e-01,9.074294567108154297e-01,9.073875546455383301e-01,9.073457121849060059e-01,9.073039293289184570e-01,9.072620272636413574e-01,9.072202444076538086e-01,9.071783423423767090e-01,9.071365594863891602e-01,9.070946574211120605e-01,9.070528745651245117e-01,9.070109724998474121e-01,9.069691896438598633e-01
8.634766340255737305e-01,8.634386658668518066e-01,8.634008169174194336e-01,8.633628487586975098e-01,8.633249998092651367e-01,8.632870912551879883e-01,8.632492423057556152e-01,8.632112741470336914e-01,8.631734848022460938e-01,8.631356358528137207e-01,8.630977272987365723e-01,8.630598783493041992e-01,8.630219697952270508e-01,8.629841208457946777e-01,8.629462122917175293e-01,8.629084229469299316e-01,8.628705143928527832e-01,8.628327250480651855e-01,8.627948760986328125e-01,8.627570271492004395e-01,8.627192378044128418e-01,8.626813292503356934e-01,8.626435399055480957e-01,8.626056313514709473e-01,8.625679016113281250e-01,8.625299930572509766e-01,8.624922037124633789e-01,8.624544739723205566e-01,8.624165654182434082e-01,8.623788356781005859e-01,8.623409867286682129e-01,8.623031973838806152e-01,8.622653484344482422e-01,8.622276186943054199e-01,8.621897697448730469e-01,8.621519804000854492e-01,8.621141910552978516e-01,8.620764017105102539e-01,8.620386719703674316e-01,8.620008826255798340e-01,8.619631528854370117e-01,8.619253039360046387e-01,8.618875741958618164e-01,8.618497848510742188e-01,8.618120551109313965e-01,8.617742657661437988e-01,8.617365360260009766e-01,8.616988062858581543e-01,8.616610169410705566e-01,8.616233468055725098e-01,8.615855574607849121e-01,8.615478277206420898e-01,8.615100383758544922e-01,8.614723682403564453e-01,8.614345788955688477e-01,8.613969087600708008e-01,8.613592386245727539e-01,8.613214492797851562e-01,8.612837791442871094e-01,8.612460494041442871e-01,8.612083792686462402e-01,8.611706495285034180e-01,8.611329793930053711e-01,8.610951900482177734e-01,8.610575795173645020e-01,8.610199093818664551e-01,8.609821796417236328e-01,8.609445095062255859e-01,8.609067797660827637e-01,8.608691692352294922e-01,8.608314394950866699e-01,8.607938289642333984e-01,8.607560992240905762e-01,8.607184886932373047e-01,8.606808781623840332e-01,8.606431484222412109e-01,8.606055378913879395e-01,8.605678677558898926e-01,8.605302572250366211e-01,8.604925274848937988e-01
8.212468028068542480e-01,8.212124705314636230e-01,8.211781978607177734e-01,8.211439847946166992e-01,8.211096525192260742e-01,8.210753798484802246e-01,8.210411071777343750e-01,8.210068345069885254e-01,8.209725618362426758e-01,8.209383487701416016e-01,8.209040164947509766e-01,8.208698034286499023e-01,8.208355903625488281e-01,8.208012580871582031e-01,8.207671046257019043e-01,8.207327723503112793e-01,8.206985592842102051e-01,8.206642866134643555e-01,8.206300735473632812e-01,8.205958008766174316e-01,8.205616474151611328e-01,8.205273747444152832e-01,8.204931616783142090e-01,8.204590082168579102e-01,8.204247355461120605e-01,8.203905224800109863e-01,8.203563094139099121e-01,8.203220963478088379e-01,8.202878832817077637e-01,8.202536702156066895e-01,8.202194571495056152e-01,8.201853036880493164e-01,8.201510906219482422e-01,8.201168775558471680e-01,8.200827240943908691e-01,8.200485110282897949e-01,8.200143575668334961e-01,8.199801445007324219e-01,8.199459910392761230e-01,8.199117779731750488e-01,8.198776245117187500e-01,8.198434710502624512e-01,8.198092579841613770e-01,8.197751641273498535e-01,8.197409510612487793e-01,8.197067975997924805e-01,8.196725845336914062e-01,8.196384906768798828e-01,8.196042776107788086e-01,8.195701837539672852e-01,8.195360898971557617e-01,8.195018768310546875e-01,8.194677829742431641e-01,8.194336295127868652e-01,8.193994760513305664e-01,8.193653225898742676e-01,8.193312287330627441e-01,8.192970752716064453e-01,8.192629814147949219e-01,8.192288875579833984e-01,8.191947340965270996e-01,8.191606402397155762e-01,8.191264867782592773e-01,8.190924525260925293e-01,8.190582990646362305e-01,8.190242052078247070e-01,8.189900517463684082e-01,8.189560174942016602e-01,8.189219236373901367e-01,8.188878297805786133e-01,8.188537359237670898e-01,8.188196420669555664e-01,8.187856078147888184e-01,8.187514543533325195e-01,8.187174201011657715e-01,8.186832666397094727e-01,8.186492323875427246e-01,8.186151385307312012e-01,8.185811042785644531e-01,8.185470700263977051e-01
7.829549908638000488e-01,7.829238772392272949e-01,7.828927040100097656e-01,7.828615307807922363e-01,7.828303575515747070e-01,7.827992439270019531e-01,7.827681303024291992e-01,7.827369570732116699e-01,7.827058434486389160e-01,7.826746106147766113e-01,7.826435565948486328e-01,7.826123237609863281e-01,7.825812697410583496e-01,7.825500965118408203e-01,7.825189828872680664e-01,7.824878096580505371e-01,7.824566960334777832e-01,7.824256420135498047e-01,7.823944687843322754e-01,7.823633551597595215e-01,7.823322415351867676e-01,7.823011279106140137e-01,7.822700142860412598e-01,7.822389006614685059e-01,7.822077870368957520e-01,7.821766734123229980e-01,7.821456193923950195e-01,7.821145057678222656e-01,7.820834517478942871e-01,7.820522785186767578e-01,7.820212244987487793e-01,7.819901108741760254e-01,7.819590568542480469e-01,7.819279432296752930e-01,7.818968892097473145e-01,7.818658351898193359e-01,7.818347215652465820e-01,7.818036675453186035e-01,7.817725539207458496e-01,7.817414999008178711e-01,7.817104458808898926e-01,7.816793918609619141e-01,7.816482782363891602e-01,7.816172838211059570e-01,7.815862298011779785e-01,7.815551161766052246e-01,7.815241217613220215e-01,7.814930081367492676e-01,7.814620137214660645e-01,7.814309597015380859e-01,7.813999056816101074e-01,7.813688516616821289e-01,7.813378572463989258e-01,7.813068628311157227e-01,7.812757492065429688e-01,7.812447547912597656e-01,7.812137007713317871e-01,7.811827063560485840e-01,7.811516523361206055e-01,7.811206579208374023e-01,7.810896039009094238e-01,7.810586094856262207e-01,7.810276150703430176e-01,7.809966206550598145e-01,7.809656262397766113e-01,7.809345722198486328e-01,7.809035778045654297e-01,7.808725833892822266e-01,7.808415889739990234e-01,7.808105945587158203e-01,7.807796001434326172e-01,7.807486057281494141e-01,7.807176113128662109e-01,7.806866765022277832e-01,7.806556224822998047e-01,7.806246876716613770e-01,7.805936932563781738e-01,7.805627584457397461e-01,7.805317044258117676e-01,7.805007696151733398e-01
7.480749487876892090e-01,7.480465173721313477e-01,7.480181455612182617e-01,7.479896545410156250e-01,7.479612231254577637e-01,7.479327321052551270e-01,7.479043602943420410e-01,7.478758692741394043e-01,7.478474974632263184e-01,7.478190064430236816e-01,7.477906346321105957e-01,7.477622032165527344e-01,7.477337718009948730e-01,7.477053403854370117e-01,7.476769089698791504e-01,7.476485371589660645e-01,7.476200461387634277e-01,7.475916743278503418e-01,7.475632429122924805e-01,7.475348711013793945e-01,7.475064992904663086e-01,7.474780082702636719e-01,7.474496364593505859e-01,7.474212050437927246e-01,7.473928332328796387e-01,7.473644018173217773e-01,7.473360300064086914e-01,7.473076581954956055e-01,7.472792863845825195e-01,7.472509145736694336e-01,7.472224831581115723e-01,7.471941113471984863e-01,7.471657395362854004e-01,7.471373677253723145e-01,7.471089363098144531e-01,7.470806241035461426e-01,7.470521926879882812e-01,7.470238804817199707e-01,7.469955086708068848e-01,7.469671368598937988e-01,7.469387650489807129e-01,7.469103932380676270e-01,7.468820810317993164e-01,7.468536496162414551e-01,7.468253374099731445e-01,7.467969655990600586e-01,7.467686533927917480e-01,7.467402815818786621e-01,7.467119097709655762e-01,7.466835975646972656e-01,7.466552257537841797e-01,7.466269135475158691e-01,7.465985417366027832e-01,7.465702295303344727e-01,7.465418577194213867e-01,7.465135455131530762e-01,7.464851737022399902e-01,7.464569211006164551e-01,7.464286088943481445e-01,7.464002370834350586e-01,7.463719248771667480e-01,7.463436126708984375e-01,7.463153004646301270e-01,7.462869882583618164e-01,7.462586760520935059e-01,7.462303042411804199e-01,7.462020516395568848e-01,7.461737990379333496e-01,7.461454272270202637e-01,7.461171746253967285e-01,7.460888028144836426e-01,7.460605502128601074e-01,7.460322380065917969e-01,7.460039854049682617e-01,7.459756135940551758e-01,7.459473609924316406e-01,7.459191083908081055e-01,7.458907961845397949e-01,7.458625435829162598e-01,7.458342313766479492e-01
7.161701917648315430e-01,7.161440849304199219e-01,7.161180377006530762e-01,7.160919308662414551e-01,7.160658836364746094e-01,7.160398364067077637e-01,7.160137295722961426e-01,7.159877419471740723e-01,7.159616351127624512e-01,7.159355878829956055e-01,7.159094810485839844e-01,7.158834934234619141e-01,7.158573865890502930e-01,7.158313989639282227e-01,7.158053517341613770e-01,7.157792448997497559e-01,7.157532572746276855e-01,7.157271504402160645e-01,7.157011628150939941e-01,7.156751155853271484e-01,7.156490683555603027e-01,7.156230211257934570e-01,7.155970335006713867e-01,7.155709862709045410e-01,7.155449390411376953e-01,7.155189514160156250e-01,7.154929041862487793e-01,7.154668569564819336e-01,7.154408097267150879e-01,7.154148221015930176e-01,7.153887748718261719e-01,7.153627872467041016e-01,7.153367996215820312e-01,7.153107523918151855e-01,7.152847647666931152e-01,7.152587175369262695e-01,7.152327299118041992e-01,7.152067422866821289e-01,7.151807546615600586e-01,7.151547074317932129e-01,7.151287198066711426e-01,7.151027917861938477e-01,7.150767445564270020e-01,7.150507569313049316e-01,7.150247693061828613e-01,7.149987816810607910e-01,7.149727940559387207e-01,7.149468064308166504e-01,7.149208188056945801e-01,7.148948311805725098e-01,7.148688435554504395e-01,7.148428559303283691e-01,7.148169279098510742e-01,7.147909402847290039e-01,7.147649526596069336e-01,7.147389650344848633e-01,7.147130370140075684e-01,7.146870493888854980e-01,7.146610617637634277e-01,7.146350741386413574e-01,7.146091461181640625e-01,7.145832180976867676e-01,7.145572304725646973e-01,7.145313024520874023e-01,7.145053148269653320e-01,7.144793868064880371e-01,7.144533991813659668e-01,7.144274711608886719e-01,7.144014835357666016e-01,7.143756151199340820e-01,7.143496870994567871e-01,7.143236994743347168e-01,7.142977714538574219e-01,7.142718434333801270e-01,7.142459154129028320e-01,7.142199277877807617e-01,7.141940593719482422e-01,7.141680717468261719e-01,7.141421437263488770e-01,7.141162753105163574e-01
