5.000000000000000000e+00,5.000000000000000000e+00,5.000000000000000000e+00,5.000000000000000000e+00,5.000000000000000000e+00,5.000000000000000000e+00,5.000000000000000000e+00,5.000000000000000000e+00,5.000000000000000000e+00,5.000000000000000000e+00,5.000000000000000000e+00,5.000000000000000000e+00,5.000000000000000000e+00,5.000000000000000000e+00,5.000000000000000000e+00,5.000000000000000000e+00,5.000000000000000000e+00,5.000000000000000000e+00,5.000000000000000000e+00,5.000000000000000000e+00,5.000000000000000000e+00,5.000000000000000000e+00,5.000000000000000000e+00,5.000000000000000000e+00,5.000000000000000000e+00,5.000000000000000000e+00,5.000000000000000000e+00,5.000000000000000000e+00,5.000000000000000000e+00,5.000000000000000000e+00,2.144982337951660156e+00,2.126604080200195312e+00,2.111356258392333984e+00,2.066779851913452148e+00,2.070338726043701172e+00,2.080622673034667969e+00,2.129186153411865234e+00,2.140475273132324219e+00,2.162535905838012695e+00,2.181442737579345703e+00,2.315801143646240234e+00,2.279288768768310547e+00,2.285962581634521484e+00,4.169973373413085938e+00,4.028780460357666016e+00,3.896836042404174805e+00,3.773260116577148438e+00,3.657280921936035156e+00,3.548218250274658203e+00,3.445472240447998047e+00,3.348509311676025391e+00,3.256854772567749023e+00,3.170083522796630859e+00,3.087815999984741211e+00,3.009710550308227539e+00,2.935458898544311523e+00,2.864782810211181641e+00,2.797429800033569336e+00,2.733171224594116211e+00,2.671798229217529297e+00,2.613121032714843750e+00,2.556966066360473633e+00,2.503173351287841797e+00,2.451597690582275391e+00,2.402104139328002930e+00,2.354569911956787109e+00,2.308880090713500977e+00,2.264929771423339844e+00,2.222621440887451172e+00,2.181864738464355469e+00,2.142575979232788086e+00,2.104676961898803711e+00,2.068095207214355469e+00,2.032763957977294922e+00,1.998619318008422852e+00,1.965602636337280273e+00,1.933659195899963379e+00,1.902737379074096680e+00,1.872789025306701660e+00,1.843768835067749023e+00
5.000000000000000000e+00,5.000000000000000000e+00,5.000000000000000000e+00,5.000000000000000000e+00,5.000000000000000000e+00,5.000000000000000000e+00,5.000000000000000000e+00,5.000000000000000000e+00,5.000000000000000000e+00,5.000000000000000000e+00,5.000000000000000000e+00,5.000000000000000000e+00,5.000000000000000000e+00,5.000000000000000000e+00,5.000000000000000000e+00,5.000000000000000000e+00,5.000000000000000000e+00,5.000000000000000000e+00,5.000000000000000000e+00,5.000000000000000000e+00,5.000000000000000000e+00,5.000000000000000000e+00,5.000000000000000000e+00,5.000000000000000000e+00,5.000000000000000000e+00,5.000000000000000000e+00,5.000000000000000000e+00,5.000000000000000000e+00,5.000000000000000000e+00,5.000000000000000000e+00,2.133958101272583008e+00,2.112979888916015625e+00,2.103145360946655273e+00,2.059045076370239258e+00,2.056102037429809570e+00,2.057720899581909180e+00,2.111801385879516602e+00,2.148633003234863281e+00,2.148119449615478516e+00,2.147875547409057617e+00,4.660035610198974609e+00,2.273524284362792969e+00,2.260654211044311523e+00,4.170075893402099609e+00,4.028876304626464844e+00,3.896925687789916992e+00,3.773344039916992188e+00,3.657359838485717773e+00,3.548292875289916992e+00,3.445542812347412109e+00,3.348575830459594727e+00,3.256917238235473633e+00,3.170142889022827148e+00,3.087872505187988281e+00,3.009764194488525391e+00,2.935510158538818359e+00,2.864831209182739258e+00,2.797475814819335938e+00,2.733215332031250000e+00,2.671840667724609375e+00,2.613161563873291016e+00,2.557004451751708984e+00,2.503210544586181641e+00,2.451633214950561523e+00,2.402138471603393555e+00,2.354602813720703125e+00,2.308911561965942383e+00,2.264960050582885742e+00,2.222650766372680664e+00,2.181892871856689453e+00,2.142603158950805664e+00,2.104703187942504883e+00,2.068120479583740234e+00,2.032788276672363281e+00,1.998642921447753906e+00,1.965625643730163574e+00,1.933681488037109375e+00,1.902758836746215820e+00,1.872809767723083496e+00,1.843788862228393555e+00
5.000000000000000000e+00,5.000000000000000000e+00,5.000000000000000000e+00,5.000000000000000000e+00,5.000000000000000000e+00,5.000000000000000000e+00,5.000000000000000000e+00,5.000000000000000000e+00,5.000000000000000000e+00,5.000000000000000000e+00,5.000000000000000000e+00,5.000000000000000000e+00,5.000000000000000000e+00,5.000000000000000000e+00,5.000000000000000000e+00,5.000000000000000000e+00,5.000000000000000000e+00,5.000000000000000000e+00,5.000000000000000000e+00,5.000000000000000000e+00,5.000000000000000000e+00,5.000000000000000000e+00,5.000000000000000000e+00,5.000000000000000000e+00,5.000000000000000000e+00,5.000000000000000000e+00,5.000000000000000000e+00,5.000000000000000000e+00,5.000000000000000000e+00,5.000000000000000000e+00,2.125788450241088867e+00,2.101476430892944336e+00,2.105666399002075195e+00,2.050678253173828125e+00,2.051895141601562500e+00,2.053113222122192383e+00,2.080560922622680664e+00,2.138862609863281250e+00,2.128258943557739258e+00,2.128512144088745117e+00,2.176860809326171875e+00,2.297122001647949219e+00,2.260558366775512695e+00,4.170178890228271484e+00,4.028972625732421875e+00,3.897015810012817383e+00,3.773428440093994141e+00,3.657438993453979492e+00,3.548367261886596680e+00,3.445612907409667969e+00,3.348642110824584961e+00,3.256980180740356445e+00,3.170202493667602539e+00,3.087928771972656250e+00,3.009817838668823242e+00,2.935560941696166992e+00,2.864879846572875977e+00,2.797522306442260742e+00,2.733259439468383789e+00,2.671882629394531250e+00,2.613201856613159180e+00,2.557043313980102539e+00,2.503247499465942383e+00,2.451668739318847656e+00,2.402172565460205078e+00,2.354635477066040039e+00,2.308943033218383789e+00,2.264990568161010742e+00,2.222679853439331055e+00,2.181921005249023438e+00,2.142630100250244141e+00,2.104729413986206055e+00,2.068145990371704102e+00,2.032812833786010742e+00,1.998666405677795410e+00,1.965648412704467773e+00,1.933703541755676270e+00,1.902780413627624512e+00,1.872830629348754883e+00,1.843809127807617188e+00
5.000000000000000000e+00,5.000000000000000000e+00,5.000000000000000000e+00,5.000000000000000000e+00,5.000000000000000000e+00,5.000000000000000000e+00,5.000000000000000000e+00,5.000000000000000000e+00,5.000000000000000000e+00,5.000000000000000000e+00,5.000000000000000000e+00,5.000000000000000000e+00,5.000000000000000000e+00,5.000000000000000000e+00,5.000000000000000000e+00,5.000000000000000000e+00,5.000000000000000000e+00,5.000000000000000000e+00,5.000000000000000000e+00,5.000000000000000000e+00,5.000000000000000000e+00,5.000000000000000000e+00,5.000000000000000000e+00,5.000000000000000000e+00,5.000000000000000000e+00,5.000000000000000000e+00,5.000000000000000000e+00,5.000000000000000000e+00,5.000000000000000000e+00,5.000000000000000000e+00,2.134294986724853516e+00,2.110553979873657227e+00,2.114700794219970703e+00,2.057062864303588867e+00,2.049842357635498047e+00,2.050881624221801758e+00,2.071838140487670898e+00,2.138486146926879883e+00,2.120198965072631836e+00,2.121120691299438477e+00,2.159097194671630859e+00,4.484643459320068359e+00,2.221664905548095703e+00,4.170281887054443359e+00,4.029068470001220703e+00,3.897105932235717773e+00,3.773512363433837891e+00,3.657518148422241211e+00,3.548441886901855469e+00,3.445683240890502930e+00,3.348708629608154297e+00,3.257042884826660156e+00,3.170261859893798828e+00,3.087985277175903320e+00,3.009871482849121094e+00,2.935611963272094727e+00,2.864928245544433594e+00,2.797568559646606445e+00,2.733303546905517578e+00,2.671925067901611328e+00,2.613242387771606445e+00,2.557082176208496094e+00,2.503284692764282227e+00,2.451704263687133789e+00,2.402206659317016602e+00,2.354668378829956055e+00,2.308974742889404297e+00,2.265020847320556641e+00,2.222709178924560547e+00,2.181949377059936523e+00,2.142657518386840820e+00,2.104755640029907227e+00,2.068171262741088867e+00,2.032837152481079102e+00,1.998690009117126465e+00,1.965671300888061523e+00,1.933725595474243164e+00,1.902801752090454102e+00,1.872851371765136719e+00,1.843829154968261719e+00
5.000000000000000000e+00,5.000000000000000000e+00,5.000000000000000000e+00,5.000000000000000000e+00,5.000000000000000000e+00,5.000000000000000000e+00,5.000000000000000000e+00,5.000000000000000000e+00,5.000000000000000000e+00,5.000000000000000000e+00,5.000000000000000000e+00,5.000000000000000000e+00,5.000000000000000000e+00,5.000000000000000000e+00,5.000000000000000000e+00,5.000000000000000000e+00,5.000000000000000000e+00,5.000000000000000000e+00,5.000000000000000000e+00,5.000000000000000000e+00,5.000000000000000000e+00,5.000000000000000000e+00,5.000000000000000000e+00,5.000000000000000000e+00,5.000000000000000000e+00,5.000000000000000000e+00,5.000000000000000000e+00,5.000000000000000000e+00,5.000000000000000000e+00,5.000000000000000000e+00,2.121739387512207031e+00,2.086372613906860352e+00,2.096857786178588867e+00,2.069196701049804688e+00,2.049144506454467773e+00,2.049482822418212891e+00,2.067320108413696289e+00,2.141674280166625977e+00,2.116585254669189453e+00,2.118613958358764648e+00,2.147471427917480469e+00,4.484762191772460938e+00,2.197103261947631836e+00,2.212499618530273438e+00,4.029164791107177734e+00,3.897195577621459961e+00,3.773597002029418945e+00,3.657597303390502930e+00,3.548516273498535156e+00,3.445753335952758789e+00,3.348774671554565430e+00,3.257105588912963867e+00,3.170321464538574219e+00,3.088042020797729492e+00,3.009924888610839844e+00,2.935662746429443359e+00,2.864976882934570312e+00,2.797615051269531250e+00,2.733347892761230469e+00,2.671967029571533203e+00,2.613282680511474609e+00,2.557120561599731445e+00,2.503321647644042969e+00,2.451740026473999023e+00,2.402240753173828125e+00,2.354701042175292969e+00,2.309006214141845703e+00,2.265051364898681641e+00,2.222738504409790039e+00,2.181977510452270508e+00,2.142684459686279297e+00,2.104781866073608398e+00,2.068196535110473633e+00,2.032861709594726562e+00,1.998713850975036621e+00,1.965694069862365723e+00,1.933747649192810059e+00,1.902823090553283691e+00,1.872871994972229004e+00,1.843849301338195801e+00
5.000000000000000000e+00,5.000000000000000000e+00,5.000000000000000000e+00,5.000000000000000000e+00,5.000000000000000000e+00,5.000000000000000000e+00,5.000000000000000000e+00,5.000000000000000000e+00,5.000000000000000000e+00,5.000000000000000000e+00,5.000000000000000000e+00,5.000000000000000000e+00,5.000000000000000000e+00,5.000000000000000000e+00,5.000000000000000000e+00,5.000000000000000000e+00,5.000000000000000000e+00,5.000000000000000000e+00,5.000000000000000000e+00,5.000000000000000000e+00,5.000000000000000000e+00,5.000000000000000000e+00,5.000000000000000000e+00,5.000000000000000000e+00,5.000000000000000000e+00,5.000000000000000000e+00,5.000000000000000000e+00,5.000000000000000000e+00,5.000000000000000000e+00,5.000000000000000000e+00,2.105767488479614258e+00,2.072129249572753906e+00,2.077243566513061523e+00,2.081443309783935547e+00,2.049155235290527344e+00,2.048421144485473633e+00,2.062821865081787109e+00,2.143553018569946289e+00,2.111592531204223633e+00,2.116279363632202148e+00,2.135970592498779297e+00,4.484881401062011719e+00,4.321974277496337891e+00,2.195550680160522461e+00,4.029260635375976562e+00,3.897285461425781250e+00,3.773680925369262695e+00,3.657676219940185547e+00,3.548590898513793945e+00,3.445823669433593750e+00,3.348841190338134766e+00,3.257168292999267578e+00,3.170380830764770508e+00,3.088098287582397461e+00,3.009978771209716797e+00,2.935714006423950195e+00,2.865025281906127930e+00,2.797661066055297852e+00,2.733392000198364258e+00,2.672009468078613281e+00,2.613323211669921875e+00,2.557159423828125000e+00,2.503358602523803711e+00,2.451775550842285156e+00,2.402275085449218750e+00,2.354733943939208984e+00,2.309037685394287109e+00,2.265081644058227539e+00,2.222767591476440430e+00,2.182005643844604492e+00,2.142711639404296875e+00,2.104808092117309570e+00,2.068221807479858398e+00,2.032886028289794922e+00,1.998737335205078125e+00,1.965717077255249023e+00,1.933769941329956055e+00,1.902844667434692383e+00,1.872892737388610840e+00,1.843869328498840332e+00
5.000000000000000000e+00,5.000000000000000000e+00,5.000000000000000000e+00,5.000000000000000000e+00,5.000000000000000000e+00,5.000000000000000000e+00,5.000000000000000000e+00,5.000000000000000000e+00,5.000000000000000000e+00,5.000000000000000000e+00,5.000000000000000000e+00,5.000000000000000000e+00,5.000000000000000000e+00,5.000000000000000000e+00,5.000000000000000000e+00,5.000000000000000000e+00,5.000000000000000000e+00,5.000000000000000000e+00,5.000000000000000000e+00,5.000000000000000000e+00,5.000000000000000000e+00,5.000000000000000000e+00,5.000000000000000000e+00,5.000000000000000000e+00,5.000000000000000000e+00,5.000000000000000000e+00,5.000000000000000000e+00,5.000000000000000000e+00,5.000000000000000000e+00,5.000000000000000000e+00,2.103714227676391602e+00,2.056753635406494141e+00,2.072746515274047852e+00,2.093740940093994141e+00,2.048139572143554688e+00,2.047414064407348633e+00,2.056346893310546875e+00,2.145434856414794922e+00,2.109727859497070312e+00,2.111555814743041992e+00,2.125462293624877930e+00,4.485000133514404297e+00,4.322084903717041016e+00,4.170590400695800781e+00,4.029356479644775391e+00,3.897375106811523438e+00,3.773765325546264648e+00,3.657755613327026367e+00,3.548665285110473633e+00,3.445893764495849609e+00,3.348907470703125000e+00,3.257231235504150391e+00,3.170440435409545898e+00,3.088154792785644531e+00,3.010032176971435547e+00,2.935764789581298828e+00,2.865074157714843750e+00,2.797707557678222656e+00,2.733436346054077148e+00,2.672051668167114258e+00,2.613363504409790039e+00,2.557198047637939453e+00,2.503395795822143555e+00,2.451811075210571289e+00,2.402308940887451172e+00,2.354766607284545898e+00,2.309069156646728516e+00,2.265111923217773438e+00,2.222796916961669922e+00,2.182033777236938477e+00,2.142738819122314453e+00,2.104834079742431641e+00,2.068247079849243164e+00,2.032910585403442383e+00,1.998760938644409180e+00,1.965739846229553223e+00,1.933791995048522949e+00,1.902866005897521973e+00,1.872913599014282227e+00,1.843889594078063965e+00
5.000000000000000000e+00,5.000000000000000000e+00,5.000000000000000000e+00,5.000000000000000000e+00,5.000000000000000000e+00,5.000000000000000000e+00,5.000000000000000000e+00,5.000000000000000000e+00,5.000000000000000000e+00,5.000000000000000000e+00,5.000000000000000000e+00,5.000000000000000000e+00,5.000000000000000000e+00,5.000000000000000000e+00,5.000000000000000000e+00,5.000000000000000000e+00,5.000000000000000000e+00,5.000000000000000000e+00,5.000000000000000000e+00,5.000000000000000000e+00,5.000000000000000000e+00,5.000000000000000000e+00,5.000000000000000000e+00,5.000000000000000000e+00,5.000000000000000000e+00,5.000000000000000000e+00,5.000000000000000000e+00,5.000000000000000000e+00,5.000000000000000000e+00,5.000000000000000000e+00,2.094450235366821289e+00,2.045140504837036133e+00,5.000000000000000000e+00,2.117227792739868164e+00,2.056451559066772461e+00,2.043388128280639648e+00,2.049963474273681641e+00,2.094739198684692383e+00,2.109694719314575195e+00,2.108320236206054688e+00,2.113709449768066406e+00,4.485119342803955078e+00,4.322195529937744141e+00,4.170693397521972656e+00,4.029452800750732422e+00,3.897465229034423828e+00,3.773849487304687500e+00,3.657834529876708984e+00,3.548739910125732422e+00,3.445964097976684570e+00,3.348973989486694336e+00,3.257293939590454102e+00,3.170499563217163086e+00,3.088211059570312500e+00,3.010085821151733398e+00,2.935816049575805664e+00,2.865122556686401367e+00,2.797753810882568359e+00,2.733480453491210938e+00,2.672093868255615234e+00,2.613404035568237305e+00,2.557236909866333008e+00,2.503432989120483398e+00,2.451846599578857422e+00,2.402343273162841797e+00,2.354799509048461914e+00,2.309100866317749023e+00,2.265142202377319336e+00,2.222826004028320312e+00,2.182061910629272461e+00,2.142765998840332031e+00,2.104860544204711914e+00,2.068272352218627930e+00,2.032934904098510742e+00,1.998784542083740234e+00,1.965762734413146973e+00,1.933814048767089844e+00,1.902887463569641113e+00,1.872934341430664062e+00,1.843909621238708496e+00
5.000000000000000000e+00,5.000000000000000000e+00,5.000000000000000000e+00,5.000000000000000000e+00,5.000000000000000000e+00,5.000000000000000000e+00,5.000000000000000000e+00,5.000000000000000000e+00,5.000000000000000000e+00,5.000000000000000000e+00,5.000000000000000000e+00,5.000000000000000000e+00,5.000000000000000000e+00,5.000000000000000000e+00,5.000000000000000000e+00,5.000000000000000000e+00,5.000000000000000000e+00,5.000000000000000000e+00,5.000000000000000000e+00,5.000000000000000000e+00,5.000000000000000000e+00,5.000000000000000000e+00,5.000000000000000000e+00,5.000000000000000000e+00,5.000000000000000000e+00,5.000000000000000000e+00,5.000000000000000000e+00,5.000000000000000000e+00,5.000000000000000000e+00,5.000000000000000000e+00,5.000000000000000000e+00,5.000000000000000000e+00,5.000000000000000000e+00,2.137238025665283203e+00,2.070594072341918945e+00,2.041501045227050781e+00,2.043619394302368164e+00,2.084923982620239258e+00,2.110042810440063477e+00,2.104677915573120117e+00,2.111213684082031250e+00,4.485238075256347656e+00,4.322306156158447266e+00,4.170796394348144531e+00,4.029548645019531250e+00,3.897554874420166016e+00,3.773933887481689453e+00,3.657913923263549805e+00,3.548814296722412109e+00,3.446034193038940430e+00,3.349040031433105469e+00,3.257356882095336914e+00,3.170559406280517578e+00,3.088267564773559570e+00,3.010139226913452148e+00,2.935866832733154297e+00,2.865171194076538086e+00,2.797800064086914062e+00,2.733524799346923828e+00,2.672136068344116211e+00,2.613444328308105469e+00,2.557275295257568359e+00,2.503469944000244141e+00,2.451882123947143555e+00,2.402377367019653320e+00,2.354832172393798828e+00,2.309132337570190430e+00,2.265172719955444336e+00,2.222855329513549805e+00,2.182090282440185547e+00,2.142793178558349609e+00,2.104886531829833984e+00,2.068297863006591797e+00,2.032959461212158203e+00,1.998808383941650391e+00,1.965785503387451172e+00,1.933836221694946289e+00,1.902908802032470703e+00,1.872955083847045898e+00,1.843929648399353027e+00
5.000000000000000000e+00,5.000000000000000000e+00,5.000000000000000000e+00,5.000000000000000000e+00,5.000000000000000000e+00,5.000000000000000000e+00,5.000000000000000000e+00,5.000000000000000000e+00,5.000000000000000000e+00,5.000000000000000000e+00,5.000000000000000000e+00,5.000000000000000000e+00,5.000000000000000000e+00,5.000000000000000000e+00,5.000000000000000000e+00,5.000000000000000000e+00,5.000000000000000000e+00,5.000000000000000000e+00,5.000000000000000000e+00,5.000000000000000000e+00,5.000000000000000000e+00,5.000000000000000000e+00,5.000000000000000000e+00,5.000000000000000000e+00,5.000000000000000000e+00,5.000000000000000000e+00,5.000000000000000000e+00,5.000000000000000000e+00,5.000000000000000000e+00,5.000000000000000000e+00,5.000000000000000000e+00,5.000000000000000000e+00,5.000000000000000000e+00,5.000000000000000000e+00,2.084400892257690430e+00,2.043733835220336914e+00,2.037314653396606445e+00,2.075200319290161133e+00,2.110984802246093750e+00,2.098326921463012695e+00,2.108723878860473633e+00,4.485357284545898438e+00,4.322416305541992188e+00,4.170899391174316406e+00,4.029644966125488281e+00,3.897644996643066406e+00,3.774018049240112305e+00,3.657992839813232422e+00,3.548888921737670898e+00,3.446104764938354492e+00,3.349106550216674805e+00,3.257419347763061523e+00,3.170618534088134766e+00,3.088323831558227539e+00,3.010193109512329102e+00,2.935917854309082031e+00,2.865219593048095703e+00,2.797846555709838867e+00,2.733568906784057617e+00,2.672178506851196289e+00,2.613484859466552734e+00,2.557314157485961914e+00,2.503507137298583984e+00,2.451917648315429688e+00,2.402411460876464844e+00,2.354865074157714844e+00,2.309164047241210938e+00,2.265202999114990234e+00,2.222884416580200195e+00,2.182118177413940430e+00,2.142820358276367188e+00,2.104912757873535156e+00,2.068322896957397461e+00,2.032983779907226562e+00,1.998831868171691895e+00,1.965808510780334473e+00,1.933858513832092285e+00,1.902930378913879395e+00,1.872975707054138184e+00,1.843949794769287109e+00
5.000000000000000000e+00,5.000000000000000000e+00,5.000000000000000000e+00,5.000000000000000000e+00,5.000000000000000000e+00,5.000000000000000000e+00,5.000000000000000000e+00,5.000000000000000000e+00,5.000000000000000000e+00,5.000000000000000000e+00,5.000000000000000000e+00,5.000000000000000000e+00,5.000000000000000000e+00,5.000000000000000000e+00,5.000000000000000000e+00,5.000000000000000000e+00,5.000000000000000000e+00,5.000000000000000000e+00,5.000000000000000000e+00,5.000000000000000000e+00,5.000000000000000000e+00,5.000000000000000000e+00,5.000000000000000000e+00,5.000000000000000000e+00,5.000000000000000000e+00,5.000000000000000000e+00,5.000000000000000000e+00,5.000000000000000000e+00,5.000000000000000000e+00,5.000000000000000000e+00,5.000000000000000000e+00,5.000000000000000000e+00,5.000000000000000000e+00,5.000000000000000000e+00,2.101782321929931641e+00,2.048290729522705078e+00,2.034647226333618164e+00,2.069160938262939453e+00,2.111931800842285156e+00,2.092013835906982422e+00,2.103311777114868164e+00,4.485476016998291016e+00,4.322526931762695312e+00,4.171002388000488281e+00,4.029740810394287109e+00,3.897734642028808594e+00,3.774102449417114258e+00,3.658072233200073242e+00,3.548963308334350586e+00,3.446174860000610352e+00,3.349172830581665039e+00,3.257482290267944336e+00,3.170678138732910156e+00,3.088380336761474609e+00,3.010246515274047852e+00,2.935968875885009766e+00,2.865268230438232422e+00,2.797892808914184570e+00,2.733613252639770508e+00,2.672220468521118164e+00,2.613525152206420898e+00,2.557352781295776367e+00,2.503544092178344727e+00,2.451953411102294922e+00,2.402445554733276367e+00,2.354897737503051758e+00,2.309195518493652344e+00,2.265233278274536133e+00,2.222913742065429688e+00,2.182146549224853516e+00,2.142847537994384766e+00,2.104938983917236328e+00,2.068348407745361328e+00,2.033008337020874023e+00,1.998855471611022949e+00,1.965831279754638672e+00,1.933880567550659180e+00,1.902951717376708984e+00,1.872996687889099121e+00,1.843970060348510742e+00
5.000000000000000000e+00,5.000000000000000000e+00,5.000000000000000000e+00,5.000000000000000000e+00,5.000000000000000000e+00,5.000000000000000000e+00,5.000000000000000000e+00,5.000000000000000000e+00,5.000000000000000000e+00,5.000000000000000000e+00,5.000000000000000000e+00,5.000000000000000000e+00,5.000000000000000000e+00,5.000000000000000000e+00,5.000000000000000000e+00,5.000000000000000000e+00,5.000000000000000000e+00,5.000000000000000000e+00,5.000000000000000000e+00,5.000000000000000000e+00,5.000000000000000000e+00,5.000000000000000000e+00,5.000000000000000000e+00,5.000000000000000000e+00,5.000000000000000000e+00,5.000000000000000000e+00,5.000000000000000000e+00,5.000000000000000000e+00,5.000000000000000000e+00,5.000000000000000000e+00,5.000000000000000000e+00,5.000000000000000000e+00,5.000000000000000000e+00,5.000000000000000000e+00,2.109300136566162109e+00,2.059666395187377930e+00,2.047260999679565430e+00,2.084268808364868164e+00,2.117389440536499023e+00,2.097402811050415039e+00,2.110184192657470703e+00,4.485595226287841797e+00,4.322637557983398438e+00,4.171104907989501953e+00,4.029837131500244141e+00,3.897824764251708984e+00,3.774186611175537109e+00,3.658151149749755859e+00,3.549037933349609375e+00,3.446245193481445312e+00,3.349239349365234375e+00,3.257544994354248047e+00,3.170737504959106445e+00,3.088436603546142578e+00,3.010300159454345703e+00,2.936019897460937500e+00,2.865316867828369141e+00,2.797939062118530273e+00,2.733657360076904297e+00,2.672262907028198242e+00,2.613565683364868164e+00,2.557391643524169922e+00,2.503581285476684570e+00,2.451988697052001953e+00,2.402479887008666992e+00,2.354930639266967773e+00,2.309226989746093750e+00,2.265263557434082031e+00,2.222943067550659180e+00,2.182174682617187500e+00,2.142874717712402344e+00,2.104965209960937500e+00,2.068373680114746094e+00,2.033032655715942383e+00,1.998879075050354004e+00,1.965854167938232422e+00,1.933902621269226074e+00,1.902973055839538574e+00,1.873017311096191406e+00,1.843990087509155273e+00
5.000000000000000000e+00,5.000000000000000000e+00,5.000000000000000000e+00,5.000000000000000000e+00,5.000000000000000000e+00,5.000000000000000000e+00,5.000000000000000000e+00,5.000000000000000000e+00,5.000000000000000000e+00,5.000000000000000000e+00,5.000000000000000000e+00,5.000000000000000000e+00,5.000000000000000000e+00,5.000000000000000000e+00,5.000000000000000000e+00,5.000000000000000000e+00,5.000000000000000000e+00,5.000000000000000000e+00,5.000000000000000000e+00,5.000000000000000000e+00,5.000000000000000000e+00,5.000000000000000000e+00,5.000000000000000000e+00,5.000000000000000000e+00,5.000000000000000000e+00,5.000000000000000000e+00,5.000000000000000000e+00,5.000000000000000000e+00,5.000000000000000000e+00,5.000000000000000000e+00,5.000000000000000000e+00,5.000000000000000000e+00,5.000000000000000000e+00,5.000000000000000000e+00,2.103592872619628906e+00,2.075149774551391602e+00,2.068621158599853516e+00,2.186167955398559570e+00,2.141199350357055664e+00,2.117831230163574219e+00,2.128425836563110352e+00,4.485714435577392578e+00,4.322748184204101562e+00,4.171207904815673828e+00,4.029932975769042969e+00,3.897914409637451172e+00,3.774271011352539062e+00,3.658230543136596680e+00,3.549112319946289062e+00,3.446315288543701172e+00,3.349305629730224609e+00,3.257607936859130859e+00,3.170797109603881836e+00,3.088493347167968750e+00,3.010353803634643555e+00,2.936070680618286133e+00,2.865365505218505859e+00,2.797985553741455078e+00,2.733701467514038086e+00,2.672305107116699219e+00,2.613605976104736328e+00,2.557430267333984375e+00,2.503618240356445312e+00,2.452024459838867188e+00,2.402513980865478516e+00,2.354963541030883789e+00,2.309258460998535156e+00,2.265294075012207031e+00,2.222972154617309570e+00,2.182202816009521484e+00,2.142901897430419922e+00,2.104991436004638672e+00,2.068398952484130859e+00,2.033057212829589844e+00,1.998902916908264160e+00,1.965876936912536621e+00,1.933924674987792969e+00,1.902994513511657715e+00,1.873038053512573242e+00,1.844010114669799805e+00
5.000000000000000000e+00,5.000000000000000000e+00,5.000000000000000000e+00,5.000000000000000000e+00,5.000000000000000000e+00,5.000000000000000000e+00,5.000000000000000000e+00,5.000000000000000000e+00,5.000000000000000000e+00,5.000000000000000000e+00,5.000000000000000000e+00,5.000000000000000000e+00,5.000000000000000000e+00,5.000000000000000000e+00,5.000000000000000000e+00,5.000000000000000000e+00,5.000000000000000000e+00,5.000000000000000000e+00,5.000000000000000000e+00,5.000000000000000000e+00,5.000000000000000000e+00,5.000000000000000000e+00,5.000000000000000000e+00,5.000000000000000000e+00,5.000000000000000000e+00,5.000000000000000000e+00,5.000000000000000000e+00,5.000000000000000000e+00,5.000000000000000000e+00,5.000000000000000000e+00,5.000000000000000000e+00,5.000000000000000000e+00,5.000000000000000000e+00,5.000000000000000000e+00,2.107281923294067383e+00,2.089138984680175781e+00,2.090431928634643555e+00,2.214984178543090820e+00,2.180541038513183594e+00,2.171193122863769531e+00,4.661577701568603516e+00,4.485833168029785156e+00,4.322858810424804688e+00,4.171310901641845703e+00,4.030029296875000000e+00,3.898004531860351562e+00,3.774354934692382812e+00,3.658309459686279297e+00,3.549186944961547852e+00,3.446385622024536133e+00,3.349372148513793945e+00,3.257670402526855469e+00,3.170856475830078125e+00,3.088549613952636719e+00,3.010407447814941406e+00,2.936121940612792969e+00,2.865413904190063477e+00,2.798031806945800781e+00,2.733745574951171875e+00,2.672347545623779297e+00,2.613646507263183594e+00,2.557468891143798828e+00,2.503655433654785156e+00,2.452059984207153320e+00,2.402548074722290039e+00,2.354996442794799805e+00,2.309290170669555664e+00,2.265324354171752930e+00,2.223001480102539062e+00,2.182230949401855469e+00,2.142929077148437500e+00,2.105017662048339844e+00,2.068424224853515625e+00,2.033081531524658203e+00,1.998926520347595215e+00,1.965899944305419922e+00,1.933946967124938965e+00,1.903016090393066406e+00,1.873058795928955078e+00,1.844030261039733887e+00
5.000000000000000000e+00,5.000000000000000000e+00,5.000000000000000000e+00,5.000000000000000000e+00,5.000000000000000000e+00,5.000000000000000000e+00,5.000000000000000000e+00,5.000000000000000000e+00,5.000000000000000000e+00,5.000000000000000000e+00,5.000000000000000000e+00,5.000000000000000000e+00,5.000000000000000000e+00,5.000000000000000000e+00,5.000000000000000000e+00,5.000000000000000000e+00,5.000000000000000000e+00,5.000000000000000000e+00,5.000000000000000000e+00,5.000000000000000000e+00,5.000000000000000000e+00,5.000000000000000000e+00,5.000000000000000000e+00,5.000000000000000000e+00,5.000000000000000000e+00,5.000000000000000000e+00,5.000000000000000000e+00,5.000000000000000000e+00,5.000000000000000000e+00,5.000000000000000000e+00,5.000000000000000000e+00,5.000000000000000000e+00,5.000000000000000000e+00,5.000000000000000000e+00,2.118202209472656250e+00,2.101800680160522461e+00,2.115455627441406250e+00,2.240191698074340820e+00,2.233386993408203125e+00,4.851791858673095703e+00,4.661705970764160156e+00,4.485952377319335938e+00,4.322969436645507812e+00,4.171413898468017578e+00,4.030125141143798828e+00,3.898094177246093750e+00,3.774439573287963867e+00,3.658388853073120117e+00,3.549261331558227539e+00,3.446455717086791992e+00,3.349438190460205078e+00,3.257733345031738281e+00,3.170916080474853516e+00,3.088606119155883789e+00,3.010460853576660156e+00,2.936172723770141602e+00,2.865462541580200195e+00,2.798078060150146484e+00,2.733789920806884766e+00,2.672389507293701172e+00,2.613686800003051758e+00,2.557507514953613281e+00,2.503692626953125000e+00,2.452095508575439453e+00,2.402582168579101562e+00,2.355029106140136719e+00,2.309321641921997070e+00,2.265354871749877930e+00,2.223030805587768555e+00,2.182259321212768555e+00,2.142956018447875977e+00,2.105043888092041016e+00,2.068449497222900391e+00,2.033106088638305664e+00,1.998950004577636719e+00,1.965922832489013672e+00,1.933969020843505859e+00,1.903037428855895996e+00,1.873079657554626465e+00,1.844050526618957520e+00
5.000000000000000000e+00,5.000000000000000000e+00,5.000000000000000000e+00,5.000000000000000000e+00,5.000000000000000000e+00,5.000000000000000000e+00,5.000000000000000000e+00,5.000000000000000000e+00,5.000000000000000000e+00,5.000000000000000000e+00,5.000000000000000000e+00,5.000000000000000000e+00,5.000000000000000000e+00,5.000000000000000000e+00,5.000000000000000000e+00,5.000000000000000000e+00,5.000000000000000000e+00,5.000000000000000000e+00,5.000000000000000000e+00,5.000000000000000000e+00,5.000000000000000000e+00,5.000000000000000000e+00,5.000000000000000000e+00,5.000000000000000000e+00,5.000000000000000000e+00,5.000000000000000000e+00,5.000000000000000000e+00,5.000000000000000000e+00,5.000000000000000000e+00,5.000000000000000000e+00,5.000000000000000000e+00,5.000000000000000000e+00,5.000000000000000000e+00,5.000000000000000000e+00,2.128118515014648438e+00,2.106934070587158203e+00,2.119714736938476562e+00,2.274982452392578125e+00,2.268378734588623047e+00,4.851929664611816406e+00,4.661834716796875000e+00,4.486071586608886719e+00,4.323079586029052734e+00,4.171516895294189453e+00,4.030221462249755859e+00,3.898184299468994141e+00,3.774523496627807617e+00,3.658468008041381836e+00,3.549335956573486328e+00,3.446526288986206055e+00,3.349504709243774414e+00,3.257796049118041992e+00,3.170975446701049805e+00,3.088662385940551758e+00,3.010514736175537109e+00,2.936223983764648438e+00,2.865510940551757812e+00,2.798124313354492188e+00,2.733834028244018555e+00,2.672431945800781250e+00,2.613727331161499023e+00,2.557546377182006836e+00,2.503729581832885742e+00,2.452131032943725586e+00,2.402616500854492188e+00,2.355062007904052734e+00,2.309353351593017578e+00,2.265385150909423828e+00,2.223059892654418945e+00,2.182287216186523438e+00,2.142983436584472656e+00,2.105070114135742188e+00,2.068474769592285156e+00,2.033130645751953125e+00,1.998973608016967773e+00,1.965945601463317871e+00,1.933991074562072754e+00,1.903058767318725586e+00,1.873100399971008301e+00,1.844070553779602051e+00
5.000000000000000000e+00,5.000000000000000000e+00,5.000000000000000000e+00,5.000000000000000000e+00,5.000000000000000000e+00,5.000000000000000000e+00,5.000000000000000000e+00,5.000000000000000000e+00,5.000000000000000000e+00,5.000000000000000000e+00,5.000000000000000000e+00,5.000000000000000000e+00,5.000000000000000000e+00,5.000000000000000000e+00,5.000000000000000000e+00,5.000000000000000000e+00,5.000000000000000000e+00,5.000000000000000000e+00,5.000000000000000000e+00,5.000000000000000000e+00,5.000000000000000000e+00,5.000000000000000000e+00,5.000000000000000000e+00,5.000000000000000000e+00,5.000000000000000000e+00,5.000000000000000000e+00,5.000000000000000000e+00,5.000000000000000000e+00,5.000000000000000000e+00,5.000000000000000000e+00,5.000000000000000000e+00,5.000000000000000000e+00,5.000000000000000000e+00,5.000000000000000000e+00,2.138127565383911133e+00,2.114125728607177734e+00,2.123991250991821289e+00,2.310870170593261719e+00,5.000000000000000000e+00,4.852067947387695312e+00,4.661961078643798828e+00,4.486190319061279297e+00,4.323190212249755859e+00,4.171619892120361328e+00,4.030317306518554688e+00,3.898273944854736328e+00,3.774608135223388672e+00,3.658547401428222656e+00,3.549410343170166016e+00,3.446596384048461914e+00,3.349570989608764648e+00,3.257858991622924805e+00,3.171035051345825195e+00,3.088718891143798828e+00,3.010568141937255859e+00,2.936274766921997070e+00,2.865559816360473633e+00,2.798170804977416992e+00,2.733878374099731445e+00,2.672474145889282227e+00,2.613767623901367188e+00,2.557585000991821289e+00,2.503766775131225586e+00,2.452166795730590820e+00,2.402650594711303711e+00,2.355094671249389648e+00,2.309384822845458984e+00,2.265415430068969727e+00,2.223089218139648438e+00,2.182315587997436523e+00,2.143010377883911133e+00,2.105096340179443359e+00,2.068500280380249023e+00,2.033154964447021484e+00,1.998997449874877930e+00,1.965968370437622070e+00,1.934013128280639648e+00,1.903080224990844727e+00,1.873121023178100586e+00,1.844090580940246582e+00
5.000000000000000000e+00,5.000000000000000000e+00,5.000000000000000000e+00,5.000000000000000000e+00,5.000000000000000000e+00,5.000000000000000000e+00,5.000000000000000000e+00,5.000000000000000000e+00,5.000000000000000000e+00,5.000000000000000000e+00,5.000000000000000000e+00,5.000000000000000000e+00,5.000000000000000000e+00,5.000000000000000000e+00,5.000000000000000000e+00,5.000000000000000000e+00,5.000000000000000000e+00,5.000000000000000000e+00,5.000000000000000000e+00,5.000000000000000000e+00,5.000000000000000000e+00,5.000000000000000000e+00,5.000000000000000000e+00,5.000000000000000000e+00,5.000000000000000000e+00,5.000000000000000000e+00,5.000000000000000000e+00,5.000000000000000000e+00,5.000000000000000000e+00,5.000000000000000000e+00,5.000000000000000000e+00,5.000000000000000000e+00,5.000000000000000000e+00,5.000000000000000000e+00,2.148310661315917969e+00,2.121797084808349609e+00,2.127471208572387695e+00,5.000000000000000000e+00,5.000000000000000000e+00,4.852205753326416016e+00,4.662088871002197266e+00,4.486307621002197266e+00,4.323300838470458984e+00,4.171722888946533203e+00,4.030413627624511719e+00,3.898364067077636719e+00,3.774692058563232422e+00,3.658626317977905273e+00,3.549484968185424805e+00,3.446666717529296875e+00,3.349637508392333984e+00,3.257921695709228516e+00,3.171094417572021484e+00,3.088775396347045898e+00,3.010622024536132812e+00,2.936326026916503906e+00,2.865608215332031250e+00,2.798217058181762695e+00,2.733922481536865234e+00,2.672516345977783203e+00,2.613808155059814453e+00,2.557623624801635742e+00,2.503803730010986328e+00,2.452202320098876953e+00,2.402684688568115234e+00,2.355127573013305664e+00,2.309416294097900391e+00,2.265445709228515625e+00,2.223118305206298828e+00,2.182343721389770508e+00,2.143037796020507812e+00,2.105122566223144531e+00,2.068525552749633789e+00,2.033179521560668945e+00,1.999021053314208984e+00,1.965991377830505371e+00,1.934035420417785645e+00,1.903101801872253418e+00,1.873141765594482422e+00,1.844110727310180664e+00
5.000000000000000000e+00,5.000000000000000000e+00,5.000000000000000000e+00,5.000000000000000000e+00,5.000000000000000000e+00,5.000000000000000000e+00,5.000000000000000000e+00,5.000000000000000000e+00,5.000000000000000000e+00,5.000000000000000000e+00,5.000000000000000000e+00,5.000000000000000000e+00,5.000000000000000000e+00,5.000000000000000000e+00,5.000000000000000000e+00,5.000000000000000000e+00,5.000000000000000000e+00,5.000000000000000000e+00,5.000000000000000000e+00,5.000000000000000000e+00,5.000000000000000000e+00,5.000000000000000000e+00,5.000000000000000000e+00,5.000000000000000000e+00,5.000000000000000000e+00,5.000000000000000000e+00,5.000000000000000000e+00,5.000000000000000000e+00,5.000000000000000000e+00,5.000000000000000000e+00,5.000000000000000000e+00,5.000000000000000000e+00,5.000000000000000000e+00,5.000000000000000000e+00,2.159394025802612305e+00,2.132564544677734375e+00,2.132212877273559570e+00,5.000000000000000000e+00,5.000000000000000000e+00,4.852343559265136719e+00,4.662215709686279297e+00,4.486425399780273438e+00,4.323410034179687500e+00,4.171825885772705078e+00,4.030509471893310547e+00,3.898453712463378906e+00,3.774776697158813477e+00,3.658705711364746094e+00,3.549559354782104492e+00,3.446736812591552734e+00,3.349703788757324219e+00,3.257984638214111328e+00,3.171154022216796875e+00,3.088831901550292969e+00,3.010675430297851562e+00,2.936376810073852539e+00,2.865656852722167969e+00,2.798263311386108398e+00,2.733966827392578125e+00,2.672558546066284180e+00,2.613848447799682617e+00,2.557662248611450195e+00,2.503840923309326172e+00,2.452237844467163086e+00,2.402718782424926758e+00,2.355160236358642578e+00,2.309447765350341797e+00,2.265476226806640625e+00,2.223147630691528320e+00,2.182371854782104492e+00,2.143064737319946289e+00,2.105148792266845703e+00,2.068550825119018555e+00,2.033204078674316406e+00,1.999044656753540039e+00,1.966014266014099121e+00,1.934057474136352539e+00,1.903123140335083008e+00,1.873162627220153809e+00,1.844130992889404297e+00
5.000000000000000000e+00,5.000000000000000000e+00,5.000000000000000000e+00,5.000000000000000000e+00,5.000000000000000000e+00,5.000000000000000000e+00,5.000000000000000000e+00,5.000000000000000000e+00,5.000000000000000000e+00,5.000000000000000000e+00,5.000000000000000000e+00,5.000000000000000000e+00,5.000000000000000000e+00,5.000000000000000000e+00,5.000000000000000000e+00,5.000000000000000000e+00,5.000000000000000000e+00,5.000000000000000000e+00,5.000000000000000000e+00,5.000000000000000000e+00,5.000000000000000000e+00,5.000000000000000000e+00,5.000000000000000000e+00,5.000000000000000000e+00,5.000000000000000000e+00,5.000000000000000000e+00,5.000000000000000000e+00,5.000000000000000000e+00,5.000000000000000000e+00,5.000000000000000000e+00,5.000000000000000000e+00,5.000000000000000000e+00,5.000000000000000000e+00,5.000000000000000000e+00,2.173406839370727539e+00,2.144544363021850586e+00,2.137828350067138672e+00,5.000000000000000000e+00,5.000000000000000000e+00,4.852481842041015625e+00,4.662343025207519531e+00,4.486543655395507812e+00,4.323519706726074219e+00,4.171928405761718750e+00,4.030605792999267578e+00,3.898543834686279297e+00,3.774860858917236328e+00,3.658784627914428711e+00,3.549634218215942383e+00,3.446807384490966797e+00,3.349770307540893555e+00,3.258047103881835938e+00,3.171213388442993164e+00,3.088888168334960938e+00,3.010729074478149414e+00,2.936427831649780273e+00,2.865705251693725586e+00,2.798309564590454102e+00,2.734010934829711914e+00,2.672600984573364258e+00,2.613888978958129883e+00,2.557701110839843750e+00,2.503877878189086914e+00,2.452273368835449219e+00,2.402753114700317383e+00,2.355193138122558594e+00,2.309479475021362305e+00,2.265506505966186523e+00,2.223176717758178711e+00,2.182399988174438477e+00,2.143092155456542969e+00,2.105175018310546875e+00,2.068576097488403320e+00,2.033228397369384766e+00,1.999068140983581543e+00,1.966037034988403320e+00,1.934079647064208984e+00,1.903144478797912598e+00,1.873183369636535645e+00,1.844151020050048828e+00
4.874865055084228516e+00,4.873654842376708984e+00,4.872444629669189453e+00,4.871235370635986328e+00,4.870027065277099609e+00,4.868818759918212891e+00,4.867611408233642578e+00,4.866404533386230469e+00,4.865198612213134766e+00,4.863992691040039062e+00,4.862787723541259766e+00,4.861583232879638672e+00,4.860379695892333984e+00,4.859175682067871094e+00,4.857973098754882812e+00,4.856771469116210938e+00,4.855569839477539062e+00,4.854369163513183594e+00,4.853168964385986328e+00,4.851969242095947266e+00,4.850769996643066406e+00,4.849571704864501953e+00,4.848373889923095703e+00,4.847176551818847656e+00,4.845979690551757812e+00,4.844783782958984375e+00,4.843587875366210938e+00,4.842392921447753906e+00,4.841198444366455078e+00,4.840004444122314453e+00,4.838811397552490234e+00,4.837618827819824219e+00,4.836426734924316406e+00,4.835235118865966797e+00,2.208161592483520508e+00,2.156659603118896484e+00,2.152230501174926758e+00,4.830475330352783203e+00,4.829287052154541016e+00,4.828099250793457031e+00,4.662470340728759766e+00,4.486661911010742188e+00,4.323629379272460938e+00,4.172029972076416016e+00,4.030701637268066406e+00,3.898633480072021484e+00,3.774945259094238281e+00,3.658864021301269531e+00,3.549708604812622070e+00,3.446877479553222656e+00,3.349836587905883789e+00,3.258110046386718750e+00,3.171272993087768555e+00,3.088944673538208008e+00,3.010782718658447266e+00,2.936478853225708008e+00,2.865754127502441406e+00,2.798356056213378906e+00,2.734055280685424805e+00,2.672643184661865234e+00,2.613929271697998047e+00,2.557739734649658203e+00,2.503915071487426758e+00,2.452309131622314453e+00,2.402787208557128906e+00,2.355226039886474609e+00,2.309510946273803711e+00,2.265536785125732422e+00,2.223206043243408203e+00,2.182428359985351562e+00,2.143119096755981445e+00,2.105201244354248047e+00,2.068601369857788086e+00,2.033252954483032227e+00,1.999091982841491699e+00,1.966059803962707520e+00,1.934101700782775879e+00,1.903165936470031738e+00,1.873204112052917480e+00,1.844171166419982910e+00
3.777669429779052734e+00,3.776942491531372070e+00,3.776215553283691406e+00,3.775489330291748047e+00,3.774763107299804688e+00,3.774037599563598633e+00,3.773311853408813477e+00,3.772586822509765625e+00,3.771861553192138672e+00,3.771136999130249023e+00,3.770412445068359375e+00,3.769688606262207031e+00,3.768964529037475586e+00,3.768241167068481445e+00,3.767517566680908203e+00,3.766794919967651367e+00,3.766072034835815430e+00,3.765349388122558594e+00,3.764627218246459961e+00,3.763905048370361328e+00,3.763183832168579102e+00,3.762462139129638672e+00,3.761741399765014648e+00,3.761020421981811523e+00,3.760299921035766602e+00,3.759579658508300781e+00,3.758859872817993164e+00,3.758139848709106445e+00,3.757420778274536133e+00,3.756701231002807617e+00,3.755982637405395508e+00,3.755263805389404297e+00,3.754545450210571289e+00,3.753827571868896484e+00,3.753109455108642578e+00,2.180506944656372070e+00,2.165095806121826172e+00,3.750957965850830078e+00,3.750241279602050781e+00,3.749525070190429688e+00,3.748808622360229492e+00,3.748092889785766602e+00,3.747377157211303711e+00,3.746662139892578125e+00,3.745946884155273438e+00,3.745232343673706055e+00,3.744517564773559570e+00,3.658942937850952148e+00,3.549783229827880859e+00,3.446947813034057617e+00,3.349903106689453125e+00,3.258172750473022461e+00,3.171332359313964844e+00,3.089001178741455078e+00,3.010836362838745117e+00,2.936529874801635742e+00,2.865802526473999023e+00,2.798402309417724609e+00,2.734099388122558594e+00,2.672685384750366211e+00,2.613969802856445312e+00,2.557778596878051758e+00,2.503952026367187500e+00,2.452344417572021484e+00,2.402821302413940430e+00,2.355258941650390625e+00,2.309542655944824219e+00,2.265567064285278320e+00,2.223235368728637695e+00,2.182456254959106445e+00,2.143146276473999023e+00,2.105227470397949219e+00,2.068626642227172852e+00,2.033277273178100586e+00,1.999115586280822754e+00,1.966082930564880371e+00,1.934123992919921875e+00,1.903187513351440430e+00,1.873224854469299316e+00,1.844191193580627441e+00
3.083630561828613281e+00,3.083145856857299805e+00,3.082661867141723633e+00,3.082177639007568359e+00,3.081693887710571289e+00,3.081210136413574219e+00,3.080726385116577148e+00,3.080242872238159180e+00,3.079759597778320312e+00,3.079276561737060547e+00,3.078793287277221680e+00,3.078310728073120117e+00,3.077827692031860352e+00,3.077345371246337891e+00,3.076862812042236328e+00,3.076380729675292969e+00,3.075898408889770508e+00,3.075416803359985352e+00,3.074934720993041992e+00,3.074453353881835938e+00,3.073971509933471680e+00,3.073490142822265625e+00,3.073009014129638672e+00,3.072527885437011719e+00,3.072047233581542969e+00,3.071566343307495117e+00,3.071085929870605469e+00,3.070605278015136719e+00,3.070125102996826172e+00,3.069644927978515625e+00,3.069164991378784180e+00,3.068685054779052734e+00,3.068205356597900391e+00,3.067725896835327148e+00,3.067246437072753906e+00,2.183345317840576172e+00,2.166413307189941406e+00,3.065809249877929688e+00,3.065330266952514648e+00,3.064851760864257812e+00,3.064373254776000977e+00,3.063894987106323242e+00,3.063416719436645508e+00,3.062938690185546875e+00,3.062460660934448242e+00,3.061983108520507812e+00,3.061505317687988281e+00,3.061028003692626953e+00,3.060550689697265625e+00,3.060073614120483398e+00,3.059596538543701172e+00,3.059119462966918945e+00,3.058642864227294922e+00,3.058166265487670898e+00,3.010890007019042969e+00,2.936580896377563477e+00,2.865851163864135742e+00,2.798448801040649414e+00,2.734143733978271484e+00,2.672727584838867188e+00,2.614010095596313477e+00,2.557817220687866211e+00,2.503989219665527344e+00,2.452380180358886719e+00,2.402855396270751953e+00,2.355291604995727539e+00,2.309574127197265625e+00,2.265597581863403320e+00,2.223264694213867188e+00,2.182484626770019531e+00,2.143173456192016602e+00,2.105253696441650391e+00,2.068652153015136719e+00,2.033301830291748047e+00,1.999139189720153809e+00,1.966105699539184570e+00,1.934146046638488770e+00,1.903208851814270020e+00,1.873245716094970703e+00,1.844211459159851074e+00
2.605030298233032227e+00,2.604684591293334961e+00,2.604339122772216797e+00,2.603993415832519531e+00,2.603648185729980469e+00,2.603302717208862305e+00,2.602957487106323242e+00,2.602612257003784180e+00,2.602267503738403320e+00,2.601922273635864258e+00,2.601577281951904297e+00,2.601232767105102539e+00,2.600888013839721680e+00,2.600543498992919922e+00,2.600198745727539062e+00,2.599854469299316406e+00,2.599510192871093750e+00,2.599165916442871094e+00,2.598821640014648438e+00,2.598477840423583984e+00,2.598133802413940430e+00,2.597790002822875977e+00,2.597445964813232422e+00,2.597102403640747070e+00,2.596758842468261719e+00,2.596415281295776367e+00,2.596071958541870117e+00,2.595728397369384766e+00,2.595385313034057617e+00,2.595042228698730469e+00,2.594699144363403320e+00,2.594356060028076172e+00,2.594013452529907227e+00,2.593670368194580078e+00,2.593327999114990234e+00,2.174585342407226562e+00,2.138851404190063477e+00,2.132246971130371094e+00,2.591957807540893555e+00,2.591615676879882812e+00,2.591273546218872070e+00,2.590931653976440430e+00,2.590589523315429688e+00,2.590247631072998047e+00,2.589905738830566406e+00,2.589564323425292969e+00,2.589222669601440430e+00,2.588881254196166992e+00,2.588539600372314453e+00,2.588198423385620117e+00,2.587857007980346680e+00,2.587516069412231445e+00,2.587174892425537109e+00,2.586833715438842773e+00,2.586493015289306641e+00,2.586152076721191406e+00,2.585811614990234375e+00,2.585470914840698242e+00,2.585130453109741211e+00,2.584789991378784180e+00,2.584449768066406250e+00,2.557855844497680664e+00,2.504026174545288086e+00,2.452415704727172852e+00,2.402889728546142578e+00,2.355324506759643555e+00,2.309605598449707031e+00,2.265627861022949219e+00,2.223293781280517578e+00,2.182512760162353516e+00,2.143200635910034180e+00,2.105279922485351562e+00,2.068677425384521484e+00,2.033326148986816406e+00,1.999162793159484863e+00,1.966128468513488770e+00,1.934168100357055664e+00,1.903230190277099609e+00,1.873266458511352539e+00,1.844231486320495605e+00
2.255074977874755859e+00,2.254814147949218750e+00,2.254553556442260742e+00,2.254292726516723633e+00,2.254032135009765625e+00,2.253771543502807617e+00,2.253510951995849609e+00,2.253250598907470703e+00,2.252990245819091797e+00,2.252729892730712891e+00,2.252469778060913086e+00,2.252209424972534180e+00,2.251949310302734375e+00,2.251689195632934570e+00,2.251429319381713867e+00,2.251169204711914062e+00,2.250909328460693359e+00,2.250649690628051758e+00,2.250389575958251953e+00,2.250129938125610352e+00,2.249870300292968750e+00,2.249610662460327148e+00,2.249351263046264648e+00,2.249091625213623047e+00,2.248833179473876953e+00,2.248575687408447266e+00,2.248317956924438477e+00,2.248060464859008789e+00,2.247802972793579102e+00,2.247545480728149414e+00,2.247288465499877930e+00,2.247030973434448242e+00,2.246773958206176758e+00,2.246516704559326172e+00,2.246259689331054688e+00,2.246002435684204102e+00,2.095263242721557617e+00,2.085148811340332031e+00,2.089930057525634766e+00,2.244974851608276367e+00,2.244718313217163086e+00,2.244461536407470703e+00,2.244204759597778320e+00,2.243948221206665039e+00,2.243691682815551758e+00,2.243435382843017578e+00,2.243178844451904297e+00,2.242922782897949219e+00,2.242666244506835938e+00,2.242410182952880859e+00,2.242153882980346680e+00,2.241897821426391602e+00,2.241641759872436523e+00,2.241385936737060547e+00,2.241129875183105469e+00,2.240874052047729492e+00,2.240618228912353516e+00,2.240362405776977539e+00,2.240106821060180664e+00,2.239851236343383789e+00,2.239595651626586914e+00,2.239340066909790039e+00,2.239084720611572266e+00,2.238829135894775391e+00,2.238574028015136719e+00,2.238318681716918945e+00,2.238063335418701172e+00,2.237808227539062500e+00,2.223323106765747070e+00,2.182540893554687500e+00,2.143227815628051758e+00,2.105306148529052734e+00,2.068702697753906250e+00,2.033350706100463867e+00,1.999186515808105469e+00,1.966151356697082520e+00,1.934190154075622559e+00,1.903251647949218750e+00,1.873287081718444824e+00,1.844251632690429688e+00
1.988085627555847168e+00,1.987882733345031738e+00,1.987679958343505859e+00,1.987477540969848633e+00,1.987274765968322754e+00,1.987072348594665527e+00,1.986869812011718750e+00,1.986667394638061523e+00,1.986464858055114746e+00,1.986262679100036621e+00,1.986060261726379395e+00,1.985858082771301270e+00,1.985655665397644043e+00,1.985453605651855469e+00,1.985251307487487793e+00,1.985049366950988770e+00,1.984847187995910645e+00,1.984645009040832520e+00,1.984443068504333496e+00,1.984241008758544922e+00,1.984039187431335449e+00,1.983837246894836426e+00,1.983635544776916504e+00,1.983433604240417480e+00,1.983231902122497559e+00,1.983030080795288086e+00,1.982828617095947266e+00,1.982626795768737793e+00,1.982425332069396973e+00,1.982223749160766602e+00,1.982022047042846680e+00,1.981820702552795410e+00,1.981619119644165039e+00,1.981417894363403320e+00,1.981216430664062500e+00,1.981015324592590332e+00,1.980813860893249512e+00,1.980612754821777344e+00,1.980411529541015625e+00,1.980210423469543457e+00,1.980009198188781738e+00,1.979808330535888672e+00,1.979607105255126953e+00,1.979406118392944336e+00,1.979205250740051270e+00,1.979004263877868652e+00,1.978803515434265137e+00,1.978602528572082520e+00,1.978401899337768555e+00,1.978201031684875488e+00,1.978000521659851074e+00,1.977799654006958008e+00,1.977599263191223145e+00,1.977398514747619629e+00,1.977198123931884766e+00,1.976997494697570801e+00,1.976796984672546387e+00,1.976596593856811523e+00,1.976396203041076660e+00,1.976195931434631348e+00,1.975995540618896484e+00,1.975795388221740723e+00,1.975595116615295410e+00,1.975395083427429199e+00,1.975194811820983887e+00,1.974994778633117676e+00,1.974794626235961914e+00,1.974594831466674805e+00,1.974394679069519043e+00,1.974194884300231934e+00,1.973994851112365723e+00,1.973794937133789062e+00,1.973595261573791504e+00,1.973395347595214844e+00,1.973195791244506836e+00,1.966174364089965820e+00,1.934212446212768555e+00,1.903273224830627441e+00,1.873307824134826660e+00,1.844271659851074219e+00
1.777623891830444336e+00,1.777461767196655273e+00,1.777299642562866211e+00,1.777137756347656250e+00,1.776975631713867188e+00,1.776813864707946777e+00,1.776651740074157715e+00,1.776489973068237305e+00,1.776328086853027344e+00,1.776166319847106934e+00,1.776004433631896973e+00,1.775842785835266113e+00,1.775681018829345703e+00,1.775519371032714844e+00,1.775357604026794434e+00,1.775195837020874023e+00,1.775034308433532715e+00,1.774872660636901855e+00,1.774711132049560547e+00,1.774549603462219238e+00,1.774388194084167480e+00,1.774226546287536621e+00,1.774065256118774414e+00,1.773903727531433105e+00,1.773742437362670898e+00,1.773581027984619141e+00,1.773419737815856934e+00,1.773258447647094727e+00,1.773097038269042969e+00,1.772935867309570312e+00,1.772774577140808105e+00,1.772613525390625000e+00,1.772452235221862793e+00,1.772291183471679688e+00,1.772130012512207031e+00,1.771969079971313477e+00,1.771807909011840820e+00,1.771647095680236816e+00,1.771486043930053711e+00,1.771325111389160156e+00,1.771164178848266602e+00,1.771003127098083496e+00,1.770842432975769043e+00,1.770681500434875488e+00,1.770520806312561035e+00,1.770359873771667480e+00,1.770199298858642578e+00,1.770038485527038574e+00,1.769877910614013672e+00,1.769717097282409668e+00,1.769556641578674316e+00,1.769395947456359863e+00,1.769235491752624512e+00,1.769074797630310059e+00,1.768914461135864258e+00,1.768753886222839355e+00,1.768593311309814453e+00,1.768432974815368652e+00,1.768272519111633301e+00,1.768112182617187500e+00,1.767951846122741699e+00,1.767791628837585449e+00,1.767631173133850098e+00,1.767471075057983398e+00,1.767310738563537598e+00,1.767150640487670898e+00,1.766990423202514648e+00,1.766830444335937500e+00,1.766670227050781250e+00,1.766510009765625000e+00,1.766350150108337402e+00,1.766190052032470703e+00,1.766030073165893555e+00,1.765870094299316406e+00,1.765710234642028809e+00,1.765550255775451660e+00,1.765390515327453613e+00,1.765230655670166016e+00,1.765070915222167969e+00,1.764911055564880371e+00
1.607455968856811523e+00,1.607323527336120605e+00,1.607190966606140137e+00,1.607058644294738770e+00,1.606926083564758301e+00,1.606793761253356934e+00,1.606661200523376465e+00,1.606528997421264648e+00,1.606396555900573730e+00,1.606264233589172363e+00,1.606131792068481445e+00,1.605999588966369629e+00,1.605867266654968262e+00,1.605734944343566895e+00,1.605602741241455078e+00,1.605470418930053711e+00,1.605338335037231445e+00,1.605206131935119629e+00,1.605074048042297363e+00,1.604941844940185547e+00,1.604809761047363281e+00,1.604677677154541016e+00,1.604545712471008301e+00,1.604413509368896484e+00,1.604281663894653320e+00,1.604149580001831055e+00,1.604017496109008789e+00,1.603885650634765625e+00,1.603753566741943359e+00,1.603621840476989746e+00,1.603489875793457031e+00,1.603358030319213867e+00,1.603226065635681152e+00,1.603094339370727539e+00,1.602962493896484375e+00,1.602830767631530762e+00,1.602698922157287598e+00,1.602567315101623535e+00,1.602435469627380371e+00,1.602303862571716309e+00,1.602172136306762695e+00,1.602040410041809082e+00,1.601908922195434570e+00,1.601777195930480957e+00,1.601645708084106445e+00,1.601514101028442383e+00,1.601382613182067871e+00,1.601251006126403809e+00,1.601119637489318848e+00,1.600988030433654785e+00,1.600856661796569824e+00,1.600725173950195312e+00,1.600593805313110352e+00,1.600462317466735840e+00,1.600330948829650879e+00,1.600199699401855469e+00,1.600068211555480957e+00,1.599936962127685547e+00,1.599805593490600586e+00,1.599674463272094727e+00,1.599543094635009766e+00,1.599411964416503906e+00,1.599280714988708496e+00,1.599149584770202637e+00,1.599018454551696777e+00,1.598887324333190918e+00,1.598756194114685059e+00,1.598625063896179199e+00,1.598494052886962891e+00,1.598362922668457031e+00,1.598231911659240723e+00,1.598100900650024414e+00,1.597970008850097656e+00,1.597838997840881348e+00,1.597708106040954590e+00,1.597577095031738281e+00,1.597446322441101074e+00,1.597315311431884766e+00,1.597184538841247559e+00,1.597053647041320801e+00
1.467021584510803223e+00,1.466911196708679199e+00,1.466800808906555176e+00,1.466690540313720703e+00,1.466580152511596680e+00,1.466469883918762207e+00,1.466359496116638184e+00,1.466249346733093262e+00,1.466138958930969238e+00,1.466028809547424316e+00,1.465918540954589844e+00,1.465808272361755371e+00,1.465698122978210449e+00,1.465587854385375977e+00,1.465477824211120605e+00,1.465367555618286133e+00,1.465257525444030762e+00,1.465147376060485840e+00,1.465037345886230469e+00,1.464927196502685547e+00,1.464817166328430176e+00,1.464707016944885254e+00,1.464597105979919434e+00,1.464487075805664062e+00,1.464376926422119141e+00,1.464267015457153320e+00,1.464156985282897949e+00,1.464047193527221680e+00,1.463937163352966309e+00,1.463827252388000488e+00,1.463717341423034668e+00,1.463607549667358398e+00,1.463497638702392578e+00,1.463387846946716309e+00,1.463277935981750488e+00,1.463168144226074219e+00,1.463058352470397949e+00,1.462948560714721680e+00,1.462838768959045410e+00,1.462728977203369141e+00,1.462619304656982422e+00,1.462509512901306152e+00,1.462399840354919434e+00,1.462290167808532715e+00,1.462180495262145996e+00,1.462070822715759277e+00,1.461961269378662109e+00,1.461851596832275391e+00,1.461742043495178223e+00,1.461632370948791504e+00,1.461522936820983887e+00,1.461413264274597168e+00,1.461303710937500000e+00,1.461194276809692383e+00,1.461084723472595215e+00,1.460975289344787598e+00,1.460865736007690430e+00,1.460756421089172363e+00,1.460646867752075195e+00,1.460537552833557129e+00,1.460427999496459961e+00,1.460318684577941895e+00,1.460209250450134277e+00,1.460100054740905762e+00,1.459990620613098145e+00,1.459881186485290527e+00,1.459771990776062012e+00,1.459662675857543945e+00,1.459553480148315430e+00,1.459444165229797363e+00,1.459334969520568848e+00,1.459225654602050781e+00,1.459116458892822266e+00,1.459007263183593750e+00,1.458898186683654785e+00,1.458788871765136719e+00,1.458679795265197754e+00,1.458570718765258789e+00,1.458461523056030273e+00,1.458352446556091309e+00
1.349153518676757812e+00,1.349060177803039551e+00,1.348966836929321289e+00,1.348873496055603027e+00,1.348780155181884766e+00,1.348686933517456055e+00,1.348593592643737793e+00,1.348500370979309082e+00,1.348407030105590820e+00,1.348313689231872559e+00,1.348220586776733398e+00,1.348127245903015137e+00,1.348034143447875977e+00,1.347940802574157715e+00,1.347847700119018555e+00,1.347754478454589844e+00,1.347661375999450684e+00,1.347568154335021973e+00,1.347475171089172363e+00,1.347381949424743652e+00,1.347288966178894043e+00,1.347195744514465332e+00,1.347102761268615723e+00,1.347009658813476562e+00,1.346916556358337402e+00,1.346823573112487793e+00,1.346730470657348633e+00,1.346637487411499023e+00,1.346544384956359863e+00,1.346451520919799805e+00,1.346358418464660645e+00,1.346265554428100586e+00,1.346172571182250977e+00,1.346079707145690918e+00,1.345986723899841309e+00,1.345893859863281250e+00,1.345800876617431641e+00,1.345707893371582031e+00,1.345615148544311523e+00,1.345522165298461914e+00,1.345429420471191406e+00,1.345336437225341797e+00,1.345243692398071289e+00,1.345150828361511230e+00,1.345058083534240723e+00,1.344965219497680664e+00,1.344872593879699707e+00,1.344779729843139648e+00,1.344686985015869141e+00,1.344594240188598633e+00,1.344501495361328125e+00,1.344408869743347168e+00,1.344316124916076660e+00,1.344223380088806152e+00,1.344130754470825195e+00,1.344038128852844238e+00,1.343945384025573730e+00,1.343852877616882324e+00,1.343760132789611816e+00,1.343667626380920410e+00,1.343575000762939453e+00,1.343482375144958496e+00,1.343389749526977539e+00,1.343297123908996582e+00,1.343204736709594727e+00,1.343112111091613770e+00,1.343019604682922363e+00,1.342927098274230957e+00,1.342834591865539551e+00,1.342742085456848145e+00,1.342649698257446289e+00,1.342557191848754883e+00,1.342464804649353027e+00,1.342372298240661621e+00,1.342279911041259766e+00,1.342187523841857910e+00,1.342095017433166504e+00,1.342002749443054199e+00,1.341910243034362793e+00,1.341817975044250488e+00
1.248817086219787598e+00,1.248737215995788574e+00,1.248657107353210449e+00,1.248577237129211426e+00,1.248497247695922852e+00,1.248417377471923828e+00,1.248337388038635254e+00,1.248257517814636230e+00,1.248177528381347656e+00,1.248097538948059082e+00,1.248017787933349609e+00,1.247937798500061035e+00,1.247858047485351562e+00,1.247778058052062988e+00,1.247698307037353516e+00,1.247618436813354492e+00,1.247538566589355469e+00,1.247458696365356445e+00,1.247378945350646973e+00,1.247299075126647949e+00,1.247219443321228027e+00,1.247139573097229004e+00,1.247059702873229980e+00,1.246980071067810059e+00,1.246900200843811035e+00,1.246820569038391113e+00,1.246740818023681641e+00,1.246661067008972168e+00,1.246581315994262695e+00,1.246501684188842773e+00,1.246421933174133301e+00,1.246342301368713379e+00,1.246262669563293457e+00,1.246183037757873535e+00,1.246103286743164062e+00,1.246023654937744141e+00,1.245944023132324219e+00,1.245864391326904297e+00,1.245784878730773926e+00,1.245705127716064453e+00,1.245625615119934082e+00,1.245545983314514160e+00,1.245466470718383789e+00,1.245386958122253418e+00,1.245307445526123047e+00,1.245227813720703125e+00,1.245148301124572754e+00,1.245068788528442383e+00,1.244989275932312012e+00,1.244909763336181641e+00,1.244830250740051270e+00,1.244750857353210449e+00,1.244671344757080078e+00,1.244591951370239258e+00,1.244512438774108887e+00,1.244433045387268066e+00,1.244353532791137695e+00,1.244274139404296875e+00,1.244194746017456055e+00,1.244115352630615234e+00,1.244035959243774414e+00,1.243956565856933594e+00,1.243877291679382324e+00,1.243797898292541504e+00,1.243718504905700684e+00,1.243639230728149414e+00,1.243559956550598145e+00,1.243480563163757324e+00,1.243401288986206055e+00,1.243321895599365234e+00,1.243242740631103516e+00,1.243163347244262695e+00,1.243084192276000977e+00,1.243004918098449707e+00,1.242925643920898438e+00,1.242846369743347168e+00,1.242767214775085449e+00,1.242687940597534180e+00,1.242608785629272461e+00,1.242529630661010742e+00
1.162371754646301270e+00,1.162302494049072266e+00,1.162233114242553711e+00,1.162163853645324707e+00,1.162094593048095703e+00,1.162025332450866699e+00,1.161956071853637695e+00,1.161886811256408691e+00,1.161817550659179688e+00,1.161748290061950684e+00,1.161679148674011230e+00,1.161609888076782227e+00,1.161540746688842773e+00,1.161471486091613770e+00,1.161402344703674316e+00,1.161333084106445312e+00,1.161263942718505859e+00,1.161194801330566406e+00,1.161125659942626953e+00,1.161056518554687500e+00,1.160987257957458496e+00,1.160918235778808594e+00,1.160849094390869141e+00,1.160779953002929688e+00,1.160710811614990234e+00,1.160641789436340332e+00,1.160572648048400879e+00,1.160503625869750977e+00,1.160434484481811523e+00,1.160365462303161621e+00,1.160296320915222168e+00,1.160227417945861816e+00,1.160158276557922363e+00,1.160089254379272461e+00,1.160020232200622559e+00,1.159951210021972656e+00,1.159882187843322754e+00,1.159813165664672852e+00,1.159744262695312500e+00,1.159675240516662598e+00,1.159606218338012695e+00,1.159537315368652344e+00,1.159468293190002441e+00,1.159399390220642090e+00,1.159330487251281738e+00,1.159261465072631836e+00,1.159192562103271484e+00,1.159123659133911133e+00,1.159054636955261230e+00,1.158985853195190430e+00,1.158916950225830078e+00,1.158848047256469727e+00,1.158779144287109375e+00,1.158710360527038574e+00,1.158641457557678223e+00,1.158572554588317871e+00,1.158503651618957520e+00,1.158434867858886719e+00,1.158366084098815918e+00,1.158297300338745117e+00,1.158228397369384766e+00,1.158159613609313965e+00,1.158090829849243164e+00,1.158022046089172363e+00,1.157953262329101562e+00,1.157884478569030762e+00,1.157815814018249512e+00,1.157747030258178711e+00,1.157678246498107910e+00,1.157609462738037109e+00,1.157540798187255859e+00,1.157472014427185059e+00,1.157403349876403809e+00,1.157334685325622559e+00,1.157265901565551758e+00,1.157197237014770508e+00,1.157128572463989258e+00,1.157059907913208008e+00,1.156991243362426758e+00,1.156922578811645508e+00
1.087119221687316895e+00,1.087058663368225098e+00,1.086998105049133301e+00,1.086937546730041504e+00,1.086876869201660156e+00,1.086816191673278809e+00,1.086755752563476562e+00,1.086695075035095215e+00,1.086634516716003418e+00,1.086573958396911621e+00,1.086513400077819824e+00,1.086452841758728027e+00,1.086392402648925781e+00,1.086331844329833984e+00,1.086271286010742188e+00,1.086210727691650391e+00,1.086150288581848145e+00,1.086089730262756348e+00,1.086029171943664551e+00,1.085968732833862305e+00,1.085908293724060059e+00,1.085847854614257812e+00,1.085787296295166016e+00,1.085726857185363770e+00,1.085666418075561523e+00,1.085605978965759277e+00,1.085545539855957031e+00,1.085485100746154785e+00,1.085424661636352539e+00,1.085364222526550293e+00,1.085303783416748047e+00,1.085243344306945801e+00,1.085183024406433105e+00,1.085122585296630859e+00,1.085062146186828613e+00,1.085001826286315918e+00,1.084941387176513672e+00,1.084881067276000977e+00,1.084820747375488281e+00,1.084760308265686035e+00,1.084699988365173340e+00,1.084639549255371094e+00,1.084579348564147949e+00,1.084518909454345703e+00,1.084458589553833008e+00,1.084398269653320312e+00,1.084337949752807617e+00,1.084277749061584473e+00,1.084217309951782227e+00,1.084157109260559082e+00,1.084096789360046387e+00,1.084036588668823242e+00,1.083976268768310547e+00,1.083916068077087402e+00,1.083855748176574707e+00,1.083795547485351562e+00,1.083735227584838867e+00,1.083675026893615723e+00,1.083614826202392578e+00,1.083554506301879883e+00,1.083494305610656738e+00,1.083434104919433594e+00,1.083373904228210449e+00,1.083313703536987305e+00,1.083253502845764160e+00,1.083193302154541016e+00,1.083133220672607422e+00,1.083073019981384277e+00,1.083012819290161133e+00,1.082952618598937988e+00,1.082892537117004395e+00,1.082832336425781250e+00,1.082772254943847656e+00,1.082712054252624512e+00,1.082651972770690918e+00,1.082591891288757324e+00,1.082531690597534180e+00,1.082471609115600586e+00,1.082411527633666992e+00,1.082351446151733398e+00
1.021018147468566895e+00,1.020964741706848145e+00,1.020911216735839844e+00,1.020857691764831543e+00,1.020804286003112793e+00,1.020750880241394043e+00,1.020697474479675293e+00,1.020643949508666992e+00,1.020590543746948242e+00,1.020537137985229492e+00,1.020483732223510742e+00,1.020430326461791992e+00,1.020376920700073242e+00,1.020323514938354492e+00,1.020270109176635742e+00,1.020216703414916992e+00,1.020163297653198242e+00,1.020110011100769043e+00,1.020056605339050293e+00,1.020003199577331543e+00,1.019949793815612793e+00,1.019896507263183594e+00,1.019843101501464844e+00,1.019789814949035645e+00,1.019736409187316895e+00,1.019683122634887695e+00,1.019629836082458496e+00,1.019576549530029297e+00,1.019523143768310547e+00,1.019469857215881348e+00,1.019416570663452148e+00,1.019363284111022949e+00,1.019309997558593750e+00,1.019256591796875000e+00,1.019203424453735352e+00,1.019150137901306152e+00,1.019096851348876953e+00,1.019043564796447754e+00,1.018990278244018555e+00,1.018936991691589355e+00,1.018883824348449707e+00,1.018830537796020508e+00,1.018777370452880859e+00,1.018724083900451660e+00,1.018670797348022461e+00,1.018617630004882812e+00,1.018564343452453613e+00,1.018511176109313965e+00,1.018458008766174316e+00,1.018404841423034668e+00,1.018351554870605469e+00,1.018298387527465820e+00,1.018245220184326172e+00,1.018192052841186523e+00,1.018138885498046875e+00,1.018085718154907227e+00,1.018032550811767578e+00,1.017979383468627930e+00,1.017926216125488281e+00,1.017873048782348633e+00,1.017820000648498535e+00,1.017766833305358887e+00,1.017713785171508789e+00,1.017660617828369141e+00,1.017607450485229492e+00,1.017554402351379395e+00,1.017501235008239746e+00,1.017448186874389648e+00,1.017395138740539551e+00,1.017341971397399902e+00,1.017288804054260254e+00,1.017235755920410156e+00,1.017182707786560059e+00,1.017129659652709961e+00,1.017076611518859863e+00,1.017023563385009766e+00,1.016970515251159668e+00,1.016917467117309570e+00,1.016864418983459473e+00,1.016811370849609375e+00
9.624947309494018555e-01,9.624472260475158691e-01,9.623997211456298828e-01,9.623521566390991211e-01,9.623046517372131348e-01,9.622572064399719238e-01,9.622097611427307129e-01,9.621621966361999512e-01,9.621147513389587402e-01,9.620672464370727539e-01,9.620198607444763184e-01,9.619722962379455566e-01,9.619248509407043457e-01,9.618774056434631348e-01,9.618299007415771484e-01,9.617824554443359375e-01,9.617350697517395020e-01,9.616876840591430664e-01,9.616401195526123047e-01,9.615927338600158691e-01,9.615453481674194336e-01,9.614979624748229980e-01,9.614504575729370117e-01,9.614030718803405762e-01,9.613556861877441406e-01,9.613083600997924805e-01,9.612608551979064941e-01,9.612134695053100586e-01,9.611661434173583984e-01,9.611186385154724121e-01,9.610713124275207520e-01,9.610239863395690918e-01,9.609766602516174316e-01,9.609292149543762207e-01,9.608818888664245605e-01,9.608345627784729004e-01,9.607872366905212402e-01,9.607397913932800293e-01,9.606924653053283691e-01,9.606451988220214844e-01,9.605978727340698242e-01,9.605504870414733887e-01,9.605031609535217285e-01,9.604558944702148438e-01,9.604085087776184082e-01,9.603611826896667480e-01,9.603139162063598633e-01,9.602666497230529785e-01,9.602192640304565430e-01,9.601719975471496582e-01,9.601247906684875488e-01,9.600775241851806641e-01,9.600301384925842285e-01,9.599829316139221191e-01,9.599356651306152344e-01,9.598883390426635742e-01,9.598411321640014648e-01,9.597938656806945801e-01,9.597466588020324707e-01,9.596993327140808105e-01,9.596521258354187012e-01,9.596049189567565918e-01,9.595577120780944824e-01,9.595104455947875977e-01,9.594632387161254883e-01,9.594160318374633789e-01,9.593688845634460449e-01,9.593215584754943848e-01,9.592744112014770508e-01,9.592272639274597168e-01,9.591799378395080566e-01,9.591327905654907227e-01,9.590856432914733887e-01,9.590384960174560547e-01,9.589912295341491699e-01,9.589440822601318359e-01,9.588969945907592773e-01,9.588498473167419434e-01,9.588025808334350586e-01,9.587554931640625000e-01
9.103165268898010254e-01,9.102739691734313965e-01,9.102315306663513184e-01,9.101890325546264648e-01,9.101465940475463867e-01,9.101040363311767578e-01,9.100615382194519043e-01,9.100190997123718262e-01,9.099766612052917480e-01,9.099341034889221191e-01,9.098916649818420410e-01,9.098492264747619629e-01,9.098067879676818848e-01,9.097642898559570312e-01,9.097218513488769531e-01,9.096794128417968750e-01,9.096369147300720215e-01,9.095945358276367188e-01,9.095520973205566406e-01,9.095097184181213379e-01,9.094672203063964844e-01,9.094247817993164062e-01,9.093824028968811035e-01,9.093400239944458008e-01,9.092975258827209473e-01,9.092551469802856445e-01,9.092127680778503418e-01,9.091703295707702637e-01,9.091279506683349609e-01,9.090855717658996582e-01,9.090431928634643555e-01,9.090007543563842773e-01,9.089583754539489746e-01,9.089160561561584473e-01,9.088736772537231445e-01,9.088312387466430664e-01,9.087889194488525391e-01,9.087466001510620117e-01,9.087042808532714844e-01,9.086618423461914062e-01,9.086195230484008789e-01,9.085772037506103516e-01,9.085347652435302734e-01,9.084925055503845215e-01,9.084501862525939941e-01,9.084078669548034668e-01,9.083654880523681641e-01,9.083231687545776367e-01,9.082809090614318848e-01,9.082385897636413574e-01,9.081962108612060547e-01,9.081539511680603027e-01,9.081116914749145508e-01,9.080693125724792480e-01,9.080270528793334961e-01,9.079847931861877441e-01,9.079425334930419922e-01,9.079001545906066895e-01,9.078579545021057129e-01,9.078156948089599609e-01,9.077734351158142090e-01,9.077311158180236816e-01,9.076888561248779297e-01,9.076465964317321777e-01,9.076043963432312012e-01,9.075620770454406738e-01,9.075198769569396973e-01,9.074776172637939453e-01,9.074353575706481934e-01,9.073931574821472168e-01,9.073508977890014648e-01,9.073086977005004883e-01,9.072664380073547363e-01,9.072242379188537598e-01,9.071820378303527832e-01,9.071398973464965820e-01,9.070975780487060547e-01,9.070554375648498535e-01,9.070132374763488770e-01,9.069710969924926758e-01
8.635047078132629395e-01,8.634665012359619141e-01,8.634282946586608887e-01,8.633899688720703125e-01,8.633517622947692871e-01,8.633135557174682617e-01,8.632753491401672363e-01,8.632370829582214355e-01,8.631988763809204102e-01,8.631606698036193848e-01,8.631224632263183594e-01,8.630841970443725586e-01,8.630460500717163086e-01,8.630078434944152832e-01,8.629695773124694824e-01,8.629314303398132324e-01,8.628932237625122070e-01,8.628550767898559570e-01,8.628168106079101562e-01,8.627786636352539062e-01,8.627405166625976562e-01,8.627023696899414062e-01,8.626641035079956055e-01,8.626259565353393555e-01,8.625878095626831055e-01,8.625496029853820801e-01,8.625114560127258301e-01,8.624733090400695801e-01,8.624352216720581055e-01,8.623970150947570801e-01,8.623588681221008301e-01,8.623207211494445801e-01,8.622826337814331055e-01,8.622444272041320801e-01,8.622063398361206055e-01,8.621682524681091309e-01,8.621301054954528809e-01,8.620919585227966309e-01,8.620538115501403809e-01,8.620157241821289062e-01,8.619775772094726562e-01,8.619394898414611816e-01,8.619014024734497070e-01,8.618633151054382324e-01,8.618251681327819824e-01,8.617870807647705078e-01,8.617489933967590332e-01,8.617109656333923340e-01,8.616728186607360840e-01,8.616347312927246094e-01,8.615967035293579102e-01,8.615585565567016602e-01,8.615205287933349609e-01,8.614824414253234863e-01,8.614444136619567871e-01,8.614062666893005371e-01,8.613682389259338379e-01,8.613302111625671387e-01,8.612921833992004395e-01,8.612540960311889648e-01,8.612160682678222656e-01,8.611780405044555664e-01,8.611400127410888672e-01,8.611019253730773926e-01,8.610639572143554688e-01,8.610259294509887695e-01,8.609878420829772949e-01,8.609498143196105957e-01,8.609118461608886719e-01,8.608738780021667480e-01,8.608357906341552734e-01,8.607978224754333496e-01,8.607597947120666504e-01,8.607218265533447266e-01,8.606837987899780273e-01,8.606458306312561035e-01,8.606078624725341797e-01,8.605698943138122559e-01,8.605318069458007812e-01,8.604938983917236328e-01
8.212719559669494629e-01,8.212372660636901855e-01,8.212026953697204590e-01,8.211681246757507324e-01,8.211336135864257812e-01,8.210989236831665039e-01,8.210644125938415527e-01,8.210298418998718262e-01,8.209952712059020996e-01,8.209606409072875977e-01,8.209261298179626465e-01,8.208915591239929199e-01,8.208569288253784180e-01,8.208224177360534668e-01,8.207878470420837402e-01,8.207533359527587891e-01,8.207187056541442871e-01,8.206841945648193359e-01,8.206496834754943848e-01,8.206151723861694336e-01,8.205806016921997070e-01,8.205460309982299805e-01,8.205115795135498047e-01,8.204769492149353027e-01,8.204424381256103516e-01,8.204079270362854004e-01,8.203734755516052246e-01,8.203389048576354980e-01,8.203043937683105469e-01,8.202698826789855957e-01,8.202354311943054199e-01,8.202008605003356934e-01,8.201663494110107422e-01,8.201318979263305664e-01,8.200973868370056152e-01,8.200628161430358887e-01,8.200283646583557129e-01,8.199939131736755371e-01,8.199593424797058105e-01,8.199248909950256348e-01,8.198904395103454590e-01,8.198559880256652832e-01,8.198214769363403320e-01,8.197870254516601562e-01,8.197525739669799805e-01,8.197181224822998047e-01,8.196836113929748535e-01,8.196491599082946777e-01,8.196147084236145020e-01,8.195802569389343262e-01,8.195457458496093750e-01,8.195113539695739746e-01,8.194769024848937988e-01,8.194423913955688477e-01,8.194079995155334473e-01,8.193735480308532715e-01,8.193391561508178711e-01,8.193046450614929199e-01,8.192702531814575195e-01,8.192358613014221191e-01,8.192014694213867188e-01,8.191669583320617676e-01,8.191325664520263672e-01,8.190981745719909668e-01,8.190637230873107910e-01,8.190293312072753906e-01,8.189949393272399902e-01,8.189605474472045898e-01,8.189260959625244141e-01,8.188917040824890137e-01,8.188573718070983887e-01,8.188229799270629883e-01,8.187885284423828125e-01,8.187541961669921875e-01,8.187198042869567871e-01,8.186854720115661621e-01,8.186510205268859863e-01,8.186166882514953613e-01,8.185822963714599609e-01,8.185479044914245605e-01
7.829775810241699219e-01,7.829461693763732910e-01,7.829147577285766602e-01,7.828832268714904785e-01,7.828518152236938477e-01,7.828204035758972168e-01,7.827889919281005859e-01,7.827575206756591797e-01,7.827261090278625488e-01,7.826946973800659180e-01,7.826632261276245117e-01,7.826318144798278809e-01,7.826004624366760254e-01,7.825690507888793945e-01,7.825375795364379883e-01,7.825062274932861328e-01,7.824748158454895020e-01,7.824434041976928711e-01,7.824119925498962402e-01,7.823805809020996094e-01,7.823492288589477539e-01,7.823177576065063477e-01,7.822864055633544922e-01,7.822550535202026367e-01,7.822236418724060059e-01,7.821922302246093750e-01,7.821608781814575195e-01,7.821295261383056641e-01,7.820981740951538086e-01,7.820667028427124023e-01,7.820353507995605469e-01,7.820039987564086914e-01,7.819727063179016113e-01,7.819412350654602051e-01,7.819099426269531250e-01,7.818785905838012695e-01,7.818471789360046387e-01,7.818158268928527832e-01,7.817845344543457031e-01,7.817531824111938477e-01,7.817217707633972168e-01,7.816904783248901367e-01,7.816591262817382812e-01,7.816278338432312012e-01,7.815964221954345703e-01,7.815651297569274902e-01,7.815337777137756348e-01,7.815024852752685547e-01,7.814711332321166992e-01,7.814398407936096191e-01,7.814084887504577637e-01,7.813771367073059082e-01,7.813458442687988281e-01,7.813145518302917480e-01,7.812832593917846680e-01,7.812519073486328125e-01,7.812206149101257324e-01,7.811893224716186523e-01,7.811580300331115723e-01,7.811266779899597168e-01,7.810954451560974121e-01,7.810641527175903320e-01,7.810328006744384766e-01,7.810015678405761719e-01,7.809702754020690918e-01,7.809389829635620117e-01,7.809076905250549316e-01,7.808763980865478516e-01,7.808451652526855469e-01,7.808139324188232422e-01,7.807825803756713867e-01,7.807513475418090820e-01,7.807201147079467773e-01,7.806888222694396973e-01,7.806575298309326172e-01,7.806262969970703125e-01,7.805950641632080078e-01,7.805637717247009277e-01,7.805325388908386230e-01,7.805013060569763184e-01
7.480953931808471680e-01,7.480666041374206543e-01,7.480379343032836914e-01,7.480092644691467285e-01,7.479805946350097656e-01,7.479518055915832520e-01,7.479231357574462891e-01,7.478944659233093262e-01,7.478657364845275879e-01,7.478370666503906250e-01,7.478083968162536621e-01,7.477797269821166992e-01,7.477509975433349609e-01,7.477223277091979980e-01,7.476937174797058105e-01,7.476650476455688477e-01,7.476363182067871094e-01,7.476076483726501465e-01,7.475790381431579590e-01,7.475503087043762207e-01,7.475216388702392578e-01,7.474930286407470703e-01,7.474643588066101074e-01,7.474356889724731445e-01,7.474070191383361816e-01,7.473784089088439941e-01,7.473497986793518066e-01,7.473210692405700684e-01,7.472924590110778809e-01,7.472638487815856934e-01,7.472351789474487305e-01,7.472065091133117676e-01,7.471778988838195801e-01,7.471492886543273926e-01,7.471206188201904297e-01,7.470920085906982422e-01,7.470633983612060547e-01,7.470347881317138672e-01,7.470061182975769043e-01,7.469775080680847168e-01,7.469488978385925293e-01,7.469202876091003418e-01,7.468916177749633789e-01,7.468630671501159668e-01,7.468344569206237793e-01,7.468058466911315918e-01,7.467771768569946289e-01,7.467486262321472168e-01,7.467200160026550293e-01,7.466914057731628418e-01,7.466627955436706543e-01,7.466342449188232422e-01,7.466056346893310547e-01,7.465770244598388672e-01,7.465484738349914551e-01,7.465198636054992676e-01,7.464913129806518555e-01,7.464627027511596680e-01,7.464340925216674805e-01,7.464055418968200684e-01,7.463769316673278809e-01,7.463483810424804688e-01,7.463198304176330566e-01,7.462912797927856445e-01,7.462626695632934570e-01,7.462341189384460449e-01,7.462055683135986328e-01,7.461770176887512207e-01,7.461484074592590332e-01,7.461198568344116211e-01,7.460913658142089844e-01,7.460628151893615723e-01,7.460342049598693848e-01,7.460057139396667480e-01,7.459771633148193359e-01,7.459485530853271484e-01,7.459200620651245117e-01,7.458915114402770996e-01,7.458630204200744629e-01,7.458344101905822754e-01
7.161886096000671387e-01,7.161622643470764160e-01,7.161359786987304688e-01,7.161096334457397461e-01,7.160833477973937988e-01,7.160570621490478516e-01,7.160307168960571289e-01,7.160044908523559570e-01,7.159782052040100098e-01,7.159519195556640625e-01,7.159255743026733398e-01,7.158992886543273926e-01,7.158730030059814453e-01,7.158467769622802734e-01,7.158204317092895508e-01,7.157941460609436035e-01,7.157679200172424316e-01,7.157416343688964844e-01,7.157153487205505371e-01,7.156890630722045898e-01,7.156628370285034180e-01,7.156364917755126953e-01,7.156102657318115234e-01,7.155839800834655762e-01,7.155577540397644043e-01,7.155314683914184570e-01,7.155051827430725098e-01,7.154789566993713379e-01,7.154527306556701660e-01,7.154264450073242188e-01,7.154002189636230469e-01,7.153739333152770996e-01,7.153476476669311523e-01,7.153214216232299805e-01,7.152951955795288086e-01,7.152689695358276367e-01,7.152426838874816895e-01,7.152164578437805176e-01,7.151902318000793457e-01,7.151640653610229492e-01,7.151377797126770020e-01,7.151115536689758301e-01,7.150853276252746582e-01,7.150591015815734863e-01,7.150328755378723145e-01,7.150066494941711426e-01,7.149804234504699707e-01,7.149541974067687988e-01,7.149279713630676270e-01,7.149018049240112305e-01,7.148755788803100586e-01,7.148493528366088867e-01,7.148231267929077148e-01,7.147969603538513184e-01,7.147707343101501465e-01,7.147445082664489746e-01,7.147183418273925781e-01,7.146921157836914062e-01,7.146658897399902344e-01,7.146397233009338379e-01,7.146135568618774414e-01,7.145873308181762695e-01,7.145611047744750977e-01,7.145349383354187012e-01,7.145087718963623047e-01,7.144826054573059082e-01,7.144563794136047363e-01,7.144302129745483398e-01,7.144040465354919434e-01,7.143778800964355469e-01,7.143516540527343750e-01,7.143255472183227539e-01,7.142993807792663574e-01,7.142731547355651855e-01,7.142469882965087891e-01,7.142208218574523926e-01,7.141947150230407715e-01,7.141684889793395996e-01,7.141423821449279785e-01,7.141162157058715820e-01
6.868922114372253418e-01,6.868680119514465332e-01,6.868438124656677246e-01,6.868196129798889160e-01,6.867954134941101074e-01,6.867712140083312988e-01,6.867470145225524902e-01,6.867228746414184570e-01,6.866986155509948730e-01,6.866744756698608398e-01,6.866502761840820312e-01,6.866261363029479980e-01,6.866018772125244141e-01,6.865777373313903809e-01,6.865535974502563477e-01,6.865293979644775391e-01,6.865051984786987305e-01,6.864810585975646973e-01,6.864568591117858887e-01,6.864326596260070801e-01,6.864085197448730469e-01,6.863843798637390137e-01,6.863602399826049805e-01,6.863360404968261719e-01,6.863118410110473633e-01,6.862877011299133301e-01,6.862635612487792969e-01,6.862393617630004883e-01,6.862152218818664551e-01,6.861910820007324219e-01,6.861669421195983887e-01,6.861428022384643555e-01,6.861186623573303223e-01,6.860945224761962891e-01,6.860703229904174805e-01,6.860461831092834473e-01,6.860221028327941895e-01,6.859979629516601562e-01,6.859737634658813477e-01,6.859496831893920898e-01,6.859255433082580566e-01,6.859014034271240234e-01,6.858772635459899902e-01,6.858531236648559570e-01,6.858290433883666992e-01,6.858048439025878906e-01,6.857807636260986328e-01,6.857566237449645996e-01,6.857325434684753418e-01,6.857084035873413086e-01,6.856842637062072754e-01,6.856601834297180176e-01,6.856361031532287598e-01,6.856119632720947266e-01,6.855878233909606934e-01,6.855637431144714355e-01,6.855396032333374023e-01,6.855155229568481445e-01,6.854914426803588867e-01,6.854673624038696289e-01,6.854432225227355957e-01,6.854191422462463379e-01,6.853950619697570801e-01,6.853709816932678223e-01,6.853468418121337891e-01,6.853227615356445312e-01,6.852986812591552734e-01,6.852746009826660156e-01,6.852504611015319824e-01,6.852263808250427246e-01,6.852023601531982422e-01,6.851782202720642090e-01,6.851541399955749512e-01,6.851300597190856934e-01,6.851060390472412109e-01,6.850818991661071777e-01,6.850578784942626953e-01,6.850337982177734375e-01,6.850097179412841797e-01,6.849856376647949219e-01
6.598984003067016602e-01,6.598761081695556641e-01,6.598536968231201172e-01,6.598314046859741211e-01,6.598091125488281250e-01,6.597867608070373535e-01,6.597644090652465820e-01,6.597421169281005859e-01,6.597197651863098145e-01,6.596974730491638184e-01,6.596751213073730469e-01,6.596528291702270508e-01,6.596304774284362793e-01,6.596081852912902832e-01,6.595858335494995117e-01,6.595635414123535156e-01,6.595412492752075195e-01,6.595188975334167480e-01,6.594966053962707520e-01,6.594743132591247559e-01,6.594520211219787598e-01,6.594296693801879883e-01,6.594073772430419922e-01,6.593850851058959961e-01,6.593627929687500000e-01,6.593405008316040039e-01,6.593182086944580078e-01,6.592959165573120117e-01,6.592735648155212402e-01,6.592512726783752441e-01,6.592290401458740234e-01,6.592067480087280273e-01,6.591843962669372559e-01,6.591621637344360352e-01,6.591398715972900391e-01,6.591175794601440430e-01,6.590952873229980469e-01,6.590729951858520508e-01,6.590507626533508301e-01,6.590284705162048340e-01,6.590061783790588379e-01,6.589839458465576172e-01,6.589616537094116211e-01,6.589393615722656250e-01,6.589170694351196289e-01,6.588948369026184082e-01,6.588726043701171875e-01,6.588502526283264160e-01,6.588280200958251953e-01,6.588057875633239746e-01,6.587835550308227539e-01,6.587612628936767578e-01,6.587389707565307617e-01,6.587167382240295410e-01,6.586945056915283203e-01,6.586722135543823242e-01,6.586499810218811035e-01,6.586277484893798828e-01,6.586054563522338867e-01,6.585832238197326660e-01,6.585609912872314453e-01,6.585387587547302246e-01,6.585164666175842285e-01,6.584942340850830078e-01,6.584720015525817871e-01,6.584497690200805664e-01,6.584275364875793457e-01,6.584053039550781250e-01,6.583830714225769043e-01,6.583607792854309082e-01,6.583386063575744629e-01,6.583163738250732422e-01,6.582941412925720215e-01,6.582719087600708008e-01,6.582496762275695801e-01,6.582274436950683594e-01,6.582052707672119141e-01,6.581829786300659180e-01,6.581608057022094727e-01,6.581385731697082520e-01
6.349459886550903320e-01,6.349253058433532715e-01,6.349046826362609863e-01,6.348839998245239258e-01,6.348632574081420898e-01,6.348426342010498047e-01,6.348219513893127441e-01,6.348013281822204590e-01,6.347805857658386230e-01,6.347599625587463379e-01,6.347392797470092773e-01,6.347186565399169922e-01,6.346979737281799316e-01,6.346772909164428711e-01,6.346566677093505859e-01,6.346359848976135254e-01,6.346153020858764648e-01,6.345946788787841797e-01,6.345740556716918945e-01,6.345533132553100586e-01,6.345326900482177734e-01,6.345120668411254883e-01,6.344914436340332031e-01,6.344707608222961426e-01,6.344500780105590820e-01,6.344294548034667969e-01,6.344087719917297363e-01,6.343881487846374512e-01,6.343675255775451660e-01,6.343469023704528809e-01,6.343262195587158203e-01,6.343055963516235352e-01,6.342849731445312500e-01,6.342643499374389648e-01,6.342436671257019043e-01,6.342231035232543945e-01,6.342024803161621094e-01,6.341818571090698242e-01,6.341611742973327637e-01,6.341405510902404785e-01,6.341199278831481934e-01,6.340993046760559082e-01,6.340786814689636230e-01,6.340580582618713379e-01,6.340374946594238281e-01,6.340168118476867676e-01,6.339961886405944824e-01,6.339756250381469727e-01,6.339550018310546875e-01,6.339343786239624023e-01,6.339137554168701172e-01,6.338931322097778320e-01,6.338725686073303223e-01,6.338519454002380371e-01,6.338313221931457520e-01,6.338107585906982422e-01,6.337900757789611816e-01,6.337695121765136719e-01,6.337489485740661621e-01,6.337283253669738770e-01,6.337077021598815918e-01,6.336871385574340820e-01,6.336665153503417969e-01,6.336459517478942871e-01,6.336253285408020020e-01,6.336047053337097168e-01,6.335841417312622070e-01,6.335635185241699219e-01,6.335429549217224121e-01,6.335223913192749023e-01,6.335018277168273926e-01,6.334812045097351074e-01,6.334606409072875977e-01,6.334400773048400879e-01,6.334195137023925781e-01,6.333988904953002930e-01,6.333783268928527832e-01,6.333577632904052734e-01,6.333371996879577637e-01,6.333165764808654785e-01
6.118119359016418457e-01,6.117927432060241699e-01,6.117734909057617188e-01,6.117542982101440430e-01,6.117351055145263672e-01,6.117159724235534668e-01,6.116967201232910156e-01,6.116775274276733398e-01,6.116583943367004395e-01,6.116392016410827637e-01,6.116199493408203125e-01,6.116008162498474121e-01,6.115816235542297363e-01,6.115624308586120605e-01,6.115432381629943848e-01,6.115240454673767090e-01,6.115049123764038086e-01,6.114856600761413574e-01,6.114665269851684570e-01,6.114473342895507812e-01,6.114282011985778809e-01,6.114089488983154297e-01,6.113898158073425293e-01,6.113706827163696289e-01,6.113514304161071777e-01,6.113322973251342773e-01,6.113131642341613770e-01,6.112939715385437012e-01,6.112747788429260254e-01,6.112556457519531250e-01,6.112364530563354492e-01,6.112173199653625488e-01,6.111981272697448730e-01,6.111789941787719727e-01,6.111598610877990723e-01,6.111406683921813965e-01,6.111214756965637207e-01,6.111023426055908203e-01,6.110832095146179199e-01,6.110640168190002441e-01,6.110448837280273438e-01,6.110257506370544434e-01,6.110066175460815430e-01,6.109874248504638672e-01,6.109682917594909668e-01,6.109491586685180664e-01,6.109300255775451660e-01,6.109108328819274902e-01,6.108916997909545898e-01,6.108725666999816895e-01,6.108534932136535645e-01,6.108343005180358887e-01,6.108151674270629883e-01,6.107960343360900879e-01,6.107769012451171875e-01,6.107577681541442871e-01,6.107386350631713867e-01,6.107195019721984863e-01,6.107003688812255859e-01,6.106812357902526855e-01,6.106621026992797852e-01,6.106430292129516602e-01,6.106238365173339844e-01,6.106047034263610840e-01,6.105856299400329590e-01,6.105664372444152832e-01,6.105473637580871582e-01,6.105282306671142578e-01,6.105091571807861328e-01,6.104899644851684570e-01,6.104708909988403320e-01,6.104517579078674316e-01,6.104326844215393066e-01,6.104135513305664062e-01,6.103944182395935059e-01,6.103753447532653809e-01,6.103562712669372559e-01,6.103370785713195801e-01,6.103180050849914551e-01,6.102989315986633301e-01
5.903042554855346680e-01,5.902864336967468262e-01,5.902685523033142090e-01,5.902506709098815918e-01,5.902327895164489746e-01,5.902149081230163574e-01,5.901970863342285156e-01,5.901792049407958984e-01,5.901613235473632812e-01,5.901435017585754395e-01,5.901256203651428223e-01,5.901077389717102051e-01,5.900898575782775879e-01,5.900720357894897461e-01,5.900542140007019043e-01,5.900362730026245117e-01,5.900184512138366699e-01,5.900006294250488281e-01,5.899827480316162109e-01,5.899648666381835938e-01,5.899470448493957520e-01,5.899292230606079102e-01,5.899113416671752930e-01,5.898934602737426758e-01,5.898756384849548340e-01,5.898578166961669922e-01,5.898399353027343750e-01,5.898221135139465332e-01,5.898042917251586914e-01,5.897864699363708496e-01,5.897685885429382324e-01,5.897507667541503906e-01,5.897329449653625488e-01,5.897151231765747070e-01,5.896972417831420898e-01,5.896794199943542480e-01,5.896615982055664062e-01,5.896437168121337891e-01,5.896258950233459473e-01,5.896080732345581055e-01,5.895902514457702637e-01,5.895724296569824219e-01,5.895546078681945801e-01,5.895367860794067383e-01,5.895189642906188965e-01,5.895010828971862793e-01,5.894832611083984375e-01,5.894654989242553711e-01,5.894476771354675293e-01,5.894297957420349121e-01,5.894120335578918457e-01,5.893942117691040039e-01,5.893763303756713867e-01,5.893585681915283203e-01,5.893407464027404785e-01,5.893229246139526367e-01,5.893051028251647949e-01,5.892872810363769531e-01,5.892695188522338867e-01,5.892516970634460449e-01,5.892338752746582031e-01,5.892160534858703613e-01,5.891982316970825195e-01,5.891804099082946777e-01,5.891626477241516113e-01,5.891448259353637695e-01,5.891270637512207031e-01,5.891092419624328613e-01,5.890914201736450195e-01,5.890736579895019531e-01,5.890558362007141113e-01,5.890380144119262695e-01,5.890202522277832031e-01,5.890024304389953613e-01,5.889846682548522949e-01,5.889668464660644531e-01,5.889490842819213867e-01,5.889312624931335449e-01,5.889134407043457031e-01,5.888956785202026367e-01
5.702574849128723145e-01,5.702408552169799805e-01,5.702241063117980957e-01,5.702074766159057617e-01,5.701907873153686523e-01,5.701740980148315430e-01,5.701574087142944336e-01,5.701407790184020996e-01,5.701240897178649902e-01,5.701074004173278809e-01,5.700907111167907715e-01,5.700740814208984375e-01,5.700573921203613281e-01,5.700407028198242188e-01,5.700240731239318848e-01,5.700073838233947754e-01,5.699907541275024414e-01,5.699740648269653320e-01,5.699574351310729980e-01,5.699407458305358887e-01,5.699241161346435547e-01,5.699074268341064453e-01,5.698907375335693359e-01,5.698741078376770020e-01,5.698574185371398926e-01,5.698407888412475586e-01,5.698241591453552246e-01,5.698075294494628906e-01,5.697908401489257812e-01,5.697741508483886719e-01,5.697575211524963379e-01,5.697408914566040039e-01,5.697242021560668945e-01,5.697075724601745605e-01,5.696909427642822266e-01,5.696742534637451172e-01,5.696576237678527832e-01,5.696409940719604492e-01,5.696243643760681152e-01,5.696076750755310059e-01,5.695910453796386719e-01,5.695744156837463379e-01,5.695577859878540039e-01,5.695411562919616699e-01,5.695245265960693359e-01,5.695078969001770020e-01,5.694912672042846680e-01,5.694745779037475586e-01,5.694579482078552246e-01,5.694413781166076660e-01,5.694246888160705566e-01,5.694080591201782227e-01,5.693914294242858887e-01,5.693748593330383301e-01,5.693581700325012207e-01,5.693415403366088867e-01,5.693249702453613281e-01,5.693083405494689941e-01,5.692916512489318848e-01,5.692750811576843262e-01,5.692584514617919922e-01,5.692418217658996582e-01,5.692251920700073242e-01,5.692085623741149902e-01,5.691919922828674316e-01,5.691753029823303223e-01,5.691587328910827637e-01,5.691421031951904297e-01,5.691255331039428711e-01,5.691088438034057617e-01,5.690922737121582031e-01,5.690756440162658691e-01,5.690590739250183105e-01,5.690424442291259766e-01,5.690258145332336426e-01,5.690092444419860840e-01,5.689926147460937500e-01,5.689759850502014160e-01,5.689594149589538574e-01,5.689428448677062988e-01
