5.000000000000000000e+00,5.000000000000000000e+00,5.000000000000000000e+00,5.000000000000000000e+00,5.000000000000000000e+00,5.000000000000000000e+00,5.000000000000000000e+00,5.000000000000000000e+00,5.000000000000000000e+00,5.000000000000000000e+00,5.000000000000000000e+00,5.000000000000000000e+00,5.000000000000000000e+00,5.000000000000000000e+00,5.000000000000000000e+00,5.000000000000000000e+00,5.000000000000000000e+00,5.000000000000000000e+00,5.000000000000000000e+00,5.000000000000000000e+00,5.000000000000000000e+00,5.000000000000000000e+00,5.000000000000000000e+00,5.000000000000000000e+00,5.000000000000000000e+00,5.000000000000000000e+00,5.000000000000000000e+00,5.000000000000000000e+00,5.000000000000000000e+00,5.000000000000000000e+00,5.000000000000000000e+00,5.000000000000000000e+00,5.000000000000000000e+00,5.000000000000000000e+00,5.000000000000000000e+00,5.000000000000000000e+00,5.000000000000000000e+00,5.000000000000000000e+00,5.000000000000000000e+00,5.000000000000000000e+00,5.000000000000000000e+00,4.481186866760253906e+00,4.318557739257812500e+00,4.167319297790527344e+00,4.026315212249755859e+00,3.894541263580322266e+00,3.771118879318237305e+00,3.655279159545898438e+00,3.546344041824340820e+00,3.443714141845703125e+00,3.346857070922851562e+00,3.255299568176269531e+00,3.168617725372314453e+00,3.086432456970214844e+00,3.008402824401855469e+00,2.934221744537353516e+00,2.863610506057739258e+00,2.796317815780639648e+00,2.732115268707275391e+00,2.670794725418090820e+00,2.612166166305541992e+00,2.556056499481201172e+00,2.502306699752807617e+00,2.450770854949951172e+00,2.401314735412597656e+00,2.353815555572509766e+00,2.308158636093139648e+00,2.264239549636840820e+00,2.221960544586181641e+00,2.181231498718261719e+00,2.141968488693237305e+00,2.104094266891479492e+00,2.067535877227783203e+00,2.032226562500000000e+00,1.998102784156799316e+00,1.965106248855590820e+00,1.933181405067443848e+00,1.902277588844299316e+00,1.872346043586730957e+00,1.843342065811157227e+00
5.000000000000000000e+00,5.000000000000000000e+00,5.000000000000000000e+00,5.000000000000000000e+00,5.000000000000000000e+00,5.000000000000000000e+00,5.000000000000000000e+00,5.000000000000000000e+00,5.000000000000000000e+00,5.000000000000000000e+00,5.000000000000000000e+00,5.000000000000000000e+00,5.000000000000000000e+00,5.000000000000000000e+00,5.000000000000000000e+00,5.000000000000000000e+00,5.000000000000000000e+00,5.000000000000000000e+00,5.000000000000000000e+00,5.000000000000000000e+00,5.000000000000000000e+00,5.000000000000000000e+00,5.000000000000000000e+00,5.000000000000000000e+00,5.000000000000000000e+00,5.000000000000000000e+00,5.000000000000000000e+00,5.000000000000000000e+00,5.000000000000000000e+00,5.000000000000000000e+00,5.000000000000000000e+00,5.000000000000000000e+00,5.000000000000000000e+00,5.000000000000000000e+00,5.000000000000000000e+00,5.000000000000000000e+00,5.000000000000000000e+00,5.000000000000000000e+00,5.000000000000000000e+00,5.000000000000000000e+00,4.656672000885009766e+00,4.481305122375488281e+00,4.318667888641357422e+00,4.167421817779541016e+00,4.026411056518554688e+00,3.894630670547485352e+00,3.771202802658081055e+00,3.655358076095581055e+00,3.546418190002441406e+00,3.443784236907958984e+00,3.346923351287841797e+00,3.255362033843994141e+00,3.168676853179931641e+00,3.086488723754882812e+00,3.008456230163574219e+00,2.934272289276123047e+00,2.863658905029296875e+00,2.796363830566406250e+00,2.732159137725830078e+00,2.670836687088012695e+00,2.612206459045410156e+00,2.556095123291015625e+00,2.502343654632568359e+00,2.450806379318237305e+00,2.401348829269409180e+00,2.353848218917846680e+00,2.308190107345581055e+00,2.264269828796386719e+00,2.221989631652832031e+00,2.181259632110595703e+00,2.141995668411254883e+00,2.104120254516601562e+00,2.067561149597167969e+00,2.032250881195068359e+00,1.998126387596130371e+00,1.965129017829895020e+00,1.933203458786010742e+00,1.902298927307128906e+00,1.872366666793823242e+00,1.843362092971801758e+00
5.000000000000000000e+00,5.000000000000000000e+00,5.000000000000000000e+00,5.000000000000000000e+00,5.000000000000000000e+00,5.000000000000000000e+00,5.000000000000000000e+00,5.000000000000000000e+00,5.000000000000000000e+00,5.000000000000000000e+00,5.000000000000000000e+00,5.000000000000000000e+00,5.000000000000000000e+00,5.000000000000000000e+00,5.000000000000000000e+00,5.000000000000000000e+00,5.000000000000000000e+00,5.000000000000000000e+00,5.000000000000000000e+00,5.000000000000000000e+00,5.000000000000000000e+00,5.000000000000000000e+00,5.000000000000000000e+00,5.000000000000000000e+00,5.000000000000000000e+00,5.000000000000000000e+00,5.000000000000000000e+00,5.000000000000000000e+00,5.000000000000000000e+00,5.000000000000000000e+00,5.000000000000000000e+00,5.000000000000000000e+00,5.000000000000000000e+00,5.000000000000000000e+00,5.000000000000000000e+00,5.000000000000000000e+00,5.000000000000000000e+00,5.000000000000000000e+00,5.000000000000000000e+00,4.846461296081542969e+00,4.656799793243408203e+00,4.481423854827880859e+00,4.318777561187744141e+00,4.167523860931396484e+00,4.026506423950195312e+00,3.894720077514648438e+00,3.771286725997924805e+00,3.655436992645263672e+00,3.546492338180541992e+00,3.443853855133056641e+00,3.346989393234252930e+00,3.255424499511718750e+00,3.168736219406127930e+00,3.086544990539550781e+00,3.008509635925292969e+00,2.934323072433471680e+00,2.863707065582275391e+00,2.796410083770751953e+00,2.732203245162963867e+00,2.670878887176513672e+00,2.612246751785278320e+00,2.556133747100830078e+00,2.502380371093750000e+00,2.450841665267944336e+00,2.401382923126220703e+00,2.353880882263183594e+00,2.308221578598022461e+00,2.264300107955932617e+00,2.222018718719482422e+00,2.181287527084350586e+00,2.142022609710693359e+00,2.104146480560302734e+00,2.067586421966552734e+00,2.032275199890136719e+00,1.998149871826171875e+00,1.965151548385620117e+00,1.933225512504577637e+00,1.902320265769958496e+00,1.872387409210205078e+00,1.843382120132446289e+00
5.000000000000000000e+00,5.000000000000000000e+00,5.000000000000000000e+00,5.000000000000000000e+00,5.000000000000000000e+00,5.000000000000000000e+00,5.000000000000000000e+00,5.000000000000000000e+00,5.000000000000000000e+00,5.000000000000000000e+00,5.000000000000000000e+00,5.000000000000000000e+00,5.000000000000000000e+00,5.000000000000000000e+00,5.000000000000000000e+00,5.000000000000000000e+00,5.000000000000000000e+00,5.000000000000000000e+00,5.000000000000000000e+00,5.000000000000000000e+00,5.000000000000000000e+00,5.000000000000000000e+00,5.000000000000000000e+00,5.000000000000000000e+00,5.000000000000000000e+00,5.000000000000000000e+00,5.000000000000000000e+00,5.000000000000000000e+00,5.000000000000000000e+00,5.000000000000000000e+00,5.000000000000000000e+00,5.000000000000000000e+00,5.000000000000000000e+00,5.000000000000000000e+00,5.000000000000000000e+00,5.000000000000000000e+00,5.000000000000000000e+00,5.000000000000000000e+00,5.000000000000000000e+00,4.846600055694580078e+00,4.656927585601806641e+00,4.481542587280273438e+00,4.318887710571289062e+00,4.167626380920410156e+00,4.026602268218994141e+00,3.894809722900390625e+00,3.771370649337768555e+00,3.655515670776367188e+00,3.546566724777221680e+00,3.443923711776733398e+00,3.347055196762084961e+00,3.255487203598022461e+00,3.168795347213745117e+00,3.086601257324218750e+00,3.008563041687011719e+00,2.934373855590820312e+00,2.863755226135253906e+00,2.796456098556518555e+00,2.732247352600097656e+00,2.670920848846435547e+00,2.612287044525146484e+00,2.556172132492065430e+00,2.502417325973510742e+00,2.450877189636230469e+00,2.401417016983032227e+00,2.353913545608520508e+00,2.308253049850463867e+00,2.264330148696899414e+00,2.222047805786132812e+00,2.181315422058105469e+00,2.142049789428710938e+00,2.104172706604003906e+00,2.067611694335937500e+00,2.032299518585205078e+00,1.998173475265502930e+00,1.965174436569213867e+00,1.933247566223144531e+00,1.902341604232788086e+00,1.872408151626586914e+00,1.843402266502380371e+00
5.000000000000000000e+00,5.000000000000000000e+00,5.000000000000000000e+00,5.000000000000000000e+00,5.000000000000000000e+00,5.000000000000000000e+00,5.000000000000000000e+00,5.000000000000000000e+00,5.000000000000000000e+00,5.000000000000000000e+00,5.000000000000000000e+00,5.000000000000000000e+00,5.000000000000000000e+00,5.000000000000000000e+00,5.000000000000000000e+00,5.000000000000000000e+00,5.000000000000000000e+00,5.000000000000000000e+00,5.000000000000000000e+00,5.000000000000000000e+00,5.000000000000000000e+00,5.000000000000000000e+00,5.000000000000000000e+00,5.000000000000000000e+00,5.000000000000000000e+00,5.000000000000000000e+00,5.000000000000000000e+00,5.000000000000000000e+00,5.000000000000000000e+00,5.000000000000000000e+00,5.000000000000000000e+00,5.000000000000000000e+00,5.000000000000000000e+00,5.000000000000000000e+00,5.000000000000000000e+00,5.000000000000000000e+00,5.000000000000000000e+00,5.000000000000000000e+00,5.000000000000000000e+00,4.846738338470458984e+00,4.657055377960205078e+00,4.481660366058349609e+00,4.318997859954833984e+00,4.167728900909423828e+00,4.026697635650634766e+00,3.894899129867553711e+00,3.771454572677612305e+00,3.655594587326049805e+00,3.546640872955322266e+00,3.443993806838989258e+00,3.347121238708496094e+00,3.255549669265747070e+00,3.168854713439941406e+00,3.086657285690307617e+00,3.008616447448730469e+00,2.934424638748168945e+00,2.863803625106811523e+00,2.796502113342285156e+00,2.732291460037231445e+00,2.670963048934936523e+00,2.612327337265014648e+00,2.556210756301879883e+00,2.502454280853271484e+00,2.450912475585937500e+00,2.401450872421264648e+00,2.353946208953857422e+00,2.308284282684326172e+00,2.264360427856445312e+00,2.222076892852783203e+00,2.181343555450439453e+00,2.142076969146728516e+00,2.104198694229125977e+00,2.067636728286743164e+00,2.032324075698852539e+00,1.998196959495544434e+00,1.965197205543518066e+00,1.933269619941711426e+00,1.902362942695617676e+00,1.872428774833679199e+00,1.843422293663024902e+00
5.000000000000000000e+00,5.000000000000000000e+00,5.000000000000000000e+00,5.000000000000000000e+00,5.000000000000000000e+00,5.000000000000000000e+00,5.000000000000000000e+00,5.000000000000000000e+00,5.000000000000000000e+00,5.000000000000000000e+00,5.000000000000000000e+00,5.000000000000000000e+00,5.000000000000000000e+00,5.000000000000000000e+00,5.000000000000000000e+00,5.000000000000000000e+00,5.000000000000000000e+00,5.000000000000000000e+00,5.000000000000000000e+00,5.000000000000000000e+00,5.000000000000000000e+00,5.000000000000000000e+00,5.000000000000000000e+00,5.000000000000000000e+00,5.000000000000000000e+00,5.000000000000000000e+00,5.000000000000000000e+00,5.000000000000000000e+00,5.000000000000000000e+00,5.000000000000000000e+00,5.000000000000000000e+00,5.000000000000000000e+00,5.000000000000000000e+00,5.000000000000000000e+00,5.000000000000000000e+00,5.000000000000000000e+00,5.000000000000000000e+00,5.000000000000000000e+00,5.000000000000000000e+00,4.846877098083496094e+00,4.657183647155761719e+00,4.481779098510742188e+00,4.319108009338378906e+00,4.167831420898437500e+00,4.026793479919433594e+00,3.894988775253295898e+00,3.771538496017456055e+00,3.655673503875732422e+00,3.546715021133422852e+00,3.444063663482666016e+00,3.347187280654907227e+00,3.255611896514892578e+00,3.168913841247558594e+00,3.086713552474975586e+00,3.008669853210449219e+00,2.934475421905517578e+00,2.863852024078369141e+00,2.796548128128051758e+00,2.732335329055786133e+00,2.671005249023437500e+00,2.612367630004882812e+00,2.556249380111694336e+00,2.502491235733032227e+00,2.450947761535644531e+00,2.401484727859497070e+00,2.353978872299194336e+00,2.308315753936767578e+00,2.264390707015991211e+00,2.222105979919433594e+00,2.181371688842773438e+00,2.142103910446166992e+00,2.104224920272827148e+00,2.067662000656127930e+00,2.032348394393920898e+00,1.998220562934875488e+00,1.965219974517822266e+00,1.933291673660278320e+00,1.902384281158447266e+00,1.872449517250061035e+00,1.843442320823669434e+00
5.000000000000000000e+00,5.000000000000000000e+00,5.000000000000000000e+00,5.000000000000000000e+00,5.000000000000000000e+00,5.000000000000000000e+00,5.000000000000000000e+00,5.000000000000000000e+00,5.000000000000000000e+00,5.000000000000000000e+00,5.000000000000000000e+00,5.000000000000000000e+00,5.000000000000000000e+00,5.000000000000000000e+00,5.000000000000000000e+00,5.000000000000000000e+00,5.000000000000000000e+00,5.000000000000000000e+00,5.000000000000000000e+00,5.000000000000000000e+00,5.000000000000000000e+00,5.000000000000000000e+00,5.000000000000000000e+00,5.000000000000000000e+00,5.000000000000000000e+00,5.000000000000000000e+00,5.000000000000000000e+00,5.000000000000000000e+00,5.000000000000000000e+00,5.000000000000000000e+00,5.000000000000000000e+00,5.000000000000000000e+00,5.000000000000000000e+00,5.000000000000000000e+00,5.000000000000000000e+00,5.000000000000000000e+00,5.000000000000000000e+00,5.000000000000000000e+00,5.000000000000000000e+00,4.847015380859375000e+00,4.657311439514160156e+00,4.481897830963134766e+00,4.319217681884765625e+00,4.167933940887451172e+00,4.026888847351074219e+00,3.895077705383300781e+00,3.771622419357299805e+00,3.655752182006835938e+00,3.546789407730102539e+00,3.444133758544921875e+00,3.347253561019897461e+00,3.255674362182617188e+00,3.168973207473754883e+00,3.086769819259643555e+00,3.008723258972167969e+00,2.934526205062866211e+00,2.863900423049926758e+00,2.796594381332397461e+00,2.732379198074340820e+00,2.671047210693359375e+00,2.612407922744750977e+00,2.556287765502929688e+00,2.502528190612792969e+00,2.450983285903930664e+00,2.401518821716308594e+00,2.354011774063110352e+00,2.308347225189208984e+00,2.264420986175537109e+00,2.222135305404663086e+00,2.181399822235107422e+00,2.142130851745605469e+00,2.104250907897949219e+00,2.067687273025512695e+00,2.032372713088989258e+00,1.998244166374206543e+00,1.965242743492126465e+00,1.933313727378845215e+00,1.902405500411987305e+00,1.872470140457153320e+00,1.843462347984313965e+00
5.000000000000000000e+00,5.000000000000000000e+00,5.000000000000000000e+00,5.000000000000000000e+00,5.000000000000000000e+00,5.000000000000000000e+00,5.000000000000000000e+00,5.000000000000000000e+00,5.000000000000000000e+00,5.000000000000000000e+00,5.000000000000000000e+00,5.000000000000000000e+00,5.000000000000000000e+00,5.000000000000000000e+00,5.000000000000000000e+00,5.000000000000000000e+00,5.000000000000000000e+00,5.000000000000000000e+00,5.000000000000000000e+00,5.000000000000000000e+00,5.000000000000000000e+00,5.000000000000000000e+00,5.000000000000000000e+00,5.000000000000000000e+00,5.000000000000000000e+00,5.000000000000000000e+00,5.000000000000000000e+00,5.000000000000000000e+00,5.000000000000000000e+00,5.000000000000000000e+00,5.000000000000000000e+00,5.000000000000000000e+00,5.000000000000000000e+00,5.000000000000000000e+00,5.000000000000000000e+00,5.000000000000000000e+00,5.000000000000000000e+00,5.000000000000000000e+00,5.000000000000000000e+00,4.847154140472412109e+00,4.657439708709716797e+00,4.482016086578369141e+00,4.319327831268310547e+00,4.168036460876464844e+00,4.026984691619873047e+00,3.895167350769042969e+00,3.771705865859985352e+00,3.655831098556518555e+00,3.546863555908203125e+00,3.444203853607177734e+00,3.347319602966308594e+00,3.255737066268920898e+00,3.169032096862792969e+00,3.086826086044311523e+00,3.008776903152465820e+00,2.934576988220214844e+00,2.863948822021484375e+00,2.796640634536743164e+00,2.732423305511474609e+00,2.671089410781860352e+00,2.612448215484619141e+00,2.556326389312744141e+00,2.502565145492553711e+00,2.451018810272216797e+00,2.401552915573120117e+00,2.354044198989868164e+00,2.308378696441650391e+00,2.264451265335083008e+00,2.222164392471313477e+00,2.181427955627441406e+00,2.142158031463623047e+00,2.104276895523071289e+00,2.067712545394897461e+00,2.032397031784057617e+00,1.998267650604248047e+00,1.965265512466430664e+00,1.933335781097412109e+00,1.902426838874816895e+00,1.872490882873535156e+00,1.843482375144958496e+00
5.000000000000000000e+00,5.000000000000000000e+00,5.000000000000000000e+00,5.000000000000000000e+00,5.000000000000000000e+00,5.000000000000000000e+00,5.000000000000000000e+00,5.000000000000000000e+00,5.000000000000000000e+00,5.000000000000000000e+00,5.000000000000000000e+00,5.000000000000000000e+00,5.000000000000000000e+00,5.000000000000000000e+00,5.000000000000000000e+00,5.000000000000000000e+00,5.000000000000000000e+00,5.000000000000000000e+00,5.000000000000000000e+00,5.000000000000000000e+00,5.000000000000000000e+00,5.000000000000000000e+00,5.000000000000000000e+00,5.000000000000000000e+00,5.000000000000000000e+00,5.000000000000000000e+00,5.000000000000000000e+00,5.000000000000000000e+00,5.000000000000000000e+00,5.000000000000000000e+00,5.000000000000000000e+00,5.000000000000000000e+00,5.000000000000000000e+00,5.000000000000000000e+00,5.000000000000000000e+00,5.000000000000000000e+00,5.000000000000000000e+00,5.000000000000000000e+00,5.000000000000000000e+00,4.847292423248291016e+00,4.657567024230957031e+00,4.482134819030761719e+00,4.319437980651855469e+00,4.168138980865478516e+00,4.027080535888671875e+00,3.895256757736206055e+00,3.771789789199829102e+00,3.655910015106201172e+00,3.546937704086303711e+00,3.444273710250854492e+00,3.347385644912719727e+00,3.255799531936645508e+00,3.169091463088989258e+00,3.086881875991821289e+00,3.008830308914184570e+00,2.934628009796142578e+00,2.863997220993041992e+00,2.796686649322509766e+00,2.732467412948608398e+00,2.671131134033203125e+00,2.612488508224487305e+00,2.556365013122558594e+00,2.502602100372314453e+00,2.451054334640502930e+00,2.401586771011352539e+00,2.354076862335205078e+00,2.308410167694091797e+00,2.264481544494628906e+00,2.222193479537963867e+00,2.181455850601196289e+00,2.142184972763061523e+00,2.104303121566772461e+00,2.067737579345703125e+00,2.032421588897705078e+00,1.998291254043579102e+00,1.965288281440734863e+00,1.933357834815979004e+00,1.902448177337646484e+00,1.872511506080627441e+00,1.843502521514892578e+00
5.000000000000000000e+00,5.000000000000000000e+00,5.000000000000000000e+00,5.000000000000000000e+00,5.000000000000000000e+00,5.000000000000000000e+00,5.000000000000000000e+00,5.000000000000000000e+00,5.000000000000000000e+00,5.000000000000000000e+00,5.000000000000000000e+00,5.000000000000000000e+00,5.000000000000000000e+00,5.000000000000000000e+00,5.000000000000000000e+00,5.000000000000000000e+00,5.000000000000000000e+00,5.000000000000000000e+00,5.000000000000000000e+00,5.000000000000000000e+00,5.000000000000000000e+00,5.000000000000000000e+00,5.000000000000000000e+00,5.000000000000000000e+00,4.147819519042968750e+00,4.148765563964843750e+00,5.000000000000000000e+00,5.000000000000000000e+00,5.000000000000000000e+00,5.000000000000000000e+00,5.000000000000000000e+00,5.000000000000000000e+00,5.000000000000000000e+00,5.000000000000000000e+00,5.000000000000000000e+00,5.000000000000000000e+00,5.000000000000000000e+00,5.000000000000000000e+00,5.000000000000000000e+00,4.847431182861328125e+00,4.657695293426513672e+00,4.482253074645996094e+00,4.319548130035400391e+00,4.168241500854492188e+00,4.027175903320312500e+00,3.895346403121948242e+00,3.771873950958251953e+00,3.655988454818725586e+00,3.547012090682983398e+00,3.444343805313110352e+00,3.347451686859130859e+00,3.255861997604370117e+00,3.169150590896606445e+00,3.086938142776489258e+00,3.008883714675903320e+00,2.934678792953491211e+00,2.864045619964599609e+00,2.796732902526855469e+00,2.732511520385742188e+00,2.671173334121704102e+00,2.612528562545776367e+00,2.556403636932373047e+00,2.502639055252075195e+00,2.451089620590209961e+00,2.401620864868164062e+00,2.354109525680541992e+00,2.308441400527954102e+00,2.264511823654174805e+00,2.222222566604614258e+00,2.181483983993530273e+00,2.142212152481079102e+00,2.104329347610473633e+00,2.067762851715087891e+00,2.032445907592773438e+00,1.998314857482910156e+00,1.965311169624328613e+00,1.933379888534545898e+00,1.902469515800476074e+00,1.872532248497009277e+00,1.843522310256958008e+00
5.000000000000000000e+00,5.000000000000000000e+00,5.000000000000000000e+00,5.000000000000000000e+00,5.000000000000000000e+00,5.000000000000000000e+00,5.000000000000000000e+00,5.000000000000000000e+00,5.000000000000000000e+00,5.000000000000000000e+00,5.000000000000000000e+00,5.000000000000000000e+00,5.000000000000000000e+00,5.000000000000000000e+00,5.000000000000000000e+00,5.000000000000000000e+00,5.000000000000000000e+00,5.000000000000000000e+00,5.000000000000000000e+00,5.000000000000000000e+00,5.000000000000000000e+00,5.000000000000000000e+00,5.000000000000000000e+00,5.000000000000000000e+00,4.144731521606445312e+00,4.146007061004638672e+00,4.241388320922851562e+00,5.000000000000000000e+00,5.000000000000000000e+00,5.000000000000000000e+00,5.000000000000000000e+00,5.000000000000000000e+00,5.000000000000000000e+00,5.000000000000000000e+00,5.000000000000000000e+00,5.000000000000000000e+00,5.000000000000000000e+00,5.000000000000000000e+00,5.000000000000000000e+00,4.847569942474365234e+00,4.657823085784912109e+00,4.482371330261230469e+00,4.319658279418945312e+00,4.168344020843505859e+00,4.027271747589111328e+00,3.895435810089111328e+00,3.771957874298095703e+00,3.656067371368408203e+00,3.547086238861083984e+00,3.444413661956787109e+00,3.347517967224121094e+00,3.255924701690673828e+00,3.169209957122802734e+00,3.086994409561157227e+00,3.008936882019042969e+00,2.934729576110839844e+00,2.864094018936157227e+00,2.796778917312622070e+00,2.732555389404296875e+00,2.671215534210205078e+00,2.612568855285644531e+00,2.556442022323608398e+00,2.502676010131835938e+00,2.451125144958496094e+00,2.401654958724975586e+00,2.354142189025878906e+00,2.308472871780395508e+00,2.264541864395141602e+00,2.222251653671264648e+00,2.181512117385864258e+00,2.142239093780517578e+00,2.104355335235595703e+00,2.067788124084472656e+00,2.032469987869262695e+00,1.998338341712951660e+00,1.965333938598632812e+00,1.933401942253112793e+00,1.902490854263305664e+00,1.872552871704101562e+00,1.843542337417602539e+00
5.000000000000000000e+00,5.000000000000000000e+00,5.000000000000000000e+00,5.000000000000000000e+00,5.000000000000000000e+00,5.000000000000000000e+00,5.000000000000000000e+00,5.000000000000000000e+00,5.000000000000000000e+00,5.000000000000000000e+00,5.000000000000000000e+00,5.000000000000000000e+00,5.000000000000000000e+00,5.000000000000000000e+00,5.000000000000000000e+00,5.000000000000000000e+00,5.000000000000000000e+00,5.000000000000000000e+00,5.000000000000000000e+00,5.000000000000000000e+00,5.000000000000000000e+00,5.000000000000000000e+00,5.000000000000000000e+00,5.000000000000000000e+00,4.199934005737304688e+00,4.154163837432861328e+00,5.000000000000000000e+00,5.000000000000000000e+00,5.000000000000000000e+00,5.000000000000000000e+00,5.000000000000000000e+00,5.000000000000000000e+00,5.000000000000000000e+00,5.000000000000000000e+00,5.000000000000000000e+00,5.000000000000000000e+00,5.000000000000000000e+00,5.000000000000000000e+00,5.000000000000000000e+00,4.847708702087402344e+00,4.657951354980468750e+00,4.482490062713623047e+00,4.319767951965332031e+00,4.168446540832519531e+00,4.027367115020751953e+00,3.895525455474853516e+00,3.772041797637939453e+00,3.656146287918090820e+00,3.547160148620605469e+00,3.444483757019042969e+00,3.347584009170532227e+00,3.255987167358398438e+00,3.169269084930419922e+00,3.087050676345825195e+00,3.008990287780761719e+00,2.934780359268188477e+00,2.864142417907714844e+00,2.796825170516967773e+00,2.732599496841430664e+00,2.671257495880126953e+00,2.612609148025512695e+00,2.556480407714843750e+00,2.502712965011596680e+00,2.451160669326782227e+00,2.401689052581787109e+00,2.354175090789794922e+00,2.308504343032836914e+00,2.264572143554687500e+00,2.222280979156494141e+00,2.181540250778198242e+00,2.142266273498535156e+00,2.104381561279296875e+00,2.067813396453857422e+00,2.032494544982910156e+00,1.998361706733703613e+00,1.965356707572937012e+00,1.933423995971679688e+00,1.902512311935424805e+00,1.872573614120483398e+00,1.843562483787536621e+00
5.000000000000000000e+00,5.000000000000000000e+00,5.000000000000000000e+00,5.000000000000000000e+00,5.000000000000000000e+00,5.000000000000000000e+00,5.000000000000000000e+00,5.000000000000000000e+00,5.000000000000000000e+00,5.000000000000000000e+00,5.000000000000000000e+00,5.000000000000000000e+00,5.000000000000000000e+00,5.000000000000000000e+00,5.000000000000000000e+00,5.000000000000000000e+00,5.000000000000000000e+00,5.000000000000000000e+00,5.000000000000000000e+00,5.000000000000000000e+00,5.000000000000000000e+00,5.000000000000000000e+00,5.000000000000000000e+00,5.000000000000000000e+00,5.000000000000000000e+00,4.220144271850585938e+00,4.206542968750000000e+00,5.000000000000000000e+00,5.000000000000000000e+00,5.000000000000000000e+00,5.000000000000000000e+00,5.000000000000000000e+00,5.000000000000000000e+00,5.000000000000000000e+00,5.000000000000000000e+00,5.000000000000000000e+00,5.000000000000000000e+00,5.000000000000000000e+00,5.000000000000000000e+00,4.847846984863281250e+00,4.658079147338867188e+00,4.482608795166015625e+00,4.319878101348876953e+00,4.168549060821533203e+00,4.027462959289550781e+00,3.895615100860595703e+00,3.772125720977783203e+00,3.656225204467773438e+00,3.547234296798706055e+00,3.444553375244140625e+00,3.347650051116943359e+00,3.256049633026123047e+00,3.169328451156616211e+00,3.087106943130493164e+00,3.009043693542480469e+00,2.934830904006958008e+00,2.864191055297851562e+00,2.796871185302734375e+00,2.732643604278564453e+00,2.671299695968627930e+00,2.612649440765380859e+00,2.556519031524658203e+00,2.502749919891357422e+00,2.451195955276489258e+00,2.401723146438598633e+00,2.354207754135131836e+00,2.308535814285278320e+00,2.264602422714233398e+00,2.222309827804565430e+00,2.181568145751953125e+00,2.142293453216552734e+00,2.104407548904418945e+00,2.067838430404663086e+00,2.032518863677978516e+00,1.998385310173034668e+00,1.965379476547241211e+00,1.933446049690246582e+00,1.902533650398254395e+00,1.872594356536865234e+00,1.843582510948181152e+00
5.000000000000000000e+00,5.000000000000000000e+00,5.000000000000000000e+00,5.000000000000000000e+00,5.000000000000000000e+00,5.000000000000000000e+00,5.000000000000000000e+00,5.000000000000000000e+00,5.000000000000000000e+00,5.000000000000000000e+00,5.000000000000000000e+00,5.000000000000000000e+00,5.000000000000000000e+00,5.000000000000000000e+00,5.000000000000000000e+00,5.000000000000000000e+00,5.000000000000000000e+00,5.000000000000000000e+00,5.000000000000000000e+00,5.000000000000000000e+00,5.000000000000000000e+00,5.000000000000000000e+00,4.198379039764404297e+00,4.172451019287109375e+00,4.154308319091796875e+00,4.148196697235107422e+00,4.156715393066406250e+00,4.185574054718017578e+00,4.202256202697753906e+00,5.000000000000000000e+00,5.000000000000000000e+00,5.000000000000000000e+00,5.000000000000000000e+00,5.000000000000000000e+00,5.000000000000000000e+00,5.000000000000000000e+00,5.000000000000000000e+00,5.000000000000000000e+00,5.000000000000000000e+00,4.847985744476318359e+00,4.658206939697265625e+00,4.482727050781250000e+00,4.319988250732421875e+00,4.168651103973388672e+00,4.027558803558349609e+00,3.895704507827758789e+00,3.772209644317626953e+00,3.656303882598876953e+00,3.547308683395385742e+00,3.444623470306396484e+00,3.347716331481933594e+00,3.256112337112426758e+00,3.169387817382812500e+00,3.087163209915161133e+00,3.009097099304199219e+00,2.934881687164306641e+00,2.864239215850830078e+00,2.796917438507080078e+00,2.732687711715698242e+00,2.671341657638549805e+00,2.612689495086669922e+00,2.556557655334472656e+00,2.502786874771118164e+00,2.451231479644775391e+00,2.401757001876831055e+00,2.354240417480468750e+00,2.308567285537719727e+00,2.264632701873779297e+00,2.222338914871215820e+00,2.181596279144287109e+00,2.142320394515991211e+00,2.104433774948120117e+00,2.067863702774047852e+00,2.032543182373046875e+00,1.998408794403076172e+00,1.965402245521545410e+00,1.933468103408813477e+00,1.902554988861083984e+00,1.872614979743957520e+00,1.843602538108825684e+00
5.000000000000000000e+00,5.000000000000000000e+00,5.000000000000000000e+00,5.000000000000000000e+00,5.000000000000000000e+00,5.000000000000000000e+00,5.000000000000000000e+00,5.000000000000000000e+00,5.000000000000000000e+00,5.000000000000000000e+00,5.000000000000000000e+00,5.000000000000000000e+00,5.000000000000000000e+00,5.000000000000000000e+00,5.000000000000000000e+00,5.000000000000000000e+00,5.000000000000000000e+00,5.000000000000000000e+00,5.000000000000000000e+00,5.000000000000000000e+00,5.000000000000000000e+00,5.000000000000000000e+00,4.205119609832763672e+00,4.139074325561523438e+00,4.117336750030517578e+00,4.119638442993164062e+00,4.135652542114257812e+00,4.189337730407714844e+00,4.212994575500488281e+00,5.000000000000000000e+00,5.000000000000000000e+00,5.000000000000000000e+00,5.000000000000000000e+00,5.000000000000000000e+00,5.000000000000000000e+00,5.000000000000000000e+00,5.000000000000000000e+00,5.000000000000000000e+00,5.000000000000000000e+00,4.848124504089355469e+00,4.658335208892822266e+00,4.482845783233642578e+00,4.320098400115966797e+00,4.168753623962402344e+00,4.027654647827148438e+00,3.895794153213500977e+00,3.772293567657470703e+00,3.656382799148559570e+00,3.547382831573486328e+00,3.444693565368652344e+00,3.347782135009765625e+00,3.256174802780151367e+00,3.169446945190429688e+00,3.087219476699829102e+00,3.009150505065917969e+00,2.934932470321655273e+00,2.864287614822387695e+00,2.796963691711425781e+00,2.732731819152832031e+00,2.671383857727050781e+00,2.612729787826538086e+00,2.556596279144287109e+00,2.502823829650878906e+00,2.451266765594482422e+00,2.401791095733642578e+00,2.354273080825805664e+00,2.308598756790161133e+00,2.264662981033325195e+00,2.222368240356445312e+00,2.181624174118041992e+00,2.142347574234008789e+00,2.104460000991821289e+00,2.067888975143432617e+00,2.032567501068115234e+00,1.998432397842407227e+00,1.965425133705139160e+00,1.933490157127380371e+00,1.902576327323913574e+00,1.872635722160339355e+00,1.843622565269470215e+00
5.000000000000000000e+00,5.000000000000000000e+00,5.000000000000000000e+00,5.000000000000000000e+00,5.000000000000000000e+00,5.000000000000000000e+00,5.000000000000000000e+00,5.000000000000000000e+00,5.000000000000000000e+00,5.000000000000000000e+00,5.000000000000000000e+00,5.000000000000000000e+00,5.000000000000000000e+00,5.000000000000000000e+00,5.000000000000000000e+00,5.000000000000000000e+00,5.000000000000000000e+00,5.000000000000000000e+00,5.000000000000000000e+00,5.000000000000000000e+00,5.000000000000000000e+00,5.000000000000000000e+00,4.241519451141357422e+00,4.155210971832275391e+00,4.109198093414306641e+00,4.108394622802734375e+00,4.148025512695312500e+00,4.224490165710449219e+00,4.215928077697753906e+00,5.000000000000000000e+00,5.000000000000000000e+00,5.000000000000000000e+00,5.000000000000000000e+00,5.000000000000000000e+00,5.000000000000000000e+00,5.000000000000000000e+00,5.000000000000000000e+00,5.000000000000000000e+00,5.000000000000000000e+00,4.848262786865234375e+00,4.658463001251220703e+00,4.482964038848876953e+00,4.320208549499511719e+00,4.168856143951416016e+00,4.027750015258789062e+00,3.895883560180664062e+00,3.772377729415893555e+00,3.656461715698242188e+00,3.547457218170166016e+00,3.444763422012329102e+00,3.347848176956176758e+00,3.256237030029296875e+00,3.169506311416625977e+00,3.087275505065917969e+00,3.009203910827636719e+00,2.934983491897583008e+00,2.864336013793945312e+00,2.797009468078613281e+00,2.732775926589965820e+00,2.671426057815551758e+00,2.612770080566406250e+00,2.556634664535522461e+00,2.502860784530639648e+00,2.451302289962768555e+00,2.401825189590454102e+00,2.354305744171142578e+00,2.308630228042602539e+00,2.264693260192871094e+00,2.222397327423095703e+00,2.181652307510375977e+00,2.142374515533447266e+00,2.104485988616943359e+00,2.067914247512817383e+00,2.032592058181762695e+00,1.998456001281738281e+00,1.965447902679443359e+00,1.933511972427368164e+00,1.902597665786743164e+00,1.872656345367431641e+00,1.843642711639404297e+00
5.000000000000000000e+00,5.000000000000000000e+00,5.000000000000000000e+00,5.000000000000000000e+00,5.000000000000000000e+00,5.000000000000000000e+00,5.000000000000000000e+00,5.000000000000000000e+00,5.000000000000000000e+00,5.000000000000000000e+00,5.000000000000000000e+00,5.000000000000000000e+00,5.000000000000000000e+00,5.000000000000000000e+00,5.000000000000000000e+00,5.000000000000000000e+00,5.000000000000000000e+00,5.000000000000000000e+00,5.000000000000000000e+00,5.000000000000000000e+00,5.000000000000000000e+00,5.000000000000000000e+00,5.000000000000000000e+00,4.180990219116210938e+00,4.111543655395507812e+00,4.112786769866943359e+00,4.143200397491455078e+00,4.284306049346923828e+00,4.220195770263671875e+00,5.000000000000000000e+00,5.000000000000000000e+00,5.000000000000000000e+00,5.000000000000000000e+00,5.000000000000000000e+00,5.000000000000000000e+00,5.000000000000000000e+00,5.000000000000000000e+00,5.000000000000000000e+00,5.000000000000000000e+00,4.848401546478271484e+00,4.658591270446777344e+00,4.483082771301269531e+00,4.320318222045898438e+00,4.168958663940429688e+00,4.027845382690429688e+00,3.895972728729248047e+00,3.772461652755737305e+00,3.656540632247924805e+00,3.547531366348266602e+00,3.444833517074584961e+00,3.347914457321166992e+00,3.256299734115600586e+00,3.169565677642822266e+00,3.087331771850585938e+00,3.009257316589355469e+00,2.935034275054931641e+00,2.864384412765502930e+00,2.797055721282958984e+00,2.732819557189941406e+00,2.671468019485473633e+00,2.612810373306274414e+00,2.556673288345336914e+00,2.502897739410400391e+00,2.451337575912475586e+00,2.401859045028686523e+00,2.354338645935058594e+00,2.308661699295043945e+00,2.264723539352416992e+00,2.222426414489746094e+00,2.181680440902709961e+00,2.142401695251464844e+00,2.104512214660644531e+00,2.067939519882202148e+00,2.032616376876831055e+00,1.998479604721069336e+00,1.965470671653747559e+00,1.933534026145935059e+00,1.902619004249572754e+00,1.872677087783813477e+00,1.843662738800048828e+00
5.000000000000000000e+00,5.000000000000000000e+00,5.000000000000000000e+00,5.000000000000000000e+00,5.000000000000000000e+00,5.000000000000000000e+00,5.000000000000000000e+00,5.000000000000000000e+00,5.000000000000000000e+00,5.000000000000000000e+00,5.000000000000000000e+00,5.000000000000000000e+00,5.000000000000000000e+00,5.000000000000000000e+00,5.000000000000000000e+00,5.000000000000000000e+00,5.000000000000000000e+00,5.000000000000000000e+00,5.000000000000000000e+00,5.000000000000000000e+00,5.000000000000000000e+00,5.000000000000000000e+00,5.000000000000000000e+00,4.140375614166259766e+00,4.100018978118896484e+00,4.106000423431396484e+00,4.135471343994140625e+00,5.000000000000000000e+00,4.233006000518798828e+00,5.000000000000000000e+00,5.000000000000000000e+00,5.000000000000000000e+00,5.000000000000000000e+00,5.000000000000000000e+00,5.000000000000000000e+00,5.000000000000000000e+00,5.000000000000000000e+00,5.000000000000000000e+00,5.000000000000000000e+00,4.848540306091308594e+00,4.658719062805175781e+00,4.483201503753662109e+00,4.320428371429443359e+00,4.169061183929443359e+00,4.027941226959228516e+00,3.896062374114990234e+00,3.772545576095581055e+00,3.656619548797607422e+00,3.547605752944946289e+00,3.444903612136840820e+00,3.347980499267578125e+00,3.256362199783325195e+00,3.169624567031860352e+00,3.087388038635253906e+00,3.009310722351074219e+00,2.935085058212280273e+00,2.864432811737060547e+00,2.797101974487304688e+00,2.732863664627075195e+00,2.671510219573974609e+00,2.612850666046142578e+00,2.556711912155151367e+00,2.502934694290161133e+00,2.451373100280761719e+00,2.401893138885498047e+00,2.354371070861816406e+00,2.308692932128906250e+00,2.264753818511962891e+00,2.222455501556396484e+00,2.181708574295043945e+00,2.142428636550903320e+00,2.104538202285766602e+00,2.067964792251586914e+00,2.032640695571899414e+00,1.998503088951110840e+00,1.965493440628051758e+00,1.933556079864501953e+00,1.902640461921691895e+00,1.872697830200195312e+00,1.843682765960693359e+00
5.000000000000000000e+00,5.000000000000000000e+00,5.000000000000000000e+00,5.000000000000000000e+00,5.000000000000000000e+00,5.000000000000000000e+00,5.000000000000000000e+00,5.000000000000000000e+00,5.000000000000000000e+00,5.000000000000000000e+00,5.000000000000000000e+00,5.000000000000000000e+00,5.000000000000000000e+00,5.000000000000000000e+00,5.000000000000000000e+00,5.000000000000000000e+00,5.000000000000000000e+00,5.000000000000000000e+00,5.000000000000000000e+00,5.000000000000000000e+00,5.000000000000000000e+00,5.000000000000000000e+00,5.000000000000000000e+00,4.140040874481201172e+00,4.109995365142822266e+00,4.114230155944824219e+00,4.146918773651123047e+00,4.245715141296386719e+00,4.194991588592529297e+00,5.000000000000000000e+00,5.000000000000000000e+00,5.000000000000000000e+00,5.000000000000000000e+00,5.000000000000000000e+00,5.000000000000000000e+00,5.000000000000000000e+00,5.000000000000000000e+00,5.000000000000000000e+00,5.000000000000000000e+00,4.848678588867187500e+00,4.658846855163574219e+00,4.483319759368896484e+00,4.320538520812988281e+00,4.169163703918457031e+00,4.028037071228027344e+00,3.896152019500732422e+00,3.772629261016845703e+00,3.656698465347290039e+00,3.547679901123046875e+00,3.444973468780517578e+00,3.348046779632568359e+00,3.256424903869628906e+00,3.169683933258056641e+00,3.087444305419921875e+00,3.009364128112792969e+00,2.935135841369628906e+00,2.864481210708618164e+00,2.797147989273071289e+00,2.732907772064208984e+00,2.671552181243896484e+00,2.612890958786010742e+00,2.556750535964965820e+00,2.502971649169921875e+00,2.451408624649047852e+00,2.401926994323730469e+00,2.354403734207153320e+00,2.308724403381347656e+00,2.264784097671508789e+00,2.222484827041625977e+00,2.181736707687377930e+00,2.142455816268920898e+00,2.104564428329467773e+00,2.067989826202392578e+00,2.032665014266967773e+00,1.998526692390441895e+00,1.965516209602355957e+00,1.933578133583068848e+00,1.902661800384521484e+00,1.872718214988708496e+00,1.843702793121337891e+00
5.000000000000000000e+00,5.000000000000000000e+00,5.000000000000000000e+00,5.000000000000000000e+00,5.000000000000000000e+00,5.000000000000000000e+00,5.000000000000000000e+00,5.000000000000000000e+00,5.000000000000000000e+00,5.000000000000000000e+00,5.000000000000000000e+00,5.000000000000000000e+00,5.000000000000000000e+00,5.000000000000000000e+00,5.000000000000000000e+00,5.000000000000000000e+00,5.000000000000000000e+00,5.000000000000000000e+00,5.000000000000000000e+00,5.000000000000000000e+00,5.000000000000000000e+00,5.000000000000000000e+00,5.000000000000000000e+00,4.123174667358398438e+00,4.138051033020019531e+00,4.138662338256835938e+00,4.141277313232421875e+00,5.000000000000000000e+00,4.156862735748291016e+00,5.000000000000000000e+00,5.000000000000000000e+00,5.000000000000000000e+00,5.000000000000000000e+00,5.000000000000000000e+00,5.000000000000000000e+00,5.000000000000000000e+00,5.000000000000000000e+00,5.000000000000000000e+00,5.000000000000000000e+00,4.848817348480224609e+00,4.658975124359130859e+00,4.483438491821289062e+00,4.320648670196533203e+00,4.169266223907470703e+00,4.028132915496826172e+00,3.896241426467895508e+00,3.772713184356689453e+00,3.656776905059814453e+00,3.547754287719726562e+00,3.445043563842773438e+00,3.348112821578979492e+00,3.256487369537353516e+00,3.169743061065673828e+00,3.087500333786010742e+00,3.009417772293090820e+00,2.935186862945556641e+00,2.864529609680175781e+00,2.797194242477416992e+00,2.732951879501342773e+00,2.671594142913818359e+00,2.612931251525878906e+00,2.556789159774780273e+00,2.503008604049682617e+00,2.451444149017333984e+00,2.401961088180541992e+00,2.354436397552490234e+00,2.308755874633789062e+00,2.264814376831054688e+00,2.222513914108276367e+00,2.181764602661132812e+00,2.142482757568359375e+00,2.104590415954589844e+00,2.068015098571777344e+00,2.032689571380615234e+00,1.998550295829772949e+00,1.965539097785949707e+00,1.933600187301635742e+00,1.902683138847351074e+00,1.872738957405090332e+00,1.843722939491271973e+00
5.000000000000000000e+00,5.000000000000000000e+00,5.000000000000000000e+00,5.000000000000000000e+00,5.000000000000000000e+00,5.000000000000000000e+00,5.000000000000000000e+00,5.000000000000000000e+00,5.000000000000000000e+00,5.000000000000000000e+00,5.000000000000000000e+00,5.000000000000000000e+00,5.000000000000000000e+00,5.000000000000000000e+00,5.000000000000000000e+00,5.000000000000000000e+00,5.000000000000000000e+00,5.000000000000000000e+00,5.000000000000000000e+00,5.000000000000000000e+00,5.000000000000000000e+00,5.000000000000000000e+00,4.244372367858886719e+00,4.090188026428222656e+00,4.097934246063232422e+00,4.127407550811767578e+00,4.112548828125000000e+00,4.192773818969726562e+00,4.127519607543945312e+00,5.000000000000000000e+00,5.000000000000000000e+00,5.000000000000000000e+00,5.000000000000000000e+00,5.000000000000000000e+00,5.000000000000000000e+00,5.000000000000000000e+00,5.000000000000000000e+00,5.000000000000000000e+00,5.000000000000000000e+00,4.848956108093261719e+00,4.659102916717529297e+00,4.483556747436523438e+00,4.320758819580078125e+00,4.169368743896484375e+00,4.028228282928466797e+00,3.896331071853637695e+00,3.772797107696533203e+00,3.656855821609497070e+00,3.547828435897827148e+00,3.445113658905029297e+00,3.348178863525390625e+00,3.256550073623657227e+00,3.169802427291870117e+00,3.087556600570678711e+00,3.009470939636230469e+00,2.935237646102905273e+00,2.864578008651733398e+00,2.797240495681762695e+00,2.732995986938476562e+00,2.671636343002319336e+00,2.612971305847167969e+00,2.556827545166015625e+00,2.503045558929443359e+00,2.451479434967041016e+00,2.401995182037353516e+00,2.354469299316406250e+00,2.308787345886230469e+00,2.264844655990600586e+00,2.222543001174926758e+00,2.181792736053466797e+00,2.142509937286376953e+00,2.104616641998291016e+00,2.068040370941162109e+00,2.032713651657104492e+00,1.998573780059814453e+00,1.965561866760253906e+00,1.933622360229492188e+00,1.902704477310180664e+00,1.872759699821472168e+00,1.843742966651916504e+00
5.000000000000000000e+00,5.000000000000000000e+00,5.000000000000000000e+00,5.000000000000000000e+00,5.000000000000000000e+00,5.000000000000000000e+00,5.000000000000000000e+00,5.000000000000000000e+00,5.000000000000000000e+00,5.000000000000000000e+00,5.000000000000000000e+00,5.000000000000000000e+00,5.000000000000000000e+00,5.000000000000000000e+00,5.000000000000000000e+00,5.000000000000000000e+00,5.000000000000000000e+00,5.000000000000000000e+00,5.000000000000000000e+00,5.000000000000000000e+00,5.000000000000000000e+00,5.000000000000000000e+00,4.219202041625976562e+00,4.081433773040771484e+00,4.086866378784179688e+00,4.113508701324462891e+00,4.102929592132568359e+00,4.176985740661621094e+00,4.078927516937255859e+00,5.000000000000000000e+00,5.000000000000000000e+00,5.000000000000000000e+00,5.000000000000000000e+00,5.000000000000000000e+00,5.000000000000000000e+00,5.000000000000000000e+00,5.000000000000000000e+00,5.000000000000000000e+00,5.000000000000000000e+00,4.849094867706298828e+00,4.659231185913085938e+00,4.483675479888916016e+00,4.320868968963623047e+00,4.169471263885498047e+00,4.028324127197265625e+00,3.896420717239379883e+00,3.772881031036376953e+00,3.656934738159179688e+00,3.547902345657348633e+00,3.445183753967285156e+00,3.348245143890380859e+00,3.256612539291381836e+00,3.169861793518066406e+00,3.087612867355346680e+00,3.009524345397949219e+00,2.935288429260253906e+00,2.864626407623291016e+00,2.797286510467529297e+00,2.733040094375610352e+00,2.671678543090820312e+00,2.613011598587036133e+00,2.556865930557250977e+00,2.503082513809204102e+00,2.451514959335327148e+00,2.402029275894165039e+00,2.354501962661743164e+00,2.308818817138671875e+00,2.264874696731567383e+00,2.222572088241577148e+00,2.181820869445800781e+00,2.142537117004394531e+00,2.104642629623413086e+00,2.068065404891967773e+00,2.032738208770751953e+00,1.998597383499145508e+00,1.965584635734558105e+00,1.933644413948059082e+00,1.902725815773010254e+00,1.872780323028564453e+00,1.843762993812561035e+00
5.000000000000000000e+00,5.000000000000000000e+00,5.000000000000000000e+00,5.000000000000000000e+00,5.000000000000000000e+00,5.000000000000000000e+00,5.000000000000000000e+00,5.000000000000000000e+00,5.000000000000000000e+00,5.000000000000000000e+00,5.000000000000000000e+00,5.000000000000000000e+00,5.000000000000000000e+00,5.000000000000000000e+00,5.000000000000000000e+00,5.000000000000000000e+00,5.000000000000000000e+00,5.000000000000000000e+00,5.000000000000000000e+00,5.000000000000000000e+00,5.000000000000000000e+00,5.000000000000000000e+00,4.179056167602539062e+00,4.077298641204833984e+00,4.076696395874023438e+00,4.108586788177490234e+00,4.097028255462646484e+00,5.000000000000000000e+00,5.000000000000000000e+00,5.000000000000000000e+00,5.000000000000000000e+00,5.000000000000000000e+00,5.000000000000000000e+00,5.000000000000000000e+00,5.000000000000000000e+00,5.000000000000000000e+00,5.000000000000000000e+00,5.000000000000000000e+00,5.000000000000000000e+00,4.849233627319335938e+00,4.659359455108642578e+00,4.483794212341308594e+00,4.320978641510009766e+00,4.169573783874511719e+00,4.028419971466064453e+00,3.896510362625122070e+00,3.772965192794799805e+00,3.657013654708862305e+00,3.547976732254028320e+00,3.445253610610961914e+00,3.348311185836791992e+00,3.256675243377685547e+00,3.169920921325683594e+00,3.087669134140014648e+00,3.009577751159667969e+00,2.935338973999023438e+00,2.864674806594848633e+00,2.797332763671875000e+00,2.733084201812744141e+00,2.671720504760742188e+00,2.613051891326904297e+00,2.556904554367065430e+00,2.503119468688964844e+00,2.451550483703613281e+00,2.402063369750976562e+00,2.354534626007080078e+00,2.308850049972534180e+00,2.264904975891113281e+00,2.222601175308227539e+00,2.181849002838134766e+00,2.142564058303833008e+00,2.104668855667114258e+00,2.068090677261352539e+00,2.032762527465820312e+00,1.998620986938476562e+00,1.965607404708862305e+00,1.933666467666625977e+00,1.902747273445129395e+00,1.872801065444946289e+00,1.843783020973205566e+00
5.000000000000000000e+00,5.000000000000000000e+00,5.000000000000000000e+00,5.000000000000000000e+00,5.000000000000000000e+00,5.000000000000000000e+00,5.000000000000000000e+00,5.000000000000000000e+00,5.000000000000000000e+00,5.000000000000000000e+00,5.000000000000000000e+00,5.000000000000000000e+00,5.000000000000000000e+00,5.000000000000000000e+00,5.000000000000000000e+00,5.000000000000000000e+00,5.000000000000000000e+00,5.000000000000000000e+00,5.000000000000000000e+00,5.000000000000000000e+00,5.000000000000000000e+00,5.000000000000000000e+00,5.000000000000000000e+00,4.067654132843017578e+00,4.065261840820312500e+00,4.111500263214111328e+00,4.090285301208496094e+00,5.000000000000000000e+00,5.000000000000000000e+00,5.000000000000000000e+00,5.000000000000000000e+00,5.000000000000000000e+00,5.000000000000000000e+00,5.000000000000000000e+00,5.000000000000000000e+00,5.000000000000000000e+00,5.000000000000000000e+00,5.000000000000000000e+00,5.000000000000000000e+00,4.849372386932373047e+00,4.659487247467041016e+00,4.483912944793701172e+00,4.321088790893554688e+00,4.169676303863525391e+00,4.028515815734863281e+00,3.896599769592285156e+00,3.773049116134643555e+00,3.657092571258544922e+00,3.548050880432128906e+00,3.445323467254638672e+00,3.348377466201782227e+00,3.256737709045410156e+00,3.169980287551879883e+00,3.087725400924682617e+00,3.009631156921386719e+00,2.935389757156372070e+00,2.864723205566406250e+00,2.797379016876220703e+00,2.733128309249877930e+00,2.671762704849243164e+00,2.613092184066772461e+00,2.556943178176879883e+00,2.503156185150146484e+00,2.451586008071899414e+00,2.402097225189208984e+00,2.354567289352416992e+00,2.308881521224975586e+00,2.264935255050659180e+00,2.222630262374877930e+00,2.181877136230468750e+00,2.142591238021850586e+00,2.104695081710815430e+00,2.068115949630737305e+00,2.032786846160888672e+00,1.998644471168518066e+00,1.965630054473876953e+00,1.933688521385192871e+00,1.902768611907958984e+00,1.872821688652038574e+00,1.843803167343139648e+00
5.000000000000000000e+00,5.000000000000000000e+00,5.000000000000000000e+00,5.000000000000000000e+00,5.000000000000000000e+00,5.000000000000000000e+00,5.000000000000000000e+00,5.000000000000000000e+00,5.000000000000000000e+00,5.000000000000000000e+00,5.000000000000000000e+00,5.000000000000000000e+00,5.000000000000000000e+00,5.000000000000000000e+00,5.000000000000000000e+00,5.000000000000000000e+00,5.000000000000000000e+00,5.000000000000000000e+00,5.000000000000000000e+00,5.000000000000000000e+00,5.000000000000000000e+00,5.000000000000000000e+00,5.000000000000000000e+00,5.000000000000000000e+00,4.051909446716308594e+00,4.122152328491210938e+00,4.081769943237304688e+00,5.000000000000000000e+00,5.000000000000000000e+00,5.000000000000000000e+00,5.000000000000000000e+00,5.000000000000000000e+00,5.000000000000000000e+00,5.000000000000000000e+00,5.000000000000000000e+00,5.000000000000000000e+00,5.000000000000000000e+00,5.000000000000000000e+00,5.000000000000000000e+00,4.849511146545410156e+00,4.659615039825439453e+00,4.484031200408935547e+00,4.321198940277099609e+00,4.169778823852539062e+00,4.028611183166503906e+00,3.896689414978027344e+00,3.773133039474487305e+00,3.657171726226806641e+00,3.548125267028808594e+00,3.445393323898315430e+00,3.348443269729614258e+00,3.256800413131713867e+00,3.170039653778076172e+00,3.087781667709350586e+00,3.009684562683105469e+00,2.935440778732299805e+00,2.864771366119384766e+00,2.797425031661987305e+00,2.733172178268432617e+00,2.671804904937744141e+00,2.613132476806640625e+00,2.556981801986694336e+00,2.503193140029907227e+00,2.451621294021606445e+00,2.402131319046020508e+00,2.354599952697753906e+00,2.308912992477416992e+00,2.264965534210205078e+00,2.222659587860107422e+00,2.181905031204223633e+00,2.142618179321289062e+00,2.104721069335937500e+00,2.068141222000122070e+00,2.032811403274536133e+00,1.998668074607849121e+00,1.965652823448181152e+00,1.933710575103759766e+00,1.902789950370788574e+00,1.872842431068420410e+00,1.843823194503784180e+00
5.000000000000000000e+00,5.000000000000000000e+00,5.000000000000000000e+00,5.000000000000000000e+00,5.000000000000000000e+00,5.000000000000000000e+00,5.000000000000000000e+00,5.000000000000000000e+00,5.000000000000000000e+00,5.000000000000000000e+00,5.000000000000000000e+00,5.000000000000000000e+00,5.000000000000000000e+00,5.000000000000000000e+00,5.000000000000000000e+00,5.000000000000000000e+00,5.000000000000000000e+00,5.000000000000000000e+00,5.000000000000000000e+00,5.000000000000000000e+00,5.000000000000000000e+00,5.000000000000000000e+00,5.000000000000000000e+00,5.000000000000000000e+00,4.069034576416015625e+00,5.000000000000000000e+00,4.093243122100830078e+00,5.000000000000000000e+00,5.000000000000000000e+00,5.000000000000000000e+00,5.000000000000000000e+00,5.000000000000000000e+00,5.000000000000000000e+00,5.000000000000000000e+00,5.000000000000000000e+00,5.000000000000000000e+00,5.000000000000000000e+00,5.000000000000000000e+00,5.000000000000000000e+00,4.849647998809814453e+00,4.659743309020996094e+00,4.484149932861328125e+00,4.321309089660644531e+00,4.169881343841552734e+00,4.028707027435302734e+00,3.896779060363769531e+00,3.773217201232910156e+00,3.657250642776489258e+00,3.548199653625488281e+00,3.445463418960571289e+00,3.348509311676025391e+00,3.256862878799438477e+00,3.170099020004272461e+00,3.087837934494018555e+00,3.009738206863403320e+00,2.935491561889648438e+00,2.864820003509521484e+00,2.797471046447753906e+00,2.733216285705566406e+00,2.671846866607666016e+00,2.613172769546508789e+00,2.557020425796508789e+00,2.503230333328247070e+00,2.451656579971313477e+00,2.402165412902832031e+00,2.354632854461669922e+00,2.308944463729858398e+00,2.264995813369750977e+00,2.222688674926757812e+00,2.181933164596557617e+00,2.142645359039306641e+00,2.104747295379638672e+00,2.068166494369506836e+00,2.032835721969604492e+00,1.998691678047180176e+00,1.965675592422485352e+00,1.933732628822326660e+00,1.902811288833618164e+00,1.872863173484802246e+00,1.843843221664428711e+00
5.000000000000000000e+00,5.000000000000000000e+00,5.000000000000000000e+00,5.000000000000000000e+00,5.000000000000000000e+00,5.000000000000000000e+00,5.000000000000000000e+00,5.000000000000000000e+00,5.000000000000000000e+00,5.000000000000000000e+00,5.000000000000000000e+00,5.000000000000000000e+00,5.000000000000000000e+00,5.000000000000000000e+00,5.000000000000000000e+00,5.000000000000000000e+00,5.000000000000000000e+00,5.000000000000000000e+00,5.000000000000000000e+00,5.000000000000000000e+00,5.000000000000000000e+00,5.000000000000000000e+00,5.000000000000000000e+00,5.000000000000000000e+00,4.100427150726318359e+00,5.000000000000000000e+00,4.194844245910644531e+00,4.305017948150634766e+00,5.000000000000000000e+00,5.000000000000000000e+00,5.000000000000000000e+00,5.000000000000000000e+00,5.000000000000000000e+00,5.000000000000000000e+00,5.000000000000000000e+00,5.000000000000000000e+00,5.000000000000000000e+00,5.000000000000000000e+00,5.000000000000000000e+00,4.849785804748535156e+00,4.659871578216552734e+00,4.484268188476562500e+00,4.321419715881347656e+00,4.169984340667724609e+00,4.028802871704101562e+00,3.896868705749511719e+00,3.773301124572753906e+00,3.657329559326171875e+00,3.548273801803588867e+00,3.445533514022827148e+00,3.348575592041015625e+00,3.256925106048583984e+00,3.170158147811889648e+00,3.087894201278686523e+00,3.009791612625122070e+00,2.935542345046997070e+00,2.864868402481079102e+00,2.797517299652099609e+00,2.733260393142700195e+00,2.671889066696166992e+00,2.613213062286376953e+00,2.557058811187744141e+00,2.503267288208007812e+00,2.451692104339599609e+00,2.402199268341064453e+00,2.354665517807006836e+00,2.308975934982299805e+00,2.265026092529296875e+00,2.222717761993408203e+00,2.181961297988891602e+00,2.142672300338745117e+00,2.104773521423339844e+00,2.068191766738891602e+00,2.032860040664672852e+00,1.998715281486511230e+00,1.965698480606079102e+00,1.933754682540893555e+00,1.902832746505737305e+00,1.872883796691894531e+00,1.843863368034362793e+00
5.000000000000000000e+00,5.000000000000000000e+00,5.000000000000000000e+00,5.000000000000000000e+00,5.000000000000000000e+00,5.000000000000000000e+00,5.000000000000000000e+00,5.000000000000000000e+00,5.000000000000000000e+00,5.000000000000000000e+00,5.000000000000000000e+00,5.000000000000000000e+00,5.000000000000000000e+00,5.000000000000000000e+00,5.000000000000000000e+00,5.000000000000000000e+00,5.000000000000000000e+00,5.000000000000000000e+00,5.000000000000000000e+00,5.000000000000000000e+00,5.000000000000000000e+00,5.000000000000000000e+00,5.000000000000000000e+00,5.000000000000000000e+00,4.106411457061767578e+00,4.179876327514648438e+00,4.316303730010986328e+00,4.381303787231445312e+00,5.000000000000000000e+00,5.000000000000000000e+00,5.000000000000000000e+00,5.000000000000000000e+00,5.000000000000000000e+00,5.000000000000000000e+00,5.000000000000000000e+00,5.000000000000000000e+00,5.000000000000000000e+00,5.000000000000000000e+00,5.000000000000000000e+00,4.849923133850097656e+00,4.659997463226318359e+00,4.484386920928955078e+00,4.321529388427734375e+00,4.170086860656738281e+00,4.028898239135742188e+00,3.896957874298095703e+00,3.773385047912597656e+00,3.657408475875854492e+00,3.548348188400268555e+00,3.445603609085083008e+00,3.348641633987426758e+00,3.256987810134887695e+00,3.170217514038085938e+00,3.087950468063354492e+00,3.009845018386840820e+00,2.935593366622924805e+00,2.864916801452636719e+00,2.797563314437866211e+00,2.733304262161254883e+00,2.671931266784667969e+00,2.613253355026245117e+00,2.557097434997558594e+00,2.503304243087768555e+00,2.451727628707885742e+00,2.402233362197875977e+00,2.354698181152343750e+00,2.309007406234741211e+00,2.265056371688842773e+00,2.222746849060058594e+00,2.181989192962646484e+00,2.142699480056762695e+00,2.104799509048461914e+00,2.068217039108276367e+00,2.032884359359741211e+00,1.998738765716552734e+00,1.965721249580383301e+00,1.933776736259460449e+00,1.902853846549987793e+00,1.872904539108276367e+00,1.843883395195007324e+00
5.000000000000000000e+00,5.000000000000000000e+00,5.000000000000000000e+00,5.000000000000000000e+00,5.000000000000000000e+00,5.000000000000000000e+00,5.000000000000000000e+00,5.000000000000000000e+00,5.000000000000000000e+00,5.000000000000000000e+00,5.000000000000000000e+00,5.000000000000000000e+00,5.000000000000000000e+00,5.000000000000000000e+00,5.000000000000000000e+00,5.000000000000000000e+00,5.000000000000000000e+00,5.000000000000000000e+00,5.000000000000000000e+00,5.000000000000000000e+00,5.000000000000000000e+00,5.000000000000000000e+00,5.000000000000000000e+00,5.000000000000000000e+00,4.115322589874267578e+00,4.175195217132568359e+00,5.000000000000000000e+00,4.470937728881835938e+00,5.000000000000000000e+00,5.000000000000000000e+00,5.000000000000000000e+00,5.000000000000000000e+00,5.000000000000000000e+00,5.000000000000000000e+00,5.000000000000000000e+00,5.000000000000000000e+00,5.000000000000000000e+00,5.000000000000000000e+00,5.000000000000000000e+00,4.850060939788818359e+00,4.660124778747558594e+00,4.484504222869873047e+00,4.321639537811279297e+00,4.170189380645751953e+00,4.028994083404541016e+00,3.897047519683837891e+00,3.773468732833862305e+00,3.657487392425537109e+00,3.548422336578369141e+00,3.445673704147338867e+00,3.348707914352416992e+00,3.257050275802612305e+00,3.170276641845703125e+00,3.088006734848022461e+00,3.009898424148559570e+00,2.935644149780273438e+00,2.864965200424194336e+00,2.797609567642211914e+00,2.733348369598388672e+00,2.671973228454589844e+00,2.613293647766113281e+00,2.557136058807373047e+00,2.503341197967529297e+00,2.451763153076171875e+00,2.402267456054687500e+00,2.354730844497680664e+00,2.309038877487182617e+00,2.265086650848388672e+00,2.222776174545288086e+00,2.182017326354980469e+00,2.142726421356201172e+00,2.104825496673583984e+00,2.068242073059082031e+00,2.032908916473388672e+00,1.998762369155883789e+00,1.965744018554687500e+00,1.933798789978027344e+00,1.902875185012817383e+00,1.872925281524658203e+00,1.843903422355651855e+00
5.000000000000000000e+00,5.000000000000000000e+00,5.000000000000000000e+00,5.000000000000000000e+00,5.000000000000000000e+00,5.000000000000000000e+00,5.000000000000000000e+00,5.000000000000000000e+00,5.000000000000000000e+00,5.000000000000000000e+00,5.000000000000000000e+00,5.000000000000000000e+00,5.000000000000000000e+00,5.000000000000000000e+00,5.000000000000000000e+00,5.000000000000000000e+00,5.000000000000000000e+00,5.000000000000000000e+00,5.000000000000000000e+00,5.000000000000000000e+00,5.000000000000000000e+00,5.000000000000000000e+00,5.000000000000000000e+00,5.000000000000000000e+00,4.146259784698486328e+00,4.178814888000488281e+00,5.000000000000000000e+00,4.513888835906982422e+00,5.000000000000000000e+00,5.000000000000000000e+00,5.000000000000000000e+00,5.000000000000000000e+00,5.000000000000000000e+00,5.000000000000000000e+00,5.000000000000000000e+00,5.000000000000000000e+00,5.000000000000000000e+00,5.000000000000000000e+00,5.000000000000000000e+00,4.850198745727539062e+00,4.660251617431640625e+00,4.484622001647949219e+00,4.321748733520507812e+00,4.170291900634765625e+00,4.029089927673339844e+00,3.897137165069580078e+00,3.773552894592285156e+00,3.657566308975219727e+00,3.548496723175048828e+00,3.445743799209594727e+00,3.348774194717407227e+00,3.257112979888916016e+00,3.170335769653320312e+00,3.088062763214111328e+00,3.009951829910278320e+00,2.935694932937622070e+00,2.865013599395751953e+00,2.797655820846557617e+00,2.733392477035522461e+00,2.672015190124511719e+00,2.613333940505981445e+00,2.557174682617187500e+00,2.503378152847290039e+00,2.451798439025878906e+00,2.402301549911499023e+00,2.354763507843017578e+00,2.309070110321044922e+00,2.265116930007934570e+00,2.222805261611938477e+00,2.182045459747314453e+00,2.142753601074218750e+00,2.104851722717285156e+00,2.068267345428466797e+00,2.032933235168457031e+00,1.998785972595214844e+00,1.965766787528991699e+00,1.933820843696594238e+00,1.902896642684936523e+00,1.872945904731750488e+00,1.843923449516296387e+00
5.000000000000000000e+00,5.000000000000000000e+00,5.000000000000000000e+00,5.000000000000000000e+00,5.000000000000000000e+00,5.000000000000000000e+00,5.000000000000000000e+00,5.000000000000000000e+00,5.000000000000000000e+00,5.000000000000000000e+00,5.000000000000000000e+00,5.000000000000000000e+00,5.000000000000000000e+00,5.000000000000000000e+00,5.000000000000000000e+00,5.000000000000000000e+00,5.000000000000000000e+00,5.000000000000000000e+00,5.000000000000000000e+00,5.000000000000000000e+00,5.000000000000000000e+00,5.000000000000000000e+00,5.000000000000000000e+00,5.000000000000000000e+00,5.000000000000000000e+00,4.192445278167724609e+00,4.472987174987792969e+00,4.494646549224853516e+00,5.000000000000000000e+00,5.000000000000000000e+00,5.000000000000000000e+00,5.000000000000000000e+00,5.000000000000000000e+00,5.000000000000000000e+00,5.000000000000000000e+00,5.000000000000000000e+00,5.000000000000000000e+00,5.000000000000000000e+00,5.000000000000000000e+00,4.850336551666259766e+00,4.660378932952880859e+00,4.484739780426025391e+00,4.321857929229736328e+00,4.170394420623779297e+00,4.029185771942138672e+00,3.897226810455322266e+00,3.773636817932128906e+00,3.657644748687744141e+00,3.548571109771728516e+00,3.445813894271850586e+00,3.348840236663818359e+00,3.257175683975219727e+00,3.170395135879516602e+00,3.088119029998779297e+00,3.010005474090576172e+00,2.935745716094970703e+00,2.865061998367309570e+00,2.797701835632324219e+00,2.733436584472656250e+00,2.672057390213012695e+00,2.613374233245849609e+00,2.557213306427001953e+00,2.503415107727050781e+00,2.451833963394165039e+00,2.402335643768310547e+00,2.354796171188354492e+00,2.309101581573486328e+00,2.265147209167480469e+00,2.222834348678588867e+00,2.182073593139648438e+00,2.142780780792236328e+00,2.104877948760986328e+00,2.068292617797851562e+00,2.032957553863525391e+00,1.998809576034545898e+00,1.965789675712585449e+00,1.933842897415161133e+00,1.902917981147766113e+00,1.872966647148132324e+00,1.843943357467651367e+00
4.874966144561767578e+00,4.873755455017089844e+00,4.872545719146728516e+00,4.871336936950683594e+00,4.870128154754638672e+00,4.868920326232910156e+00,4.867712974548339844e+00,4.866506099700927734e+00,4.865300178527832031e+00,4.864094257354736328e+00,4.862889766693115234e+00,4.861685276031494141e+00,4.860481262207031250e+00,4.859278202056884766e+00,4.858075618743896484e+00,4.856873989105224609e+00,4.855672359466552734e+00,4.854471683502197266e+00,4.853271484375000000e+00,4.852071762084960938e+00,4.850872993469238281e+00,4.849674701690673828e+00,4.848476886749267578e+00,4.847279548645019531e+00,4.846082687377929688e+00,4.096021652221679688e+00,4.843691349029541016e+00,4.842496395111083984e+00,4.841301918029785156e+00,4.840108394622802734e+00,4.838915348052978516e+00,4.837723255157470703e+00,4.836531162261962891e+00,4.835339546203613281e+00,4.834148883819580078e+00,4.832958698272705078e+00,4.831769466400146484e+00,4.830580234527587891e+00,4.829391479492187500e+00,4.828204154968261719e+00,4.660505771636962891e+00,4.484857082366943359e+00,4.321967124938964844e+00,4.170495033264160156e+00,4.029281616210937500e+00,3.897316217422485352e+00,3.773720979690551758e+00,3.657723665237426758e+00,3.548645019531250000e+00,3.445883750915527344e+00,3.348906517028808594e+00,3.257238149642944336e+00,3.170454502105712891e+00,3.088175296783447266e+00,3.010058641433715820e+00,2.935796737670898438e+00,2.865110397338867188e+00,2.797748088836669922e+00,2.733480691909790039e+00,2.672099590301513672e+00,2.613414525985717773e+00,2.557251930236816406e+00,2.503452062606811523e+00,2.451869487762451172e+00,2.402369499206542969e+00,2.354828834533691406e+00,2.309133052825927734e+00,2.265177249908447266e+00,2.222863674163818359e+00,2.182101726531982422e+00,2.142807722091674805e+00,2.104903936386108398e+00,2.068317890167236328e+00,2.032981872558593750e+00,1.998833060264587402e+00,1.965812444686889648e+00,1.933865070343017578e+00,1.902939319610595703e+00,1.872987270355224609e+00,1.843963384628295898e+00
3.777787685394287109e+00,3.777060985565185547e+00,3.776334047317504883e+00,3.775607824325561523e+00,3.774882078170776367e+00,3.774156332015991211e+00,3.773430585861206055e+00,3.772705554962158203e+00,3.771980762481689453e+00,3.771255731582641602e+00,3.770531415939331055e+00,3.769807577133178711e+00,3.769083499908447266e+00,3.768360137939453125e+00,3.767637014389038086e+00,3.766914129257202148e+00,3.766191244125366211e+00,3.765468835830688477e+00,3.764746904373168945e+00,3.764024496078491211e+00,3.763303279876708984e+00,3.762582063674926758e+00,3.761860609054565430e+00,3.761140108108520508e+00,3.760419607162475586e+00,3.759699106216430664e+00,3.758979320526123047e+00,3.758259773254394531e+00,3.757540225982666016e+00,3.756821155548095703e+00,3.756102561950683594e+00,3.755383968353271484e+00,3.754665613174438477e+00,3.753947496414184570e+00,3.753230094909667969e+00,3.752512216567993164e+00,3.751795291900634766e+00,3.751078367233276367e+00,3.750361442565917969e+00,3.749645233154296875e+00,3.748929262161254883e+00,3.748213529586791992e+00,3.747497797012329102e+00,3.746782541275024414e+00,3.746067762374877930e+00,3.745352745056152344e+00,3.744638442993164062e+00,3.657802820205688477e+00,3.548719167709350586e+00,3.445953845977783203e+00,3.348972558975219727e+00,3.257300853729248047e+00,3.170513868331909180e+00,3.088231563568115234e+00,3.010112047195434570e+00,2.935847282409667969e+00,2.865159034729003906e+00,2.797794342041015625e+00,2.733524799346923828e+00,2.672141551971435547e+00,2.613454818725585938e+00,2.557290315628051758e+00,2.503489017486572266e+00,2.451905012130737305e+00,2.402403593063354492e+00,2.354861736297607422e+00,2.309164524078369141e+00,2.265207529067993164e+00,2.222892761230468750e+00,2.182129859924316406e+00,2.142834901809692383e+00,2.104930162429809570e+00,2.068342924118041992e+00,2.033006191253662109e+00,1.998856425285339355e+00,1.965835213661193848e+00,1.933887124061584473e+00,1.902960658073425293e+00,1.873008012771606445e+00,1.843983530998229980e+00
3.083748102188110352e+00,3.083263635635375977e+00,3.082779407501220703e+00,3.082295417785644531e+00,3.081811428070068359e+00,3.081327676773071289e+00,3.080844163894653320e+00,3.080360651016235352e+00,3.079877376556396484e+00,3.079394340515136719e+00,3.078911542892456055e+00,3.078428506851196289e+00,3.077945709228515625e+00,3.077463388442993164e+00,3.076980829238891602e+00,3.076498746871948242e+00,3.076016664505004883e+00,3.075534582138061523e+00,3.075052738189697266e+00,3.074571371078491211e+00,3.074089527130126953e+00,3.073608398437500000e+00,3.073127269744873047e+00,3.072646379470825195e+00,3.072165250778198242e+00,3.071684598922729492e+00,3.071204185485839844e+00,3.070723533630371094e+00,3.070243358612060547e+00,3.069763422012329102e+00,3.069283246994018555e+00,3.068803548812866211e+00,3.068323850631713867e+00,3.067844152450561523e+00,3.067364931106567383e+00,3.066885709762573242e+00,3.066406726837158203e+00,3.065927743911743164e+00,3.065448999404907227e+00,3.064970493316650391e+00,3.064491748809814453e+00,3.064013719558715820e+00,3.063535451889038086e+00,3.063057422637939453e+00,3.062579631805419922e+00,3.062101840972900391e+00,3.061624050140380859e+00,3.061146736145019531e+00,3.060669660568237305e+00,3.060192584991455078e+00,3.059715270996093750e+00,3.059238672256469727e+00,3.058762073516845703e+00,3.058285236358642578e+00,3.010165452957153320e+00,2.935898065567016602e+00,2.865207433700561523e+00,2.797840595245361328e+00,2.733568906784057617e+00,2.672183752059936523e+00,2.613495111465454102e+00,2.557328701019287109e+00,2.503525972366333008e+00,2.451940536499023438e+00,2.402437686920166016e+00,2.354894399642944336e+00,2.309195995330810547e+00,2.265237808227539062e+00,2.222921848297119141e+00,2.182157993316650391e+00,2.142862081527709961e+00,2.104956388473510742e+00,2.068368196487426758e+00,2.033030748367309570e+00,1.998880028724670410e+00,1.965858101844787598e+00,1.933909177780151367e+00,1.902982115745544434e+00,1.873028755187988281e+00,1.844003558158874512e+00
2.605141878128051758e+00,2.604796171188354492e+00,2.604450464248657227e+00,2.604104995727539062e+00,2.603759765625000000e+00,2.603414297103881836e+00,2.603069067001342773e+00,2.602724075317382812e+00,2.602379083633422852e+00,2.602033853530883789e+00,2.601689100265502930e+00,2.601344347000122070e+00,2.600999593734741211e+00,2.600655078887939453e+00,2.600310564041137695e+00,2.599966287612915039e+00,2.599621772766113281e+00,2.599277734756469727e+00,2.598933696746826172e+00,2.598589420318603516e+00,2.598245620727539062e+00,2.597901821136474609e+00,2.597557783126831055e+00,2.597214221954345703e+00,2.596870660781860352e+00,2.596527099609375000e+00,2.596183776855468750e+00,2.595840454101562500e+00,2.595497131347656250e+00,2.595154047012329102e+00,2.594811201095581055e+00,2.594468355178833008e+00,2.594125270843505859e+00,2.593782663345336914e+00,2.593439817428588867e+00,2.593097209930419922e+00,2.592754840850830078e+00,2.592412471771240234e+00,2.592070102691650391e+00,2.591727733612060547e+00,2.591385841369628906e+00,2.591043710708618164e+00,2.590701580047607422e+00,2.590359926223754883e+00,2.590018272399902344e+00,2.589676380157470703e+00,2.589334726333618164e+00,2.588993310928344727e+00,2.588651895523071289e+00,2.588310718536376953e+00,2.587969541549682617e+00,2.587628126144409180e+00,2.587287187576293945e+00,2.586946249008178711e+00,2.586605548858642578e+00,2.586264610290527344e+00,2.585923910140991211e+00,2.585583448410034180e+00,2.585242748260498047e+00,2.584902524948120117e+00,2.584562063217163086e+00,2.557367324829101562e+00,2.503562927246093750e+00,2.451975822448730469e+00,2.402471780776977539e+00,2.354927062988281250e+00,2.309227466583251953e+00,2.265268087387084961e+00,2.222950935363769531e+00,2.182185888290405273e+00,2.142889022827148438e+00,2.104982376098632812e+00,2.068393468856811523e+00,2.033055067062377930e+00,1.998903632164001465e+00,1.965880870819091797e+00,1.933931231498718262e+00,1.903003454208374023e+00,1.873049378395080566e+00,1.844023585319519043e+00
2.255173444747924805e+00,2.254912853240966797e+00,2.254652500152587891e+00,2.254392147064208984e+00,2.254131793975830078e+00,2.253871440887451172e+00,2.253611326217651367e+00,2.253350973129272461e+00,2.253090858459472656e+00,2.252830743789672852e+00,2.252570867538452148e+00,2.252310991287231445e+00,2.252051115036010742e+00,2.251791238784790039e+00,2.251531600952148438e+00,2.251271724700927734e+00,2.251012086868286133e+00,2.250752449035644531e+00,2.250493049621582031e+00,2.250233650207519531e+00,2.249974250793457031e+00,2.249714851379394531e+00,2.249455451965332031e+00,2.249196290969848633e+00,2.248937606811523438e+00,2.248680114746093750e+00,2.248422622680664062e+00,2.248164892196655273e+00,2.247907638549804688e+00,2.247650146484375000e+00,2.247392892837524414e+00,2.247135639190673828e+00,2.246878385543823242e+00,2.246621131896972656e+00,2.246364116668701172e+00,2.246107101440429688e+00,2.245850324630737305e+00,2.245593070983886719e+00,2.245336294174194336e+00,2.245079517364501953e+00,2.244822740554809570e+00,2.244566202163696289e+00,2.244309663772583008e+00,2.244052886962890625e+00,2.243796586990356445e+00,2.243540048599243164e+00,2.243283510208129883e+00,2.243027210235595703e+00,2.242771148681640625e+00,2.242514848709106445e+00,2.242258787155151367e+00,2.242002725601196289e+00,2.241746664047241211e+00,2.241490602493286133e+00,2.241234779357910156e+00,2.240978956222534180e+00,2.240722894668579102e+00,2.240467309951782227e+00,2.240211725234985352e+00,2.239956140518188477e+00,2.239700317382812500e+00,2.239444971084594727e+00,2.239189624786376953e+00,2.238934040069580078e+00,2.238678693771362305e+00,2.238423585891723633e+00,2.238168239593505859e+00,2.237913131713867188e+00,2.222980022430419922e+00,2.182214021682739258e+00,2.142916202545166016e+00,2.105008602142333984e+00,2.068418741226196289e+00,2.033079385757446289e+00,1.998927235603332520e+00,1.965903639793395996e+00,1.933953046798706055e+00,1.903024792671203613e+00,1.873070120811462402e+00,1.844043731689453125e+00
1.988162159919738770e+00,1.987959742546081543e+00,1.987757205963134766e+00,1.987554669380187988e+00,1.987352490425109863e+00,1.987150073051452637e+00,1.986947894096374512e+00,1.986745595932006836e+00,1.986543416976928711e+00,1.986341238021850586e+00,1.986138939857482910e+00,1.985936999320983887e+00,1.985734939575195312e+00,1.985532999038696289e+00,1.985330939292907715e+00,1.985129237174987793e+00,1.984927177429199219e+00,1.984725356101989746e+00,1.984523653984069824e+00,1.984321713447570801e+00,1.984120130538940430e+00,1.983918428421020508e+00,1.983716845512390137e+00,1.983515143394470215e+00,1.983313560485839844e+00,1.983112215995788574e+00,1.982910633087158203e+00,1.982709288597106934e+00,1.982507824897766113e+00,1.982306599617004395e+00,1.982105135917663574e+00,1.981903791427612305e+00,1.981702685356140137e+00,1.981501460075378418e+00,1.981300473213195801e+00,1.981099247932434082e+00,1.980898261070251465e+00,1.980697154998779297e+00,1.980496168136596680e+00,1.980295300483703613e+00,1.980094313621520996e+00,1.979893565177917480e+00,1.979692697525024414e+00,1.979492068290710449e+00,1.979291200637817383e+00,1.979090332984924316e+00,1.978889822959899902e+00,1.978689193725585938e+00,1.978488683700561523e+00,1.978288054466247559e+00,1.978087663650512695e+00,1.977887153625488281e+00,1.977686643600463867e+00,1.977486371994018555e+00,1.977285981178283691e+00,1.977085828781127930e+00,1.976885437965393066e+00,1.976685404777526855e+00,1.976485133171081543e+00,1.976284861564636230e+00,1.976084947586059570e+00,1.975884795188903809e+00,1.975684881210327148e+00,1.975484848022460938e+00,1.975285053253173828e+00,1.975085020065307617e+00,1.974885106086730957e+00,1.974685430526733398e+00,1.974485516548156738e+00,1.974285960197448730e+00,1.974086165428161621e+00,1.973886728286743164e+00,1.973686933517456055e+00,1.973487377166748047e+00,1.973287940025329590e+00,1.965926408767700195e+00,1.933975100517272949e+00,1.903046131134033203e+00,1.873090863227844238e+00,1.844063758850097656e+00
1.777685284614562988e+00,1.777523279190063477e+00,1.777361512184143066e+00,1.777199625968933105e+00,1.777037739753723145e+00,1.776876091957092285e+00,1.776714324951171875e+00,1.776552677154541016e+00,1.776390910148620605e+00,1.776229381561279297e+00,1.776067614555358887e+00,1.775905966758728027e+00,1.775744438171386719e+00,1.775582909584045410e+00,1.775421500205993652e+00,1.775259852409362793e+00,1.775098562240600586e+00,1.774937033653259277e+00,1.774775624275207520e+00,1.774614334106445312e+00,1.774452924728393555e+00,1.774291753768920898e+00,1.774130344390869141e+00,1.773969173431396484e+00,1.773807883262634277e+00,1.773646593093872070e+00,1.773485541343688965e+00,1.773324370384216309e+00,1.773163318634033203e+00,1.773002266883850098e+00,1.772841334342956543e+00,1.772680163383483887e+00,1.772519111633300781e+00,1.772358298301696777e+00,1.772197246551513672e+00,1.772036433219909668e+00,1.771875500679016113e+00,1.771714806556701660e+00,1.771553874015808105e+00,1.771393060684204102e+00,1.771232366561889648e+00,1.771071553230285645e+00,1.770910978317260742e+00,1.770750284194946289e+00,1.770589709281921387e+00,1.770429015159606934e+00,1.770268440246582031e+00,1.770107984542846680e+00,1.769947290420532227e+00,1.769786953926086426e+00,1.769626379013061523e+00,1.769466042518615723e+00,1.769305586814880371e+00,1.769145131111145020e+00,1.768984913825988770e+00,1.768824577331542969e+00,1.768664360046386719e+00,1.768504023551940918e+00,1.768343925476074219e+00,1.768183588981628418e+00,1.768023371696472168e+00,1.767863273620605469e+00,1.767703175544738770e+00,1.767543196678161621e+00,1.767382979393005371e+00,1.767223119735717773e+00,1.767063021659851074e+00,1.766902923583984375e+00,1.766743183135986328e+00,1.766583204269409180e+00,1.766423344612121582e+00,1.766263484954833984e+00,1.766103744506835938e+00,1.765943884849548340e+00,1.765784025192260742e+00,1.765624403953552246e+00,1.765464663505554199e+00,1.765305042266845703e+00,1.765145421028137207e+00,1.764985918998718262e+00
1.607506394386291504e+00,1.607374072074890137e+00,1.607241630554199219e+00,1.607109427452087402e+00,1.606976985931396484e+00,1.606844782829284668e+00,1.606712460517883301e+00,1.606580138206481934e+00,1.606448054313659668e+00,1.606315732002258301e+00,1.606183648109436035e+00,1.606051445007324219e+00,1.605919361114501953e+00,1.605787158012390137e+00,1.605654954910278320e+00,1.605522990226745605e+00,1.605390906333923340e+00,1.605258941650390625e+00,1.605126857757568359e+00,1.604995012283325195e+00,1.604862928390502930e+00,1.604730963706970215e+00,1.604599118232727051e+00,1.604467153549194336e+00,1.604335308074951172e+00,1.604203343391418457e+00,1.604071617126464844e+00,1.603939771652221680e+00,1.603807926177978516e+00,1.603676199913024902e+00,1.603544354438781738e+00,1.603412747383117676e+00,1.603281021118164062e+00,1.603149414062500000e+00,1.603017687797546387e+00,1.602885961532592773e+00,1.602754354476928711e+00,1.602622747421264648e+00,1.602491259574890137e+00,1.602359652519226074e+00,1.602228164672851562e+00,1.602096557617187500e+00,1.601965069770812988e+00,1.601833581924438477e+00,1.601702094078063965e+00,1.601570725440979004e+00,1.601439356803894043e+00,1.601307988166809082e+00,1.601176619529724121e+00,1.601045131683349609e+00,1.600914001464843750e+00,1.600782632827758789e+00,1.600651383399963379e+00,1.600520133972167969e+00,1.600388884544372559e+00,1.600257635116577148e+00,1.600126385688781738e+00,1.599995255470275879e+00,1.599864006042480469e+00,1.599732995033264160e+00,1.599601864814758301e+00,1.599470853805541992e+00,1.599339723587036133e+00,1.599208593368530273e+00,1.599077701568603516e+00,1.598946690559387207e+00,1.598815798759460449e+00,1.598684668540954590e+00,1.598553895950317383e+00,1.598422884941101074e+00,1.598291993141174316e+00,1.598161220550537109e+00,1.598030209541320801e+00,1.597899556159973145e+00,1.597768664360046387e+00,1.597637891769409180e+00,1.597507119178771973e+00,1.597376346588134766e+00,1.597245693206787109e+00,1.597114920616149902e+00
1.467063665390014648e+00,1.466953277587890625e+00,1.466843128204345703e+00,1.466732859611511230e+00,1.466622710227966309e+00,1.466512441635131836e+00,1.466402292251586914e+00,1.466292142868041992e+00,1.466181874275207520e+00,1.466071844100952148e+00,1.465961694717407227e+00,1.465851664543151855e+00,1.465741515159606934e+00,1.465631484985351562e+00,1.465521454811096191e+00,1.465411305427551270e+00,1.465301394462585449e+00,1.465191364288330078e+00,1.465081453323364258e+00,1.464971423149108887e+00,1.464861512184143066e+00,1.464751601219177246e+00,1.464641571044921875e+00,1.464531779289245605e+00,1.464421868324279785e+00,1.464312076568603516e+00,1.464202165603637695e+00,1.464092373847961426e+00,1.463982462882995605e+00,1.463872671127319336e+00,1.463762879371643066e+00,1.463653087615966797e+00,1.463543415069580078e+00,1.463433623313903809e+00,1.463323950767517090e+00,1.463214278221130371e+00,1.463104486465454102e+00,1.462994933128356934e+00,1.462885141372680664e+00,1.462775588035583496e+00,1.462665915489196777e+00,1.462556481361389160e+00,1.462446808815002441e+00,1.462337136268615723e+00,1.462227702140808105e+00,1.462118148803710938e+00,1.462008714675903320e+00,1.461899161338806152e+00,1.461789727210998535e+00,1.461680173873901367e+00,1.461570620536804199e+00,1.461461305618286133e+00,1.461351871490478516e+00,1.461242437362670898e+00,1.461133003234863281e+00,1.461023807525634766e+00,1.460914373397827148e+00,1.460804939270019531e+00,1.460695743560791016e+00,1.460586309432983398e+00,1.460477113723754883e+00,1.460367798805236816e+00,1.460258603096008301e+00,1.460149288177490234e+00,1.460039973258972168e+00,1.459930896759033203e+00,1.459821701049804688e+00,1.459712505340576172e+00,1.459603309631347656e+00,1.459494233131408691e+00,1.459385037422180176e+00,1.459275960922241211e+00,1.459166884422302246e+00,1.459057807922363281e+00,1.458948731422424316e+00,1.458839654922485352e+00,1.458730697631835938e+00,1.458621621131896973e+00,1.458512544631958008e+00,1.458403706550598145e+00
1.349189162254333496e+00,1.349095821380615234e+00,1.349002718925476074e+00,1.348909378051757812e+00,1.348816156387329102e+00,1.348723053932189941e+00,1.348629713058471680e+00,1.348536610603332520e+00,1.348443388938903809e+00,1.348350286483764648e+00,1.348257184028625488e+00,1.348163962364196777e+00,1.348070979118347168e+00,1.347977757453918457e+00,1.347884774208068848e+00,1.347791671752929688e+00,1.347698569297790527e+00,1.347605586051940918e+00,1.347512483596801758e+00,1.347419500350952148e+00,1.347326517105102539e+00,1.347233533859252930e+00,1.347140550613403320e+00,1.347047567367553711e+00,1.346954584121704102e+00,1.346861600875854492e+00,1.346768736839294434e+00,1.346675753593444824e+00,1.346582889556884766e+00,1.346490025520324707e+00,1.346397042274475098e+00,1.346304178237915039e+00,1.346211314201354980e+00,1.346118569374084473e+00,1.346025705337524414e+00,1.345932960510253906e+00,1.345840096473693848e+00,1.345747351646423340e+00,1.345654487609863281e+00,1.345561623573303223e+00,1.345468997955322266e+00,1.345376253128051758e+00,1.345283508300781250e+00,1.345190763473510742e+00,1.345098018646240234e+00,1.345005393028259277e+00,1.344912648200988770e+00,1.344820022583007812e+00,1.344727396965026855e+00,1.344634771347045898e+00,1.344542145729064941e+00,1.344449400901794434e+00,1.344356894493103027e+00,1.344264268875122070e+00,1.344171762466430664e+00,1.344079136848449707e+00,1.343986630439758301e+00,1.343894004821777344e+00,1.343801498413085938e+00,1.343708992004394531e+00,1.343616485595703125e+00,1.343524098396301270e+00,1.343431591987609863e+00,1.343339085578918457e+00,1.343246579170227051e+00,1.343154191970825195e+00,1.343061804771423340e+00,1.342969298362731934e+00,1.342877030372619629e+00,1.342784523963928223e+00,1.342692255973815918e+00,1.342599868774414062e+00,1.342507481575012207e+00,1.342415213584899902e+00,1.342322826385498047e+00,1.342230558395385742e+00,1.342138171195983887e+00,1.342046022415161133e+00,1.341953635215759277e+00,1.341861367225646973e+00
1.248847723007202148e+00,1.248767852783203125e+00,1.248687863349914551e+00,1.248608112335205078e+00,1.248528242111206055e+00,1.248448252677917480e+00,1.248368501663208008e+00,1.248288631439208984e+00,1.248208880424499512e+00,1.248129010200500488e+00,1.248049259185791016e+00,1.247969388961791992e+00,1.247889518737792969e+00,1.247809767723083496e+00,1.247730016708374023e+00,1.247650265693664551e+00,1.247570514678955078e+00,1.247490882873535156e+00,1.247411012649536133e+00,1.247331261634826660e+00,1.247251629829406738e+00,1.247171878814697266e+00,1.247092247009277344e+00,1.247012615203857422e+00,1.246932983398437500e+00,1.246853232383728027e+00,1.246773600578308105e+00,1.246693968772888184e+00,1.246614336967468262e+00,1.246534705162048340e+00,1.246455073356628418e+00,1.246375560760498047e+00,1.246295928955078125e+00,1.246216297149658203e+00,1.246136784553527832e+00,1.246057271957397461e+00,1.245977759361267090e+00,1.245898127555847168e+00,1.245818734169006348e+00,1.245739102363586426e+00,1.245659589767456055e+00,1.245580196380615234e+00,1.245500564575195312e+00,1.245421171188354492e+00,1.245341658592224121e+00,1.245262265205383301e+00,1.245182752609252930e+00,1.245103359222412109e+00,1.245023965835571289e+00,1.244944572448730469e+00,1.244865179061889648e+00,1.244785785675048828e+00,1.244706392288208008e+00,1.244626998901367188e+00,1.244547605514526367e+00,1.244468331336975098e+00,1.244388937950134277e+00,1.244309663772583008e+00,1.244230270385742188e+00,1.244150996208190918e+00,1.244071722030639648e+00,1.243992328643798828e+00,1.243913173675537109e+00,1.243833780288696289e+00,1.243754625320434570e+00,1.243675351142883301e+00,1.243596076965332031e+00,1.243516802787780762e+00,1.243437647819519043e+00,1.243358492851257324e+00,1.243279218673706055e+00,1.243200063705444336e+00,1.243120789527893066e+00,1.243041753768920898e+00,1.242962479591369629e+00,1.242883324623107910e+00,1.242804288864135742e+00,1.242725133895874023e+00,1.242645978927612305e+00,1.242566823959350586e+00
1.162398219108581543e+00,1.162329077720642090e+00,1.162259817123413086e+00,1.162190675735473633e+00,1.162121415138244629e+00,1.162052273750305176e+00,1.161983013153076172e+00,1.161913871765136719e+00,1.161844730377197266e+00,1.161775588989257812e+00,1.161706447601318359e+00,1.161637306213378906e+00,1.161568164825439453e+00,1.161499023437500000e+00,1.161429882049560547e+00,1.161360740661621094e+00,1.161291718482971191e+00,1.161222577095031738e+00,1.161153554916381836e+00,1.161084413528442383e+00,1.161015391349792480e+00,1.160946369171142578e+00,1.160877227783203125e+00,1.160808205604553223e+00,1.160739183425903320e+00,1.160670161247253418e+00,1.160601139068603516e+00,1.160532116889953613e+00,1.160463213920593262e+00,1.160394072532653809e+00,1.160325169563293457e+00,1.160256147384643555e+00,1.160187244415283203e+00,1.160118222236633301e+00,1.160049319267272949e+00,1.159980416297912598e+00,1.159911394119262695e+00,1.159842491149902344e+00,1.159773588180541992e+00,1.159704685211181641e+00,1.159635782241821289e+00,1.159566879272460938e+00,1.159497976303100586e+00,1.159429073333740234e+00,1.159360289573669434e+00,1.159291386604309082e+00,1.159222602844238281e+00,1.159153699874877930e+00,1.159084796905517578e+00,1.159016013145446777e+00,1.158947110176086426e+00,1.158878445625305176e+00,1.158809542655944824e+00,1.158740758895874023e+00,1.158671975135803223e+00,1.158603191375732422e+00,1.158534407615661621e+00,1.158465623855590820e+00,1.158396959304809570e+00,1.158328175544738770e+00,1.158259510993957520e+00,1.158190727233886719e+00,1.158121943473815918e+00,1.158053278923034668e+00,1.157984614372253418e+00,1.157915949821472168e+00,1.157847166061401367e+00,1.157778501510620117e+00,1.157709836959838867e+00,1.157641172409057617e+00,1.157572507858276367e+00,1.157503843307495117e+00,1.157435297966003418e+00,1.157366633415222168e+00,1.157297968864440918e+00,1.157229304313659668e+00,1.157160758972167969e+00,1.157092213630676270e+00,1.157023549079895020e+00,1.156955003738403320e+00
1.087142586708068848e+00,1.087082028388977051e+00,1.087021470069885254e+00,1.086960911750793457e+00,1.086900353431701660e+00,1.086839914321899414e+00,1.086779356002807617e+00,1.086718916893005371e+00,1.086658358573913574e+00,1.086597800254821777e+00,1.086537361145019531e+00,1.086476922035217285e+00,1.086416482925415039e+00,1.086355924606323242e+00,1.086295485496520996e+00,1.086235046386718750e+00,1.086174607276916504e+00,1.086114168167114258e+00,1.086053729057312012e+00,1.085993289947509766e+00,1.085932850837707520e+00,1.085872530937194824e+00,1.085812091827392578e+00,1.085751652717590332e+00,1.085691213607788086e+00,1.085630774497985840e+00,1.085570454597473145e+00,1.085510134696960449e+00,1.085449814796447754e+00,1.085389375686645508e+00,1.085328936576843262e+00,1.085268735885620117e+00,1.085208296775817871e+00,1.085147976875305176e+00,1.085087656974792480e+00,1.085027337074279785e+00,1.084967017173767090e+00,1.084906697273254395e+00,1.084846496582031250e+00,1.084786176681518555e+00,1.084725856781005859e+00,1.084665536880493164e+00,1.084605336189270020e+00,1.084545016288757324e+00,1.084484696388244629e+00,1.084424495697021484e+00,1.084364295005798340e+00,1.084304094314575195e+00,1.084243774414062500e+00,1.084183573722839355e+00,1.084123373031616211e+00,1.084063053131103516e+00,1.084002971649169922e+00,1.083942651748657227e+00,1.083882570266723633e+00,1.083822369575500488e+00,1.083762168884277344e+00,1.083701968193054199e+00,1.083641767501831055e+00,1.083581686019897461e+00,1.083521485328674316e+00,1.083461403846740723e+00,1.083401203155517578e+00,1.083341121673583984e+00,1.083280920982360840e+00,1.083220839500427246e+00,1.083160758018493652e+00,1.083100557327270508e+00,1.083040595054626465e+00,1.082980394363403320e+00,1.082920312881469727e+00,1.082860231399536133e+00,1.082800149917602539e+00,1.082740187644958496e+00,1.082679986953735352e+00,1.082620024681091309e+00,1.082559943199157715e+00,1.082499980926513672e+00,1.082439899444580078e+00,1.082379817962646484e+00
1.021038770675659180e+00,1.020985364913940430e+00,1.020931959152221680e+00,1.020878434181213379e+00,1.020825147628784180e+00,1.020771741867065430e+00,1.020718336105346680e+00,1.020664930343627930e+00,1.020611643791198730e+00,1.020558238029479980e+00,1.020504832267761230e+00,1.020451545715332031e+00,1.020398139953613281e+00,1.020344853401184082e+00,1.020291447639465332e+00,1.020238161087036133e+00,1.020184874534606934e+00,1.020131468772888184e+00,1.020078182220458984e+00,1.020024895668029785e+00,1.019971609115600586e+00,1.019918322563171387e+00,1.019865036010742188e+00,1.019811749458312988e+00,1.019758343696594238e+00,1.019705176353454590e+00,1.019651889801025391e+00,1.019598603248596191e+00,1.019545316696166992e+00,1.019492149353027344e+00,1.019438862800598145e+00,1.019385576248168945e+00,1.019332408905029297e+00,1.019279122352600098e+00,1.019225955009460449e+00,1.019172668457031250e+00,1.019119501113891602e+00,1.019066333770751953e+00,1.019013047218322754e+00,1.018959879875183105e+00,1.018906712532043457e+00,1.018853545188903809e+00,1.018800258636474609e+00,1.018747210502624512e+00,1.018693923950195312e+00,1.018640756607055664e+00,1.018587708473205566e+00,1.018534421920776367e+00,1.018481373786926270e+00,1.018428206443786621e+00,1.018375039100646973e+00,1.018321871757507324e+00,1.018268823623657227e+00,1.018215656280517578e+00,1.018162608146667480e+00,1.018109440803527832e+00,1.018056392669677734e+00,1.018003225326538086e+00,1.017950177192687988e+00,1.017897009849548340e+00,1.017843961715698242e+00,1.017790913581848145e+00,1.017737865447998047e+00,1.017684817314147949e+00,1.017631769180297852e+00,1.017578721046447754e+00,1.017525553703308105e+00,1.017472624778747559e+00,1.017419576644897461e+00,1.017366528511047363e+00,1.017313480377197266e+00,1.017260432243347168e+00,1.017207384109497070e+00,1.017154455184936523e+00,1.017101407051086426e+00,1.017048358917236328e+00,1.016995429992675781e+00,1.016942501068115234e+00,1.016889452934265137e+00,1.016836524009704590e+00
9.625130295753479004e-01,9.624655246734619141e-01,9.624181985855102539e-01,9.623706936836242676e-01,9.623231887817382812e-01,9.622757434844970703e-01,9.622282981872558594e-01,9.621809124946594238e-01,9.621334671974182129e-01,9.620860219001770020e-01,9.620385766029357910e-01,9.619911313056945801e-01,9.619438052177429199e-01,9.618964195251464844e-01,9.618489742279052734e-01,9.618015289306640625e-01,9.617542624473571777e-01,9.617068171501159668e-01,9.616594314575195312e-01,9.616120457649230957e-01,9.615646600723266602e-01,9.615173339843750000e-01,9.614699482917785645e-01,9.614225625991821289e-01,9.613751769065856934e-01,9.613278508186340332e-01,9.612805843353271484e-01,9.612331986427307129e-01,9.611858725547790527e-01,9.611384868621826172e-01,9.610912799835205078e-01,9.610438942909240723e-01,9.609965682029724121e-01,9.609492421150207520e-01,9.609019160270690918e-01,9.608546495437622070e-01,9.608073830604553223e-01,9.607600569725036621e-01,9.607127308845520020e-01,9.606654047966003418e-01,9.606181979179382324e-01,9.605709314346313477e-01,9.605236053466796875e-01,9.604763388633728027e-01,9.604291319847106934e-01,9.603818655014038086e-01,9.603345990180969238e-01,9.602873325347900391e-01,9.602400660514831543e-01,9.601929187774658203e-01,9.601456522941589355e-01,9.600983858108520508e-01,9.600511193275451660e-01,9.600039124488830566e-01,9.599567651748657227e-01,9.599095582962036133e-01,9.598622918128967285e-01,9.598150849342346191e-01,9.597679972648620605e-01,9.597207307815551758e-01,9.596735239028930664e-01,9.596263170242309570e-01,9.595791101455688477e-01,9.595320224761962891e-01,9.594848752021789551e-01,9.594376683235168457e-01,9.593904614448547363e-01,9.593433141708374023e-01,9.592962265014648438e-01,9.592490792274475098e-01,9.592018723487854004e-01,9.591547250747680664e-01,9.591076970100402832e-01,9.590605497360229492e-01,9.590134024620056152e-01,9.589662551879882812e-01,9.589191079139709473e-01,9.588720798492431641e-01,9.588249325752258301e-01,9.587778449058532715e-01
9.103329777717590332e-01,9.102904796600341797e-01,9.102479815483093262e-01,9.102056622505187988e-01,9.101631641387939453e-01,9.101207256317138672e-01,9.100782275199890137e-01,9.100357890129089355e-01,9.099934697151184082e-01,9.099509716033935547e-01,9.099085330963134766e-01,9.098660945892333984e-01,9.098237752914428711e-01,9.097813367843627930e-01,9.097388982772827148e-01,9.096965193748474121e-01,9.096540808677673340e-01,9.096117615699768066e-01,9.095693826675415039e-01,9.095269441604614258e-01,9.094845652580261230e-01,9.094421267509460449e-01,9.093998670578002930e-01,9.093574881553649902e-01,9.093150496482849121e-01,9.092726707458496094e-01,9.092304110527038574e-01,9.091880321502685547e-01,9.091456532478332520e-01,9.091032743453979492e-01,9.090609550476074219e-01,9.090186953544616699e-01,9.089763164520263672e-01,9.089339971542358398e-01,9.088916182518005371e-01,9.088492989540100098e-01,9.088070392608642578e-01,9.087647199630737305e-01,9.087224006652832031e-01,9.086800217628479004e-01,9.086378216743469238e-01,9.085955023765563965e-01,9.085531830787658691e-01,9.085108637809753418e-01,9.084685444831848145e-01,9.084263443946838379e-01,9.083840847015380859e-01,9.083417654037475586e-01,9.082995057106018066e-01,9.082571864128112793e-01,9.082149863243103027e-01,9.081727266311645508e-01,9.081304669380187988e-01,9.080882072448730469e-01,9.080460071563720703e-01,9.080037474632263184e-01,9.079614877700805664e-01,9.079192280769348145e-01,9.078769683837890625e-01,9.078348278999328613e-01,9.077925682067871094e-01,9.077503681182861328e-01,9.077081084251403809e-01,9.076658487319946289e-01,9.076237678527832031e-01,9.075815081596374512e-01,9.075393080711364746e-01,9.074971079826354980e-01,9.074549674987792969e-01,9.074127674102783203e-01,9.073705673217773438e-01,9.073283672332763672e-01,9.072861671447753906e-01,9.072440862655639648e-01,9.072018861770629883e-01,9.071596860885620117e-01,9.071174860000610352e-01,9.070753455162048340e-01,9.070332646369934082e-01,9.069910645484924316e-01
