5.000000000000000000e+00,5.000000000000000000e+00,5.000000000000000000e+00,5.000000000000000000e+00,5.000000000000000000e+00,5.000000000000000000e+00,5.000000000000000000e+00,5.000000000000000000e+00,5.000000000000000000e+00,5.000000000000000000e+00,5.000000000000000000e+00,5.000000000000000000e+00,5.000000000000000000e+00,5.000000000000000000e+00,5.000000000000000000e+00,5.000000000000000000e+00,5.000000000000000000e+00,5.000000000000000000e+00,5.000000000000000000e+00,5.000000000000000000e+00,5.000000000000000000e+00,5.000000000000000000e+00,5.000000000000000000e+00,3.498097419738769531e+00,3.516171932220458984e+00,3.508011341094970703e+00,3.530048608779907227e+00,3.556498527526855469e+00,3.595976114273071289e+00,3.652074813842773438e+00,3.706841945648193359e+00,5.000000000000000000e+00,5.000000000000000000e+00,5.000000000000000000e+00,5.000000000000000000e+00,5.000000000000000000e+00,5.000000000000000000e+00,5.000000000000000000e+00,5.000000000000000000e+00,4.863584041595458984e+00,4.672496795654296875e+00,4.495857715606689453e+00,4.332087039947509766e+00,4.179828166961669922e+00,4.037909030914306641e+00,3.905310630798339844e+00,3.781144142150878906e+00,3.664629459381103516e+00,3.555081367492675781e+00,3.451892137527465820e+00,3.354524612426757812e+00,3.262499094009399414e+00,3.175388336181640625e+00,3.092807769775390625e+00,3.014414072036743164e+00,2.939896106719970703e+00,2.868973493576049805e+00,2.801392078399658203e+00,2.736921310424804688e+00,2.675351381301879883e+00,2.616490602493286133e+00,2.560163974761962891e+00,2.506211519241333008e+00,2.454485893249511719e+00,2.404852390289306641e+00,2.357186317443847656e+00,2.311373233795166016e+00,2.267306804656982422e+00,2.224889516830444336e+00,2.184029817581176758e+00,2.144644021987915039e+00,2.106653690338134766e+00,2.069985628128051758e+00,2.034572362899780273e+00,2.000350236892700195e+00,1.967260479927062988e+00,1.935247778892517090e+00,1.904260039329528809e+00,1.874248981475830078e+00,1.845169186592102051e+00
5.000000000000000000e+00,5.000000000000000000e+00,5.000000000000000000e+00,5.000000000000000000e+00,5.000000000000000000e+00,5.000000000000000000e+00,5.000000000000000000e+00,5.000000000000000000e+00,5.000000000000000000e+00,5.000000000000000000e+00,5.000000000000000000e+00,5.000000000000000000e+00,5.000000000000000000e+00,5.000000000000000000e+00,5.000000000000000000e+00,5.000000000000000000e+00,5.000000000000000000e+00,5.000000000000000000e+00,5.000000000000000000e+00,5.000000000000000000e+00,5.000000000000000000e+00,5.000000000000000000e+00,5.000000000000000000e+00,3.529033660888671875e+00,3.536264657974243164e+00,3.501556158065795898e+00,3.507365942001342773e+00,3.533169746398925781e+00,3.566991567611694336e+00,3.652856349945068359e+00,3.724816560745239258e+00,5.000000000000000000e+00,5.000000000000000000e+00,5.000000000000000000e+00,5.000000000000000000e+00,5.000000000000000000e+00,5.000000000000000000e+00,5.000000000000000000e+00,5.000000000000000000e+00,4.863724708557128906e+00,4.672626495361328125e+00,4.495977401733398438e+00,4.332198143005371094e+00,4.179932117462158203e+00,4.038005828857421875e+00,3.905400991439819336e+00,3.781228780746459961e+00,3.664709091186523438e+00,3.555156230926513672e+00,3.451962947845458984e+00,3.354591369628906250e+00,3.262562274932861328e+00,3.175447940826416016e+00,3.092864513397216797e+00,3.014467954635620117e+00,2.939947366714477539e+00,2.869022369384765625e+00,2.801438570022583008e+00,2.736965894699096680e+00,2.675393819808959961e+00,2.616531133651733398e+00,2.560202836990356445e+00,2.506248712539672852e+00,2.454521656036376953e+00,2.404886722564697266e+00,2.357219457626342773e+00,2.311404943466186523e+00,2.267337322235107422e+00,2.224918842315673828e+00,2.184058189392089844e+00,2.144671440124511719e+00,2.106679916381835938e+00,2.070010900497436523e+00,2.034596920013427734e+00,2.000374078750610352e+00,1.967283606529235840e+00,1.935269832611083984e+00,1.904281377792358398e+00,1.874269843101501465e+00,1.845189452171325684e+00
5.000000000000000000e+00,5.000000000000000000e+00,5.000000000000000000e+00,5.000000000000000000e+00,5.000000000000000000e+00,5.000000000000000000e+00,5.000000000000000000e+00,5.000000000000000000e+00,5.000000000000000000e+00,5.000000000000000000e+00,5.000000000000000000e+00,5.000000000000000000e+00,5.000000000000000000e+00,5.000000000000000000e+00,5.000000000000000000e+00,5.000000000000000000e+00,5.000000000000000000e+00,5.000000000000000000e+00,5.000000000000000000e+00,5.000000000000000000e+00,5.000000000000000000e+00,5.000000000000000000e+00,5.000000000000000000e+00,3.552308320999145508e+00,3.555508136749267578e+00,3.517156839370727539e+00,3.510037660598754883e+00,3.527312278747558594e+00,3.572049617767333984e+00,3.691734313964843750e+00,3.726775407791137695e+00,5.000000000000000000e+00,5.000000000000000000e+00,5.000000000000000000e+00,5.000000000000000000e+00,5.000000000000000000e+00,5.000000000000000000e+00,5.000000000000000000e+00,5.000000000000000000e+00,4.863864898681640625e+00,4.672756195068359375e+00,4.496097564697265625e+00,4.332309722900390625e+00,4.180035591125488281e+00,4.038102149963378906e+00,3.905491352081298828e+00,3.781313657760620117e+00,3.664788722991943359e+00,3.555231094360351562e+00,3.452033519744873047e+00,3.354658126831054688e+00,3.262625455856323242e+00,3.175507783889770508e+00,3.092921257019042969e+00,3.014521837234497070e+00,2.939998626708984375e+00,2.869071006774902344e+00,2.801485061645507812e+00,2.737010240554809570e+00,2.675436258316040039e+00,2.616571903228759766e+00,2.560241699218750000e+00,2.506285905838012695e+00,2.454557418823242188e+00,2.404921054840087891e+00,2.357252359390258789e+00,2.311436653137207031e+00,2.267367839813232422e+00,2.224948167800903320e+00,2.184086561203002930e+00,2.144698619842529297e+00,2.106706142425537109e+00,2.070036411285400391e+00,2.034621477127075195e+00,2.000397920608520508e+00,1.967306375503540039e+00,1.935292124748229980e+00,1.904303073883056641e+00,1.874290585517883301e+00,1.845209598541259766e+00
5.000000000000000000e+00,5.000000000000000000e+00,5.000000000000000000e+00,5.000000000000000000e+00,5.000000000000000000e+00,5.000000000000000000e+00,5.000000000000000000e+00,5.000000000000000000e+00,5.000000000000000000e+00,5.000000000000000000e+00,5.000000000000000000e+00,5.000000000000000000e+00,5.000000000000000000e+00,5.000000000000000000e+00,5.000000000000000000e+00,5.000000000000000000e+00,5.000000000000000000e+00,5.000000000000000000e+00,5.000000000000000000e+00,5.000000000000000000e+00,5.000000000000000000e+00,5.000000000000000000e+00,5.000000000000000000e+00,3.565377950668334961e+00,3.554046154022216797e+00,3.523128271102905273e+00,3.508228778839111328e+00,3.527414560317993164e+00,3.567981719970703125e+00,3.720276832580566406e+00,3.726747989654541016e+00,5.000000000000000000e+00,5.000000000000000000e+00,5.000000000000000000e+00,5.000000000000000000e+00,5.000000000000000000e+00,5.000000000000000000e+00,5.000000000000000000e+00,5.000000000000000000e+00,4.864004611968994141e+00,4.672884941101074219e+00,4.496216773986816406e+00,4.332420825958251953e+00,4.180139064788818359e+00,4.038198947906494141e+00,3.905581951141357422e+00,3.781398057937622070e+00,3.664868354797363281e+00,3.555305719375610352e+00,3.452104091644287109e+00,3.354724645614624023e+00,3.262688636779785156e+00,3.175567388534545898e+00,3.092978000640869141e+00,3.014575481414794922e+00,2.940049886703491211e+00,2.869119644165039062e+00,2.801531553268432617e+00,2.737054347991943359e+00,2.675478696823120117e+00,2.616612195968627930e+00,2.560280561447143555e+00,2.506323099136352539e+00,2.454593181610107422e+00,2.404955148696899414e+00,2.357285261154174805e+00,2.311468124389648438e+00,2.267398357391357422e+00,2.224977254867553711e+00,2.184114694595336914e+00,2.144725799560546875e+00,2.106732606887817383e+00,2.070061683654785156e+00,2.034646034240722656e+00,2.000421524047851562e+00,1.967329502105712891e+00,1.935314297676086426e+00,1.904324412345886230e+00,1.874311327934265137e+00,1.845229864120483398e+00
5.000000000000000000e+00,5.000000000000000000e+00,5.000000000000000000e+00,5.000000000000000000e+00,5.000000000000000000e+00,5.000000000000000000e+00,5.000000000000000000e+00,5.000000000000000000e+00,5.000000000000000000e+00,5.000000000000000000e+00,5.000000000000000000e+00,5.000000000000000000e+00,5.000000000000000000e+00,5.000000000000000000e+00,5.000000000000000000e+00,5.000000000000000000e+00,5.000000000000000000e+00,5.000000000000000000e+00,5.000000000000000000e+00,5.000000000000000000e+00,5.000000000000000000e+00,5.000000000000000000e+00,5.000000000000000000e+00,3.582270383834838867e+00,3.572563171386718750e+00,3.506753206253051758e+00,3.495501279830932617e+00,3.528491973876953125e+00,3.566771507263183594e+00,5.000000000000000000e+00,3.735306739807128906e+00,5.000000000000000000e+00,5.000000000000000000e+00,5.000000000000000000e+00,5.000000000000000000e+00,5.000000000000000000e+00,5.000000000000000000e+00,5.000000000000000000e+00,5.000000000000000000e+00,4.864145278930664062e+00,4.673014640808105469e+00,4.496336936950683594e+00,4.332531929016113281e+00,4.180242538452148438e+00,4.038295269012451172e+00,3.905672311782836914e+00,3.781482934951782227e+00,3.664947986602783203e+00,3.555380821228027344e+00,3.452174901962280273e+00,3.354791402816772461e+00,3.262751817703247070e+00,3.175627231597900391e+00,3.093034744262695312e+00,3.014629364013671875e+00,2.940101146697998047e+00,2.869168519973754883e+00,2.801578283309936523e+00,2.737098932266235352e+00,2.675521135330200195e+00,2.616652727127075195e+00,2.560319423675537109e+00,2.506360292434692383e+00,2.454628705978393555e+00,2.404989480972290039e+00,2.357318162918090820e+00,2.311499834060668945e+00,2.267428874969482422e+00,2.225006818771362305e+00,2.184143066406250000e+00,2.144752979278564453e+00,2.106758832931518555e+00,2.070087194442749023e+00,2.034670591354370117e+00,2.000445127487182617e+00,1.967352271080017090e+00,1.935336351394653320e+00,1.904345989227294922e+00,1.874332308769226074e+00,1.845250010490417480e+00
5.000000000000000000e+00,5.000000000000000000e+00,5.000000000000000000e+00,5.000000000000000000e+00,5.000000000000000000e+00,5.000000000000000000e+00,5.000000000000000000e+00,5.000000000000000000e+00,5.000000000000000000e+00,5.000000000000000000e+00,5.000000000000000000e+00,5.000000000000000000e+00,5.000000000000000000e+00,5.000000000000000000e+00,5.000000000000000000e+00,5.000000000000000000e+00,5.000000000000000000e+00,5.000000000000000000e+00,5.000000000000000000e+00,5.000000000000000000e+00,5.000000000000000000e+00,5.000000000000000000e+00,5.000000000000000000e+00,3.595886230468750000e+00,3.550116777420043945e+00,3.505069494247436523e+00,3.504677772521972656e+00,3.524973392486572266e+00,3.556664943695068359e+00,5.000000000000000000e+00,3.729881763458251953e+00,5.000000000000000000e+00,5.000000000000000000e+00,5.000000000000000000e+00,5.000000000000000000e+00,5.000000000000000000e+00,5.000000000000000000e+00,5.000000000000000000e+00,5.000000000000000000e+00,4.864285469055175781e+00,4.673144340515136719e+00,4.496456623077392578e+00,4.332643032073974609e+00,4.180346012115478516e+00,4.038392066955566406e+00,3.905762910842895508e+00,3.781567573547363281e+00,3.665027618408203125e+00,3.555455684661865234e+00,3.452245473861694336e+00,3.354858160018920898e+00,3.262814760208129883e+00,3.175687074661254883e+00,3.093091487884521484e+00,3.014683246612548828e+00,2.940152406692504883e+00,2.869217395782470703e+00,2.801624774932861328e+00,2.737143278121948242e+00,2.675563573837280273e+00,2.616693496704101562e+00,2.560358285903930664e+00,2.506397485733032227e+00,2.454664468765258789e+00,2.405023813247680664e+00,2.357351303100585938e+00,2.311531543731689453e+00,2.267459392547607422e+00,2.225036144256591797e+00,2.184171438217163086e+00,2.144780397415161133e+00,2.106785297393798828e+00,2.070112466812133789e+00,2.034695148468017578e+00,2.000468969345092773e+00,1.967375397682189941e+00,1.935358643531799316e+00,1.904367446899414062e+00,1.874353051185607910e+00,1.845270276069641113e+00
5.000000000000000000e+00,5.000000000000000000e+00,5.000000000000000000e+00,5.000000000000000000e+00,5.000000000000000000e+00,5.000000000000000000e+00,5.000000000000000000e+00,5.000000000000000000e+00,5.000000000000000000e+00,5.000000000000000000e+00,5.000000000000000000e+00,5.000000000000000000e+00,5.000000000000000000e+00,5.000000000000000000e+00,5.000000000000000000e+00,5.000000000000000000e+00,5.000000000000000000e+00,5.000000000000000000e+00,5.000000000000000000e+00,5.000000000000000000e+00,5.000000000000000000e+00,5.000000000000000000e+00,5.000000000000000000e+00,3.576009988784790039e+00,3.545876979827880859e+00,3.497858524322509766e+00,3.510492086410522461e+00,3.533161878585815430e+00,3.575917482376098633e+00,5.000000000000000000e+00,3.705316781997680664e+00,5.000000000000000000e+00,5.000000000000000000e+00,5.000000000000000000e+00,5.000000000000000000e+00,5.000000000000000000e+00,5.000000000000000000e+00,5.000000000000000000e+00,5.000000000000000000e+00,4.864425659179687500e+00,4.673273563385009766e+00,4.496576309204101562e+00,4.332754135131835938e+00,4.180449485778808594e+00,4.038488864898681641e+00,3.905852794647216797e+00,3.781652450561523438e+00,3.665107011795043945e+00,3.555530786514282227e+00,3.452315807342529297e+00,3.354924917221069336e+00,3.262877702713012695e+00,3.175746679306030273e+00,3.093147993087768555e+00,3.014737129211425781e+00,2.940203428268432617e+00,2.869266033172607422e+00,2.801671028137207031e+00,2.737187623977661133e+00,2.675605773925781250e+00,2.616734027862548828e+00,2.560396909713745117e+00,2.506434917449951172e+00,2.454699993133544922e+00,2.405058145523071289e+00,2.357383966445922852e+00,2.311563253402709961e+00,2.267489671707153320e+00,2.225065469741821289e+00,2.184199571609497070e+00,2.144807577133178711e+00,2.106811285018920898e+00,2.070137977600097656e+00,2.034719467163085938e+00,2.000492572784423828e+00,1.967398166656494141e+00,1.935380816459655762e+00,1.904388785362243652e+00,1.874373912811279297e+00,1.845290303230285645e+00
5.000000000000000000e+00,5.000000000000000000e+00,5.000000000000000000e+00,5.000000000000000000e+00,5.000000000000000000e+00,5.000000000000000000e+00,5.000000000000000000e+00,5.000000000000000000e+00,5.000000000000000000e+00,5.000000000000000000e+00,5.000000000000000000e+00,5.000000000000000000e+00,5.000000000000000000e+00,5.000000000000000000e+00,5.000000000000000000e+00,5.000000000000000000e+00,5.000000000000000000e+00,5.000000000000000000e+00,5.000000000000000000e+00,5.000000000000000000e+00,5.000000000000000000e+00,5.000000000000000000e+00,5.000000000000000000e+00,3.568469047546386719e+00,3.544466972351074219e+00,3.466588735580444336e+00,3.476289749145507812e+00,3.568201780319213867e+00,3.589433431625366211e+00,3.652697086334228516e+00,3.707774639129638672e+00,3.689641714096069336e+00,5.000000000000000000e+00,5.000000000000000000e+00,5.000000000000000000e+00,5.000000000000000000e+00,5.000000000000000000e+00,5.000000000000000000e+00,5.000000000000000000e+00,4.864565849304199219e+00,4.673402786254882812e+00,4.496696472167968750e+00,4.332865715026855469e+00,4.180552959442138672e+00,4.038585662841796875e+00,3.905943393707275391e+00,3.781737327575683594e+00,3.665186643600463867e+00,3.555605649948120117e+00,3.452386617660522461e+00,3.354991674423217773e+00,3.262940883636474609e+00,3.175806522369384766e+00,3.093204736709594727e+00,3.014791011810302734e+00,2.940254688262939453e+00,2.869314908981323242e+00,2.801717519760131836e+00,2.737232208251953125e+00,2.675648212432861328e+00,2.616774559020996094e+00,2.560435771942138672e+00,2.506472110748291016e+00,2.454735755920410156e+00,2.405092239379882812e+00,2.357416868209838867e+00,2.311594963073730469e+00,2.267520189285278320e+00,2.225094795227050781e+00,2.184227705001831055e+00,2.144834995269775391e+00,2.106837749481201172e+00,2.070163249969482422e+00,2.034744024276733398e+00,2.000516414642333984e+00,1.967421054840087891e+00,1.935403108596801758e+00,1.904410481452941895e+00,1.874394655227661133e+00,1.845310449600219727e+00
5.000000000000000000e+00,5.000000000000000000e+00,5.000000000000000000e+00,5.000000000000000000e+00,5.000000000000000000e+00,5.000000000000000000e+00,5.000000000000000000e+00,5.000000000000000000e+00,5.000000000000000000e+00,5.000000000000000000e+00,5.000000000000000000e+00,5.000000000000000000e+00,5.000000000000000000e+00,5.000000000000000000e+00,5.000000000000000000e+00,5.000000000000000000e+00,5.000000000000000000e+00,5.000000000000000000e+00,5.000000000000000000e+00,5.000000000000000000e+00,5.000000000000000000e+00,5.000000000000000000e+00,5.000000000000000000e+00,3.553561449050903320e+00,3.564050436019897461e+00,3.452848672866821289e+00,3.457368135452270508e+00,3.519954681396484375e+00,3.574922084808349609e+00,3.625324010848999023e+00,5.000000000000000000e+00,3.652973175048828125e+00,5.000000000000000000e+00,5.000000000000000000e+00,5.000000000000000000e+00,5.000000000000000000e+00,5.000000000000000000e+00,5.000000000000000000e+00,5.000000000000000000e+00,4.864706039428710938e+00,4.673532485961914062e+00,4.496816158294677734e+00,4.332976818084716797e+00,4.180656909942626953e+00,4.038681983947753906e+00,3.906033754348754883e+00,3.781822204589843750e+00,3.665266275405883789e+00,3.555680751800537109e+00,3.452457189559936523e+00,3.355058431625366211e+00,3.263003826141357422e+00,3.175866365432739258e+00,3.093261480331420898e+00,3.014844894409179688e+00,2.940305948257446289e+00,2.869363784790039062e+00,2.801764249801635742e+00,2.737276554107666016e+00,2.675690650939941406e+00,2.616815328598022461e+00,2.560474634170532227e+00,2.506509304046630859e+00,2.454771518707275391e+00,2.405126571655273438e+00,2.357450008392333984e+00,2.311626672744750977e+00,2.267550706863403320e+00,2.225124120712280273e+00,2.184256076812744141e+00,2.144862174987792969e+00,2.106863975524902344e+00,2.070188760757446289e+00,2.034768581390380859e+00,2.000540018081665039e+00,1.967444062232971191e+00,1.935425162315368652e+00,1.904431819915771484e+00,1.874415636062622070e+00,1.845330715179443359e+00
5.000000000000000000e+00,5.000000000000000000e+00,5.000000000000000000e+00,5.000000000000000000e+00,5.000000000000000000e+00,5.000000000000000000e+00,5.000000000000000000e+00,5.000000000000000000e+00,5.000000000000000000e+00,5.000000000000000000e+00,5.000000000000000000e+00,5.000000000000000000e+00,5.000000000000000000e+00,5.000000000000000000e+00,5.000000000000000000e+00,5.000000000000000000e+00,5.000000000000000000e+00,5.000000000000000000e+00,5.000000000000000000e+00,5.000000000000000000e+00,5.000000000000000000e+00,5.000000000000000000e+00,5.000000000000000000e+00,3.549983739852905273e+00,3.545617580413818359e+00,3.446764469146728516e+00,3.449499845504760742e+00,3.501222372055053711e+00,3.570850133895874023e+00,3.622349500656127930e+00,5.000000000000000000e+00,5.000000000000000000e+00,5.000000000000000000e+00,5.000000000000000000e+00,5.000000000000000000e+00,5.000000000000000000e+00,5.000000000000000000e+00,5.000000000000000000e+00,5.000000000000000000e+00,4.864846229553222656e+00,4.673661708831787109e+00,4.496935844421386719e+00,4.333087921142578125e+00,4.180760383605957031e+00,4.038778781890869141e+00,3.906124353408813477e+00,3.781906604766845703e+00,3.665345907211303711e+00,3.555755376815795898e+00,3.452527999877929688e+00,3.355124711990356445e+00,3.263067007064819336e+00,3.175925970077514648e+00,3.093318223953247070e+00,3.014898538589477539e+00,2.940357208251953125e+00,2.869412422180175781e+00,2.801810741424560547e+00,2.737320899963378906e+00,2.675733089447021484e+00,2.616855621337890625e+00,2.560513496398925781e+00,2.506546497344970703e+00,2.454807281494140625e+00,2.405160903930664062e+00,2.357482910156250000e+00,2.311658143997192383e+00,2.267581224441528320e+00,2.225153446197509766e+00,2.184284448623657227e+00,2.144889354705810547e+00,2.106890439987182617e+00,2.070214033126831055e+00,2.034793138504028320e+00,2.000563621520996094e+00,1.967466950416564941e+00,1.935447335243225098e+00,1.904453516006469727e+00,1.874436378479003906e+00,1.845350861549377441e+00
5.000000000000000000e+00,5.000000000000000000e+00,5.000000000000000000e+00,5.000000000000000000e+00,5.000000000000000000e+00,5.000000000000000000e+00,5.000000000000000000e+00,5.000000000000000000e+00,5.000000000000000000e+00,5.000000000000000000e+00,5.000000000000000000e+00,5.000000000000000000e+00,5.000000000000000000e+00,5.000000000000000000e+00,5.000000000000000000e+00,5.000000000000000000e+00,5.000000000000000000e+00,5.000000000000000000e+00,5.000000000000000000e+00,5.000000000000000000e+00,5.000000000000000000e+00,5.000000000000000000e+00,5.000000000000000000e+00,3.526401758193969727e+00,3.515602588653564453e+00,3.466273307800292969e+00,3.442895174026489258e+00,3.483275890350341797e+00,3.576392412185668945e+00,3.626760244369506836e+00,5.000000000000000000e+00,5.000000000000000000e+00,5.000000000000000000e+00,5.000000000000000000e+00,5.000000000000000000e+00,5.000000000000000000e+00,5.000000000000000000e+00,5.000000000000000000e+00,5.000000000000000000e+00,4.864986419677734375e+00,4.673791408538818359e+00,4.497055530548095703e+00,4.333199501037597656e+00,4.180863857269287109e+00,4.038875579833984375e+00,3.906214714050292969e+00,3.781991243362426758e+00,3.665425777435302734e+00,3.555830240249633789e+00,3.452598571777343750e+00,3.355191469192504883e+00,3.263130187988281250e+00,3.175985813140869141e+00,3.093374967575073242e+00,3.014952421188354492e+00,2.940408468246459961e+00,2.869461297988891602e+00,2.801857233047485352e+00,2.737365245819091797e+00,2.675775766372680664e+00,2.616896152496337891e+00,2.560552358627319336e+00,2.506583690643310547e+00,2.454843044281005859e+00,2.405194997787475586e+00,2.357515811920166016e+00,2.311689853668212891e+00,2.267611742019653320e+00,2.225182771682739258e+00,2.184312582015991211e+00,2.144916534423828125e+00,2.106916666030883789e+00,2.070239543914794922e+00,2.034817695617675781e+00,2.000587463378906250e+00,1.967490077018737793e+00,1.935469627380371094e+00,1.904474854469299316e+00,1.874457120895385742e+00,1.845371127128601074e+00
5.000000000000000000e+00,5.000000000000000000e+00,5.000000000000000000e+00,5.000000000000000000e+00,5.000000000000000000e+00,5.000000000000000000e+00,5.000000000000000000e+00,5.000000000000000000e+00,5.000000000000000000e+00,5.000000000000000000e+00,5.000000000000000000e+00,5.000000000000000000e+00,5.000000000000000000e+00,5.000000000000000000e+00,5.000000000000000000e+00,5.000000000000000000e+00,5.000000000000000000e+00,5.000000000000000000e+00,5.000000000000000000e+00,5.000000000000000000e+00,5.000000000000000000e+00,5.000000000000000000e+00,5.000000000000000000e+00,3.514561414718627930e+00,5.000000000000000000e+00,3.497570514678955078e+00,3.430601119995117188e+00,3.465374946594238281e+00,3.579115390777587891e+00,3.632853507995605469e+00,5.000000000000000000e+00,5.000000000000000000e+00,5.000000000000000000e+00,5.000000000000000000e+00,5.000000000000000000e+00,5.000000000000000000e+00,5.000000000000000000e+00,5.000000000000000000e+00,5.000000000000000000e+00,4.865127086639404297e+00,4.673920631408691406e+00,4.497175693511962891e+00,4.333310604095458984e+00,4.180967330932617188e+00,4.038972377777099609e+00,3.906305313110351562e+00,3.782076120376586914e+00,3.665505409240722656e+00,3.555905342102050781e+00,3.452669382095336914e+00,3.355258226394653320e+00,3.263193368911743164e+00,3.176045656204223633e+00,3.093431711196899414e+00,3.015006542205810547e+00,2.940459728240966797e+00,2.869509935379028320e+00,2.801903963088989258e+00,2.737409591674804688e+00,2.675818204879760742e+00,2.616936922073364258e+00,2.560591459274291992e+00,2.506620883941650391e+00,2.454878807067871094e+00,2.405229330062866211e+00,2.357548713684082031e+00,2.311721563339233398e+00,2.267642021179199219e+00,2.225212097167968750e+00,2.184340953826904297e+00,2.144943952560424805e+00,2.106943130493164062e+00,2.070264816284179688e+00,2.034842252731323242e+00,2.000611066818237305e+00,1.967512845993041992e+00,1.935491800308227539e+00,1.904496550559997559e+00,1.874477982521057129e+00,1.845391273498535156e+00
5.000000000000000000e+00,5.000000000000000000e+00,5.000000000000000000e+00,5.000000000000000000e+00,5.000000000000000000e+00,5.000000000000000000e+00,5.000000000000000000e+00,5.000000000000000000e+00,5.000000000000000000e+00,5.000000000000000000e+00,5.000000000000000000e+00,5.000000000000000000e+00,5.000000000000000000e+00,5.000000000000000000e+00,5.000000000000000000e+00,5.000000000000000000e+00,5.000000000000000000e+00,5.000000000000000000e+00,5.000000000000000000e+00,5.000000000000000000e+00,5.000000000000000000e+00,5.000000000000000000e+00,5.000000000000000000e+00,5.000000000000000000e+00,5.000000000000000000e+00,5.000000000000000000e+00,3.428245306015014648e+00,3.443591594696044922e+00,3.583898067474365234e+00,3.637305736541748047e+00,5.000000000000000000e+00,5.000000000000000000e+00,5.000000000000000000e+00,5.000000000000000000e+00,5.000000000000000000e+00,5.000000000000000000e+00,5.000000000000000000e+00,5.000000000000000000e+00,5.000000000000000000e+00,4.865266799926757812e+00,4.674049854278564453e+00,4.497295379638671875e+00,4.333421707153320312e+00,4.181070804595947266e+00,4.039068698883056641e+00,3.906395435333251953e+00,3.782160997390747070e+00,3.665584564208984375e+00,3.555980205535888672e+00,3.452739715576171875e+00,3.355324983596801758e+00,3.263256311416625977e+00,3.176105499267578125e+00,3.093488216400146484e+00,3.015060424804687500e+00,2.940510749816894531e+00,2.869558811187744141e+00,2.801950216293334961e+00,2.737454175949096680e+00,2.675860404968261719e+00,2.616977453231811523e+00,2.560630083084106445e+00,2.506658315658569336e+00,2.454914331436157227e+00,2.405263662338256836e+00,2.357581615447998047e+00,2.311753273010253906e+00,2.267672538757324219e+00,2.225241422653198242e+00,2.184369087219238281e+00,2.144971132278442383e+00,2.106969118118286133e+00,2.070290327072143555e+00,2.034866571426391602e+00,2.000634908676147461e+00,1.967535734176635742e+00,1.935514092445373535e+00,1.904517889022827148e+00,1.874498724937438965e+00,1.845411300659179688e+00
5.000000000000000000e+00,5.000000000000000000e+00,5.000000000000000000e+00,5.000000000000000000e+00,5.000000000000000000e+00,5.000000000000000000e+00,5.000000000000000000e+00,5.000000000000000000e+00,5.000000000000000000e+00,5.000000000000000000e+00,5.000000000000000000e+00,5.000000000000000000e+00,5.000000000000000000e+00,5.000000000000000000e+00,5.000000000000000000e+00,5.000000000000000000e+00,5.000000000000000000e+00,5.000000000000000000e+00,5.000000000000000000e+00,5.000000000000000000e+00,5.000000000000000000e+00,5.000000000000000000e+00,5.000000000000000000e+00,5.000000000000000000e+00,5.000000000000000000e+00,5.000000000000000000e+00,3.439344882965087891e+00,3.445125818252563477e+00,3.583765506744384766e+00,5.000000000000000000e+00,5.000000000000000000e+00,5.000000000000000000e+00,5.000000000000000000e+00,5.000000000000000000e+00,5.000000000000000000e+00,5.000000000000000000e+00,5.000000000000000000e+00,5.000000000000000000e+00,5.000000000000000000e+00,4.865407466888427734e+00,4.674179553985595703e+00,4.497415065765380859e+00,4.333533287048339844e+00,4.181174755096435547e+00,4.039165496826171875e+00,3.906485795974731445e+00,3.782245874404907227e+00,3.665664196014404297e+00,3.556055307388305664e+00,3.452810287475585938e+00,3.355391740798950195e+00,3.263319253921508789e+00,3.176165103912353516e+00,3.093544960021972656e+00,3.015114307403564453e+00,2.940562009811401367e+00,2.869607686996459961e+00,2.801996707916259766e+00,2.737498521804809570e+00,2.675902843475341797e+00,2.617018222808837891e+00,2.560668945312500000e+00,2.506695508956909180e+00,2.454950094223022461e+00,2.405297994613647461e+00,2.357614517211914062e+00,2.311784982681274414e+00,2.267703056335449219e+00,2.225270748138427734e+00,2.184397459030151367e+00,2.144998550415039062e+00,2.106995582580566406e+00,2.070315599441528320e+00,2.034891128540039062e+00,2.000658750534057617e+00,1.967558741569519043e+00,1.935536146163940430e+00,1.904539346694946289e+00,1.874519705772399902e+00,1.845431566238403320e+00
5.000000000000000000e+00,5.000000000000000000e+00,5.000000000000000000e+00,5.000000000000000000e+00,5.000000000000000000e+00,5.000000000000000000e+00,5.000000000000000000e+00,5.000000000000000000e+00,5.000000000000000000e+00,5.000000000000000000e+00,5.000000000000000000e+00,5.000000000000000000e+00,5.000000000000000000e+00,5.000000000000000000e+00,5.000000000000000000e+00,5.000000000000000000e+00,5.000000000000000000e+00,5.000000000000000000e+00,5.000000000000000000e+00,5.000000000000000000e+00,5.000000000000000000e+00,5.000000000000000000e+00,5.000000000000000000e+00,5.000000000000000000e+00,5.000000000000000000e+00,5.000000000000000000e+00,3.457099914550781250e+00,3.473263502120971680e+00,3.605057954788208008e+00,5.000000000000000000e+00,5.000000000000000000e+00,5.000000000000000000e+00,5.000000000000000000e+00,5.000000000000000000e+00,5.000000000000000000e+00,5.000000000000000000e+00,5.000000000000000000e+00,5.000000000000000000e+00,5.000000000000000000e+00,4.865546226501464844e+00,4.674309253692626953e+00,4.497535228729248047e+00,4.333644390106201172e+00,4.181278228759765625e+00,4.039262294769287109e+00,3.906576395034790039e+00,3.782330751419067383e+00,3.665744066238403320e+00,3.556130170822143555e+00,3.452881097793579102e+00,3.355458736419677734e+00,3.263382434844970703e+00,3.176224946975708008e+00,3.093601703643798828e+00,3.015168190002441406e+00,2.940613269805908203e+00,2.869656562805175781e+00,2.802043199539184570e+00,2.737543106079101562e+00,2.675945281982421875e+00,2.617058753967285156e+00,2.560707807540893555e+00,2.506732702255249023e+00,2.454985857009887695e+00,2.405332326889038086e+00,2.357647418975830078e+00,2.311816692352294922e+00,2.267733573913574219e+00,2.225300312042236328e+00,2.184425830841064453e+00,2.145025730133056641e+00,2.107021808624267578e+00,2.070341110229492188e+00,2.034915685653686523e+00,2.000682353973388672e+00,1.967581629753112793e+00,1.935558557510375977e+00,1.904560923576354980e+00,1.874540448188781738e+00,1.845451712608337402e+00
5.000000000000000000e+00,5.000000000000000000e+00,5.000000000000000000e+00,5.000000000000000000e+00,5.000000000000000000e+00,5.000000000000000000e+00,5.000000000000000000e+00,5.000000000000000000e+00,5.000000000000000000e+00,5.000000000000000000e+00,5.000000000000000000e+00,5.000000000000000000e+00,5.000000000000000000e+00,5.000000000000000000e+00,5.000000000000000000e+00,5.000000000000000000e+00,5.000000000000000000e+00,5.000000000000000000e+00,5.000000000000000000e+00,5.000000000000000000e+00,5.000000000000000000e+00,5.000000000000000000e+00,5.000000000000000000e+00,5.000000000000000000e+00,5.000000000000000000e+00,5.000000000000000000e+00,3.474398136138916016e+00,3.507091283798217773e+00,3.756592750549316406e+00,5.000000000000000000e+00,5.000000000000000000e+00,5.000000000000000000e+00,5.000000000000000000e+00,5.000000000000000000e+00,5.000000000000000000e+00,5.000000000000000000e+00,5.000000000000000000e+00,5.000000000000000000e+00,5.000000000000000000e+00,4.865684986114501953e+00,4.674437522888183594e+00,4.497654914855957031e+00,4.333755493164062500e+00,4.181381702423095703e+00,4.039358615875244141e+00,3.906666755676269531e+00,3.782415151596069336e+00,3.665823698043823242e+00,3.556204795837402344e+00,3.452951669692993164e+00,3.355525016784667969e+00,3.263445615768432617e+00,3.176284551620483398e+00,3.093658447265625000e+00,3.015221834182739258e+00,2.940664529800415039e+00,2.869705200195312500e+00,2.802089929580688477e+00,2.737587213516235352e+00,2.675987720489501953e+00,2.617099046707153320e+00,2.560746669769287109e+00,2.506769895553588867e+00,2.455021619796752930e+00,2.405366420745849609e+00,2.357680559158325195e+00,2.311848163604736328e+00,2.267763853073120117e+00,2.225329399108886719e+00,2.184453964233398438e+00,2.145052909851074219e+00,2.107048034667968750e+00,2.070366382598876953e+00,2.034940242767333984e+00,2.000705957412719727e+00,1.967604756355285645e+00,1.935580611228942871e+00,1.904582381248474121e+00,1.874561190605163574e+00,1.845471978187561035e+00
5.000000000000000000e+00,5.000000000000000000e+00,5.000000000000000000e+00,5.000000000000000000e+00,5.000000000000000000e+00,5.000000000000000000e+00,5.000000000000000000e+00,5.000000000000000000e+00,5.000000000000000000e+00,5.000000000000000000e+00,5.000000000000000000e+00,5.000000000000000000e+00,5.000000000000000000e+00,5.000000000000000000e+00,5.000000000000000000e+00,5.000000000000000000e+00,5.000000000000000000e+00,5.000000000000000000e+00,5.000000000000000000e+00,5.000000000000000000e+00,5.000000000000000000e+00,5.000000000000000000e+00,5.000000000000000000e+00,5.000000000000000000e+00,5.000000000000000000e+00,5.000000000000000000e+00,3.485195636749267578e+00,3.507756948471069336e+00,5.000000000000000000e+00,5.000000000000000000e+00,5.000000000000000000e+00,5.000000000000000000e+00,5.000000000000000000e+00,5.000000000000000000e+00,5.000000000000000000e+00,5.000000000000000000e+00,5.000000000000000000e+00,5.000000000000000000e+00,5.000000000000000000e+00,4.865823745727539062e+00,4.674565792083740234e+00,4.497775077819824219e+00,4.333867073059082031e+00,4.181485652923583984e+00,4.039455413818359375e+00,3.906757354736328125e+00,3.782500028610229492e+00,3.665903329849243164e+00,3.556279897689819336e+00,3.453022480010986328e+00,3.355591773986816406e+00,3.263508796691894531e+00,3.176344394683837891e+00,3.093715190887451172e+00,3.015275716781616211e+00,2.940715789794921875e+00,2.869754076004028320e+00,2.802136421203613281e+00,2.737631559371948242e+00,2.676030158996582031e+00,2.617139816284179688e+00,2.560785531997680664e+00,2.506807088851928711e+00,2.455057382583618164e+00,2.405400753021240234e+00,2.357713460922241211e+00,2.311879873275756836e+00,2.267794370651245117e+00,2.225358724594116211e+00,2.184482336044311523e+00,2.145080089569091797e+00,2.107074499130249023e+00,2.070391893386840820e+00,2.034964799880981445e+00,2.000729799270629883e+00,1.967627525329589844e+00,1.935602784156799316e+00,1.904603958129882812e+00,1.874582171440124512e+00,1.845492124557495117e+00
5.000000000000000000e+00,5.000000000000000000e+00,5.000000000000000000e+00,5.000000000000000000e+00,5.000000000000000000e+00,5.000000000000000000e+00,5.000000000000000000e+00,5.000000000000000000e+00,5.000000000000000000e+00,5.000000000000000000e+00,5.000000000000000000e+00,5.000000000000000000e+00,5.000000000000000000e+00,5.000000000000000000e+00,5.000000000000000000e+00,5.000000000000000000e+00,5.000000000000000000e+00,5.000000000000000000e+00,5.000000000000000000e+00,5.000000000000000000e+00,5.000000000000000000e+00,5.000000000000000000e+00,5.000000000000000000e+00,5.000000000000000000e+00,5.000000000000000000e+00,5.000000000000000000e+00,3.499622106552124023e+00,3.507895469665527344e+00,5.000000000000000000e+00,5.000000000000000000e+00,5.000000000000000000e+00,5.000000000000000000e+00,5.000000000000000000e+00,5.000000000000000000e+00,5.000000000000000000e+00,5.000000000000000000e+00,5.000000000000000000e+00,5.000000000000000000e+00,5.000000000000000000e+00,4.865962982177734375e+00,4.674694061279296875e+00,4.497892856597900391e+00,4.333978652954101562e+00,4.181589126586914062e+00,4.039552211761474609e+00,3.906847953796386719e+00,3.782584905624389648e+00,3.665983200073242188e+00,3.556354761123657227e+00,3.453093290328979492e+00,3.355658531188964844e+00,3.263571977615356445e+00,3.176404237747192383e+00,3.093771934509277344e+00,3.015329599380493164e+00,2.940767049789428711e+00,2.869802951812744141e+00,2.802182912826538086e+00,2.737676143646240234e+00,2.676072597503662109e+00,2.617180347442626953e+00,2.560824394226074219e+00,2.506844282150268555e+00,2.455093145370483398e+00,2.405435085296630859e+00,2.357746362686157227e+00,2.311911582946777344e+00,2.267824888229370117e+00,2.225388288497924805e+00,2.184510707855224609e+00,2.145107507705688477e+00,2.107100725173950195e+00,2.070417165756225586e+00,2.034989595413208008e+00,2.000753402709960938e+00,1.967650651931762695e+00,1.935625076293945312e+00,1.904625296592712402e+00,1.874602913856506348e+00,1.845512390136718750e+00
5.000000000000000000e+00,5.000000000000000000e+00,5.000000000000000000e+00,5.000000000000000000e+00,5.000000000000000000e+00,5.000000000000000000e+00,5.000000000000000000e+00,5.000000000000000000e+00,5.000000000000000000e+00,5.000000000000000000e+00,5.000000000000000000e+00,5.000000000000000000e+00,5.000000000000000000e+00,5.000000000000000000e+00,5.000000000000000000e+00,5.000000000000000000e+00,5.000000000000000000e+00,5.000000000000000000e+00,5.000000000000000000e+00,5.000000000000000000e+00,5.000000000000000000e+00,5.000000000000000000e+00,5.000000000000000000e+00,5.000000000000000000e+00,5.000000000000000000e+00,5.000000000000000000e+00,3.516412258148193359e+00,3.510870456695556641e+00,5.000000000000000000e+00,5.000000000000000000e+00,5.000000000000000000e+00,5.000000000000000000e+00,5.000000000000000000e+00,5.000000000000000000e+00,5.000000000000000000e+00,5.000000000000000000e+00,5.000000000000000000e+00,5.000000000000000000e+00,5.000000000000000000e+00,4.866101741790771484e+00,4.674822330474853516e+00,4.498012065887451172e+00,4.334088325500488281e+00,4.181692600250244141e+00,4.039649009704589844e+00,3.906938076019287109e+00,3.782669544219970703e+00,3.666062355041503906e+00,3.556429862976074219e+00,3.453163623809814453e+00,3.355725526809692383e+00,3.263634920120239258e+00,3.176464080810546875e+00,3.093828439712524414e+00,3.015383481979370117e+00,2.940818071365356445e+00,2.869851589202880859e+00,2.802229404449462891e+00,2.737720489501953125e+00,2.676115036010742188e+00,2.617221117019653320e+00,2.560863256454467773e+00,2.506881713867187500e+00,2.455128669738769531e+00,2.405469417572021484e+00,2.357779264450073242e+00,2.311943292617797852e+00,2.267855405807495117e+00,2.225417613983154297e+00,2.184538841247558594e+00,2.145134687423706055e+00,2.107126951217651367e+00,2.070442676544189453e+00,2.035013914108276367e+00,2.000777244567871094e+00,1.967673420906066895e+00,1.935647130012512207e+00,1.904646754264831543e+00,1.874623775482177734e+00,1.845532536506652832e+00
5.000000000000000000e+00,5.000000000000000000e+00,5.000000000000000000e+00,5.000000000000000000e+00,5.000000000000000000e+00,5.000000000000000000e+00,5.000000000000000000e+00,5.000000000000000000e+00,5.000000000000000000e+00,5.000000000000000000e+00,5.000000000000000000e+00,5.000000000000000000e+00,5.000000000000000000e+00,5.000000000000000000e+00,5.000000000000000000e+00,5.000000000000000000e+00,5.000000000000000000e+00,5.000000000000000000e+00,5.000000000000000000e+00,5.000000000000000000e+00,5.000000000000000000e+00,5.000000000000000000e+00,5.000000000000000000e+00,5.000000000000000000e+00,5.000000000000000000e+00,5.000000000000000000e+00,3.533668756484985352e+00,3.519258499145507812e+00,5.000000000000000000e+00,5.000000000000000000e+00,5.000000000000000000e+00,5.000000000000000000e+00,5.000000000000000000e+00,5.000000000000000000e+00,5.000000000000000000e+00,5.000000000000000000e+00,5.000000000000000000e+00,5.000000000000000000e+00,5.000000000000000000e+00,4.866240501403808594e+00,4.674950599670410156e+00,4.498130798339843750e+00,4.334198951721191406e+00,4.181795597076416016e+00,4.039745330810546875e+00,3.907028436660766602e+00,3.782754421234130859e+00,3.666142225265502930e+00,3.556504964828491211e+00,3.453234195709228516e+00,3.355792284011840820e+00,3.263698101043701172e+00,3.176523923873901367e+00,3.093885183334350586e+00,3.015437602996826172e+00,2.940869569778442383e+00,2.869900465011596680e+00,2.802275896072387695e+00,2.737765073776245117e+00,2.676157474517822266e+00,2.617261648178100586e+00,2.560902118682861328e+00,2.506918907165527344e+00,2.455164432525634766e+00,2.405503749847412109e+00,2.357812166213989258e+00,2.311975002288818359e+00,2.267885923385620117e+00,2.225446939468383789e+00,2.184567213058471680e+00,2.145162105560302734e+00,2.107153415679931641e+00,2.070468187332153320e+00,2.035038471221923828e+00,2.000800848007202148e+00,1.967696309089660645e+00,1.935669541358947754e+00,1.904668331146240234e+00,1.874644517898559570e+00,1.845552563667297363e+00
4.875251293182373047e+00,4.874039649963378906e+00,4.872829437255859375e+00,4.871619224548339844e+00,4.870409965515136719e+00,4.869201660156250000e+00,4.867993354797363281e+00,4.866786003112792969e+00,4.865578651428222656e+00,4.864372730255126953e+00,4.863166809082031250e+00,4.861961841583251953e+00,4.860757350921630859e+00,4.859553337097167969e+00,4.858349800109863281e+00,4.857147216796875000e+00,4.855945110321044922e+00,4.854743480682373047e+00,4.853542327880859375e+00,4.852342605590820312e+00,4.851142406463623047e+00,4.849943637847900391e+00,4.848744869232177734e+00,4.847547054290771484e+00,4.846349716186523438e+00,4.845152378082275391e+00,3.933656454086303711e+00,3.516996383666992188e+00,4.841565608978271484e+00,4.840371131896972656e+00,4.839177608489990234e+00,4.837984085083007812e+00,4.836791515350341797e+00,4.835599422454833984e+00,4.834407806396484375e+00,4.833217144012451172e+00,4.832026958465576172e+00,4.830836772918701172e+00,4.829648017883300781e+00,4.828459262847900391e+00,4.675078392028808594e+00,4.498249530792236328e+00,4.334309101104736328e+00,4.181898117065429688e+00,4.039842128753662109e+00,3.907119035720825195e+00,3.782839298248291016e+00,3.666221857070922852e+00,3.556579828262329102e+00,3.453305006027221680e+00,3.355859041213989258e+00,3.263761281967163086e+00,3.176583766937255859e+00,3.093941926956176758e+00,3.015491485595703125e+00,2.940920829772949219e+00,2.869949340820312500e+00,2.802322387695312500e+00,2.737809419631958008e+00,2.676199913024902344e+00,2.617302179336547852e+00,2.560940980911254883e+00,2.506956100463867188e+00,2.455200195312500000e+00,2.405538082122802734e+00,2.357845067977905273e+00,2.312006711959838867e+00,2.267916440963745117e+00,2.225476264953613281e+00,2.184595346450805664e+00,2.145189285278320312e+00,2.107179641723632812e+00,2.070493459701538086e+00,2.035063028335571289e+00,2.000824689865112305e+00,1.967719435691833496e+00,1.935691595077514648e+00,1.904689788818359375e+00,1.874665498733520508e+00,1.845572948455810547e+00
3.778037071228027344e+00,3.777309656143188477e+00,3.776582241058349609e+00,3.775855541229248047e+00,3.775129079818725586e+00,3.774403095245361328e+00,3.773676633834838867e+00,3.772951126098632812e+00,3.772225856781005859e+00,3.771500825881958008e+00,3.770776033401489258e+00,3.770051002502441406e+00,3.769326925277709961e+00,3.768603086471557617e+00,3.767879486083984375e+00,3.767156124114990234e+00,3.766432523727416992e+00,3.765709638595581055e+00,3.764987230300903320e+00,3.764264822006225586e+00,3.763542413711547852e+00,3.762820720672607422e+00,3.762099504470825195e+00,3.761378288269042969e+00,3.760657310485839844e+00,3.759936332702636719e+00,3.759216070175170898e+00,3.451304912567138672e+00,3.447413682937622070e+00,3.757056713104248047e+00,3.756337165832519531e+00,3.755618095397949219e+00,3.754899501800537109e+00,3.754181146621704102e+00,3.753463029861450195e+00,3.752744674682617188e+00,3.752027273178100586e+00,3.751309871673583984e+00,3.750592947006225586e+00,3.749876022338867188e+00,3.749159336090087891e+00,3.748443126678466797e+00,3.747727155685424805e+00,3.747011423110961914e+00,3.746295690536499023e+00,3.745580673217773438e+00,3.744865655899047852e+00,3.666301488876342773e+00,3.556654453277587891e+00,3.453375816345214844e+00,3.355925559997558594e+00,3.263824462890625000e+00,3.176643371582031250e+00,3.093998670578002930e+00,3.015545129776000977e+00,2.940972089767456055e+00,2.869997978210449219e+00,2.802369117736816406e+00,2.737853765487670898e+00,2.676242351531982422e+00,2.617342710494995117e+00,2.560979843139648438e+00,2.506993293762207031e+00,2.455235958099365234e+00,2.405572175979614258e+00,2.357878208160400391e+00,2.312038183212280273e+00,2.267946720123291016e+00,2.225505590438842773e+00,2.184623718261718750e+00,2.145216464996337891e+00,2.107206106185913086e+00,2.070518732070922852e+00,2.035087585449218750e+00,2.000848293304443359e+00,1.967742204666137695e+00,1.935713768005371094e+00,1.904711365699768066e+00,1.874686241149902344e+00,1.845592975616455078e+00
3.083965778350830078e+00,3.083481073379516602e+00,3.082996606826782227e+00,3.082512378692626953e+00,3.082027912139892578e+00,3.081543922424316406e+00,3.081060171127319336e+00,3.080576419830322266e+00,3.080092906951904297e+00,3.079609155654907227e+00,3.079125881195068359e+00,3.078642845153808594e+00,3.078159809112548828e+00,3.077677011489868164e+00,3.077194213867187500e+00,3.076711654663085938e+00,3.076229333877563477e+00,3.075747013092041016e+00,3.075264930725097656e+00,3.074782848358154297e+00,3.074301242828369141e+00,3.073819637298583984e+00,3.073338031768798828e+00,3.072856903076171875e+00,3.072375535964965820e+00,3.071894407272338867e+00,3.071413516998291016e+00,3.070932865142822266e+00,3.070452213287353516e+00,3.069971799850463867e+00,3.069491386413574219e+00,3.069011449813842773e+00,3.068531513214111328e+00,3.068051338195800781e+00,3.067571878433227539e+00,3.067092418670654297e+00,3.066612958908081055e+00,3.066133737564086914e+00,3.065654516220092773e+00,3.065175771713256836e+00,3.064697027206420898e+00,3.064218521118164062e+00,3.063739776611328125e+00,3.063261508941650391e+00,3.062783241271972656e+00,3.062305450439453125e+00,3.061827421188354492e+00,3.061349630355834961e+00,3.060872077941894531e+00,3.060394525527954102e+00,3.059917449951171875e+00,3.059440374374389648e+00,3.058963060379028320e+00,3.058486223220825195e+00,3.015599012374877930e+00,2.941023349761962891e+00,2.870046854019165039e+00,2.802415609359741211e+00,2.737898111343383789e+00,2.676284790039062500e+00,2.617383241653442383e+00,2.561018705368041992e+00,2.507030487060546875e+00,2.455271720886230469e+00,2.405606508255004883e+00,2.357911109924316406e+00,2.312069892883300781e+00,2.267977237701416016e+00,2.225534915924072266e+00,2.184652090072631836e+00,2.145243883132934570e+00,2.107232332229614258e+00,2.070544242858886719e+00,2.035112142562866211e+00,2.000872135162353516e+00,1.967765331268310547e+00,1.935736060142517090e+00,1.904732823371887207e+00,1.874706983566284180e+00,1.845613360404968262e+00
2.605334281921386719e+00,2.604988574981689453e+00,2.604642629623413086e+00,2.604296922683715820e+00,2.603951215744018555e+00,2.603605747222900391e+00,2.603260278701782227e+00,2.602914810180664062e+00,2.602569580078125000e+00,2.602224349975585938e+00,2.601879358291625977e+00,2.601534366607666016e+00,2.601189374923706055e+00,2.600844621658325195e+00,2.600499868392944336e+00,2.600155353546142578e+00,2.599810838699340820e+00,2.599466085433959961e+00,2.599121809005737305e+00,2.598777532577514648e+00,2.598433494567871094e+00,2.598089456558227539e+00,2.597745180130004883e+00,2.597401380538940430e+00,2.597057580947875977e+00,2.596714019775390625e+00,2.596370220184326172e+00,2.596026659011840820e+00,2.595683336257934570e+00,2.595340013504028320e+00,2.594996690750122070e+00,2.594653367996215820e+00,2.594310283660888672e+00,2.593967437744140625e+00,2.593624591827392578e+00,2.593281745910644531e+00,2.592938899993896484e+00,2.592596292495727539e+00,2.592253923416137695e+00,2.591911315917968750e+00,2.591569185256958008e+00,2.591226577758789062e+00,2.590884447097778320e+00,2.590542554855346680e+00,2.590200424194335938e+00,2.589858770370483398e+00,2.589516639709472656e+00,2.589174985885620117e+00,2.588833332061767578e+00,2.588491916656494141e+00,2.588150262832641602e+00,2.587809085845947266e+00,2.587467670440673828e+00,2.587126493453979492e+00,2.586785554885864258e+00,2.586444377899169922e+00,2.586103439331054688e+00,2.585762739181518555e+00,2.585422039031982422e+00,2.585081338882446289e+00,2.584740638732910156e+00,2.561057567596435547e+00,2.507067918777465820e+00,2.455307483673095703e+00,2.405640840530395508e+00,2.357944011688232422e+00,2.312101602554321289e+00,2.268007755279541016e+00,2.225564241409301758e+00,2.184680223464965820e+00,2.145271062850952148e+00,2.107258796691894531e+00,2.070569753646850586e+00,2.035136699676513672e+00,2.000895738601684570e+00,1.967788219451904297e+00,1.935758113861083984e+00,1.904754400253295898e+00,1.874727964401245117e+00,1.845633387565612793e+00
2.255335807800292969e+00,2.255075454711914062e+00,2.254815340042114258e+00,2.254554986953735352e+00,2.254294872283935547e+00,2.254034757614135742e+00,2.253774642944335938e+00,2.253514766693115234e+00,2.253254652023315430e+00,2.252995014190673828e+00,2.252735137939453125e+00,2.252475261688232422e+00,2.252215623855590820e+00,2.251955986022949219e+00,2.251696348190307617e+00,2.251436710357666016e+00,2.251177549362182617e+00,2.250917911529541016e+00,2.250658750534057617e+00,2.250399351119995117e+00,2.250140190124511719e+00,2.249881029129028320e+00,2.249621868133544922e+00,2.249363422393798828e+00,2.249105453491210938e+00,2.248847723007202148e+00,2.248589992523193359e+00,2.248332262039184570e+00,2.248074769973754883e+00,2.247817039489746094e+00,2.247559547424316406e+00,2.247302293777465820e+00,2.247044801712036133e+00,2.246787548065185547e+00,2.246530294418334961e+00,2.246273040771484375e+00,2.246015787124633789e+00,2.245758771896362305e+00,2.245501756668090820e+00,2.245244741439819336e+00,2.244987964630126953e+00,2.244730949401855469e+00,2.244474172592163086e+00,2.244217634201049805e+00,2.243960857391357422e+00,2.243704319000244141e+00,2.243447780609130859e+00,2.243191242218017578e+00,2.242934703826904297e+00,2.242678403854370117e+00,2.242422103881835938e+00,2.242165803909301758e+00,2.241909503936767578e+00,2.241653442382812500e+00,2.241397380828857422e+00,2.241141319274902344e+00,2.240885257720947266e+00,2.240629434585571289e+00,2.240373611450195312e+00,2.240117788314819336e+00,2.239861965179443359e+00,2.239606380462646484e+00,2.239350795745849609e+00,2.239095211029052734e+00,2.238839626312255859e+00,2.238584280014038086e+00,2.238328933715820312e+00,2.238073587417602539e+00,2.225593566894531250e+00,2.184708595275878906e+00,2.145298480987548828e+00,2.107284784317016602e+00,2.070595026016235352e+00,2.035161256790161133e+00,2.000919580459594727e+00,1.967810988426208496e+00,1.935780525207519531e+00,1.904775857925415039e+00,1.874748706817626953e+00,1.845653533935546875e+00
1.988287687301635742e+00,1.988085627555847168e+00,1.987883210182189941e+00,1.987680912017822266e+00,1.987478613853454590e+00,1.987276434898376465e+00,1.987074255943298340e+00,1.986872076988220215e+00,1.986670255661010742e+00,1.986468195915222168e+00,1.986266255378723145e+00,1.986064195632934570e+00,1.985862255096435547e+00,1.985660433769226074e+00,1.985458493232727051e+00,1.985257029533386230e+00,1.985055208206176758e+00,1.984853506088256836e+00,1.984651803970336914e+00,1.984450101852416992e+00,1.984248518943786621e+00,1.984046936035156250e+00,1.983845710754394531e+00,1.983644127845764160e+00,1.983442783355712891e+00,1.983241319656372070e+00,1.983039975166320801e+00,1.982838630676269531e+00,1.982637405395507812e+00,1.982436418533325195e+00,1.982235193252563477e+00,1.982033967971801758e+00,1.981832861900329590e+00,1.981631755828857422e+00,1.981430768966674805e+00,1.981229782104492188e+00,1.981029033660888672e+00,1.980828166007995605e+00,1.980627298355102539e+00,1.980426430702209473e+00,1.980225682258605957e+00,1.980024933815002441e+00,1.979824185371398926e+00,1.979623794555664062e+00,1.979423165321350098e+00,1.979222536087036133e+00,1.979022026062011719e+00,1.978821516036987305e+00,1.978621006011962891e+00,1.978420853614807129e+00,1.978220462799072266e+00,1.978020071983337402e+00,1.977819800376892090e+00,1.977619528770446777e+00,1.977419257164001465e+00,1.977219104766845703e+00,1.977019190788269043e+00,1.976819038391113281e+00,1.976619005203247070e+00,1.976418972015380859e+00,1.976218938827514648e+00,1.976019024848937988e+00,1.975819110870361328e+00,1.975619554519653320e+00,1.975419640541076660e+00,1.975219964981079102e+00,1.975020170211791992e+00,1.974820494651794434e+00,1.974620819091796875e+00,1.974421143531799316e+00,1.974221825599670410e+00,1.974022269248962402e+00,1.973822832107543945e+00,1.973623394966125488e+00,1.973423957824707031e+00,1.967834115028381348e+00,1.935802578926086426e+00,1.904797315597534180e+00,1.874769568443298340e+00,1.845673799514770508e+00
1.777785301208496094e+00,1.777623534202575684e+00,1.777461767196655273e+00,1.777300000190734863e+00,1.777138233184814453e+00,1.776976585388183594e+00,1.776814937591552734e+00,1.776653528213500977e+00,1.776491880416870117e+00,1.776330351829528809e+00,1.776168823242187500e+00,1.776007294654846191e+00,1.775845766067504883e+00,1.775684356689453125e+00,1.775523066520690918e+00,1.775361776351928711e+00,1.775200366973876953e+00,1.775039076805114746e+00,1.774877667427062988e+00,1.774716496467590332e+00,1.774555206298828125e+00,1.774394154548645020e+00,1.774232983589172363e+00,1.774071812629699707e+00,1.773910641670227051e+00,1.773749589920043945e+00,1.773588538169860840e+00,1.773427605628967285e+00,1.773266673088073730e+00,1.773105621337890625e+00,1.772944688796997070e+00,1.772783756256103516e+00,1.772622823715209961e+00,1.772462010383605957e+00,1.772301316261291504e+00,1.772140502929687500e+00,1.771979808807373047e+00,1.771818995475769043e+00,1.771658301353454590e+00,1.771497607231140137e+00,1.771336913108825684e+00,1.771176457405090332e+00,1.771015882492065430e+00,1.770855307579040527e+00,1.770694732666015625e+00,1.770534276962280273e+00,1.770373702049255371e+00,1.770213246345520020e+00,1.770053029060363770e+00,1.769892573356628418e+00,1.769732236862182617e+00,1.769571900367736816e+00,1.769411563873291016e+00,1.769251346588134766e+00,1.769091010093688965e+00,1.768931031227111816e+00,1.768770813941955566e+00,1.768610596656799316e+00,1.768450498580932617e+00,1.768290400505065918e+00,1.768130302429199219e+00,1.767970204353332520e+00,1.767810463905334473e+00,1.767650365829467773e+00,1.767490506172180176e+00,1.767330527305603027e+00,1.767170548439025879e+00,1.767010688781738281e+00,1.766850829124450684e+00,1.766691207885742188e+00,1.766531467437744141e+00,1.766371726989746094e+00,1.766211986541748047e+00,1.766052246093750000e+00,1.765892624855041504e+00,1.765732884407043457e+00,1.765573501586914062e+00,1.765413999557495117e+00,1.765254378318786621e+00,1.765094876289367676e+00
1.607587814331054688e+00,1.607455611228942871e+00,1.607323288917541504e+00,1.607190966606140137e+00,1.607058763504028320e+00,1.606926679611206055e+00,1.606794476509094238e+00,1.606662273406982422e+00,1.606530189514160156e+00,1.606397986412048340e+00,1.606265902519226074e+00,1.606133818626403809e+00,1.606001973152160645e+00,1.605869889259338379e+00,1.605737805366516113e+00,1.605605840682983398e+00,1.605473875999450684e+00,1.605341911315917969e+00,1.605209946632385254e+00,1.605078220367431641e+00,1.604946255683898926e+00,1.604814410209655762e+00,1.604682564735412598e+00,1.604550719261169434e+00,1.604418873786926270e+00,1.604287147521972656e+00,1.604155540466308594e+00,1.604023814201354980e+00,1.603892087936401367e+00,1.603760361671447754e+00,1.603628635406494141e+00,1.603497028350830078e+00,1.603365421295166016e+00,1.603233933448791504e+00,1.603102326393127441e+00,1.602970719337463379e+00,1.602839231491088867e+00,1.602707743644714355e+00,1.602576136589050293e+00,1.602444648742675781e+00,1.602313399314880371e+00,1.602181911468505859e+00,1.602050542831420898e+00,1.601919174194335938e+00,1.601787805557250977e+00,1.601656436920166016e+00,1.601525068283081055e+00,1.601393938064575195e+00,1.601262569427490234e+00,1.601131319999694824e+00,1.601000070571899414e+00,1.600868940353393555e+00,1.600737690925598145e+00,1.600606560707092285e+00,1.600475549697875977e+00,1.600344419479370117e+00,1.600213289260864258e+00,1.600082159042358398e+00,1.599951028823852539e+00,1.599820017814636230e+00,1.599688887596130371e+00,1.599558115005493164e+00,1.599427103996276855e+00,1.599296092987060547e+00,1.599165201187133789e+00,1.599034309387207031e+00,1.598903417587280273e+00,1.598772525787353516e+00,1.598641753196716309e+00,1.598510980606079102e+00,1.598380088806152344e+00,1.598249316215515137e+00,1.598118543624877930e+00,1.597987771034240723e+00,1.597856998443603516e+00,1.597726464271545410e+00,1.597595810890197754e+00,1.597465157508850098e+00,1.597334504127502441e+00,1.597203850746154785e+00
1.467131137847900391e+00,1.467020869255065918e+00,1.466910719871520996e+00,1.466800570487976074e+00,1.466690540313720703e+00,1.466580390930175781e+00,1.466470241546630859e+00,1.466360211372375488e+00,1.466250061988830566e+00,1.466140031814575195e+00,1.466030001640319824e+00,1.465920090675354004e+00,1.465810060501098633e+00,1.465700030326843262e+00,1.465590000152587891e+00,1.465480089187622070e+00,1.465370178222656250e+00,1.465260148048400879e+00,1.465150356292724609e+00,1.465040445327758789e+00,1.464930653572082520e+00,1.464820742607116699e+00,1.464710950851440430e+00,1.464601039886474609e+00,1.464491248130798340e+00,1.464381575584411621e+00,1.464271783828735352e+00,1.464161992073059082e+00,1.464052200317382812e+00,1.463942527770996094e+00,1.463832736015319824e+00,1.463723063468933105e+00,1.463613510131835938e+00,1.463503837585449219e+00,1.463394165039062500e+00,1.463284611701965332e+00,1.463174939155578613e+00,1.463065266609191895e+00,1.462955713272094727e+00,1.462846279144287109e+00,1.462736725807189941e+00,1.462627172470092773e+00,1.462517738342285156e+00,1.462408185005187988e+00,1.462298631668090820e+00,1.462189197540283203e+00,1.462079882621765137e+00,1.461970448493957520e+00,1.461861014366149902e+00,1.461751580238342285e+00,1.461642265319824219e+00,1.461532831192016602e+00,1.461423516273498535e+00,1.461314320564270020e+00,1.461205005645751953e+00,1.461095690727233887e+00,1.460986375808715820e+00,1.460877060890197754e+00,1.460767865180969238e+00,1.460658669471740723e+00,1.460549473762512207e+00,1.460440278053283691e+00,1.460331082344055176e+00,1.460221886634826660e+00,1.460112690925598145e+00,1.460003614425659180e+00,1.459894537925720215e+00,1.459785461425781250e+00,1.459676384925842285e+00,1.459567308425903320e+00,1.459458231925964355e+00,1.459349155426025391e+00,1.459240078926086426e+00,1.459131240844726562e+00,1.459022283554077148e+00,1.458913207054138184e+00,1.458804249763488770e+00,1.458695292472839355e+00,1.458586335182189941e+00,1.458477497100830078e+00
1.349245905876159668e+00,1.349152684211730957e+00,1.349059581756591797e+00,1.348966479301452637e+00,1.348873257637023926e+00,1.348780155181884766e+00,1.348687052726745605e+00,1.348593831062316895e+00,1.348500728607177734e+00,1.348407626152038574e+00,1.348314642906188965e+00,1.348221659660339355e+00,1.348128557205200195e+00,1.348035454750061035e+00,1.347942471504211426e+00,1.347849488258361816e+00,1.347756505012512207e+00,1.347663521766662598e+00,1.347570538520812988e+00,1.347477555274963379e+00,1.347384691238403320e+00,1.347291707992553711e+00,1.347198843955993652e+00,1.347105860710144043e+00,1.347013115882873535e+00,1.346920251846313477e+00,1.346827268600463867e+00,1.346734404563903809e+00,1.346641659736633301e+00,1.346548795700073242e+00,1.346455931663513184e+00,1.346363186836242676e+00,1.346270442008972168e+00,1.346177577972412109e+00,1.346084833145141602e+00,1.345992088317871094e+00,1.345899343490600586e+00,1.345806717872619629e+00,1.345713973045349121e+00,1.345621228218078613e+00,1.345528602600097656e+00,1.345435857772827148e+00,1.345343232154846191e+00,1.345250487327575684e+00,1.345157980918884277e+00,1.345065355300903320e+00,1.344972729682922363e+00,1.344880104064941406e+00,1.344787478446960449e+00,1.344694852828979492e+00,1.344602346420288086e+00,1.344509840011596680e+00,1.344417333602905273e+00,1.344324827194213867e+00,1.344232320785522461e+00,1.344139814376831055e+00,1.344047307968139648e+00,1.343954801559448242e+00,1.343862414360046387e+00,1.343769907951354980e+00,1.343677520751953125e+00,1.343585014343261719e+00,1.343492627143859863e+00,1.343400239944458008e+00,1.343307852745056152e+00,1.343215584754943848e+00,1.343123197555541992e+00,1.343030810356140137e+00,1.342938423156738281e+00,1.342846155166625977e+00,1.342753767967224121e+00,1.342661499977111816e+00,1.342569351196289062e+00,1.342477083206176758e+00,1.342384815216064453e+00,1.342292547225952148e+00,1.342200279235839844e+00,1.342108011245727539e+00,1.342015862464904785e+00,1.341923713684082031e+00
1.248896121978759766e+00,1.248816370964050293e+00,1.248736500740051270e+00,1.248656749725341797e+00,1.248576879501342773e+00,1.248497009277343750e+00,1.248417258262634277e+00,1.248337507247924805e+00,1.248257756233215332e+00,1.248178005218505859e+00,1.248098254203796387e+00,1.248018503189086914e+00,1.247938752174377441e+00,1.247859001159667969e+00,1.247779250144958496e+00,1.247699618339538574e+00,1.247619986534118652e+00,1.247540235519409180e+00,1.247460603713989258e+00,1.247380971908569336e+00,1.247301220893859863e+00,1.247221589088439941e+00,1.247142076492309570e+00,1.247062444686889648e+00,1.246982812881469727e+00,1.246903181076049805e+00,1.246823549270629883e+00,1.246744036674499512e+00,1.246664404869079590e+00,1.246585011482238770e+00,1.246505379676818848e+00,1.246425867080688477e+00,1.246346354484558105e+00,1.246266722679138184e+00,1.246187210083007812e+00,1.246107697486877441e+00,1.246028304100036621e+00,1.245948910713195801e+00,1.245869398117065430e+00,1.245789885520935059e+00,1.245710492134094238e+00,1.245630979537963867e+00,1.245551586151123047e+00,1.245472192764282227e+00,1.245392799377441406e+00,1.245313405990600586e+00,1.245234012603759766e+00,1.245154619216918945e+00,1.245075225830078125e+00,1.244995832443237305e+00,1.244916677474975586e+00,1.244837284088134766e+00,1.244757890701293945e+00,1.244678616523742676e+00,1.244599342346191406e+00,1.244519948959350586e+00,1.244440674781799316e+00,1.244361519813537598e+00,1.244282245635986328e+00,1.244202971458435059e+00,1.244123697280883789e+00,1.244044423103332520e+00,1.243965268135070801e+00,1.243885993957519531e+00,1.243806838989257812e+00,1.243727684020996094e+00,1.243648529052734375e+00,1.243569254875183105e+00,1.243490099906921387e+00,1.243410944938659668e+00,1.243331789970397949e+00,1.243252754211425781e+00,1.243173599243164062e+00,1.243094444274902344e+00,1.243015408515930176e+00,1.242936253547668457e+00,1.242857217788696289e+00,1.242778062820434570e+00,1.242699146270751953e+00,1.242620110511779785e+00
1.162440061569213867e+00,1.162370920181274414e+00,1.162301778793334961e+00,1.162232518196105957e+00,1.162163376808166504e+00,1.162094235420227051e+00,1.162025094032287598e+00,1.161956071853637695e+00,1.161886930465698242e+00,1.161817789077758789e+00,1.161748766899108887e+00,1.161679625511169434e+00,1.161610484123229980e+00,1.161541461944580078e+00,1.161472439765930176e+00,1.161403417587280273e+00,1.161334276199340820e+00,1.161265254020690918e+00,1.161196231842041016e+00,1.161127209663391113e+00,1.161058187484741211e+00,1.160989284515380859e+00,1.160920262336730957e+00,1.160851240158081055e+00,1.160782217979431152e+00,1.160713195800781250e+00,1.160644292831420898e+00,1.160575270652770996e+00,1.160506367683410645e+00,1.160437464714050293e+00,1.160368561744689941e+00,1.160299539566040039e+00,1.160230636596679688e+00,1.160161733627319336e+00,1.160092830657958984e+00,1.160024046897888184e+00,1.159955143928527832e+00,1.159886240959167480e+00,1.159817337989807129e+00,1.159748435020446777e+00,1.159679651260375977e+00,1.159610748291015625e+00,1.159541964530944824e+00,1.159473180770874023e+00,1.159404277801513672e+00,1.159335494041442871e+00,1.159266710281372070e+00,1.159197926521301270e+00,1.159129142761230469e+00,1.159060359001159668e+00,1.158991575241088867e+00,1.158922791481018066e+00,1.158854007720947266e+00,1.158785343170166016e+00,1.158716559410095215e+00,1.158647775650024414e+00,1.158579111099243164e+00,1.158510446548461914e+00,1.158441662788391113e+00,1.158372998237609863e+00,1.158304333686828613e+00,1.158235669136047363e+00,1.158167004585266113e+00,1.158098340034484863e+00,1.158029675483703613e+00,1.157961010932922363e+00,1.157892465591430664e+00,1.157823801040649414e+00,1.157755136489868164e+00,1.157686591148376465e+00,1.157617926597595215e+00,1.157549381256103516e+00,1.157480716705322266e+00,1.157412171363830566e+00,1.157343626022338867e+00,1.157274961471557617e+00,1.157206535339355469e+00,1.157137989997863770e+00,1.157069444656372070e+00,1.157000899314880371e+00
1.087178945541381836e+00,1.087118387222290039e+00,1.087057948112487793e+00,1.086997389793395996e+00,1.086936950683593750e+00,1.086876392364501953e+00,1.086816072463989258e+00,1.086755514144897461e+00,1.086695075035095215e+00,1.086634635925292969e+00,1.086574196815490723e+00,1.086513757705688477e+00,1.086453318595886230e+00,1.086392879486083984e+00,1.086332559585571289e+00,1.086272120475769043e+00,1.086211681365966797e+00,1.086151242256164551e+00,1.086090922355651855e+00,1.086030483245849609e+00,1.085970163345336914e+00,1.085909843444824219e+00,1.085849404335021973e+00,1.085789084434509277e+00,1.085728645324707031e+00,1.085668325424194336e+00,1.085608005523681641e+00,1.085547685623168945e+00,1.085487365722656250e+00,1.085427045822143555e+00,1.085366725921630859e+00,1.085306406021118164e+00,1.085246205329895020e+00,1.085185885429382324e+00,1.085125684738159180e+00,1.085065364837646484e+00,1.085005044937133789e+00,1.084944844245910645e+00,1.084884524345397949e+00,1.084824323654174805e+00,1.084764122962951660e+00,1.084703803062438965e+00,1.084643602371215820e+00,1.084583401679992676e+00,1.084523200988769531e+00,1.084462881088256836e+00,1.084402680397033691e+00,1.084342598915100098e+00,1.084282398223876953e+00,1.084222197532653809e+00,1.084161996841430664e+00,1.084101796150207520e+00,1.084041714668273926e+00,1.083981513977050781e+00,1.083921432495117188e+00,1.083861231803894043e+00,1.083801150321960449e+00,1.083740949630737305e+00,1.083680868148803711e+00,1.083620786666870117e+00,1.083560585975646973e+00,1.083500623703002930e+00,1.083440423011779785e+00,1.083380341529846191e+00,1.083320260047912598e+00,1.083260178565979004e+00,1.083200097084045410e+00,1.083140015602111816e+00,1.083080053329467773e+00,1.083019971847534180e+00,1.082959890365600586e+00,1.082899928092956543e+00,1.082839846611022949e+00,1.082779765129089355e+00,1.082719802856445312e+00,1.082659840583801270e+00,1.082599878311157227e+00,1.082539796829223633e+00,1.082479834556579590e+00,1.082419872283935547e+00
1.021070599555969238e+00,1.021017313003540039e+00,1.020963907241821289e+00,1.020910501480102539e+00,1.020857214927673340e+00,1.020803928375244141e+00,1.020750522613525391e+00,1.020697236061096191e+00,1.020643830299377441e+00,1.020590543746948242e+00,1.020537137985229492e+00,1.020483970642089844e+00,1.020430564880371094e+00,1.020377278327941895e+00,1.020323991775512695e+00,1.020270705223083496e+00,1.020217418670654297e+00,1.020164132118225098e+00,1.020110845565795898e+00,1.020057559013366699e+00,1.020004391670227051e+00,1.019951105117797852e+00,1.019897818565368652e+00,1.019844532012939453e+00,1.019791364669799805e+00,1.019738078117370605e+00,1.019684910774230957e+00,1.019631624221801758e+00,1.019578456878662109e+00,1.019525170326232910e+00,1.019472002983093262e+00,1.019418835639953613e+00,1.019365668296813965e+00,1.019312500953674316e+00,1.019259214401245117e+00,1.019206047058105469e+00,1.019152879714965820e+00,1.019099712371826172e+00,1.019046545028686523e+00,1.018993377685546875e+00,1.018940210342407227e+00,1.018887162208557129e+00,1.018833994865417480e+00,1.018780827522277832e+00,1.018727660179138184e+00,1.018674492835998535e+00,1.018621444702148438e+00,1.018568396568298340e+00,1.018515229225158691e+00,1.018462181091308594e+00,1.018409013748168945e+00,1.018355965614318848e+00,1.018302798271179199e+00,1.018249750137329102e+00,1.018196702003479004e+00,1.018143653869628906e+00,1.018090605735778809e+00,1.018037557601928711e+00,1.017984390258789062e+00,1.017931342124938965e+00,1.017878413200378418e+00,1.017825365066528320e+00,1.017772316932678223e+00,1.017719268798828125e+00,1.017666220664978027e+00,1.017613172531127930e+00,1.017560243606567383e+00,1.017507314682006836e+00,1.017454266548156738e+00,1.017401218414306641e+00,1.017348289489746094e+00,1.017295241355895996e+00,1.017242312431335449e+00,1.017189264297485352e+00,1.017136454582214355e+00,1.017083406448364258e+00,1.017030477523803711e+00,1.016977548599243164e+00,1.016924619674682617e+00,1.016871571540832520e+00
9.625412821769714355e-01,9.624938368797302246e-01,9.624464511871337891e-01,9.623990654945373535e-01,9.623515605926513672e-01,9.623042345046997070e-01,9.622567296028137207e-01,9.622094035148620605e-01,9.621619582176208496e-01,9.621146321296691895e-01,9.620672464370727539e-01,9.620198607444763184e-01,9.619725346565246582e-01,9.619250893592834473e-01,9.618777632713317871e-01,9.618303179740905762e-01,9.617830514907836914e-01,9.617357254028320312e-01,9.616883397102355957e-01,9.616410136222839355e-01,9.615936279296875000e-01,9.615463614463806152e-01,9.614989757537841797e-01,9.614516496658325195e-01,9.614043831825256348e-01,9.613569974899291992e-01,9.613097906112670898e-01,9.612624049186706543e-01,9.612151384353637695e-01,9.611677527427673340e-01,9.611205458641052246e-01,9.610732793807983398e-01,9.610259532928466797e-01,9.609787464141845703e-01,9.609314203262329102e-01,9.608841538429260254e-01,9.608368277549743652e-01,9.607896208763122559e-01,9.607424139976501465e-01,9.606951475143432617e-01,9.606479406356811523e-01,9.606006145477294922e-01,9.605534076690673828e-01,9.605061411857604980e-01,9.604589343070983887e-01,9.604117870330810547e-01,9.603645205497741699e-01,9.603173136711120605e-01,9.602700471878051758e-01,9.602228999137878418e-01,9.601756334304809570e-01,9.601284861564636230e-01,9.600813388824462891e-01,9.600341320037841797e-01,9.599869847297668457e-01,9.599397182464599609e-01,9.598926305770874023e-01,9.598454236984252930e-01,9.597982764244079590e-01,9.597511887550354004e-01,9.597039222717285156e-01,9.596568346023559570e-01,9.596096277236938477e-01,9.595625400543212891e-01,9.595153927803039551e-01,9.594683051109313965e-01,9.594212174415588379e-01,9.593740105628967285e-01,9.593269824981689453e-01,9.592797756195068359e-01,9.592327475547790527e-01,9.591855406761169434e-01,9.591385126113891602e-01,9.590914845466613770e-01,9.590443372726440430e-01,9.589972496032714844e-01,9.589501619338989258e-01,9.589031338691711426e-01,9.588559865951538086e-01,9.588089585304260254e-01
9.103580713272094727e-01,9.103156924247741699e-01,9.102733135223388672e-01,9.102308154106140137e-01,9.101884365081787109e-01,9.101459980010986328e-01,9.101036190986633301e-01,9.100611805915832520e-01,9.100188016891479492e-01,9.099764823913574219e-01,9.099340438842773438e-01,9.098916649818420410e-01,9.098492264747619629e-01,9.098069071769714355e-01,9.097644686698913574e-01,9.097221493721008301e-01,9.096798300743103027e-01,9.096373915672302246e-01,9.095950722694396973e-01,9.095526933670043945e-01,9.095103740692138672e-01,9.094679951667785645e-01,9.094256758689880371e-01,9.093834161758422852e-01,9.093409776687622070e-01,9.092987179756164551e-01,9.092563390731811523e-01,9.092140793800354004e-01,9.091717004776000977e-01,9.091293811798095703e-01,9.090871214866638184e-01,9.090448021888732910e-01,9.090025424957275391e-01,9.089601635932922363e-01,9.089179039001464844e-01,9.088755846023559570e-01,9.088333249092102051e-01,9.087910652160644531e-01,9.087487459182739258e-01,9.087065458297729492e-01,9.086642265319824219e-01,9.086219668388366699e-01,9.085796475410461426e-01,9.085374474525451660e-01,9.084952473640441895e-01,9.084529280662536621e-01,9.084107279777526855e-01,9.083684086799621582e-01,9.083262085914611816e-01,9.082839488983154297e-01,9.082417488098144531e-01,9.081995487213134766e-01,9.081572890281677246e-01,9.081151485443115234e-01,9.080728292465209961e-01,9.080306887626647949e-01,9.079884290695190430e-01,9.079462885856628418e-01,9.079040884971618652e-01,9.078618288040161133e-01,9.078196883201599121e-01,9.077774286270141602e-01,9.077352881431579590e-01,9.076930880546569824e-01,9.076509475708007812e-01,9.076088070869445801e-01,9.075666069984436035e-01,9.075244665145874023e-01,9.074822664260864258e-01,9.074401259422302246e-01,9.073979258537292480e-01,9.073558449745178223e-01,9.073137044906616211e-01,9.072715640068054199e-01,9.072294235229492188e-01,9.071872830390930176e-01,9.071451425552368164e-01,9.071030020713806152e-01,9.070609211921691895e-01,9.070188403129577637e-01
8.635420203208923340e-01,8.635038733482360840e-01,8.634656667709350586e-01,8.634275794029235840e-01,8.633893728256225586e-01,8.633512258529663086e-01,8.633130192756652832e-01,8.632749319076538086e-01,8.632367849349975586e-01,8.631985783576965332e-01,8.631604909896850586e-01,8.631222844123840332e-01,8.630841970443725586e-01,8.630460500717163086e-01,8.630079627037048340e-01,8.629698753356933594e-01,8.629316687583923340e-01,8.628935813903808594e-01,8.628554344177246094e-01,8.628173470497131348e-01,8.627792000770568848e-01,8.627411127090454102e-01,8.627030849456787109e-01,8.626649379730224609e-01,8.626268506050109863e-01,8.625887036323547363e-01,8.625506758689880371e-01,8.625125288963317871e-01,8.624745011329650879e-01,8.624364733695983887e-01,8.623983263969421387e-01,8.623602986335754395e-01,8.623221516609191895e-01,8.622841238975524902e-01,8.622460365295410156e-01,8.622080087661743164e-01,8.621699810028076172e-01,8.621318936347961426e-01,8.620938658714294434e-01,8.620557785034179688e-01,8.620178103446960449e-01,8.619797229766845703e-01,8.619416952133178711e-01,8.619037270545959473e-01,8.618656396865844727e-01,8.618276119232177734e-01,8.617895841598510742e-01,8.617516160011291504e-01,8.617135286331176758e-01,8.616755604743957520e-01,8.616375923156738281e-01,8.615995049476623535e-01,8.615615367889404297e-01,8.615235090255737305e-01,8.614855408668518066e-01,8.614475131034851074e-01,8.614095449447631836e-01,8.613716363906860352e-01,8.613336086273193359e-01,8.612956404685974121e-01,8.612576127052307129e-01,8.612197041511535645e-01,8.611816763877868652e-01,8.611437678337097168e-01,8.611057996749877930e-01,8.610678315162658691e-01,8.610299229621887207e-01,8.609918951988220215e-01,8.609539866447448730e-01,8.609160184860229492e-01,8.608781099319458008e-01,8.608402013778686523e-01,8.608022332191467285e-01,8.607643246650695801e-01,8.607263565063476562e-01,8.606884479522705078e-01,8.606504797935485840e-01,8.606126308441162109e-01,8.605747222900390625e-01,8.605367541313171387e-01
8.213056325912475586e-01,8.212710618972778320e-01,8.212365508079528809e-01,8.212019801139831543e-01,8.211675286293029785e-01,8.211329579353332520e-01,8.210984468460083008e-01,8.210639953613281250e-01,8.210294246673583984e-01,8.209949731826782227e-01,8.209604024887084961e-01,8.209259510040283203e-01,8.208913803100585938e-01,8.208569288253784180e-01,8.208224773406982422e-01,8.207879662513732910e-01,8.207535147666931152e-01,8.207190036773681641e-01,8.206845521926879883e-01,8.206499814987182617e-01,8.206155896186828613e-01,8.205811381340026855e-01,8.205466270446777344e-01,8.205121755599975586e-01,8.204776644706726074e-01,8.204432725906372070e-01,8.204087615013122559e-01,8.203743100166320801e-01,8.203399181365966797e-01,8.203054070472717285e-01,8.202710151672363281e-01,8.202365040779113770e-01,8.202021121978759766e-01,8.201676607131958008e-01,8.201332092285156250e-01,8.200988173484802246e-01,8.200643658638000488e-01,8.200299739837646484e-01,8.199955224990844727e-01,8.199611306190490723e-01,8.199266791343688965e-01,8.198922872543334961e-01,8.198578953742980957e-01,8.198234438896179199e-01,8.197890520095825195e-01,8.197546601295471191e-01,8.197202682495117188e-01,8.196858167648315430e-01,8.196514844894409180e-01,8.196170926094055176e-01,8.195827007293701172e-01,8.195483088493347168e-01,8.195139169692993164e-01,8.194795250892639160e-01,8.194451332092285156e-01,8.194108009338378906e-01,8.193764686584472656e-01,8.193420171737670898e-01,8.193076848983764648e-01,8.192732930183410645e-01,8.192389607429504395e-01,8.192045688629150391e-01,8.191702365875244141e-01,8.191359639167785645e-01,8.191015720367431641e-01,8.190672397613525391e-01,8.190328478813171387e-01,8.189985156059265137e-01,8.189641833305358887e-01,8.189298510551452637e-01,8.188955783843994141e-01,8.188611865043640137e-01,8.188269138336181641e-01,8.187925219535827637e-01,8.187582492828369141e-01,8.187239766120910645e-01,8.186895847320556641e-01,8.186553120613098145e-01,8.186209797859191895e-01,8.185867071151733398e-01
7.830081582069396973e-01,7.829768061637878418e-01,7.829453349113464355e-01,7.829139828681945801e-01,7.828825712203979492e-01,7.828512787818908691e-01,7.828199267387390137e-01,7.827885150909423828e-01,7.827571630477905273e-01,7.827257513999938965e-01,7.826943993568420410e-01,7.826630473136901855e-01,7.826316952705383301e-01,7.826004028320312500e-01,7.825689911842346191e-01,7.825376391410827637e-01,7.825062870979309082e-01,7.824749350547790527e-01,7.824435830116271973e-01,7.824122905731201172e-01,7.823809385299682617e-01,7.823495864868164062e-01,7.823182940483093262e-01,7.822868824005126953e-01,7.822555899620056152e-01,7.822242379188537598e-01,7.821929454803466797e-01,7.821616530418395996e-01,7.821303009986877441e-01,7.820990085601806641e-01,7.820676565170288086e-01,7.820364236831665039e-01,7.820050716400146484e-01,7.819737792015075684e-01,7.819424867630004883e-01,7.819111347198486328e-01,7.818799018859863281e-01,7.818485498428344727e-01,7.818173170089721680e-01,7.817859649658203125e-01,7.817547321319580078e-01,7.817234396934509277e-01,7.816921472549438477e-01,7.816609144210815430e-01,7.816295623779296875e-01,7.815983295440673828e-01,7.815670371055603027e-01,7.815357446670532227e-01,7.815045118331909180e-01,7.814732193946838379e-01,7.814419865608215332e-01,7.814106941223144531e-01,7.813794612884521484e-01,7.813482284545898438e-01,7.813169360160827637e-01,7.812857627868652344e-01,7.812544703483581543e-01,7.812232375144958496e-01,7.811919450759887695e-01,7.811607122421264648e-01,7.811295390129089355e-01,7.810982465744018555e-01,7.810670733451843262e-01,7.810357809066772461e-01,7.810046076774597168e-01,7.809733152389526367e-01,7.809421420097351074e-01,7.809109687805175781e-01,7.808796763420104980e-01,7.808485031127929688e-01,7.808172702789306641e-01,7.807860970497131348e-01,7.807548046112060547e-01,7.807236313819885254e-01,7.806924581527709961e-01,7.806612253189086914e-01,7.806300520896911621e-01,7.805988192558288574e-01,7.805677056312561035e-01,7.805364727973937988e-01
7.481231689453125000e-01,7.480944991111755371e-01,7.480658888816833496e-01,7.480372190475463867e-01,7.480086088180541992e-01,7.479799985885620117e-01,7.479512691497802734e-01,7.479227185249328613e-01,7.478939890861511230e-01,7.478654384613037109e-01,7.478367686271667480e-01,7.478081583976745605e-01,7.477795481681823730e-01,7.477508783340454102e-01,7.477222681045532227e-01,7.476936578750610352e-01,7.476650476455688477e-01,7.476364374160766602e-01,7.476078271865844727e-01,7.475792169570922852e-01,7.475505471229553223e-01,7.475219964981079102e-01,7.474933266639709473e-01,7.474647760391235352e-01,7.474362254142761230e-01,7.474075555801391602e-01,7.473790049552917480e-01,7.473503947257995605e-01,7.473217844963073730e-01,7.472931742668151855e-01,7.472646236419677734e-01,7.472360730171203613e-01,7.472074627876281738e-01,7.471789121627807617e-01,7.471503019332885742e-01,7.471217513084411621e-01,7.470931410789489746e-01,7.470645904541015625e-01,7.470360398292541504e-01,7.470074295997619629e-01,7.469788789749145508e-01,7.469502687454223633e-01,7.469217777252197266e-01,7.468931674957275391e-01,7.468646168708801270e-01,7.468361258506774902e-01,7.468075156211853027e-01,7.467790246009826660e-01,7.467504143714904785e-01,7.467218637466430664e-01,7.466933131217956543e-01,7.466648221015930176e-01,7.466362714767456055e-01,7.466077208518981934e-01,7.465792298316955566e-01,7.465506196022033691e-01,7.465221285820007324e-01,7.464935779571533203e-01,7.464650869369506836e-01,7.464365959167480469e-01,7.464080452919006348e-01,7.463795542716979980e-01,7.463509440422058105e-01,7.463225126266479492e-01,7.462939620018005371e-01,7.462654709815979004e-01,7.462369799613952637e-01,7.462084293365478516e-01,7.461799383163452148e-01,7.461513876914978027e-01,7.461229562759399414e-01,7.460944056510925293e-01,7.460659146308898926e-01,7.460374832153320312e-01,7.460089325904846191e-01,7.459805011749267578e-01,7.459519505500793457e-01,7.459235191345214844e-01,7.458949685096740723e-01,7.458665370941162109e-01
7.162140011787414551e-01,7.161877751350402832e-01,7.161615490913391113e-01,7.161352634429931641e-01,7.161090373992919922e-01,7.160827517509460449e-01,7.160565257072448730e-01,7.160302400588989258e-01,7.160040140151977539e-01,7.159778475761413574e-01,7.159515619277954102e-01,7.159253358840942383e-01,7.158990502357482910e-01,7.158728241920471191e-01,7.158465981483459473e-01,7.158203721046447754e-01,7.157941460609436035e-01,7.157679200172424316e-01,7.157416939735412598e-01,7.157154679298400879e-01,7.156892418861389160e-01,7.156630158424377441e-01,7.156367897987365723e-01,7.156106233596801758e-01,7.155843377113342285e-01,7.155581712722778320e-01,7.155319452285766602e-01,7.155057787895202637e-01,7.154794931411743164e-01,7.154533267021179199e-01,7.154271602630615234e-01,7.154009342193603516e-01,7.153747677803039551e-01,7.153485417366027832e-01,7.153223752975463867e-01,7.152961492538452148e-01,7.152699828147888184e-01,7.152438163757324219e-01,7.152175903320312500e-01,7.151914238929748535e-01,7.151651978492736816e-01,7.151390314102172852e-01,7.151128053665161133e-01,7.150866985321044922e-01,7.150605320930480957e-01,7.150343060493469238e-01,7.150081992149353027e-01,7.149819731712341309e-01,7.149558067321777344e-01,7.149296402931213379e-01,7.149034738540649414e-01,7.148773670196533203e-01,7.148511409759521484e-01,7.148250341415405273e-01,7.147988080978393555e-01,7.147727012634277344e-01,7.147465348243713379e-01,7.147203683853149414e-01,7.146942615509033203e-01,7.146680951118469238e-01,7.146419882774353027e-01,7.146157622337341309e-01,7.145896553993225098e-01,7.145634889602661133e-01,7.145373821258544922e-01,7.145112752914428711e-01,7.144851088523864746e-01,7.144590020179748535e-01,7.144328355789184570e-01,7.144067287445068359e-01,7.143805623054504395e-01,7.143544554710388184e-01,7.143284082412719727e-01,7.143022418022155762e-01,7.142761349678039551e-01,7.142499685287475586e-01,7.142239212989807129e-01,7.141977548599243164e-01,7.141716480255126953e-01,7.141456007957458496e-01
6.869155764579772949e-01,6.868914365768432617e-01,6.868672370910644531e-01,6.868431568145751953e-01,6.868189573287963867e-01,6.867948174476623535e-01,6.867706179618835449e-01,6.867465376853942871e-01,6.867223978042602539e-01,6.866982579231262207e-01,6.866741180419921875e-01,6.866499781608581543e-01,6.866258382797241211e-01,6.866016983985900879e-01,6.865775585174560547e-01,6.865534782409667969e-01,6.865292787551879883e-01,6.865051984786987305e-01,6.864810585975646973e-01,6.864569187164306641e-01,6.864327788352966309e-01,6.864086985588073730e-01,6.863846182823181152e-01,6.863604187965393066e-01,6.863363385200500488e-01,6.863121986389160156e-01,6.862881183624267578e-01,6.862639784812927246e-01,6.862398982048034668e-01,6.862158179283142090e-01,6.861916780471801758e-01,6.861675977706909180e-01,6.861434578895568848e-01,6.861193776130676270e-01,6.860952377319335938e-01,6.860711574554443359e-01,6.860471367835998535e-01,6.860229969024658203e-01,6.859989166259765625e-01,6.859747767448425293e-01,6.859507560729980469e-01,6.859266161918640137e-01,6.859025359153747559e-01,6.858785152435302734e-01,6.858543753623962402e-01,6.858302950859069824e-01,6.858062148094177246e-01,6.857821345329284668e-01,6.857580542564392090e-01,6.857340335845947266e-01,6.857099533081054688e-01,6.856858730316162109e-01,6.856617927551269531e-01,6.856377124786376953e-01,6.856136918067932129e-01,6.855895519256591797e-01,6.855655312538146973e-01,6.855415105819702148e-01,6.855174303054809570e-01,6.854934096336364746e-01,6.854692697525024414e-01,6.854452490806579590e-01,6.854211688041687012e-01,6.853971481323242188e-01,6.853731274604797363e-01,6.853490471839904785e-01,6.853250265121459961e-01,6.853009462356567383e-01,6.852769255638122559e-01,6.852529048919677734e-01,6.852288842201232910e-01,6.852048635482788086e-01,6.851807832717895508e-01,6.851567625999450684e-01,6.851327419281005859e-01,6.851087212562561035e-01,6.850846409797668457e-01,6.850606799125671387e-01,6.850366592407226562e-01,6.850125789642333984e-01
6.599199771881103516e-01,6.598976254463195801e-01,6.598753333091735840e-01,6.598530411720275879e-01,6.598307490348815918e-01,6.598084568977355957e-01,6.597862243652343750e-01,6.597639322280883789e-01,6.597416400909423828e-01,6.597193479537963867e-01,6.596970558166503906e-01,6.596748232841491699e-01,6.596524715423583984e-01,6.596302390098571777e-01,6.596080064773559570e-01,6.595857143402099609e-01,6.595634222030639648e-01,6.595411300659179688e-01,6.595188975334167480e-01,6.594966053962707520e-01,6.594743728637695312e-01,6.594521403312683105e-01,6.594298481941223145e-01,6.594076156616210938e-01,6.593853235244750977e-01,6.593630909919738770e-01,6.593407988548278809e-01,6.593185663223266602e-01,6.592963337898254395e-01,6.592740416526794434e-01,6.592518091201782227e-01,6.592295169830322266e-01,6.592073440551757812e-01,6.591850519180297852e-01,6.591628193855285645e-01,6.591405868530273438e-01,6.591183543205261230e-01,6.590961217880249023e-01,6.590738296508789062e-01,6.590516567230224609e-01,6.590293645858764648e-01,6.590071916580200195e-01,6.589849591255187988e-01,6.589626669883728027e-01,6.589404940605163574e-01,6.589182019233703613e-01,6.588960289955139160e-01,6.588737964630126953e-01,6.588515639305114746e-01,6.588293910026550293e-01,6.588070988655090332e-01,6.587849259376525879e-01,6.587626934051513672e-01,6.587405204772949219e-01,6.587182283401489258e-01,6.586960554122924805e-01,6.586738824844360352e-01,6.586516499519348145e-01,6.586294174194335938e-01,6.586071848869323730e-01,6.585850119590759277e-01,6.585627794265747070e-01,6.585406064987182617e-01,6.585184335708618164e-01,6.584962010383605957e-01,6.584740281105041504e-01,6.584517955780029297e-01,6.584296226501464844e-01,6.584073901176452637e-01,6.583852767944335938e-01,6.583631038665771484e-01,6.583408713340759277e-01,6.583186984062194824e-01,6.582964658737182617e-01,6.582742929458618164e-01,6.582521200180053711e-01,6.582299470901489258e-01,6.582077741622924805e-01,6.581856012344360352e-01,6.581634283065795898e-01
6.349658966064453125e-01,6.349452733993530273e-01,6.349245905876159668e-01,6.349039673805236816e-01,6.348833441734313965e-01,6.348627209663391113e-01,6.348420977592468262e-01,6.348214149475097656e-01,6.348008513450622559e-01,6.347801685333251953e-01,6.347595453262329102e-01,6.347389221191406250e-01,6.347182989120483398e-01,6.346977353096008301e-01,6.346770524978637695e-01,6.346564888954162598e-01,6.346358060836791992e-01,6.346152424812316895e-01,6.345945596694946289e-01,6.345739960670471191e-01,6.345533728599548340e-01,6.345327496528625488e-01,6.345121860504150391e-01,6.344915032386779785e-01,6.344709396362304688e-01,6.344503164291381836e-01,6.344296932220458984e-01,6.344091296195983887e-01,6.343885064125061035e-01,6.343679428100585938e-01,6.343473196029663086e-01,6.343266963958740234e-01,6.343060731887817383e-01,6.342855095863342285e-01,6.342649459838867188e-01,6.342443227767944336e-01,6.342237591743469238e-01,6.342031359672546387e-01,6.341825723648071289e-01,6.341619491577148438e-01,6.341413855552673340e-01,6.341208219528198242e-01,6.341001987457275391e-01,6.340796351432800293e-01,6.340590119361877441e-01,6.340384483337402344e-01,6.340178847312927246e-01,6.339973211288452148e-01,6.339767575263977051e-01,6.339561343193054199e-01,6.339356303215026855e-01,6.339150071144104004e-01,6.338944435119628906e-01,6.338738799095153809e-01,6.338533163070678711e-01,6.338327527046203613e-01,6.338121891021728516e-01,6.337916254997253418e-01,6.337710618972778320e-01,6.337504982948303223e-01,6.337299346923828125e-01,6.337093710899353027e-01,6.336888670921325684e-01,6.336682438850402832e-01,6.336476802825927734e-01,6.336271166801452637e-01,6.336066126823425293e-01,6.335859894752502441e-01,6.335654854774475098e-01,6.335449814796447754e-01,6.335244178771972656e-01,6.335038542747497559e-01,6.334832906723022461e-01,6.334627866744995117e-01,6.334422230720520020e-01,6.334216594696044922e-01,6.334011554718017578e-01,6.333805918693542480e-01,6.333600878715515137e-01,6.333395242691040039e-01
6.118303537368774414e-01,6.118111610412597656e-01,6.117920279502868652e-01,6.117728352546691895e-01,6.117537021636962891e-01,6.117345690727233887e-01,6.117153763771057129e-01,6.116962432861328125e-01,6.116770505905151367e-01,6.116579174995422363e-01,6.116387248039245605e-01,6.116195917129516602e-01,6.116004586219787598e-01,6.115813255310058594e-01,6.115621924400329590e-01,6.115429997444152832e-01,6.115238666534423828e-01,6.115047335624694824e-01,6.114856004714965820e-01,6.114664673805236816e-01,6.114472746849060059e-01,6.114282011985778809e-01,6.114090085029602051e-01,6.113898754119873047e-01,6.113707423210144043e-01,6.113516092300415039e-01,6.113325357437133789e-01,6.113133430480957031e-01,6.112942695617675781e-01,6.112750768661499023e-01,6.112560033798217773e-01,6.112368106842041016e-01,6.112177371978759766e-01,6.111986041069030762e-01,6.111794710159301758e-01,6.111603975296020508e-01,6.111412048339843750e-01,6.111221313476562500e-01,6.111029982566833496e-01,6.110838651657104492e-01,6.110647916793823242e-01,6.110456585884094238e-01,6.110265254974365234e-01,6.110073924064636230e-01,6.109883189201354980e-01,6.109691858291625977e-01,6.109501123428344727e-01,6.109310388565063477e-01,6.109119057655334473e-01,6.108927726745605469e-01,6.108736395835876465e-01,6.108545660972595215e-01,6.108354330062866211e-01,6.108163595199584961e-01,6.107972860336303711e-01,6.107781529426574707e-01,6.107590794563293457e-01,6.107399463653564453e-01,6.107208728790283203e-01,6.107017993927001953e-01,6.106827259063720703e-01,6.106636524200439453e-01,6.106445193290710449e-01,6.106254458427429199e-01,6.106063127517700195e-01,6.105872392654418945e-01,6.105682253837585449e-01,6.105490922927856445e-01,6.105300188064575195e-01,6.105109453201293945e-01,6.104918718338012695e-01,6.104727387428283691e-01,6.104537248611450195e-01,6.104346513748168945e-01,6.104155182838439941e-01,6.103965044021606445e-01,6.103773713111877441e-01,6.103583574295043945e-01,6.103392243385314941e-01,6.103202104568481445e-01
5.903213620185852051e-01,5.903035402297973633e-01,5.902857184410095215e-01,5.902678966522216797e-01,5.902500748634338379e-01,5.902321934700012207e-01,5.902143716812133789e-01,5.901965498924255371e-01,5.901787281036376953e-01,5.901608467102050781e-01,5.901430845260620117e-01,5.901252627372741699e-01,5.901073813438415527e-01,5.900896191596984863e-01,5.900717377662658691e-01,5.900539159774780273e-01,5.900360941886901855e-01,5.900182723999023438e-01,5.900005102157592773e-01,5.899826288223266602e-01,5.899648666381835938e-01,5.899469852447509766e-01,5.899292230606079102e-01,5.899113416671752930e-01,5.898935794830322266e-01,5.898757576942443848e-01,5.898579359054565430e-01,5.898401737213134766e-01,5.898223519325256348e-01,5.898045301437377930e-01,5.897867083549499512e-01,5.897689461708068848e-01,5.897511243820190430e-01,5.897333025932312012e-01,5.897155404090881348e-01,5.896977186203002930e-01,5.896798968315124512e-01,5.896621346473693848e-01,5.896443128585815430e-01,5.896265506744384766e-01,5.896087288856506348e-01,5.895909070968627930e-01,5.895730853080749512e-01,5.895553231239318848e-01,5.895375609397888184e-01,5.895197391510009766e-01,5.895019769668579102e-01,5.894841551780700684e-01,5.894663929939270020e-01,5.894485712051391602e-01,5.894308090209960938e-01,5.894130468368530273e-01,5.893952250480651855e-01,5.893774628639221191e-01,5.893596410751342773e-01,5.893418788909912109e-01,5.893241167068481445e-01,5.893063545227050781e-01,5.892885923385620117e-01,5.892707705497741699e-01,5.892530083656311035e-01,5.892352461814880371e-01,5.892174839973449707e-01,5.891996622085571289e-01,5.891819000244140625e-01,5.891641378402709961e-01,5.891463756561279297e-01,5.891286134719848633e-01,5.891108512878417969e-01,5.890930891036987305e-01,5.890752673149108887e-01,5.890575647354125977e-01,5.890398025512695312e-01,5.890220403671264648e-01,5.890042781829833984e-01,5.889865159988403320e-01,5.889687538146972656e-01,5.889509916305541992e-01,5.889332294464111328e-01,5.889154672622680664e-01
5.702734589576721191e-01,5.702567696571350098e-01,5.702401399612426758e-01,5.702235102653503418e-01,5.702068209648132324e-01,5.701901912689208984e-01,5.701735615730285645e-01,5.701569318771362305e-01,5.701403021812438965e-01,5.701236128807067871e-01,5.701069831848144531e-01,5.700903534889221191e-01,5.700737237930297852e-01,5.700570940971374512e-01,5.700404644012451172e-01,5.700238347053527832e-01,5.700071454048156738e-01,5.699905753135681152e-01,5.699738860130310059e-01,5.699573159217834473e-01,5.699406266212463379e-01,5.699240565299987793e-01,5.699074268341064453e-01,5.698907375335693359e-01,5.698741674423217773e-01,5.698575377464294434e-01,5.698409080505371094e-01,5.698242783546447754e-01,5.698076486587524414e-01,5.697910785675048828e-01,5.697743892669677734e-01,5.697578191757202148e-01,5.697411894798278809e-01,5.697245597839355469e-01,5.697079300880432129e-01,5.696913003921508789e-01,5.696747303009033203e-01,5.696581006050109863e-01,5.696415305137634277e-01,5.696248412132263184e-01,5.696082711219787598e-01,5.695916414260864258e-01,5.695750713348388672e-01,5.695584416389465332e-01,5.695418119430541992e-01,5.695252418518066406e-01,5.695086121559143066e-01,5.694920420646667480e-01,5.694754123687744141e-01,5.694588422775268555e-01,5.694422125816345215e-01,5.694256424903869629e-01,5.694090127944946289e-01,5.693924427032470703e-01,5.693758130073547363e-01,5.693592429161071777e-01,5.693426132202148438e-01,5.693260431289672852e-01,5.693094730377197266e-01,5.692928433418273926e-01,5.692762732505798340e-01,5.692597031593322754e-01,5.692430734634399414e-01,5.692265033721923828e-01,5.692099332809448242e-01,5.691933035850524902e-01,5.691767334938049316e-01,5.691601634025573730e-01,5.691435933113098145e-01,5.691269636154174805e-01,5.691103935241699219e-01,5.690938234329223633e-01,5.690772533416748047e-01,5.690606832504272461e-01,5.690441131591796875e-01,5.690275430679321289e-01,5.690109133720397949e-01,5.689944028854370117e-01,5.689778327941894531e-01,5.689612030982971191e-01
