5.000000000000000000e+00,5.000000000000000000e+00,5.000000000000000000e+00,5.000000000000000000e+00,5.000000000000000000e+00,5.000000000000000000e+00,5.000000000000000000e+00,5.000000000000000000e+00,5.000000000000000000e+00,5.000000000000000000e+00,5.000000000000000000e+00,5.000000000000000000e+00,5.000000000000000000e+00,5.000000000000000000e+00,5.000000000000000000e+00,5.000000000000000000e+00,5.000000000000000000e+00,5.000000000000000000e+00,5.000000000000000000e+00,5.000000000000000000e+00,5.000000000000000000e+00,5.000000000000000000e+00,5.000000000000000000e+00,5.000000000000000000e+00,5.000000000000000000e+00,5.000000000000000000e+00,5.000000000000000000e+00,5.000000000000000000e+00,5.000000000000000000e+00,5.000000000000000000e+00,2.212839603424072266e+00,2.202669620513916016e+00,2.174855947494506836e+00,2.145262479782104492e+00,2.129009008407592773e+00,2.130127191543579102e+00,2.147037267684936523e+00,2.173498630523681641e+00,2.200597763061523438e+00,2.355124235153198242e+00,2.342549085617065430e+00,2.376948356628417969e+00,4.320993900299072266e+00,4.169575214385986328e+00,4.028408527374267578e+00,3.896488666534423828e+00,3.772934198379516602e+00,3.656974554061889648e+00,3.547930479049682617e+00,3.445200920104980469e+00,3.348253011703491211e+00,3.256612300872802734e+00,3.169853925704956055e+00,3.087598323822021484e+00,3.009503841400146484e+00,2.935262203216552734e+00,2.864595413208007812e+00,2.797251224517822266e+00,2.733000755310058594e+00,2.671635627746582031e+00,2.612965583801269531e+00,2.556817054748535156e+00,2.503030776977539062e+00,2.451460838317871094e+00,2.401973009109497070e+00,2.354443788528442383e+00,2.308758735656738281e+00,2.264813184738159180e+00,2.222509145736694336e+00,2.181756734848022461e+00,2.142471551895141602e+00,2.104576349258422852e+00,2.067998170852661133e+00,2.032670021057128906e+00,1.998528599739074707e+00,1.965515136718750000e+00,1.933574557304382324e+00,1.902655482292175293e+00,1.872709631919860840e+00,1.843691825866699219e+00
5.000000000000000000e+00,5.000000000000000000e+00,5.000000000000000000e+00,5.000000000000000000e+00,5.000000000000000000e+00,5.000000000000000000e+00,5.000000000000000000e+00,5.000000000000000000e+00,5.000000000000000000e+00,5.000000000000000000e+00,5.000000000000000000e+00,5.000000000000000000e+00,5.000000000000000000e+00,5.000000000000000000e+00,5.000000000000000000e+00,5.000000000000000000e+00,5.000000000000000000e+00,5.000000000000000000e+00,5.000000000000000000e+00,5.000000000000000000e+00,5.000000000000000000e+00,5.000000000000000000e+00,5.000000000000000000e+00,5.000000000000000000e+00,5.000000000000000000e+00,5.000000000000000000e+00,5.000000000000000000e+00,5.000000000000000000e+00,5.000000000000000000e+00,5.000000000000000000e+00,2.221311569213867188e+00,2.215849637985229492e+00,2.168599843978881836e+00,2.141663312911987305e+00,2.128298521041870117e+00,2.126282215118408203e+00,2.140325546264648438e+00,2.162635564804077148e+00,2.191336393356323242e+00,2.367541313171386719e+00,2.354974985122680664e+00,2.380797147750854492e+00,4.321102619171142578e+00,4.169676303863525391e+00,4.028503417968750000e+00,3.896576881408691406e+00,3.773016929626464844e+00,3.657052755355834961e+00,3.548004150390625000e+00,3.445270299911499023e+00,3.348318576812744141e+00,3.256674289703369141e+00,3.169912576675415039e+00,3.087654113769531250e+00,3.009556770324707031e+00,2.935312509536743164e+00,2.864643335342407227e+00,2.797296762466430664e+00,2.733044385910034180e+00,2.671677112579345703e+00,2.613005399703979492e+00,2.556855201721191406e+00,2.503067255020141602e+00,2.451495885848999023e+00,2.402006626129150391e+00,2.354476213455200195e+00,2.308789968490600586e+00,2.264843225479125977e+00,2.222537994384765625e+00,2.181784391403198242e+00,2.142498493194580078e+00,2.104602098464965820e+00,2.068023204803466797e+00,2.032694101333618164e+00,1.998551964759826660e+00,1.965537667274475098e+00,1.933596372604370117e+00,1.902676582336425781e+00,1.872730135917663574e+00,1.843711614608764648e+00
5.000000000000000000e+00,5.000000000000000000e+00,5.000000000000000000e+00,5.000000000000000000e+00,5.000000000000000000e+00,5.000000000000000000e+00,5.000000000000000000e+00,5.000000000000000000e+00,5.000000000000000000e+00,5.000000000000000000e+00,5.000000000000000000e+00,5.000000000000000000e+00,5.000000000000000000e+00,5.000000000000000000e+00,5.000000000000000000e+00,5.000000000000000000e+00,5.000000000000000000e+00,5.000000000000000000e+00,5.000000000000000000e+00,5.000000000000000000e+00,5.000000000000000000e+00,5.000000000000000000e+00,5.000000000000000000e+00,5.000000000000000000e+00,5.000000000000000000e+00,5.000000000000000000e+00,5.000000000000000000e+00,5.000000000000000000e+00,5.000000000000000000e+00,5.000000000000000000e+00,2.223285675048828125e+00,2.221970319747924805e+00,2.172833919525146484e+00,2.140740156173706055e+00,2.136827468872070312e+00,2.137620449066162109e+00,2.149290084838867188e+00,2.169129371643066406e+00,2.211555480957031250e+00,2.375521183013916016e+00,2.356924533843994141e+00,2.362724065780639648e+00,4.321211814880371094e+00,4.169777393341064453e+00,4.028598308563232422e+00,3.896665573120117188e+00,3.773100137710571289e+00,3.657130479812622070e+00,3.548077106475830078e+00,3.445339202880859375e+00,3.348383665084838867e+00,3.256735801696777344e+00,3.169971227645874023e+00,3.087709665298461914e+00,3.009609699249267578e+00,2.935362815856933594e+00,2.864691257476806641e+00,2.797342538833618164e+00,2.733088016510009766e+00,2.671718835830688477e+00,2.613045215606689453e+00,2.556893348693847656e+00,2.503103733062744141e+00,2.451530933380126953e+00,2.402040243148803711e+00,2.354508399963378906e+00,2.308820962905883789e+00,2.264873027801513672e+00,2.222566843032836914e+00,2.181812286376953125e+00,2.142525196075439453e+00,2.104628086090087891e+00,2.068048238754272461e+00,2.032718420028686523e+00,1.998575210571289062e+00,1.965560197830200195e+00,1.933618187904357910e+00,1.902697682380676270e+00,1.872750520706176758e+00,1.843731522560119629e+00
5.000000000000000000e+00,5.000000000000000000e+00,5.000000000000000000e+00,5.000000000000000000e+00,5.000000000000000000e+00,5.000000000000000000e+00,5.000000000000000000e+00,5.000000000000000000e+00,5.000000000000000000e+00,5.000000000000000000e+00,5.000000000000000000e+00,5.000000000000000000e+00,5.000000000000000000e+00,5.000000000000000000e+00,5.000000000000000000e+00,5.000000000000000000e+00,5.000000000000000000e+00,5.000000000000000000e+00,5.000000000000000000e+00,5.000000000000000000e+00,5.000000000000000000e+00,5.000000000000000000e+00,5.000000000000000000e+00,5.000000000000000000e+00,5.000000000000000000e+00,5.000000000000000000e+00,5.000000000000000000e+00,5.000000000000000000e+00,5.000000000000000000e+00,5.000000000000000000e+00,2.206581592559814453e+00,2.207676887512207031e+00,2.160144090652465820e+00,2.136427164077758789e+00,2.136610507965087891e+00,2.141840219497680664e+00,2.152856826782226562e+00,2.171196699142456055e+00,2.205967903137207031e+00,2.393690586090087891e+00,2.342905044555664062e+00,2.340498685836791992e+00,4.321320533752441406e+00,4.169878959655761719e+00,4.028692722320556641e+00,3.896754264831542969e+00,3.773183107376098633e+00,3.657208681106567383e+00,3.548150777816772461e+00,3.445408582687377930e+00,3.348449230194091797e+00,3.256797790527343750e+00,3.170029640197753906e+00,3.087765216827392578e+00,3.009662151336669922e+00,2.935412883758544922e+00,2.864738941192626953e+00,2.797388315200805664e+00,2.733131647109985352e+00,2.671760559082031250e+00,2.613085031509399414e+00,2.556931495666503906e+00,2.503140449523925781e+00,2.451565980911254883e+00,2.402073860168457031e+00,2.354540824890136719e+00,2.308851957321166992e+00,2.264903068542480469e+00,2.222595691680908203e+00,2.181839942932128906e+00,2.142551898956298828e+00,2.104653835296630859e+00,2.068073034286499023e+00,2.032742500305175781e+00,1.998598575592041016e+00,1.965582847595214844e+00,1.933640003204345703e+00,1.902718901634216309e+00,1.872771024703979492e+00,1.843751430511474609e+00
5.000000000000000000e+00,5.000000000000000000e+00,5.000000000000000000e+00,5.000000000000000000e+00,5.000000000000000000e+00,5.000000000000000000e+00,5.000000000000000000e+00,5.000000000000000000e+00,5.000000000000000000e+00,5.000000000000000000e+00,5.000000000000000000e+00,5.000000000000000000e+00,5.000000000000000000e+00,5.000000000000000000e+00,5.000000000000000000e+00,5.000000000000000000e+00,5.000000000000000000e+00,5.000000000000000000e+00,5.000000000000000000e+00,5.000000000000000000e+00,5.000000000000000000e+00,5.000000000000000000e+00,5.000000000000000000e+00,5.000000000000000000e+00,5.000000000000000000e+00,5.000000000000000000e+00,5.000000000000000000e+00,5.000000000000000000e+00,5.000000000000000000e+00,5.000000000000000000e+00,2.200763463973999023e+00,2.198855638504028320e+00,2.152386665344238281e+00,2.122789382934570312e+00,2.127833366394042969e+00,2.162160873413085938e+00,2.174340724945068359e+00,2.191011667251586914e+00,2.212459087371826172e+00,4.849853992462158203e+00,2.338016986846923828e+00,2.321055173873901367e+00,4.321429729461669922e+00,4.169980525970458984e+00,4.028787136077880859e+00,3.896842479705810547e+00,3.773266315460205078e+00,3.657286882400512695e+00,3.548224210739135742e+00,3.445477962493896484e+00,3.348514795303344727e+00,3.256859779357910156e+00,3.170088529586791992e+00,3.087820768356323242e+00,3.009715080261230469e+00,2.935463190078735352e+00,2.864786863327026367e+00,2.797433614730834961e+00,2.733175039291381836e+00,2.671802043914794922e+00,2.613124847412109375e+00,2.556969404220581055e+00,2.503176927566528320e+00,2.451601028442382812e+00,2.402107715606689453e+00,2.354573011398315430e+00,2.308883190155029297e+00,2.264932870864868164e+00,2.222624540328979492e+00,2.181867599487304688e+00,2.142578840255737305e+00,2.104679584503173828e+00,2.068098068237304688e+00,2.032766580581665039e+00,1.998621702194213867e+00,1.965605139732360840e+00,1.933661699295043945e+00,1.902739763259887695e+00,1.872791528701782227e+00,1.843771219253540039e+00
5.000000000000000000e+00,5.000000000000000000e+00,5.000000000000000000e+00,5.000000000000000000e+00,5.000000000000000000e+00,5.000000000000000000e+00,5.000000000000000000e+00,5.000000000000000000e+00,5.000000000000000000e+00,5.000000000000000000e+00,5.000000000000000000e+00,5.000000000000000000e+00,5.000000000000000000e+00,5.000000000000000000e+00,5.000000000000000000e+00,5.000000000000000000e+00,5.000000000000000000e+00,5.000000000000000000e+00,5.000000000000000000e+00,5.000000000000000000e+00,5.000000000000000000e+00,5.000000000000000000e+00,5.000000000000000000e+00,5.000000000000000000e+00,5.000000000000000000e+00,5.000000000000000000e+00,5.000000000000000000e+00,5.000000000000000000e+00,5.000000000000000000e+00,5.000000000000000000e+00,2.196703433990478516e+00,2.190294027328491211e+00,2.141757726669311523e+00,2.102121591567993164e+00,2.104931831359863281e+00,2.118032217025756836e+00,2.197552680969238281e+00,2.213214159011840820e+00,2.213437080383300781e+00,2.263222694396972656e+00,2.362151384353637695e+00,2.307964324951171875e+00,2.314519643783569336e+00,4.170082092285156250e+00,4.028882026672363281e+00,3.896931171417236328e+00,3.773349046707153320e+00,3.657364606857299805e+00,3.548297405242919922e+00,3.445547103881835938e+00,3.348579883575439453e+00,3.256921768188476562e+00,3.170147180557250977e+00,3.087876558303833008e+00,3.009768009185791016e+00,2.935513734817504883e+00,2.864834785461425781e+00,2.797479391098022461e+00,2.733218669891357422e+00,2.671843767166137695e+00,2.613164663314819336e+00,2.557007551193237305e+00,2.503213405609130859e+00,2.451636075973510742e+00,2.402141094207763672e+00,2.354605436325073242e+00,2.308914184570312500e+00,2.264962911605834961e+00,2.222653388977050781e+00,2.181895494461059570e+00,2.142605543136596680e+00,2.104705572128295898e+00,2.068123102188110352e+00,2.032790660858154297e+00,1.998644948005676270e+00,1.965627789497375488e+00,1.933683514595031738e+00,1.902760982513427734e+00,1.872811794281005859e+00,1.843790888786315918e+00
5.000000000000000000e+00,5.000000000000000000e+00,5.000000000000000000e+00,5.000000000000000000e+00,5.000000000000000000e+00,5.000000000000000000e+00,5.000000000000000000e+00,5.000000000000000000e+00,5.000000000000000000e+00,5.000000000000000000e+00,5.000000000000000000e+00,5.000000000000000000e+00,5.000000000000000000e+00,5.000000000000000000e+00,5.000000000000000000e+00,5.000000000000000000e+00,5.000000000000000000e+00,5.000000000000000000e+00,5.000000000000000000e+00,5.000000000000000000e+00,5.000000000000000000e+00,5.000000000000000000e+00,5.000000000000000000e+00,5.000000000000000000e+00,5.000000000000000000e+00,5.000000000000000000e+00,5.000000000000000000e+00,5.000000000000000000e+00,5.000000000000000000e+00,5.000000000000000000e+00,2.185674905776977539e+00,2.179995775222778320e+00,2.134624481201171875e+00,2.095607757568359375e+00,2.096503973007202148e+00,2.097610473632812500e+00,2.148346185684204102e+00,2.200336456298828125e+00,2.201449871063232422e+00,2.233782529830932617e+00,4.660169124603271484e+00,2.312988758087158203e+00,2.305565834045410156e+00,4.170183181762695312e+00,4.028976440429687500e+00,3.897019863128662109e+00,3.773432254791259766e+00,3.657442808151245117e+00,3.548371076583862305e+00,3.445616245269775391e+00,3.348645448684692383e+00,3.256983280181884766e+00,3.170205593109130859e+00,3.087931871414184570e+00,3.009820699691772461e+00,2.935563802719116211e+00,2.864882707595825195e+00,2.797525167465209961e+00,2.733262300491333008e+00,2.671885490417480469e+00,2.613204479217529297e+00,2.557045936584472656e+00,2.503250122070312500e+00,2.451671123504638672e+00,2.402174949645996094e+00,2.354637622833251953e+00,2.308945417404174805e+00,2.264992713928222656e+00,2.222681999206542969e+00,2.181923151016235352e+00,2.142632246017456055e+00,2.104731321334838867e+00,2.068147897720336914e+00,2.032814741134643555e+00,1.998668313026428223e+00,1.965650320053100586e+00,1.933705329895019531e+00,1.902782082557678223e+00,1.872832298278808594e+00,1.843810796737670898e+00
5.000000000000000000e+00,5.000000000000000000e+00,5.000000000000000000e+00,5.000000000000000000e+00,5.000000000000000000e+00,5.000000000000000000e+00,5.000000000000000000e+00,5.000000000000000000e+00,5.000000000000000000e+00,5.000000000000000000e+00,5.000000000000000000e+00,5.000000000000000000e+00,5.000000000000000000e+00,5.000000000000000000e+00,5.000000000000000000e+00,5.000000000000000000e+00,5.000000000000000000e+00,5.000000000000000000e+00,5.000000000000000000e+00,5.000000000000000000e+00,5.000000000000000000e+00,5.000000000000000000e+00,5.000000000000000000e+00,5.000000000000000000e+00,5.000000000000000000e+00,5.000000000000000000e+00,5.000000000000000000e+00,5.000000000000000000e+00,5.000000000000000000e+00,5.000000000000000000e+00,2.180112361907958984e+00,2.179728746414184570e+00,2.131997346878051758e+00,2.091128826141357422e+00,2.091579198837280273e+00,2.092356920242309570e+00,2.131802320480346680e+00,2.188832044601440430e+00,2.190373182296752930e+00,2.214721202850341797e+00,4.660295486450195312e+00,4.484646320343017578e+00,2.266581535339355469e+00,4.170284748077392578e+00,4.029071331024169922e+00,3.897108554840087891e+00,3.773515462875366211e+00,3.657520771026611328e+00,3.548444509506225586e+00,3.445685625076293945e+00,3.348711013793945312e+00,3.257045269012451172e+00,3.170264244079589844e+00,3.087987661361694336e+00,3.009873628616333008e+00,2.935614109039306641e+00,2.864930391311645508e+00,2.797570705413818359e+00,2.733305692672729492e+00,2.671926975250244141e+00,2.613244295120239258e+00,2.557084083557128906e+00,2.503286600112915039e+00,2.451706171035766602e+00,2.402208566665649414e+00,2.354670047760009766e+00,2.308976411819458008e+00,2.265022754669189453e+00,2.222710847854614258e+00,2.181951045989990234e+00,2.142658948898315430e+00,2.104757308959960938e+00,2.068172931671142578e+00,2.032838821411132812e+00,1.998691678047180176e+00,1.965672850608825684e+00,1.933727145195007324e+00,1.902803301811218262e+00,1.872852802276611328e+00,1.843830585479736328e+00
5.000000000000000000e+00,5.000000000000000000e+00,5.000000000000000000e+00,5.000000000000000000e+00,5.000000000000000000e+00,5.000000000000000000e+00,5.000000000000000000e+00,5.000000000000000000e+00,5.000000000000000000e+00,5.000000000000000000e+00,5.000000000000000000e+00,5.000000000000000000e+00,5.000000000000000000e+00,5.000000000000000000e+00,5.000000000000000000e+00,5.000000000000000000e+00,5.000000000000000000e+00,5.000000000000000000e+00,5.000000000000000000e+00,5.000000000000000000e+00,5.000000000000000000e+00,5.000000000000000000e+00,5.000000000000000000e+00,5.000000000000000000e+00,5.000000000000000000e+00,5.000000000000000000e+00,5.000000000000000000e+00,5.000000000000000000e+00,5.000000000000000000e+00,5.000000000000000000e+00,2.178866863250732422e+00,2.172379255294799805e+00,2.150667428970336914e+00,2.094295740127563477e+00,2.088017463684082031e+00,2.088747978210449219e+00,2.123191833496093750e+00,2.186517238616943359e+00,2.187531709671020508e+00,2.207566261291503906e+00,4.660422325134277344e+00,4.484763622283935547e+00,2.242074251174926758e+00,2.278944492340087891e+00,4.029166221618652344e+00,3.897196769714355469e+00,3.773598194122314453e+00,3.657598495483398438e+00,3.548517704010009766e+00,3.445754766464233398e+00,3.348776340484619141e+00,3.257107257843017578e+00,3.170322895050048828e+00,3.088043212890625000e+00,3.009926557540893555e+00,2.935664415359497070e+00,2.864978313446044922e+00,2.797616243362426758e+00,2.733349323272705078e+00,2.671968698501586914e+00,2.613284111022949219e+00,2.557121992111206055e+00,2.503323078155517578e+00,2.451741218566894531e+00,2.402242183685302734e+00,2.354702234268188477e+00,2.309007644653320312e+00,2.265052556991577148e+00,2.222739696502685547e+00,2.181978702545166016e+00,2.142685890197753906e+00,2.104783058166503906e+00,2.068197727203369141e+00,2.032862901687622070e+00,1.998715043067932129e+00,1.965695381164550781e+00,1.933748960494995117e+00,1.902824401855468750e+00,1.872873306274414062e+00,1.843850493431091309e+00
5.000000000000000000e+00,5.000000000000000000e+00,5.000000000000000000e+00,5.000000000000000000e+00,5.000000000000000000e+00,5.000000000000000000e+00,5.000000000000000000e+00,5.000000000000000000e+00,5.000000000000000000e+00,5.000000000000000000e+00,5.000000000000000000e+00,5.000000000000000000e+00,5.000000000000000000e+00,5.000000000000000000e+00,5.000000000000000000e+00,5.000000000000000000e+00,5.000000000000000000e+00,5.000000000000000000e+00,5.000000000000000000e+00,5.000000000000000000e+00,5.000000000000000000e+00,5.000000000000000000e+00,5.000000000000000000e+00,5.000000000000000000e+00,5.000000000000000000e+00,5.000000000000000000e+00,5.000000000000000000e+00,5.000000000000000000e+00,5.000000000000000000e+00,5.000000000000000000e+00,2.164463520050048828e+00,2.157911062240600586e+00,2.176122426986694336e+00,2.105745792388916016e+00,2.085939407348632812e+00,2.085151433944702148e+00,2.113781690597534180e+00,2.185732126235961914e+00,2.188889026641845703e+00,2.205094575881958008e+00,4.660549163818359375e+00,4.484880924224853516e+00,4.321974277496337891e+00,2.224387168884277344e+00,4.029260635375976562e+00,3.897285461425781250e+00,3.773681402206420898e+00,3.657676696777343750e+00,3.548591375350952148e+00,3.445824146270751953e+00,3.348841667175292969e+00,3.257169008255004883e+00,3.170381307601928711e+00,3.088098764419555664e+00,3.009979248046875000e+00,2.935714721679687500e+00,2.865026235580444336e+00,2.797662019729614258e+00,2.733392953872680664e+00,2.672010421752929688e+00,2.613324165344238281e+00,2.557160139083862305e+00,2.503359556198120117e+00,2.451776266098022461e+00,2.402275800704956055e+00,2.354734659194946289e+00,2.309038639068603516e+00,2.265082359313964844e+00,2.222768545150756836e+00,2.182006359100341797e+00,2.142712593078613281e+00,2.104809045791625977e+00,2.068222761154174805e+00,2.032886981964111328e+00,1.998738288879394531e+00,1.965718030929565430e+00,1.933770895004272461e+00,1.902845501899719238e+00,1.872893810272216797e+00,1.843870282173156738e+00
5.000000000000000000e+00,5.000000000000000000e+00,5.000000000000000000e+00,5.000000000000000000e+00,5.000000000000000000e+00,5.000000000000000000e+00,5.000000000000000000e+00,5.000000000000000000e+00,5.000000000000000000e+00,5.000000000000000000e+00,5.000000000000000000e+00,5.000000000000000000e+00,5.000000000000000000e+00,5.000000000000000000e+00,5.000000000000000000e+00,5.000000000000000000e+00,5.000000000000000000e+00,5.000000000000000000e+00,5.000000000000000000e+00,5.000000000000000000e+00,5.000000000000000000e+00,5.000000000000000000e+00,5.000000000000000000e+00,5.000000000000000000e+00,5.000000000000000000e+00,5.000000000000000000e+00,5.000000000000000000e+00,5.000000000000000000e+00,5.000000000000000000e+00,5.000000000000000000e+00,2.157970190048217773e+00,5.000000000000000000e+00,5.000000000000000000e+00,2.117321968078613281e+00,2.083134651184082031e+00,2.081993341445922852e+00,2.103293895721435547e+00,2.188220977783203125e+00,2.189768075942993164e+00,2.202628374099731445e+00,4.660675525665283203e+00,4.484998226165771484e+00,4.322082996368408203e+00,2.311554431915283203e+00,4.029355525970458984e+00,3.897374153137207031e+00,3.773764610290527344e+00,3.657754898071289062e+00,3.548664808273315430e+00,3.445893287658691406e+00,3.348906993865966797e+00,3.257230997085571289e+00,3.170439958572387695e+00,3.088154554367065430e+00,3.010032176971435547e+00,2.935764789581298828e+00,2.865074157714843750e+00,2.797707557678222656e+00,2.733436346054077148e+00,2.672051906585693359e+00,2.613363981246948242e+00,2.557198524475097656e+00,2.503396272659301758e+00,2.451811552047729492e+00,2.402309656143188477e+00,2.354767084121704102e+00,2.309069633483886719e+00,2.265112400054931641e+00,2.222797393798828125e+00,2.182034254074096680e+00,2.142739295959472656e+00,2.104834794998168945e+00,2.068247556686401367e+00,2.032911062240600586e+00,1.998761415481567383e+00,1.965740323066711426e+00,1.933792710304260254e+00,1.902866721153259277e+00,1.872914314270019531e+00,1.843890190124511719e+00
5.000000000000000000e+00,5.000000000000000000e+00,5.000000000000000000e+00,5.000000000000000000e+00,5.000000000000000000e+00,5.000000000000000000e+00,5.000000000000000000e+00,5.000000000000000000e+00,5.000000000000000000e+00,5.000000000000000000e+00,5.000000000000000000e+00,5.000000000000000000e+00,5.000000000000000000e+00,5.000000000000000000e+00,5.000000000000000000e+00,5.000000000000000000e+00,5.000000000000000000e+00,5.000000000000000000e+00,5.000000000000000000e+00,5.000000000000000000e+00,5.000000000000000000e+00,5.000000000000000000e+00,5.000000000000000000e+00,5.000000000000000000e+00,5.000000000000000000e+00,5.000000000000000000e+00,5.000000000000000000e+00,5.000000000000000000e+00,5.000000000000000000e+00,5.000000000000000000e+00,2.148489713668823242e+00,5.000000000000000000e+00,5.000000000000000000e+00,2.132281064987182617e+00,2.080486297607421875e+00,2.075694561004638672e+00,2.093273162841796875e+00,2.191083908081054688e+00,2.188741445541381836e+00,2.201186418533325195e+00,4.660802364349365234e+00,4.485115528106689453e+00,4.322192192077636719e+00,4.170690536499023438e+00,4.029449939727783203e+00,3.897462606430053711e+00,3.773847341537475586e+00,3.657832622528076172e+00,3.548738002777099609e+00,3.445962667465209961e+00,3.348972558975219727e+00,3.257292985916137695e+00,3.170498847961425781e+00,3.088210105895996094e+00,3.010085105895996094e+00,2.935815095901489258e+00,2.865122079849243164e+00,2.797753334045410156e+00,2.733479976654052734e+00,2.672093629837036133e+00,2.613403558731079102e+00,2.557236433029174805e+00,2.503432750701904297e+00,2.451846361160278320e+00,2.402343034744262695e+00,2.354799509048461914e+00,2.309100866317749023e+00,2.265142440795898438e+00,2.222826242446899414e+00,2.182062149047851562e+00,2.142766237258911133e+00,2.104860544204711914e+00,2.068272590637207031e+00,2.032935142517089844e+00,1.998784780502319336e+00,1.965762972831726074e+00,1.933814287185668945e+00,1.902887582778930664e+00,1.872934579849243164e+00,1.843909859657287598e+00
5.000000000000000000e+00,5.000000000000000000e+00,5.000000000000000000e+00,5.000000000000000000e+00,5.000000000000000000e+00,5.000000000000000000e+00,5.000000000000000000e+00,5.000000000000000000e+00,5.000000000000000000e+00,5.000000000000000000e+00,5.000000000000000000e+00,5.000000000000000000e+00,5.000000000000000000e+00,5.000000000000000000e+00,5.000000000000000000e+00,5.000000000000000000e+00,5.000000000000000000e+00,5.000000000000000000e+00,5.000000000000000000e+00,5.000000000000000000e+00,5.000000000000000000e+00,5.000000000000000000e+00,5.000000000000000000e+00,5.000000000000000000e+00,5.000000000000000000e+00,5.000000000000000000e+00,5.000000000000000000e+00,5.000000000000000000e+00,5.000000000000000000e+00,5.000000000000000000e+00,2.139060735702514648e+00,5.000000000000000000e+00,5.000000000000000000e+00,2.156396150588989258e+00,2.090618848800659180e+00,2.069670438766479492e+00,2.083347558975219727e+00,2.191451311111450195e+00,2.189630270004272461e+00,2.195434570312500000e+00,4.660929203033447266e+00,4.485232830047607422e+00,4.322300910949707031e+00,4.170792102813720703e+00,4.029544830322265625e+00,3.897551298141479492e+00,3.773930549621582031e+00,3.657910823822021484e+00,3.548811674118041992e+00,3.446031808853149414e+00,3.349037885665893555e+00,3.257354497909545898e+00,3.170557260513305664e+00,3.088265657424926758e+00,3.010138034820556641e+00,2.935865640640258789e+00,2.865170001983642578e+00,2.797798871994018555e+00,2.733523607254028320e+00,2.672135353088378906e+00,2.613443613052368164e+00,2.557274580001831055e+00,2.503469228744506836e+00,2.451881408691406250e+00,2.402376890182495117e+00,2.354831695556640625e+00,2.309131860733032227e+00,2.265172243118286133e+00,2.222854852676391602e+00,2.182089805603027344e+00,2.142792940139770508e+00,2.104886531829833984e+00,2.068297624588012695e+00,2.032959222793579102e+00,1.998808145523071289e+00,1.965785503387451172e+00,1.933836221694946289e+00,1.902908802032470703e+00,1.872955083847045898e+00,1.843929648399353027e+00
5.000000000000000000e+00,5.000000000000000000e+00,5.000000000000000000e+00,5.000000000000000000e+00,5.000000000000000000e+00,5.000000000000000000e+00,5.000000000000000000e+00,5.000000000000000000e+00,5.000000000000000000e+00,5.000000000000000000e+00,5.000000000000000000e+00,5.000000000000000000e+00,5.000000000000000000e+00,5.000000000000000000e+00,5.000000000000000000e+00,5.000000000000000000e+00,5.000000000000000000e+00,5.000000000000000000e+00,5.000000000000000000e+00,5.000000000000000000e+00,5.000000000000000000e+00,5.000000000000000000e+00,5.000000000000000000e+00,5.000000000000000000e+00,5.000000000000000000e+00,5.000000000000000000e+00,5.000000000000000000e+00,5.000000000000000000e+00,5.000000000000000000e+00,5.000000000000000000e+00,5.000000000000000000e+00,5.000000000000000000e+00,5.000000000000000000e+00,5.000000000000000000e+00,2.104688405990600586e+00,2.070062160491943359e+00,2.071793556213378906e+00,2.194382905960083008e+00,2.189388990402221680e+00,2.196181297302246094e+00,4.661055564880371094e+00,4.485350131988525391e+00,4.322410106658935547e+00,4.170893669128417969e+00,4.029639244079589844e+00,3.897639989852905273e+00,3.774013757705688477e+00,3.657989025115966797e+00,3.548885107040405273e+00,3.446101188659667969e+00,3.349103212356567383e+00,3.257416486740112305e+00,3.170615911483764648e+00,3.088321208953857422e+00,3.010190725326538086e+00,2.935915708541870117e+00,2.865217685699462891e+00,2.797844648361206055e+00,2.733567237854003906e+00,2.672177076339721680e+00,2.613483428955078125e+00,2.557312726974487305e+00,2.503505945205688477e+00,2.451916694641113281e+00,2.402410507202148438e+00,2.354864120483398438e+00,2.309163093566894531e+00,2.265202283859252930e+00,2.222883701324462891e+00,2.182117700576782227e+00,2.142819643020629883e+00,2.104912281036376953e+00,2.068322420120239258e+00,2.032983303070068359e+00,1.998831391334533691e+00,1.965808033943176270e+00,1.933858036994934082e+00,1.902929902076721191e+00,1.872975468635559082e+00,1.843949556350708008e+00
5.000000000000000000e+00,5.000000000000000000e+00,5.000000000000000000e+00,5.000000000000000000e+00,5.000000000000000000e+00,5.000000000000000000e+00,5.000000000000000000e+00,5.000000000000000000e+00,5.000000000000000000e+00,5.000000000000000000e+00,5.000000000000000000e+00,5.000000000000000000e+00,5.000000000000000000e+00,5.000000000000000000e+00,5.000000000000000000e+00,5.000000000000000000e+00,5.000000000000000000e+00,5.000000000000000000e+00,5.000000000000000000e+00,5.000000000000000000e+00,5.000000000000000000e+00,5.000000000000000000e+00,5.000000000000000000e+00,5.000000000000000000e+00,5.000000000000000000e+00,5.000000000000000000e+00,5.000000000000000000e+00,5.000000000000000000e+00,5.000000000000000000e+00,5.000000000000000000e+00,5.000000000000000000e+00,5.000000000000000000e+00,5.000000000000000000e+00,5.000000000000000000e+00,2.119443178176879883e+00,2.072221517562866211e+00,2.066453933715820312e+00,2.100983381271362305e+00,2.187109708786010742e+00,2.197371006011962891e+00,4.661182403564453125e+00,4.485467433929443359e+00,4.322518825531005859e+00,4.170994758605957031e+00,4.029734134674072266e+00,3.897728204727172852e+00,3.774096488952636719e+00,3.658066987991333008e+00,3.548958778381347656e+00,3.446170568466186523e+00,3.349168777465820312e+00,3.257478475570678711e+00,3.170674562454223633e+00,3.088376998901367188e+00,3.010243654251098633e+00,2.935966014862060547e+00,2.865265607833862305e+00,2.797890424728393555e+00,2.733610630035400391e+00,2.672218561172485352e+00,2.613523006439208984e+00,2.557350873947143555e+00,2.503542423248291016e+00,2.451951742172241211e+00,2.402444124221801758e+00,2.354896545410156250e+00,2.309194087982177734e+00,2.265232086181640625e+00,2.222912549972534180e+00,2.182145357131958008e+00,2.142846584320068359e+00,2.104938030242919922e+00,2.068347454071044922e+00,2.033007383346557617e+00,1.998854756355285645e+00,1.965830683708190918e+00,1.933879852294921875e+00,1.902951121330261230e+00,1.872995972633361816e+00,1.843969464302062988e+00
5.000000000000000000e+00,5.000000000000000000e+00,5.000000000000000000e+00,5.000000000000000000e+00,5.000000000000000000e+00,5.000000000000000000e+00,5.000000000000000000e+00,5.000000000000000000e+00,5.000000000000000000e+00,5.000000000000000000e+00,5.000000000000000000e+00,5.000000000000000000e+00,5.000000000000000000e+00,5.000000000000000000e+00,5.000000000000000000e+00,5.000000000000000000e+00,5.000000000000000000e+00,5.000000000000000000e+00,5.000000000000000000e+00,5.000000000000000000e+00,5.000000000000000000e+00,5.000000000000000000e+00,5.000000000000000000e+00,5.000000000000000000e+00,5.000000000000000000e+00,5.000000000000000000e+00,5.000000000000000000e+00,5.000000000000000000e+00,5.000000000000000000e+00,5.000000000000000000e+00,5.000000000000000000e+00,5.000000000000000000e+00,5.000000000000000000e+00,5.000000000000000000e+00,2.126366376876831055e+00,2.081969976425170898e+00,2.077950000762939453e+00,2.200310468673706055e+00,2.188363790512084961e+00,2.199568033218383789e+00,4.661309242248535156e+00,4.485584735870361328e+00,4.322628021240234375e+00,4.171096324920654297e+00,4.029829025268554688e+00,3.897817134857177734e+00,3.774179697036743164e+00,3.658144950866699219e+00,3.549031972885131836e+00,3.446239471435546875e+00,3.349234104156494141e+00,3.257540225982666016e+00,3.170733451843261719e+00,3.088432788848876953e+00,3.010296583175659180e+00,2.936016321182250977e+00,2.865313529968261719e+00,2.797935962677001953e+00,2.733654260635375977e+00,2.672260284423828125e+00,2.613563060760498047e+00,2.557389020919799805e+00,2.503578901290893555e+00,2.451986551284790039e+00,2.402477741241455078e+00,2.354928731918334961e+00,2.309225082397460938e+00,2.265261888504028320e+00,2.222941398620605469e+00,2.182173252105712891e+00,2.142873287200927734e+00,2.104964017868041992e+00,2.068372488021850586e+00,2.033031702041625977e+00,1.998878121376037598e+00,1.965853214263916016e+00,1.933901667594909668e+00,1.902972221374511719e+00,1.873016476631164551e+00,1.843989253044128418e+00
5.000000000000000000e+00,5.000000000000000000e+00,5.000000000000000000e+00,5.000000000000000000e+00,5.000000000000000000e+00,5.000000000000000000e+00,5.000000000000000000e+00,5.000000000000000000e+00,5.000000000000000000e+00,5.000000000000000000e+00,5.000000000000000000e+00,5.000000000000000000e+00,5.000000000000000000e+00,5.000000000000000000e+00,5.000000000000000000e+00,5.000000000000000000e+00,5.000000000000000000e+00,5.000000000000000000e+00,5.000000000000000000e+00,5.000000000000000000e+00,5.000000000000000000e+00,5.000000000000000000e+00,5.000000000000000000e+00,5.000000000000000000e+00,5.000000000000000000e+00,5.000000000000000000e+00,5.000000000000000000e+00,5.000000000000000000e+00,5.000000000000000000e+00,5.000000000000000000e+00,5.000000000000000000e+00,5.000000000000000000e+00,5.000000000000000000e+00,5.000000000000000000e+00,2.122401475906372070e+00,2.098440647125244141e+00,2.097502946853637695e+00,2.214088439941406250e+00,2.199265003204345703e+00,2.210576295852661133e+00,4.661435604095458984e+00,4.485702514648437500e+00,4.322737216949462891e+00,4.171197891235351562e+00,4.029923439025878906e+00,3.897905826568603516e+00,3.774262905120849609e+00,3.658222913742065430e+00,3.549105405807495117e+00,3.446308851242065430e+00,3.349299430847167969e+00,3.257602214813232422e+00,3.170791864395141602e+00,3.088488101959228516e+00,3.010349035263061523e+00,2.936066389083862305e+00,2.865361213684082031e+00,2.797981739044189453e+00,2.733697891235351562e+00,2.672301769256591797e+00,2.613602876663208008e+00,2.557427167892456055e+00,2.503615617752075195e+00,2.452021837234497070e+00,2.402511596679687500e+00,2.354961156845092773e+00,2.309256315231323242e+00,2.265291929244995117e+00,2.222970247268676758e+00,2.182200908660888672e+00,2.142899990081787109e+00,2.104989767074584961e+00,2.068397283554077148e+00,2.033055782318115234e+00,1.998901486396789551e+00,1.965875744819641113e+00,1.933923482894897461e+00,1.902993440628051758e+00,1.873036980628967285e+00,1.844009160995483398e+00
5.000000000000000000e+00,5.000000000000000000e+00,5.000000000000000000e+00,5.000000000000000000e+00,5.000000000000000000e+00,5.000000000000000000e+00,5.000000000000000000e+00,5.000000000000000000e+00,5.000000000000000000e+00,5.000000000000000000e+00,5.000000000000000000e+00,5.000000000000000000e+00,5.000000000000000000e+00,5.000000000000000000e+00,5.000000000000000000e+00,5.000000000000000000e+00,5.000000000000000000e+00,5.000000000000000000e+00,5.000000000000000000e+00,5.000000000000000000e+00,5.000000000000000000e+00,5.000000000000000000e+00,5.000000000000000000e+00,5.000000000000000000e+00,5.000000000000000000e+00,5.000000000000000000e+00,5.000000000000000000e+00,5.000000000000000000e+00,5.000000000000000000e+00,5.000000000000000000e+00,5.000000000000000000e+00,5.000000000000000000e+00,5.000000000000000000e+00,5.000000000000000000e+00,2.126798629760742188e+00,2.111136198043823242e+00,2.117488622665405273e+00,2.245712995529174805e+00,2.239120006561279297e+00,4.851637840270996094e+00,4.661562919616699219e+00,4.485819339752197266e+00,4.322845935821533203e+00,4.171299457550048828e+00,4.030018329620361328e+00,3.897994041442871094e+00,3.774346113204956055e+00,3.658301115036010742e+00,3.549179077148437500e+00,3.446378231048583984e+00,3.349364995956420898e+00,3.257664203643798828e+00,3.170850515365600586e+00,3.088543891906738281e+00,3.010401964187622070e+00,2.936116695404052734e+00,2.865409135818481445e+00,2.798027276992797852e+00,2.733741521835327148e+00,2.672343492507934570e+00,2.613642692565917969e+00,2.557465314865112305e+00,2.503652095794677734e+00,2.452056884765625000e+00,2.402545213699340820e+00,2.354993581771850586e+00,2.309287548065185547e+00,2.265321969985961914e+00,2.222999095916748047e+00,2.182228803634643555e+00,2.142926931381225586e+00,2.105015516281127930e+00,2.068422317504882812e+00,2.033079862594604492e+00,1.998924612998962402e+00,1.965898156166076660e+00,1.933945178985595703e+00,1.903014302253723145e+00,1.873057484626770020e+00,1.844029068946838379e+00
5.000000000000000000e+00,5.000000000000000000e+00,5.000000000000000000e+00,5.000000000000000000e+00,5.000000000000000000e+00,5.000000000000000000e+00,5.000000000000000000e+00,5.000000000000000000e+00,5.000000000000000000e+00,5.000000000000000000e+00,5.000000000000000000e+00,5.000000000000000000e+00,5.000000000000000000e+00,5.000000000000000000e+00,5.000000000000000000e+00,5.000000000000000000e+00,5.000000000000000000e+00,5.000000000000000000e+00,5.000000000000000000e+00,5.000000000000000000e+00,5.000000000000000000e+00,5.000000000000000000e+00,5.000000000000000000e+00,5.000000000000000000e+00,5.000000000000000000e+00,5.000000000000000000e+00,5.000000000000000000e+00,5.000000000000000000e+00,5.000000000000000000e+00,5.000000000000000000e+00,5.000000000000000000e+00,5.000000000000000000e+00,5.000000000000000000e+00,5.000000000000000000e+00,2.136611223220825195e+00,2.122376203536987305e+00,2.143013000488281250e+00,2.313142776489257812e+00,5.000000000000000000e+00,4.851774215698242188e+00,4.661689281463623047e+00,4.485936641693115234e+00,4.322954654693603516e+00,4.171401023864746094e+00,4.030113220214843750e+00,3.898082971572875977e+00,3.774428844451904297e+00,3.658379077911376953e+00,3.549252271652221680e+00,3.446447372436523438e+00,3.349430322647094727e+00,3.257726192474365234e+00,3.170909166336059570e+00,3.088599681854248047e+00,3.010455131530761719e+00,2.936167240142822266e+00,2.865457296371459961e+00,2.798073053359985352e+00,2.733785152435302734e+00,2.672385215759277344e+00,2.613682508468627930e+00,2.557503461837768555e+00,2.503688573837280273e+00,2.452091932296752930e+00,2.402578830718994141e+00,2.355025768280029297e+00,2.309318542480468750e+00,2.265351772308349609e+00,2.223027944564819336e+00,2.182256460189819336e+00,2.142953634262084961e+00,2.105041503906250000e+00,2.068447351455688477e+00,2.033103942871093750e+00,1.998947858810424805e+00,1.965920686721801758e+00,1.933966994285583496e+00,1.903035521507263184e+00,1.873077750205993652e+00,1.844048619270324707e+00
5.000000000000000000e+00,5.000000000000000000e+00,5.000000000000000000e+00,5.000000000000000000e+00,5.000000000000000000e+00,5.000000000000000000e+00,5.000000000000000000e+00,5.000000000000000000e+00,5.000000000000000000e+00,5.000000000000000000e+00,5.000000000000000000e+00,5.000000000000000000e+00,5.000000000000000000e+00,5.000000000000000000e+00,5.000000000000000000e+00,5.000000000000000000e+00,5.000000000000000000e+00,5.000000000000000000e+00,5.000000000000000000e+00,5.000000000000000000e+00,5.000000000000000000e+00,5.000000000000000000e+00,5.000000000000000000e+00,5.000000000000000000e+00,5.000000000000000000e+00,5.000000000000000000e+00,5.000000000000000000e+00,5.000000000000000000e+00,5.000000000000000000e+00,5.000000000000000000e+00,5.000000000000000000e+00,5.000000000000000000e+00,5.000000000000000000e+00,5.000000000000000000e+00,2.145459175109863281e+00,2.126267433166503906e+00,2.145446777343750000e+00,2.376166582107543945e+00,5.000000000000000000e+00,4.851912021636962891e+00,4.661816120147705078e+00,4.486054420471191406e+00,4.323063850402832031e+00,4.171502113342285156e+00,4.030207633972167969e+00,3.898171663284301758e+00,3.774512052536010742e+00,3.658457040786743164e+00,3.549325942993164062e+00,3.446516752243041992e+00,3.349495887756347656e+00,3.257787704467773438e+00,3.170967817306518555e+00,3.088654994964599609e+00,3.010507583618164062e+00,2.936217308044433594e+00,2.865505218505859375e+00,2.798118829727172852e+00,2.733828783035278320e+00,2.672426700592041016e+00,2.613722324371337891e+00,2.557541608810424805e+00,2.503725290298461914e+00,2.452126979827880859e+00,2.402612447738647461e+00,2.355058193206787109e+00,2.309349536895751953e+00,2.265381813049316406e+00,2.223056554794311523e+00,2.182284116744995117e+00,2.142980337142944336e+00,2.105067253112792969e+00,2.068472385406494141e+00,2.033128023147583008e+00,1.998971223831176758e+00,1.965943217277526855e+00,1.933988809585571289e+00,1.903056621551513672e+00,1.873098254203796387e+00,1.844068527221679688e+00
5.000000000000000000e+00,5.000000000000000000e+00,5.000000000000000000e+00,5.000000000000000000e+00,5.000000000000000000e+00,5.000000000000000000e+00,5.000000000000000000e+00,5.000000000000000000e+00,5.000000000000000000e+00,5.000000000000000000e+00,5.000000000000000000e+00,5.000000000000000000e+00,5.000000000000000000e+00,5.000000000000000000e+00,5.000000000000000000e+00,5.000000000000000000e+00,5.000000000000000000e+00,5.000000000000000000e+00,5.000000000000000000e+00,5.000000000000000000e+00,5.000000000000000000e+00,5.000000000000000000e+00,5.000000000000000000e+00,5.000000000000000000e+00,5.000000000000000000e+00,5.000000000000000000e+00,5.000000000000000000e+00,5.000000000000000000e+00,5.000000000000000000e+00,5.000000000000000000e+00,5.000000000000000000e+00,5.000000000000000000e+00,5.000000000000000000e+00,5.000000000000000000e+00,2.154381036758422852e+00,2.131676197052001953e+00,2.147720575332641602e+00,5.000000000000000000e+00,5.000000000000000000e+00,4.852049827575683594e+00,4.661942481994628906e+00,4.486171722412109375e+00,4.323173046112060547e+00,4.171603679656982422e+00,4.030302524566650391e+00,3.898260354995727539e+00,3.774595260620117188e+00,3.658535242080688477e+00,3.549399375915527344e+00,3.446586132049560547e+00,3.349561214447021484e+00,3.257849931716918945e+00,3.171026468276977539e+00,3.088710784912109375e+00,3.010560512542724609e+00,2.936267614364624023e+00,2.865552902221679688e+00,2.798164129257202148e+00,2.733872175216674805e+00,2.672468423843383789e+00,2.613762140274047852e+00,2.557579994201660156e+00,2.503761768341064453e+00,2.452162027359008789e+00,2.402646303176879883e+00,2.355090618133544922e+00,2.309380769729614258e+00,2.265411615371704102e+00,2.223085403442382812e+00,2.182312011718750000e+00,2.143007278442382812e+00,2.105093240737915039e+00,2.068497180938720703e+00,2.033152103424072266e+00,1.998994588851928711e+00,1.965965867042541504e+00,1.934010744094848633e+00,1.903077840805053711e+00,1.873118758201599121e+00,1.844088435173034668e+00
5.000000000000000000e+00,5.000000000000000000e+00,5.000000000000000000e+00,5.000000000000000000e+00,5.000000000000000000e+00,5.000000000000000000e+00,5.000000000000000000e+00,5.000000000000000000e+00,5.000000000000000000e+00,5.000000000000000000e+00,5.000000000000000000e+00,5.000000000000000000e+00,5.000000000000000000e+00,5.000000000000000000e+00,5.000000000000000000e+00,5.000000000000000000e+00,5.000000000000000000e+00,5.000000000000000000e+00,5.000000000000000000e+00,5.000000000000000000e+00,5.000000000000000000e+00,5.000000000000000000e+00,5.000000000000000000e+00,5.000000000000000000e+00,5.000000000000000000e+00,5.000000000000000000e+00,5.000000000000000000e+00,5.000000000000000000e+00,5.000000000000000000e+00,5.000000000000000000e+00,5.000000000000000000e+00,5.000000000000000000e+00,5.000000000000000000e+00,5.000000000000000000e+00,2.163542985916137695e+00,2.138144254684448242e+00,2.148988246917724609e+00,5.000000000000000000e+00,5.000000000000000000e+00,4.852187156677246094e+00,4.662069320678710938e+00,4.486288547515869141e+00,4.323282241821289062e+00,4.171705245971679688e+00,4.030397415161132812e+00,3.898348808288574219e+00,3.774678230285644531e+00,3.658613204956054688e+00,3.549472570419311523e+00,3.446655035018920898e+00,3.349626779556274414e+00,3.257911920547485352e+00,3.171085119247436523e+00,3.088766574859619141e+00,3.010613679885864258e+00,2.936317920684814453e+00,2.865600824356079102e+00,2.798209905624389648e+00,2.733915805816650391e+00,2.672510147094726562e+00,2.613801956176757812e+00,2.557617902755737305e+00,2.503798246383666992e+00,2.452197074890136719e+00,2.402679681777954102e+00,2.355122804641723633e+00,2.309412002563476562e+00,2.265441656112670898e+00,2.223114490509033203e+00,2.182339906692504883e+00,2.143033981323242188e+00,2.105118989944458008e+00,2.068522214889526367e+00,2.033176183700561523e+00,1.999017953872680664e+00,1.965988397598266602e+00,1.934032559394836426e+00,1.903098940849304199e+00,1.873139262199401855e+00,1.844108223915100098e+00
5.000000000000000000e+00,5.000000000000000000e+00,5.000000000000000000e+00,5.000000000000000000e+00,5.000000000000000000e+00,5.000000000000000000e+00,5.000000000000000000e+00,5.000000000000000000e+00,5.000000000000000000e+00,5.000000000000000000e+00,5.000000000000000000e+00,5.000000000000000000e+00,5.000000000000000000e+00,5.000000000000000000e+00,5.000000000000000000e+00,5.000000000000000000e+00,5.000000000000000000e+00,5.000000000000000000e+00,5.000000000000000000e+00,5.000000000000000000e+00,5.000000000000000000e+00,5.000000000000000000e+00,5.000000000000000000e+00,5.000000000000000000e+00,5.000000000000000000e+00,5.000000000000000000e+00,5.000000000000000000e+00,5.000000000000000000e+00,5.000000000000000000e+00,5.000000000000000000e+00,5.000000000000000000e+00,5.000000000000000000e+00,5.000000000000000000e+00,2.616255283355712891e+00,2.173484325408935547e+00,2.146730422973632812e+00,2.152048826217651367e+00,5.000000000000000000e+00,5.000000000000000000e+00,4.852324962615966797e+00,4.662196636199951172e+00,4.486406326293945312e+00,4.323390483856201172e+00,4.171806812286376953e+00,4.030491828918457031e+00,3.898437500000000000e+00,3.774761438369750977e+00,3.658691406250000000e+00,3.549546241760253906e+00,3.446724414825439453e+00,3.349692106246948242e+00,3.257973432540893555e+00,3.171143531799316406e+00,3.088821887969970703e+00,3.010666131973266602e+00,2.936368227005004883e+00,2.865648746490478516e+00,2.798255681991577148e+00,2.733959436416625977e+00,2.672551870346069336e+00,2.613842010498046875e+00,2.557656049728393555e+00,2.503834962844848633e+00,2.452232122421264648e+00,2.402713537216186523e+00,2.355155229568481445e+00,2.309442996978759766e+00,2.265471458435058594e+00,2.223143100738525391e+00,2.182367563247680664e+00,2.143060684204101562e+00,2.105144977569580078e+00,2.068547248840332031e+00,2.033200502395629883e+00,1.999041318893432617e+00,1.966011047363281250e+00,1.934054374694824219e+00,1.903120160102844238e+00,1.873159766197204590e+00,1.844128131866455078e+00
5.000000000000000000e+00,5.000000000000000000e+00,5.000000000000000000e+00,5.000000000000000000e+00,5.000000000000000000e+00,5.000000000000000000e+00,5.000000000000000000e+00,5.000000000000000000e+00,5.000000000000000000e+00,5.000000000000000000e+00,5.000000000000000000e+00,5.000000000000000000e+00,5.000000000000000000e+00,5.000000000000000000e+00,5.000000000000000000e+00,5.000000000000000000e+00,5.000000000000000000e+00,5.000000000000000000e+00,5.000000000000000000e+00,5.000000000000000000e+00,5.000000000000000000e+00,5.000000000000000000e+00,5.000000000000000000e+00,5.000000000000000000e+00,5.000000000000000000e+00,5.000000000000000000e+00,5.000000000000000000e+00,5.000000000000000000e+00,5.000000000000000000e+00,5.000000000000000000e+00,5.000000000000000000e+00,5.000000000000000000e+00,5.000000000000000000e+00,5.000000000000000000e+00,2.184359788894653320e+00,2.157551527023315430e+00,2.155607938766479492e+00,5.000000000000000000e+00,5.000000000000000000e+00,4.852462768554687500e+00,4.662323474884033203e+00,4.486523628234863281e+00,4.323499679565429688e+00,4.171908378601074219e+00,4.030586719512939453e+00,3.898526191711425781e+00,3.774844646453857422e+00,3.658769607543945312e+00,3.549619913101196289e+00,3.446793794631958008e+00,3.349757671356201172e+00,3.258035421371459961e+00,3.171202421188354492e+00,3.088877677917480469e+00,3.010719299316406250e+00,2.936418533325195312e+00,2.865696430206298828e+00,2.798301219940185547e+00,2.734002828598022461e+00,2.672593593597412109e+00,2.613881826400756836e+00,2.557694196701049805e+00,2.503871440887451172e+00,2.452267408370971680e+00,2.402747154235839844e+00,2.355187654495239258e+00,2.309473991394042969e+00,2.265501260757446289e+00,2.223171949386596680e+00,2.182395219802856445e+00,2.143087625503540039e+00,2.105170726776123047e+00,2.068572044372558594e+00,2.033224344253540039e+00,1.999064326286315918e+00,1.966033577919006348e+00,1.934076309204101562e+00,1.903141260147094727e+00,1.873180270195007324e+00,1.844148039817810059e+00
4.875608444213867188e+00,4.874398231506347656e+00,4.873188018798828125e+00,4.871978759765625000e+00,4.870770454406738281e+00,4.869562149047851562e+00,4.868354320526123047e+00,4.867147445678710938e+00,4.865941524505615234e+00,4.864735603332519531e+00,4.863530635833740234e+00,4.862326145172119141e+00,4.861122608184814453e+00,4.859919071197509766e+00,4.858716487884521484e+00,4.857514381408691406e+00,4.856312751770019531e+00,4.855112075805664062e+00,4.853911876678466797e+00,4.852712154388427734e+00,4.851512908935546875e+00,4.850314617156982422e+00,4.849116802215576172e+00,4.847919464111328125e+00,4.846722602844238281e+00,4.845526695251464844e+00,4.844330787658691406e+00,4.843135833740234375e+00,4.841941356658935547e+00,4.840747356414794922e+00,4.839554309844970703e+00,4.838361740112304688e+00,4.837169647216796875e+00,2.550496339797973633e+00,2.213993787765502930e+00,2.168482303619384766e+00,2.164803981781005859e+00,4.831218242645263672e+00,4.830029964447021484e+00,4.828841686248779297e+00,4.662450790405273438e+00,4.486641407012939453e+00,4.323608875274658203e+00,4.172009468078613281e+00,4.030681610107421875e+00,3.898614645004272461e+00,3.774927377700805664e+00,3.658847332000732422e+00,3.549693584442138672e+00,3.446863412857055664e+00,3.349823236465454102e+00,3.258097410202026367e+00,3.171261072158813477e+00,3.088933467864990234e+00,3.010772228240966797e+00,2.936468839645385742e+00,2.865744590759277344e+00,2.798346996307373047e+00,2.734046697616577148e+00,2.672635078430175781e+00,2.613921642303466797e+00,2.557732343673706055e+00,2.503907918930053711e+00,2.452302217483520508e+00,2.402781009674072266e+00,2.355220079421997070e+00,2.309505224227905273e+00,2.265531301498413086e+00,2.223200798034667969e+00,2.182423114776611328e+00,2.143114328384399414e+00,2.105196475982666016e+00,2.068597078323364258e+00,2.033248662948608398e+00,1.999087691307067871e+00,1.966055870056152344e+00,1.934097886085510254e+00,1.903162240982055664e+00,1.873200535774230957e+00,1.844167709350585938e+00
3.778466701507568359e+00,3.777739763259887695e+00,3.777013063430786133e+00,3.776286602020263672e+00,3.775560379028320312e+00,3.774834394454956055e+00,3.774108886718750000e+00,3.773383378982543945e+00,3.772658348083496094e+00,3.771933555603027344e+00,3.771209239959716797e+00,3.770484924316406250e+00,3.769761085510253906e+00,3.769037246704101562e+00,3.768313884735107422e+00,3.767590761184692383e+00,3.766868114471435547e+00,3.766145467758178711e+00,3.765423297882080078e+00,3.764701128005981445e+00,3.763978958129882812e+00,3.763257503509521484e+00,3.762536525726318359e+00,3.761815547943115234e+00,3.761095046997070312e+00,3.760374546051025391e+00,3.759654521942138672e+00,3.758934736251831055e+00,3.758215188980102539e+00,3.757496118545532227e+00,3.756777048110961914e+00,3.756058454513549805e+00,3.755339860916137695e+00,2.529234409332275391e+00,2.543462038040161133e+00,2.191428184509277344e+00,2.187103986740112305e+00,3.751751899719238281e+00,3.751035213470458984e+00,3.750318765640258789e+00,3.749602556228637695e+00,3.748886585235595703e+00,3.748170852661132812e+00,3.747455596923828125e+00,3.746740341186523438e+00,3.746025562286376953e+00,3.745311021804809570e+00,3.658925533294677734e+00,3.549766778945922852e+00,3.446932315826416016e+00,3.349888324737548828e+00,3.258159160614013672e+00,3.171319484710693359e+00,3.088989019393920898e+00,3.010825157165527344e+00,2.936519145965576172e+00,2.865792512893676758e+00,2.798392772674560547e+00,2.734090328216552734e+00,2.672676801681518555e+00,2.613961458206176758e+00,2.557770490646362305e+00,2.503944635391235352e+00,2.452337265014648438e+00,2.402814388275146484e+00,2.355252265930175781e+00,2.309536218643188477e+00,2.265561103820800781e+00,2.223229646682739258e+00,2.182451009750366211e+00,2.143141269683837891e+00,2.105222463607788086e+00,2.068622112274169922e+00,2.033272743225097656e+00,1.999111056327819824e+00,1.966078519821166992e+00,1.934119701385498047e+00,1.903183341026306152e+00,1.873221039772033691e+00,1.844187498092651367e+00
3.084395408630371094e+00,3.083910942077636719e+00,3.083426713943481445e+00,3.082942485809326172e+00,3.082458496093750000e+00,3.081974744796752930e+00,3.081490993499755859e+00,3.081007480621337891e+00,3.080523967742919922e+00,3.080040693283081055e+00,3.079557657241821289e+00,3.079074859619140625e+00,3.078591823577880859e+00,3.078109264373779297e+00,3.077626705169677734e+00,3.077144384384155273e+00,3.076662302017211914e+00,3.076180219650268555e+00,3.075698375701904297e+00,3.075216531753540039e+00,3.074734926223754883e+00,3.074253559112548828e+00,3.073772192001342773e+00,3.073291063308715820e+00,3.072810173034667969e+00,3.072329282760620117e+00,3.071848630905151367e+00,3.071367979049682617e+00,3.070887565612792969e+00,3.070407390594482422e+00,3.069927453994750977e+00,3.069447517395019531e+00,3.068967580795288086e+00,3.068488121032714844e+00,2.515889406204223633e+00,2.192215442657470703e+00,2.176863670349121094e+00,3.066570758819580078e+00,3.066091775894165039e+00,3.065613269805908203e+00,3.065134525299072266e+00,3.064656257629394531e+00,3.064177751541137695e+00,3.063699722290039062e+00,3.063221693038940430e+00,3.062743902206420898e+00,3.062266111373901367e+00,3.061788558959960938e+00,3.061311244964599609e+00,3.060833930969238281e+00,3.060356855392456055e+00,3.059880018234252930e+00,3.059403181076049805e+00,3.058926582336425781e+00,3.010877847671508789e+00,2.936569213867187500e+00,2.865840196609497070e+00,2.798438072204589844e+00,2.734133958816528320e+00,2.672718524932861328e+00,2.614001274108886719e+00,2.557808637619018555e+00,2.503981113433837891e+00,2.452372550964355469e+00,2.402848243713378906e+00,2.355284690856933594e+00,2.309567451477050781e+00,2.265591144561767578e+00,2.223258495330810547e+00,2.182478666305541992e+00,2.143167972564697266e+00,2.105248212814331055e+00,2.068646907806396484e+00,2.033296823501586914e+00,1.999134421348571777e+00,1.966101050376892090e+00,1.934141635894775391e+00,1.903204560279846191e+00,1.873241543769836426e+00,1.844207406044006348e+00
2.605743408203125000e+00,2.605397701263427734e+00,2.605051994323730469e+00,2.604706287384033203e+00,2.604360818862915039e+00,2.604015588760375977e+00,2.603670120239257812e+00,2.603324890136718750e+00,2.602979898452758789e+00,2.602634668350219727e+00,2.602289676666259766e+00,2.601944684982299805e+00,2.601599931716918945e+00,2.601255178451538086e+00,2.600910663604736328e+00,2.600566148757934570e+00,2.600221872329711914e+00,2.599877357482910156e+00,2.599533319473266602e+00,2.599189043045043945e+00,2.598845005035400391e+00,2.598501205444335938e+00,2.598157167434692383e+00,2.597813367843627930e+00,2.597469806671142578e+00,2.597126245498657227e+00,2.596782684326171875e+00,2.596439361572265625e+00,2.596096038818359375e+00,2.595752716064453125e+00,2.595409631729125977e+00,2.595066547393798828e+00,2.594723701477050781e+00,2.594380855560302734e+00,2.594038009643554688e+00,2.182461738586425781e+00,2.148286342620849609e+00,2.142258644104003906e+00,2.592667818069458008e+00,2.592325448989868164e+00,2.591983318328857422e+00,2.591641187667846680e+00,2.591299057006835938e+00,2.590957164764404297e+00,2.590615272521972656e+00,2.590273618698120117e+00,2.589931726455688477e+00,2.589590311050415039e+00,2.589248657226562500e+00,2.588907241821289062e+00,2.588566064834594727e+00,2.588224649429321289e+00,2.587883472442626953e+00,2.587542295455932617e+00,2.587201356887817383e+00,2.586860418319702148e+00,2.586519718170166016e+00,2.586179018020629883e+00,2.585838556289672852e+00,2.585497856140136719e+00,2.585157632827758789e+00,2.557846784591674805e+00,2.504017591476440430e+00,2.452407598495483398e+00,2.402881860733032227e+00,2.355317115783691406e+00,2.309598445892333984e+00,2.265621185302734375e+00,2.223287343978881836e+00,2.182506561279296875e+00,2.143194675445556641e+00,2.105273962020874023e+00,2.068671941757202148e+00,2.033320903778076172e+00,1.999157786369323730e+00,1.966123700141906738e+00,1.934163451194763184e+00,1.903225660324096680e+00,1.873262047767639160e+00,1.844227313995361328e+00
2.255696535110473633e+00,2.255437374114990234e+00,2.255178213119506836e+00,2.254919052124023438e+00,2.254659891128540039e+00,2.254400730133056641e+00,2.254142045974731445e+00,2.253883123397827148e+00,2.253624200820922852e+00,2.253365516662597656e+00,2.253106832504272461e+00,2.252848148345947266e+00,2.252589464187622070e+00,2.252331018447875977e+00,2.252072572708129883e+00,2.251814126968383789e+00,2.251555681228637695e+00,2.251297473907470703e+00,2.251039028167724609e+00,2.250780820846557617e+00,2.250522851943969727e+00,2.250264883041381836e+00,2.250006914138793945e+00,2.249748945236206055e+00,2.249490976333618164e+00,2.249233245849609375e+00,2.248975515365600586e+00,2.248717784881591797e+00,2.248460292816162109e+00,2.248202800750732422e+00,2.247945547103881836e+00,2.247688293457031250e+00,2.247430801391601562e+00,2.247173547744750977e+00,2.246916532516479492e+00,2.246659278869628906e+00,2.104171752929687500e+00,2.094609260559082031e+00,2.098852157592773438e+00,2.245631456375122070e+00,2.245374679565429688e+00,2.245117902755737305e+00,2.244861125946044922e+00,2.244604587554931641e+00,2.244348049163818359e+00,2.244091510772705078e+00,2.243834972381591797e+00,2.243578672409057617e+00,2.243322372436523438e+00,2.243066072463989258e+00,2.242809772491455078e+00,2.242553710937500000e+00,2.242297410964965820e+00,2.242041349411010742e+00,2.241785526275634766e+00,2.241529464721679688e+00,2.241273641586303711e+00,2.241017818450927734e+00,2.240761995315551758e+00,2.240506410598754883e+00,2.240250825881958008e+00,2.239995241165161133e+00,2.239739656448364258e+00,2.239484071731567383e+00,2.239228725433349609e+00,2.238973379135131836e+00,2.238718032836914062e+00,2.238462924957275391e+00,2.223316192626953125e+00,2.182534217834472656e+00,2.143221616744995117e+00,2.105299949645996094e+00,2.068696975708007812e+00,2.033344984054565430e+00,1.999181032180786133e+00,1.966146230697631836e+00,1.934185266494750977e+00,1.903246879577636719e+00,1.873282551765441895e+00,1.844247102737426758e+00
1.988565325736999512e+00,1.988363862037658691e+00,1.988162398338317871e+00,1.987960934638977051e+00,1.987759828567504883e+00,1.987558484077453613e+00,1.987357139587402344e+00,1.987155914306640625e+00,1.986954689025878906e+00,1.986753582954406738e+00,1.986552357673645020e+00,1.986351370811462402e+00,1.986150264739990234e+00,1.985949277877807617e+00,1.985748291015625000e+00,1.985547423362731934e+00,1.985346436500549316e+00,1.985145926475524902e+00,1.984945058822631836e+00,1.984744310379028320e+00,1.984543561935424805e+00,1.984342813491821289e+00,1.984142184257507324e+00,1.983941555023193359e+00,1.983741044998168945e+00,1.983540534973144531e+00,1.983340024948120117e+00,1.983139634132385254e+00,1.982939243316650391e+00,1.982738852500915527e+00,1.982538461685180664e+00,1.982338428497314453e+00,1.982138276100158691e+00,1.981938004493713379e+00,1.981737852096557617e+00,1.981537699699401855e+00,1.981337666511535645e+00,1.981137633323669434e+00,1.980937600135803223e+00,1.980737686157226562e+00,1.980537772178649902e+00,1.980337858200073242e+00,1.980138063430786133e+00,1.979938268661499023e+00,1.979738712310791016e+00,1.979538917541503906e+00,1.979339241981506348e+00,1.979139685630798340e+00,1.978940010070800781e+00,1.978740453720092773e+00,1.978540897369384766e+00,1.978341460227966309e+00,1.978142023086547852e+00,1.977942585945129395e+00,1.977743268013000488e+00,1.977543950080871582e+00,1.977344632148742676e+00,1.977145433425903320e+00,1.976946473121643066e+00,1.976747274398803711e+00,1.976548194885253906e+00,1.976349115371704102e+00,1.976150035858154297e+00,1.975951075553894043e+00,1.975752115249633789e+00,1.975553154945373535e+00,1.975354313850402832e+00,1.975155472755432129e+00,1.974956750869750977e+00,1.974757909774780273e+00,1.974559187889099121e+00,1.974360823631286621e+00,1.974162101745605469e+00,1.973963499069213867e+00,1.973765015602111816e+00,1.966168880462646484e+00,1.934207201004028320e+00,1.903267979621887207e+00,1.873303055763244629e+00,1.844267010688781738e+00
1.778005003929138184e+00,1.777843952178955078e+00,1.777682781219482422e+00,1.777521848678588867e+00,1.777360796928405762e+00,1.777199864387512207e+00,1.777038931846618652e+00,1.776877999305725098e+00,1.776717305183410645e+00,1.776556372642517090e+00,1.776395559310913086e+00,1.776234745979309082e+00,1.776074051856994629e+00,1.775913238525390625e+00,1.775752544403076172e+00,1.775591850280761719e+00,1.775431275367736816e+00,1.775270581245422363e+00,1.775110006332397461e+00,1.774949431419372559e+00,1.774788856506347656e+00,1.774628400802612305e+00,1.774468064308166504e+00,1.774307608604431152e+00,1.774147272109985352e+00,1.773986816406250000e+00,1.773826479911804199e+00,1.773666143417358398e+00,1.773505806922912598e+00,1.773345589637756348e+00,1.773185253143310547e+00,1.773025035858154297e+00,1.772864937782287598e+00,1.772704720497131348e+00,1.772544622421264648e+00,1.772384643554687500e+00,1.772224545478820801e+00,1.772064566612243652e+00,1.771904587745666504e+00,1.771744489669799805e+00,1.771584630012512207e+00,1.771424651145935059e+00,1.771264791488647461e+00,1.771104812622070312e+00,1.770945072174072266e+00,1.770785212516784668e+00,1.770625472068786621e+00,1.770465612411499023e+00,1.770305871963500977e+00,1.770146369934082031e+00,1.769986748695373535e+00,1.769827127456665039e+00,1.769667506217956543e+00,1.769507884979248047e+00,1.769348382949829102e+00,1.769188761711120605e+00,1.769029259681701660e+00,1.768869876861572266e+00,1.768710374832153320e+00,1.768550992012023926e+00,1.768391609191894531e+00,1.768232226371765137e+00,1.768073081970214844e+00,1.767913818359375000e+00,1.767754554748535156e+00,1.767595291137695312e+00,1.767436027526855469e+00,1.767276883125305176e+00,1.767117738723754883e+00,1.766958594322204590e+00,1.766799569129943848e+00,1.766640424728393555e+00,1.766481399536132812e+00,1.766322374343872070e+00,1.766163468360900879e+00,1.766004443168640137e+00,1.765845775604248047e+00,1.765686869621276855e+00,1.765527963638305664e+00,1.765369176864624023e+00
1.607765793800354004e+00,1.607634067535400391e+00,1.607502341270446777e+00,1.607370734214782715e+00,1.607239007949829102e+00,1.607107400894165039e+00,1.606975793838500977e+00,1.606844186782836914e+00,1.606712698936462402e+00,1.606581091880798340e+00,1.606449604034423828e+00,1.606318116188049316e+00,1.606186747550964355e+00,1.606055259704589844e+00,1.605923771858215332e+00,1.605792403221130371e+00,1.605661034584045410e+00,1.605529665946960449e+00,1.605398297309875488e+00,1.605266928672790527e+00,1.605135679244995117e+00,1.605004310607910156e+00,1.604873061180114746e+00,1.604741811752319336e+00,1.604610562324523926e+00,1.604479432106018066e+00,1.604348301887512207e+00,1.604217171669006348e+00,1.604086041450500488e+00,1.603954911231994629e+00,1.603823781013488770e+00,1.603692770004272461e+00,1.603561758995056152e+00,1.603430628776550293e+00,1.603299617767333984e+00,1.603168725967407227e+00,1.603037714958190918e+00,1.602906703948974609e+00,1.602775812149047852e+00,1.602645039558410645e+00,1.602514147758483887e+00,1.602383375167846680e+00,1.602252483367919922e+00,1.602121710777282715e+00,1.601990818977355957e+00,1.601860046386718750e+00,1.601729393005371094e+00,1.601598620414733887e+00,1.601467847824096680e+00,1.601337194442749023e+00,1.601206541061401367e+00,1.601075887680053711e+00,1.600945234298706055e+00,1.600814819335937500e+00,1.600684285163879395e+00,1.600553631782531738e+00,1.600423097610473633e+00,1.600292563438415527e+00,1.600162148475646973e+00,1.600031614303588867e+00,1.599901080131530762e+00,1.599770665168762207e+00,1.599640250205993652e+00,1.599509954452514648e+00,1.599379539489746094e+00,1.599249124526977539e+00,1.599118947982788086e+00,1.598988652229309082e+00,1.598858356475830078e+00,1.598728179931640625e+00,1.598597884178161621e+00,1.598467707633972168e+00,1.598337531089782715e+00,1.598207235336303711e+00,1.598077178001403809e+00,1.597947001457214355e+00,1.597816824913024902e+00,1.597686767578125000e+00,1.597556710243225098e+00,1.597426652908325195e+00
1.467277765274047852e+00,1.467168092727661133e+00,1.467058300971984863e+00,1.466948866844177246e+00,1.466839194297790527e+00,1.466729521751403809e+00,1.466619849205017090e+00,1.466510295867919922e+00,1.466400623321533203e+00,1.466291069984436035e+00,1.466181516647338867e+00,1.466071963310241699e+00,1.465962409973144531e+00,1.465852975845336914e+00,1.465743422508239746e+00,1.465633988380432129e+00,1.465524554252624512e+00,1.465415239334106445e+00,1.465305805206298828e+00,1.465196371078491211e+00,1.465086936950683594e+00,1.464977622032165527e+00,1.464868187904357910e+00,1.464758872985839844e+00,1.464649558067321777e+00,1.464540243148803711e+00,1.464430928230285645e+00,1.464321613311767578e+00,1.464212298393249512e+00,1.464103102684020996e+00,1.463994026184082031e+00,1.463884830474853516e+00,1.463775515556335449e+00,1.463666439056396484e+00,1.463557243347167969e+00,1.463448047637939453e+00,1.463338971138000488e+00,1.463229775428771973e+00,1.463120698928833008e+00,1.463011622428894043e+00,1.462902545928955078e+00,1.462793469429016113e+00,1.462684512138366699e+00,1.462575435638427734e+00,1.462466597557067871e+00,1.462357521057128906e+00,1.462248563766479492e+00,1.462139606475830078e+00,1.462030649185180664e+00,1.461921811103820801e+00,1.461812853813171387e+00,1.461704015731811523e+00,1.461595058441162109e+00,1.461486220359802246e+00,1.461377382278442383e+00,1.461268544197082520e+00,1.461159825325012207e+00,1.461051106452941895e+00,1.460942268371582031e+00,1.460833549499511719e+00,1.460724830627441406e+00,1.460616111755371094e+00,1.460507392883300781e+00,1.460398674011230469e+00,1.460289955139160156e+00,1.460181355476379395e+00,1.460072636604309082e+00,1.459964036941528320e+00,1.459855437278747559e+00,1.459746837615966797e+00,1.459638237953186035e+00,1.459529757499694824e+00,1.459421277046203613e+00,1.459312677383422852e+00,1.459204196929931641e+00,1.459095716476440430e+00,1.458987236022949219e+00,1.458878755569458008e+00,1.458770275115966797e+00,1.458661794662475586e+00
1.349368810653686523e+00,1.349275946617126465e+00,1.349183201789855957e+00,1.349090456962585449e+00,1.348997712135314941e+00,1.348904967308044434e+00,1.348812222480773926e+00,1.348719596862792969e+00,1.348626971244812012e+00,1.348534226417541504e+00,1.348441600799560547e+00,1.348348975181579590e+00,1.348256230354309082e+00,1.348163604736328125e+00,1.348071098327636719e+00,1.347978472709655762e+00,1.347885847091674805e+00,1.347793221473693848e+00,1.347700715065002441e+00,1.347608089447021484e+00,1.347515583038330078e+00,1.347423195838928223e+00,1.347330689430236816e+00,1.347238183021545410e+00,1.347145676612854004e+00,1.347053170204162598e+00,1.346960783004760742e+00,1.346868276596069336e+00,1.346775889396667480e+00,1.346683382987976074e+00,1.346590995788574219e+00,1.346498608589172363e+00,1.346406221389770508e+00,1.346313834190368652e+00,1.346221566200256348e+00,1.346129179000854492e+00,1.346036911010742188e+00,1.345944523811340332e+00,1.345852255821228027e+00,1.345759987831115723e+00,1.345667719841003418e+00,1.345575332641601562e+00,1.345483183860778809e+00,1.345390915870666504e+00,1.345298647880554199e+00,1.345206379890441895e+00,1.345114231109619141e+00,1.345021963119506836e+00,1.344929933547973633e+00,1.344837784767150879e+00,1.344745516777038574e+00,1.344653367996215820e+00,1.344561338424682617e+00,1.344469189643859863e+00,1.344377040863037109e+00,1.344284892082214355e+00,1.344192862510681152e+00,1.344100832939147949e+00,1.344008684158325195e+00,1.343916654586791992e+00,1.343824625015258789e+00,1.343732714653015137e+00,1.343640685081481934e+00,1.343548655509948730e+00,1.343456745147705078e+00,1.343364715576171875e+00,1.343272805213928223e+00,1.343180775642395020e+00,1.343088865280151367e+00,1.342996954917907715e+00,1.342905044555664062e+00,1.342813134193420410e+00,1.342721223831176758e+00,1.342629432678222656e+00,1.342537522315979004e+00,1.342445731163024902e+00,1.342353940010070801e+00,1.342262148857116699e+00,1.342170357704162598e+00,1.342078447341918945e+00
1.249000310897827148e+00,1.248920798301696777e+00,1.248841404914855957e+00,1.248761892318725586e+00,1.248682498931884766e+00,1.248602986335754395e+00,1.248523592948913574e+00,1.248444080352783203e+00,1.248364686965942383e+00,1.248285293579101562e+00,1.248205900192260742e+00,1.248126506805419922e+00,1.248047113418579102e+00,1.247967839241027832e+00,1.247888445854187012e+00,1.247809052467346191e+00,1.247729778289794922e+00,1.247650384902954102e+00,1.247571110725402832e+00,1.247491717338562012e+00,1.247412443161010742e+00,1.247333168983459473e+00,1.247253894805908203e+00,1.247174620628356934e+00,1.247095346450805664e+00,1.247016191482543945e+00,1.246936917304992676e+00,1.246857762336730957e+00,1.246778488159179688e+00,1.246699213981628418e+00,1.246620059013366699e+00,1.246540904045104980e+00,1.246461629867553711e+00,1.246382474899291992e+00,1.246303319931030273e+00,1.246224164962768555e+00,1.246145009994506836e+00,1.246065974235534668e+00,1.245986819267272949e+00,1.245907783508300781e+00,1.245828628540039062e+00,1.245749592781066895e+00,1.245670557022094727e+00,1.245591402053833008e+00,1.245512366294860840e+00,1.245433330535888672e+00,1.245354294776916504e+00,1.245275259017944336e+00,1.245196223258972168e+00,1.245117187500000000e+00,1.245038151741027832e+00,1.244959235191345215e+00,1.244880318641662598e+00,1.244801402091979980e+00,1.244722366333007812e+00,1.244643449783325195e+00,1.244564533233642578e+00,1.244485497474670410e+00,1.244406580924987793e+00,1.244327664375305176e+00,1.244248867034912109e+00,1.244169950485229492e+00,1.244091033935546875e+00,1.244012236595153809e+00,1.243933320045471191e+00,1.243854403495788574e+00,1.243775725364685059e+00,1.243696928024291992e+00,1.243618011474609375e+00,1.243539214134216309e+00,1.243460416793823242e+00,1.243381619453430176e+00,1.243302822113037109e+00,1.243224143981933594e+00,1.243145346641540527e+00,1.243066549301147461e+00,1.242987871170043945e+00,1.242909073829650879e+00,1.242830395698547363e+00,1.242751836776733398e+00
1.162529349327087402e+00,1.162460446357727051e+00,1.162391662597656250e+00,1.162322878837585449e+00,1.162253975868225098e+00,1.162185192108154297e+00,1.162116289138793945e+00,1.162047505378723145e+00,1.161978721618652344e+00,1.161909818649291992e+00,1.161841034889221191e+00,1.161772251129150391e+00,1.161703467369079590e+00,1.161634683609008789e+00,1.161566019058227539e+00,1.161497235298156738e+00,1.161428570747375488e+00,1.161359786987304688e+00,1.161291122436523438e+00,1.161222338676452637e+00,1.161153674125671387e+00,1.161084890365600586e+00,1.161016225814819336e+00,1.160947561264038086e+00,1.160878896713256836e+00,1.160810232162475586e+00,1.160741567611694336e+00,1.160672903060913086e+00,1.160604238510131836e+00,1.160535693168640137e+00,1.160467028617858887e+00,1.160398364067077637e+00,1.160329818725585938e+00,1.160261154174804688e+00,1.160192608833312988e+00,1.160123944282531738e+00,1.160055398941040039e+00,1.159986734390258789e+00,1.159918189048767090e+00,1.159849643707275391e+00,1.159781098365783691e+00,1.159712553024291992e+00,1.159644007682800293e+00,1.159575581550598145e+00,1.159507036209106445e+00,1.159438490867614746e+00,1.159370064735412598e+00,1.159301519393920898e+00,1.159233093261718750e+00,1.159164547920227051e+00,1.159096121788024902e+00,1.159027576446533203e+00,1.158959150314331055e+00,1.158890724182128906e+00,1.158822298049926758e+00,1.158753871917724609e+00,1.158685445785522461e+00,1.158617138862609863e+00,1.158548712730407715e+00,1.158480286598205566e+00,1.158411860466003418e+00,1.158343553543090820e+00,1.158275127410888672e+00,1.158206820487976074e+00,1.158138394355773926e+00,1.158070087432861328e+00,1.158001780509948730e+00,1.157933354377746582e+00,1.157865047454833984e+00,1.157796740531921387e+00,1.157728552818298340e+00,1.157660245895385742e+00,1.157591938972473145e+00,1.157523632049560547e+00,1.157455325126647949e+00,1.157387137413024902e+00,1.157318830490112305e+00,1.157250642776489258e+00,1.157182335853576660e+00,1.157114148139953613e+00
1.087256193161010742e+00,1.087195992469787598e+00,1.087135791778564453e+00,1.087075471878051758e+00,1.087015271186828613e+00,1.086955070495605469e+00,1.086894989013671875e+00,1.086834788322448730e+00,1.086774587631225586e+00,1.086714386940002441e+00,1.086654186248779297e+00,1.086593985557556152e+00,1.086533904075622559e+00,1.086473703384399414e+00,1.086413502693176270e+00,1.086353421211242676e+00,1.086293220520019531e+00,1.086233139038085938e+00,1.086173057556152344e+00,1.086112856864929199e+00,1.086052894592285156e+00,1.085992693901062012e+00,1.085932612419128418e+00,1.085872530937194824e+00,1.085812449455261230e+00,1.085752367973327637e+00,1.085692286491394043e+00,1.085632205009460449e+00,1.085572123527526855e+00,1.085512161254882812e+00,1.085452079772949219e+00,1.085391998291015625e+00,1.085332036018371582e+00,1.085272073745727539e+00,1.085211992263793945e+00,1.085152029991149902e+00,1.085092067718505859e+00,1.085031986236572266e+00,1.084972023963928223e+00,1.084912061691284180e+00,1.084852099418640137e+00,1.084792137145996094e+00,1.084732055664062500e+00,1.084672093391418457e+00,1.084612131118774414e+00,1.084552288055419922e+00,1.084492325782775879e+00,1.084432482719421387e+00,1.084372520446777344e+00,1.084312558174133301e+00,1.084252715110778809e+00,1.084192752838134766e+00,1.084132909774780273e+00,1.084072947502136230e+00,1.084013104438781738e+00,1.083953261375427246e+00,1.083893299102783203e+00,1.083833456039428711e+00,1.083773612976074219e+00,1.083713769912719727e+00,1.083653926849365234e+00,1.083594083786010742e+00,1.083534240722656250e+00,1.083474516868591309e+00,1.083414673805236816e+00,1.083354830741882324e+00,1.083294987678527832e+00,1.083235263824462891e+00,1.083175420761108398e+00,1.083115577697753906e+00,1.083055853843688965e+00,1.082996129989624023e+00,1.082936286926269531e+00,1.082876563072204590e+00,1.082816839218139648e+00,1.082757115364074707e+00,1.082697391510009766e+00,1.082637667655944824e+00,1.082577943801879883e+00,1.082518219947814941e+00
1.021138191223144531e+00,1.021085023880004883e+00,1.021031856536865234e+00,1.020978808403015137e+00,1.020925641059875488e+00,1.020872473716735840e+00,1.020819425582885742e+00,1.020766258239746094e+00,1.020713210105895996e+00,1.020660161972045898e+00,1.020606994628906250e+00,1.020554065704345703e+00,1.020500898361206055e+00,1.020447850227355957e+00,1.020394802093505859e+00,1.020341753959655762e+00,1.020288705825805664e+00,1.020235657691955566e+00,1.020182609558105469e+00,1.020129561424255371e+00,1.020076513290405273e+00,1.020023465156555176e+00,1.019970536231994629e+00,1.019917488098144531e+00,1.019864559173583984e+00,1.019811511039733887e+00,1.019758582115173340e+00,1.019705533981323242e+00,1.019652605056762695e+00,1.019599556922912598e+00,1.019546627998352051e+00,1.019493579864501953e+00,1.019440650939941406e+00,1.019387722015380859e+00,1.019334793090820312e+00,1.019281744956970215e+00,1.019228816032409668e+00,1.019175887107849121e+00,1.019123077392578125e+00,1.019070148468017578e+00,1.019017219543457031e+00,1.018964290618896484e+00,1.018911361694335938e+00,1.018858432769775391e+00,1.018805623054504395e+00,1.018752694129943848e+00,1.018699765205383301e+00,1.018646955490112305e+00,1.018594026565551758e+00,1.018541097640991211e+00,1.018488287925720215e+00,1.018435478210449219e+00,1.018382668495178223e+00,1.018329739570617676e+00,1.018276929855346680e+00,1.018224120140075684e+00,1.018171310424804688e+00,1.018118381500244141e+00,1.018065571784973145e+00,1.018012762069702148e+00,1.017959952354431152e+00,1.017907142639160156e+00,1.017854332923889160e+00,1.017801523208618164e+00,1.017748832702636719e+00,1.017696022987365723e+00,1.017643332481384277e+00,1.017590522766113281e+00,1.017537713050842285e+00,1.017485022544860840e+00,1.017432212829589844e+00,1.017379522323608398e+00,1.017326712608337402e+00,1.017274022102355957e+00,1.017221212387084961e+00,1.017168521881103516e+00,1.017115831375122070e+00,1.017063140869140625e+00,1.017010450363159180e+00,1.016957759857177734e+00
9.626006484031677246e-01,9.625534415245056152e-01,9.625061750411987305e-01,9.624590277671813965e-01,9.624117612838745117e-01,9.623646140098571777e-01,9.623173475265502930e-01,9.622702002525329590e-01,9.622229933738708496e-01,9.621758460998535156e-01,9.621286392211914062e-01,9.620814919471740723e-01,9.620342850685119629e-01,9.619871973991394043e-01,9.619399905204772949e-01,9.618928432464599609e-01,9.618457555770874023e-01,9.617986083030700684e-01,9.617515206336975098e-01,9.617043137550354004e-01,9.616572260856628418e-01,9.616100192070007324e-01,9.615629911422729492e-01,9.615157842636108398e-01,9.614687561988830566e-01,9.614216089248657227e-01,9.613745212554931641e-01,9.613273739814758301e-01,9.612803459167480469e-01,9.612333178520202637e-01,9.611861705780029297e-01,9.611391425132751465e-01,9.610919952392578125e-01,9.610450267791748047e-01,9.609978795051574707e-01,9.609508514404296875e-01,9.609037637710571289e-01,9.608567953109741211e-01,9.608096480369567871e-01,9.607626795768737793e-01,9.607155919075012207e-01,9.606686234474182129e-01,9.606215953826904297e-01,9.605745673179626465e-01,9.605275988578796387e-01,9.604805111885070801e-01,9.604335427284240723e-01,9.603865146636962891e-01,9.603395462036132812e-01,9.602925181388854980e-01,9.602455496788024902e-01,9.601985216140747070e-01,9.601515531539916992e-01,9.601045250892639160e-01,9.600576162338256836e-01,9.600107073783874512e-01,9.599636793136596680e-01,9.599167704582214355e-01,9.598698019981384277e-01,9.598228931427001953e-01,9.597758650779724121e-01,9.597290158271789551e-01,9.596819877624511719e-01,9.596351385116577148e-01,9.595881104469299316e-01,9.595412611961364746e-01,9.594942927360534668e-01,9.594474434852600098e-01,9.594004750251770020e-01,9.593536257743835449e-01,9.593067765235900879e-01,9.592598080635070801e-01,9.592129588127136230e-01,9.591660499572753906e-01,9.591192007064819336e-01,9.590722918510437012e-01,9.590254426002502441e-01,9.589785337448120117e-01,9.589317440986633301e-01,9.588847756385803223e-01
9.104105830192565918e-01,9.103683233261108398e-01,9.103261232376098633e-01,9.102838635444641113e-01,9.102416634559631348e-01,9.101995229721069336e-01,9.101572632789611816e-01,9.101150631904602051e-01,9.100728034973144531e-01,9.100306630134582520e-01,9.099884033203125000e-01,9.099462628364562988e-01,9.099040031433105469e-01,9.098618626594543457e-01,9.098196029663085938e-01,9.097775220870971680e-01,9.097352623939514160e-01,9.096931219100952148e-01,9.096509218215942383e-01,9.096087813377380371e-01,9.095667004585266113e-01,9.095245003700256348e-01,9.094823598861694336e-01,9.094401597976684570e-01,9.093980789184570312e-01,9.093558788299560547e-01,9.093137979507446289e-01,9.092715978622436523e-01,9.092295169830322266e-01,9.091873764991760254e-01,9.091452956199645996e-01,9.091030955314636230e-01,9.090610146522521973e-01,9.090189933776855469e-01,9.089767932891845703e-01,9.089347720146179199e-01,9.088926315307617188e-01,9.088505506515502930e-01,9.088084101676940918e-01,9.087663888931274414e-01,9.087242484092712402e-01,9.086822271347045898e-01,9.086400866508483887e-01,9.085980653762817383e-01,9.085559248924255371e-01,9.085139036178588867e-01,9.084719419479370117e-01,9.084298014640808105e-01,9.083877801895141602e-01,9.083456993103027344e-01,9.083037376403808594e-01,9.082615971565246582e-01,9.082196354866027832e-01,9.081775546073913574e-01,9.081355929374694824e-01,9.080935120582580566e-01,9.080514907836914062e-01,9.080094695091247559e-01,9.079675078392028809e-01,9.079254269599914551e-01,9.078834652900695801e-01,9.078415036201477051e-01,9.077994823455810547e-01,9.077575206756591797e-01,9.077154994010925293e-01,9.076735377311706543e-01,9.076315164566040039e-01,9.075895547866821289e-01,9.075475335121154785e-01,9.075056314468383789e-01,9.074636101722717285e-01,9.074217081069946289e-01,9.073796868324279785e-01,9.073377847671508789e-01,9.072958827018737793e-01,9.072538614273071289e-01,9.072119593620300293e-01,9.071699976921081543e-01,9.071280956268310547e-01,9.070861339569091797e-01
8.635888099670410156e-01,8.635507225990295410e-01,8.635128140449523926e-01,8.634747266769409180e-01,8.634368181228637695e-01,8.633987903594970703e-01,8.633608222007751465e-01,8.633227944374084473e-01,8.632848262786865234e-01,8.632468581199645996e-01,8.632088899612426758e-01,8.631709814071655273e-01,8.631329536437988281e-01,8.630950450897216797e-01,8.630570173263549805e-01,8.630191087722778320e-01,8.629811406135559082e-01,8.629432320594787598e-01,8.629052042961120605e-01,8.628672957420349121e-01,8.628293275833129883e-01,8.627914190292358398e-01,8.627534508705139160e-01,8.627156019210815430e-01,8.626776933670043945e-01,8.626397252082824707e-01,8.626018166542053223e-01,8.625639081001281738e-01,8.625259995460510254e-01,8.624880313873291016e-01,8.624501824378967285e-01,8.624122142791748047e-01,8.623743653297424316e-01,8.623364567756652832e-01,8.622986078262329102e-01,8.622606396675109863e-01,8.622227907180786133e-01,8.621849417686462402e-01,8.621470332145690918e-01,8.621091842651367188e-01,8.620712757110595703e-01,8.620334863662719727e-01,8.619955182075500488e-01,8.619577288627624512e-01,8.619198203086853027e-01,8.618820309638977051e-01,8.618441224098205566e-01,8.618062734603881836e-01,8.617684245109558105e-01,8.617306351661682129e-01,8.616927862167358398e-01,8.616549372673034668e-01,8.616171479225158691e-01,8.615792393684387207e-01,8.615414500236511230e-01,8.615036010742187500e-01,8.614658117294311523e-01,8.614279627799987793e-01,8.613901734352111816e-01,8.613523244857788086e-01,8.613145947456359863e-01,8.612767457962036133e-01,8.612389564514160156e-01,8.612011075019836426e-01,8.611633777618408203e-01,8.611256480216979980e-01,8.610877990722656250e-01,8.610500693321228027e-01,8.610122203826904297e-01,8.609744906425476074e-01,8.609367012977600098e-01,8.608989715576171875e-01,8.608611226081848145e-01,8.608233928680419922e-01,8.607856035232543945e-01,8.607478737831115723e-01,8.607100844383239746e-01,8.606723546981811523e-01,8.606346845626831055e-01,8.605968952178955078e-01
8.213474154472351074e-01,8.213130235671997070e-01,8.212786912918090820e-01,8.212442994117736816e-01,8.212099671363830566e-01,8.211755752563476562e-01,8.211412429809570312e-01,8.211068511009216309e-01,8.210725188255310059e-01,8.210381269454956055e-01,8.210037946701049805e-01,8.209694027900695801e-01,8.209351301193237305e-01,8.209007382392883301e-01,8.208664059638977051e-01,8.208321332931518555e-01,8.207977414131164551e-01,8.207634687423706055e-01,8.207290768623352051e-01,8.206948041915893555e-01,8.206604719161987305e-01,8.206261396408081055e-01,8.205918073654174805e-01,8.205575346946716309e-01,8.205232024192810059e-01,8.204889297485351562e-01,8.204545974731445312e-01,8.204203248023986816e-01,8.203860521316528320e-01,8.203517198562622070e-01,8.203174471855163574e-01,8.202831149101257324e-01,8.202489018440246582e-01,8.202145695686340332e-01,8.201802968978881836e-01,8.201459646224975586e-01,8.201117515563964844e-01,8.200774192810058594e-01,8.200432062149047852e-01,8.200088739395141602e-01,8.199746608734130859e-01,8.199404478073120117e-01,8.199061155319213867e-01,8.198719024658203125e-01,8.198376297950744629e-01,8.198034167289733887e-01,8.197691440582275391e-01,8.197349309921264648e-01,8.197006583213806152e-01,8.196664452552795410e-01,8.196321725845336914e-01,8.195979595184326172e-01,8.195636868476867676e-01,8.195295333862304688e-01,8.194952607154846191e-01,8.194610476493835449e-01,8.194268941879272461e-01,8.193926215171813965e-01,8.193584680557250977e-01,8.193241953849792480e-01,8.192900419235229492e-01,8.192557692527770996e-01,8.192216157913208008e-01,8.191874027252197266e-01,8.191531896591186523e-01,8.191189765930175781e-01,8.190848231315612793e-01,8.190506100654602051e-01,8.190164566040039062e-01,8.189823031425476074e-01,8.189480900764465332e-01,8.189139366149902344e-01,8.188797235488891602e-01,8.188456296920776367e-01,8.188114166259765625e-01,8.187772631645202637e-01,8.187430500984191895e-01,8.187089562416076660e-01,8.186747431755065918e-01,8.186406493186950684e-01
7.830457091331481934e-01,7.830144762992858887e-01,7.829832434654235840e-01,7.829520106315612793e-01,7.829207181930541992e-01,7.828895449638366699e-01,7.828583121299743652e-01,7.828270792961120605e-01,7.827959060668945312e-01,7.827646136283874512e-01,7.827334403991699219e-01,7.827021479606628418e-01,7.826709747314453125e-01,7.826397418975830078e-01,7.826085686683654785e-01,7.825772762298583984e-01,7.825461030006408691e-01,7.825148701667785645e-01,7.824836969375610352e-01,7.824525237083435059e-01,7.824212908744812012e-01,7.823901772499084473e-01,7.823589444160461426e-01,7.823277711868286133e-01,7.822965383529663086e-01,7.822653651237487793e-01,7.822341918945312500e-01,7.822030186653137207e-01,7.821717858314514160e-01,7.821406722068786621e-01,7.821094393730163574e-01,7.820783257484436035e-01,7.820472121238708496e-01,7.820159792900085449e-01,7.819848656654357910e-01,7.819536328315734863e-01,7.819225192070007324e-01,7.818913459777832031e-01,7.818602323532104492e-01,7.818289995193481445e-01,7.817978858947753906e-01,7.817667126655578613e-01,7.817355990409851074e-01,7.817044258117675781e-01,7.816733121871948242e-01,7.816422581672668457e-01,7.816110849380493164e-01,7.815799713134765625e-01,7.815487980842590332e-01,7.815177440643310547e-01,7.814865708351135254e-01,7.814554572105407715e-01,7.814242839813232422e-01,7.813932299613952637e-01,7.813620567321777344e-01,7.813310027122497559e-01,7.812998294830322266e-01,7.812687754631042480e-01,7.812376618385314941e-01,7.812065482139587402e-01,7.811754941940307617e-01,7.811443805694580078e-01,7.811133265495300293e-01,7.810822129249572754e-01,7.810511589050292969e-01,7.810199856758117676e-01,7.809889316558837891e-01,7.809578180313110352e-01,7.809268236160278320e-01,7.808957099914550781e-01,7.808646559715270996e-01,7.808335423469543457e-01,7.808024883270263672e-01,7.807714939117431641e-01,7.807403802871704102e-01,7.807093262672424316e-01,7.806782722473144531e-01,7.806472182273864746e-01,7.806161046028137207e-01,7.805851101875305176e-01
7.481570839881896973e-01,7.481285929679870605e-01,7.481000423431396484e-01,7.480715513229370117e-01,7.480430006980895996e-01,7.480145096778869629e-01,7.479859590530395508e-01,7.479575276374816895e-01,7.479289770126342773e-01,7.479004859924316406e-01,7.478719949722290039e-01,7.478435039520263672e-01,7.478150129318237305e-01,7.477864623069763184e-01,7.477580308914184570e-01,7.477294802665710449e-01,7.477010488510131836e-01,7.476724982261657715e-01,7.476440668106079102e-01,7.476155161857604980e-01,7.475870847702026367e-01,7.475585937500000000e-01,7.475301027297973633e-01,7.475016713142395020e-01,7.474731802940368652e-01,7.474447488784790039e-01,7.474162578582763672e-01,7.473877668380737305e-01,7.473592758178710938e-01,7.473308444023132324e-01,7.473023533821105957e-01,7.472739219665527344e-01,7.472454309463500977e-01,7.472170591354370117e-01,7.471885681152343750e-01,7.471601366996765137e-01,7.471317052841186523e-01,7.471032142639160156e-01,7.470748424530029297e-01,7.470463514328002930e-01,7.470179200172424316e-01,7.469894886016845703e-01,7.469610571861267090e-01,7.469326257705688477e-01,7.469041943550109863e-01,7.468757629394531250e-01,7.468473315238952637e-01,7.468189001083374023e-01,7.467904686927795410e-01,7.467620968818664551e-01,7.467336654663085938e-01,7.467052936553955078e-01,7.466768026351928711e-01,7.466484308242797852e-01,7.466199994087219238e-01,7.465916275978088379e-01,7.465631961822509766e-01,7.465348243713378906e-01,7.465063929557800293e-01,7.464780211448669434e-01,7.464495897293090820e-01,7.464212179183959961e-01,7.463927865028381348e-01,7.463644742965698242e-01,7.463361024856567383e-01,7.463076710700988770e-01,7.462792992591857910e-01,7.462509274482727051e-01,7.462225556373596191e-01,7.461941838264465332e-01,7.461658120155334473e-01,7.461373805999755859e-01,7.461090683937072754e-01,7.460806965827941895e-01,7.460523247718811035e-01,7.460239529609680176e-01,7.459955811500549316e-01,7.459672689437866211e-01,7.459388971328735352e-01,7.459105849266052246e-01
7.162447571754455566e-01,7.162186503410339355e-01,7.161924839019775391e-01,7.161663770675659180e-01,7.161402106285095215e-01,7.161141037940979004e-01,7.160879373550415039e-01,7.160618305206298828e-01,7.160357236862182617e-01,7.160096168518066406e-01,7.159834504127502441e-01,7.159573435783386230e-01,7.159311771392822266e-01,7.159051299095153809e-01,7.158790230751037598e-01,7.158528566360473633e-01,7.158268094062805176e-01,7.158006429672241211e-01,7.157745361328125000e-01,7.157484292984008789e-01,7.157223224639892578e-01,7.156962156295776367e-01,7.156701683998107910e-01,7.156440019607543945e-01,7.156179547309875488e-01,7.155917882919311523e-01,7.155657410621643066e-01,7.155396938323974609e-01,7.155135869979858398e-01,7.154874801635742188e-01,7.154613733291625977e-01,7.154353260993957520e-01,7.154092192649841309e-01,7.153831720352172852e-01,7.153570652008056641e-01,7.153310179710388184e-01,7.153049111366271973e-01,7.152788639068603516e-01,7.152527570724487305e-01,7.152267098426818848e-01,7.152006626129150391e-01,7.151745557785034180e-01,7.151485681533813477e-01,7.151224613189697266e-01,7.150964140892028809e-01,7.150703668594360352e-01,7.150443196296691895e-01,7.150182127952575684e-01,7.149922251701354980e-01,7.149661183357238770e-01,7.149401307106018066e-01,7.149140238761901855e-01,7.148880362510681152e-01,7.148619294166564941e-01,7.148359417915344238e-01,7.148098945617675781e-01,7.147838473320007324e-01,7.147578597068786621e-01,7.147317528724670410e-01,7.147057652473449707e-01,7.146797180175781250e-01,7.146537303924560547e-01,7.146276831626892090e-01,7.146016359329223633e-01,7.145755887031555176e-01,7.145496010780334473e-01,7.145235538482666016e-01,7.144975662231445312e-01,7.144715785980224609e-01,7.144455313682556152e-01,7.144196033477783203e-01,7.143935561180114746e-01,7.143675684928894043e-01,7.143415212631225586e-01,7.143155336380004883e-01,7.142894864082336426e-01,7.142635583877563477e-01,7.142375111579895020e-01,7.142115235328674316e-01,7.141855359077453613e-01
6.869435310363769531e-01,6.869194507598876953e-01,6.868954300880432129e-01,6.868713498115539551e-01,6.868473291397094727e-01,6.868233084678649902e-01,6.867992877960205078e-01,6.867752671241760254e-01,6.867511868476867676e-01,6.867271661758422852e-01,6.867031455039978027e-01,6.866791248321533203e-01,6.866550445556640625e-01,6.866310834884643555e-01,6.866070032119750977e-01,6.865830421447753906e-01,6.865589618682861328e-01,6.865350008010864258e-01,6.865109801292419434e-01,6.864869594573974609e-01,6.864629387855529785e-01,6.864389181137084961e-01,6.864148974418640137e-01,6.863908767700195312e-01,6.863669157028198242e-01,6.863428950309753418e-01,6.863188743591308594e-01,6.862948536872863770e-01,6.862708926200866699e-01,6.862468719482421875e-01,6.862229108810424805e-01,6.861988902091979980e-01,6.861748695373535156e-01,6.861509084701538086e-01,6.861268877983093262e-01,6.861029267311096191e-01,6.860789060592651367e-01,6.860549449920654297e-01,6.860309243202209473e-01,6.860070228576660156e-01,6.859830021858215332e-01,6.859590411186218262e-01,6.859350204467773438e-01,6.859110593795776367e-01,6.858871579170227051e-01,6.858631372451782227e-01,6.858391761779785156e-01,6.858151555061340332e-01,6.857912540435791016e-01,6.857672333717346191e-01,6.857433319091796875e-01,6.857193112373352051e-01,6.856954097747802734e-01,6.856713891029357910e-01,6.856474876403808594e-01,6.856234669685363770e-01,6.855995655059814453e-01,6.855755448341369629e-01,6.855516433715820312e-01,6.855277419090270996e-01,6.855037212371826172e-01,6.854798197746276855e-01,6.854558587074279785e-01,6.854319572448730469e-01,6.854079961776733398e-01,6.853840351104736328e-01,6.853600740432739258e-01,6.853361725807189941e-01,6.853122115135192871e-01,6.852883100509643555e-01,6.852643489837646484e-01,6.852404475212097168e-01,6.852165460586547852e-01,6.851925849914550781e-01,6.851686835289001465e-01,6.851447224617004395e-01,6.851208806037902832e-01,6.850969195365905762e-01,6.850730180740356445e-01,6.850490570068359375e-01
6.599454283714294434e-01,6.599231958389282227e-01,6.599010825157165527e-01,6.598788499832153320e-01,6.598566770553588867e-01,6.598344445228576660e-01,6.598122715950012207e-01,6.597900986671447754e-01,6.597679257392883301e-01,6.597457528114318848e-01,6.597235798835754395e-01,6.597014069557189941e-01,6.596792340278625488e-01,6.596570611000061035e-01,6.596348881721496582e-01,6.596127152442932129e-01,6.595905423164367676e-01,6.595683693885803223e-01,6.595461964607238770e-01,6.595240235328674316e-01,6.595018506050109863e-01,6.594796776771545410e-01,6.594575643539428711e-01,6.594353914260864258e-01,6.594132184982299805e-01,6.593910455703735352e-01,6.593689322471618652e-01,6.593467593193054199e-01,6.593246459960937500e-01,6.593024134635925293e-01,6.592803001403808594e-01,6.592581272125244141e-01,6.592360138893127441e-01,6.592138409614562988e-01,6.591917276382446289e-01,6.591696143150329590e-01,6.591474413871765137e-01,6.591253280639648438e-01,6.591031551361083984e-01,6.590810418128967285e-01,6.590588688850402832e-01,6.590367555618286133e-01,6.590146422386169434e-01,6.589925289154052734e-01,6.589703559875488281e-01,6.589482426643371582e-01,6.589260697364807129e-01,6.589040160179138184e-01,6.588818430900573730e-01,6.588597297668457031e-01,6.588376760482788086e-01,6.588155031204223633e-01,6.587933897972106934e-01,6.587712764739990234e-01,6.587491631507873535e-01,6.587270498275756836e-01,6.587049365043640137e-01,6.586828231811523438e-01,6.586607098579406738e-01,6.586385965347290039e-01,6.586165428161621094e-01,6.585943698883056641e-01,6.585723161697387695e-01,6.585502028465270996e-01,6.585280895233154297e-01,6.585060358047485352e-01,6.584839224815368652e-01,6.584618091583251953e-01,6.584396958351135254e-01,6.584176421165466309e-01,6.583955287933349609e-01,6.583734750747680664e-01,6.583513617515563965e-01,6.583293080329895020e-01,6.583071947097778320e-01,6.582851409912109375e-01,6.582630872726440430e-01,6.582409739494323730e-01,6.582189202308654785e-01,6.581968069076538086e-01
