5.000000000000000000e+00,5.000000000000000000e+00,5.000000000000000000e+00,5.000000000000000000e+00,5.000000000000000000e+00,5.000000000000000000e+00,5.000000000000000000e+00,5.000000000000000000e+00,5.000000000000000000e+00,5.000000000000000000e+00,5.000000000000000000e+00,5.000000000000000000e+00,5.000000000000000000e+00,5.000000000000000000e+00,5.000000000000000000e+00,5.000000000000000000e+00,5.000000000000000000e+00,5.000000000000000000e+00,5.000000000000000000e+00,5.000000000000000000e+00,5.000000000000000000e+00,5.000000000000000000e+00,5.000000000000000000e+00,5.000000000000000000e+00,5.000000000000000000e+00,5.000000000000000000e+00,5.000000000000000000e+00,5.000000000000000000e+00,5.000000000000000000e+00,5.000000000000000000e+00,5.000000000000000000e+00,5.000000000000000000e+00,5.000000000000000000e+00,5.000000000000000000e+00,5.000000000000000000e+00,5.000000000000000000e+00,5.000000000000000000e+00,5.000000000000000000e+00,5.000000000000000000e+00,1.546418547630310059e+00,1.519693255424499512e+00,1.523153901100158691e+00,1.520270943641662598e+00,1.487485885620117188e+00,1.476307988166809082e+00,1.474904417991638184e+00,1.473635673522949219e+00,1.487034082412719727e+00,1.561561584472656250e+00,1.535715460777282715e+00,1.530706763267517090e+00,1.527020335197448730e+00,1.525607228279113770e+00,1.688629150390625000e+00,1.663334727287292480e+00,1.654495954513549805e+00,2.935272455215454102e+00,2.864044904708862305e+00,2.796192646026611328e+00,2.731480598449707031e+00,2.669696331024169922e+00,2.610645055770874023e+00,2.554149627685546875e+00,2.500047445297241211e+00,2.448189973831176758e+00,2.398439884185791016e+00,2.350671529769897461e+00,2.304768800735473633e+00,2.260624408721923828e+00,2.218139410018920898e+00,2.177221775054931641e+00,2.137786388397216797e+00,2.099754095077514648e+00,2.063051462173461914e+00,2.027609825134277344e+00,1.993365406990051270e+00,1.960258364677429199e+00,1.928233265876770020e+00,1.897237420082092285e+00,1.867222666740417480e+00
5.000000000000000000e+00,5.000000000000000000e+00,5.000000000000000000e+00,5.000000000000000000e+00,5.000000000000000000e+00,5.000000000000000000e+00,5.000000000000000000e+00,5.000000000000000000e+00,5.000000000000000000e+00,5.000000000000000000e+00,5.000000000000000000e+00,5.000000000000000000e+00,5.000000000000000000e+00,5.000000000000000000e+00,5.000000000000000000e+00,5.000000000000000000e+00,5.000000000000000000e+00,5.000000000000000000e+00,5.000000000000000000e+00,5.000000000000000000e+00,5.000000000000000000e+00,5.000000000000000000e+00,5.000000000000000000e+00,5.000000000000000000e+00,5.000000000000000000e+00,5.000000000000000000e+00,5.000000000000000000e+00,5.000000000000000000e+00,5.000000000000000000e+00,5.000000000000000000e+00,5.000000000000000000e+00,5.000000000000000000e+00,5.000000000000000000e+00,5.000000000000000000e+00,5.000000000000000000e+00,5.000000000000000000e+00,5.000000000000000000e+00,5.000000000000000000e+00,5.000000000000000000e+00,1.548627614974975586e+00,1.527680158615112305e+00,1.527017712593078613e+00,1.520382642745971680e+00,1.483278274536132812e+00,1.474681496620178223e+00,1.473177075386047363e+00,1.471675753593444824e+00,1.476986169815063477e+00,1.525578975677490234e+00,1.534078478813171387e+00,1.521536827087402344e+00,1.519683599472045898e+00,1.517857432365417480e+00,1.573500156402587891e+00,1.682712078094482422e+00,1.661509394645690918e+00,2.935324668884277344e+00,2.864094495773315430e+00,2.796239614486694336e+00,2.731525659561157227e+00,2.669739246368408203e+00,2.610686063766479492e+00,2.554188728332519531e+00,2.500085115432739258e+00,2.448226213455200195e+00,2.398474693298339844e+00,2.350704908370971680e+00,2.304800987243652344e+00,2.260655403137207031e+00,2.218169212341308594e+00,2.177250385284423828e+00,2.137814044952392578e+00,2.099780559539794922e+00,2.063076972961425781e+00,2.027634620666503906e+00,1.993389368057250977e+00,1.960281729698181152e+00,1.928255558013916016e+00,1.897259354591369629e+00,1.867243647575378418e+00
5.000000000000000000e+00,5.000000000000000000e+00,5.000000000000000000e+00,5.000000000000000000e+00,5.000000000000000000e+00,5.000000000000000000e+00,5.000000000000000000e+00,5.000000000000000000e+00,5.000000000000000000e+00,5.000000000000000000e+00,5.000000000000000000e+00,5.000000000000000000e+00,5.000000000000000000e+00,5.000000000000000000e+00,5.000000000000000000e+00,5.000000000000000000e+00,5.000000000000000000e+00,5.000000000000000000e+00,5.000000000000000000e+00,5.000000000000000000e+00,5.000000000000000000e+00,5.000000000000000000e+00,5.000000000000000000e+00,5.000000000000000000e+00,5.000000000000000000e+00,5.000000000000000000e+00,5.000000000000000000e+00,5.000000000000000000e+00,5.000000000000000000e+00,5.000000000000000000e+00,5.000000000000000000e+00,5.000000000000000000e+00,5.000000000000000000e+00,5.000000000000000000e+00,5.000000000000000000e+00,5.000000000000000000e+00,5.000000000000000000e+00,5.000000000000000000e+00,5.000000000000000000e+00,1.554442405700683594e+00,1.520436763763427734e+00,1.523728489875793457e+00,1.522495627403259277e+00,1.491163372993469238e+00,1.474694967269897461e+00,1.472967147827148438e+00,1.471466064453125000e+00,1.474578380584716797e+00,1.519045233726501465e+00,1.535625696182250977e+00,1.516335129737854004e+00,1.515271782875061035e+00,1.514209866523742676e+00,1.551965475082397461e+00,1.637829542160034180e+00,1.627500891685485840e+00,2.935376405715942383e+00,2.864144086837768555e+00,2.796286821365356445e+00,2.731570482254028320e+00,2.669782400131225586e+00,2.610727310180664062e+00,2.554228305816650391e+00,2.500122785568237305e+00,2.448262214660644531e+00,2.398509263992309570e+00,2.350738286972045898e+00,2.304832935333251953e+00,2.260686159133911133e+00,2.218198776245117188e+00,2.177278995513916016e+00,2.137841701507568359e+00,2.099807262420654297e+00,2.063102722167968750e+00,2.027659416198730469e+00,1.993413209915161133e+00,1.960304856300354004e+00,1.928277969360351562e+00,1.897281050682067871e+00,1.867264628410339355e+00
5.000000000000000000e+00,5.000000000000000000e+00,5.000000000000000000e+00,5.000000000000000000e+00,5.000000000000000000e+00,5.000000000000000000e+00,5.000000000000000000e+00,5.000000000000000000e+00,5.000000000000000000e+00,5.000000000000000000e+00,5.000000000000000000e+00,5.000000000000000000e+00,5.000000000000000000e+00,5.000000000000000000e+00,5.000000000000000000e+00,5.000000000000000000e+00,5.000000000000000000e+00,5.000000000000000000e+00,5.000000000000000000e+00,5.000000000000000000e+00,5.000000000000000000e+00,5.000000000000000000e+00,5.000000000000000000e+00,5.000000000000000000e+00,5.000000000000000000e+00,5.000000000000000000e+00,5.000000000000000000e+00,5.000000000000000000e+00,5.000000000000000000e+00,5.000000000000000000e+00,5.000000000000000000e+00,5.000000000000000000e+00,5.000000000000000000e+00,5.000000000000000000e+00,5.000000000000000000e+00,5.000000000000000000e+00,5.000000000000000000e+00,5.000000000000000000e+00,5.000000000000000000e+00,1.545280814170837402e+00,1.503314256668090820e+00,1.499741077423095703e+00,1.508667588233947754e+00,1.499132633209228516e+00,1.475460886955261230e+00,1.472757101058959961e+00,1.471256613731384277e+00,1.472404003143310547e+00,1.515832543373107910e+00,1.536754965782165527e+00,1.512420296669006348e+00,1.511983513832092285e+00,1.510926246643066406e+00,1.534189343452453613e+00,3.089084625244140625e+00,1.605267763137817383e+00,1.617672443389892578e+00,2.864193677902221680e+00,2.796334028244018555e+00,2.731615543365478516e+00,2.669825077056884766e+00,2.610768318176269531e+00,2.554267644882202148e+00,2.500160455703735352e+00,2.448298215866088867e+00,2.398543834686279297e+00,2.350771665573120117e+00,2.304864883422851562e+00,2.260717153549194336e+00,2.218228578567504883e+00,2.177307605743408203e+00,2.137869119644165039e+00,2.099833965301513672e+00,2.063128471374511719e+00,2.027684211730957031e+00,1.993437170982360840e+00,1.960327982902526855e+00,1.928300619125366211e+00,1.897302746772766113e+00,1.867285847663879395e+00
5.000000000000000000e+00,5.000000000000000000e+00,5.000000000000000000e+00,5.000000000000000000e+00,5.000000000000000000e+00,5.000000000000000000e+00,5.000000000000000000e+00,5.000000000000000000e+00,5.000000000000000000e+00,5.000000000000000000e+00,5.000000000000000000e+00,5.000000000000000000e+00,5.000000000000000000e+00,5.000000000000000000e+00,5.000000000000000000e+00,5.000000000000000000e+00,5.000000000000000000e+00,5.000000000000000000e+00,5.000000000000000000e+00,5.000000000000000000e+00,5.000000000000000000e+00,5.000000000000000000e+00,5.000000000000000000e+00,5.000000000000000000e+00,5.000000000000000000e+00,5.000000000000000000e+00,5.000000000000000000e+00,5.000000000000000000e+00,5.000000000000000000e+00,5.000000000000000000e+00,5.000000000000000000e+00,5.000000000000000000e+00,5.000000000000000000e+00,5.000000000000000000e+00,5.000000000000000000e+00,5.000000000000000000e+00,5.000000000000000000e+00,5.000000000000000000e+00,5.000000000000000000e+00,1.532484531402587891e+00,1.491185903549194336e+00,1.497999072074890137e+00,1.489899992942810059e+00,1.507187485694885254e+00,1.476227521896362305e+00,1.473474860191345215e+00,1.471047163009643555e+00,1.470236063003540039e+00,1.511417031288146973e+00,1.537390708923339844e+00,1.512940287590026855e+00,1.507119417190551758e+00,1.507656812667846680e+00,1.516815543174743652e+00,3.089142322540283203e+00,1.597776412963867188e+00,1.611914873123168945e+00,2.864243030548095703e+00,2.796381235122680664e+00,2.731660604476928711e+00,2.669867992401123047e+00,2.610809564590454102e+00,2.554306983947753906e+00,2.500198364257812500e+00,2.448334693908691406e+00,2.398578643798828125e+00,2.350804805755615234e+00,2.304897069931030273e+00,2.260747909545898438e+00,2.218258142471313477e+00,2.177335977554321289e+00,2.137896537780761719e+00,2.099860668182373047e+00,2.063154220581054688e+00,2.027709007263183594e+00,1.993461370468139648e+00,1.960351109504699707e+00,1.928323030471801758e+00,1.897324323654174805e+00,1.867306828498840332e+00
5.000000000000000000e+00,5.000000000000000000e+00,5.000000000000000000e+00,5.000000000000000000e+00,5.000000000000000000e+00,5.000000000000000000e+00,5.000000000000000000e+00,5.000000000000000000e+00,5.000000000000000000e+00,5.000000000000000000e+00,5.000000000000000000e+00,5.000000000000000000e+00,5.000000000000000000e+00,5.000000000000000000e+00,5.000000000000000000e+00,5.000000000000000000e+00,5.000000000000000000e+00,5.000000000000000000e+00,5.000000000000000000e+00,5.000000000000000000e+00,5.000000000000000000e+00,5.000000000000000000e+00,5.000000000000000000e+00,5.000000000000000000e+00,5.000000000000000000e+00,5.000000000000000000e+00,5.000000000000000000e+00,5.000000000000000000e+00,5.000000000000000000e+00,5.000000000000000000e+00,5.000000000000000000e+00,5.000000000000000000e+00,5.000000000000000000e+00,5.000000000000000000e+00,5.000000000000000000e+00,5.000000000000000000e+00,5.000000000000000000e+00,5.000000000000000000e+00,5.000000000000000000e+00,1.522061228752136230e+00,1.497753500938415527e+00,4.682437419891357422e+00,1.483033180236816406e+00,1.515329480171203613e+00,1.481173753738403320e+00,1.474239230155944824e+00,1.471494078636169434e+00,1.469341039657592773e+00,1.507027149200439453e+00,1.538027048110961914e+00,1.513460755348205566e+00,1.501708865165710449e+00,1.502853512763977051e+00,1.503354907035827637e+00,3.089199781417846680e+00,3.010406494140625000e+00,1.663226366043090820e+00,1.590406060218811035e+00,2.796428442001342773e+00,2.731705665588378906e+00,2.669911146163940430e+00,2.610850572586059570e+00,2.554346323013305664e+00,2.500236034393310547e+00,2.448370695114135742e+00,2.398613214492797852e+00,2.350838184356689453e+00,2.304929018020629883e+00,2.260778665542602539e+00,2.218287944793701172e+00,2.177364826202392578e+00,2.137924194335937500e+00,2.099887132644653320e+00,2.063179731369018555e+00,2.027733802795410156e+00,1.993485212326049805e+00,1.960374236106872559e+00,1.928345322608947754e+00,1.897346258163452148e+00,1.867327809333801270e+00
5.000000000000000000e+00,5.000000000000000000e+00,5.000000000000000000e+00,5.000000000000000000e+00,5.000000000000000000e+00,5.000000000000000000e+00,5.000000000000000000e+00,5.000000000000000000e+00,5.000000000000000000e+00,5.000000000000000000e+00,5.000000000000000000e+00,5.000000000000000000e+00,5.000000000000000000e+00,5.000000000000000000e+00,5.000000000000000000e+00,5.000000000000000000e+00,5.000000000000000000e+00,5.000000000000000000e+00,5.000000000000000000e+00,5.000000000000000000e+00,5.000000000000000000e+00,5.000000000000000000e+00,5.000000000000000000e+00,5.000000000000000000e+00,5.000000000000000000e+00,5.000000000000000000e+00,5.000000000000000000e+00,5.000000000000000000e+00,5.000000000000000000e+00,5.000000000000000000e+00,5.000000000000000000e+00,5.000000000000000000e+00,5.000000000000000000e+00,5.000000000000000000e+00,5.000000000000000000e+00,5.000000000000000000e+00,5.000000000000000000e+00,5.000000000000000000e+00,5.000000000000000000e+00,1.518328666687011719e+00,1.489020705223083496e+00,1.464416861534118652e+00,1.578673720359802246e+00,1.523559927940368652e+00,1.489099383354187012e+00,1.474117755889892578e+00,1.471352934837341309e+00,1.468598365783691406e+00,1.502662777900695801e+00,1.538620114326477051e+00,1.513981461524963379e+00,1.496526956558227539e+00,1.498077154159545898e+00,1.499630570411682129e+00,3.089257717132568359e+00,3.010461330413818359e+00,1.679923295974731445e+00,1.613962173461914062e+00,2.796475410461425781e+00,2.731750726699829102e+00,2.669954061508178711e+00,2.610891580581665039e+00,2.554385900497436523e+00,2.500273704528808594e+00,2.448406934738159180e+00,2.398648023605346680e+00,2.350871562957763672e+00,2.304961204528808594e+00,2.260809421539306641e+00,2.218317508697509766e+00,2.177393198013305664e+00,2.137951850891113281e+00,2.099913597106933594e+00,2.063205480575561523e+00,2.027758598327636719e+00,1.993509173393249512e+00,1.960397601127624512e+00,1.928367733955383301e+00,1.897367954254150391e+00,1.867348790168762207e+00
5.000000000000000000e+00,5.000000000000000000e+00,5.000000000000000000e+00,5.000000000000000000e+00,5.000000000000000000e+00,5.000000000000000000e+00,5.000000000000000000e+00,5.000000000000000000e+00,5.000000000000000000e+00,5.000000000000000000e+00,5.000000000000000000e+00,5.000000000000000000e+00,5.000000000000000000e+00,5.000000000000000000e+00,5.000000000000000000e+00,5.000000000000000000e+00,5.000000000000000000e+00,5.000000000000000000e+00,5.000000000000000000e+00,5.000000000000000000e+00,5.000000000000000000e+00,5.000000000000000000e+00,5.000000000000000000e+00,5.000000000000000000e+00,5.000000000000000000e+00,5.000000000000000000e+00,5.000000000000000000e+00,5.000000000000000000e+00,5.000000000000000000e+00,5.000000000000000000e+00,5.000000000000000000e+00,5.000000000000000000e+00,5.000000000000000000e+00,5.000000000000000000e+00,5.000000000000000000e+00,5.000000000000000000e+00,5.000000000000000000e+00,5.000000000000000000e+00,5.000000000000000000e+00,1.514502167701721191e+00,1.480499982833862305e+00,1.455345034599304199e+00,4.504006385803222656e+00,1.536652207374572754e+00,1.497949123382568359e+00,1.472738862037658691e+00,1.469266414642333984e+00,1.466519713401794434e+00,1.498666167259216309e+00,1.538861513137817383e+00,1.513055086135864258e+00,1.491694092750549316e+00,1.494629263877868652e+00,1.496175527572631836e+00,1.543222904205322266e+00,3.010515689849853516e+00,2.935636520385742188e+00,2.864391326904296875e+00,2.796522855758666992e+00,2.731795787811279297e+00,2.669997215270996094e+00,2.610932826995849609e+00,2.554425001144409180e+00,2.500311374664306641e+00,2.448442935943603516e+00,2.398682832717895508e+00,2.350904941558837891e+00,2.304993152618408203e+00,2.260840415954589844e+00,2.218347311019897461e+00,2.177422046661376953e+00,2.137979507446289062e+00,2.099940299987792969e+00,2.063231229782104492e+00,2.027783393859863281e+00,1.993533134460449219e+00,1.960420727729797363e+00,1.928390145301818848e+00,1.897389650344848633e+00,1.867370009422302246e+00
5.000000000000000000e+00,5.000000000000000000e+00,5.000000000000000000e+00,5.000000000000000000e+00,5.000000000000000000e+00,5.000000000000000000e+00,5.000000000000000000e+00,5.000000000000000000e+00,5.000000000000000000e+00,5.000000000000000000e+00,5.000000000000000000e+00,5.000000000000000000e+00,5.000000000000000000e+00,5.000000000000000000e+00,5.000000000000000000e+00,5.000000000000000000e+00,5.000000000000000000e+00,5.000000000000000000e+00,5.000000000000000000e+00,5.000000000000000000e+00,5.000000000000000000e+00,5.000000000000000000e+00,5.000000000000000000e+00,5.000000000000000000e+00,5.000000000000000000e+00,5.000000000000000000e+00,5.000000000000000000e+00,5.000000000000000000e+00,5.000000000000000000e+00,5.000000000000000000e+00,5.000000000000000000e+00,5.000000000000000000e+00,5.000000000000000000e+00,5.000000000000000000e+00,5.000000000000000000e+00,5.000000000000000000e+00,5.000000000000000000e+00,5.000000000000000000e+00,5.000000000000000000e+00,1.505728483200073242e+00,1.474161982536315918e+00,4.682834148406982422e+00,4.504128932952880859e+00,1.551613807678222656e+00,1.506904721260070801e+00,1.474931716918945312e+00,1.467185854911804199e+00,1.464446902275085449e+00,1.494553208351135254e+00,1.537118434906005859e+00,1.511369943618774414e+00,1.491486430168151855e+00,1.489937782287597656e+00,1.492736339569091797e+00,1.518421769142150879e+00,3.010570526123046875e+00,2.935688495635986328e+00,2.864441156387329102e+00,2.796569824218750000e+00,2.731840610504150391e+00,2.670040130615234375e+00,2.610973834991455078e+00,2.554464340209960938e+00,2.500349044799804688e+00,2.448479413986206055e+00,2.398717641830444336e+00,2.350938320159912109e+00,2.305025339126586914e+00,2.260871171951293945e+00,2.218376874923706055e+00,2.177450418472290039e+00,2.138006925582885742e+00,2.099966764450073242e+00,2.063256740570068359e+00,2.027808427810668945e+00,1.993557214736938477e+00,1.960443854331970215e+00,1.928412795066833496e+00,1.897411227226257324e+00,1.867390990257263184e+00
5.000000000000000000e+00,5.000000000000000000e+00,5.000000000000000000e+00,5.000000000000000000e+00,5.000000000000000000e+00,5.000000000000000000e+00,5.000000000000000000e+00,5.000000000000000000e+00,5.000000000000000000e+00,5.000000000000000000e+00,5.000000000000000000e+00,5.000000000000000000e+00,5.000000000000000000e+00,5.000000000000000000e+00,5.000000000000000000e+00,5.000000000000000000e+00,5.000000000000000000e+00,5.000000000000000000e+00,5.000000000000000000e+00,5.000000000000000000e+00,5.000000000000000000e+00,5.000000000000000000e+00,5.000000000000000000e+00,5.000000000000000000e+00,5.000000000000000000e+00,5.000000000000000000e+00,5.000000000000000000e+00,5.000000000000000000e+00,5.000000000000000000e+00,5.000000000000000000e+00,5.000000000000000000e+00,5.000000000000000000e+00,5.000000000000000000e+00,5.000000000000000000e+00,5.000000000000000000e+00,5.000000000000000000e+00,5.000000000000000000e+00,5.000000000000000000e+00,5.000000000000000000e+00,5.000000000000000000e+00,4.876450061798095703e+00,4.682966709136962891e+00,4.504251003265380859e+00,1.563516259193420410e+00,1.515967965126037598e+00,1.479770064353942871e+00,1.467481017112731934e+00,1.462379932403564453e+00,1.488144278526306152e+00,1.543416500091552734e+00,1.509688615798950195e+00,1.491278767585754395e+00,1.483298063278198242e+00,1.489070534706115723e+00,1.494405269622802734e+00,3.010625123977661133e+00,2.935740470886230469e+00,2.864490509033203125e+00,2.796617031097412109e+00,2.731885910034179688e+00,2.670083284378051758e+00,2.611015081405639648e+00,2.554503917694091797e+00,2.500386953353881836e+00,2.448515415191650391e+00,2.398752212524414062e+00,2.350971460342407227e+00,2.305057287216186523e+00,2.260901927947998047e+00,2.218406438827514648e+00,2.177479267120361328e+00,2.138034582138061523e+00,2.099993467330932617e+00,2.063282489776611328e+00,2.027832984924316406e+00,1.993581175804138184e+00,1.960466980934143066e+00,1.928435087203979492e+00,1.897432923316955566e+00,1.867411971092224121e+00
5.000000000000000000e+00,5.000000000000000000e+00,5.000000000000000000e+00,5.000000000000000000e+00,5.000000000000000000e+00,5.000000000000000000e+00,5.000000000000000000e+00,5.000000000000000000e+00,5.000000000000000000e+00,5.000000000000000000e+00,5.000000000000000000e+00,5.000000000000000000e+00,5.000000000000000000e+00,5.000000000000000000e+00,5.000000000000000000e+00,5.000000000000000000e+00,5.000000000000000000e+00,5.000000000000000000e+00,5.000000000000000000e+00,5.000000000000000000e+00,5.000000000000000000e+00,5.000000000000000000e+00,5.000000000000000000e+00,5.000000000000000000e+00,5.000000000000000000e+00,5.000000000000000000e+00,5.000000000000000000e+00,5.000000000000000000e+00,5.000000000000000000e+00,5.000000000000000000e+00,5.000000000000000000e+00,5.000000000000000000e+00,5.000000000000000000e+00,5.000000000000000000e+00,5.000000000000000000e+00,5.000000000000000000e+00,5.000000000000000000e+00,5.000000000000000000e+00,5.000000000000000000e+00,5.000000000000000000e+00,4.876593589782714844e+00,4.683098793029785156e+00,4.504373550415039062e+00,4.338788032531738281e+00,1.528625845909118652e+00,1.488811135292053223e+00,1.469658255577087402e+00,1.460318684577941895e+00,1.481789946556091309e+00,1.558340668678283691e+00,1.508010983467102051e+00,1.491071343421936035e+00,1.476717352867126465e+00,1.482438445091247559e+00,1.487433314323425293e+00,3.010679960250854492e+00,2.935792684555053711e+00,2.864540100097656250e+00,2.796664237976074219e+00,2.731930732727050781e+00,2.670126199722290039e+00,2.611056089401245117e+00,2.554543256759643555e+00,2.500424385070800781e+00,2.448551416397094727e+00,2.398787021636962891e+00,2.351005077362060547e+00,2.305089473724365234e+00,2.260932922363281250e+00,2.218436241149902344e+00,2.177507638931274414e+00,2.138062238693237305e+00,2.100020170211791992e+00,2.063308238983154297e+00,2.027857780456542969e+00,1.993605136871337891e+00,1.960490345954895020e+00,1.928457498550415039e+00,1.897454857826232910e+00,1.867432951927185059e+00
5.000000000000000000e+00,5.000000000000000000e+00,5.000000000000000000e+00,5.000000000000000000e+00,5.000000000000000000e+00,5.000000000000000000e+00,5.000000000000000000e+00,5.000000000000000000e+00,5.000000000000000000e+00,5.000000000000000000e+00,5.000000000000000000e+00,5.000000000000000000e+00,5.000000000000000000e+00,5.000000000000000000e+00,5.000000000000000000e+00,5.000000000000000000e+00,5.000000000000000000e+00,5.000000000000000000e+00,5.000000000000000000e+00,5.000000000000000000e+00,5.000000000000000000e+00,5.000000000000000000e+00,5.000000000000000000e+00,5.000000000000000000e+00,5.000000000000000000e+00,5.000000000000000000e+00,5.000000000000000000e+00,5.000000000000000000e+00,5.000000000000000000e+00,5.000000000000000000e+00,5.000000000000000000e+00,5.000000000000000000e+00,5.000000000000000000e+00,5.000000000000000000e+00,5.000000000000000000e+00,5.000000000000000000e+00,5.000000000000000000e+00,5.000000000000000000e+00,5.000000000000000000e+00,5.000000000000000000e+00,4.876737117767333984e+00,4.683231353759765625e+00,4.504495620727539062e+00,4.338901519775390625e+00,1.538991451263427734e+00,1.497963190078735352e+00,1.471200227737426758e+00,1.461407661437988281e+00,1.478352546691894531e+00,3.554810047149658203e+00,1.507646799087524414e+00,1.490884304046630859e+00,1.474888801574707031e+00,1.478265166282653809e+00,1.484441399574279785e+00,3.010734558105468750e+00,2.935844421386718750e+00,2.864589452743530273e+00,2.796711444854736328e+00,2.731975793838500977e+00,2.670169353485107422e+00,2.611097335815429688e+00,2.554582595825195312e+00,2.500462293624877930e+00,2.448587656021118164e+00,2.398821592330932617e+00,2.351038217544555664e+00,2.305121421813964844e+00,2.260963678359985352e+00,2.218466043472290039e+00,2.177536249160766602e+00,2.138089895248413086e+00,2.100046873092651367e+00,2.063333988189697266e+00,2.027882814407348633e+00,1.993629097938537598e+00,1.960513472557067871e+00,1.928479909896850586e+00,1.897476553916931152e+00,1.867454051971435547e+00
5.000000000000000000e+00,5.000000000000000000e+00,5.000000000000000000e+00,5.000000000000000000e+00,5.000000000000000000e+00,5.000000000000000000e+00,5.000000000000000000e+00,5.000000000000000000e+00,5.000000000000000000e+00,5.000000000000000000e+00,5.000000000000000000e+00,5.000000000000000000e+00,5.000000000000000000e+00,5.000000000000000000e+00,5.000000000000000000e+00,5.000000000000000000e+00,5.000000000000000000e+00,5.000000000000000000e+00,5.000000000000000000e+00,5.000000000000000000e+00,5.000000000000000000e+00,5.000000000000000000e+00,5.000000000000000000e+00,5.000000000000000000e+00,5.000000000000000000e+00,5.000000000000000000e+00,5.000000000000000000e+00,5.000000000000000000e+00,5.000000000000000000e+00,5.000000000000000000e+00,5.000000000000000000e+00,5.000000000000000000e+00,5.000000000000000000e+00,5.000000000000000000e+00,5.000000000000000000e+00,5.000000000000000000e+00,5.000000000000000000e+00,5.000000000000000000e+00,5.000000000000000000e+00,5.000000000000000000e+00,4.876880645751953125e+00,4.683363914489746094e+00,4.504618167877197266e+00,4.339015007019042969e+00,1.549279689788818359e+00,1.508015275001525879e+00,1.477141857147216797e+00,1.463751673698425293e+00,1.478994131088256836e+00,3.554886579513549805e+00,1.512811899185180664e+00,1.492630124092102051e+00,1.478022217750549316e+00,1.481135249137878418e+00,1.487878918647766113e+00,3.010789155960083008e+00,2.935896635055541992e+00,2.864639043807983398e+00,2.796758651733398438e+00,2.732020854949951172e+00,2.670212268829345703e+00,2.611138582229614258e+00,2.554621934890747070e+00,2.500499963760375977e+00,2.448623895645141602e+00,2.398856163024902344e+00,2.351071834564208984e+00,2.305153608322143555e+00,2.260994672775268555e+00,2.218495607376098633e+00,2.177565097808837891e+00,2.138117313385009766e+00,2.100073337554931641e+00,2.063359498977661133e+00,2.027907371520996094e+00,1.993652939796447754e+00,1.960536599159240723e+00,1.928502559661865234e+00,1.897498130798339844e+00,1.867475152015686035e+00
5.000000000000000000e+00,5.000000000000000000e+00,5.000000000000000000e+00,5.000000000000000000e+00,5.000000000000000000e+00,5.000000000000000000e+00,5.000000000000000000e+00,5.000000000000000000e+00,5.000000000000000000e+00,5.000000000000000000e+00,5.000000000000000000e+00,5.000000000000000000e+00,5.000000000000000000e+00,5.000000000000000000e+00,5.000000000000000000e+00,5.000000000000000000e+00,5.000000000000000000e+00,5.000000000000000000e+00,5.000000000000000000e+00,5.000000000000000000e+00,5.000000000000000000e+00,5.000000000000000000e+00,5.000000000000000000e+00,5.000000000000000000e+00,5.000000000000000000e+00,5.000000000000000000e+00,5.000000000000000000e+00,5.000000000000000000e+00,5.000000000000000000e+00,5.000000000000000000e+00,5.000000000000000000e+00,5.000000000000000000e+00,5.000000000000000000e+00,5.000000000000000000e+00,5.000000000000000000e+00,5.000000000000000000e+00,5.000000000000000000e+00,5.000000000000000000e+00,5.000000000000000000e+00,5.000000000000000000e+00,4.877024173736572266e+00,4.683495998382568359e+00,4.504740715026855469e+00,4.339128971099853516e+00,1.553442716598510742e+00,1.509891986846923828e+00,1.485886454582214355e+00,1.470522642135620117e+00,1.493976950645446777e+00,1.590611815452575684e+00,1.519245862960815430e+00,1.501250147819519043e+00,1.483675599098205566e+00,1.488291025161743164e+00,1.495049118995666504e+00,3.010843992233276367e+00,2.935948610305786133e+00,2.864688634872436523e+00,2.796805858612060547e+00,2.732065916061401367e+00,2.670255184173583984e+00,2.611179590225219727e+00,2.554661273956298828e+00,2.500537872314453125e+00,2.448660135269165039e+00,2.398890972137451172e+00,2.351104974746704102e+00,2.305185556411743164e+00,2.261025428771972656e+00,2.218525409698486328e+00,2.177593469619750977e+00,2.138144731521606445e+00,2.100100040435791016e+00,2.063385248184204102e+00,2.027932405471801758e+00,1.993677139282226562e+00,1.960559844970703125e+00,1.928524851799011230e+00,1.897519826889038086e+00,1.867496252059936523e+00
5.000000000000000000e+00,5.000000000000000000e+00,5.000000000000000000e+00,5.000000000000000000e+00,5.000000000000000000e+00,5.000000000000000000e+00,5.000000000000000000e+00,5.000000000000000000e+00,5.000000000000000000e+00,5.000000000000000000e+00,5.000000000000000000e+00,5.000000000000000000e+00,5.000000000000000000e+00,5.000000000000000000e+00,5.000000000000000000e+00,5.000000000000000000e+00,5.000000000000000000e+00,5.000000000000000000e+00,5.000000000000000000e+00,5.000000000000000000e+00,5.000000000000000000e+00,5.000000000000000000e+00,5.000000000000000000e+00,5.000000000000000000e+00,5.000000000000000000e+00,5.000000000000000000e+00,5.000000000000000000e+00,5.000000000000000000e+00,5.000000000000000000e+00,5.000000000000000000e+00,5.000000000000000000e+00,5.000000000000000000e+00,5.000000000000000000e+00,5.000000000000000000e+00,5.000000000000000000e+00,5.000000000000000000e+00,5.000000000000000000e+00,5.000000000000000000e+00,5.000000000000000000e+00,5.000000000000000000e+00,4.877167701721191406e+00,4.683628559112548828e+00,4.504863262176513672e+00,4.339242458343505859e+00,1.550361990928649902e+00,1.512867093086242676e+00,1.499016523361206055e+00,1.485248565673828125e+00,1.512493014335632324e+00,1.569295406341552734e+00,1.542197823524475098e+00,1.516020298004150391e+00,1.499621987342834473e+00,1.504096269607543945e+00,3.089718103408813477e+00,3.010898590087890625e+00,2.936000347137451172e+00,2.864738225936889648e+00,2.796853065490722656e+00,2.732110977172851562e+00,2.670298337936401367e+00,2.611220836639404297e+00,2.554700613021850586e+00,2.500575542449951172e+00,2.448696136474609375e+00,2.398925781250000000e+00,2.351138353347778320e+00,2.305217504501342773e+00,2.261056423187255859e+00,2.218555212020874023e+00,2.177622318267822266e+00,2.138172388076782227e+00,2.100126504898071289e+00,2.063410997390747070e+00,2.027957201004028320e+00,1.993701100349426270e+00,1.960582971572875977e+00,1.928547263145446777e+00,1.897541761398315430e+00,1.867517232894897461e+00
5.000000000000000000e+00,5.000000000000000000e+00,5.000000000000000000e+00,5.000000000000000000e+00,5.000000000000000000e+00,5.000000000000000000e+00,5.000000000000000000e+00,5.000000000000000000e+00,5.000000000000000000e+00,5.000000000000000000e+00,5.000000000000000000e+00,5.000000000000000000e+00,5.000000000000000000e+00,5.000000000000000000e+00,5.000000000000000000e+00,5.000000000000000000e+00,5.000000000000000000e+00,5.000000000000000000e+00,5.000000000000000000e+00,5.000000000000000000e+00,5.000000000000000000e+00,5.000000000000000000e+00,5.000000000000000000e+00,5.000000000000000000e+00,5.000000000000000000e+00,5.000000000000000000e+00,5.000000000000000000e+00,5.000000000000000000e+00,5.000000000000000000e+00,5.000000000000000000e+00,5.000000000000000000e+00,5.000000000000000000e+00,5.000000000000000000e+00,5.000000000000000000e+00,5.000000000000000000e+00,5.000000000000000000e+00,5.000000000000000000e+00,5.000000000000000000e+00,5.000000000000000000e+00,5.000000000000000000e+00,4.877311229705810547e+00,4.683760643005371094e+00,4.504985809326171875e+00,4.339355945587158203e+00,1.546027183532714844e+00,1.519569754600524902e+00,1.510885834693908691e+00,1.503547668457031250e+00,1.620754837989807129e+00,1.588623762130737305e+00,1.557741999626159668e+00,1.540627956390380859e+00,1.536434888839721680e+00,3.172836303710937500e+00,3.089775800704956055e+00,3.010953426361083984e+00,2.936052560806274414e+00,2.864787578582763672e+00,2.796900272369384766e+00,2.732155799865722656e+00,2.670341253280639648e+00,2.611261844635009766e+00,2.554739952087402344e+00,2.500613212585449219e+00,2.448732376098632812e+00,2.398960590362548828e+00,2.351171731948852539e+00,2.305249691009521484e+00,2.261087179183959961e+00,2.218584775924682617e+00,2.177650690078735352e+00,2.138200044631958008e+00,2.100153207778930664e+00,2.063436508178710938e+00,2.027981996536254883e+00,1.993725061416625977e+00,1.960606336593627930e+00,1.928569674491882324e+00,1.897563457489013672e+00,1.867538213729858398e+00
5.000000000000000000e+00,5.000000000000000000e+00,5.000000000000000000e+00,5.000000000000000000e+00,5.000000000000000000e+00,5.000000000000000000e+00,5.000000000000000000e+00,5.000000000000000000e+00,5.000000000000000000e+00,5.000000000000000000e+00,5.000000000000000000e+00,5.000000000000000000e+00,5.000000000000000000e+00,5.000000000000000000e+00,5.000000000000000000e+00,5.000000000000000000e+00,5.000000000000000000e+00,5.000000000000000000e+00,5.000000000000000000e+00,5.000000000000000000e+00,5.000000000000000000e+00,5.000000000000000000e+00,5.000000000000000000e+00,5.000000000000000000e+00,5.000000000000000000e+00,5.000000000000000000e+00,5.000000000000000000e+00,5.000000000000000000e+00,5.000000000000000000e+00,5.000000000000000000e+00,5.000000000000000000e+00,5.000000000000000000e+00,5.000000000000000000e+00,5.000000000000000000e+00,5.000000000000000000e+00,5.000000000000000000e+00,5.000000000000000000e+00,5.000000000000000000e+00,5.000000000000000000e+00,5.000000000000000000e+00,4.877454757690429688e+00,4.683892726898193359e+00,4.505107879638671875e+00,4.339469909667968750e+00,1.548209071159362793e+00,1.527303814888000488e+00,1.521566271781921387e+00,1.522303342819213867e+00,1.629771828651428223e+00,1.600018262863159180e+00,1.588864922523498535e+00,1.575349092483520508e+00,3.260549783706665039e+00,3.172896862030029297e+00,3.089833259582519531e+00,3.011008024215698242e+00,2.936104536056518555e+00,2.864836931228637695e+00,2.796947479248046875e+00,2.732201099395751953e+00,2.670384407043457031e+00,2.611303091049194336e+00,2.554779529571533203e+00,2.500650882720947266e+00,2.448768615722656250e+00,2.398995161056518555e+00,2.351205110549926758e+00,2.305281639099121094e+00,2.261117935180664062e+00,2.218614578247070312e+00,2.177679538726806641e+00,2.138227701187133789e+00,2.100179910659790039e+00,2.063462495803833008e+00,2.028006792068481445e+00,1.993748903274536133e+00,1.960629463195800781e+00,1.928592085838317871e+00,1.897585153579711914e+00,1.867559194564819336e+00
5.000000000000000000e+00,5.000000000000000000e+00,5.000000000000000000e+00,5.000000000000000000e+00,5.000000000000000000e+00,5.000000000000000000e+00,5.000000000000000000e+00,5.000000000000000000e+00,5.000000000000000000e+00,5.000000000000000000e+00,5.000000000000000000e+00,5.000000000000000000e+00,5.000000000000000000e+00,5.000000000000000000e+00,5.000000000000000000e+00,5.000000000000000000e+00,5.000000000000000000e+00,5.000000000000000000e+00,5.000000000000000000e+00,5.000000000000000000e+00,5.000000000000000000e+00,5.000000000000000000e+00,5.000000000000000000e+00,5.000000000000000000e+00,5.000000000000000000e+00,5.000000000000000000e+00,5.000000000000000000e+00,5.000000000000000000e+00,5.000000000000000000e+00,5.000000000000000000e+00,5.000000000000000000e+00,5.000000000000000000e+00,5.000000000000000000e+00,5.000000000000000000e+00,5.000000000000000000e+00,5.000000000000000000e+00,5.000000000000000000e+00,5.000000000000000000e+00,5.000000000000000000e+00,5.000000000000000000e+00,4.877598285675048828e+00,4.684025287628173828e+00,4.505230426788330078e+00,4.339583396911621094e+00,1.556219220161437988e+00,1.536154985427856445e+00,1.531772136688232422e+00,1.548940300941467285e+00,1.639060616493225098e+00,1.621290802955627441e+00,1.615082740783691406e+00,1.630918383598327637e+00,3.260613918304443359e+00,3.172957420349121094e+00,3.089891195297241211e+00,3.011062860488891602e+00,2.936156511306762695e+00,2.864886760711669922e+00,2.796994686126708984e+00,2.732245922088623047e+00,2.670427322387695312e+00,2.611344099044799805e+00,2.554818868637084961e+00,2.500688552856445312e+00,2.448804855346679688e+00,2.399029970169067383e+00,2.351238489151000977e+00,2.305313825607299805e+00,2.261148691177368164e+00,2.218644142150878906e+00,2.177707910537719727e+00,2.138255119323730469e+00,2.100206375122070312e+00,2.063488006591796875e+00,2.028031587600708008e+00,1.993773102760314941e+00,1.960652589797973633e+00,1.928614735603332520e+00,1.897606730461120605e+00,1.867580413818359375e+00
5.000000000000000000e+00,5.000000000000000000e+00,5.000000000000000000e+00,5.000000000000000000e+00,5.000000000000000000e+00,5.000000000000000000e+00,5.000000000000000000e+00,5.000000000000000000e+00,5.000000000000000000e+00,5.000000000000000000e+00,5.000000000000000000e+00,5.000000000000000000e+00,5.000000000000000000e+00,5.000000000000000000e+00,5.000000000000000000e+00,5.000000000000000000e+00,5.000000000000000000e+00,5.000000000000000000e+00,5.000000000000000000e+00,5.000000000000000000e+00,5.000000000000000000e+00,5.000000000000000000e+00,5.000000000000000000e+00,5.000000000000000000e+00,5.000000000000000000e+00,5.000000000000000000e+00,5.000000000000000000e+00,5.000000000000000000e+00,5.000000000000000000e+00,5.000000000000000000e+00,5.000000000000000000e+00,5.000000000000000000e+00,5.000000000000000000e+00,5.000000000000000000e+00,5.000000000000000000e+00,5.000000000000000000e+00,5.000000000000000000e+00,5.000000000000000000e+00,5.000000000000000000e+00,5.000000000000000000e+00,4.877739429473876953e+00,4.684157848358154297e+00,4.505352973937988281e+00,4.339696884155273438e+00,1.563484787940979004e+00,1.542361378669738770e+00,1.536096930503845215e+00,1.554146885871887207e+00,1.650016784667968750e+00,1.643722772598266602e+00,1.637425661087036133e+00,3.353318929672241211e+00,3.260678052902221680e+00,3.173018455505371094e+00,3.089948654174804688e+00,3.011117458343505859e+00,2.936208486557006836e+00,2.864936113357543945e+00,2.797041654586791992e+00,2.732290983200073242e+00,2.670470476150512695e+00,2.611385345458984375e+00,2.554858207702636719e+00,2.500726461410522461e+00,2.448840856552124023e+00,2.399064779281616211e+00,2.351271629333496094e+00,2.305345773696899414e+00,2.261179685592651367e+00,2.218673706054687500e+00,2.177736759185791016e+00,2.138282775878906250e+00,2.100233078002929688e+00,2.063513755798339844e+00,2.028056383132934570e+00,1.993797063827514648e+00,1.960675716400146484e+00,1.928637027740478516e+00,1.897628426551818848e+00,1.867601394653320312e+00
5.000000000000000000e+00,5.000000000000000000e+00,5.000000000000000000e+00,5.000000000000000000e+00,5.000000000000000000e+00,5.000000000000000000e+00,5.000000000000000000e+00,5.000000000000000000e+00,5.000000000000000000e+00,5.000000000000000000e+00,5.000000000000000000e+00,5.000000000000000000e+00,5.000000000000000000e+00,5.000000000000000000e+00,5.000000000000000000e+00,5.000000000000000000e+00,5.000000000000000000e+00,5.000000000000000000e+00,5.000000000000000000e+00,5.000000000000000000e+00,5.000000000000000000e+00,5.000000000000000000e+00,5.000000000000000000e+00,5.000000000000000000e+00,5.000000000000000000e+00,5.000000000000000000e+00,5.000000000000000000e+00,5.000000000000000000e+00,5.000000000000000000e+00,5.000000000000000000e+00,5.000000000000000000e+00,5.000000000000000000e+00,5.000000000000000000e+00,5.000000000000000000e+00,5.000000000000000000e+00,5.000000000000000000e+00,5.000000000000000000e+00,5.000000000000000000e+00,5.000000000000000000e+00,5.000000000000000000e+00,4.877879619598388672e+00,4.684288978576660156e+00,4.505475044250488281e+00,4.339810371398925781e+00,1.570818662643432617e+00,1.549668669700622559e+00,1.540446639060974121e+00,1.559388756752014160e+00,1.671260714530944824e+00,1.666784524917602539e+00,3.451449394226074219e+00,3.353386640548706055e+00,3.260742187500000000e+00,3.173079013824462891e+00,3.090006113052368164e+00,3.011172294616699219e+00,2.936260700225830078e+00,2.864985704421997070e+00,2.797089099884033203e+00,2.732336044311523438e+00,2.670513391494750977e+00,2.611426353454589844e+00,2.554897546768188477e+00,2.500764131546020508e+00,2.448877096176147461e+00,2.399099349975585938e+00,2.351305246353149414e+00,2.305377960205078125e+00,2.261210441589355469e+00,2.218703508377075195e+00,2.177765369415283203e+00,2.138310432434082031e+00,2.100259542465209961e+00,2.063539505004882812e+00,2.028081178665161133e+00,1.993820905685424805e+00,1.960699081420898438e+00,1.928659439086914062e+00,1.897650361061096191e+00,1.867622375488281250e+00
5.000000000000000000e+00,5.000000000000000000e+00,5.000000000000000000e+00,5.000000000000000000e+00,5.000000000000000000e+00,5.000000000000000000e+00,5.000000000000000000e+00,5.000000000000000000e+00,5.000000000000000000e+00,5.000000000000000000e+00,5.000000000000000000e+00,5.000000000000000000e+00,5.000000000000000000e+00,5.000000000000000000e+00,5.000000000000000000e+00,5.000000000000000000e+00,5.000000000000000000e+00,5.000000000000000000e+00,5.000000000000000000e+00,5.000000000000000000e+00,5.000000000000000000e+00,5.000000000000000000e+00,5.000000000000000000e+00,5.000000000000000000e+00,5.000000000000000000e+00,5.000000000000000000e+00,5.000000000000000000e+00,5.000000000000000000e+00,5.000000000000000000e+00,5.000000000000000000e+00,5.000000000000000000e+00,5.000000000000000000e+00,5.000000000000000000e+00,5.000000000000000000e+00,5.000000000000000000e+00,5.000000000000000000e+00,5.000000000000000000e+00,5.000000000000000000e+00,5.000000000000000000e+00,5.000000000000000000e+00,4.878020286560058594e+00,4.684418201446533203e+00,4.505597591400146484e+00,4.339923858642578125e+00,1.578221678733825684e+00,1.557045459747314453e+00,1.544820785522460938e+00,1.563884019851684570e+00,1.695642590522766113e+00,1.690502285957336426e+00,3.451521396636962891e+00,3.353454589843750000e+00,3.260806560516357422e+00,3.173140048980712891e+00,3.090063810348510742e+00,3.011226892471313477e+00,2.936312675476074219e+00,2.865035057067871094e+00,2.797136068344116211e+00,2.732381105422973633e+00,2.670556306838989258e+00,2.611467599868774414e+00,2.554937124252319336e+00,2.500801801681518555e+00,2.448913335800170898e+00,2.399134159088134766e+00,2.351338386535644531e+00,2.305409908294677734e+00,2.261241197586059570e+00,2.218733310699462891e+00,2.177793741226196289e+00,2.138337850570678711e+00,2.100286245346069336e+00,2.063565254211425781e+00,2.028105974197387695e+00,1.993844866752624512e+00,1.960722208023071289e+00,1.928681850433349609e+00,1.897672057151794434e+00,1.867643356323242188e+00
5.000000000000000000e+00,5.000000000000000000e+00,5.000000000000000000e+00,5.000000000000000000e+00,5.000000000000000000e+00,5.000000000000000000e+00,5.000000000000000000e+00,5.000000000000000000e+00,5.000000000000000000e+00,5.000000000000000000e+00,5.000000000000000000e+00,5.000000000000000000e+00,5.000000000000000000e+00,5.000000000000000000e+00,5.000000000000000000e+00,5.000000000000000000e+00,5.000000000000000000e+00,5.000000000000000000e+00,5.000000000000000000e+00,5.000000000000000000e+00,5.000000000000000000e+00,5.000000000000000000e+00,5.000000000000000000e+00,5.000000000000000000e+00,5.000000000000000000e+00,5.000000000000000000e+00,5.000000000000000000e+00,5.000000000000000000e+00,5.000000000000000000e+00,5.000000000000000000e+00,5.000000000000000000e+00,5.000000000000000000e+00,5.000000000000000000e+00,5.000000000000000000e+00,5.000000000000000000e+00,5.000000000000000000e+00,5.000000000000000000e+00,5.000000000000000000e+00,5.000000000000000000e+00,5.000000000000000000e+00,4.878159999847412109e+00,4.684547901153564453e+00,4.505717754364013672e+00,4.340037822723388672e+00,1.585734844207763672e+00,1.564492821693420410e+00,1.550636649131774902e+00,1.567890167236328125e+00,1.721552968025207520e+00,3.555572986602783203e+00,3.451593160629272461e+00,3.353522300720214844e+00,3.260870456695556641e+00,3.173200607299804688e+00,3.090121269226074219e+00,3.011281490325927734e+00,2.936364650726318359e+00,2.865084886550903320e+00,2.797183513641357422e+00,2.732426166534423828e+00,2.670599460601806641e+00,2.611508846282958984e+00,2.554976224899291992e+00,2.500839471817016602e+00,2.448949337005615234e+00,2.399168729782104492e+00,2.351371765136718750e+00,2.305442094802856445e+00,2.261272192001342773e+00,2.218763113021850586e+00,2.177822589874267578e+00,2.138365507125854492e+00,2.100312948226928711e+00,2.063590764999389648e+00,2.028130769729614258e+00,1.993868827819824219e+00,1.960745453834533691e+00,1.928704261779785156e+00,1.897693753242492676e+00,1.867664575576782227e+00
5.000000000000000000e+00,5.000000000000000000e+00,5.000000000000000000e+00,5.000000000000000000e+00,5.000000000000000000e+00,5.000000000000000000e+00,5.000000000000000000e+00,5.000000000000000000e+00,5.000000000000000000e+00,5.000000000000000000e+00,5.000000000000000000e+00,5.000000000000000000e+00,5.000000000000000000e+00,5.000000000000000000e+00,5.000000000000000000e+00,5.000000000000000000e+00,5.000000000000000000e+00,5.000000000000000000e+00,5.000000000000000000e+00,5.000000000000000000e+00,5.000000000000000000e+00,5.000000000000000000e+00,5.000000000000000000e+00,5.000000000000000000e+00,5.000000000000000000e+00,5.000000000000000000e+00,5.000000000000000000e+00,5.000000000000000000e+00,5.000000000000000000e+00,5.000000000000000000e+00,5.000000000000000000e+00,5.000000000000000000e+00,5.000000000000000000e+00,5.000000000000000000e+00,5.000000000000000000e+00,5.000000000000000000e+00,5.000000000000000000e+00,5.000000000000000000e+00,5.000000000000000000e+00,5.000000000000000000e+00,4.878300666809082031e+00,4.684677124023437500e+00,4.505836963653564453e+00,4.340149879455566406e+00,1.593535780906677246e+00,1.572215437889099121e+00,1.557817339897155762e+00,1.573015332221984863e+00,3.666092872619628906e+00,3.555649042129516602e+00,3.451664924621582031e+00,3.353590011596679688e+00,3.260934829711914062e+00,3.173261404037475586e+00,3.090179204940795898e+00,3.011336326599121094e+00,2.936416625976562500e+00,2.865134239196777344e+00,2.797230482101440430e+00,2.732471227645874023e+00,2.670642375946044922e+00,2.611549854278564453e+00,2.555015802383422852e+00,2.500877380371093750e+00,2.448985815048217773e+00,2.399203538894653320e+00,2.351405143737792969e+00,2.305474042892456055e+00,2.261302947998046875e+00,2.218792676925659180e+00,2.177850961685180664e+00,2.138393163681030273e+00,2.100339412689208984e+00,2.063616514205932617e+00,2.028155803680419922e+00,1.993893027305603027e+00,1.960768580436706543e+00,1.928726911544799805e+00,1.897715449333190918e+00,1.867685556411743164e+00
5.000000000000000000e+00,5.000000000000000000e+00,5.000000000000000000e+00,5.000000000000000000e+00,5.000000000000000000e+00,5.000000000000000000e+00,5.000000000000000000e+00,5.000000000000000000e+00,5.000000000000000000e+00,5.000000000000000000e+00,5.000000000000000000e+00,5.000000000000000000e+00,5.000000000000000000e+00,5.000000000000000000e+00,5.000000000000000000e+00,5.000000000000000000e+00,5.000000000000000000e+00,5.000000000000000000e+00,5.000000000000000000e+00,5.000000000000000000e+00,5.000000000000000000e+00,5.000000000000000000e+00,5.000000000000000000e+00,5.000000000000000000e+00,5.000000000000000000e+00,5.000000000000000000e+00,5.000000000000000000e+00,5.000000000000000000e+00,5.000000000000000000e+00,5.000000000000000000e+00,5.000000000000000000e+00,5.000000000000000000e+00,5.000000000000000000e+00,5.000000000000000000e+00,5.000000000000000000e+00,5.000000000000000000e+00,5.000000000000000000e+00,5.000000000000000000e+00,5.000000000000000000e+00,5.000000000000000000e+00,4.878440856933593750e+00,4.684806346893310547e+00,4.505956649780273438e+00,4.340260982513427734e+00,1.602423429489135742e+00,1.580866217613220215e+00,1.568657040596008301e+00,1.579206585884094238e+00,3.666174173355102539e+00,3.555725574493408203e+00,3.451736927032470703e+00,3.353657960891723633e+00,3.260998725891113281e+00,3.173322200775146484e+00,3.090236663818359375e+00,3.011390924453735352e+00,2.936468601226806641e+00,2.865183591842651367e+00,2.797277927398681641e+00,2.732516288757324219e+00,2.670685529708862305e+00,2.611591100692749023e+00,2.555055141448974609e+00,2.500915050506591797e+00,2.449021816253662109e+00,2.399238348007202148e+00,2.351438522338867188e+00,2.305505990982055664e+00,2.261333942413330078e+00,2.218822479248046875e+00,2.177879810333251953e+00,2.138420820236206055e+00,2.100366115570068359e+00,2.063642263412475586e+00,2.028180360794067383e+00,1.993916988372802734e+00,1.960791707038879395e+00,1.928749203681945801e+00,1.897737026214599609e+00,1.867706537246704102e+00
4.871855735778808594e+00,4.870636463165283203e+00,4.869417190551757812e+00,4.868199348449707031e+00,4.866981506347656250e+00,4.865765094757080078e+00,4.864548683166503906e+00,4.863332748413085938e+00,4.862118244171142578e+00,4.860903739929199219e+00,4.859689712524414062e+00,4.858476638793945312e+00,4.857264041900634766e+00,4.856051921844482422e+00,4.854840755462646484e+00,4.853630065917968750e+00,4.852419376373291016e+00,4.851210117340087891e+00,4.850001335144042969e+00,4.848792552947998047e+00,4.847585201263427734e+00,4.846377849578857422e+00,4.845170974731445312e+00,4.843965053558349609e+00,4.842759609222412109e+00,4.841555118560791016e+00,4.840351104736328125e+00,4.839147090911865234e+00,4.837944030761718750e+00,4.836741924285888672e+00,4.835539817810058594e+00,4.834338665008544922e+00,4.833138465881347656e+00,4.831937789916992188e+00,4.830738544464111328e+00,4.829540252685546875e+00,4.828341484069824219e+00,4.827144145965576172e+00,4.825947284698486328e+00,4.824750423431396484e+00,4.823554992675781250e+00,4.684936046600341797e+00,4.506076335906982422e+00,4.340371608734130859e+00,1.611410617828369141e+00,1.589720726013183594e+00,1.577113270759582520e+00,1.585446834564208984e+00,3.666254997253417969e+00,3.555801630020141602e+00,3.451808691024780273e+00,3.353725671768188477e+00,3.261062860488891602e+00,3.173382997512817383e+00,3.090294361114501953e+00,3.011445760726928711e+00,2.936520814895629883e+00,2.865233421325683594e+00,2.797325134277343750e+00,2.732561349868774414e+00,2.670728445053100586e+00,2.611632108688354492e+00,2.555094480514526367e+00,2.500952720642089844e+00,2.449058055877685547e+00,2.399273157119750977e+00,2.351471900939941406e+00,2.305538177490234375e+00,2.261364698410034180e+00,2.218852043151855469e+00,2.177908182144165039e+00,2.138448238372802734e+00,2.100392580032348633e+00,2.063667774200439453e+00,2.028205394744873047e+00,1.993940830230712891e+00,1.960815072059631348e+00,1.928771615028381348e+00,1.897758960723876953e+00,1.867727637290954590e+00
3.776329517364501953e+00,3.775596380233764648e+00,3.774864196777343750e+00,3.774132251739501953e+00,3.773400545120239258e+00,3.772669076919555664e+00,3.771937370300292969e+00,3.771206617355346680e+00,3.770476102828979492e+00,3.769745826721191406e+00,3.769015789031982422e+00,3.768285989761352539e+00,3.767556190490722656e+00,3.766827106475830078e+00,3.766098260879516602e+00,3.765369653701782227e+00,3.764641284942626953e+00,3.763913154602050781e+00,3.763185024261474609e+00,3.762457609176635742e+00,3.761730432510375977e+00,3.761003494262695312e+00,3.760276794433593750e+00,3.759550571441650391e+00,3.758824110031127930e+00,3.758098125457763672e+00,3.757372617721557617e+00,3.756647586822509766e+00,3.755922555923461914e+00,3.755197525024414062e+00,3.754472970962524414e+00,3.753748893737792969e+00,3.753025054931640625e+00,3.752301692962646484e+00,3.751578330993652344e+00,3.750854969024658203e+00,3.750132083892822266e+00,3.749409675598144531e+00,3.748687505722045898e+00,3.747965812683105469e+00,3.747244119644165039e+00,3.746522426605224609e+00,3.745801448822021484e+00,3.745080471038818359e+00,1.623425006866455078e+00,1.598757505416870117e+00,1.583378076553344727e+00,1.591736674308776855e+00,3.666336297988891602e+00,3.555878162384033203e+00,3.451880693435668945e+00,3.353793859481811523e+00,3.261127233505249023e+00,3.173443794250488281e+00,3.090351819992065430e+00,3.011500358581542969e+00,2.936572551727294922e+00,2.865282773971557617e+00,2.797372102737426758e+00,2.732606410980224609e+00,2.670771598815917969e+00,2.611673355102539062e+00,2.555133819580078125e+00,2.500990390777587891e+00,2.449094295501708984e+00,2.399307727813720703e+00,2.351505279541015625e+00,2.305570125579833984e+00,2.261395454406738281e+00,2.218881607055664062e+00,2.177937030792236328e+00,2.138475894927978516e+00,2.100419282913208008e+00,2.063693523406982422e+00,2.028230190277099609e+00,1.993964791297912598e+00,1.960838198661804199e+00,1.928794026374816895e+00,1.897780656814575195e+00,1.867748618125915527e+00
3.083049058914184570e+00,3.082560777664184570e+00,3.082072734832763672e+00,3.081584453582763672e+00,3.081096649169921875e+00,3.080608844757080078e+00,3.080121278762817383e+00,3.079633951187133789e+00,3.079146862030029297e+00,3.078659534454345703e+00,3.078172445297241211e+00,3.077685832977294922e+00,3.077199220657348633e+00,3.076712846755981445e+00,3.076226234436035156e+00,3.075740098953247070e+00,3.075253963470458984e+00,3.074768304824829102e+00,3.074282646179199219e+00,3.073796987533569336e+00,3.073311328887939453e+00,3.072826147079467773e+00,3.072341203689575195e+00,3.071856260299682617e+00,3.071371316909790039e+00,3.070886850357055664e+00,3.070402145385742188e+00,3.069917678833007812e+00,3.069433689117431641e+00,3.068949699401855469e+00,3.068465709686279297e+00,3.067982196807861328e+00,3.067498445510864258e+00,3.067014932632446289e+00,3.066531658172607422e+00,3.066048622131347656e+00,3.065565824508666992e+00,3.065082788467407227e+00,3.064600229263305664e+00,3.064117670059204102e+00,3.063635349273681641e+00,3.063153266906738281e+00,3.062671184539794922e+00,3.062189102172851562e+00,1.640238285064697266e+00,1.607897639274597168e+00,1.589692711830139160e+00,1.598076581954956055e+00,3.059782028198242188e+00,3.059300899505615234e+00,3.058820009231567383e+00,3.058339357376098633e+00,3.057858943939208984e+00,3.057378530502319336e+00,3.056898117065429688e+00,3.011555194854736328e+00,2.936624765396118164e+00,2.865332365036010742e+00,2.797419548034667969e+00,2.732651472091674805e+00,2.670814752578735352e+00,2.611714363098144531e+00,2.555173158645629883e+00,2.501028060913085938e+00,2.449130296707153320e+00,2.399342536926269531e+00,2.351538658142089844e+00,2.305602312088012695e+00,2.261426448822021484e+00,2.218911409378051758e+00,2.177965641021728516e+00,2.138503551483154297e+00,2.100445985794067383e+00,2.063719272613525391e+00,2.028254747390747070e+00,1.993988752365112305e+00,1.960861325263977051e+00,1.928816676139831543e+00,1.897802352905273438e+00,1.867769837379455566e+00
2.604837894439697266e+00,2.604489326477050781e+00,2.604140758514404297e+00,2.603792428970336914e+00,2.603444099426269531e+00,2.603095769882202148e+00,2.602747678756713867e+00,2.602399587631225586e+00,2.602051734924316406e+00,2.601703882217407227e+00,2.601356029510498047e+00,2.601008176803588867e+00,2.600660800933837891e+00,2.600313186645507812e+00,2.599965810775756836e+00,2.599618673324584961e+00,2.599271297454833984e+00,2.598924160003662109e+00,2.598577260971069336e+00,2.598230361938476562e+00,2.597883462905883789e+00,2.597536802291870117e+00,2.597189903259277344e+00,2.596843481063842773e+00,2.596497058868408203e+00,2.596150636672973633e+00,2.595804452896118164e+00,2.595458269119262695e+00,2.595111846923828125e+00,2.594765901565551758e+00,2.594420194625854492e+00,2.594074249267578125e+00,2.593728542327880859e+00,2.593383073806762695e+00,2.593037366867065430e+00,2.592691898345947266e+00,2.592346668243408203e+00,2.592001199722290039e+00,2.591656208038330078e+00,2.591310977935791016e+00,2.590965986251831055e+00,2.590620994567871094e+00,2.590276241302490234e+00,2.589931726455688477e+00,2.589586973190307617e+00,1.624607205390930176e+00,1.611553788185119629e+00,1.798875331878662109e+00,2.588209390640258789e+00,2.587865352630615234e+00,2.587521314620971680e+00,2.587177038192749023e+00,2.586833238601684570e+00,2.586489439010620117e+00,2.586145877838134766e+00,2.585802316665649414e+00,2.585458517074584961e+00,2.585115194320678711e+00,2.584771871566772461e+00,2.584428548812866211e+00,2.584085464477539062e+00,2.583742380142211914e+00,2.555212736129760742e+00,2.501065969467163086e+00,2.449166536331176758e+00,2.399377346038818359e+00,2.351572036743164062e+00,2.305634498596191406e+00,2.261457204818725586e+00,2.218941211700439453e+00,2.177994012832641602e+00,2.138531208038330078e+00,2.100472688674926758e+00,2.063745021820068359e+00,2.028279781341552734e+00,1.994012951850891113e+00,1.960884451866149902e+00,1.928839087486267090e+00,1.897824048995971680e+00,1.867790818214416504e+00
2.255053758621215820e+00,2.254792690277099609e+00,2.254531860351562500e+00,2.254271268844604492e+00,2.254010438919067383e+00,2.253749847412109375e+00,2.253489255905151367e+00,2.253228664398193359e+00,2.252968311309814453e+00,2.252707242965698242e+00,2.252446651458740234e+00,2.252185821533203125e+00,2.251925230026245117e+00,2.251664638519287109e+00,2.251404285430908203e+00,2.251143693923950195e+00,2.250883340835571289e+00,2.250623226165771484e+00,2.250362873077392578e+00,2.250102758407592773e+00,2.249842643737792969e+00,2.249582529067993164e+00,2.249322414398193359e+00,2.249062538146972656e+00,2.248802661895751953e+00,2.248542785644531250e+00,2.248283147811889648e+00,2.248023271560668945e+00,2.247763872146606445e+00,2.247504234313964844e+00,2.247244596481323242e+00,2.246985197067260742e+00,2.246725797653198242e+00,2.246466398239135742e+00,2.246207237243652344e+00,2.245947837829589844e+00,2.245688676834106445e+00,2.245429515838623047e+00,2.245170593261718750e+00,2.244911670684814453e+00,2.244652748107910156e+00,2.244393825531005859e+00,2.244134902954101562e+00,2.243876218795776367e+00,2.243617534637451172e+00,1.629976511001586914e+00,1.608660936355590820e+00,1.601715922355651855e+00,2.242583274841308594e+00,2.242324829101562500e+00,2.242066621780395508e+00,2.241808414459228516e+00,2.241550207138061523e+00,2.241291999816894531e+00,2.241033792495727539e+00,2.240775823593139648e+00,2.240517854690551758e+00,2.240259885787963867e+00,2.240002155303955078e+00,2.239744186401367188e+00,2.239486455917358398e+00,2.239228963851928711e+00,2.238971233367919922e+00,2.238713741302490234e+00,2.238456010818481445e+00,2.238198757171630859e+00,2.237941265106201172e+00,2.237684011459350586e+00,2.237426757812500000e+00,2.218971014022827148e+00,2.178022861480712891e+00,2.138558626174926758e+00,2.100499153137207031e+00,2.063770532608032227e+00,2.028304576873779297e+00,1.994036793708801270e+00,1.960907697677612305e+00,1.928861498832702637e+00,1.897845864295959473e+00,1.867811799049377441e+00
1.988067626953125000e+00,1.987864851951599121e+00,1.987662076950073242e+00,1.987459421157836914e+00,1.987256646156311035e+00,1.987054228782653809e+00,1.986851692199707031e+00,1.986649036407470703e+00,1.986446619033813477e+00,1.986244082450866699e+00,1.986041903495788574e+00,1.985839486122131348e+00,1.985637187957763672e+00,1.985434770584106445e+00,1.985232591629028320e+00,1.985030531883239746e+00,1.984828352928161621e+00,1.984626173973083496e+00,1.984424114227294922e+00,1.984222054481506348e+00,1.984020233154296875e+00,1.983818173408508301e+00,1.983616232872009277e+00,1.983414411544799805e+00,1.983212471008300781e+00,1.983010888099670410e+00,1.982809185981750488e+00,1.982607364654541016e+00,1.982405662536621094e+00,1.982204079627990723e+00,1.982002377510070801e+00,1.981801033020019531e+00,1.981599569320678711e+00,1.981397986412048340e+00,1.981196522712707520e+00,1.980995178222656250e+00,1.980793952941894531e+00,1.980592727661132812e+00,1.980391383171081543e+00,1.980190157890319824e+00,1.979988932609558105e+00,1.979787945747375488e+00,1.979586839675903320e+00,1.979385733604431152e+00,1.979184746742248535e+00,1.628195643424987793e+00,1.592915892601013184e+00,1.577955365180969238e+00,1.576328158378601074e+00,1.978180289268493652e+00,1.977979540824890137e+00,1.977778911590576172e+00,1.977578282356262207e+00,1.977377533912658691e+00,1.977176904678344727e+00,1.976976275444030762e+00,1.976776003837585449e+00,1.976575493812561035e+00,1.976374983787536621e+00,1.976174473762512207e+00,1.975974082946777344e+00,1.975774049758911133e+00,1.975573658943176270e+00,1.975373387336730957e+00,1.975173115730285645e+00,1.974972963333129883e+00,1.974772810935974121e+00,1.974572896957397461e+00,1.974372863769531250e+00,1.974172830581665039e+00,1.973972797393798828e+00,1.973772883415222168e+00,1.973573207855224609e+00,1.973373293876647949e+00,1.973173499107360840e+00,1.972973704338073730e+00,1.960931062698364258e+00,1.928883910179138184e+00,1.897867560386657715e+00,1.867832779884338379e+00
1.777608394622802734e+00,1.777446269989013672e+00,1.777284383773803711e+00,1.777122259140014648e+00,1.776960253715515137e+00,1.776798129081726074e+00,1.776636242866516113e+00,1.776474356651306152e+00,1.776312470436096191e+00,1.776150584220886230e+00,1.775988698005676270e+00,1.775826811790466309e+00,1.775665163993835449e+00,1.775503396987915039e+00,1.775341629981994629e+00,1.775179862976074219e+00,1.775018215179443359e+00,1.774856686592102051e+00,1.774695038795471191e+00,1.774533390998840332e+00,1.774371862411499023e+00,1.774210333824157715e+00,1.774048686027526855e+00,1.773887395858764648e+00,1.773725986480712891e+00,1.773564457893371582e+00,1.773403048515319824e+00,1.773241758346557617e+00,1.773080587387084961e+00,1.772919178009033203e+00,1.772757887840270996e+00,1.772596597671508789e+00,1.772435426712036133e+00,1.772274374961853027e+00,1.772113204002380371e+00,1.771952033042907715e+00,1.771790981292724609e+00,1.771629810333251953e+00,1.771468997001647949e+00,1.771307945251464844e+00,1.771146893501281738e+00,1.770985960960388184e+00,1.770825028419494629e+00,1.770664334297180176e+00,1.770503401756286621e+00,1.770342588424682617e+00,1.572705984115600586e+00,1.556442022323608398e+00,1.547793388366699219e+00,1.545591711997985840e+00,1.769538879394531250e+00,1.769378185272216797e+00,1.769217491149902344e+00,1.769057154655456543e+00,1.768896460533142090e+00,1.768735885620117188e+00,1.768575429916381836e+00,1.768414855003356934e+00,1.768254399299621582e+00,1.768094182014465332e+00,1.767933726310729980e+00,1.767773389816284180e+00,1.767612934112548828e+00,1.767452597618103027e+00,1.767292499542236328e+00,1.767132282257080078e+00,1.766972064971923828e+00,1.766811847686767578e+00,1.766651630401611328e+00,1.766491651535034180e+00,1.766331553459167480e+00,1.766171455383300781e+00,1.766011357307434082e+00,1.765851259231567383e+00,1.765691518783569336e+00,1.765531539916992188e+00,1.765371561050415039e+00,1.765211701393127441e+00,1.765051841735839844e+00,1.764892101287841797e+00
1.607442736625671387e+00,1.607310175895690918e+00,1.607177615165710449e+00,1.607045054435729980e+00,1.606912732124328613e+00,1.606780171394348145e+00,1.606647729873657227e+00,1.606515288352966309e+00,1.606382846832275391e+00,1.606250524520874023e+00,1.606118202209472656e+00,1.605985760688781738e+00,1.605853438377380371e+00,1.605721116065979004e+00,1.605588793754577637e+00,1.605456709861755371e+00,1.605324387550354004e+00,1.605192184448242188e+00,1.605059981346130371e+00,1.604927778244018555e+00,1.604795694351196289e+00,1.604663491249084473e+00,1.604531407356262207e+00,1.604399323463439941e+00,1.604267239570617676e+00,1.604135274887084961e+00,1.604003190994262695e+00,1.603871226310729980e+00,1.603739261627197266e+00,1.603607177734375000e+00,1.603475451469421387e+00,1.603343486785888672e+00,1.603211522102355957e+00,1.603079676628112793e+00,1.602947831153869629e+00,1.602816104888916016e+00,1.602684259414672852e+00,1.602552413940429688e+00,1.602420687675476074e+00,1.602288961410522461e+00,1.602157354354858398e+00,1.602025628089904785e+00,1.601893901824951172e+00,1.601762175559997559e+00,1.601630568504333496e+00,1.601499080657958984e+00,1.563777446746826172e+00,1.524512410163879395e+00,1.514779925346374512e+00,1.517000913619995117e+00,1.510886788368225098e+00,1.600709915161132812e+00,1.600578427314758301e+00,1.600446939468383789e+00,1.600315451622009277e+00,1.600184082984924316e+00,1.600052833557128906e+00,1.599921464920043945e+00,1.599790096282958984e+00,1.599658727645874023e+00,1.599527478218078613e+00,1.599396347999572754e+00,1.599264979362487793e+00,1.599133729934692383e+00,1.599002599716186523e+00,1.598871350288391113e+00,1.598740339279174805e+00,1.598609209060668945e+00,1.598478078842163086e+00,1.598346948623657227e+00,1.598215818405151367e+00,1.598084926605224609e+00,1.597953796386718750e+00,1.597822785377502441e+00,1.597691774368286133e+00,1.597560763359069824e+00,1.597429990768432617e+00,1.597299098968505859e+00,1.597168087959289551e+00,1.597037196159362793e+00
1.467009782791137695e+00,1.466899394989013672e+00,1.466789007186889648e+00,1.466678619384765625e+00,1.466568231582641602e+00,1.466457843780517578e+00,1.466347455978393555e+00,1.466237306594848633e+00,1.466126918792724609e+00,1.466016650199890137e+00,1.465906381607055664e+00,1.465796113014221191e+00,1.465685963630676270e+00,1.465575695037841797e+00,1.465465545654296875e+00,1.465355277061462402e+00,1.465245127677917480e+00,1.465135097503662109e+00,1.465024948120117188e+00,1.464914798736572266e+00,1.464804649353027344e+00,1.464694499969482422e+00,1.464584589004516602e+00,1.464474439620971680e+00,1.464364409446716309e+00,1.464254379272460938e+00,1.464144349098205566e+00,1.464034438133239746e+00,1.463924527168273926e+00,1.463814496994018555e+00,1.463704586029052734e+00,1.463594675064086914e+00,1.463484883308410645e+00,1.463374972343444824e+00,1.463265061378479004e+00,1.463155150413513184e+00,1.463045239448547363e+00,1.462935566902160645e+00,1.462825775146484375e+00,1.462715983390808105e+00,1.462606191635131836e+00,1.462496399879455566e+00,1.462386608123779297e+00,1.462277054786682129e+00,1.462167263031005859e+00,1.462057590484619141e+00,1.461947917938232422e+00,1.461838245391845703e+00,1.461728692054748535e+00,1.461619019508361816e+00,1.461509466171264648e+00,1.461399793624877930e+00,1.461290240287780762e+00,1.461180806159973145e+00,1.461071252822875977e+00,1.460961699485778809e+00,1.460852146148681641e+00,1.460742592811584473e+00,1.460633277893066406e+00,1.460523724555969238e+00,1.460414290428161621e+00,1.460304856300354004e+00,1.460195422172546387e+00,1.460086107254028320e+00,1.459976792335510254e+00,1.459867358207702637e+00,1.459758043289184570e+00,1.459648609161376953e+00,1.459539413452148438e+00,1.459430098533630371e+00,1.459320783615112305e+00,1.459211587905883789e+00,1.459102272987365723e+00,1.458993196487426758e+00,1.458883881568908691e+00,1.458774685859680176e+00,1.458665490150451660e+00,1.458556294441223145e+00,1.458447337150573730e+00,1.458338141441345215e+00
1.349142909049987793e+00,1.349049568176269531e+00,1.348956108093261719e+00,1.348862767219543457e+00,1.348769545555114746e+00,1.348676204681396484e+00,1.348582863807678223e+00,1.348489522933959961e+00,1.348396182060241699e+00,1.348302960395812988e+00,1.348209738731384277e+00,1.348116397857666016e+00,1.348023176193237305e+00,1.347929954528808594e+00,1.347836732864379883e+00,1.347743511199951172e+00,1.347650408744812012e+00,1.347557187080383301e+00,1.347463965415954590e+00,1.347370862960815430e+00,1.347277760505676270e+00,1.347184658050537109e+00,1.347091555595397949e+00,1.346998333930969238e+00,1.346905350685119629e+00,1.346812248229980469e+00,1.346719264984130859e+00,1.346626162528991699e+00,1.346533060073852539e+00,1.346440196037292480e+00,1.346347093582153320e+00,1.346254110336303711e+00,1.346161127090454102e+00,1.346068143844604492e+00,1.345975279808044434e+00,1.345882296562194824e+00,1.345789313316345215e+00,1.345696330070495605e+00,1.345603466033935547e+00,1.345510482788085938e+00,1.345417737960815430e+00,1.345324873924255371e+00,1.345232009887695312e+00,1.345139145851135254e+00,1.345046281814575195e+00,1.344953536987304688e+00,1.344860672950744629e+00,1.344767928123474121e+00,1.344675064086914062e+00,1.344582319259643555e+00,1.344489574432373047e+00,1.344396829605102539e+00,1.344304084777832031e+00,1.344211339950561523e+00,1.344118595123291016e+00,1.344026088714599609e+00,1.343933343887329102e+00,1.343840718269348145e+00,1.343747973442077637e+00,1.343655347824096680e+00,1.343562841415405273e+00,1.343470096588134766e+00,1.343377590179443359e+00,1.343284964561462402e+00,1.343192338943481445e+00,1.343099832534790039e+00,1.343007326126098633e+00,1.342914700508117676e+00,1.342822194099426270e+00,1.342729687690734863e+00,1.342637181282043457e+00,1.342544674873352051e+00,1.342452168464660645e+00,1.342359781265258789e+00,1.342267274856567383e+00,1.342174887657165527e+00,1.342082500457763672e+00,1.341989994049072266e+00,1.341897606849670410e+00,1.341805219650268555e+00
1.248807549476623535e+00,1.248727560043334961e+00,1.248647570610046387e+00,1.248567581176757812e+00,1.248487591743469238e+00,1.248407602310180664e+00,1.248327732086181641e+00,1.248247742652893066e+00,1.248167753219604492e+00,1.248087882995605469e+00,1.248007893562316895e+00,1.247928023338317871e+00,1.247848153114318848e+00,1.247768282890319824e+00,1.247688293457031250e+00,1.247608423233032227e+00,1.247528672218322754e+00,1.247448801994323730e+00,1.247368931770324707e+00,1.247289061546325684e+00,1.247209310531616211e+00,1.247129559516906738e+00,1.247049689292907715e+00,1.246969938278198242e+00,1.246890187263488770e+00,1.246810317039489746e+00,1.246730685234069824e+00,1.246650934219360352e+00,1.246571183204650879e+00,1.246491432189941406e+00,1.246411681175231934e+00,1.246331930160522461e+00,1.246252298355102539e+00,1.246172666549682617e+00,1.246092915534973145e+00,1.246013283729553223e+00,1.245933532714843750e+00,1.245854020118713379e+00,1.245774388313293457e+00,1.245694756507873535e+00,1.245615124702453613e+00,1.245535492897033691e+00,1.245455980300903320e+00,1.245376348495483398e+00,1.245296716690063477e+00,1.245217204093933105e+00,1.245137572288513184e+00,1.245058178901672363e+00,1.244978666305541992e+00,1.244899034500122070e+00,1.244819521903991699e+00,1.244740009307861328e+00,1.244660615921020508e+00,1.244581103324890137e+00,1.244501590728759766e+00,1.244422197341918945e+00,1.244342684745788574e+00,1.244263291358947754e+00,1.244183897972106934e+00,1.244104385375976562e+00,1.244024991989135742e+00,1.243945598602294922e+00,1.243866324424743652e+00,1.243786931037902832e+00,1.243707537651062012e+00,1.243628144264221191e+00,1.243548750877380371e+00,1.243469476699829102e+00,1.243390083312988281e+00,1.243310809135437012e+00,1.243231534957885742e+00,1.243152141571044922e+00,1.243072867393493652e+00,1.242993712425231934e+00,1.242914319038391113e+00,1.242835044860839844e+00,1.242755889892578125e+00,1.242676615715026855e+00,1.242597460746765137e+00,1.242518186569213867e+00
1.162363052368164062e+00,1.162293672561645508e+00,1.162224292755126953e+00,1.162155151367187500e+00,1.162085771560668945e+00,1.162016510963439941e+00,1.161947250366210938e+00,1.161877870559692383e+00,1.161808729171752930e+00,1.161739468574523926e+00,1.161670207977294922e+00,1.161600947380065918e+00,1.161531686782836914e+00,1.161462545394897461e+00,1.161393284797668457e+00,1.161324143409729004e+00,1.161254882812500000e+00,1.161185741424560547e+00,1.161116600036621094e+00,1.161047458648681641e+00,1.160978198051452637e+00,1.160909056663513184e+00,1.160839915275573730e+00,1.160770773887634277e+00,1.160701632499694824e+00,1.160632491111755371e+00,1.160563468933105469e+00,1.160494327545166016e+00,1.160425186157226562e+00,1.160356163978576660e+00,1.160287022590637207e+00,1.160218000411987305e+00,1.160148859024047852e+00,1.160079836845397949e+00,1.160010814666748047e+00,1.159941792488098145e+00,1.159872770309448242e+00,1.159803748130798340e+00,1.159734725952148438e+00,1.159665703773498535e+00,1.159596681594848633e+00,1.159527778625488281e+00,1.159458756446838379e+00,1.159389734268188477e+00,1.159320831298828125e+00,1.159251809120178223e+00,1.159182906150817871e+00,1.159114003181457520e+00,1.159044981002807617e+00,1.158976197242736816e+00,1.158907175064086914e+00,1.158838272094726562e+00,1.158769369125366211e+00,1.158700466156005859e+00,1.158631682395935059e+00,1.158562779426574707e+00,1.158493876457214355e+00,1.158424973487854004e+00,1.158356189727783203e+00,1.158287405967712402e+00,1.158218502998352051e+00,1.158149719238281250e+00,1.158080816268920898e+00,1.158012032508850098e+00,1.157943248748779297e+00,1.157874464988708496e+00,1.157805681228637695e+00,1.157736897468566895e+00,1.157668113708496094e+00,1.157599329948425293e+00,1.157530665397644043e+00,1.157461881637573242e+00,1.157393217086791992e+00,1.157324433326721191e+00,1.157255649566650391e+00,1.157187104225158691e+00,1.157118320465087891e+00,1.157049655914306641e+00,1.156980872154235840e+00,1.156912207603454590e+00
1.087111353874206543e+00,1.087050676345825195e+00,1.086989998817443848e+00,1.086929440498352051e+00,1.086868762969970703e+00,1.086808204650878906e+00,1.086747646331787109e+00,1.086686968803405762e+00,1.086626410484313965e+00,1.086565852165222168e+00,1.086505293846130371e+00,1.086444735527038574e+00,1.086384177207946777e+00,1.086323618888854980e+00,1.086263060569763184e+00,1.086202502250671387e+00,1.086141943931579590e+00,1.086081504821777344e+00,1.086020946502685547e+00,1.085960388183593750e+00,1.085899829864501953e+00,1.085839390754699707e+00,1.085778951644897461e+00,1.085718393325805664e+00,1.085657954216003418e+00,1.085597515106201172e+00,1.085537075996398926e+00,1.085476636886596680e+00,1.085416078567504883e+00,1.085355639457702637e+00,1.085295200347900391e+00,1.085234880447387695e+00,1.085174441337585449e+00,1.085114002227783203e+00,1.085053563117980957e+00,1.084993124008178711e+00,1.084932804107666016e+00,1.084872364997863770e+00,1.084812045097351074e+00,1.084751605987548828e+00,1.084691166877746582e+00,1.084630846977233887e+00,1.084570527076721191e+00,1.084510207176208496e+00,1.084449768066406250e+00,1.084389448165893555e+00,1.084329247474670410e+00,1.084268808364868164e+00,1.084208488464355469e+00,1.084148168563842773e+00,1.084087848663330078e+00,1.084027647972106934e+00,1.083967328071594238e+00,1.083907008171081543e+00,1.083846807479858398e+00,1.083786487579345703e+00,1.083726167678833008e+00,1.083665966987609863e+00,1.083605766296386719e+00,1.083545446395874023e+00,1.083485245704650879e+00,1.083425045013427734e+00,1.083364844322204590e+00,1.083304643630981445e+00,1.083244442939758301e+00,1.083184123039245605e+00,1.083123922348022461e+00,1.083063840866088867e+00,1.083003640174865723e+00,1.082943439483642578e+00,1.082883238792419434e+00,1.082823038101196289e+00,1.082762956619262695e+00,1.082702875137329102e+00,1.082642674446105957e+00,1.082582473754882812e+00,1.082522392272949219e+00,1.082462310791015625e+00,1.082402229309082031e+00,1.082342028617858887e+00
1.021010756492614746e+00,1.020957231521606445e+00,1.020903825759887695e+00,1.020850300788879395e+00,1.020796895027160645e+00,1.020743370056152344e+00,1.020689964294433594e+00,1.020636439323425293e+00,1.020583033561706543e+00,1.020529627799987793e+00,1.020476222038269043e+00,1.020422697067260742e+00,1.020369291305541992e+00,1.020315885543823242e+00,1.020262479782104492e+00,1.020209074020385742e+00,1.020155668258666992e+00,1.020102262496948242e+00,1.020048975944519043e+00,1.019995570182800293e+00,1.019942164421081543e+00,1.019888758659362793e+00,1.019835352897644043e+00,1.019782066345214844e+00,1.019728660583496094e+00,1.019675374031066895e+00,1.019621968269348145e+00,1.019568681716918945e+00,1.019515395164489746e+00,1.019461989402770996e+00,1.019408702850341797e+00,1.019355416297912598e+00,1.019302010536193848e+00,1.019248843193054199e+00,1.019195437431335449e+00,1.019142150878906250e+00,1.019088864326477051e+00,1.019035577774047852e+00,1.018982291221618652e+00,1.018929123878479004e+00,1.018875837326049805e+00,1.018822550773620605e+00,1.018769264221191406e+00,1.018716096878051758e+00,1.018662810325622559e+00,1.018609523773193359e+00,1.018556356430053711e+00,1.018503069877624512e+00,1.018449783325195312e+00,1.018396615982055664e+00,1.018343448638916016e+00,1.018290281295776367e+00,1.018236994743347168e+00,1.018183827400207520e+00,1.018130660057067871e+00,1.018077492713928223e+00,1.018024325370788574e+00,1.017971158027648926e+00,1.017917871475219727e+00,1.017864823341369629e+00,1.017811655998229980e+00,1.017758488655090332e+00,1.017705321311950684e+00,1.017652153968811035e+00,1.017599105834960938e+00,1.017545938491821289e+00,1.017492771148681641e+00,1.017439723014831543e+00,1.017386555671691895e+00,1.017333507537841797e+00,1.017280459403991699e+00,1.017227292060852051e+00,1.017174243927001953e+00,1.017121076583862305e+00,1.017068028450012207e+00,1.017014980316162109e+00,1.016961932182312012e+00,1.016908884048461914e+00,1.016855835914611816e+00,1.016802787780761719e+00
9.624878764152526855e-01,9.624403715133666992e-01,9.623927474021911621e-01,9.623453021049499512e-01,9.622977375984191895e-01,9.622502326965332031e-01,9.622027873992919922e-01,9.621552228927612305e-01,9.621077775955200195e-01,9.620602130889892578e-01,9.620127677917480469e-01,9.619653224945068359e-01,9.619178175926208496e-01,9.618703722953796387e-01,9.618228673934936523e-01,9.617754220962524414e-01,9.617280364036560059e-01,9.616804718971252441e-01,9.616330862045288086e-01,9.615855813026428223e-01,9.615381956100463867e-01,9.614908099174499512e-01,9.614433050155639648e-01,9.613959193229675293e-01,9.613484144210815430e-01,9.613010883331298828e-01,9.612537026405334473e-01,9.612061977386474609e-01,9.611588716506958008e-01,9.611114263534545898e-01,9.610640406608581543e-01,9.610167145729064941e-01,9.609692692756652832e-01,9.609219431877136230e-01,9.608744978904724121e-01,9.608271718025207520e-01,9.607798457145690918e-01,9.607324004173278809e-01,9.606850743293762207e-01,9.606376886367797852e-01,9.605903625488281250e-01,9.605430960655212402e-01,9.604957103729248047e-01,9.604483842849731445e-01,9.604009985923767090e-01,9.603537321090698242e-01,9.603064656257629395e-01,9.602590799331665039e-01,9.602118134498596191e-01,9.601644277572631836e-01,9.601171612739562988e-01,9.600699543952941895e-01,9.600225687026977539e-01,9.599753618240356445e-01,9.599279761314392090e-01,9.598807692527770996e-01,9.598335623741149902e-01,9.597861766815185547e-01,9.597389698028564453e-01,9.596916437149047852e-01,9.596444368362426758e-01,9.595972299575805664e-01,9.595499634742736816e-01,9.595027565956115723e-01,9.594554305076599121e-01,9.594082832336425781e-01,9.593610763549804688e-01,9.593138098716735840e-01,9.592666029930114746e-01,9.592193365097045898e-01,9.591721892356872559e-01,9.591250419616699219e-01,9.590777754783630371e-01,9.590306282043457031e-01,9.589833617210388184e-01,9.589362144470214844e-01,9.588890671730041504e-01,9.588418602943420410e-01,9.587947130203247070e-01,9.587475061416625977e-01
9.103101491928100586e-01,9.102675318717956543e-01,9.102250933647155762e-01,9.101825952529907227e-01,9.101400375366210938e-01,9.100975990295410156e-01,9.100550413131713867e-01,9.100126028060913086e-01,9.099701642990112305e-01,9.099276065826416016e-01,9.098851680755615234e-01,9.098426103591918945e-01,9.098001718521118164e-01,9.097577929496765137e-01,9.097152352333068848e-01,9.096727967262268066e-01,9.096302986145019531e-01,9.095879197120666504e-01,9.095454812049865723e-01,9.095029830932617188e-01,9.094606041908264160e-01,9.094181060791015625e-01,9.093757271766662598e-01,9.093332886695861816e-01,9.092908501625061035e-01,9.092484712600708008e-01,9.092059731483459473e-01,9.091635942459106445e-01,9.091212153434753418e-01,9.090787768363952637e-01,9.090363979339599609e-01,9.089939594268798828e-01,9.089515805244445801e-01,9.089092612266540527e-01,9.088668227195739746e-01,9.088244438171386719e-01,9.087820649147033691e-01,9.087396860122680664e-01,9.086973667144775391e-01,9.086549282073974609e-01,9.086126089096069336e-01,9.085702300071716309e-01,9.085279107093811035e-01,9.084855914115905762e-01,9.084432125091552734e-01,9.084008932113647461e-01,9.083585143089294434e-01,9.083161950111389160e-01,9.082739353179931641e-01,9.082315564155578613e-01,9.081892371177673340e-01,9.081468582153320312e-01,9.081045985221862793e-01,9.080623388290405273e-01,9.080199599266052246e-01,9.079777002334594727e-01,9.079353809356689453e-01,9.078931212425231934e-01,9.078508615493774414e-01,9.078084826469421387e-01,9.077662825584411621e-01,9.077239036560058594e-01,9.076817035675048828e-01,9.076394438743591309e-01,9.075971245765686035e-01,9.075549244880676270e-01,9.075126051902770996e-01,9.074704051017761230e-01,9.074281454086303711e-01,9.073858857154846191e-01,9.073436856269836426e-01,9.073013663291931152e-01,9.072591662406921387e-01,9.072169065475463867e-01,9.071747064590454102e-01,9.071325063705444336e-01,9.070902466773986816e-01,9.070480465888977051e-01,9.070057868957519531e-01,9.069636464118957520e-01
8.634987473487854004e-01,8.634604215621948242e-01,8.634222149848937988e-01,8.633839488029479980e-01,8.633457422256469727e-01,8.633075356483459473e-01,8.632692098617553711e-01,8.632310032844543457e-01,8.631927371025085449e-01,8.631545305252075195e-01,8.631163835525512695e-01,8.630780577659606934e-01,8.630399107933044434e-01,8.630016446113586426e-01,8.629634380340576172e-01,8.629252910614013672e-01,8.628870248794555664e-01,8.628488779067993164e-01,8.628106117248535156e-01,8.627724647521972656e-01,8.627343177795410156e-01,8.626960515975952148e-01,8.626579046249389648e-01,8.626196980476379395e-01,8.625815510749816895e-01,8.625434041023254395e-01,8.625051975250244141e-01,8.624670505523681641e-01,8.624288439750671387e-01,8.623906970024108887e-01,8.623525500297546387e-01,8.623143434524536133e-01,8.622762560844421387e-01,8.622380495071411133e-01,8.621999621391296387e-01,8.621618151664733887e-01,8.621236681938171387e-01,8.620855808258056641e-01,8.620473742485046387e-01,8.620092868804931641e-01,8.619711995124816895e-01,8.619329929351806641e-01,8.618949651718139648e-01,8.618567585945129395e-01,8.618186712265014648e-01,8.617806434631347656e-01,8.617424964904785156e-01,8.617044091224670410e-01,8.616662621498107910e-01,8.616281747817993164e-01,8.615901470184326172e-01,8.615520000457763672e-01,8.615139722824096680e-01,8.614758253097534180e-01,8.614377975463867188e-01,8.613997697830200195e-01,8.613616228103637695e-01,8.613235950469970703e-01,8.612855076789855957e-01,8.612474799156188965e-01,8.612094521522521973e-01,8.611713051795959473e-01,8.611333370208740234e-01,8.610951900482177734e-01,8.610572218894958496e-01,8.610191345214843750e-01,8.609811067581176758e-01,8.609431385993957520e-01,8.609050512313842773e-01,8.608670234680175781e-01,8.608289957046508789e-01,8.607909679412841797e-01,8.607529997825622559e-01,8.607149720191955566e-01,8.606770038604736328e-01,8.606389164924621582e-01,8.606009483337402344e-01,8.605629801750183105e-01,8.605249524116516113e-01,8.604869842529296875e-01
8.212662339210510254e-01,8.212316632270812988e-01,8.211970925331115723e-01,8.211624622344970703e-01,8.211278915405273438e-01,8.210932612419128418e-01,8.210586905479431152e-01,8.210241198539733887e-01,8.209894895553588867e-01,8.209549784660339355e-01,8.209203481674194336e-01,8.208857774734497070e-01,8.208512663841247559e-01,8.208166360855102539e-01,8.207820653915405273e-01,8.207474946975708008e-01,8.207129836082458496e-01,8.206784129142761230e-01,8.206438422203063965e-01,8.206093311309814453e-01,8.205747008323669434e-01,8.205401897430419922e-01,8.205056786537170410e-01,8.204711079597473145e-01,8.204365968704223633e-01,8.204020261764526367e-01,8.203675150871276855e-01,8.203330039978027344e-01,8.202984333038330078e-01,8.202639818191528320e-01,8.202294111251831055e-01,8.201949000358581543e-01,8.201604485511779785e-01,8.201258778572082520e-01,8.200913667678833008e-01,8.200568556785583496e-01,8.200223445892333984e-01,8.199878931045532227e-01,8.199533224105834961e-01,8.199188709259033203e-01,8.198843598365783691e-01,8.198499083518981934e-01,8.198154568672180176e-01,8.197808861732482910e-01,8.197464346885681152e-01,8.197119235992431641e-01,8.196774721145629883e-01,8.196430802345275879e-01,8.196085691452026367e-01,8.195741176605224609e-01,8.195396065711975098e-01,8.195051550865173340e-01,8.194707632064819336e-01,8.194362521171569824e-01,8.194018006324768066e-01,8.193673491477966309e-01,8.193328976631164551e-01,8.192984461784362793e-01,8.192639946937561035e-01,8.192296028137207031e-01,8.191951513290405273e-01,8.191607594490051270e-01,8.191262483596801758e-01,8.190918564796447754e-01,8.190574645996093750e-01,8.190230131149291992e-01,8.189886212348937988e-01,8.189541697502136230e-01,8.189197778701782227e-01,8.188853859901428223e-01,8.188509345054626465e-01,8.188166022300720215e-01,8.187821507453918457e-01,8.187477588653564453e-01,8.187134265899658203e-01,8.186789751052856445e-01,8.186446428298950195e-01,8.186101913452148438e-01,8.185758590698242188e-01,8.185415267944335938e-01
7.829722762107849121e-01,7.829408049583435059e-01,7.829093337059020996e-01,7.828779220581054688e-01,7.828465104103088379e-01,7.828150391578674316e-01,7.827836275100708008e-01,7.827520966529846191e-01,7.827207446098327637e-01,7.826893329620361328e-01,7.826578617095947266e-01,7.826264500617980957e-01,7.825949788093566895e-01,7.825635671615600586e-01,7.825322151184082031e-01,7.825007438659667969e-01,7.824693322181701660e-01,7.824378609657287598e-01,7.824065089225769043e-01,7.823750972747802734e-01,7.823436856269836426e-01,7.823122739791870117e-01,7.822808623313903809e-01,7.822495102882385254e-01,7.822180986404418945e-01,7.821866869926452637e-01,7.821553349494934082e-01,7.821239233016967773e-01,7.820925116539001465e-01,7.820611596107482910e-01,7.820297479629516602e-01,7.819983959197998047e-01,7.819669842720031738e-01,7.819356322288513184e-01,7.819042801856994629e-01,7.818729281425476074e-01,7.818415760993957520e-01,7.818101644515991211e-01,7.817788124084472656e-01,7.817475199699401855e-01,7.817161083221435547e-01,7.816847562789916992e-01,7.816534042358398438e-01,7.816220521926879883e-01,7.815907597541809082e-01,7.815593481063842773e-01,7.815280556678771973e-01,7.814966440200805664e-01,7.814653515815734863e-01,7.814339995384216309e-01,7.814027070999145508e-01,7.813714146614074707e-01,7.813400030136108398e-01,7.813087105751037598e-01,7.812773585319519043e-01,7.812460660934448242e-01,7.812147736549377441e-01,7.811834216117858887e-01,7.811521291732788086e-01,7.811207771301269531e-01,7.810895442962646484e-01,7.810582518577575684e-01,7.810268998146057129e-01,7.809956669807434082e-01,7.809643149375915527e-01,7.809330224990844727e-01,7.809017896652221680e-01,7.808704376220703125e-01,7.808392047882080078e-01,7.808078527450561523e-01,7.807766199111938477e-01,7.807453870773315430e-01,7.807140350341796875e-01,7.806828022003173828e-01,7.806515097618103027e-01,7.806202769279479980e-01,7.805890440940856934e-01,7.805577516555786133e-01,7.805265188217163086e-01,7.804952263832092285e-01
7.480903267860412598e-01,7.480615973472595215e-01,7.480328679084777832e-01,7.480041980743408203e-01,7.479754686355590820e-01,7.479467391967773438e-01,7.479180693626403809e-01,7.478893399238586426e-01,7.478606700897216797e-01,7.478319406509399414e-01,7.478032708168029785e-01,7.477746009826660156e-01,7.477458715438842773e-01,7.477172017097473145e-01,7.476884722709655762e-01,7.476598620414733887e-01,7.476311922073364258e-01,7.476024627685546875e-01,7.475738525390625000e-01,7.475451231002807617e-01,7.475164532661437988e-01,7.474878430366516113e-01,7.474591135978698730e-01,7.474305033683776855e-01,7.474017739295959473e-01,7.473731637001037598e-01,7.473444938659667969e-01,7.473158240318298340e-01,7.472872138023376465e-01,7.472584843635559082e-01,7.472298741340637207e-01,7.472012639045715332e-01,7.471725940704345703e-01,7.471439838409423828e-01,7.471152544021606445e-01,7.470866441726684570e-01,7.470580339431762695e-01,7.470293641090393066e-01,7.470007538795471191e-01,7.469720840454101562e-01,7.469435334205627441e-01,7.469149231910705566e-01,7.468862533569335938e-01,7.468576431274414062e-01,7.468289732933044434e-01,7.468004226684570312e-01,7.467717528343200684e-01,7.467431426048278809e-01,7.467145919799804688e-01,7.466859221458435059e-01,7.466573715209960938e-01,7.466287016868591309e-01,7.466001510620117188e-01,7.465715408325195312e-01,7.465429306030273438e-01,7.465143799781799316e-01,7.464857101440429688e-01,7.464571595191955566e-01,7.464286088943481445e-01,7.463999986648559570e-01,7.463714480400085449e-01,7.463427782058715820e-01,7.463142275810241699e-01,7.462856769561767578e-01,7.462570667266845703e-01,7.462285161018371582e-01,7.461999058723449707e-01,7.461714148521423340e-01,7.461428642272949219e-01,7.461142539978027344e-01,7.460857033729553223e-01,7.460570931434631348e-01,7.460286021232604980e-01,7.460000514984130859e-01,7.459714412689208984e-01,7.459429502487182617e-01,7.459143400192260742e-01,7.458858489990234375e-01,7.458572983741760254e-01,7.458287477493286133e-01
7.161838412284851074e-01,7.161574363708496094e-01,7.161311507225036621e-01,7.161048650741577148e-01,7.160785198211669922e-01,7.160522341728210449e-01,7.160258889198303223e-01,7.159996628761291504e-01,7.159733772277832031e-01,7.159470319747924805e-01,7.159207463264465332e-01,7.158944010734558105e-01,7.158681154251098633e-01,7.158418893814086914e-01,7.158155441284179688e-01,7.157892584800720215e-01,7.157629728317260742e-01,7.157366871833801270e-01,7.157104611396789551e-01,7.156841158866882324e-01,7.156578898429870605e-01,7.156315445899963379e-01,7.156053185462951660e-01,7.155790328979492188e-01,7.155527472496032715e-01,7.155265212059020996e-01,7.155001759529113770e-01,7.154739499092102051e-01,7.154477238655090332e-01,7.154214382171630859e-01,7.153952121734619141e-01,7.153688669204711914e-01,7.153426408767700195e-01,7.153164148330688477e-01,7.152901291847229004e-01,7.152639031410217285e-01,7.152376174926757812e-01,7.152113914489746094e-01,7.151851058006286621e-01,7.151589393615722656e-01,7.151327133178710938e-01,7.151064276695251465e-01,7.150802016258239746e-01,7.150539159774780273e-01,7.150277495384216309e-01,7.150015234947204590e-01,7.149752378463745117e-01,7.149490714073181152e-01,7.149227857589721680e-01,7.148966193199157715e-01,7.148703932762145996e-01,7.148441672325134277e-01,7.148179411888122559e-01,7.147917151451110840e-01,7.147654891014099121e-01,7.147393226623535156e-01,7.147130966186523438e-01,7.146868705749511719e-01,7.146606445312500000e-01,7.146344780921936035e-01,7.146083116531372070e-01,7.145820856094360352e-01,7.145559191703796387e-01,7.145296335220336914e-01,7.145034670829772949e-01,7.144773006439208984e-01,7.144510746002197266e-01,7.144249081611633301e-01,7.143986821174621582e-01,7.143725156784057617e-01,7.143464088439941406e-01,7.143201828002929688e-01,7.142940163612365723e-01,7.142677903175354004e-01,7.142416238784790039e-01,7.142155170440673828e-01,7.141892910003662109e-01,7.141631245613098145e-01,7.141369581222534180e-01,7.141107916831970215e-01
6.868876814842224121e-01,6.868634223937988281e-01,6.868392229080200195e-01,6.868150234222412109e-01,6.867908239364624023e-01,6.867666840553283691e-01,6.867424249649047852e-01,6.867182254791259766e-01,6.866940259933471680e-01,6.866698265075683594e-01,6.866456866264343262e-01,6.866214275360107422e-01,6.865972876548767090e-01,6.865730881690979004e-01,6.865488886833190918e-01,6.865247488021850586e-01,6.865005493164062500e-01,6.864763498306274414e-01,6.864521503448486328e-01,6.864280104637145996e-01,6.864038705825805664e-01,6.863796710968017578e-01,6.863555312156677246e-01,6.863312721252441406e-01,6.863071322441101074e-01,6.862829923629760742e-01,6.862587928771972656e-01,6.862346529960632324e-01,6.862104535102844238e-01,6.861863136291503906e-01,6.861621737480163574e-01,6.861380338668823242e-01,6.861138939857482910e-01,6.860896944999694824e-01,6.860655546188354492e-01,6.860414147377014160e-01,6.860172748565673828e-01,6.859931349754333496e-01,6.859689354896545410e-01,6.859448552131652832e-01,6.859206557273864746e-01,6.858965754508972168e-01,6.858724355697631836e-01,6.858482956886291504e-01,6.858241558074951172e-01,6.858000159263610840e-01,6.857758760452270508e-01,6.857517957687377930e-01,6.857275962829589844e-01,6.857035160064697266e-01,6.856793761253356934e-01,6.856552362442016602e-01,6.856311559677124023e-01,6.856070160865783691e-01,6.855829358100891113e-01,6.855587363243103027e-01,6.855346560478210449e-01,6.855105757713317871e-01,6.854864358901977539e-01,6.854623556137084961e-01,6.854382157325744629e-01,6.854141354560852051e-01,6.853900551795959473e-01,6.853659152984619141e-01,6.853418350219726562e-01,6.853176951408386230e-01,6.852936148643493652e-01,6.852695345878601074e-01,6.852454543113708496e-01,6.852213740348815918e-01,6.851972341537475586e-01,6.851731538772583008e-01,6.851491332054138184e-01,6.851249933242797852e-01,6.851009130477905273e-01,6.850768327713012695e-01,6.850527524948120117e-01,6.850287318229675293e-01,6.850045919418334961e-01,6.849805712699890137e-01
6.598940491676330566e-01,6.598717570304870605e-01,6.598494052886962891e-01,6.598270535469055176e-01,6.598047018051147461e-01,6.597823500633239746e-01,6.597600579261779785e-01,6.597377061843872070e-01,6.597153544425964355e-01,6.596930623054504395e-01,6.596707105636596680e-01,6.596484184265136719e-01,6.596260666847229004e-01,6.596037149429321289e-01,6.595814228057861328e-01,6.595590710639953613e-01,6.595367789268493652e-01,6.595144867897033691e-01,6.594921350479125977e-01,6.594698429107666016e-01,6.594474911689758301e-01,6.594251990318298340e-01,6.594029068946838379e-01,6.593806147575378418e-01,6.593583226203918457e-01,6.593359708786010742e-01,6.593136787414550781e-01,6.592913269996643066e-01,6.592690944671630859e-01,6.592468023300170898e-01,6.592244505882263184e-01,6.592022180557250977e-01,6.591798663139343262e-01,6.591575741767883301e-01,6.591353416442871094e-01,6.591129899024963379e-01,6.590907573699951172e-01,6.590684056282043457e-01,6.590461730957031250e-01,6.590238809585571289e-01,6.590015888214111328e-01,6.589792966842651367e-01,6.589570045471191406e-01,6.589347720146179199e-01,6.589124798774719238e-01,6.588901877403259277e-01,6.588679552078247070e-01,6.588456034660339355e-01,6.588233709335327148e-01,6.588011384010314941e-01,6.587788462638854980e-01,6.587565541267395020e-01,6.587342619895935059e-01,6.587120294570922852e-01,6.586897969245910645e-01,6.586675047874450684e-01,6.586452722549438477e-01,6.586229801177978516e-01,6.586007475852966309e-01,6.585785150527954102e-01,6.585562229156494141e-01,6.585339903831481934e-01,6.585116982460021973e-01,6.584894657135009766e-01,6.584672927856445312e-01,6.584450006484985352e-01,6.584227681159973145e-01,6.584004759788513184e-01,6.583782434463500977e-01,6.583560705184936523e-01,6.583337783813476562e-01,6.583115458488464355e-01,6.582893133163452148e-01,6.582670807838439941e-01,6.582448482513427734e-01,6.582226157188415527e-01,6.582003831863403320e-01,6.581781506538391113e-01,6.581559181213378906e-01,6.581337451934814453e-01
