5.000000000000000000e+00,5.000000000000000000e+00,5.000000000000000000e+00,5.000000000000000000e+00,5.000000000000000000e+00,5.000000000000000000e+00,5.000000000000000000e+00,5.000000000000000000e+00,5.000000000000000000e+00,5.000000000000000000e+00,5.000000000000000000e+00,5.000000000000000000e+00,5.000000000000000000e+00,5.000000000000000000e+00,5.000000000000000000e+00,5.000000000000000000e+00,5.000000000000000000e+00,5.000000000000000000e+00,5.000000000000000000e+00,5.000000000000000000e+00,5.000000000000000000e+00,5.000000000000000000e+00,5.000000000000000000e+00,5.000000000000000000e+00,5.000000000000000000e+00,5.000000000000000000e+00,5.000000000000000000e+00,5.000000000000000000e+00,5.000000000000000000e+00,5.000000000000000000e+00,1.939129471778869629e+00,1.936075806617736816e+00,1.964373946189880371e+00,1.952901482582092285e+00,1.935406208038330078e+00,1.928634285926818848e+00,1.925777912139892578e+00,1.930151939392089844e+00,1.944702625274658203e+00,1.962103366851806641e+00,1.995919227600097656e+00,2.138396501541137695e+00,2.154288768768310547e+00,4.171221256256103516e+00,4.029934406280517578e+00,3.897905349731445312e+00,3.774252653121948242e+00,3.658204317092895508e+00,3.549079179763793945e+00,3.446275949478149414e+00,3.349260807037353516e+00,3.257557868957519531e+00,3.170742988586425781e+00,3.088435173034667969e+00,3.010292768478393555e+00,2.936006784439086914e+00,2.865298986434936523e+00,2.797916650772094727e+00,2.733630657196044922e+00,2.672232627868652344e+00,2.613532066345214844e+00,2.557354688644409180e+00,2.503541707992553711e+00,2.451946973800659180e+00,2.402435541152954102e+00,2.354884386062622070e+00,2.309178590774536133e+00,2.265213727951049805e+00,2.222891569137573242e+00,2.182121753692626953e+00,2.142820596694946289e+00,2.104909896850585938e+00,2.068317174911499023e+00,2.032975435256958008e+00,1.998821139335632324e+00,1.965795516967773438e+00,1.933843135833740234e+00,1.902913212776184082e+00,1.872956752777099609e+00,1.843929171562194824e+00
5.000000000000000000e+00,5.000000000000000000e+00,5.000000000000000000e+00,5.000000000000000000e+00,5.000000000000000000e+00,5.000000000000000000e+00,5.000000000000000000e+00,5.000000000000000000e+00,5.000000000000000000e+00,5.000000000000000000e+00,5.000000000000000000e+00,5.000000000000000000e+00,5.000000000000000000e+00,5.000000000000000000e+00,5.000000000000000000e+00,5.000000000000000000e+00,5.000000000000000000e+00,5.000000000000000000e+00,5.000000000000000000e+00,5.000000000000000000e+00,5.000000000000000000e+00,5.000000000000000000e+00,5.000000000000000000e+00,5.000000000000000000e+00,5.000000000000000000e+00,5.000000000000000000e+00,5.000000000000000000e+00,5.000000000000000000e+00,5.000000000000000000e+00,5.000000000000000000e+00,1.916373014450073242e+00,1.910332560539245605e+00,1.946529984474182129e+00,1.951590895652770996e+00,1.936562299728393555e+00,1.931047201156616211e+00,1.935593485832214355e+00,1.942749500274658203e+00,1.954279541969299316e+00,1.965664148330688477e+00,1.997174143791198730e+00,2.132814168930053711e+00,2.146723747253417969e+00,4.171323776245117188e+00,4.030029773712158203e+00,3.897994518280029297e+00,3.774336338043212891e+00,3.658282756805419922e+00,3.549153089523315430e+00,3.446345329284667969e+00,3.349326372146606445e+00,3.257620096206665039e+00,3.170801877975463867e+00,3.088491201400756836e+00,3.010345935821533203e+00,2.936057329177856445e+00,2.865347146987915039e+00,2.797962665557861328e+00,2.733674526214599609e+00,2.672274589538574219e+00,2.613571882247924805e+00,2.557393074035644531e+00,2.503578662872314453e+00,2.451982259750366211e+00,2.402469635009765625e+00,2.354916810989379883e+00,2.309210062026977539e+00,2.265243768692016602e+00,2.222920417785644531e+00,2.182149648666381836e+00,2.142847537994384766e+00,2.104935884475708008e+00,2.068342447280883789e+00,2.032999753952026367e+00,1.998844623565673828e+00,1.965818047523498535e+00,1.933865189552307129e+00,1.902934312820434570e+00,1.872977495193481445e+00,1.843949079513549805e+00
5.000000000000000000e+00,5.000000000000000000e+00,5.000000000000000000e+00,5.000000000000000000e+00,5.000000000000000000e+00,5.000000000000000000e+00,5.000000000000000000e+00,5.000000000000000000e+00,5.000000000000000000e+00,5.000000000000000000e+00,5.000000000000000000e+00,5.000000000000000000e+00,5.000000000000000000e+00,5.000000000000000000e+00,5.000000000000000000e+00,5.000000000000000000e+00,5.000000000000000000e+00,5.000000000000000000e+00,5.000000000000000000e+00,5.000000000000000000e+00,5.000000000000000000e+00,5.000000000000000000e+00,5.000000000000000000e+00,5.000000000000000000e+00,5.000000000000000000e+00,5.000000000000000000e+00,5.000000000000000000e+00,5.000000000000000000e+00,5.000000000000000000e+00,5.000000000000000000e+00,1.884186625480651855e+00,1.882277011871337891e+00,1.958560585975646973e+00,1.950123310089111328e+00,1.937760114669799805e+00,1.950146079063415527e+00,1.954782724380493164e+00,1.961347103118896484e+00,1.955303788185119629e+00,1.931802034378051758e+00,1.959504842758178711e+00,2.132635593414306641e+00,2.143287181854248047e+00,4.171425342559814453e+00,4.030125141143798828e+00,3.898083686828613281e+00,3.774420022964477539e+00,3.658361434936523438e+00,3.549226760864257812e+00,3.446415185928344727e+00,3.349392175674438477e+00,3.257682561874389648e+00,3.170861005783081055e+00,3.088547229766845703e+00,3.010399103164672852e+00,2.936108112335205078e+00,2.865395307540893555e+00,2.798008680343627930e+00,2.733718395233154297e+00,2.672316312789916992e+00,2.613612174987792969e+00,2.557431459426879883e+00,2.503615379333496094e+00,2.452017545700073242e+00,2.402503252029418945e+00,2.354949235916137695e+00,2.309241294860839844e+00,2.265274047851562500e+00,2.222949504852294922e+00,2.182177543640136719e+00,2.142874240875244141e+00,2.104961872100830078e+00,2.068367481231689453e+00,2.033024072647094727e+00,1.998867988586425781e+00,1.965840935707092285e+00,1.933887124061584473e+00,1.902955770492553711e+00,1.872997999191284180e+00,1.843969106674194336e+00
5.000000000000000000e+00,5.000000000000000000e+00,5.000000000000000000e+00,5.000000000000000000e+00,5.000000000000000000e+00,5.000000000000000000e+00,5.000000000000000000e+00,5.000000000000000000e+00,5.000000000000000000e+00,5.000000000000000000e+00,5.000000000000000000e+00,5.000000000000000000e+00,5.000000000000000000e+00,5.000000000000000000e+00,5.000000000000000000e+00,5.000000000000000000e+00,5.000000000000000000e+00,5.000000000000000000e+00,5.000000000000000000e+00,5.000000000000000000e+00,5.000000000000000000e+00,5.000000000000000000e+00,5.000000000000000000e+00,5.000000000000000000e+00,5.000000000000000000e+00,5.000000000000000000e+00,5.000000000000000000e+00,5.000000000000000000e+00,5.000000000000000000e+00,5.000000000000000000e+00,1.872731328010559082e+00,1.872694969177246094e+00,1.983197093009948730e+00,1.950315833091735840e+00,1.939363121986389160e+00,1.956199288368225098e+00,1.972951889038085938e+00,1.938295364379882812e+00,1.909383893013000488e+00,1.894484758377075195e+00,1.919120907783508301e+00,1.953035116195678711e+00,2.139390945434570312e+00,4.171527862548828125e+00,4.030220508575439453e+00,3.898172855377197266e+00,3.774503231048583984e+00,3.658439636230468750e+00,3.549300670623779297e+00,3.446484804153442383e+00,3.349457979202270508e+00,3.257744789123535156e+00,3.170920133590698242e+00,3.088603258132934570e+00,3.010452270507812500e+00,2.936158657073974609e+00,2.865443468093872070e+00,2.798054218292236328e+00,2.733762264251708984e+00,2.672358274459838867e+00,2.613652229309082031e+00,2.557469844818115234e+00,2.503652095794677734e+00,2.452052593231201172e+00,2.402537107467651367e+00,2.354981899261474609e+00,2.309272527694702148e+00,2.265304088592529297e+00,2.222978353500366211e+00,2.182205438613891602e+00,2.142901182174682617e+00,2.104987859725952148e+00,2.068392515182495117e+00,2.033048391342163086e+00,1.998891592025756836e+00,1.965863466262817383e+00,1.933909177780151367e+00,1.902976870536804199e+00,1.873018503189086914e+00,1.843989014625549316e+00
5.000000000000000000e+00,5.000000000000000000e+00,5.000000000000000000e+00,5.000000000000000000e+00,5.000000000000000000e+00,5.000000000000000000e+00,5.000000000000000000e+00,5.000000000000000000e+00,5.000000000000000000e+00,5.000000000000000000e+00,5.000000000000000000e+00,5.000000000000000000e+00,5.000000000000000000e+00,5.000000000000000000e+00,5.000000000000000000e+00,5.000000000000000000e+00,5.000000000000000000e+00,5.000000000000000000e+00,5.000000000000000000e+00,5.000000000000000000e+00,5.000000000000000000e+00,5.000000000000000000e+00,5.000000000000000000e+00,5.000000000000000000e+00,5.000000000000000000e+00,5.000000000000000000e+00,5.000000000000000000e+00,5.000000000000000000e+00,5.000000000000000000e+00,5.000000000000000000e+00,1.832720398902893066e+00,1.825807332992553711e+00,1.971223711967468262e+00,1.947204232215881348e+00,1.937983036041259766e+00,1.954359650611877441e+00,1.978538990020751953e+00,1.922224998474121094e+00,1.893221378326416016e+00,1.879685163497924805e+00,1.899576067924499512e+00,1.931756258010864258e+00,2.129300117492675781e+00,4.171629905700683594e+00,4.030315399169921875e+00,3.898261785507202148e+00,3.774586915969848633e+00,3.658518075942993164e+00,3.549374580383300781e+00,3.446554660797119141e+00,3.349523782730102539e+00,3.257807016372680664e+00,3.170979022979736328e+00,3.088659286499023438e+00,3.010505437850952148e+00,2.936209201812744141e+00,2.865491390228271484e+00,2.798100233078002930e+00,2.733806133270263672e+00,2.672400236129760742e+00,2.613692283630371094e+00,2.557508230209350586e+00,2.503688812255859375e+00,2.452087879180908203e+00,2.402570962905883789e+00,2.355014562606811523e+00,2.309303760528564453e+00,2.265334129333496094e+00,2.223007440567016602e+00,2.182233333587646484e+00,2.142928361892700195e+00,2.105013847351074219e+00,2.068417787551879883e+00,2.033072471618652344e+00,1.998914957046508789e+00,1.965886235237121582e+00,1.933930993080139160e+00,1.902997970581054688e+00,1.873039126396179199e+00,1.844008803367614746e+00
5.000000000000000000e+00,5.000000000000000000e+00,5.000000000000000000e+00,4.990510463714599609e+00,5.000000000000000000e+00,5.000000000000000000e+00,5.000000000000000000e+00,5.000000000000000000e+00,5.000000000000000000e+00,5.000000000000000000e+00,5.000000000000000000e+00,5.000000000000000000e+00,5.000000000000000000e+00,5.000000000000000000e+00,5.000000000000000000e+00,5.000000000000000000e+00,5.000000000000000000e+00,5.000000000000000000e+00,5.000000000000000000e+00,5.000000000000000000e+00,5.000000000000000000e+00,5.000000000000000000e+00,5.000000000000000000e+00,5.000000000000000000e+00,5.000000000000000000e+00,5.000000000000000000e+00,5.000000000000000000e+00,5.000000000000000000e+00,5.000000000000000000e+00,5.000000000000000000e+00,1.795559644699096680e+00,1.796656608581542969e+00,1.959279894828796387e+00,1.947745203971862793e+00,1.936784267425537109e+00,1.952191948890686035e+00,1.977694392204284668e+00,1.918356657028198242e+00,1.881846427917480469e+00,1.868806004524230957e+00,1.883546471595764160e+00,1.916120767593383789e+00,2.124045372009277344e+00,4.171731948852539062e+00,4.030410766601562500e+00,3.898350954055786133e+00,3.774670600891113281e+00,3.658596754074096680e+00,3.549448728561401367e+00,3.446624279022216797e+00,3.349589824676513672e+00,3.257869482040405273e+00,3.171038150787353516e+00,3.088715314865112305e+00,3.010558366775512695e+00,2.936259508132934570e+00,2.865539550781250000e+00,2.798146247863769531e+00,2.733850002288818359e+00,2.672442197799682617e+00,2.613732337951660156e+00,2.557546615600585938e+00,2.503725528717041016e+00,2.452123165130615234e+00,2.402604818344116211e+00,2.355046749114990234e+00,2.309334993362426758e+00,2.265364170074462891e+00,2.223036289215087891e+00,2.182261466979980469e+00,2.142955303192138672e+00,2.105039834976196289e+00,2.068442821502685547e+00,2.033096790313720703e+00,1.998938441276550293e+00,1.965908885002136230e+00,1.933952808380126953e+00,1.903019428253173828e+00,1.873059630393981934e+00,1.844028949737548828e+00
5.000000000000000000e+00,5.000000000000000000e+00,5.000000000000000000e+00,5.000000000000000000e+00,5.000000000000000000e+00,5.000000000000000000e+00,5.000000000000000000e+00,5.000000000000000000e+00,5.000000000000000000e+00,5.000000000000000000e+00,5.000000000000000000e+00,5.000000000000000000e+00,5.000000000000000000e+00,5.000000000000000000e+00,5.000000000000000000e+00,5.000000000000000000e+00,5.000000000000000000e+00,5.000000000000000000e+00,5.000000000000000000e+00,5.000000000000000000e+00,5.000000000000000000e+00,5.000000000000000000e+00,5.000000000000000000e+00,5.000000000000000000e+00,5.000000000000000000e+00,5.000000000000000000e+00,5.000000000000000000e+00,5.000000000000000000e+00,5.000000000000000000e+00,5.000000000000000000e+00,1.761812090873718262e+00,5.000000000000000000e+00,1.964646458625793457e+00,1.952886939048767090e+00,1.941443204879760742e+00,1.954933285713195801e+00,1.979633450508117676e+00,1.912371158599853516e+00,1.868469953536987305e+00,1.858051896095275879e+00,1.867785215377807617e+00,1.902264118194580078e+00,2.133030414581298828e+00,4.171833992004394531e+00,4.030506134033203125e+00,3.898440122604370117e+00,3.774754285812377930e+00,3.658675432205200195e+00,3.549522638320922852e+00,3.446694135665893555e+00,3.349655628204345703e+00,3.257931709289550781e+00,3.171097278594970703e+00,3.088771104812622070e+00,3.010611772537231445e+00,2.936310291290283203e+00,2.865587949752807617e+00,2.798192262649536133e+00,2.733893871307373047e+00,2.672484159469604492e+00,2.613772392272949219e+00,2.557585000991821289e+00,2.503762245178222656e+00,2.452158451080322266e+00,2.402638673782348633e+00,2.355079412460327148e+00,2.309366464614868164e+00,2.265394210815429688e+00,2.223065376281738281e+00,2.182289361953735352e+00,2.142982244491577148e+00,2.105065822601318359e+00,2.068468093872070312e+00,2.033121109008789062e+00,1.998961806297302246e+00,1.965931415557861328e+00,1.933974862098693848e+00,1.903040528297424316e+00,1.873080372810363770e+00,1.844048738479614258e+00
5.000000000000000000e+00,4.942577362060546875e+00,4.983678340911865234e+00,4.991295814514160156e+00,5.000000000000000000e+00,5.000000000000000000e+00,5.000000000000000000e+00,5.000000000000000000e+00,5.000000000000000000e+00,5.000000000000000000e+00,5.000000000000000000e+00,5.000000000000000000e+00,5.000000000000000000e+00,5.000000000000000000e+00,5.000000000000000000e+00,5.000000000000000000e+00,5.000000000000000000e+00,5.000000000000000000e+00,5.000000000000000000e+00,5.000000000000000000e+00,5.000000000000000000e+00,5.000000000000000000e+00,5.000000000000000000e+00,5.000000000000000000e+00,5.000000000000000000e+00,5.000000000000000000e+00,5.000000000000000000e+00,5.000000000000000000e+00,5.000000000000000000e+00,5.000000000000000000e+00,5.000000000000000000e+00,5.000000000000000000e+00,1.973424196243286133e+00,1.960185766220092773e+00,1.948062896728515625e+00,1.962167501449584961e+00,1.994938731193542480e+00,1.906377553939819336e+00,1.854791402816772461e+00,1.845168828964233398e+00,1.853506565093994141e+00,1.888606190681457520e+00,2.115101575851440430e+00,4.171936035156250000e+00,4.030601501464843750e+00,3.898529529571533203e+00,3.774837732315063477e+00,3.658753871917724609e+00,3.549596548080444336e+00,3.446763753890991211e+00,3.349721431732177734e+00,3.257993936538696289e+00,3.171155929565429688e+00,3.088827133178710938e+00,3.010664939880371094e+00,2.936360836029052734e+00,2.865636110305786133e+00,2.798238277435302734e+00,2.733937740325927734e+00,2.672526121139526367e+00,2.613812446594238281e+00,2.557623386383056641e+00,2.503798961639404297e+00,2.452193498611450195e+00,2.402672529220581055e+00,2.355112075805664062e+00,2.309397697448730469e+00,2.265424489974975586e+00,2.223094463348388672e+00,2.182317256927490234e+00,2.143009185791015625e+00,2.105092048645019531e+00,2.068493127822875977e+00,2.033145189285278320e+00,1.998985171318054199e+00,1.965954184532165527e+00,1.933996796607971191e+00,1.903061866760253906e+00,1.873100876808166504e+00,1.844068765640258789e+00
5.000000000000000000e+00,4.934330940246582031e+00,4.936420440673828125e+00,4.967609882354736328e+00,5.000000000000000000e+00,5.000000000000000000e+00,5.000000000000000000e+00,5.000000000000000000e+00,5.000000000000000000e+00,5.000000000000000000e+00,5.000000000000000000e+00,5.000000000000000000e+00,5.000000000000000000e+00,5.000000000000000000e+00,5.000000000000000000e+00,5.000000000000000000e+00,5.000000000000000000e+00,5.000000000000000000e+00,5.000000000000000000e+00,5.000000000000000000e+00,5.000000000000000000e+00,5.000000000000000000e+00,5.000000000000000000e+00,5.000000000000000000e+00,5.000000000000000000e+00,5.000000000000000000e+00,5.000000000000000000e+00,5.000000000000000000e+00,5.000000000000000000e+00,1.791798949241638184e+00,5.000000000000000000e+00,5.000000000000000000e+00,2.002863645553588867e+00,1.967964291572570801e+00,1.955745220184326172e+00,1.971567392349243164e+00,2.012634277343750000e+00,1.900169134140014648e+00,1.841341376304626465e+00,1.833249568939208984e+00,1.833405137062072754e+00,1.871394276618957520e+00,2.116971015930175781e+00,4.172038555145263672e+00,4.030696868896484375e+00,3.898618698120117188e+00,3.774921417236328125e+00,3.658832550048828125e+00,3.549670457839965820e+00,3.446833610534667969e+00,3.349786996841430664e+00,3.258056163787841797e+00,3.171214818954467773e+00,3.088883161544799805e+00,3.010718107223510742e+00,2.936411380767822266e+00,2.865684270858764648e+00,2.798284053802490234e+00,2.733981370925903320e+00,2.672567605972290039e+00,2.613852500915527344e+00,2.557661533355712891e+00,2.503835678100585938e+00,2.452228784561157227e+00,2.402706384658813477e+00,2.355144500732421875e+00,2.309428930282592773e+00,2.265454530715942383e+00,2.223123311996459961e+00,2.182345390319824219e+00,2.143036127090454102e+00,2.105118036270141602e+00,2.068518161773681641e+00,2.033169507980346680e+00,1.999008774757385254e+00,1.965976834297180176e+00,1.934018850326538086e+00,1.903083086013793945e+00,1.873121619224548340e+00,1.844088673591613770e+00
5.000000000000000000e+00,4.937736034393310547e+00,4.945477485656738281e+00,4.954659461975097656e+00,4.995802879333496094e+00,5.000000000000000000e+00,5.000000000000000000e+00,5.000000000000000000e+00,5.000000000000000000e+00,5.000000000000000000e+00,5.000000000000000000e+00,5.000000000000000000e+00,5.000000000000000000e+00,5.000000000000000000e+00,5.000000000000000000e+00,5.000000000000000000e+00,5.000000000000000000e+00,5.000000000000000000e+00,5.000000000000000000e+00,5.000000000000000000e+00,5.000000000000000000e+00,5.000000000000000000e+00,5.000000000000000000e+00,5.000000000000000000e+00,5.000000000000000000e+00,5.000000000000000000e+00,5.000000000000000000e+00,5.000000000000000000e+00,5.000000000000000000e+00,5.000000000000000000e+00,5.000000000000000000e+00,5.000000000000000000e+00,2.039663791656494141e+00,1.977034568786621094e+00,1.963488578796386719e+00,1.980327725410461426e+00,2.029369354248046875e+00,1.888750791549682617e+00,1.825306057929992676e+00,1.820862770080566406e+00,1.813735246658325195e+00,1.859247922897338867e+00,4.323762416839599609e+00,4.172140121459960938e+00,4.030792236328125000e+00,3.898707866668701172e+00,3.775005102157592773e+00,3.658911228179931641e+00,3.549744606018066406e+00,3.446902990341186523e+00,3.349852800369262695e+00,3.258118391036987305e+00,3.171273946762084961e+00,3.088939189910888672e+00,3.010771274566650391e+00,2.936462163925170898e+00,2.865732431411743164e+00,2.798330068588256836e+00,2.734025239944458008e+00,2.672609329223632812e+00,2.613892316818237305e+00,2.557699918746948242e+00,2.503872632980346680e+00,2.452264070510864258e+00,2.402740240097045898e+00,2.355177164077758789e+00,2.309460401535034180e+00,2.265484809875488281e+00,2.223152399063110352e+00,2.182373285293579102e+00,2.143062829971313477e+00,2.105143785476684570e+00,2.068543195724487305e+00,2.033193826675415039e+00,1.999032139778137207e+00,1.965999603271484375e+00,1.934040665626525879e+00,1.903104424476623535e+00,1.873142123222351074e+00,1.844108819961547852e+00
5.000000000000000000e+00,4.934615612030029297e+00,4.967453002929687500e+00,4.954320907592773438e+00,4.988323211669921875e+00,5.000000000000000000e+00,5.000000000000000000e+00,5.000000000000000000e+00,5.000000000000000000e+00,5.000000000000000000e+00,5.000000000000000000e+00,5.000000000000000000e+00,5.000000000000000000e+00,5.000000000000000000e+00,5.000000000000000000e+00,5.000000000000000000e+00,5.000000000000000000e+00,5.000000000000000000e+00,5.000000000000000000e+00,5.000000000000000000e+00,5.000000000000000000e+00,5.000000000000000000e+00,5.000000000000000000e+00,5.000000000000000000e+00,5.000000000000000000e+00,5.000000000000000000e+00,5.000000000000000000e+00,5.000000000000000000e+00,5.000000000000000000e+00,5.000000000000000000e+00,5.000000000000000000e+00,5.000000000000000000e+00,5.000000000000000000e+00,1.985864400863647461e+00,1.971480607986450195e+00,1.987893223762512207e+00,2.046384811401367188e+00,1.876421928405761719e+00,1.815968632698059082e+00,1.805180311203002930e+00,1.800834536552429199e+00,4.486938476562500000e+00,4.323871612548828125e+00,4.172242641448974609e+00,4.030887603759765625e+00,3.898797035217285156e+00,3.775088787078857422e+00,3.658989429473876953e+00,3.549818038940429688e+00,3.446972608566284180e+00,3.349918842315673828e+00,3.258180618286132812e+00,3.171333074569702148e+00,3.088994979858398438e+00,3.010824441909790039e+00,2.936512708663940430e+00,2.865780830383300781e+00,2.798375844955444336e+00,2.734068870544433594e+00,2.672651290893554688e+00,2.613932609558105469e+00,2.557738304138183594e+00,2.503909349441528320e+00,2.452299594879150391e+00,2.402774095535278320e+00,2.355209589004516602e+00,2.309491634368896484e+00,2.265514612197875977e+00,2.223181486129760742e+00,2.182400941848754883e+00,2.143089771270751953e+00,2.105169773101806641e+00,2.068568229675292969e+00,2.033218145370483398e+00,1.999055624008178711e+00,1.966022133827209473e+00,1.934062719345092773e+00,1.903125643730163574e+00,1.873162746429443359e+00,1.844128608703613281e+00
5.000000000000000000e+00,4.939548015594482422e+00,4.962000370025634766e+00,4.947675704956054688e+00,4.986623287200927734e+00,5.000000000000000000e+00,5.000000000000000000e+00,5.000000000000000000e+00,5.000000000000000000e+00,5.000000000000000000e+00,5.000000000000000000e+00,5.000000000000000000e+00,5.000000000000000000e+00,5.000000000000000000e+00,5.000000000000000000e+00,5.000000000000000000e+00,5.000000000000000000e+00,5.000000000000000000e+00,5.000000000000000000e+00,5.000000000000000000e+00,5.000000000000000000e+00,5.000000000000000000e+00,5.000000000000000000e+00,5.000000000000000000e+00,5.000000000000000000e+00,5.000000000000000000e+00,5.000000000000000000e+00,5.000000000000000000e+00,5.000000000000000000e+00,5.000000000000000000e+00,5.000000000000000000e+00,5.000000000000000000e+00,5.000000000000000000e+00,1.991288065910339355e+00,1.977120161056518555e+00,1.995808005332946777e+00,2.053022623062133789e+00,5.000000000000000000e+00,1.809338808059692383e+00,1.794081449508666992e+00,1.791251897811889648e+00,4.487056255340576172e+00,4.323981285095214844e+00,4.172344684600830078e+00,4.030982971191406250e+00,3.898886442184448242e+00,3.775171995162963867e+00,3.659067869186401367e+00,3.549892187118530273e+00,3.447042465209960938e+00,3.349984645843505859e+00,3.258243083953857422e+00,3.171392202377319336e+00,3.089051008224487305e+00,3.010877847671508789e+00,2.936563253402709961e+00,2.865828752517700195e+00,2.798421621322631836e+00,2.734112739562988281e+00,2.672693252563476562e+00,2.613972663879394531e+00,2.557776689529418945e+00,2.503946304321289062e+00,2.452334880828857422e+00,2.402807950973510742e+00,2.355242252349853516e+00,2.309522867202758789e+00,2.265544652938842773e+00,2.223210334777832031e+00,2.182429075241088867e+00,2.143116950988769531e+00,2.105195999145507812e+00,2.068593502044677734e+00,2.033242225646972656e+00,1.999078989028930664e+00,1.966045022010803223e+00,1.934084653854370117e+00,1.903146982192993164e+00,1.873183250427246094e+00,1.844148516654968262e+00
5.000000000000000000e+00,4.893069744110107422e+00,4.951093673706054688e+00,4.956854820251464844e+00,4.989136695861816406e+00,5.000000000000000000e+00,5.000000000000000000e+00,5.000000000000000000e+00,5.000000000000000000e+00,5.000000000000000000e+00,5.000000000000000000e+00,5.000000000000000000e+00,5.000000000000000000e+00,5.000000000000000000e+00,5.000000000000000000e+00,5.000000000000000000e+00,5.000000000000000000e+00,5.000000000000000000e+00,5.000000000000000000e+00,5.000000000000000000e+00,5.000000000000000000e+00,5.000000000000000000e+00,5.000000000000000000e+00,5.000000000000000000e+00,5.000000000000000000e+00,5.000000000000000000e+00,5.000000000000000000e+00,5.000000000000000000e+00,5.000000000000000000e+00,5.000000000000000000e+00,5.000000000000000000e+00,5.000000000000000000e+00,5.000000000000000000e+00,1.998595237731933594e+00,1.982496261596679688e+00,2.003400564193725586e+00,2.056404590606689453e+00,5.000000000000000000e+00,1.808864951133728027e+00,1.792091488838195801e+00,1.789922833442687988e+00,4.487174510955810547e+00,4.324091434478759766e+00,4.172446727752685547e+00,4.031078338623046875e+00,3.898975133895874023e+00,3.775255680084228516e+00,3.659146547317504883e+00,3.549966096878051758e+00,3.447112321853637695e+00,3.350050687789916992e+00,3.258305311203002930e+00,3.171451091766357422e+00,3.089107036590576172e+00,3.010931015014648438e+00,2.936613559722900391e+00,2.865876674652099609e+00,2.798467636108398438e+00,2.734156608581542969e+00,2.672735214233398438e+00,2.614012718200683594e+00,2.557815074920654297e+00,2.503983020782470703e+00,2.452370166778564453e+00,2.402842044830322266e+00,2.355274915695190430e+00,2.309554100036621094e+00,2.265574932098388672e+00,2.223239421844482422e+00,2.182456970214843750e+00,2.143143892288208008e+00,2.105221986770629883e+00,2.068618535995483398e+00,2.033266544342041016e+00,1.999102592468261719e+00,1.966067552566528320e+00,1.934106707572937012e+00,1.903168082237243652e+00,1.873203754425048828e+00,1.844168543815612793e+00
5.000000000000000000e+00,4.839309692382812500e+00,4.949275493621826172e+00,4.978062152862548828e+00,5.000000000000000000e+00,5.000000000000000000e+00,5.000000000000000000e+00,5.000000000000000000e+00,5.000000000000000000e+00,5.000000000000000000e+00,5.000000000000000000e+00,5.000000000000000000e+00,5.000000000000000000e+00,5.000000000000000000e+00,5.000000000000000000e+00,5.000000000000000000e+00,5.000000000000000000e+00,5.000000000000000000e+00,5.000000000000000000e+00,5.000000000000000000e+00,5.000000000000000000e+00,5.000000000000000000e+00,5.000000000000000000e+00,5.000000000000000000e+00,5.000000000000000000e+00,5.000000000000000000e+00,5.000000000000000000e+00,5.000000000000000000e+00,5.000000000000000000e+00,5.000000000000000000e+00,5.000000000000000000e+00,5.000000000000000000e+00,5.000000000000000000e+00,2.009217500686645508e+00,1.990394473075866699e+00,2.008699178695678711e+00,2.066230297088623047e+00,5.000000000000000000e+00,1.817374825477600098e+00,1.799820303916931152e+00,1.796778798103332520e+00,4.487292766571044922e+00,4.324201107025146484e+00,4.172548770904541016e+00,4.031173229217529297e+00,3.899064540863037109e+00,3.775339365005493164e+00,3.659225225448608398e+00,3.550040006637573242e+00,3.447181940078735352e+00,3.350116491317749023e+00,3.258367776870727539e+00,3.171510219573974609e+00,3.089163064956665039e+00,3.010983705520629883e+00,2.936664104461669922e+00,2.865924835205078125e+00,2.798513650894165039e+00,2.734200477600097656e+00,2.672777175903320312e+00,2.614052772521972656e+00,2.557853460311889648e+00,2.504019737243652344e+00,2.452405452728271484e+00,2.402875900268554688e+00,2.355307102203369141e+00,2.309585332870483398e+00,2.265604972839355469e+00,2.223268270492553711e+00,2.182484865188598633e+00,2.143170833587646484e+00,2.105247974395751953e+00,2.068643808364868164e+00,2.033290863037109375e+00,1.999125957489013672e+00,1.966090202331542969e+00,1.934128522872924805e+00,1.903189301490783691e+00,1.873224496841430664e+00,1.844188451766967773e+00
5.000000000000000000e+00,4.804190635681152344e+00,4.950784683227539062e+00,4.976213932037353516e+00,4.958711147308349609e+00,4.967795372009277344e+00,5.000000000000000000e+00,5.000000000000000000e+00,5.000000000000000000e+00,5.000000000000000000e+00,5.000000000000000000e+00,5.000000000000000000e+00,5.000000000000000000e+00,5.000000000000000000e+00,5.000000000000000000e+00,5.000000000000000000e+00,5.000000000000000000e+00,5.000000000000000000e+00,5.000000000000000000e+00,5.000000000000000000e+00,5.000000000000000000e+00,5.000000000000000000e+00,5.000000000000000000e+00,5.000000000000000000e+00,5.000000000000000000e+00,5.000000000000000000e+00,5.000000000000000000e+00,5.000000000000000000e+00,5.000000000000000000e+00,5.000000000000000000e+00,5.000000000000000000e+00,5.000000000000000000e+00,5.000000000000000000e+00,2.020661354064941406e+00,1.997745752334594727e+00,2.014153003692626953e+00,2.077151298522949219e+00,5.000000000000000000e+00,1.826675891876220703e+00,1.809430003166198730e+00,1.812800407409667969e+00,4.487411022186279297e+00,4.324310779571533203e+00,4.172651290893554688e+00,4.031268596649169922e+00,3.899153709411621094e+00,3.775423049926757812e+00,3.659303665161132812e+00,3.550114154815673828e+00,3.447251796722412109e+00,3.350182294845581055e+00,3.258430004119873047e+00,3.171568870544433594e+00,3.089218616485595703e+00,3.011036872863769531e+00,2.936714649200439453e+00,2.865973234176635742e+00,2.798559665679931641e+00,2.734244346618652344e+00,2.672819137573242188e+00,2.614093065261840820e+00,2.557892084121704102e+00,2.504056692123413086e+00,2.452440500259399414e+00,2.402909517288208008e+00,2.355339765548706055e+00,2.309616804122924805e+00,2.265635013580322266e+00,2.223297357559204102e+00,2.182512998580932617e+00,2.143197774887084961e+00,2.105273962020874023e+00,2.068668842315673828e+00,2.033315181732177734e+00,1.999149322509765625e+00,1.966112971305847168e+00,1.934150338172912598e+00,1.903210639953613281e+00,1.873245000839233398e+00,1.844208478927612305e+00
5.000000000000000000e+00,5.000000000000000000e+00,4.969302177429199219e+00,4.992512702941894531e+00,4.940221786499023438e+00,4.936075687408447266e+00,5.000000000000000000e+00,5.000000000000000000e+00,5.000000000000000000e+00,5.000000000000000000e+00,5.000000000000000000e+00,5.000000000000000000e+00,5.000000000000000000e+00,5.000000000000000000e+00,5.000000000000000000e+00,5.000000000000000000e+00,5.000000000000000000e+00,5.000000000000000000e+00,5.000000000000000000e+00,5.000000000000000000e+00,5.000000000000000000e+00,5.000000000000000000e+00,5.000000000000000000e+00,5.000000000000000000e+00,5.000000000000000000e+00,5.000000000000000000e+00,5.000000000000000000e+00,5.000000000000000000e+00,5.000000000000000000e+00,5.000000000000000000e+00,5.000000000000000000e+00,5.000000000000000000e+00,5.000000000000000000e+00,2.051763057708740234e+00,2.012111186981201172e+00,2.027038335800170898e+00,5.000000000000000000e+00,5.000000000000000000e+00,1.836945414543151855e+00,1.821745276451110840e+00,1.830980539321899414e+00,4.487528800964355469e+00,4.324420452117919922e+00,4.172753334045410156e+00,4.031364440917968750e+00,3.899242877960205078e+00,3.775506734848022461e+00,3.659382343292236328e+00,3.550188064575195312e+00,3.447321653366088867e+00,3.350248336791992188e+00,3.258491992950439453e+00,3.171627759933471680e+00,3.089274644851684570e+00,3.011090278625488281e+00,2.936765432357788086e+00,2.866021394729614258e+00,2.798605442047119141e+00,2.734288215637207031e+00,2.672861099243164062e+00,2.614133119583129883e+00,2.557930469512939453e+00,2.504093170166015625e+00,2.452475786209106445e+00,2.402943372726440430e+00,2.355372428894042969e+00,2.309648036956787109e+00,2.265665292739868164e+00,2.223326444625854492e+00,2.182540893554687500e+00,2.143224716186523438e+00,2.105299949645996094e+00,2.068693876266479492e+00,2.033339262008666992e+00,1.999172925949096680e+00,1.966135501861572266e+00,1.934172511100769043e+00,1.903231859207153320e+00,1.873265624046325684e+00,1.844228386878967285e+00
5.000000000000000000e+00,5.000000000000000000e+00,4.989857673645019531e+00,5.000000000000000000e+00,4.912327289581298828e+00,4.904401779174804688e+00,5.000000000000000000e+00,5.000000000000000000e+00,5.000000000000000000e+00,5.000000000000000000e+00,5.000000000000000000e+00,5.000000000000000000e+00,5.000000000000000000e+00,5.000000000000000000e+00,5.000000000000000000e+00,5.000000000000000000e+00,5.000000000000000000e+00,5.000000000000000000e+00,5.000000000000000000e+00,5.000000000000000000e+00,5.000000000000000000e+00,5.000000000000000000e+00,5.000000000000000000e+00,5.000000000000000000e+00,5.000000000000000000e+00,5.000000000000000000e+00,5.000000000000000000e+00,5.000000000000000000e+00,5.000000000000000000e+00,5.000000000000000000e+00,5.000000000000000000e+00,5.000000000000000000e+00,5.000000000000000000e+00,2.090989112854003906e+00,2.044011831283569336e+00,2.069141149520874023e+00,5.000000000000000000e+00,5.000000000000000000e+00,1.847282290458679199e+00,1.833918452262878418e+00,1.841067194938659668e+00,4.487647056579589844e+00,4.324530124664306641e+00,4.172855377197265625e+00,4.031459331512451172e+00,3.899332284927368164e+00,3.775590419769287109e+00,3.659461021423339844e+00,3.550262212753295898e+00,3.447391271591186523e+00,3.350313901901245117e+00,3.258554220199584961e+00,3.171686887741088867e+00,3.089330673217773438e+00,3.011143445968627930e+00,2.936815977096557617e+00,2.866069555282592773e+00,2.798651456832885742e+00,2.734332323074340820e+00,2.672903060913085938e+00,2.614172935485839844e+00,2.557968616485595703e+00,2.504130125045776367e+00,2.452511072158813477e+00,2.402977466583251953e+00,2.355404853820800781e+00,2.309679269790649414e+00,2.265695333480834961e+00,2.223355531692504883e+00,2.182568788528442383e+00,2.143251657485961914e+00,2.105325937271118164e+00,2.068718910217285156e+00,2.033363580703735352e+00,1.999196171760559082e+00,1.966158390045166016e+00,1.934194326400756836e+00,1.903253197669982910e+00,1.873286128044128418e+00,1.844248414039611816e+00
5.000000000000000000e+00,5.000000000000000000e+00,5.000000000000000000e+00,5.000000000000000000e+00,4.907048702239990234e+00,4.895823478698730469e+00,5.000000000000000000e+00,5.000000000000000000e+00,5.000000000000000000e+00,5.000000000000000000e+00,5.000000000000000000e+00,5.000000000000000000e+00,5.000000000000000000e+00,5.000000000000000000e+00,5.000000000000000000e+00,5.000000000000000000e+00,5.000000000000000000e+00,5.000000000000000000e+00,5.000000000000000000e+00,5.000000000000000000e+00,5.000000000000000000e+00,5.000000000000000000e+00,5.000000000000000000e+00,5.000000000000000000e+00,5.000000000000000000e+00,5.000000000000000000e+00,5.000000000000000000e+00,5.000000000000000000e+00,5.000000000000000000e+00,5.000000000000000000e+00,5.000000000000000000e+00,5.000000000000000000e+00,5.000000000000000000e+00,2.147533178329467773e+00,2.111269712448120117e+00,2.170073986053466797e+00,5.000000000000000000e+00,5.000000000000000000e+00,1.846239447593688965e+00,1.833699107170104980e+00,1.840292096138000488e+00,4.487765312194824219e+00,4.324639797210693359e+00,4.172957420349121094e+00,4.031554698944091797e+00,3.899421453475952148e+00,3.775674104690551758e+00,3.659539699554443359e+00,3.550335645675659180e+00,3.447460651397705078e+00,3.350379467010498047e+00,3.258616447448730469e+00,3.171745777130126953e+00,3.089386701583862305e+00,3.011196613311767578e+00,2.936866760253906250e+00,2.866117715835571289e+00,2.798697471618652344e+00,2.734376192092895508e+00,2.672944784164428711e+00,2.614213228225708008e+00,2.558007001876831055e+00,2.504166841506958008e+00,2.452546596527099609e+00,2.403011322021484375e+00,2.355437517166137695e+00,2.309710741043090820e+00,2.265725612640380859e+00,2.223384380340576172e+00,2.182596921920776367e+00,2.143278598785400391e+00,2.105351924896240234e+00,2.068744182586669922e+00,2.033387899398803711e+00,1.999219775199890137e+00,1.966180920600891113e+00,1.934216380119323730e+00,1.903274416923522949e+00,1.873306870460510254e+00,1.844268321990966797e+00
5.000000000000000000e+00,5.000000000000000000e+00,5.000000000000000000e+00,5.000000000000000000e+00,4.946594238281250000e+00,4.924897670745849609e+00,5.000000000000000000e+00,5.000000000000000000e+00,5.000000000000000000e+00,5.000000000000000000e+00,5.000000000000000000e+00,5.000000000000000000e+00,5.000000000000000000e+00,5.000000000000000000e+00,5.000000000000000000e+00,5.000000000000000000e+00,5.000000000000000000e+00,5.000000000000000000e+00,5.000000000000000000e+00,5.000000000000000000e+00,5.000000000000000000e+00,5.000000000000000000e+00,5.000000000000000000e+00,5.000000000000000000e+00,5.000000000000000000e+00,5.000000000000000000e+00,5.000000000000000000e+00,5.000000000000000000e+00,5.000000000000000000e+00,5.000000000000000000e+00,5.000000000000000000e+00,5.000000000000000000e+00,5.000000000000000000e+00,2.188562154769897461e+00,2.169626712799072266e+00,2.210444211959838867e+00,5.000000000000000000e+00,5.000000000000000000e+00,1.845100402832031250e+00,1.833480119705200195e+00,1.839517712593078613e+00,4.487883567810058594e+00,4.324749469757080078e+00,4.173059940338134766e+00,4.031650066375732422e+00,3.899510860443115234e+00,3.775757789611816406e+00,3.659617900848388672e+00,3.550409793853759766e+00,3.447530269622802734e+00,3.350445508956909180e+00,3.258678913116455078e+00,3.171804904937744141e+00,3.089442729949951172e+00,3.011249780654907227e+00,2.936917304992675781e+00,2.866166114807128906e+00,2.798743486404418945e+00,2.734419822692871094e+00,2.672986745834350586e+00,2.614253282546997070e+00,2.558045387268066406e+00,2.504203796386718750e+00,2.452581882476806641e+00,2.403045177459716797e+00,2.355470180511474609e+00,2.309741973876953125e+00,2.265755653381347656e+00,2.223413228988647461e+00,2.182624578475952148e+00,2.143305540084838867e+00,2.105377912521362305e+00,2.068769216537475586e+00,2.033411979675292969e+00,1.999243140220642090e+00,1.966203689575195312e+00,1.934238195419311523e+00,1.903295755386352539e+00,1.873327374458312988e+00,1.844288110733032227e+00
5.000000000000000000e+00,5.000000000000000000e+00,5.000000000000000000e+00,5.000000000000000000e+00,4.947010993957519531e+00,4.926727294921875000e+00,5.000000000000000000e+00,5.000000000000000000e+00,5.000000000000000000e+00,5.000000000000000000e+00,5.000000000000000000e+00,5.000000000000000000e+00,5.000000000000000000e+00,5.000000000000000000e+00,5.000000000000000000e+00,5.000000000000000000e+00,5.000000000000000000e+00,5.000000000000000000e+00,5.000000000000000000e+00,5.000000000000000000e+00,5.000000000000000000e+00,5.000000000000000000e+00,5.000000000000000000e+00,5.000000000000000000e+00,5.000000000000000000e+00,5.000000000000000000e+00,5.000000000000000000e+00,5.000000000000000000e+00,5.000000000000000000e+00,5.000000000000000000e+00,5.000000000000000000e+00,5.000000000000000000e+00,5.000000000000000000e+00,2.234331846237182617e+00,2.212011098861694336e+00,2.264167547225952148e+00,5.000000000000000000e+00,5.000000000000000000e+00,1.843963027000427246e+00,1.832919716835021973e+00,1.841301560401916504e+00,4.488001346588134766e+00,4.324859142303466797e+00,4.173161983489990234e+00,4.031745433807373047e+00,3.899599552154541016e+00,3.775841236114501953e+00,3.659696578979492188e+00,3.550483465194702148e+00,3.447600126266479492e+00,3.350511312484741211e+00,3.258741140365600586e+00,3.171864032745361328e+00,3.089498758316040039e+00,3.011303186416625977e+00,2.936967849731445312e+00,2.866214036941528320e+00,2.798789262771606445e+00,2.734463691711425781e+00,2.673028707504272461e+00,2.614293336868286133e+00,2.558083772659301758e+00,2.504240512847900391e+00,2.452617168426513672e+00,2.403079032897949219e+00,2.355502605438232422e+00,2.309773445129394531e+00,2.265785694122314453e+00,2.223442316055297852e+00,2.182652711868286133e+00,2.143332481384277344e+00,2.105403900146484375e+00,2.068794250488281250e+00,2.033436298370361328e+00,1.999266743659973145e+00,1.966226339340209961e+00,1.934260368347167969e+00,1.903316855430603027e+00,1.873347878456115723e+00,1.844308257102966309e+00
5.000000000000000000e+00,5.000000000000000000e+00,5.000000000000000000e+00,5.000000000000000000e+00,5.000000000000000000e+00,4.932258605957031250e+00,5.000000000000000000e+00,5.000000000000000000e+00,5.000000000000000000e+00,5.000000000000000000e+00,5.000000000000000000e+00,5.000000000000000000e+00,5.000000000000000000e+00,5.000000000000000000e+00,5.000000000000000000e+00,5.000000000000000000e+00,5.000000000000000000e+00,5.000000000000000000e+00,5.000000000000000000e+00,5.000000000000000000e+00,5.000000000000000000e+00,5.000000000000000000e+00,5.000000000000000000e+00,5.000000000000000000e+00,5.000000000000000000e+00,5.000000000000000000e+00,5.000000000000000000e+00,5.000000000000000000e+00,5.000000000000000000e+00,5.000000000000000000e+00,5.000000000000000000e+00,5.000000000000000000e+00,5.000000000000000000e+00,2.289451360702514648e+00,2.255119800567626953e+00,5.000000000000000000e+00,5.000000000000000000e+00,5.000000000000000000e+00,1.842993140220642090e+00,1.831797242164611816e+00,1.844944596290588379e+00,4.488117694854736328e+00,4.324969291687011719e+00,4.173264026641845703e+00,4.031840801239013672e+00,3.899688959121704102e+00,3.775924921035766602e+00,3.659774780273437500e+00,3.550557613372802734e+00,3.447669744491577148e+00,3.350577116012573242e+00,3.258803606033325195e+00,3.171923160552978516e+00,3.089554786682128906e+00,3.011356353759765625e+00,2.937018394470214844e+00,2.866262197494506836e+00,2.798835277557373047e+00,2.734507560729980469e+00,2.673070669174194336e+00,2.614333629608154297e+00,2.558122158050537109e+00,2.504277229309082031e+00,2.452652454376220703e+00,2.403112888336181641e+00,2.355535030364990234e+00,2.309804439544677734e+00,2.265815734863281250e+00,2.223471403121948242e+00,2.182680606842041016e+00,2.143359422683715820e+00,2.105429887771606445e+00,2.068819522857666016e+00,2.033460617065429688e+00,1.999290108680725098e+00,1.966249108314514160e+00,1.934282183647155762e+00,1.903338074684143066e+00,1.873368620872497559e+00,1.844328045845031738e+00
5.000000000000000000e+00,5.000000000000000000e+00,5.000000000000000000e+00,5.000000000000000000e+00,5.000000000000000000e+00,4.940100669860839844e+00,5.000000000000000000e+00,5.000000000000000000e+00,5.000000000000000000e+00,5.000000000000000000e+00,5.000000000000000000e+00,5.000000000000000000e+00,5.000000000000000000e+00,5.000000000000000000e+00,5.000000000000000000e+00,5.000000000000000000e+00,5.000000000000000000e+00,5.000000000000000000e+00,5.000000000000000000e+00,5.000000000000000000e+00,5.000000000000000000e+00,5.000000000000000000e+00,5.000000000000000000e+00,5.000000000000000000e+00,5.000000000000000000e+00,5.000000000000000000e+00,5.000000000000000000e+00,5.000000000000000000e+00,5.000000000000000000e+00,5.000000000000000000e+00,5.000000000000000000e+00,5.000000000000000000e+00,5.000000000000000000e+00,2.351864576339721680e+00,2.302206993103027344e+00,5.000000000000000000e+00,5.000000000000000000e+00,5.000000000000000000e+00,1.843208312988281250e+00,1.831653356552124023e+00,1.853667616844177246e+00,4.488235473632812500e+00,4.325077056884765625e+00,4.173366069793701172e+00,4.031936168670654297e+00,3.899778127670288086e+00,3.776008367538452148e+00,3.659853458404541016e+00,3.550631523132324219e+00,3.447739601135253906e+00,3.350643157958984375e+00,3.258865833282470703e+00,3.171982049942016602e+00,3.089610576629638672e+00,3.011409282684326172e+00,2.937068939208984375e+00,2.866310596466064453e+00,2.798881292343139648e+00,2.734551429748535156e+00,2.673112630844116211e+00,2.614373683929443359e+00,2.558160781860351562e+00,2.504314184188842773e+00,2.452687740325927734e+00,2.403146743774414062e+00,2.355567693710327148e+00,2.309835910797119141e+00,2.265846014022827148e+00,2.223500490188598633e+00,2.182708501815795898e+00,2.143386363983154297e+00,2.105456113815307617e+00,2.068844556808471680e+00,2.033484935760498047e+00,1.999313712120056152e+00,1.966271758079528809e+00,1.934303998947143555e+00,1.903359413146972656e+00,1.873389124870300293e+00,1.844348192214965820e+00
5.000000000000000000e+00,5.000000000000000000e+00,5.000000000000000000e+00,5.000000000000000000e+00,5.000000000000000000e+00,4.958007335662841797e+00,5.000000000000000000e+00,5.000000000000000000e+00,5.000000000000000000e+00,5.000000000000000000e+00,5.000000000000000000e+00,5.000000000000000000e+00,5.000000000000000000e+00,5.000000000000000000e+00,5.000000000000000000e+00,5.000000000000000000e+00,5.000000000000000000e+00,5.000000000000000000e+00,5.000000000000000000e+00,5.000000000000000000e+00,5.000000000000000000e+00,5.000000000000000000e+00,5.000000000000000000e+00,5.000000000000000000e+00,5.000000000000000000e+00,5.000000000000000000e+00,5.000000000000000000e+00,5.000000000000000000e+00,5.000000000000000000e+00,5.000000000000000000e+00,5.000000000000000000e+00,5.000000000000000000e+00,5.000000000000000000e+00,5.000000000000000000e+00,2.373616218566894531e+00,5.000000000000000000e+00,5.000000000000000000e+00,5.000000000000000000e+00,1.844495892524719238e+00,1.831533432006835938e+00,1.867324709892272949e+00,4.488353252410888672e+00,4.325186252593994141e+00,4.173468589782714844e+00,4.032031536102294922e+00,3.899867296218872070e+00,3.776092052459716797e+00,3.659932136535644531e+00,3.550705671310424805e+00,3.447809457778930664e+00,3.350708961486816406e+00,3.258928298950195312e+00,3.172040939331054688e+00,3.089666604995727539e+00,3.011462450027465820e+00,2.937119722366333008e+00,2.866358757019042969e+00,2.798927307128906250e+00,2.734595298767089844e+00,2.673154592514038086e+00,2.614413738250732422e+00,2.558199167251586914e+00,2.504350900650024414e+00,2.452722787857055664e+00,2.403180599212646484e+00,2.355600118637084961e+00,2.309867143630981445e+00,2.265876054763793945e+00,2.223529338836669922e+00,2.182736635208129883e+00,2.143413305282592773e+00,2.105482101440429688e+00,2.068869829177856445e+00,2.033509016036987305e+00,1.999336957931518555e+00,1.966294288635253906e+00,1.934326171875000000e+00,1.903380632400512695e+00,1.873409748077392578e+00,1.844368100166320801e+00
4.875353813171386719e+00,4.874143123626708984e+00,4.872932910919189453e+00,4.871723651885986328e+00,4.870514869689941406e+00,4.869306564331054688e+00,4.868098735809326172e+00,4.866891860961914062e+00,4.865685462951660156e+00,4.864479541778564453e+00,4.863274097442626953e+00,4.862069606781005859e+00,4.860865116119384766e+00,4.859662055969238281e+00,4.858458995819091797e+00,4.857256889343261719e+00,4.856055259704589844e+00,4.854854106903076172e+00,4.853653430938720703e+00,4.852453708648681641e+00,4.851254463195800781e+00,4.850055694580078125e+00,4.848857402801513672e+00,4.847660064697265625e+00,4.846462726593017578e+00,4.845266342163085938e+00,4.844070434570312500e+00,4.842875480651855469e+00,4.841680526733398438e+00,4.840486526489257812e+00,4.839293479919433594e+00,4.838100433349609375e+00,4.836908340454101562e+00,2.416743755340576172e+00,2.386473178863525391e+00,4.833334922790527344e+00,4.832145214080810547e+00,4.830955505371093750e+00,1.845785260200500488e+00,1.832611918449401855e+00,1.881184220314025879e+00,4.488471031188964844e+00,4.325295925140380859e+00,4.173568725585937500e+00,4.032127380371093750e+00,3.899956464767456055e+00,3.776175737380981445e+00,3.660010814666748047e+00,3.550779581069946289e+00,3.447879314422607422e+00,3.350775003433227539e+00,3.258990287780761719e+00,3.172100067138671875e+00,3.089722633361816406e+00,3.011515855789184570e+00,2.937170267105102539e+00,2.866406917572021484e+00,2.798973321914672852e+00,2.734639406204223633e+00,2.673196554183959961e+00,2.614454030990600586e+00,2.558237314224243164e+00,2.504387617111206055e+00,2.452758312225341797e+00,2.403214454650878906e+00,2.355632781982421875e+00,2.309898376464843750e+00,2.265906333923339844e+00,2.223558425903320312e+00,2.182764530181884766e+00,2.143440246582031250e+00,2.105508089065551758e+00,2.068894624710083008e+00,2.033533334732055664e+00,1.999360322952270508e+00,1.966317176818847656e+00,1.934347987174987793e+00,1.903401970863342285e+00,1.873430252075195312e+00,1.844388127326965332e+00
3.778177499771118164e+00,3.777450561523437500e+00,3.776723384857177734e+00,3.775996685028076172e+00,3.775270700454711914e+00,3.774544477462768555e+00,3.773818969726562500e+00,3.773093223571777344e+00,3.772368192672729492e+00,3.771643161773681641e+00,3.770918846130371094e+00,3.770194292068481445e+00,3.769470453262329102e+00,3.768746614456176758e+00,3.768023252487182617e+00,3.767299890518188477e+00,3.766577005386352539e+00,3.765854358673095703e+00,3.765132188796997070e+00,3.764409780502319336e+00,3.763688087463378906e+00,3.762966394424438477e+00,3.762245416641235352e+00,3.761524200439453125e+00,3.760803699493408203e+00,3.760082960128784180e+00,3.759363174438476562e+00,3.758642911911010742e+00,3.757923603057861328e+00,3.757204055786132812e+00,3.756485223770141602e+00,3.755766153335571289e+00,3.755047559738159180e+00,2.400730371475219727e+00,2.383639335632324219e+00,3.752893686294555664e+00,3.752176046371459961e+00,3.751459121704101562e+00,1.848061203956604004e+00,1.839217662811279297e+00,1.895251154899597168e+00,3.748593330383300781e+00,3.747877359390258789e+00,3.747162103652954102e+00,3.746446609497070312e+00,3.745731830596923828e+00,3.745017051696777344e+00,3.660089492797851562e+00,3.550853490829467773e+00,3.447948694229125977e+00,3.350840568542480469e+00,3.259052515029907227e+00,3.172159194946289062e+00,3.089778900146484375e+00,3.011569023132324219e+00,2.937221050262451172e+00,2.866455316543579102e+00,2.799019098281860352e+00,2.734683275222778320e+00,2.673238515853881836e+00,2.614493846893310547e+00,2.558275699615478516e+00,2.504424333572387695e+00,2.452793598175048828e+00,2.403248310089111328e+00,2.355665445327758789e+00,2.309929847717285156e+00,2.265936374664306641e+00,2.223587512969970703e+00,2.182792425155639648e+00,2.143467426300048828e+00,2.105533838272094727e+00,2.068919897079467773e+00,2.033557653427124023e+00,1.999383926391601562e+00,1.966339707374572754e+00,1.934370040893554688e+00,1.903423190116882324e+00,1.873450994491577148e+00,1.844408035278320312e+00
3.084111928939819336e+00,3.083627223968505859e+00,3.083143234252929688e+00,3.082658767700195312e+00,3.082174777984619141e+00,3.081690788269042969e+00,3.081207275390625000e+00,3.080723524093627930e+00,3.080240011215209961e+00,3.079756736755371094e+00,3.079273462295532227e+00,3.078790426254272461e+00,3.078307628631591797e+00,3.077825069427490234e+00,3.077342271804809570e+00,3.076859951019287109e+00,3.076377630233764648e+00,3.075895786285400391e+00,3.075413703918457031e+00,3.074931859970092773e+00,3.074450254440307617e+00,3.073968887329101562e+00,3.073487281799316406e+00,3.073006153106689453e+00,3.072525024414062500e+00,3.072044372558593750e+00,3.071563482284545898e+00,3.071083068847656250e+00,3.070602416992187500e+00,3.070122241973876953e+00,3.069642066955566406e+00,3.069162130355834961e+00,3.068682193756103516e+00,2.386263608932495117e+00,2.382370471954345703e+00,2.387369871139526367e+00,3.066764354705810547e+00,3.066285371780395508e+00,1.865544080734252930e+00,1.852197408676147461e+00,3.064848899841308594e+00,3.064370393753051758e+00,3.063892126083374023e+00,3.063413858413696289e+00,3.062936067581176758e+00,3.062458038330078125e+00,3.061980247497558594e+00,3.061502695083618164e+00,3.061025381088256836e+00,3.060547828674316406e+00,3.060070753097534180e+00,3.059593677520751953e+00,3.059117078781127930e+00,3.058640241622924805e+00,3.011622190475463867e+00,2.937271595001220703e+00,2.866503477096557617e+00,2.799065113067626953e+00,2.734726905822753906e+00,2.673280239105224609e+00,2.614533901214599609e+00,2.558314085006713867e+00,2.504461288452148438e+00,2.452828884124755859e+00,2.403282403945922852e+00,2.355697870254516602e+00,2.309961080551147461e+00,2.265966415405273438e+00,2.223616600036621094e+00,2.182820320129394531e+00,2.143494129180908203e+00,2.105560064315795898e+00,2.068944931030273438e+00,2.033581972122192383e+00,1.999407291412353516e+00,1.966362476348876953e+00,1.934391856193542480e+00,1.903444528579711914e+00,1.873471498489379883e+00,1.844428062438964844e+00
2.605475902557373047e+00,2.605130195617675781e+00,2.604784488677978516e+00,2.604439020156860352e+00,2.604093313217163086e+00,2.603747844696044922e+00,2.603402376174926758e+00,2.603057384490966797e+00,2.602712154388427734e+00,2.602367162704467773e+00,2.602021932601928711e+00,2.601677179336547852e+00,2.601332426071166992e+00,2.600987672805786133e+00,2.600642919540405273e+00,2.600298643112182617e+00,2.599954128265380859e+00,2.599609851837158203e+00,2.599265336990356445e+00,2.598921060562133789e+00,2.598577260971069336e+00,2.598232984542846680e+00,2.597889184951782227e+00,2.597545385360717773e+00,2.597201824188232422e+00,2.596858024597167969e+00,2.596514701843261719e+00,2.596171140670776367e+00,2.595827817916870117e+00,2.595484495162963867e+00,2.595141410827636719e+00,2.594798326492309570e+00,2.594455480575561523e+00,2.594112396240234375e+00,2.367115020751953125e+00,2.357628107070922852e+00,2.593084335327148438e+00,2.592741727828979492e+00,1.836247324943542480e+00,1.829902172088623047e+00,2.591714859008789062e+00,2.591372489929199219e+00,2.591030597686767578e+00,2.590688467025756836e+00,2.590346813201904297e+00,2.590004682540893555e+00,2.589663267135620117e+00,2.589321374893188477e+00,2.588979721069335938e+00,2.588638544082641602e+00,2.588297128677368164e+00,2.587955951690673828e+00,2.587614536285400391e+00,2.587273597717285156e+00,2.586932420730590820e+00,2.586591720581054688e+00,2.586250782012939453e+00,2.585910081863403320e+00,2.585569381713867188e+00,2.585229158401489258e+00,2.584888458251953125e+00,2.558352708816528320e+00,2.504498004913330078e+00,2.452864170074462891e+00,2.403316259384155273e+00,2.355730533599853516e+00,2.309992551803588867e+00,2.265996694564819336e+00,2.223645448684692383e+00,2.182848215103149414e+00,2.143521070480346680e+00,2.105586051940917969e+00,2.068970203399658203e+00,2.033606290817260742e+00,1.999430894851684570e+00,1.966385126113891602e+00,1.934414029121398926e+00,1.903465628623962402e+00,1.873492002487182617e+00,1.844447970390319824e+00
2.255462408065795898e+00,2.255202531814575195e+00,2.254942655563354492e+00,2.254682779312133789e+00,2.254423141479492188e+00,2.254163503646850586e+00,2.253903865814208984e+00,2.253644227981567383e+00,2.253384828567504883e+00,2.253125429153442383e+00,2.252865791320800781e+00,2.252606630325317383e+00,2.252347469329833984e+00,2.252088069915771484e+00,2.251829147338867188e+00,2.251569986343383789e+00,2.251310825347900391e+00,2.251051902770996094e+00,2.250792980194091797e+00,2.250534057617187500e+00,2.250275373458862305e+00,2.250016689300537109e+00,2.249758005142211914e+00,2.249499320983886719e+00,2.249241352081298828e+00,2.248983860015869141e+00,2.248726129531860352e+00,2.248468399047851562e+00,2.248210906982421875e+00,2.247953414916992188e+00,2.247695922851562500e+00,2.247438669204711914e+00,2.247181415557861328e+00,2.246924161911010742e+00,2.246666908264160156e+00,2.246409893035888672e+00,2.246152639389038086e+00,2.245895862579345703e+00,1.780795335769653320e+00,1.788220047950744629e+00,2.245125055313110352e+00,2.244868278503417969e+00,2.244611501693725586e+00,2.244354963302612305e+00,2.244098186492919922e+00,2.243841886520385742e+00,2.243585348129272461e+00,2.243328809738159180e+00,2.243072509765625000e+00,2.242816209793090820e+00,2.242559909820556641e+00,2.242303848266601562e+00,2.242047548294067383e+00,2.241791486740112305e+00,2.241535425186157227e+00,2.241279602050781250e+00,2.241023540496826172e+00,2.240767717361450195e+00,2.240512132644653320e+00,2.240256309509277344e+00,2.240000724792480469e+00,2.239744901657104492e+00,2.239489555358886719e+00,2.239233970642089844e+00,2.238978624343872070e+00,2.238723039627075195e+00,2.238467931747436523e+00,2.238212585449218750e+00,2.223674535751342773e+00,2.182876348495483398e+00,2.143548011779785156e+00,2.105612039566040039e+00,2.068995237350463867e+00,2.033630371093750000e+00,1.999454259872436523e+00,1.966407895088195801e+00,1.934435844421386719e+00,1.903486847877502441e+00,1.873512744903564453e+00,1.844467759132385254e+00
1.988386034965515137e+00,1.988184094429016113e+00,1.987982153892517090e+00,1.987780094146728516e+00,1.987578272819519043e+00,1.987376451492309570e+00,1.987174510955810547e+00,1.986972808837890625e+00,1.986771225929260254e+00,1.986569404602050781e+00,1.986367821693420410e+00,1.986166238784790039e+00,1.985964536666870117e+00,1.985763072967529297e+00,1.985561728477478027e+00,1.985360145568847656e+00,1.985158801078796387e+00,1.984957575798034668e+00,1.984755992889404297e+00,1.984554886817932129e+00,1.984353661537170410e+00,1.984152317047119141e+00,1.983951210975646973e+00,1.983750224113464355e+00,1.983548998832702637e+00,1.983348011970520020e+00,1.983147144317626953e+00,1.982946038246154785e+00,1.982745170593261719e+00,1.982544422149658203e+00,1.982343316078186035e+00,1.982142686843872070e+00,1.981941938400268555e+00,1.981741070747375488e+00,1.981540560722351074e+00,1.981340050697326660e+00,1.981139183044433594e+00,1.980938792228698730e+00,1.699704170227050781e+00,1.721238136291503906e+00,1.766561269760131836e+00,1.980137109756469727e+00,1.979936599731445312e+00,1.979736328125000000e+00,1.979536175727844238e+00,1.979335784912109375e+00,1.979135632514953613e+00,1.978935599327087402e+00,1.978735327720642090e+00,1.978535413742065430e+00,1.978335380554199219e+00,1.978135228157043457e+00,1.977935433387756348e+00,1.977735638618469238e+00,1.977535605430603027e+00,1.977335810661315918e+00,1.977136135101318359e+00,1.976936459541320801e+00,1.976736664772033691e+00,1.976536989212036133e+00,1.976337432861328125e+00,1.976137757301330566e+00,1.975938320159912109e+00,1.975738883018493652e+00,1.975539207458496094e+00,1.975339889526367188e+00,1.975140571594238281e+00,1.974941134452819824e+00,1.974741935729980469e+00,1.974542737007141113e+00,1.974343299865722656e+00,1.974144220352172852e+00,1.973945260047912598e+00,1.973745942115783691e+00,1.973546981811523438e+00,1.966430544853210449e+00,1.934457659721374512e+00,1.903508186340332031e+00,1.873533248901367188e+00,1.844487905502319336e+00
1.777863740921020508e+00,1.777702093124389648e+00,1.777540683746337891e+00,1.777379274368286133e+00,1.777217745780944824e+00,1.777056336402893066e+00,1.776895046234130859e+00,1.776733636856079102e+00,1.776572465896606445e+00,1.776411175727844238e+00,1.776249885559082031e+00,1.776088714599609375e+00,1.775927543640136719e+00,1.775766253471374512e+00,1.775605201721191406e+00,1.775444149971008301e+00,1.775282979011535645e+00,1.775122046470642090e+00,1.774961113929748535e+00,1.774799942970275879e+00,1.774639129638671875e+00,1.774478197097778320e+00,1.774317264556884766e+00,1.774156451225280762e+00,1.773995637893676758e+00,1.773834943771362305e+00,1.773674011230468750e+00,1.773513317108154297e+00,1.773352622985839844e+00,1.773191809654235840e+00,1.773031234741210938e+00,1.772870659828186035e+00,1.772709965705871582e+00,1.772549510002136230e+00,1.772388935089111328e+00,1.772228360176086426e+00,1.772067904472351074e+00,1.771907567977905273e+00,1.771746993064880371e+00,1.771586656570434570e+00,1.771426320075988770e+00,1.771265864372253418e+00,1.771105647087097168e+00,1.770945429801940918e+00,1.770784974098205566e+00,1.770624876022338867e+00,1.770464777946472168e+00,1.770304441452026367e+00,1.770144343376159668e+00,1.769984364509582520e+00,1.769824147224426270e+00,1.769664168357849121e+00,1.769504189491271973e+00,1.769344091415405273e+00,1.769184112548828125e+00,1.769024252891540527e+00,1.768864274024963379e+00,1.768704414367675781e+00,1.768544673919677734e+00,1.768384695053100586e+00,1.768224954605102539e+00,1.768065333366394043e+00,1.767905354499816895e+00,1.767745733261108398e+00,1.767586112022399902e+00,1.767426371574401855e+00,1.767266869544982910e+00,1.767107367515563965e+00,1.766947627067565918e+00,1.766788125038146973e+00,1.766628742218017578e+00,1.766469120979309082e+00,1.766309738159179688e+00,1.766150474548339844e+00,1.765990853309631348e+00,1.765831589698791504e+00,1.765672326087951660e+00,1.765512943267822266e+00,1.765353798866271973e+00,1.765194535255432129e+00
1.607651829719543457e+00,1.607519745826721191e+00,1.607387781143188477e+00,1.607255697250366211e+00,1.607123732566833496e+00,1.606991767883300781e+00,1.606859803199768066e+00,1.606727838516235352e+00,1.606595993041992188e+00,1.606464028358459473e+00,1.606332182884216309e+00,1.606200456619262695e+00,1.606068491935729980e+00,1.605936765670776367e+00,1.605805039405822754e+00,1.605673193931579590e+00,1.605541467666625977e+00,1.605409741401672363e+00,1.605278015136718750e+00,1.605146408081054688e+00,1.605014801025390625e+00,1.604883074760437012e+00,1.604751467704772949e+00,1.604619979858398438e+00,1.604488253593444824e+00,1.604356765747070312e+00,1.604225277900695801e+00,1.604093670845031738e+00,1.603962302207946777e+00,1.603830933570861816e+00,1.603699326515197754e+00,1.603567957878112793e+00,1.603436708450317383e+00,1.603305220603942871e+00,1.603173851966857910e+00,1.603042602539062500e+00,1.602911233901977539e+00,1.602779984474182129e+00,1.602648735046386719e+00,1.602517366409301758e+00,1.602386236190795898e+00,1.602255105972290039e+00,1.602123856544494629e+00,1.601992726325988770e+00,1.601861596107482910e+00,1.601730465888977051e+00,1.601599335670471191e+00,1.601468324661254883e+00,1.601337194442749023e+00,1.601206183433532715e+00,1.601075291633605957e+00,1.600944161415100098e+00,1.600813269615173340e+00,1.600682377815246582e+00,1.600551366806030273e+00,1.600420475006103516e+00,1.600289702415466309e+00,1.600158929824829102e+00,1.600027918815612793e+00,1.599897146224975586e+00,1.599766373634338379e+00,1.599635601043701172e+00,1.599504828453063965e+00,1.599374175071716309e+00,1.599243402481079102e+00,1.599112749099731445e+00,1.598982095718383789e+00,1.598851442337036133e+00,1.598720788955688477e+00,1.598590254783630371e+00,1.598459601402282715e+00,1.598329067230224609e+00,1.598198652267456055e+00,1.598067998886108398e+00,1.597937583923339844e+00,1.597807168960571289e+00,1.597676634788513184e+00,1.597546219825744629e+00,1.597415804862976074e+00,1.597285389900207520e+00
1.467184305191040039e+00,1.467074275016784668e+00,1.466964364051818848e+00,1.466854453086853027e+00,1.466744422912597656e+00,1.466634511947631836e+00,1.466524600982666016e+00,1.466414690017700195e+00,1.466304779052734375e+00,1.466194987297058105e+00,1.466085076332092285e+00,1.465975284576416016e+00,1.465865492820739746e+00,1.465755581855773926e+00,1.465645909309387207e+00,1.465536117553710938e+00,1.465426325798034668e+00,1.465316653251647949e+00,1.465206980705261230e+00,1.465097188949584961e+00,1.464987516403198242e+00,1.464877963066101074e+00,1.464768171310424805e+00,1.464658617973327637e+00,1.464549064636230469e+00,1.464439511299133301e+00,1.464329838752746582e+00,1.464220285415649414e+00,1.464110732078552246e+00,1.464001178741455078e+00,1.463891625404357910e+00,1.463782191276550293e+00,1.463672637939453125e+00,1.463563203811645508e+00,1.463453769683837891e+00,1.463344335556030273e+00,1.463234901428222656e+00,1.463125586509704590e+00,1.463016033172607422e+00,1.462906718254089355e+00,1.462797403335571289e+00,1.462687969207763672e+00,1.462578773498535156e+00,1.462469458580017090e+00,1.462360143661499023e+00,1.462250947952270508e+00,1.462141633033752441e+00,1.462032318115234375e+00,1.461923122406005859e+00,1.461814045906066895e+00,1.461704730987548828e+00,1.461595654487609863e+00,1.461486458778381348e+00,1.461377263069152832e+00,1.461268186569213867e+00,1.461159110069274902e+00,1.461049914360046387e+00,1.460940957069396973e+00,1.460831880569458008e+00,1.460722804069519043e+00,1.460613846778869629e+00,1.460504889488220215e+00,1.460395812988281250e+00,1.460286855697631836e+00,1.460177898406982422e+00,1.460068821907043457e+00,1.459959983825683594e+00,1.459851145744323730e+00,1.459742188453674316e+00,1.459633350372314453e+00,1.459524512290954590e+00,1.459415555000305176e+00,1.459306716918945312e+00,1.459197998046875000e+00,1.459089040756225586e+00,1.458980321884155273e+00,1.458871603012084961e+00,1.458762764930725098e+00,1.458654046058654785e+00,1.458545446395874023e+00
1.349290847778320312e+00,1.349197864532470703e+00,1.349104881286621094e+00,1.349011778831481934e+00,1.348918795585632324e+00,1.348825931549072266e+00,1.348732829093933105e+00,1.348639965057373047e+00,1.348547101020812988e+00,1.348453998565673828e+00,1.348361134529113770e+00,1.348268270492553711e+00,1.348175406455993652e+00,1.348082542419433594e+00,1.347989678382873535e+00,1.347896814346313477e+00,1.347803950309753418e+00,1.347711205482482910e+00,1.347618341445922852e+00,1.347525596618652344e+00,1.347432851791381836e+00,1.347339987754821777e+00,1.347247242927551270e+00,1.347154617309570312e+00,1.347061753273010254e+00,1.346969127655029297e+00,1.346876382827758789e+00,1.346783638000488281e+00,1.346691012382507324e+00,1.346598386764526367e+00,1.346505641937255859e+00,1.346413016319274902e+00,1.346320390701293945e+00,1.346227765083312988e+00,1.346135139465332031e+00,1.346042633056640625e+00,1.345950007438659668e+00,1.345857381820678711e+00,1.345764875411987305e+00,1.345672249794006348e+00,1.345579862594604492e+00,1.345487356185913086e+00,1.345394730567932129e+00,1.345302343368530273e+00,1.345209836959838867e+00,1.345117330551147461e+00,1.345024943351745605e+00,1.344932556152343750e+00,1.344840049743652344e+00,1.344747662544250488e+00,1.344655275344848633e+00,1.344562768936157227e+00,1.344470500946044922e+00,1.344378113746643066e+00,1.344285726547241211e+00,1.344193339347839355e+00,1.344101071357727051e+00,1.344008803367614746e+00,1.343916416168212891e+00,1.343824148178100586e+00,1.343731999397277832e+00,1.343639612197875977e+00,1.343547344207763672e+00,1.343455195426940918e+00,1.343362927436828613e+00,1.343270778656005859e+00,1.343178510665893555e+00,1.343086242675781250e+00,1.342994213104248047e+00,1.342902064323425293e+00,1.342809796333312988e+00,1.342717766761779785e+00,1.342625617980957031e+00,1.342533469200134277e+00,1.342441320419311523e+00,1.342349290847778320e+00,1.342257142066955566e+00,1.342165112495422363e+00,1.342073082923889160e+00,1.341981053352355957e+00
1.248934626579284668e+00,1.248854875564575195e+00,1.248775243759155273e+00,1.248695492744445801e+00,1.248615860939025879e+00,1.248536229133605957e+00,1.248456597328186035e+00,1.248376846313476562e+00,1.248297214508056641e+00,1.248217701911926270e+00,1.248137950897216797e+00,1.248058438301086426e+00,1.247978806495666504e+00,1.247899174690246582e+00,1.247819662094116211e+00,1.247740149497985840e+00,1.247660517692565918e+00,1.247581005096435547e+00,1.247501492500305176e+00,1.247421860694885254e+00,1.247342467308044434e+00,1.247262954711914062e+00,1.247183442115783691e+00,1.247103929519653320e+00,1.247024536132812500e+00,1.246945142745971680e+00,1.246865630149841309e+00,1.246786117553710938e+00,1.246706724166870117e+00,1.246627330780029297e+00,1.246547937393188477e+00,1.246468544006347656e+00,1.246389031410217285e+00,1.246309757232666016e+00,1.246230363845825195e+00,1.246150970458984375e+00,1.246071696281433105e+00,1.245992302894592285e+00,1.245912909507751465e+00,1.245833635330200195e+00,1.245754361152648926e+00,1.245675086975097656e+00,1.245595812797546387e+00,1.245516538619995117e+00,1.245437145233154297e+00,1.245357990264892578e+00,1.245278716087341309e+00,1.245199441909790039e+00,1.245120286941528320e+00,1.245041012763977051e+00,1.244961738586425781e+00,1.244882583618164062e+00,1.244803428649902344e+00,1.244724273681640625e+00,1.244645118713378906e+00,1.244565963745117188e+00,1.244486808776855469e+00,1.244407653808593750e+00,1.244328498840332031e+00,1.244249343872070312e+00,1.244170308113098145e+00,1.244091272354125977e+00,1.244012117385864258e+00,1.243933081626892090e+00,1.243854045867919922e+00,1.243774890899658203e+00,1.243695855140686035e+00,1.243616819381713867e+00,1.243537783622741699e+00,1.243458747863769531e+00,1.243379831314086914e+00,1.243300795555114746e+00,1.243221759796142578e+00,1.243142843246459961e+00,1.243063807487487793e+00,1.242984890937805176e+00,1.242905974388122559e+00,1.242826938629150391e+00,1.242748141288757324e+00,1.242669224739074707e+00
1.162473320960998535e+00,1.162404179573059082e+00,1.162335276603698730e+00,1.162266135215759277e+00,1.162197113037109375e+00,1.162128090858459473e+00,1.162059068679809570e+00,1.161990165710449219e+00,1.161921143531799316e+00,1.161852121353149414e+00,1.161783099174499512e+00,1.161714196205139160e+00,1.161645174026489258e+00,1.161576271057128906e+00,1.161507368087768555e+00,1.161438345909118652e+00,1.161369442939758301e+00,1.161300539970397949e+00,1.161231637001037598e+00,1.161162734031677246e+00,1.161093831062316895e+00,1.161024928092956543e+00,1.160956025123596191e+00,1.160887241363525391e+00,1.160818338394165039e+00,1.160749435424804688e+00,1.160680651664733887e+00,1.160611748695373535e+00,1.160542964935302734e+00,1.160474181175231934e+00,1.160405278205871582e+00,1.160336494445800781e+00,1.160267710685729980e+00,1.160198926925659180e+00,1.160130143165588379e+00,1.160061359405517578e+00,1.159992575645446777e+00,1.159923791885375977e+00,1.159855127334594727e+00,1.159786343574523926e+00,1.159717559814453125e+00,1.159648895263671875e+00,1.159580111503601074e+00,1.159511446952819824e+00,1.159442782402038574e+00,1.159373998641967773e+00,1.159305334091186523e+00,1.159236669540405273e+00,1.159168004989624023e+00,1.159099340438842773e+00,1.159030795097351074e+00,1.158962011337280273e+00,1.158893465995788574e+00,1.158824801445007324e+00,1.158756136894226074e+00,1.158687591552734375e+00,1.158619046211242676e+00,1.158550381660461426e+00,1.158481836318969727e+00,1.158413290977478027e+00,1.158344745635986328e+00,1.158276081085205078e+00,1.158207535743713379e+00,1.158139109611511230e+00,1.158070445060729980e+00,1.158002018928527832e+00,1.157933473587036133e+00,1.157864928245544434e+00,1.157796502113342285e+00,1.157727956771850586e+00,1.157659411430358887e+00,1.157590985298156738e+00,1.157522559165954590e+00,1.157454013824462891e+00,1.157385587692260742e+00,1.157317161560058594e+00,1.157248616218566895e+00,1.157180309295654297e+00,1.157111883163452148e+00,1.157043457031250000e+00
1.087207913398742676e+00,1.087147474288940430e+00,1.087087154388427734e+00,1.087026834487915039e+00,1.086966395378112793e+00,1.086905956268310547e+00,1.086845636367797852e+00,1.086785316467285156e+00,1.086724996566772461e+00,1.086664676666259766e+00,1.086604237556457520e+00,1.086543917655944824e+00,1.086483597755432129e+00,1.086423277854919434e+00,1.086362957954406738e+00,1.086302638053894043e+00,1.086242318153381348e+00,1.086182117462158203e+00,1.086121797561645508e+00,1.086061477661132812e+00,1.086001276969909668e+00,1.085940957069396973e+00,1.085880756378173828e+00,1.085820436477661133e+00,1.085760235786437988e+00,1.085700035095214844e+00,1.085639715194702148e+00,1.085579514503479004e+00,1.085519313812255859e+00,1.085459113121032715e+00,1.085398912429809570e+00,1.085338711738586426e+00,1.085278511047363281e+00,1.085218310356140137e+00,1.085158228874206543e+00,1.085098028182983398e+00,1.085037827491760254e+00,1.084977746009826660e+00,1.084917545318603516e+00,1.084857344627380371e+00,1.084797263145446777e+00,1.084737062454223633e+00,1.084676980972290039e+00,1.084616899490356445e+00,1.084556698799133301e+00,1.084496617317199707e+00,1.084436535835266113e+00,1.084376454353332520e+00,1.084316372871398926e+00,1.084256291389465332e+00,1.084196209907531738e+00,1.084136128425598145e+00,1.084076166152954102e+00,1.084016084671020508e+00,1.083956003189086914e+00,1.083896040916442871e+00,1.083835959434509277e+00,1.083775877952575684e+00,1.083715915679931641e+00,1.083655834197998047e+00,1.083595871925354004e+00,1.083535909652709961e+00,1.083475828170776367e+00,1.083415865898132324e+00,1.083355903625488281e+00,1.083295941352844238e+00,1.083235979080200195e+00,1.083176016807556152e+00,1.083116054534912109e+00,1.083056092262268066e+00,1.082996249198913574e+00,1.082936286926269531e+00,1.082876324653625488e+00,1.082816481590270996e+00,1.082756519317626953e+00,1.082696557044982910e+00,1.082636713981628418e+00,1.082576751708984375e+00,1.082516908645629883e+00,1.082457065582275391e+00
1.021096229553222656e+00,1.021042943000793457e+00,1.020989656448364258e+00,1.020936369895935059e+00,1.020883083343505859e+00,1.020829916000366211e+00,1.020776629447937012e+00,1.020723342895507812e+00,1.020670175552368164e+00,1.020616888999938965e+00,1.020563721656799316e+00,1.020510554313659668e+00,1.020457267761230469e+00,1.020404100418090820e+00,1.020350813865661621e+00,1.020297646522521973e+00,1.020244479179382324e+00,1.020191311836242676e+00,1.020138025283813477e+00,1.020084857940673828e+00,1.020031809806823730e+00,1.019978523254394531e+00,1.019925355911254883e+00,1.019872307777404785e+00,1.019819140434265137e+00,1.019765973091125488e+00,1.019712805747985840e+00,1.019659638404846191e+00,1.019606590270996094e+00,1.019553422927856445e+00,1.019500255584716797e+00,1.019447207450866699e+00,1.019394159317016602e+00,1.019340991973876953e+00,1.019287943840026855e+00,1.019234895706176758e+00,1.019181728363037109e+00,1.019128680229187012e+00,1.019075632095336914e+00,1.019022464752197266e+00,1.018969416618347168e+00,1.018916487693786621e+00,1.018863320350646973e+00,1.018810272216796875e+00,1.018757343292236328e+00,1.018704295158386230e+00,1.018651247024536133e+00,1.018598198890686035e+00,1.018545150756835938e+00,1.018492221832275391e+00,1.018439173698425293e+00,1.018386125564575195e+00,1.018333196640014648e+00,1.018280267715454102e+00,1.018227219581604004e+00,1.018174171447753906e+00,1.018121242523193359e+00,1.018068313598632812e+00,1.018015384674072266e+00,1.017962336540222168e+00,1.017909407615661621e+00,1.017856478691101074e+00,1.017803549766540527e+00,1.017750620841979980e+00,1.017697691917419434e+00,1.017644762992858887e+00,1.017591834068298340e+00,1.017538905143737793e+00,1.017486095428466797e+00,1.017433166503906250e+00,1.017380237579345703e+00,1.017327308654785156e+00,1.017274498939514160e+00,1.017221570014953613e+00,1.017168760299682617e+00,1.017115831375122070e+00,1.017063021659851074e+00,1.017010092735290527e+00,1.016957283020019531e+00,1.016904354095458984e+00
9.625639319419860840e-01,9.625165462493896484e-01,9.624692797660827637e-01,9.624219536781311035e-01,9.623745679855346680e-01,9.623273015022277832e-01,9.622799158096313477e-01,9.622325897216796875e-01,9.621853232383728027e-01,9.621379971504211426e-01,9.620906710624694824e-01,9.620434641838073730e-01,9.619961380958557129e-01,9.619488120079040527e-01,9.619016051292419434e-01,9.618542790412902832e-01,9.618069529533386230e-01,9.617597460746765137e-01,9.617124795913696289e-01,9.616651535034179688e-01,9.616180062294006348e-01,9.615706801414489746e-01,9.615234136581420898e-01,9.614762663841247559e-01,9.614289999008178711e-01,9.613817930221557617e-01,9.613345265388488770e-01,9.612873196601867676e-01,9.612401723861694336e-01,9.611929059028625488e-01,9.611456394195556641e-01,9.610984921455383301e-01,9.610512852668762207e-01,9.610040783882141113e-01,9.609569311141967773e-01,9.609097242355346680e-01,9.608625173568725586e-01,9.608153700828552246e-01,9.607681632041931152e-01,9.607209563255310059e-01,9.606738686561584473e-01,9.606266617774963379e-01,9.605795145034790039e-01,9.605324268341064453e-01,9.604852199554443359e-01,9.604380726814270020e-01,9.603909850120544434e-01,9.603438377380371094e-01,9.602966904640197754e-01,9.602496027946472168e-01,9.602024555206298828e-01,9.601553082466125488e-01,9.601082801818847656e-01,9.600611329078674316e-01,9.600139856338500977e-01,9.599670171737670898e-01,9.599198698997497559e-01,9.598727226257324219e-01,9.598257541656494141e-01,9.597786068916320801e-01,9.597315192222595215e-01,9.596845507621765137e-01,9.596374034881591797e-01,9.595903158187866211e-01,9.595433473587036133e-01,9.594962596893310547e-01,9.594491720199584961e-01,9.594022035598754883e-01,9.593551754951477051e-01,9.593080878257751465e-01,9.592611193656921387e-01,9.592140913009643555e-01,9.591670036315917969e-01,9.591200947761535645e-01,9.590730667114257812e-01,9.590259790420532227e-01,9.589790701866149902e-01,9.589320421218872070e-01,9.588850140571594238e-01,9.588381052017211914e-01
9.103782773017883301e-01,9.103360176086425781e-01,9.102936387062072754e-01,9.102512598037719727e-01,9.102090001106262207e-01,9.101666212081909180e-01,9.101242423057556152e-01,9.100819826126098633e-01,9.100396633148193359e-01,9.099972844123840332e-01,9.099550247192382812e-01,9.099127054214477539e-01,9.098703265190124512e-01,9.098281264305114746e-01,9.097858071327209473e-01,9.097434878349304199e-01,9.097012281417846680e-01,9.096589088439941406e-01,9.096165895462036133e-01,9.095743894577026367e-01,9.095320701599121094e-01,9.094897508621215820e-01,9.094475507736206055e-01,9.094052910804748535e-01,9.093629717826843262e-01,9.093207716941833496e-01,9.092785120010375977e-01,9.092362523078918457e-01,9.091940522193908691e-01,9.091517925262451172e-01,9.091095328330993652e-01,9.090673327445983887e-01,9.090250730514526367e-01,9.089828133583068848e-01,9.089406728744506836e-01,9.088984131813049316e-01,9.088561534881591797e-01,9.088140130043029785e-01,9.087718129158020020e-01,9.087295532226562500e-01,9.086874127388000488e-01,9.086452126502990723e-01,9.086030125617980957e-01,9.085608720779418945e-01,9.085186719894409180e-01,9.084764719009399414e-01,9.084343314170837402e-01,9.083921313285827637e-01,9.083499312400817871e-01,9.083078503608703613e-01,9.082656502723693848e-01,9.082234501838684082e-01,9.081813693046569824e-01,9.081392288208007812e-01,9.080970287322998047e-01,9.080549478530883789e-01,9.080128073692321777e-01,9.079707264900207520e-01,9.079285860061645508e-01,9.078863859176635742e-01,9.078443646430969238e-01,9.078022241592407227e-01,9.077600836753845215e-01,9.077180027961730957e-01,9.076758623123168945e-01,9.076337814331054688e-01,9.075917601585388184e-01,9.075496196746826172e-01,9.075074791908264160e-01,9.074654579162597656e-01,9.074233770370483398e-01,9.073812365531921387e-01,9.073392748832702637e-01,9.072971343994140625e-01,9.072550535202026367e-01,9.072130322456359863e-01,9.071709513664245605e-01,9.071288704872131348e-01,9.070869088172912598e-01,9.070448279380798340e-01
8.635602593421936035e-01,8.635221123695373535e-01,8.634839653968811035e-01,8.634459376335144043e-01,8.634078502655029297e-01,8.633697032928466797e-01,8.633316755294799805e-01,8.632935881614685059e-01,8.632554411888122559e-01,8.632174134254455566e-01,8.631793260574340820e-01,8.631412386894226074e-01,8.631032109260559082e-01,8.630651235580444336e-01,8.630270361900329590e-01,8.629890084266662598e-01,8.629509210586547852e-01,8.629128336906433105e-01,8.628748655319213867e-01,8.628367781639099121e-01,8.627986907958984375e-01,8.627607226371765137e-01,8.627226948738098145e-01,8.626846075057983398e-01,8.626466393470764160e-01,8.626086115837097168e-01,8.625705242156982422e-01,8.625325560569763184e-01,8.624945282936096191e-01,8.624565005302429199e-01,8.624185323715209961e-01,8.623805046081542969e-01,8.623424768447875977e-01,8.623045086860656738e-01,8.622664809226989746e-01,8.622284531593322754e-01,8.621905446052551270e-01,8.621525168418884277e-01,8.621145486831665039e-01,8.620765805244445801e-01,8.620386123657226562e-01,8.620005846023559570e-01,8.619626760482788086e-01,8.619247078895568848e-01,8.618866801261901855e-01,8.618488311767578125e-01,8.618108034133911133e-01,8.617728352546691895e-01,8.617349267005920410e-01,8.616969585418701172e-01,8.616589903831481934e-01,8.616211414337158203e-01,8.615831732749938965e-01,8.615452051162719727e-01,8.615072965621948242e-01,8.614693880081176758e-01,8.614314198493957520e-01,8.613935708999633789e-01,8.613556027412414551e-01,8.613176941871643066e-01,8.612798452377319336e-01,8.612418770790100098e-01,8.612039685249328613e-01,8.611661195755004883e-01,8.611282110214233398e-01,8.610902428627014160e-01,8.610524535179138184e-01,8.610145449638366699e-01,8.609766364097595215e-01,8.609387874603271484e-01,8.609008789062500000e-01,8.608629703521728516e-01,8.608251810073852539e-01,8.607872724533081055e-01,8.607493638992309570e-01,8.607115745544433594e-01,8.606737256050109863e-01,8.606358170509338379e-01,8.605980277061462402e-01,8.605601787567138672e-01
8.213220238685607910e-01,8.212875127792358398e-01,8.212531208992004395e-01,8.212186098098754883e-01,8.211841583251953125e-01,8.211497664451599121e-01,8.211152553558349609e-01,8.210808038711547852e-01,8.210464119911193848e-01,8.210119009017944336e-01,8.209774494171142578e-01,8.209430575370788574e-01,8.209086060523986816e-01,8.208741545677185059e-01,8.208397626876831055e-01,8.208053112030029297e-01,8.207708597183227539e-01,8.207364678382873535e-01,8.207020163536071777e-01,8.206675648689270020e-01,8.206332325935363770e-01,8.205987811088562012e-01,8.205643296241760254e-01,8.205299973487854004e-01,8.204956054687500000e-01,8.204611539840698242e-01,8.204268217086791992e-01,8.203923702239990234e-01,8.203579783439636230e-01,8.203236460685729980e-01,8.202891945838928223e-01,8.202548027038574219e-01,8.202204704284667969e-01,8.201860785484313965e-01,8.201516866683959961e-01,8.201173543930053711e-01,8.200829625129699707e-01,8.200485706329345703e-01,8.200142383575439453e-01,8.199799060821533203e-01,8.199455142021179199e-01,8.199111819267272949e-01,8.198767900466918945e-01,8.198424577713012695e-01,8.198081254959106445e-01,8.197737932205200195e-01,8.197394013404846191e-01,8.197051286697387695e-01,8.196707963943481445e-01,8.196364045143127441e-01,8.196021318435668945e-01,8.195677995681762695e-01,8.195334076881408691e-01,8.194991946220397949e-01,8.194648027420043945e-01,8.194304704666137695e-01,8.193961977958679199e-01,8.193618655204772949e-01,8.193275332450866699e-01,8.192933201789855957e-01,8.192589879035949707e-01,8.192246556282043457e-01,8.191904425621032715e-01,8.191561102867126465e-01,8.191217780113220215e-01,8.190875649452209473e-01,8.190532326698303223e-01,8.190189599990844727e-01,8.189846873283386230e-01,8.189504146575927734e-01,8.189160823822021484e-01,8.188818693161010742e-01,8.188475966453552246e-01,8.188133239746093750e-01,8.187791109085083008e-01,8.187448382377624512e-01,8.187105655670166016e-01,8.186763525009155273e-01,8.186420798301696777e-01,8.186078071594238281e-01
7.830230593681335449e-01,7.829917073249816895e-01,7.829604148864746094e-01,7.829290628433227539e-01,7.828977108001708984e-01,7.828664779663085938e-01,7.828351259231567383e-01,7.828037738800048828e-01,7.827724814414978027e-01,7.827411890029907227e-01,7.827098369598388672e-01,7.826786041259765625e-01,7.826472520828247070e-01,7.826159000396728516e-01,7.825846672058105469e-01,7.825533747673034668e-01,7.825220227241516113e-01,7.824907898902893066e-01,7.824594974517822266e-01,7.824281454086303711e-01,7.823969125747680664e-01,7.823656201362609863e-01,7.823343276977539062e-01,7.823030948638916016e-01,7.822718024253845215e-01,7.822405695915222168e-01,7.822092771530151367e-01,7.821779847145080566e-01,7.821468114852905273e-01,7.821155190467834473e-01,7.820842266082763672e-01,7.820529937744140625e-01,7.820217609405517578e-01,7.819904685020446777e-01,7.819592952728271484e-01,7.819280028343200684e-01,7.818967103958129883e-01,7.818655371665954590e-01,7.818343043327331543e-01,7.818030118942260742e-01,7.817718386650085449e-01,7.817406058311462402e-01,7.817093133926391602e-01,7.816781401634216309e-01,7.816469073295593262e-01,7.816156744956970215e-01,7.815845012664794922e-01,7.815532684326171875e-01,7.815220355987548828e-01,7.814908623695373535e-01,7.814596295356750488e-01,7.814283967018127441e-01,7.813972234725952148e-01,7.813659906387329102e-01,7.813347578048706055e-01,7.813036441802978516e-01,7.812724113464355469e-01,7.812411785125732422e-01,7.812100648880004883e-01,7.811788320541381836e-01,7.811476588249206543e-01,7.811165452003479004e-01,7.810853123664855957e-01,7.810541391372680664e-01,7.810229659080505371e-01,7.809917926788330078e-01,7.809606194496154785e-01,7.809295058250427246e-01,7.808982729911804199e-01,7.808670997619628906e-01,7.808359861373901367e-01,7.808048129081726074e-01,7.807736396789550781e-01,7.807425260543823242e-01,7.807113528251647949e-01,7.806801795959472656e-01,7.806491255760192871e-01,7.806179523468017578e-01,7.805867791175842285e-01,7.805557250976562500e-01
7.481367588043212891e-01,7.481082081794738770e-01,7.480795383453369141e-01,7.480509281158447266e-01,7.480223774909973145e-01,7.479937672615051270e-01,7.479651570320129395e-01,7.479366064071655273e-01,7.479079961776733398e-01,7.478793859481811523e-01,7.478508949279785156e-01,7.478222846984863281e-01,7.477936744689941406e-01,7.477651238441467285e-01,7.477365732192993164e-01,7.477079629898071289e-01,7.476794123649597168e-01,7.476508617401123047e-01,7.476222515106201172e-01,7.475937604904174805e-01,7.475651502609252930e-01,7.475365996360778809e-01,7.475080490112304688e-01,7.474794983863830566e-01,7.474509477615356445e-01,7.474223971366882324e-01,7.473938465118408203e-01,7.473652958869934082e-01,7.473368048667907715e-01,7.473082542419433594e-01,7.472796440124511719e-01,7.472511529922485352e-01,7.472226023674011230e-01,7.471940517425537109e-01,7.471655607223510742e-01,7.471370100975036621e-01,7.471084594726562500e-01,7.470800280570983887e-01,7.470514774322509766e-01,7.470229268074035645e-01,7.469944357872009277e-01,7.469659447669982910e-01,7.469373941421508789e-01,7.469089031219482422e-01,7.468804121017456055e-01,7.468518614768981934e-01,7.468234300613403320e-01,7.467948794364929199e-01,7.467663884162902832e-01,7.467378973960876465e-01,7.467094063758850098e-01,7.466808557510375977e-01,7.466524243354797363e-01,7.466239333152770996e-01,7.465954422950744629e-01,7.465669512748718262e-01,7.465384602546691895e-01,7.465100288391113281e-01,7.464815378189086914e-01,7.464530467987060547e-01,7.464246153831481934e-01,7.463961243629455566e-01,7.463676333427429199e-01,7.463392019271850586e-01,7.463107109069824219e-01,7.462822198867797852e-01,7.462538480758666992e-01,7.462253570556640625e-01,7.461968660354614258e-01,7.461684942245483398e-01,7.461400032043457031e-01,7.461115121841430664e-01,7.460831403732299805e-01,7.460546493530273438e-01,7.460262179374694824e-01,7.459977865219116211e-01,7.459693551063537598e-01,7.459408640861511230e-01,7.459124922752380371e-01,7.458840608596801758e-01
7.162265181541442871e-01,7.162002921104431152e-01,7.161740064620971680e-01,7.161478400230407715e-01,7.161216139793395996e-01,7.160953879356384277e-01,7.160692214965820312e-01,7.160430550575256348e-01,7.160168290138244629e-01,7.159906625747680664e-01,7.159644365310668945e-01,7.159382104873657227e-01,7.159120440483093262e-01,7.158858776092529297e-01,7.158596515655517578e-01,7.158334851264953613e-01,7.158073186874389648e-01,7.157810926437377930e-01,7.157549858093261719e-01,7.157287597656250000e-01,7.157025933265686035e-01,7.156764268875122070e-01,7.156502604484558105e-01,7.156240344047546387e-01,7.155979275703430176e-01,7.155717611312866211e-01,7.155455350875854492e-01,7.155194282531738281e-01,7.154932618141174316e-01,7.154670357704162598e-01,7.154409289360046387e-01,7.154147624969482422e-01,7.153885960578918457e-01,7.153624892234802246e-01,7.153363227844238281e-01,7.153101563453674316e-01,7.152840495109558105e-01,7.152578830718994141e-01,7.152317166328430176e-01,7.152056097984313965e-01,7.151794433593750000e-01,7.151532769203186035e-01,7.151272296905517578e-01,7.151010632514953613e-01,7.150748968124389648e-01,7.150488495826721191e-01,7.150226831436157227e-01,7.149965167045593262e-01,7.149704694747924805e-01,7.149443030357360840e-01,7.149181962013244629e-01,7.148920893669128418e-01,7.148659825325012207e-01,7.148398160934448242e-01,7.148137688636779785e-01,7.147876024246215820e-01,7.147614955902099609e-01,7.147354483604431152e-01,7.147092819213867188e-01,7.146831750869750977e-01,7.146571278572082520e-01,7.146310210227966309e-01,7.146049141883850098e-01,7.145788669586181641e-01,7.145527005195617676e-01,7.145265936851501465e-01,7.145005464553833008e-01,7.144744396209716797e-01,7.144483327865600586e-01,7.144222855567932129e-01,7.143962383270263672e-01,7.143701314926147461e-01,7.143440842628479004e-01,7.143179774284362793e-01,7.142918705940246582e-01,7.142658829689025879e-01,7.142397761344909668e-01,7.142136693000793457e-01,7.141876220703125000e-01,7.141615748405456543e-01
6.869269609451293945e-01,6.869028806686401367e-01,6.868788003921508789e-01,6.868546605110168457e-01,6.868305206298828125e-01,6.868064403533935547e-01,6.867823600769042969e-01,6.867582201957702637e-01,6.867341399192810059e-01,6.867100596427917480e-01,6.866859197616577148e-01,6.866618394851684570e-01,6.866377592086791992e-01,6.866136193275451660e-01,6.865895986557006836e-01,6.865654587745666504e-01,6.865413784980773926e-01,6.865173578262329102e-01,6.864932179450988770e-01,6.864691376686096191e-01,6.864450573921203613e-01,6.864209771156311035e-01,6.863968968391418457e-01,6.863728761672973633e-01,6.863487362861633301e-01,6.863246560096740723e-01,6.863006353378295898e-01,6.862765550613403320e-01,6.862524747848510742e-01,6.862284541130065918e-01,6.862043738365173340e-01,6.861802935600280762e-01,6.861562728881835938e-01,6.861321926116943359e-01,6.861081123352050781e-01,6.860840916633605957e-01,6.860600113868713379e-01,6.860359311103820801e-01,6.860119104385375977e-01,6.859878897666931152e-01,6.859638094902038574e-01,6.859397888183593750e-01,6.859157085418701172e-01,6.858916878700256348e-01,6.858676671981811523e-01,6.858435869216918945e-01,6.858195662498474121e-01,6.857955455780029297e-01,6.857715249061584473e-01,6.857474446296691895e-01,6.857234835624694824e-01,6.856994032859802246e-01,6.856753826141357422e-01,6.856513619422912598e-01,6.856273412704467773e-01,6.856033205986022949e-01,6.855792999267578125e-01,6.855552792549133301e-01,6.855312585830688477e-01,6.855072975158691406e-01,6.854832768440246582e-01,6.854591965675354004e-01,6.854352355003356934e-01,6.854112148284912109e-01,6.853871941566467285e-01,6.853632330894470215e-01,6.853392124176025391e-01,6.853151917457580566e-01,6.852912306785583496e-01,6.852672100067138672e-01,6.852431893348693848e-01,6.852192282676696777e-01,6.851952075958251953e-01,6.851712465286254883e-01,6.851472854614257812e-01,6.851232647895812988e-01,6.850992441177368164e-01,6.850752830505371094e-01,6.850513219833374023e-01,6.850273013114929199e-01
6.599304676055908203e-01,6.599081754684448242e-01,6.598859429359436035e-01,6.598637104034423828e-01,6.598414182662963867e-01,6.598191857337951660e-01,6.597969532012939453e-01,6.597746610641479492e-01,6.597524881362915039e-01,6.597301959991455078e-01,6.597079634666442871e-01,6.596857309341430664e-01,6.596634984016418457e-01,6.596412658691406250e-01,6.596190333366394043e-01,6.595968008041381836e-01,6.595745682716369629e-01,6.595523357391357422e-01,6.595301032066345215e-01,6.595078706741333008e-01,6.594856381416320801e-01,6.594634056091308594e-01,6.594411730766296387e-01,6.594190001487731934e-01,6.593967676162719727e-01,6.593745946884155273e-01,6.593523621559143066e-01,6.593301296234130859e-01,6.593079566955566406e-01,6.592857241630554199e-01,6.592634916305541992e-01,6.592413187026977539e-01,6.592190861701965332e-01,6.591968536376953125e-01,6.591746807098388672e-01,6.591524481773376465e-01,6.591302752494812012e-01,6.591081023216247559e-01,6.590858697891235352e-01,6.590636372566223145e-01,6.590414643287658691e-01,6.590192914009094238e-01,6.589970588684082031e-01,6.589748859405517578e-01,6.589527130126953125e-01,6.589304804801940918e-01,6.589083671569824219e-01,6.588861346244812012e-01,6.588639616966247559e-01,6.588417887687683105e-01,6.588196158409118652e-01,6.587973833084106445e-01,6.587752699851989746e-01,6.587530374526977539e-01,6.587308645248413086e-01,6.587087512016296387e-01,6.586865186691284180e-01,6.586643457412719727e-01,6.586422324180603027e-01,6.586200594902038574e-01,6.585978269577026367e-01,6.585757136344909668e-01,6.585535407066345215e-01,6.585313677787780762e-01,6.585092544555664062e-01,6.584870815277099609e-01,6.584649085998535156e-01,6.584427952766418457e-01,6.584206223487854004e-01,6.583984494209289551e-01,6.583763360977172852e-01,6.583541631698608398e-01,6.583319902420043945e-01,6.583098769187927246e-01,6.582877039909362793e-01,6.582655310630798340e-01,6.582434177398681641e-01,6.582212448120117188e-01,6.581991314888000488e-01,6.581770181655883789e-01
6.349756121635437012e-01,6.349550485610961914e-01,6.349344253540039062e-01,6.349138021469116211e-01,6.348932385444641113e-01,6.348726153373718262e-01,6.348519921302795410e-01,6.348314285278320312e-01,6.348108053207397461e-01,6.347902417182922363e-01,6.347696781158447266e-01,6.347490549087524414e-01,6.347284317016601562e-01,6.347078680992126465e-01,6.346873044967651367e-01,6.346666812896728516e-01,6.346461176872253418e-01,6.346255540847778320e-01,6.346049308776855469e-01,6.345844268798828125e-01,6.345638036727905273e-01,6.345432400703430176e-01,6.345226764678955078e-01,6.345020532608032227e-01,6.344814896583557129e-01,6.344609260559082031e-01,6.344403624534606934e-01,6.344197988510131836e-01,6.343992352485656738e-01,6.343786716461181641e-01,6.343581080436706543e-01,6.343375444412231445e-01,6.343169808387756348e-01,6.342964172363281250e-01,6.342758536338806152e-01,6.342552900314331055e-01,6.342347264289855957e-01,6.342142224311828613e-01,6.341936588287353516e-01,6.341730952262878418e-01,6.341525316238403320e-01,6.341319680213928223e-01,6.341114044189453125e-01,6.340909004211425781e-01,6.340703368186950684e-01,6.340497732162475586e-01,6.340292692184448242e-01,6.340087056159973145e-01,6.339881420135498047e-01,6.339676380157470703e-01,6.339470744132995605e-01,6.339265704154968262e-01,6.339060664176940918e-01,6.338855028152465820e-01,6.338649392127990723e-01,6.338444352149963379e-01,6.338239312171936035e-01,6.338034272193908691e-01,6.337828636169433594e-01,6.337623000144958496e-01,6.337418556213378906e-01,6.337212920188903809e-01,6.337007284164428711e-01,6.336802840232849121e-01,6.336597204208374023e-01,6.336392164230346680e-01,6.336187124252319336e-01,6.335981488227844238e-01,6.335776448249816895e-01,6.335571408271789551e-01,6.335366368293762207e-01,6.335161328315734863e-01,6.334956288337707520e-01,6.334751248359680176e-01,6.334546208381652832e-01,6.334341168403625488e-01,6.334136128425598145e-01,6.333931088447570801e-01,6.333726048469543457e-01,6.333521008491516113e-01
