5.000000000000000000e+00,5.000000000000000000e+00,5.000000000000000000e+00,5.000000000000000000e+00,5.000000000000000000e+00,5.000000000000000000e+00,5.000000000000000000e+00,5.000000000000000000e+00,5.000000000000000000e+00,5.000000000000000000e+00,5.000000000000000000e+00,5.000000000000000000e+00,5.000000000000000000e+00,5.000000000000000000e+00,5.000000000000000000e+00,5.000000000000000000e+00,5.000000000000000000e+00,5.000000000000000000e+00,5.000000000000000000e+00,5.000000000000000000e+00,5.000000000000000000e+00,5.000000000000000000e+00,5.000000000000000000e+00,5.000000000000000000e+00,5.000000000000000000e+00,5.000000000000000000e+00,5.000000000000000000e+00,5.000000000000000000e+00,5.000000000000000000e+00,5.000000000000000000e+00,5.000000000000000000e+00,5.000000000000000000e+00,5.000000000000000000e+00,5.000000000000000000e+00,5.000000000000000000e+00,5.000000000000000000e+00,5.000000000000000000e+00,5.000000000000000000e+00,5.000000000000000000e+00,4.854371070861816406e+00,4.664053440093994141e+00,4.488096237182617188e+00,4.324932098388671875e+00,4.173216342926025391e+00,4.031783103942871094e+00,3.899622678756713867e+00,3.775851726531982422e+00,3.659695625305175781e+00,3.550472736358642578e+00,3.447580575942993164e+00,3.350484132766723633e+00,3.258706808090209961e+00,3.171823501586914062e+00,3.089452743530273438e+00,3.011251926422119141e+00,2.936912775039672852e+00,2.866154909133911133e+00,2.798726797103881836e+00,2.734397888183593750e+00,2.672960281372070312e+00,2.614222526550292969e+00,1.137677788734436035e+00,1.109800100326538086e+00,1.093273878097534180e+00,1.081269145011901855e+00,1.100342750549316406e+00,1.082491278648376465e+00,2.265703678131103516e+00,1.239187121391296387e+00,1.213203549385070801e+00,1.043998837471008301e+00,1.027310013771057129e+00,1.011146306991577148e+00,9.959587454795837402e-01,9.816126823425292969e-01,9.694607257843017578e-01,9.576058387756347656e-01,9.460374116897583008e-01,9.339545369148254395e-01,9.251176714897155762e-01
5.000000000000000000e+00,5.000000000000000000e+00,5.000000000000000000e+00,5.000000000000000000e+00,5.000000000000000000e+00,5.000000000000000000e+00,5.000000000000000000e+00,5.000000000000000000e+00,5.000000000000000000e+00,5.000000000000000000e+00,5.000000000000000000e+00,5.000000000000000000e+00,5.000000000000000000e+00,5.000000000000000000e+00,5.000000000000000000e+00,5.000000000000000000e+00,5.000000000000000000e+00,5.000000000000000000e+00,5.000000000000000000e+00,5.000000000000000000e+00,5.000000000000000000e+00,5.000000000000000000e+00,5.000000000000000000e+00,5.000000000000000000e+00,5.000000000000000000e+00,5.000000000000000000e+00,5.000000000000000000e+00,5.000000000000000000e+00,5.000000000000000000e+00,5.000000000000000000e+00,5.000000000000000000e+00,5.000000000000000000e+00,5.000000000000000000e+00,5.000000000000000000e+00,5.000000000000000000e+00,5.000000000000000000e+00,5.000000000000000000e+00,5.000000000000000000e+00,5.000000000000000000e+00,4.854508876800537109e+00,4.664181232452392578e+00,4.488214015960693359e+00,4.325041770935058594e+00,4.173318386077880859e+00,4.031878471374511719e+00,3.899712085723876953e+00,3.775935173034667969e+00,3.659774303436279297e+00,3.550546884536743164e+00,3.447650194168090820e+00,3.350549697875976562e+00,3.258769035339355469e+00,3.171882629394531250e+00,3.089508771896362305e+00,3.011305332183837891e+00,2.936963081359863281e+00,2.866203308105468750e+00,2.798772573471069336e+00,2.734441757202148438e+00,2.673002004623413086e+00,2.614262580871582031e+00,1.134520053863525391e+00,1.107184648513793945e+00,1.096490621566772461e+00,1.077995538711547852e+00,2.355455636978149414e+00,1.079138040542602539e+00,2.265733718872070312e+00,1.237913250923156738e+00,1.211982488632202148e+00,1.098659157752990723e+00,1.030820488929748535e+00,1.015052795410156250e+00,9.998486042022705078e-01,9.850933551788330078e-01,9.714498519897460938e-01,9.595467448234558105e-01,9.479315876960754395e-01,9.359813928604125977e-01,9.240911006927490234e-01
5.000000000000000000e+00,5.000000000000000000e+00,5.000000000000000000e+00,5.000000000000000000e+00,5.000000000000000000e+00,5.000000000000000000e+00,5.000000000000000000e+00,5.000000000000000000e+00,5.000000000000000000e+00,5.000000000000000000e+00,5.000000000000000000e+00,5.000000000000000000e+00,5.000000000000000000e+00,5.000000000000000000e+00,5.000000000000000000e+00,5.000000000000000000e+00,5.000000000000000000e+00,5.000000000000000000e+00,5.000000000000000000e+00,5.000000000000000000e+00,5.000000000000000000e+00,5.000000000000000000e+00,5.000000000000000000e+00,5.000000000000000000e+00,5.000000000000000000e+00,5.000000000000000000e+00,5.000000000000000000e+00,5.000000000000000000e+00,5.000000000000000000e+00,5.000000000000000000e+00,5.000000000000000000e+00,5.000000000000000000e+00,5.000000000000000000e+00,5.000000000000000000e+00,5.000000000000000000e+00,5.000000000000000000e+00,5.000000000000000000e+00,5.000000000000000000e+00,5.000000000000000000e+00,4.854647636413574219e+00,4.664308547973632812e+00,4.488332271575927734e+00,4.325151920318603516e+00,4.173420429229736328e+00,4.031973838806152344e+00,3.899801254272460938e+00,3.776018857955932617e+00,3.659852504730224609e+00,3.550620794296264648e+00,3.447720050811767578e+00,3.350615501403808594e+00,3.258831262588500977e+00,3.171941280364990234e+00,3.089564800262451172e+00,3.011358499526977539e+00,2.937013626098632812e+00,2.866251230239868164e+00,2.798818349838256836e+00,2.734485864639282227e+00,2.673043966293334961e+00,2.614302635192871094e+00,1.139538526535034180e+00,1.119035720825195312e+00,1.095823049545288086e+00,1.073999166488647461e+00,2.355487823486328125e+00,1.077929973602294922e+00,1.266091227531433105e+00,1.236641883850097656e+00,1.210763812065124512e+00,1.195433855056762695e+00,1.048168897628784180e+00,1.019093632698059082e+00,1.003769040107727051e+00,9.888986945152282715e-01,9.744623899459838867e-01,9.614953398704528809e-01,9.498334527015686035e-01,9.380169510841369629e-01,9.260752797126770020e-01
5.000000000000000000e+00,5.000000000000000000e+00,5.000000000000000000e+00,5.000000000000000000e+00,5.000000000000000000e+00,5.000000000000000000e+00,5.000000000000000000e+00,5.000000000000000000e+00,5.000000000000000000e+00,5.000000000000000000e+00,5.000000000000000000e+00,5.000000000000000000e+00,5.000000000000000000e+00,5.000000000000000000e+00,5.000000000000000000e+00,5.000000000000000000e+00,5.000000000000000000e+00,5.000000000000000000e+00,5.000000000000000000e+00,5.000000000000000000e+00,5.000000000000000000e+00,5.000000000000000000e+00,5.000000000000000000e+00,5.000000000000000000e+00,5.000000000000000000e+00,5.000000000000000000e+00,5.000000000000000000e+00,5.000000000000000000e+00,5.000000000000000000e+00,5.000000000000000000e+00,5.000000000000000000e+00,5.000000000000000000e+00,5.000000000000000000e+00,5.000000000000000000e+00,5.000000000000000000e+00,5.000000000000000000e+00,5.000000000000000000e+00,5.000000000000000000e+00,5.000000000000000000e+00,4.854785442352294922e+00,4.664435863494873047e+00,4.488450527191162109e+00,4.325261116027832031e+00,4.173522472381591797e+00,4.032069206237792969e+00,3.899890661239624023e+00,3.776102542877197266e+00,3.659931182861328125e+00,3.550694465637207031e+00,3.447789430618286133e+00,3.350681543350219727e+00,3.258893728256225586e+00,3.172000408172607422e+00,3.089620590209960938e+00,3.011411666870117188e+00,2.937064409255981445e+00,2.866299390792846680e+00,2.798864364624023438e+00,2.734529495239257812e+00,2.673085927963256836e+00,2.614342689514160156e+00,1.145954728126525879e+00,1.117371320724487305e+00,1.090460777282714844e+00,1.073334097862243652e+00,1.065896391868591309e+00,2.309786081314086914e+00,1.265635371208190918e+00,1.235373258590698242e+00,1.212257742881774902e+00,1.197076201438903809e+00,1.182157754898071289e+00,1.021534442901611328e+00,1.007046103477478027e+00,9.927334785461425781e-01,9.781858325004577637e-01,9.640585184097290039e-01,9.517427682876586914e-01,9.400614500045776367e-01,9.280679225921630859e-01
5.000000000000000000e+00,5.000000000000000000e+00,5.000000000000000000e+00,5.000000000000000000e+00,5.000000000000000000e+00,5.000000000000000000e+00,5.000000000000000000e+00,5.000000000000000000e+00,5.000000000000000000e+00,5.000000000000000000e+00,5.000000000000000000e+00,5.000000000000000000e+00,5.000000000000000000e+00,5.000000000000000000e+00,5.000000000000000000e+00,5.000000000000000000e+00,5.000000000000000000e+00,5.000000000000000000e+00,5.000000000000000000e+00,5.000000000000000000e+00,5.000000000000000000e+00,5.000000000000000000e+00,5.000000000000000000e+00,5.000000000000000000e+00,5.000000000000000000e+00,5.000000000000000000e+00,5.000000000000000000e+00,5.000000000000000000e+00,5.000000000000000000e+00,5.000000000000000000e+00,5.000000000000000000e+00,5.000000000000000000e+00,5.000000000000000000e+00,5.000000000000000000e+00,5.000000000000000000e+00,5.000000000000000000e+00,5.000000000000000000e+00,5.000000000000000000e+00,5.000000000000000000e+00,4.854923248291015625e+00,4.664563655853271484e+00,4.488568305969238281e+00,4.325371265411376953e+00,4.173624515533447266e+00,4.032164573669433594e+00,3.899979352951049805e+00,3.776185750961303711e+00,3.660009860992431641e+00,3.550768613815307617e+00,3.447859287261962891e+00,3.350747108459472656e+00,3.258955955505371094e+00,3.172059535980224609e+00,3.089676618576049805e+00,3.011464595794677734e+00,2.937114715576171875e+00,2.866347789764404297e+00,2.798910379409790039e+00,2.734573364257812500e+00,2.673127651214599609e+00,2.614382743835449219e+00,1.143157958984375000e+00,1.113813042640686035e+00,1.086336374282836914e+00,2.403135776519775391e+00,1.060218095779418945e+00,2.309817314147949219e+00,1.265179991722106934e+00,1.234267711639404297e+00,1.213961243629455566e+00,1.198621749877929688e+00,1.183664917945861816e+00,1.076597213745117188e+00,1.009285688400268555e+00,9.951404929161071777e-01,9.813860654830932617e-01,9.677028059959411621e-01,9.538744091987609863e-01,9.421148300170898438e-01,9.300692677497863770e-01
5.000000000000000000e+00,5.000000000000000000e+00,5.000000000000000000e+00,5.000000000000000000e+00,5.000000000000000000e+00,5.000000000000000000e+00,5.000000000000000000e+00,5.000000000000000000e+00,5.000000000000000000e+00,5.000000000000000000e+00,5.000000000000000000e+00,5.000000000000000000e+00,5.000000000000000000e+00,5.000000000000000000e+00,5.000000000000000000e+00,5.000000000000000000e+00,5.000000000000000000e+00,5.000000000000000000e+00,5.000000000000000000e+00,5.000000000000000000e+00,5.000000000000000000e+00,5.000000000000000000e+00,5.000000000000000000e+00,5.000000000000000000e+00,5.000000000000000000e+00,5.000000000000000000e+00,5.000000000000000000e+00,5.000000000000000000e+00,5.000000000000000000e+00,5.000000000000000000e+00,5.000000000000000000e+00,5.000000000000000000e+00,5.000000000000000000e+00,5.000000000000000000e+00,5.000000000000000000e+00,5.000000000000000000e+00,5.000000000000000000e+00,5.000000000000000000e+00,5.000000000000000000e+00,4.855062007904052734e+00,4.664690971374511719e+00,4.488686561584472656e+00,4.325480461120605469e+00,4.173726558685302734e+00,4.032259941101074219e+00,3.900068759918212891e+00,3.776269435882568359e+00,3.660088062286376953e+00,3.550842523574829102e+00,3.447929143905639648e+00,3.350812911987304688e+00,3.259017944335937500e+00,3.172118186950683594e+00,3.089732646942138672e+00,3.011518001556396484e+00,2.937165498733520508e+00,2.866395711898803711e+00,2.798956394195556641e+00,2.734617233276367188e+00,2.673169612884521484e+00,2.614422798156738281e+00,1.144956827163696289e+00,1.110398650169372559e+00,1.082487702369689941e+00,2.403169870376586914e+00,2.355585336685180664e+00,2.309848785400390625e+00,1.264724969863891602e+00,1.233617544174194336e+00,1.215378522872924805e+00,1.200110435485839844e+00,1.185176134109497070e+00,1.175394773483276367e+00,1.026657581329345703e+00,9.973273873329162598e-01,9.835129976272583008e-01,9.700759649276733398e-01,9.570012092590332031e-01,9.440648555755615234e-01,9.321605563163757324e-01
5.000000000000000000e+00,5.000000000000000000e+00,5.000000000000000000e+00,5.000000000000000000e+00,5.000000000000000000e+00,5.000000000000000000e+00,5.000000000000000000e+00,5.000000000000000000e+00,5.000000000000000000e+00,5.000000000000000000e+00,5.000000000000000000e+00,5.000000000000000000e+00,5.000000000000000000e+00,5.000000000000000000e+00,5.000000000000000000e+00,5.000000000000000000e+00,5.000000000000000000e+00,5.000000000000000000e+00,5.000000000000000000e+00,5.000000000000000000e+00,5.000000000000000000e+00,5.000000000000000000e+00,5.000000000000000000e+00,5.000000000000000000e+00,5.000000000000000000e+00,5.000000000000000000e+00,5.000000000000000000e+00,5.000000000000000000e+00,5.000000000000000000e+00,5.000000000000000000e+00,5.000000000000000000e+00,5.000000000000000000e+00,5.000000000000000000e+00,5.000000000000000000e+00,5.000000000000000000e+00,5.000000000000000000e+00,5.000000000000000000e+00,5.000000000000000000e+00,5.000000000000000000e+00,4.855199813842773438e+00,4.664818763732910156e+00,4.488804817199707031e+00,4.325590133666992188e+00,4.173828601837158203e+00,4.032354831695556641e+00,3.900157928466796875e+00,3.776353120803833008e+00,3.660166740417480469e+00,3.550916194915771484e+00,3.447998762130737305e+00,3.350878953933715820e+00,3.259080410003662109e+00,3.172177314758300781e+00,3.089788436889648438e+00,3.011571168899536133e+00,2.937216043472290039e+00,2.866443872451782227e+00,2.799002170562744141e+00,2.734660863876342773e+00,2.673211574554443359e+00,2.614462852478027344e+00,2.558240890502929688e+00,2.504385709762573242e+00,2.452751874923706055e+00,2.403203725814819336e+00,2.355618000030517578e+00,2.309879779815673828e+00,1.263033509254455566e+00,1.231974482536315918e+00,1.215805530548095703e+00,1.200526833534240723e+00,1.185926079750061035e+00,1.181151151657104492e+00,1.181289553642272949e+00,9.995238184928894043e-01,9.856489300727844238e-01,9.721540212631225586e-01,9.590842723846435547e-01,9.465315341949462891e-01,9.344584345817565918e-01
5.000000000000000000e+00,5.000000000000000000e+00,5.000000000000000000e+00,5.000000000000000000e+00,5.000000000000000000e+00,5.000000000000000000e+00,5.000000000000000000e+00,5.000000000000000000e+00,5.000000000000000000e+00,5.000000000000000000e+00,5.000000000000000000e+00,5.000000000000000000e+00,5.000000000000000000e+00,5.000000000000000000e+00,5.000000000000000000e+00,5.000000000000000000e+00,5.000000000000000000e+00,5.000000000000000000e+00,5.000000000000000000e+00,5.000000000000000000e+00,5.000000000000000000e+00,5.000000000000000000e+00,5.000000000000000000e+00,5.000000000000000000e+00,5.000000000000000000e+00,5.000000000000000000e+00,5.000000000000000000e+00,5.000000000000000000e+00,5.000000000000000000e+00,5.000000000000000000e+00,5.000000000000000000e+00,5.000000000000000000e+00,5.000000000000000000e+00,5.000000000000000000e+00,5.000000000000000000e+00,5.000000000000000000e+00,5.000000000000000000e+00,5.000000000000000000e+00,5.000000000000000000e+00,4.855338096618652344e+00,4.664946556091308594e+00,4.488922595977783203e+00,4.325700283050537109e+00,4.173930644989013672e+00,4.032450199127197266e+00,3.900246858596801758e+00,3.776437044143676758e+00,3.660245418548583984e+00,3.550990343093872070e+00,3.448068380355834961e+00,3.350944519042968750e+00,3.259142637252807617e+00,3.172236442565917969e+00,3.089844465255737305e+00,3.011624097824096680e+00,2.937266588211059570e+00,2.866492271423339844e+00,2.799048185348510742e+00,2.734704732894897461e+00,2.673253297805786133e+00,2.614502906799316406e+00,2.558279037475585938e+00,2.504422664642333984e+00,2.452786922454833984e+00,2.403237342834472656e+00,2.355650424957275391e+00,2.309911251068115234e+00,1.261311292648315430e+00,1.231916546821594238e+00,1.216232895851135254e+00,1.200943470001220703e+00,1.188567996025085449e+00,1.186587452888488770e+00,1.187181591987609863e+00,1.187321424484252930e+00,9.879546761512756348e-01,9.746489524841308594e-01,9.616968631744384766e-01,9.490844607353210449e-01,9.355810880661010742e-01
5.000000000000000000e+00,5.000000000000000000e+00,5.000000000000000000e+00,5.000000000000000000e+00,5.000000000000000000e+00,5.000000000000000000e+00,5.000000000000000000e+00,5.000000000000000000e+00,5.000000000000000000e+00,5.000000000000000000e+00,5.000000000000000000e+00,5.000000000000000000e+00,5.000000000000000000e+00,5.000000000000000000e+00,5.000000000000000000e+00,5.000000000000000000e+00,5.000000000000000000e+00,5.000000000000000000e+00,5.000000000000000000e+00,5.000000000000000000e+00,5.000000000000000000e+00,5.000000000000000000e+00,5.000000000000000000e+00,5.000000000000000000e+00,5.000000000000000000e+00,5.000000000000000000e+00,5.000000000000000000e+00,5.000000000000000000e+00,5.000000000000000000e+00,5.000000000000000000e+00,5.000000000000000000e+00,5.000000000000000000e+00,5.000000000000000000e+00,5.000000000000000000e+00,5.000000000000000000e+00,5.000000000000000000e+00,5.000000000000000000e+00,5.000000000000000000e+00,5.000000000000000000e+00,4.855476379394531250e+00,4.665073871612548828e+00,4.489040851593017578e+00,4.325809478759765625e+00,4.174033164978027344e+00,4.032545566558837891e+00,3.900336265563964844e+00,3.776520252227783203e+00,3.660323619842529297e+00,3.551064252853393555e+00,3.448137998580932617e+00,3.351010560989379883e+00,3.259204864501953125e+00,3.172295570373535156e+00,3.089900493621826172e+00,3.011677503585815430e+00,2.937317132949829102e+00,2.866540193557739258e+00,2.799094200134277344e+00,2.734748840332031250e+00,2.673295259475708008e+00,2.614542722702026367e+00,2.558317422866821289e+00,2.504459381103515625e+00,2.452822208404541016e+00,2.403271198272705078e+00,2.355682849884033203e+00,2.309942483901977539e+00,1.259736061096191406e+00,1.232355356216430664e+00,1.216660499572753906e+00,1.203533291816711426e+00,1.191221714019775391e+00,1.191662430763244629e+00,1.193132758140563965e+00,1.193274021148681641e+00,1.004993796348571777e+00,9.768264889717102051e-01,9.618012309074401855e-01,9.472312331199645996e-01,9.333679676055908203e-01
5.000000000000000000e+00,5.000000000000000000e+00,5.000000000000000000e+00,5.000000000000000000e+00,5.000000000000000000e+00,5.000000000000000000e+00,5.000000000000000000e+00,5.000000000000000000e+00,5.000000000000000000e+00,5.000000000000000000e+00,5.000000000000000000e+00,5.000000000000000000e+00,5.000000000000000000e+00,5.000000000000000000e+00,5.000000000000000000e+00,5.000000000000000000e+00,5.000000000000000000e+00,5.000000000000000000e+00,5.000000000000000000e+00,5.000000000000000000e+00,5.000000000000000000e+00,5.000000000000000000e+00,5.000000000000000000e+00,5.000000000000000000e+00,5.000000000000000000e+00,5.000000000000000000e+00,5.000000000000000000e+00,5.000000000000000000e+00,5.000000000000000000e+00,5.000000000000000000e+00,5.000000000000000000e+00,5.000000000000000000e+00,5.000000000000000000e+00,5.000000000000000000e+00,5.000000000000000000e+00,5.000000000000000000e+00,5.000000000000000000e+00,5.000000000000000000e+00,5.000000000000000000e+00,4.855614662170410156e+00,4.665201663970947266e+00,4.489159107208251953e+00,4.325919628143310547e+00,4.174135208129882812e+00,4.032640933990478516e+00,3.900425434112548828e+00,3.776603937149047852e+00,3.660402297973632812e+00,3.551137924194335938e+00,3.448207855224609375e+00,3.351076364517211914e+00,3.259267091751098633e+00,3.172354221343994141e+00,3.089956283569335938e+00,3.011730670928955078e+00,2.937367677688598633e+00,2.866588354110717773e+00,2.799139976501464844e+00,2.734792470932006836e+00,2.673336982727050781e+00,2.614582777023315430e+00,2.558355808258056641e+00,2.504496097564697266e+00,2.452857494354248047e+00,2.403305292129516602e+00,2.355715513229370117e+00,1.305956482887268066e+00,1.260541319847106934e+00,1.232794284820556641e+00,1.218880295753479004e+00,1.206254363059997559e+00,1.193887352943420410e+00,1.196780920028686523e+00,1.199143886566162109e+00,1.221634984016418457e+00,1.015482306480407715e+00,9.760155677795410156e-01,9.605466127395629883e-01,9.454199671745300293e-01,9.329770803451538086e-01
5.000000000000000000e+00,5.000000000000000000e+00,5.000000000000000000e+00,5.000000000000000000e+00,5.000000000000000000e+00,5.000000000000000000e+00,5.000000000000000000e+00,5.000000000000000000e+00,5.000000000000000000e+00,5.000000000000000000e+00,5.000000000000000000e+00,5.000000000000000000e+00,5.000000000000000000e+00,5.000000000000000000e+00,5.000000000000000000e+00,5.000000000000000000e+00,5.000000000000000000e+00,5.000000000000000000e+00,5.000000000000000000e+00,5.000000000000000000e+00,5.000000000000000000e+00,5.000000000000000000e+00,5.000000000000000000e+00,5.000000000000000000e+00,5.000000000000000000e+00,5.000000000000000000e+00,5.000000000000000000e+00,5.000000000000000000e+00,5.000000000000000000e+00,5.000000000000000000e+00,5.000000000000000000e+00,5.000000000000000000e+00,5.000000000000000000e+00,5.000000000000000000e+00,5.000000000000000000e+00,5.000000000000000000e+00,5.000000000000000000e+00,5.000000000000000000e+00,5.000000000000000000e+00,4.855752944946289062e+00,4.665328979492187500e+00,4.489277362823486328e+00,4.326029300689697266e+00,4.174237251281738281e+00,4.032736301422119141e+00,3.900514364242553711e+00,3.776687860488891602e+00,3.660480976104736328e+00,3.551212072372436523e+00,3.448277473449707031e+00,3.351142406463623047e+00,3.259329557418823242e+00,3.172413349151611328e+00,3.090012311935424805e+00,3.011783599853515625e+00,2.937418460845947266e+00,2.866636753082275391e+00,2.799185991287231445e+00,2.734836101531982422e+00,2.673378705978393555e+00,2.614623069763183594e+00,2.558394193649291992e+00,2.504532814025878906e+00,2.452892780303955078e+00,2.403339147567749023e+00,2.355748176574707031e+00,1.306821942329406738e+00,1.261347532272338867e+00,1.234623670578002930e+00,1.221671223640441895e+00,1.208987712860107422e+00,1.198397636413574219e+00,1.201943755149841309e+00,1.205215930938720703e+00,1.999414920806884766e+00,1.002415657043457031e+00,9.740480780601501465e-01,9.584967494010925293e-01,9.434779882431030273e-01,9.322672486305236816e-01
5.000000000000000000e+00,5.000000000000000000e+00,5.000000000000000000e+00,5.000000000000000000e+00,5.000000000000000000e+00,5.000000000000000000e+00,5.000000000000000000e+00,5.000000000000000000e+00,5.000000000000000000e+00,5.000000000000000000e+00,5.000000000000000000e+00,5.000000000000000000e+00,5.000000000000000000e+00,5.000000000000000000e+00,5.000000000000000000e+00,5.000000000000000000e+00,5.000000000000000000e+00,5.000000000000000000e+00,5.000000000000000000e+00,5.000000000000000000e+00,5.000000000000000000e+00,5.000000000000000000e+00,5.000000000000000000e+00,5.000000000000000000e+00,5.000000000000000000e+00,5.000000000000000000e+00,5.000000000000000000e+00,5.000000000000000000e+00,5.000000000000000000e+00,5.000000000000000000e+00,5.000000000000000000e+00,5.000000000000000000e+00,5.000000000000000000e+00,5.000000000000000000e+00,5.000000000000000000e+00,5.000000000000000000e+00,5.000000000000000000e+00,5.000000000000000000e+00,5.000000000000000000e+00,4.855890750885009766e+00,4.665456771850585938e+00,4.489395618438720703e+00,4.326138973236083984e+00,4.174339294433593750e+00,4.032831668853759766e+00,3.900603771209716797e+00,3.776771068572998047e+00,3.660559654235839844e+00,3.551285982131958008e+00,3.448347091674804688e+00,3.351207971572875977e+00,3.259391546249389648e+00,3.172472476959228516e+00,3.090068340301513672e+00,3.011836767196655273e+00,2.937468767166137695e+00,2.866684913635253906e+00,2.799231767654418945e+00,2.734879970550537109e+00,2.673420667648315430e+00,2.614662885665893555e+00,2.558432579040527344e+00,2.504569768905639648e+00,2.452928066253662109e+00,2.403372764587402344e+00,2.355780601501464844e+00,1.303636908531188965e+00,1.258275508880615234e+00,1.236821055412292480e+00,1.224101305007934570e+00,1.211640357971191406e+00,1.203574419021606445e+00,1.207151293754577637e+00,1.210749387741088867e+00,1.999438285827636719e+00,9.912642240524291992e-01,9.719402194023132324e-01,9.564555287361145020e-01,9.427520632743835449e-01,9.320060610771179199e-01
5.000000000000000000e+00,5.000000000000000000e+00,5.000000000000000000e+00,5.000000000000000000e+00,5.000000000000000000e+00,5.000000000000000000e+00,5.000000000000000000e+00,5.000000000000000000e+00,5.000000000000000000e+00,5.000000000000000000e+00,5.000000000000000000e+00,5.000000000000000000e+00,5.000000000000000000e+00,5.000000000000000000e+00,5.000000000000000000e+00,5.000000000000000000e+00,5.000000000000000000e+00,5.000000000000000000e+00,5.000000000000000000e+00,5.000000000000000000e+00,5.000000000000000000e+00,5.000000000000000000e+00,5.000000000000000000e+00,5.000000000000000000e+00,5.000000000000000000e+00,5.000000000000000000e+00,5.000000000000000000e+00,5.000000000000000000e+00,5.000000000000000000e+00,5.000000000000000000e+00,5.000000000000000000e+00,5.000000000000000000e+00,5.000000000000000000e+00,5.000000000000000000e+00,5.000000000000000000e+00,5.000000000000000000e+00,5.000000000000000000e+00,5.000000000000000000e+00,5.000000000000000000e+00,4.856029510498046875e+00,4.665584087371826172e+00,4.489513397216796875e+00,4.326248645782470703e+00,4.174441337585449219e+00,4.032927036285400391e+00,3.900692939758300781e+00,3.776854753494262695e+00,3.660637855529785156e+00,3.551359653472900391e+00,3.448416948318481445e+00,3.351273775100708008e+00,3.259454011917114258e+00,3.172531127929687500e+00,3.090124368667602539e+00,3.011890172958374023e+00,2.937519550323486328e+00,2.866732597351074219e+00,2.799277544021606445e+00,2.734923839569091797e+00,2.673462629318237305e+00,2.614703178405761719e+00,2.558470726013183594e+00,2.504606485366821289e+00,2.452963352203369141e+00,2.403406858444213867e+00,1.332789063453674316e+00,1.290532231330871582e+00,1.255863785743713379e+00,1.241114735603332520e+00,1.227256536483764648e+00,1.214816689491271973e+00,1.211455345153808594e+00,1.215129852294921875e+00,1.218204379081726074e+00,1.999461650848388672e+00,9.903260469436645508e-01,9.698414802551269531e-01,9.544230699539184570e-01,9.420273900032043457e-01,9.333103299140930176e-01
5.000000000000000000e+00,5.000000000000000000e+00,5.000000000000000000e+00,5.000000000000000000e+00,5.000000000000000000e+00,5.000000000000000000e+00,5.000000000000000000e+00,5.000000000000000000e+00,5.000000000000000000e+00,5.000000000000000000e+00,5.000000000000000000e+00,5.000000000000000000e+00,5.000000000000000000e+00,5.000000000000000000e+00,5.000000000000000000e+00,5.000000000000000000e+00,5.000000000000000000e+00,5.000000000000000000e+00,5.000000000000000000e+00,5.000000000000000000e+00,5.000000000000000000e+00,5.000000000000000000e+00,5.000000000000000000e+00,5.000000000000000000e+00,5.000000000000000000e+00,5.000000000000000000e+00,5.000000000000000000e+00,5.000000000000000000e+00,5.000000000000000000e+00,5.000000000000000000e+00,5.000000000000000000e+00,5.000000000000000000e+00,5.000000000000000000e+00,5.000000000000000000e+00,5.000000000000000000e+00,5.000000000000000000e+00,5.000000000000000000e+00,5.000000000000000000e+00,5.000000000000000000e+00,4.856167316436767578e+00,4.665711879730224609e+00,4.489631652832031250e+00,4.326358318328857422e+00,4.174543857574462891e+00,4.033022403717041016e+00,3.900782346725463867e+00,3.776938438415527344e+00,3.660716533660888672e+00,3.551433801651000977e+00,3.448486566543579102e+00,3.351339817047119141e+00,3.259516239166259766e+00,3.172590255737304688e+00,3.090180158615112305e+00,3.011943101882934570e+00,2.937569856643676758e+00,2.866780996322631836e+00,2.799323558807373047e+00,2.734967708587646484e+00,2.673504590988159180e+00,2.614743232727050781e+00,2.558509349822998047e+00,2.504643201828002930e+00,2.452998399734497070e+00,1.356304168701171875e+00,1.314659714698791504e+00,1.280870556831359863e+00,1.263776898384094238e+00,1.247490167617797852e+00,1.233130574226379395e+00,1.219097852706909180e+00,1.220683574676513672e+00,1.223902821540832520e+00,2.033665657043457031e+00,1.999485254287719727e+00,9.893895387649536133e-01,9.677518010139465332e-01,9.527340531349182129e-01,9.428101181983947754e-01,9.346181154251098633e-01
5.000000000000000000e+00,5.000000000000000000e+00,5.000000000000000000e+00,5.000000000000000000e+00,5.000000000000000000e+00,5.000000000000000000e+00,5.000000000000000000e+00,5.000000000000000000e+00,5.000000000000000000e+00,5.000000000000000000e+00,5.000000000000000000e+00,5.000000000000000000e+00,5.000000000000000000e+00,5.000000000000000000e+00,5.000000000000000000e+00,5.000000000000000000e+00,5.000000000000000000e+00,5.000000000000000000e+00,5.000000000000000000e+00,5.000000000000000000e+00,5.000000000000000000e+00,5.000000000000000000e+00,5.000000000000000000e+00,5.000000000000000000e+00,5.000000000000000000e+00,5.000000000000000000e+00,5.000000000000000000e+00,5.000000000000000000e+00,5.000000000000000000e+00,5.000000000000000000e+00,5.000000000000000000e+00,5.000000000000000000e+00,5.000000000000000000e+00,5.000000000000000000e+00,5.000000000000000000e+00,5.000000000000000000e+00,5.000000000000000000e+00,5.000000000000000000e+00,5.000000000000000000e+00,4.856305599212646484e+00,4.665839672088623047e+00,4.489749908447265625e+00,4.326467990875244141e+00,4.174645900726318359e+00,4.033117771148681641e+00,3.900871276855468750e+00,3.777021884918212891e+00,3.660795211791992188e+00,3.551507711410522461e+00,3.448556184768676758e+00,3.351405382156372070e+00,3.259578704833984375e+00,3.172649383544921875e+00,3.090236425399780273e+00,3.011996269226074219e+00,2.937620401382446289e+00,2.866829156875610352e+00,2.799369573593139648e+00,2.735011577606201172e+00,2.673546314239501953e+00,2.614783048629760742e+00,2.558547735214233398e+00,2.504679918289184570e+00,1.380312561988830566e+00,1.339598655700683594e+00,1.308527231216430664e+00,1.290692448616027832e+00,1.273337364196777344e+00,1.256442785263061523e+00,1.240507245063781738e+00,1.238869428634643555e+00,1.239402532577514648e+00,2.069060087203979492e+00,2.033689975738525391e+00,1.999508619308471680e+00,9.884548783302307129e-01,9.659041762351989746e-01,9.525054693222045898e-01,9.441447257995605469e-01,9.359295964241027832e-01
5.000000000000000000e+00,5.000000000000000000e+00,5.000000000000000000e+00,5.000000000000000000e+00,5.000000000000000000e+00,5.000000000000000000e+00,5.000000000000000000e+00,5.000000000000000000e+00,5.000000000000000000e+00,5.000000000000000000e+00,5.000000000000000000e+00,5.000000000000000000e+00,5.000000000000000000e+00,5.000000000000000000e+00,5.000000000000000000e+00,5.000000000000000000e+00,5.000000000000000000e+00,5.000000000000000000e+00,5.000000000000000000e+00,5.000000000000000000e+00,5.000000000000000000e+00,5.000000000000000000e+00,5.000000000000000000e+00,5.000000000000000000e+00,5.000000000000000000e+00,5.000000000000000000e+00,5.000000000000000000e+00,5.000000000000000000e+00,5.000000000000000000e+00,5.000000000000000000e+00,5.000000000000000000e+00,5.000000000000000000e+00,5.000000000000000000e+00,5.000000000000000000e+00,5.000000000000000000e+00,5.000000000000000000e+00,5.000000000000000000e+00,5.000000000000000000e+00,5.000000000000000000e+00,4.856443881988525391e+00,4.665966987609863281e+00,4.489868164062500000e+00,4.326577663421630859e+00,4.174747943878173828e+00,4.033213138580322266e+00,3.900960445404052734e+00,3.777105569839477539e+00,3.660873413085937500e+00,3.551581859588623047e+00,3.448626041412353516e+00,3.351471424102783203e+00,3.259640693664550781e+00,3.172708272933959961e+00,3.090292215347290039e+00,3.012049436569213867e+00,2.937670946121215820e+00,2.866877079010009766e+00,2.799415588378906250e+00,2.735055446624755859e+00,2.673588275909423828e+00,2.614823341369628906e+00,2.558585882186889648e+00,2.504716873168945312e+00,1.364307284355163574e+00,1.337404608726501465e+00,1.317607879638671875e+00,1.298285961151123047e+00,1.279522418975830078e+00,1.269338488578796387e+00,1.263781666755676270e+00,1.263229966163635254e+00,2.105708837509155273e+00,2.069085359573364258e+00,2.033714056015014648e+00,1.999531984329223633e+00,9.877849221229553223e-01,9.652724266052246094e-01,9.537916183471679688e-01,9.453390240669250488e-01,9.370347857475280762e-01
5.000000000000000000e+00,5.000000000000000000e+00,5.000000000000000000e+00,5.000000000000000000e+00,5.000000000000000000e+00,5.000000000000000000e+00,5.000000000000000000e+00,5.000000000000000000e+00,5.000000000000000000e+00,5.000000000000000000e+00,5.000000000000000000e+00,5.000000000000000000e+00,5.000000000000000000e+00,5.000000000000000000e+00,5.000000000000000000e+00,5.000000000000000000e+00,5.000000000000000000e+00,5.000000000000000000e+00,5.000000000000000000e+00,5.000000000000000000e+00,5.000000000000000000e+00,5.000000000000000000e+00,5.000000000000000000e+00,5.000000000000000000e+00,5.000000000000000000e+00,5.000000000000000000e+00,5.000000000000000000e+00,5.000000000000000000e+00,5.000000000000000000e+00,5.000000000000000000e+00,5.000000000000000000e+00,5.000000000000000000e+00,5.000000000000000000e+00,5.000000000000000000e+00,5.000000000000000000e+00,5.000000000000000000e+00,5.000000000000000000e+00,5.000000000000000000e+00,5.000000000000000000e+00,4.856582164764404297e+00,4.666094779968261719e+00,4.489986419677734375e+00,4.326687335968017578e+00,4.174850463867187500e+00,4.033308506011962891e+00,3.901049852371215820e+00,3.777189493179321289e+00,3.660952329635620117e+00,3.551655530929565430e+00,3.448695659637451172e+00,3.351537227630615234e+00,3.259703159332275391e+00,3.172767162322998047e+00,3.090348005294799805e+00,3.012102603912353516e+00,2.937721729278564453e+00,2.866925477981567383e+00,2.799461364746093750e+00,2.735099077224731445e+00,2.673630237579345703e+00,2.614863395690917969e+00,2.558624267578125000e+00,1.399843215942382812e+00,1.361086130142211914e+00,1.341895461082458496e+00,1.322628021240234375e+00,1.309569716453552246e+00,1.299541831016540527e+00,1.289716482162475586e+00,1.289142012596130371e+00,2.143678903579711914e+00,2.105734825134277344e+00,2.069110393524169922e+00,2.033738374710083008e+00,1.999555468559265137e+00,9.912316203117370605e-01,9.685634970664978027e-01,9.548397064208984375e-01,9.463685154914855957e-01,9.380462765693664551e-01
5.000000000000000000e+00,5.000000000000000000e+00,5.000000000000000000e+00,5.000000000000000000e+00,5.000000000000000000e+00,5.000000000000000000e+00,5.000000000000000000e+00,5.000000000000000000e+00,5.000000000000000000e+00,5.000000000000000000e+00,5.000000000000000000e+00,5.000000000000000000e+00,5.000000000000000000e+00,5.000000000000000000e+00,5.000000000000000000e+00,5.000000000000000000e+00,5.000000000000000000e+00,5.000000000000000000e+00,5.000000000000000000e+00,5.000000000000000000e+00,5.000000000000000000e+00,5.000000000000000000e+00,5.000000000000000000e+00,5.000000000000000000e+00,5.000000000000000000e+00,5.000000000000000000e+00,5.000000000000000000e+00,5.000000000000000000e+00,5.000000000000000000e+00,5.000000000000000000e+00,5.000000000000000000e+00,5.000000000000000000e+00,5.000000000000000000e+00,5.000000000000000000e+00,5.000000000000000000e+00,5.000000000000000000e+00,5.000000000000000000e+00,5.000000000000000000e+00,5.000000000000000000e+00,4.856720447540283203e+00,4.666222572326660156e+00,4.490104198455810547e+00,4.326797485351562500e+00,4.174952507019042969e+00,4.033403873443603516e+00,3.901138782501220703e+00,3.777273178100585938e+00,3.661031007766723633e+00,3.551729679107666016e+00,3.448765277862548828e+00,3.351602792739868164e+00,3.259765386581420898e+00,3.172826290130615234e+00,3.090404033660888672e+00,3.012155771255493164e+00,2.937772035598754883e+00,2.866973638534545898e+00,2.799507379531860352e+00,2.735143184661865234e+00,2.673672199249267578e+00,2.614903688430786133e+00,2.558662891387939453e+00,1.388226389884948730e+00,1.363524794578552246e+00,1.344265937805175781e+00,1.333737015724182129e+00,1.328890800476074219e+00,1.320856928825378418e+00,2.223852157592773438e+00,2.183043718338012695e+00,2.143706083297729492e+00,2.105760812759399414e+00,2.069135427474975586e+00,2.033762693405151367e+00,1.999578833580017090e+00,9.946980476379394531e-01,9.718770980834960938e-01,9.558899998664855957e-01,9.474002122879028320e-01,9.390600323677062988e-01
5.000000000000000000e+00,5.000000000000000000e+00,5.000000000000000000e+00,5.000000000000000000e+00,5.000000000000000000e+00,5.000000000000000000e+00,5.000000000000000000e+00,5.000000000000000000e+00,5.000000000000000000e+00,5.000000000000000000e+00,5.000000000000000000e+00,5.000000000000000000e+00,5.000000000000000000e+00,5.000000000000000000e+00,5.000000000000000000e+00,5.000000000000000000e+00,5.000000000000000000e+00,5.000000000000000000e+00,5.000000000000000000e+00,5.000000000000000000e+00,5.000000000000000000e+00,5.000000000000000000e+00,5.000000000000000000e+00,5.000000000000000000e+00,5.000000000000000000e+00,5.000000000000000000e+00,5.000000000000000000e+00,5.000000000000000000e+00,5.000000000000000000e+00,5.000000000000000000e+00,5.000000000000000000e+00,5.000000000000000000e+00,5.000000000000000000e+00,5.000000000000000000e+00,5.000000000000000000e+00,5.000000000000000000e+00,5.000000000000000000e+00,5.000000000000000000e+00,5.000000000000000000e+00,4.856856822967529297e+00,4.666349887847900391e+00,4.490222454071044922e+00,4.326907157897949219e+00,4.175054550170898438e+00,4.033499240875244141e+00,3.901228189468383789e+00,3.777356624603271484e+00,3.661109209060668945e+00,3.551803588867187500e+00,3.448835134506225586e+00,3.351668596267700195e+00,3.259827375411987305e+00,3.172885179519653320e+00,3.090460062026977539e+00,3.012208938598632812e+00,2.937822580337524414e+00,2.867021799087524414e+00,2.799553394317626953e+00,2.735187053680419922e+00,2.673714160919189453e+00,2.614943504333496094e+00,1.426023244857788086e+00,1.385862946510314941e+00,1.366134524345397949e+00,1.349461317062377930e+00,1.345665574073791504e+00,1.340732336044311523e+00,2.266245603561401367e+00,2.223881244659423828e+00,2.183071613311767578e+00,2.143732786178588867e+00,2.105786800384521484e+00,2.069160699844360352e+00,2.033786773681640625e+00,1.999602198600769043e+00,9.970116615295410156e-01,9.752134680747985840e-01,9.569425582885742188e-01,9.484342932701110840e-01,9.400854706764221191e-01
5.000000000000000000e+00,5.000000000000000000e+00,5.000000000000000000e+00,5.000000000000000000e+00,5.000000000000000000e+00,5.000000000000000000e+00,5.000000000000000000e+00,5.000000000000000000e+00,5.000000000000000000e+00,5.000000000000000000e+00,5.000000000000000000e+00,5.000000000000000000e+00,5.000000000000000000e+00,5.000000000000000000e+00,5.000000000000000000e+00,5.000000000000000000e+00,5.000000000000000000e+00,5.000000000000000000e+00,5.000000000000000000e+00,5.000000000000000000e+00,5.000000000000000000e+00,5.000000000000000000e+00,5.000000000000000000e+00,5.000000000000000000e+00,5.000000000000000000e+00,5.000000000000000000e+00,5.000000000000000000e+00,5.000000000000000000e+00,5.000000000000000000e+00,5.000000000000000000e+00,5.000000000000000000e+00,5.000000000000000000e+00,5.000000000000000000e+00,5.000000000000000000e+00,5.000000000000000000e+00,5.000000000000000000e+00,5.000000000000000000e+00,5.000000000000000000e+00,5.000000000000000000e+00,4.856995582580566406e+00,4.666477680206298828e+00,4.490340709686279297e+00,4.327016830444335938e+00,4.175156593322753906e+00,4.033594608306884766e+00,3.901317596435546875e+00,3.777440309524536133e+00,3.661187887191772461e+00,3.551877260208129883e+00,3.448904752731323242e+00,3.351734638214111328e+00,3.259889841079711914e+00,3.172944068908691406e+00,3.090515851974487305e+00,3.012262105941772461e+00,2.937873363494873047e+00,2.867069959640502930e+00,2.799599170684814453e+00,2.735230922698974609e+00,2.673756122589111328e+00,2.614983558654785156e+00,1.413817405700683594e+00,1.388739466667175293e+00,1.369774222373962402e+00,1.361856460571289062e+00,1.357809305191040039e+00,1.352787017822265625e+00,2.266275644302368164e+00,2.223910331726074219e+00,2.183099746704101562e+00,2.143759727478027344e+00,2.105812788009643555e+00,2.069185733795166016e+00,2.033811092376708984e+00,1.999625802040100098e+00,9.993360638618469238e-01,9.785726070404052734e-01,9.579975605010986328e-01,9.494704604148864746e-01,9.411608576774597168e-01
5.000000000000000000e+00,5.000000000000000000e+00,5.000000000000000000e+00,5.000000000000000000e+00,5.000000000000000000e+00,5.000000000000000000e+00,5.000000000000000000e+00,5.000000000000000000e+00,5.000000000000000000e+00,5.000000000000000000e+00,5.000000000000000000e+00,5.000000000000000000e+00,5.000000000000000000e+00,5.000000000000000000e+00,5.000000000000000000e+00,5.000000000000000000e+00,5.000000000000000000e+00,5.000000000000000000e+00,5.000000000000000000e+00,5.000000000000000000e+00,5.000000000000000000e+00,5.000000000000000000e+00,5.000000000000000000e+00,5.000000000000000000e+00,5.000000000000000000e+00,5.000000000000000000e+00,5.000000000000000000e+00,5.000000000000000000e+00,5.000000000000000000e+00,5.000000000000000000e+00,5.000000000000000000e+00,5.000000000000000000e+00,5.000000000000000000e+00,5.000000000000000000e+00,5.000000000000000000e+00,5.000000000000000000e+00,5.000000000000000000e+00,5.000000000000000000e+00,5.000000000000000000e+00,4.857133388519287109e+00,4.666604042053222656e+00,4.490458965301513672e+00,4.327126502990722656e+00,4.175258636474609375e+00,4.033689975738525391e+00,3.901406526565551758e+00,3.777523994445800781e+00,3.661266565322875977e+00,3.551951169967651367e+00,3.448974370956420898e+00,3.351800203323364258e+00,3.259952068328857422e+00,3.173003196716308594e+00,3.090571880340576172e+00,3.012315273284912109e+00,2.937924146652221680e+00,2.867118120193481445e+00,2.799645185470581055e+00,2.735274553298950195e+00,2.673797845840454102e+00,1.453868627548217773e+00,1.412259936332702637e+00,1.392500638961791992e+00,1.378028988838195801e+00,1.374481201171875000e+00,1.370174407958984375e+00,2.310317993164062500e+00,2.266305685043334961e+00,2.223939180374145508e+00,2.183127641677856445e+00,2.143786907196044922e+00,2.105838775634765625e+00,2.069210767745971680e+00,2.033835411071777344e+00,1.999649167060852051e+00,1.001671195030212402e+00,9.812673330307006836e-01,9.597046375274658203e-01,9.505091309547424316e-01,9.422387480735778809e-01
5.000000000000000000e+00,5.000000000000000000e+00,5.000000000000000000e+00,5.000000000000000000e+00,5.000000000000000000e+00,5.000000000000000000e+00,5.000000000000000000e+00,5.000000000000000000e+00,5.000000000000000000e+00,5.000000000000000000e+00,5.000000000000000000e+00,5.000000000000000000e+00,5.000000000000000000e+00,5.000000000000000000e+00,5.000000000000000000e+00,5.000000000000000000e+00,5.000000000000000000e+00,5.000000000000000000e+00,5.000000000000000000e+00,5.000000000000000000e+00,5.000000000000000000e+00,5.000000000000000000e+00,5.000000000000000000e+00,5.000000000000000000e+00,5.000000000000000000e+00,5.000000000000000000e+00,5.000000000000000000e+00,5.000000000000000000e+00,5.000000000000000000e+00,5.000000000000000000e+00,5.000000000000000000e+00,5.000000000000000000e+00,5.000000000000000000e+00,5.000000000000000000e+00,5.000000000000000000e+00,5.000000000000000000e+00,5.000000000000000000e+00,5.000000000000000000e+00,5.000000000000000000e+00,4.857272148132324219e+00,4.666731357574462891e+00,4.490575790405273438e+00,4.327236175537109375e+00,4.175361156463623047e+00,4.033785343170166016e+00,3.901495695114135742e+00,3.777607440948486328e+00,3.661345005035400391e+00,3.552025318145751953e+00,3.449044227600097656e+00,3.351866245269775391e+00,3.260014295578002930e+00,3.173062324523925781e+00,3.090627908706665039e+00,3.012368440628051758e+00,2.937974452972412109e+00,2.867166519165039062e+00,2.799691200256347656e+00,2.735318422317504883e+00,1.501397728919982910e+00,1.441785812377929688e+00,1.417706012725830078e+00,1.396742105484008789e+00,1.390956878662109375e+00,1.387342572212219238e+00,2.356105804443359375e+00,2.310349225997924805e+00,2.266335725784301758e+00,2.223968267440795898e+00,2.183155536651611328e+00,2.143813848495483398e+00,2.105864763259887695e+00,2.069235801696777344e+00,2.033859729766845703e+00,1.999672532081604004e+00,1.004017472267150879e+00,9.835188388824462891e-01,9.629577994346618652e-01,9.515498876571655273e-01,9.433190822601318359e-01
5.000000000000000000e+00,5.000000000000000000e+00,5.000000000000000000e+00,5.000000000000000000e+00,5.000000000000000000e+00,5.000000000000000000e+00,5.000000000000000000e+00,5.000000000000000000e+00,5.000000000000000000e+00,5.000000000000000000e+00,5.000000000000000000e+00,5.000000000000000000e+00,5.000000000000000000e+00,5.000000000000000000e+00,5.000000000000000000e+00,5.000000000000000000e+00,5.000000000000000000e+00,5.000000000000000000e+00,5.000000000000000000e+00,5.000000000000000000e+00,5.000000000000000000e+00,5.000000000000000000e+00,5.000000000000000000e+00,5.000000000000000000e+00,5.000000000000000000e+00,5.000000000000000000e+00,5.000000000000000000e+00,5.000000000000000000e+00,5.000000000000000000e+00,5.000000000000000000e+00,5.000000000000000000e+00,5.000000000000000000e+00,5.000000000000000000e+00,5.000000000000000000e+00,5.000000000000000000e+00,5.000000000000000000e+00,5.000000000000000000e+00,5.000000000000000000e+00,5.000000000000000000e+00,4.857410430908203125e+00,4.666859149932861328e+00,4.490694046020507812e+00,4.327344417572021484e+00,4.175463199615478516e+00,4.033880710601806641e+00,3.901585102081298828e+00,3.777690887451171875e+00,3.661423444747924805e+00,3.552098989486694336e+00,3.449114084243774414e+00,3.351932048797607422e+00,3.260076522827148438e+00,3.173121213912963867e+00,3.090684175491333008e+00,3.012421846389770508e+00,2.938025236129760742e+00,2.867214441299438477e+00,2.799736976623535156e+00,2.735362529754638672e+00,1.484053373336791992e+00,1.444965958595275879e+00,1.423160672187805176e+00,1.408785223960876465e+00,1.404669165611267090e+00,1.400577187538146973e+00,2.356138467788696289e+00,2.310380458831787109e+00,2.266366004943847656e+00,2.223997116088867188e+00,2.183183431625366211e+00,2.143840551376342773e+00,2.105890750885009766e+00,2.069261074066162109e+00,2.033883810043334961e+00,1.999696135520935059e+00,1.966638684272766113e+00,9.857806563377380371e-01,9.660124778747558594e-01,9.526154994964599609e-01,9.444020390510559082e-01
5.000000000000000000e+00,5.000000000000000000e+00,5.000000000000000000e+00,5.000000000000000000e+00,5.000000000000000000e+00,5.000000000000000000e+00,5.000000000000000000e+00,5.000000000000000000e+00,5.000000000000000000e+00,5.000000000000000000e+00,5.000000000000000000e+00,5.000000000000000000e+00,5.000000000000000000e+00,5.000000000000000000e+00,5.000000000000000000e+00,5.000000000000000000e+00,5.000000000000000000e+00,5.000000000000000000e+00,5.000000000000000000e+00,5.000000000000000000e+00,5.000000000000000000e+00,5.000000000000000000e+00,5.000000000000000000e+00,5.000000000000000000e+00,5.000000000000000000e+00,5.000000000000000000e+00,5.000000000000000000e+00,5.000000000000000000e+00,5.000000000000000000e+00,5.000000000000000000e+00,5.000000000000000000e+00,5.000000000000000000e+00,5.000000000000000000e+00,5.000000000000000000e+00,5.000000000000000000e+00,5.000000000000000000e+00,5.000000000000000000e+00,5.000000000000000000e+00,5.000000000000000000e+00,4.857548713684082031e+00,4.666986942291259766e+00,4.490812301635742188e+00,4.327454566955566406e+00,4.175565719604492188e+00,4.033976078033447266e+00,3.901673793792724609e+00,3.777774810791015625e+00,3.661502122879028320e+00,3.552172899246215820e+00,3.449183464050292969e+00,3.351998090744018555e+00,3.260138988494873047e+00,3.173180341720581055e+00,3.090739965438842773e+00,3.012474775314331055e+00,2.938075780868530273e+00,2.867262840270996094e+00,2.799782991409301758e+00,1.538200139999389648e+00,1.473294615745544434e+00,1.450589656829833984e+00,1.429269075393676758e+00,1.423074960708618164e+00,1.418875217437744141e+00,2.403779268264770508e+00,2.356171131134033203e+00,2.310411691665649414e+00,2.266396045684814453e+00,2.224026203155517578e+00,2.183211326599121094e+00,2.143867492675781250e+00,2.105916738510131836e+00,2.069286108016967773e+00,2.033908128738403320e+00,1.999719500541687012e+00,1.966661214828491211e+00,9.882442355155944824e-01,9.681944251060485840e-01,9.537197351455688477e-01,9.455463886260986328e-01
4.875741004943847656e+00,4.874530315399169922e+00,4.873320102691650391e+00,4.872110366821289062e+00,4.870902061462402344e+00,4.869693279266357422e+00,4.868485927581787109e+00,4.867278575897216797e+00,4.866072177886962891e+00,4.864866256713867188e+00,4.863660812377929688e+00,4.862456321716308594e+00,4.861251831054687500e+00,4.860048770904541016e+00,4.858845710754394531e+00,4.857643604278564453e+00,4.856441497802734375e+00,4.855240345001220703e+00,4.854040145874023438e+00,4.852839946746826172e+00,4.851640701293945312e+00,4.850441932678222656e+00,4.849244117736816406e+00,4.848046302795410156e+00,4.846848964691162109e+00,4.845653057098388672e+00,4.844457149505615234e+00,4.843261718750000000e+00,4.842067241668701172e+00,4.840872764587402344e+00,4.839679718017578125e+00,4.838486671447753906e+00,4.837294578552246094e+00,4.836102485656738281e+00,4.834911823272705078e+00,4.833721160888671875e+00,4.832530975341796875e+00,4.831341743469238281e+00,4.830152988433837891e+00,4.828964710235595703e+00,4.667114734649658203e+00,4.490930557250976562e+00,4.327564239501953125e+00,4.175666332244873047e+00,4.034071445465087891e+00,3.901763200759887695e+00,3.777858257293701172e+00,3.661580801010131836e+00,3.552247047424316406e+00,3.449253320693969727e+00,3.352063655853271484e+00,3.260200977325439453e+00,3.173239469528198242e+00,3.090795993804931641e+00,3.012528181076049805e+00,2.938126325607299805e+00,2.867311000823974609e+00,2.799829006195068359e+00,1.543839931488037109e+00,1.479096531867980957e+00,1.455970406532287598e+00,1.442059993743896484e+00,1.437657475471496582e+00,2.453386545181274414e+00,2.403813123703002930e+00,2.356203556060791016e+00,2.310443162918090820e+00,2.266426086425781250e+00,2.224055051803588867e+00,2.183239221572875977e+00,2.143894672393798828e+00,2.105942726135253906e+00,2.069311141967773438e+00,2.033932447433471680e+00,1.999743103981018066e+00,1.966684103012084961e+00,9.919473528861999512e-01,9.716446995735168457e-01,9.551913142204284668e-01,9.470309019088745117e-01
3.778576135635375977e+00,3.777848958969116211e+00,3.777122259140014648e+00,3.776395320892333984e+00,3.775669097900390625e+00,3.774943113327026367e+00,3.774217128753662109e+00,3.773491621017456055e+00,3.772766590118408203e+00,3.772041797637939453e+00,3.771316766738891602e+00,3.770592451095581055e+00,3.769868612289428711e+00,3.769144535064697266e+00,3.768420934677124023e+00,3.767697811126708984e+00,3.766974925994873047e+00,3.766252040863037109e+00,3.765529632568359375e+00,3.764807701110839844e+00,3.764085292816162109e+00,3.763363838195800781e+00,3.762642860412597656e+00,3.761921882629394531e+00,3.761200666427612305e+00,3.760480403900146484e+00,3.759760379791259766e+00,3.759040117263793945e+00,3.758320569992065430e+00,3.757601261138916016e+00,3.756882190704345703e+00,3.756163120269775391e+00,3.755444526672363281e+00,3.754726409912109375e+00,3.754008054733276367e+00,3.753290414810180664e+00,3.752573013305664062e+00,3.751856088638305664e+00,3.751138687133789062e+00,3.750422239303588867e+00,3.749706029891967773e+00,3.748989582061767578e+00,3.748273849487304688e+00,3.747558355331420898e+00,3.746843338012695312e+00,3.746127843856811523e+00,3.745413303375244141e+00,3.661659002304077148e+00,3.552321195602416992e+00,3.449323177337646484e+00,3.352129697799682617e+00,3.260263442993164062e+00,3.173298120498657227e+00,3.090852022171020508e+00,3.012581348419189453e+00,2.938176870346069336e+00,2.867359161376953125e+00,1.574970960617065430e+00,1.519221067428588867e+00,1.495098829269409180e+00,1.464767813682556152e+00,1.456943988800048828e+00,2.505084753036499023e+00,2.453421831130981445e+00,2.403846979141235352e+00,2.356235980987548828e+00,2.310474157333374023e+00,2.266456365585327148e+00,2.224084138870239258e+00,2.183267354965209961e+00,2.143921375274658203e+00,2.105968952178955078e+00,2.069336414337158203e+00,2.033956527709960938e+00,1.999766469001770020e+00,1.966706633567810059e+00,9.951799511909484863e-01,9.752241969108581543e-01,9.567064046859741211e-01,9.485202431678771973e-01
3.084488391876220703e+00,3.084003686904907227e+00,3.083519458770751953e+00,3.083035230636596680e+00,3.082550764083862305e+00,3.082067012786865234e+00,3.081583261489868164e+00,3.081099748611450195e+00,3.080615997314453125e+00,3.080132722854614258e+00,3.079649448394775391e+00,3.079166173934936523e+00,3.078683376312255859e+00,3.078200817108154297e+00,3.077718257904052734e+00,3.077235698699951172e+00,3.076753377914428711e+00,3.076271295547485352e+00,3.075789213180541992e+00,3.075307369232177734e+00,3.074825763702392578e+00,3.074344158172607422e+00,3.073862552642822266e+00,3.073381423950195312e+00,3.072900533676147461e+00,3.072419404983520508e+00,3.071938514709472656e+00,3.071458101272583008e+00,3.070977687835693359e+00,3.070497035980224609e+00,3.070016860961914062e+00,3.069536924362182617e+00,3.069056987762451172e+00,3.068577289581298828e+00,3.068097829818725586e+00,3.067618370056152344e+00,3.067138910293579102e+00,3.066659927368164062e+00,3.066180944442749023e+00,3.065701961517333984e+00,3.065223217010498047e+00,3.064744949340820312e+00,3.064266204833984375e+00,3.063788175582885742e+00,3.063310146331787109e+00,3.062832355499267578e+00,3.062354326248168945e+00,3.061876773834228516e+00,3.061399221420288086e+00,3.060921669006347656e+00,3.060444593429565430e+00,3.059967517852783203e+00,3.059490680694580078e+00,3.059013843536376953e+00,3.012634515762329102e+00,2.938227653503417969e+00,2.867407321929931641e+00,1.554898500442504883e+00,1.513271808624267578e+00,1.497677564620971680e+00,1.500956416130065918e+00,2.559008121490478516e+00,2.505121231079101562e+00,2.453457355499267578e+00,2.403881072998046875e+00,2.356268644332885742e+00,2.310505628585815430e+00,2.266486406326293945e+00,2.224113225936889648e+00,2.183295249938964844e+00,2.143948316574096680e+00,2.105994701385498047e+00,2.069361209869384766e+00,2.033980846405029297e+00,1.999789834022521973e+00,1.966729283332824707e+00,9.981153011322021484e-01,9.788301587104797363e-01,9.590556621551513672e-01,9.500141739845275879e-01
2.605823755264282227e+00,2.605478048324584961e+00,2.605132102966308594e+00,2.604786396026611328e+00,2.604440927505493164e+00,2.604095458984375000e+00,2.603749990463256836e+00,2.603404760360717773e+00,2.603059530258178711e+00,2.602714300155639648e+00,2.602369308471679688e+00,2.602024316787719727e+00,2.601679563522338867e+00,2.601334810256958008e+00,2.600990056991577148e+00,2.600645542144775391e+00,2.600301027297973633e+00,2.599956750869750977e+00,2.599612474441528320e+00,2.599267959594726562e+00,2.598923921585083008e+00,2.598579883575439453e+00,2.598236083984375000e+00,2.597892045974731445e+00,2.597548484802246094e+00,2.597204923629760742e+00,2.596861124038696289e+00,2.596517562866210938e+00,2.596174240112304688e+00,2.595831155776977539e+00,2.595487833023071289e+00,2.595144748687744141e+00,2.594801664352416992e+00,2.594458580017089844e+00,2.594115734100341797e+00,2.593773126602172852e+00,2.593430519104003906e+00,2.593087911605834961e+00,2.592745304107666016e+00,2.592402935028076172e+00,2.592060565948486328e+00,2.591718435287475586e+00,2.591376304626464844e+00,2.591034412384033203e+00,2.590692281723022461e+00,2.590350389480590820e+00,2.590008735656738281e+00,2.589667081832885742e+00,2.589325428009033203e+00,2.588984012603759766e+00,2.588642597198486328e+00,2.588301181793212891e+00,2.587960004806518555e+00,2.587619066238403320e+00,2.587277889251708984e+00,2.586936950683593750e+00,2.586596012115478516e+00,1.547829747200012207e+00,1.506603121757507324e+00,1.489401817321777344e+00,1.498633980751037598e+00,2.559046745300292969e+00,2.505158185958862305e+00,2.453492403030395508e+00,2.403914690017700195e+00,2.356301307678222656e+00,2.310536861419677734e+00,2.266516447067260742e+00,2.224142074584960938e+00,2.183323144912719727e+00,2.143975496292114258e+00,2.106020689010620117e+00,2.069386482238769531e+00,2.034005165100097656e+00,1.999813437461853027e+00,1.966752052307128906e+00,1.006356000900268555e+00,9.821463227272033691e-01,9.625427722930908203e-01,9.515129327774047852e-01
2.255763530731201172e+00,2.255504369735717773e+00,2.255245208740234375e+00,2.254986286163330078e+00,2.254727363586425781e+00,2.254468441009521484e+00,2.254209518432617188e+00,2.253950834274291992e+00,2.253692150115966797e+00,2.253433465957641602e+00,2.253174781799316406e+00,2.252916336059570312e+00,2.252657890319824219e+00,2.252399444580078125e+00,2.252140760421752930e+00,2.251882553100585938e+00,2.251624345779418945e+00,2.251366138458251953e+00,2.251107931137084961e+00,2.250849962234497070e+00,2.250591993331909180e+00,2.250334024429321289e+00,2.250076055526733398e+00,2.249818325042724609e+00,2.249560356140136719e+00,2.249302625656127930e+00,2.249044895172119141e+00,2.248787403106689453e+00,2.248529672622680664e+00,2.248272180557250977e+00,2.248014688491821289e+00,2.247757196426391602e+00,2.247499942779541016e+00,2.247242689132690430e+00,2.246985673904418945e+00,2.246728181838989258e+00,2.246471166610717773e+00,2.246214151382446289e+00,2.245957136154174805e+00,2.245700120925903320e+00,2.245443344116210938e+00,2.245186567306518555e+00,2.244929790496826172e+00,2.244673013687133789e+00,2.244416475296020508e+00,2.244159698486328125e+00,2.243903398513793945e+00,2.243646860122680664e+00,2.243390560150146484e+00,2.243134021759033203e+00,2.242877721786499023e+00,2.242621660232543945e+00,2.242365360260009766e+00,2.242109298706054688e+00,2.241853237152099609e+00,2.241597414016723633e+00,2.241341352462768555e+00,2.241085529327392578e+00,1.505311965942382812e+00,1.474014401435852051e+00,1.478087425231933594e+00,2.240062475204467773e+00,2.239806890487670898e+00,2.239551305770874023e+00,2.239295959472656250e+00,2.239040613174438477e+00,2.238785028457641602e+00,2.238529920578002930e+00,2.224171161651611328e+00,2.183351039886474609e+00,2.144002199172973633e+00,2.106046915054321289e+00,2.069411516189575195e+00,2.034029483795166016e+00,1.999836802482604980e+00,1.966774702072143555e+00,1.934787869453430176e+00,9.850051403045654297e-01,9.660553932189941406e-01,9.530164003372192383e-01
1.988615274429321289e+00,1.988414049148559570e+00,1.988212585449218750e+00,1.988011360168457031e+00,1.987810015678405762e+00,1.987608909606933594e+00,1.987407565116882324e+00,1.987206578254699707e+00,1.987005352973937988e+00,1.986804366111755371e+00,1.986603260040283203e+00,1.986402392387390137e+00,1.986201286315917969e+00,1.986000537872314453e+00,1.985799551010131836e+00,1.985598564147949219e+00,1.985397934913635254e+00,1.985197067260742188e+00,1.984996438026428223e+00,1.984795689582824707e+00,1.984595179557800293e+00,1.984394431114196777e+00,1.984194040298461914e+00,1.983993411064147949e+00,1.983793139457702637e+00,1.983592629432678223e+00,1.983392357826232910e+00,1.983191847801208496e+00,1.982991695404052734e+00,1.982791304588317871e+00,1.982591152191162109e+00,1.982390880584716797e+00,1.982190966606140137e+00,1.981990694999694824e+00,1.981790781021118164e+00,1.981590628623962402e+00,1.981390714645385742e+00,1.981190681457519531e+00,1.980990886688232422e+00,1.980790972709655762e+00,1.980591297149658203e+00,1.980391383171081543e+00,1.980191707611083984e+00,1.979991912841796875e+00,1.979792356491088867e+00,1.979592680931091309e+00,1.979393243789672852e+00,1.979193568229675293e+00,1.978994250297546387e+00,1.978794574737548828e+00,1.978595376014709473e+00,1.978395819664001465e+00,1.978196620941162109e+00,1.977997183799743652e+00,1.977798104286193848e+00,1.977598786354064941e+00,1.977399706840515137e+00,1.977200388908386230e+00,1.977001428604125977e+00,1.458803653717041016e+00,1.457093477249145508e+00,1.976404309272766113e+00,1.976205468177795410e+00,1.976006507873535156e+00,1.975807785987854004e+00,1.975608825683593750e+00,1.975410103797912598e+00,1.975211262702941895e+00,1.975012779235839844e+00,1.974813938140869141e+00,1.974615454673767090e+00,1.974416732788085938e+00,1.974218130111694336e+00,1.974019765853881836e+00,1.973821163177490234e+00,1.966797232627868652e+00,1.934809803962707520e+00,9.878805875778198242e-01,9.694496393203735352e-01,9.545246362686157227e-01
1.778043270111083984e+00,1.777882337570190430e+00,1.777721285820007324e+00,1.777560353279113770e+00,1.777399420738220215e+00,1.777238607406616211e+00,1.777077674865722656e+00,1.776916980743408203e+00,1.776756048202514648e+00,1.776595354080200195e+00,1.776434540748596191e+00,1.776273965835571289e+00,1.776113152503967285e+00,1.775952577590942383e+00,1.775791883468627930e+00,1.775631189346313477e+00,1.775470733642578125e+00,1.775310039520263672e+00,1.775149703025817871e+00,1.774989128112792969e+00,1.774828672409057617e+00,1.774668216705322266e+00,1.774507880210876465e+00,1.774347424507141113e+00,1.774187207221984863e+00,1.774026751518249512e+00,1.773866653442382812e+00,1.773706316947937012e+00,1.773546099662780762e+00,1.773385882377624512e+00,1.773225784301757812e+00,1.773065567016601562e+00,1.772905588150024414e+00,1.772745370864868164e+00,1.772585391998291016e+00,1.772425293922424316e+00,1.772265434265136719e+00,1.772105336189270020e+00,1.771945476531982422e+00,1.771785497665405273e+00,1.771625757217407227e+00,1.771465778350830078e+00,1.771306037902832031e+00,1.771146178245544434e+00,1.770986557006835938e+00,1.770826697349548340e+00,1.770667076110839844e+00,1.770507335662841797e+00,1.770347714424133301e+00,1.770188093185424805e+00,1.770028591156005859e+00,1.769868969917297363e+00,1.769709467887878418e+00,1.769549846649169922e+00,1.769390463829040527e+00,1.769230961799621582e+00,1.769071698188781738e+00,1.768912196159362793e+00,1.768752932548522949e+00,1.445629239082336426e+00,1.435805559158325195e+00,1.465810418128967285e+00,1.768115758895874023e+00,1.767956495285034180e+00,1.767797350883483887e+00,1.767638087272644043e+00,1.767479062080383301e+00,1.767319917678833008e+00,1.767160892486572266e+00,1.767001748085021973e+00,1.766842842102050781e+00,1.766683816909790039e+00,1.766524791717529297e+00,1.766365885734558105e+00,1.766206979751586914e+00,1.766048192977905273e+00,1.765889286994934082e+00,9.907729625701904297e-01,9.722349047660827637e-01,9.560374617576599121e-01
1.607795715332031250e+00,1.607664108276367188e+00,1.607532382011413574e+00,1.607400894165039062e+00,1.607269287109375000e+00,1.607137799263000488e+00,1.607006072998046875e+00,1.606874704360961914e+00,1.606743097305297852e+00,1.606611728668212891e+00,1.606480121612548828e+00,1.606348872184753418e+00,1.606217384338378906e+00,1.606086015701293945e+00,1.605954527854919434e+00,1.605823159217834473e+00,1.605691909790039062e+00,1.605560541152954102e+00,1.605429291725158691e+00,1.605297923088073730e+00,1.605166792869567871e+00,1.605035543441772461e+00,1.604904413223266602e+00,1.604773163795471191e+00,1.604642033576965332e+00,1.604510784149169922e+00,1.604379773139953613e+00,1.604248642921447754e+00,1.604117631912231445e+00,1.603986501693725586e+00,1.603855609893798828e+00,1.603724479675292969e+00,1.603593587875366211e+00,1.603462576866149902e+00,1.603331685066223145e+00,1.603200674057006836e+00,1.603069901466369629e+00,1.602938890457153320e+00,1.602808117866516113e+00,1.602677226066589355e+00,1.602546453475952148e+00,1.602415680885314941e+00,1.602284908294677734e+00,1.602154135704040527e+00,1.602023482322692871e+00,1.601892709732055664e+00,1.601762056350708008e+00,1.601631283760070801e+00,1.601500749588012695e+00,1.601370096206665039e+00,1.601239562034606934e+00,1.601108908653259277e+00,1.600978374481201172e+00,1.600847840309143066e+00,1.600717425346374512e+00,1.600586771965026855e+00,1.600456357002258301e+00,1.600325942039489746e+00,1.600195527076721191e+00,1.449622869491577148e+00,1.408483624458312988e+00,1.394835472106933594e+00,1.599673986434936523e+00,1.599543571472167969e+00,1.599413394927978516e+00,1.599282979965209961e+00,1.599152803421020508e+00,1.599022507667541504e+00,1.598892331123352051e+00,1.598762154579162598e+00,1.598631978034973145e+00,1.598501801490783691e+00,1.598371624946594238e+00,1.598241567611694336e+00,1.598111391067504883e+00,1.597981333732604980e+00,1.597851276397705078e+00,1.597721338272094727e+00,1.005693197250366211e+00,9.722964167594909668e-01
1.467301607131958008e+00,1.467192053794860840e+00,1.467082381248474121e+00,1.466972827911376953e+00,1.466863155364990234e+00,1.466753602027893066e+00,1.466643929481506348e+00,1.466534495353698730e+00,1.466424942016601562e+00,1.466315388679504395e+00,1.466205835342407227e+00,1.466096520423889160e+00,1.465986967086791992e+00,1.465877532958984375e+00,1.465768098831176758e+00,1.465658545494079590e+00,1.465549230575561523e+00,1.465439796447753906e+00,1.465330481529235840e+00,1.465221047401428223e+00,1.465111732482910156e+00,1.465002417564392090e+00,1.464893102645874023e+00,1.464783787727355957e+00,1.464674592018127441e+00,1.464565277099609375e+00,1.464456081390380859e+00,1.464346766471862793e+00,1.464237689971923828e+00,1.464128375053405762e+00,1.464019298553466797e+00,1.463910102844238281e+00,1.463801026344299316e+00,1.463691830635070801e+00,1.463582754135131836e+00,1.463473558425903320e+00,1.463364601135253906e+00,1.463255405426025391e+00,1.463146448135375977e+00,1.463037371635437012e+00,1.462928414344787598e+00,1.462819337844848633e+00,1.462710499763488770e+00,1.462601423263549805e+00,1.462492585182189941e+00,1.462383627891540527e+00,1.462274670600891113e+00,1.462165713310241699e+00,1.462056994438171387e+00,1.461948037147521973e+00,1.461839199066162109e+00,1.461730360984802246e+00,1.461621642112731934e+00,1.461512684822082520e+00,1.461403965950012207e+00,1.461295127868652344e+00,1.461186528205871582e+00,1.461077690124511719e+00,1.460969090461730957e+00,1.460860252380371094e+00,1.460751652717590332e+00,1.460642933845520020e+00,1.460534334182739258e+00,1.460425615310668945e+00,1.460317015647888184e+00,1.460208415985107422e+00,1.460099935531616211e+00,1.459991216659545898e+00,1.459882736206054688e+00,1.459774136543273926e+00,1.459665656089782715e+00,1.459557056427001953e+00,1.459448575973510742e+00,1.459340095520019531e+00,1.459231615066528320e+00,1.459123253822326660e+00,1.459014773368835449e+00,1.458906412124633789e+00,1.006120443344116211e+00,9.748738408088684082e-01
1.349388003349304199e+00,1.349295258522033691e+00,1.349202513694763184e+00,1.349109888076782227e+00,1.349017143249511719e+00,1.348924517631530762e+00,1.348831772804260254e+00,1.348739147186279297e+00,1.348646402359008789e+00,1.348553895950317383e+00,1.348461151123046875e+00,1.348368644714355469e+00,1.348276019096374512e+00,1.348183512687683105e+00,1.348090887069702148e+00,1.347998261451721191e+00,1.347905755043029785e+00,1.347813129425048828e+00,1.347720742225646973e+00,1.347628116607666016e+00,1.347535729408264160e+00,1.347443222999572754e+00,1.347350835800170898e+00,1.347258329391479492e+00,1.347165942192077637e+00,1.347073435783386230e+00,1.346981048583984375e+00,1.346888661384582520e+00,1.346796274185180664e+00,1.346703886985778809e+00,1.346611499786376953e+00,1.346519112586975098e+00,1.346426844596862793e+00,1.346334457397460938e+00,1.346242189407348633e+00,1.346149921417236328e+00,1.346057653427124023e+00,1.345965266227722168e+00,1.345873117446899414e+00,1.345780730247497559e+00,1.345688581466674805e+00,1.345596313476562500e+00,1.345504164695739746e+00,1.345411896705627441e+00,1.345319747924804688e+00,1.345227599143981934e+00,1.345135450363159180e+00,1.345043182373046875e+00,1.344951152801513672e+00,1.344859004020690918e+00,1.344766855239868164e+00,1.344674706459045410e+00,1.344582676887512207e+00,1.344490647315979004e+00,1.344398617744445801e+00,1.344306468963623047e+00,1.344214558601379395e+00,1.344122409820556641e+00,1.344030499458312988e+00,1.343938350677490234e+00,1.343846440315246582e+00,1.343754410743713379e+00,1.343662500381469727e+00,1.343570590019226074e+00,1.343478679656982422e+00,1.343386650085449219e+00,1.343294858932495117e+00,1.343202829360961914e+00,1.343111038208007812e+00,1.343019127845764160e+00,1.342927336692810059e+00,1.342835426330566406e+00,1.342743515968322754e+00,1.342651724815368652e+00,1.342559814453125000e+00,1.342468142509460449e+00,1.342376232147216797e+00,1.342284560203552246e+00,1.003366112709045410e+00,9.762691259384155273e-01
1.249015927314758301e+00,1.248936533927917480e+00,1.248857021331787109e+00,1.248777747154235840e+00,1.248698234558105469e+00,1.248618841171264648e+00,1.248539447784423828e+00,1.248460054397583008e+00,1.248380661010742188e+00,1.248301386833190918e+00,1.248221874237060547e+00,1.248142600059509277e+00,1.248063206672668457e+00,1.247983932495117188e+00,1.247904539108276367e+00,1.247825264930725098e+00,1.247745990753173828e+00,1.247666597366333008e+00,1.247587442398071289e+00,1.247508049011230469e+00,1.247428894042968750e+00,1.247349619865417480e+00,1.247270345687866211e+00,1.247191071510314941e+00,1.247111916542053223e+00,1.247032642364501953e+00,1.246953487396240234e+00,1.246874332427978516e+00,1.246795177459716797e+00,1.246715903282165527e+00,1.246636867523193359e+00,1.246557593345642090e+00,1.246478557586669922e+00,1.246399402618408203e+00,1.246320247650146484e+00,1.246241092681884766e+00,1.246162056922912598e+00,1.246082901954650879e+00,1.246003866195678711e+00,1.245924830436706543e+00,1.245845794677734375e+00,1.245766639709472656e+00,1.245687723159790039e+00,1.245608568191528320e+00,1.245529651641845703e+00,1.245450615882873535e+00,1.245371699333190918e+00,1.245292663574218750e+00,1.245213627815246582e+00,1.245134711265563965e+00,1.245055794715881348e+00,1.244976758956909180e+00,1.244897842407226562e+00,1.244818925857543945e+00,1.244740009307861328e+00,1.244661092758178711e+00,1.244582176208496094e+00,1.244503259658813477e+00,1.244424462318420410e+00,1.244345545768737793e+00,1.244266748428344727e+00,1.244187831878662109e+00,1.244109034538269043e+00,1.244030117988586426e+00,1.243951439857482910e+00,1.243872523307800293e+00,1.243793845176696777e+00,1.243714928627014160e+00,1.243636250495910645e+00,1.243557453155517578e+00,1.243478655815124512e+00,1.243399858474731445e+00,1.243321180343627930e+00,1.243242383003234863e+00,1.243163704872131348e+00,1.243085026741027832e+00,1.243006229400634766e+00,1.242927670478820801e+00,9.994527697563171387e-01,9.772376418113708496e-01
1.162542223930358887e+00,1.162473440170288086e+00,1.162404537200927734e+00,1.162335753440856934e+00,1.162266969680786133e+00,1.162198185920715332e+00,1.162129402160644531e+00,1.162060618400573730e+00,1.161991834640502930e+00,1.161923050880432129e+00,1.161854267120361328e+00,1.161785602569580078e+00,1.161716818809509277e+00,1.161648035049438477e+00,1.161579370498657227e+00,1.161510586738586426e+00,1.161441922187805176e+00,1.161373138427734375e+00,1.161304473876953125e+00,1.161235809326171875e+00,1.161167144775390625e+00,1.161098480224609375e+00,1.161029815673828125e+00,1.160961151123046875e+00,1.160892486572265625e+00,1.160823822021484375e+00,1.160755276679992676e+00,1.160686612129211426e+00,1.160618066787719727e+00,1.160549402236938477e+00,1.160480856895446777e+00,1.160412192344665527e+00,1.160343647003173828e+00,1.160274982452392578e+00,1.160206556320190430e+00,1.160137891769409180e+00,1.160069465637207031e+00,1.160000801086425781e+00,1.159932374954223633e+00,1.159863829612731934e+00,1.159795284271240234e+00,1.159726738929748535e+00,1.159658312797546387e+00,1.159589767456054688e+00,1.159521341323852539e+00,1.159452795982360840e+00,1.159384369850158691e+00,1.159315824508666992e+00,1.159247517585754395e+00,1.159178972244262695e+00,1.159110546112060547e+00,1.159042119979858398e+00,1.158973693847656250e+00,1.158905267715454102e+00,1.158836960792541504e+00,1.158768534660339355e+00,1.158700108528137207e+00,1.158631682395935059e+00,1.158563375473022461e+00,1.158494949340820312e+00,1.158426642417907715e+00,1.158358335494995117e+00,1.158290028572082520e+00,1.158221602439880371e+00,1.158153414726257324e+00,1.158084988594055176e+00,1.158016800880432129e+00,1.157948374748229980e+00,1.157880187034606934e+00,1.157811880111694336e+00,1.157743573188781738e+00,1.157675385475158691e+00,1.157607078552246094e+00,1.157538771629333496e+00,1.157470583915710449e+00,1.157402396202087402e+00,1.157334089279174805e+00,1.157265901565551758e+00,9.974254965782165527e-01,9.779017567634582520e-01
1.087266921997070312e+00,1.087206721305847168e+00,1.087146520614624023e+00,1.087086319923400879e+00,1.087026119232177734e+00,1.086965918540954590e+00,1.086905717849731445e+00,1.086845636367797852e+00,1.086785435676574707e+00,1.086725234985351562e+00,1.086665153503417969e+00,1.086604952812194824e+00,1.086544871330261230e+00,1.086484789848327637e+00,1.086424589157104492e+00,1.086364388465881348e+00,1.086304426193237305e+00,1.086244225502014160e+00,1.086184144020080566e+00,1.086124062538146973e+00,1.086063981056213379e+00,1.086003899574279785e+00,1.085943937301635742e+00,1.085883736610412598e+00,1.085823774337768555e+00,1.085763692855834961e+00,1.085703730583190918e+00,1.085643649101257324e+00,1.085583686828613281e+00,1.085523605346679688e+00,1.085463643074035645e+00,1.085403561592102051e+00,1.085343599319458008e+00,1.085283517837524414e+00,1.085223674774169922e+00,1.085163593292236328e+00,1.085103631019592285e+00,1.085043668746948242e+00,1.084983706474304199e+00,1.084923744201660156e+00,1.084863901138305664e+00,1.084803819656372070e+00,1.084743976593017578e+00,1.084684014320373535e+00,1.084624052047729492e+00,1.084564208984375000e+00,1.084504246711730957e+00,1.084444403648376465e+00,1.084384441375732422e+00,1.084324598312377930e+00,1.084264755249023438e+00,1.084204792976379395e+00,1.084144949913024902e+00,1.084085106849670410e+00,1.084025263786315918e+00,1.083965420722961426e+00,1.083905577659606934e+00,1.083845734596252441e+00,1.083785891532897949e+00,1.083726048469543457e+00,1.083666324615478516e+00,1.083606481552124023e+00,1.083546638488769531e+00,1.083486795425415039e+00,1.083427071571350098e+00,1.083367228507995605e+00,1.083307504653930664e+00,1.083247780799865723e+00,1.083188056945800781e+00,1.083128213882446289e+00,1.083068490028381348e+00,1.083008766174316406e+00,1.082948923110961914e+00,1.082889318466186523e+00,1.082829475402832031e+00,1.082769870758056641e+00,1.082710027694702148e+00,1.082650423049926758e+00,1.000263571739196777e+00,9.773736000061035156e-01
1.021147012710571289e+00,1.021093845367431641e+00,1.021040797233581543e+00,1.020987749099731445e+00,1.020934581756591797e+00,1.020881533622741699e+00,1.020828366279602051e+00,1.020775318145751953e+00,1.020722270011901855e+00,1.020669221878051758e+00,1.020616173744201660e+00,1.020563125610351562e+00,1.020510077476501465e+00,1.020457029342651367e+00,1.020403981208801270e+00,1.020350933074951172e+00,1.020297884941101074e+00,1.020244836807250977e+00,1.020191907882690430e+00,1.020138859748840332e+00,1.020085930824279785e+00,1.020032882690429688e+00,1.019979953765869141e+00,1.019926905632019043e+00,1.019873976707458496e+00,1.019820928573608398e+00,1.019767999649047852e+00,1.019715070724487305e+00,1.019662141799926758e+00,1.019609093666076660e+00,1.019556164741516113e+00,1.019503235816955566e+00,1.019450306892395020e+00,1.019397377967834473e+00,1.019344449043273926e+00,1.019291520118713379e+00,1.019238591194152832e+00,1.019185662269592285e+00,1.019132852554321289e+00,1.019079923629760742e+00,1.019026994705200195e+00,1.018974065780639648e+00,1.018921256065368652e+00,1.018868327140808105e+00,1.018815517425537109e+00,1.018762588500976562e+00,1.018709778785705566e+00,1.018656969070434570e+00,1.018604159355163574e+00,1.018551230430603027e+00,1.018498420715332031e+00,1.018445611000061035e+00,1.018392801284790039e+00,1.018339872360229492e+00,1.018287181854248047e+00,1.018234252929687500e+00,1.018181562423706055e+00,1.018128633499145508e+00,1.018075942993164062e+00,1.018023133277893066e+00,1.017970323562622070e+00,1.017917513847351074e+00,1.017864823341369629e+00,1.017812013626098633e+00,1.017759323120117188e+00,1.017706513404846191e+00,1.017653822898864746e+00,1.017601013183593750e+00,1.017548322677612305e+00,1.017495512962341309e+00,1.017442822456359863e+00,1.017390131950378418e+00,1.017337322235107422e+00,1.017284631729125977e+00,1.017231941223144531e+00,1.017179250717163086e+00,1.017126560211181641e+00,1.017073869705200195e+00,1.017021179199218750e+00,1.016968488693237305e+00
9.626080393791198730e-01,9.625608325004577637e-01,9.625135660171508789e-01,9.624664187431335449e-01,9.624192714691162109e-01,9.623721241950988770e-01,9.623248577117919922e-01,9.622777104377746582e-01,9.622306227684020996e-01,9.621834754943847656e-01,9.621362686157226562e-01,9.620891213417053223e-01,9.620420336723327637e-01,9.619948863983154297e-01,9.619476795196533203e-01,9.619005918502807617e-01,9.618535041809082031e-01,9.618062973022460938e-01,9.617592096328735352e-01,9.617121219635009766e-01,9.616650342941284180e-01,9.616178870201110840e-01,9.615707993507385254e-01,9.615237116813659668e-01,9.614766836166381836e-01,9.614295363426208496e-01,9.613825082778930664e-01,9.613354206085205078e-01,9.612883925437927246e-01,9.612412452697753906e-01,9.611942172050476074e-01,9.611471891403198242e-01,9.611001610755920410e-01,9.610530138015747070e-01,9.610060453414916992e-01,9.609590172767639160e-01,9.609120488166809082e-01,9.608649015426635742e-01,9.608179330825805664e-01,9.607709050178527832e-01,9.607239365577697754e-01,9.606768488883972168e-01,9.606298804283142090e-01,9.605829119682312012e-01,9.605359435081481934e-01,9.604888558387756348e-01,9.604418873786926270e-01,9.603949785232543945e-01,9.603480100631713867e-01,9.603009819984436035e-01,9.602540135383605957e-01,9.602071046829223633e-01,9.601601362228393555e-01,9.601131081581115723e-01,9.600661993026733398e-01,9.600192904472351074e-01,9.599723815917968750e-01,9.599253535270690918e-01,9.598784446716308594e-01,9.598315358161926270e-01,9.597846865653991699e-01,9.597376585006713867e-01,9.596908092498779297e-01,9.596439003944396973e-01,9.595970511436462402e-01,9.595500230789184570e-01,9.595031738281250000e-01,9.594563245773315430e-01,9.594094753265380859e-01,9.593625068664550781e-01,9.593156576156616211e-01,9.592688083648681641e-01,9.592218399047851562e-01,9.591750502586364746e-01,9.591282010078430176e-01,9.590813517570495605e-01,9.590344429016113281e-01,9.589876532554626465e-01,9.589408040046691895e-01,9.588940143585205078e-01
9.104167222976684570e-01,9.103745222091674805e-01,9.103323817253112793e-01,9.102901816368103027e-01,9.102479219436645508e-01,9.102057218551635742e-01,9.101635813713073730e-01,9.101213812828063965e-01,9.100791215896606445e-01,9.100369811058044434e-01,9.099948406219482422e-01,9.099527001380920410e-01,9.099104404449462891e-01,9.098682999610900879e-01,9.098261594772338867e-01,9.097838997840881348e-01,9.097417593002319336e-01,9.096996784210205078e-01,9.096575379371643066e-01,9.096153378486633301e-01,9.095731973648071289e-01,9.095311164855957031e-01,9.094889760017395020e-01,9.094467759132385254e-01,9.094046950340270996e-01,9.093626141548156738e-01,9.093204736709594727e-01,9.092783331871032715e-01,9.092362523078918457e-01,9.091941714286804199e-01,9.091520905494689941e-01,9.091098904609680176e-01,9.090678095817565918e-01,9.090257883071899414e-01,9.089837074279785156e-01,9.089415669441223145e-01,9.088994860649108887e-01,9.088574647903442383e-01,9.088153839111328125e-01,9.087733030319213867e-01,9.087312221527099609e-01,9.086892008781433105e-01,9.086471796035766602e-01,9.086050391197204590e-01,9.085630178451538086e-01,9.085209965705871582e-01,9.084789752960205078e-01,9.084368944168090820e-01,9.083948731422424316e-01,9.083529114723205566e-01,9.083108901977539062e-01,9.082688093185424805e-01,9.082267880439758301e-01,9.081848263740539551e-01,9.081428647041320801e-01,9.081007838249206543e-01,9.080588221549987793e-01,9.080168008804321289e-01,9.079748392105102539e-01,9.079328179359436035e-01,9.078908562660217285e-01,9.078488945960998535e-01,9.078069329261779785e-01,9.077648520469665527e-01,9.077229499816894531e-01,9.076809883117675781e-01,9.076390862464904785e-01,9.075970053672790527e-01,9.075551033020019531e-01,9.075132012367248535e-01,9.074712395668029785e-01,9.074292778968811035e-01,9.073873162269592285e-01,9.073454141616821289e-01,9.073034524917602539e-01,9.072615504264831543e-01,9.072196483612060547e-01,9.071777462959289551e-01,9.071357250213623047e-01,9.070938825607299805e-01
8.635939359664916992e-01,8.635559678077697754e-01,8.635179400444030762e-01,8.634799718856811523e-01,8.634420633316040039e-01,8.634040951728820801e-01,8.633660674095153809e-01,8.633280992507934570e-01,8.632901906967163086e-01,8.632522225379943848e-01,8.632142543792724609e-01,8.631762862205505371e-01,8.631383776664733887e-01,8.631004691123962402e-01,8.630624413490295410e-01,8.630245327949523926e-01,8.629866242408752441e-01,8.629486560821533203e-01,8.629107475280761719e-01,8.628728389739990234e-01,8.628349304199218750e-01,8.627969622611999512e-01,8.627590537071228027e-01,8.627211451530456543e-01,8.626832962036132812e-01,8.626453280448913574e-01,8.626074194908142090e-01,8.625695705413818359e-01,8.625316619873046875e-01,8.624937534332275391e-01,8.624558448791503906e-01,8.624179959297180176e-01,8.623801469802856445e-01,8.623421788215637207e-01,8.623043298721313477e-01,8.622664809226989746e-01,8.622286319732666016e-01,8.621907234191894531e-01,8.621528744697570801e-01,8.621150851249694824e-01,8.620772361755371094e-01,8.620393276214599609e-01,8.620014786720275879e-01,8.619636893272399902e-01,8.619258403778076172e-01,8.618879318237304688e-01,8.618501424789428711e-01,8.618122935295104980e-01,8.617745041847229004e-01,8.617366552352905273e-01,8.616988062858581543e-01,8.616610169410705566e-01,8.616232275962829590e-01,8.615853786468505859e-01,8.615475893020629883e-01,8.615097999572753906e-01,8.614720106124877930e-01,8.614341616630554199e-01,8.613963723182678223e-01,8.613586425781250000e-01,8.613208532333374023e-01,8.612830042839050293e-01,8.612452149391174316e-01,8.612074851989746094e-01,8.611697554588317871e-01,8.611319065093994141e-01,8.610941767692565918e-01,8.610563874244689941e-01,8.610186576843261719e-01,8.609808683395385742e-01,8.609431385993957520e-01,8.609054088592529297e-01,8.608675599098205566e-01,8.608298897743225098e-01,8.607921600341796875e-01,8.607544302940368652e-01,8.607166409492492676e-01,8.606789112091064453e-01,8.606412410736083984e-01,8.606035113334655762e-01
8.213517069816589355e-01,8.213173747062683105e-01,8.212830424308776855e-01,8.212487101554870605e-01,8.212143182754516602e-01,8.211799860000610352e-01,8.211456537246704102e-01,8.211113214492797852e-01,8.210769295692443848e-01,8.210425972938537598e-01,8.210083246231079102e-01,8.209739923477172852e-01,8.209396004676818848e-01,8.209053277969360352e-01,8.208709955215454102e-01,8.208366036415100098e-01,8.208023309707641602e-01,8.207680583000183105e-01,8.207337260246276855e-01,8.206993937492370605e-01,8.206651210784912109e-01,8.206308484077453613e-01,8.205965161323547363e-01,8.205621838569641113e-01,8.205279111862182617e-01,8.204936385154724121e-01,8.204593658447265625e-01,8.204250335693359375e-01,8.203907608985900879e-01,8.203565478324890137e-01,8.203222751617431641e-01,8.202879428863525391e-01,8.202536702156066895e-01,8.202194571495056152e-01,8.201851844787597656e-01,8.201508522033691406e-01,8.201166391372680664e-01,8.200824260711669922e-01,8.200481534004211426e-01,8.200138807296752930e-01,8.199796080589294434e-01,8.199453949928283691e-01,8.199111819267272949e-01,8.198769092559814453e-01,8.198426961898803711e-01,8.198084831237792969e-01,8.197742700576782227e-01,8.197399973869323730e-01,8.197057843208312988e-01,8.196715712547302246e-01,8.196373581886291504e-01,8.196030855178833008e-01,8.195688724517822266e-01,8.195347189903259277e-01,8.195005059242248535e-01,8.194662928581237793e-01,8.194320797920227051e-01,8.193979263305664062e-01,8.193637132644653320e-01,8.193295001983642578e-01,8.192952871322631836e-01,8.192611336708068848e-01,8.192269802093505859e-01,8.191927075386047363e-01,8.191585540771484375e-01,8.191244006156921387e-01,8.190902471542358398e-01,8.190560340881347656e-01,8.190218806266784668e-01,8.189877271652221680e-01,8.189536333084106445e-01,8.189193606376647949e-01,8.188852667808532715e-01,8.188511133193969727e-01,8.188169002532958984e-01,8.187828063964843750e-01,8.187486529350280762e-01,8.187145590782165527e-01,8.186803460121154785e-01,8.186462521553039551e-01
7.830493450164794922e-01,7.830181717872619629e-01,7.829868793487548828e-01,7.829556465148925781e-01,7.829244732856750488e-01,7.828932404518127441e-01,7.828620076179504395e-01,7.828307747840881348e-01,7.827996015548706055e-01,7.827684283256530762e-01,7.827371358871459961e-01,7.827059626579284668e-01,7.826747894287109375e-01,7.826436161994934082e-01,7.826123237609863281e-01,7.825811505317687988e-01,7.825499773025512695e-01,7.825187444686889648e-01,7.824875712394714355e-01,7.824563980102539062e-01,7.824252843856811523e-01,7.823940515518188477e-01,7.823628783226013184e-01,7.823317050933837891e-01,7.823005318641662598e-01,7.822693586349487305e-01,7.822381854057312012e-01,7.822070121765136719e-01,7.821758985519409180e-01,7.821446657180786133e-01,7.821135520935058594e-01,7.820823788642883301e-01,7.820512652397155762e-01,7.820200324058532715e-01,7.819889187812805176e-01,7.819578051567077637e-01,7.819266915321350098e-01,7.818955183029174805e-01,7.818643450736999512e-01,7.818332314491271973e-01,7.818021178245544434e-01,7.817709445953369141e-01,7.817398309707641602e-01,7.817087173461914062e-01,7.816776633262634277e-01,7.816464900970458984e-01,7.816153764724731445e-01,7.815842628479003906e-01,7.815531492233276367e-01,7.815220355987548828e-01,7.814909219741821289e-01,7.814598083496093750e-01,7.814287543296813965e-01,7.813975811004638672e-01,7.813665270805358887e-01,7.813354134559631348e-01,7.813043594360351562e-01,7.812732458114624023e-01,7.812421321868896484e-01,7.812110781669616699e-01,7.811800241470336914e-01,7.811489105224609375e-01,7.811177968978881836e-01,7.810867428779602051e-01,7.810556888580322266e-01,7.810245752334594727e-01,7.809935212135314941e-01,7.809624671936035156e-01,7.809314727783203125e-01,7.809003591537475586e-01,7.808693051338195801e-01,7.808382511138916016e-01,7.808071374893188477e-01,7.807761430740356445e-01,7.807450890541076660e-01,7.807140350341796875e-01,7.806829810142517090e-01,7.806519269943237305e-01,7.806209325790405273e-01,7.805898785591125488e-01
7.481600642204284668e-01,7.481315732002258301e-01,7.481031417846679688e-01,7.480746507644653320e-01,7.480461001396179199e-01,7.480176091194152832e-01,7.479891180992126465e-01,7.479606270790100098e-01,7.479320764541625977e-01,7.479036450386047363e-01,7.478751540184020996e-01,7.478466629981994629e-01,7.478181719779968262e-01,7.477896809577941895e-01,7.477611899375915527e-01,7.477326989173889160e-01,7.477042078971862793e-01,7.476757764816284180e-01,7.476473450660705566e-01,7.476187944412231445e-01,7.475903630256652832e-01,7.475618720054626465e-01,7.475334405899047852e-01,7.475049495697021484e-01,7.474765181541442871e-01,7.474480867385864258e-01,7.474196553230285645e-01,7.473911046981811523e-01,7.473626732826232910e-01,7.473342418670654297e-01,7.473058104515075684e-01,7.472773194313049316e-01,7.472488880157470703e-01,7.472205162048339844e-01,7.471920847892761230e-01,7.471635937690734863e-01,7.471351623535156250e-01,7.471067309379577637e-01,7.470783591270446777e-01,7.470498681068420410e-01,7.470214366912841797e-01,7.469930648803710938e-01,7.469646334648132324e-01,7.469362020492553711e-01,7.469077706336975098e-01,7.468793988227844238e-01,7.468510270118713379e-01,7.468225359916687012e-01,7.467941641807556152e-01,7.467657923698425293e-01,7.467373609542846680e-01,7.467089295387268066e-01,7.466805577278137207e-01,7.466521859169006348e-01,7.466238141059875488e-01,7.465953826904296875e-01,7.465669512748718262e-01,7.465386390686035156e-01,7.465102672576904297e-01,7.464818358421325684e-01,7.464534640312194824e-01,7.464250922203063965e-01,7.463967204093933105e-01,7.463682889938354492e-01,7.463399767875671387e-01,7.463116049766540527e-01,7.462832331657409668e-01,7.462548017501831055e-01,7.462264895439147949e-01,7.461981177330017090e-01,7.461698055267333984e-01,7.461413741111755371e-01,7.461130619049072266e-01,7.460846900939941406e-01,7.460563182830810547e-01,7.460280060768127441e-01,7.459996342658996582e-01,7.459713220596313477e-01,7.459429502487182617e-01,7.459146380424499512e-01
7.162473201751708984e-01,7.162211537361145020e-01,7.161949872970581055e-01,7.161688804626464844e-01,7.161427736282348633e-01,7.161166667938232422e-01,7.160905003547668457e-01,7.160643935203552246e-01,7.160383462905883789e-01,7.160122394561767578e-01,7.159860730171203613e-01,7.159599661827087402e-01,7.159338593482971191e-01,7.159078121185302734e-01,7.158816456794738770e-01,7.158555388450622559e-01,7.158294916152954102e-01,7.158033251762390137e-01,7.157772779464721680e-01,7.157511711120605469e-01,7.157251238822937012e-01,7.156989574432373047e-01,7.156729102134704590e-01,7.156468033790588379e-01,7.156207561492919922e-01,7.155946493148803711e-01,7.155685424804687500e-01,7.155424952507019043e-01,7.155164480209350586e-01,7.154903411865234375e-01,7.154642343521118164e-01,7.154381871223449707e-01,7.154121398925781250e-01,7.153860330581665039e-01,7.153599858283996582e-01,7.153339385986328125e-01,7.153078913688659668e-01,7.152817845344543457e-01,7.152557373046875000e-01,7.152296900749206543e-01,7.152036428451538086e-01,7.151775956153869629e-01,7.151515483856201172e-01,7.151255011558532715e-01,7.150994539260864258e-01,7.150734066963195801e-01,7.150473594665527344e-01,7.150213122367858887e-01,7.149953246116638184e-01,7.149692177772521973e-01,7.149432301521301270e-01,7.149171829223632812e-01,7.148911952972412109e-01,7.148650884628295898e-01,7.148391008377075195e-01,7.148131132125854492e-01,7.147870659828186035e-01,7.147610187530517578e-01,7.147350311279296875e-01,7.147089838981628418e-01,7.146829962730407715e-01,7.146569490432739258e-01,7.146309614181518555e-01,7.146049737930297852e-01,7.145789861679077148e-01,7.145528793334960938e-01,7.145268917083740234e-01,7.145009040832519531e-01,7.144749760627746582e-01,7.144489288330078125e-01,7.144229412078857422e-01,7.143969535827636719e-01,7.143709063529968262e-01,7.143449187278747559e-01,7.143189311027526855e-01,7.142930030822753906e-01,7.142669558525085449e-01,7.142409682273864746e-01,7.142150402069091797e-01,7.141890525817871094e-01
6.869455575942993164e-01,6.869215369224548340e-01,6.868975162506103516e-01,6.868734955787658691e-01,6.868494153022766113e-01,6.868253946304321289e-01,6.868013739585876465e-01,6.867774128913879395e-01,6.867533326148986816e-01,6.867293119430541992e-01,6.867052912712097168e-01,6.866813302040100098e-01,6.866572499275207520e-01,6.866332292556762695e-01,6.866092681884765625e-01,6.865851879119873047e-01,6.865612268447875977e-01,6.865372061729431152e-01,6.865132451057434082e-01,6.864891648292541504e-01,6.864652037620544434e-01,6.864411830902099609e-01,6.864172220230102539e-01,6.863932013511657715e-01,6.863691806793212891e-01,6.863452196121215820e-01,6.863212585449218750e-01,6.862972378730773926e-01,6.862732172012329102e-01,6.862492561340332031e-01,6.862252950668334961e-01,6.862012743949890137e-01,6.861773133277893066e-01,6.861533522605895996e-01,6.861293911933898926e-01,6.861053705215454102e-01,6.860814094543457031e-01,6.860574483871459961e-01,6.860334873199462891e-01,6.860094666481018066e-01,6.859855055809020996e-01,6.859615445137023926e-01,6.859375834465026855e-01,6.859136223793029785e-01,6.858896613121032715e-01,6.858657002449035645e-01,6.858417391777038574e-01,6.858177781105041504e-01,6.857938170433044434e-01,6.857698559761047363e-01,6.857459545135498047e-01,6.857219338417053223e-01,6.856980323791503906e-01,6.856740713119506836e-01,6.856501698493957520e-01,6.856261491775512695e-01,6.856022477149963379e-01,6.855783462524414062e-01,6.855543851852416992e-01,6.855304241180419922e-01,6.855065226554870605e-01,6.854825615882873535e-01,6.854586601257324219e-01,6.854346990585327148e-01,6.854107975959777832e-01,6.853868365287780762e-01,6.853629350662231445e-01,6.853389739990234375e-01,6.853150725364685059e-01,6.852911710739135742e-01,6.852672696113586426e-01,6.852433085441589355e-01,6.852194070816040039e-01,6.851955056190490723e-01,6.851715445518493652e-01,6.851476430892944336e-01,6.851237416267395020e-01,6.850998997688293457e-01,6.850759387016296387e-01,6.850520372390747070e-01
6.599470973014831543e-01,6.599249243736267090e-01,6.599026918411254883e-01,6.598805785179138184e-01,6.598584055900573730e-01,6.598362326622009277e-01,6.598140001296997070e-01,6.597918272018432617e-01,6.597697138786315918e-01,6.597475409507751465e-01,6.597253084182739258e-01,6.597031950950622559e-01,6.596810221672058105e-01,6.596588492393493652e-01,6.596366763114929199e-01,6.596145033836364746e-01,6.595923900604248047e-01,6.595702171325683594e-01,6.595480442047119141e-01,6.595259308815002441e-01,6.595037579536437988e-01,6.594815850257873535e-01,6.594594120979309082e-01,6.594372987747192383e-01,6.594151854515075684e-01,6.593929529190063477e-01,6.593708395957946777e-01,6.593487262725830078e-01,6.593266129493713379e-01,6.593044400215148926e-01,6.592822670936584473e-01,6.592601537704467773e-01,6.592380404472351074e-01,6.592158675193786621e-01,6.591937541961669922e-01,6.591716408729553223e-01,6.591495275497436523e-01,6.591273546218872070e-01,6.591052412986755371e-01,6.590831279754638672e-01,6.590610146522521973e-01,6.590388417243957520e-01,6.590167284011840820e-01,6.589946150779724121e-01,6.589725017547607422e-01,6.589503884315490723e-01,6.589282751083374023e-01,6.589061617851257324e-01,6.588840484619140625e-01,6.588619351387023926e-01,6.588398218154907227e-01,6.588177084922790527e-01,6.587956547737121582e-01,6.587734818458557129e-01,6.587514281272888184e-01,6.587293148040771484e-01,6.587072014808654785e-01,6.586850881576538086e-01,6.586630344390869141e-01,6.586409211158752441e-01,6.586188673973083496e-01,6.585966944694519043e-01,6.585746407508850098e-01,6.585525870323181152e-01,6.585304737091064453e-01,6.585083603858947754e-01,6.584863066673278809e-01,6.584641933441162109e-01,6.584421396255493164e-01,6.584200263023376465e-01,6.583979725837707520e-01,6.583759188652038574e-01,6.583538055419921875e-01,6.583316922187805176e-01,6.583096385002136230e-01,6.582875847816467285e-01,6.582654714584350586e-01,6.582434177398681641e-01,6.582213640213012695e-01,6.581993103027343750e-01
