5.000000000000000000e+00,5.000000000000000000e+00,5.000000000000000000e+00,5.000000000000000000e+00,5.000000000000000000e+00,5.000000000000000000e+00,5.000000000000000000e+00,5.000000000000000000e+00,5.000000000000000000e+00,5.000000000000000000e+00,5.000000000000000000e+00,5.000000000000000000e+00,5.000000000000000000e+00,1.863659858703613281e+00,1.869762659072875977e+00,1.885591387748718262e+00,1.938679933547973633e+00,1.940706729888916016e+00,1.932747840881347656e+00,1.940238356590270996e+00,1.953929662704467773e+00,1.975058078765869141e+00,2.003761053085327148e+00,2.050272941589355469e+00,2.205118894577026367e+00,2.271990060806274414e+00,5.000000000000000000e+00,5.000000000000000000e+00,5.000000000000000000e+00,5.000000000000000000e+00,5.000000000000000000e+00,5.000000000000000000e+00,5.000000000000000000e+00,5.000000000000000000e+00,5.000000000000000000e+00,5.000000000000000000e+00,5.000000000000000000e+00,5.000000000000000000e+00,5.000000000000000000e+00,4.856115818023681641e+00,4.665647506713867188e+00,4.489556789398193359e+00,4.326274394989013672e+00,4.174452304840087891e+00,4.032924175262451172e+00,3.900678634643554688e+00,3.776830673217773438e+00,3.660604715347290039e+00,3.551319122314453125e+00,3.448369026184082031e+00,3.351220369338989258e+00,3.259395122528076172e+00,3.172467708587646484e+00,3.090056657791137695e+00,3.011818885803222656e+00,2.937445163726806641e+00,2.866655826568603516e+00,2.799198389053344727e+00,2.734842300415039062e+00,2.673379421234130859e+00,2.614618062973022461e+00,2.558384418487548828e+00,2.504518985748291016e+00,2.452874660491943359e+00,2.403317451477050781e+00,2.355722904205322266e+00,2.309976816177368164e+00,2.265973567962646484e+00,2.223615407943725586e+00,2.182811975479125977e+00,2.143478870391845703e+00,2.105538368225097656e+00,2.068917512893676758e+00,2.033548831939697266e+00,1.999369025230407715e+00,1.966319322586059570e+00,1.934344291687011719e+00,1.903392553329467773e+00,1.873415946960449219e+00,1.844368815422058105e+00
5.000000000000000000e+00,5.000000000000000000e+00,5.000000000000000000e+00,5.000000000000000000e+00,5.000000000000000000e+00,5.000000000000000000e+00,5.000000000000000000e+00,5.000000000000000000e+00,5.000000000000000000e+00,5.000000000000000000e+00,5.000000000000000000e+00,5.000000000000000000e+00,5.000000000000000000e+00,1.863552212715148926e+00,1.868573427200317383e+00,1.891229033470153809e+00,1.957170724868774414e+00,1.937581062316894531e+00,1.929108500480651855e+00,1.938035011291503906e+00,1.956782698631286621e+00,1.977755069732666016e+00,2.006815910339355469e+00,2.049352407455444336e+00,2.205626964569091797e+00,5.000000000000000000e+00,5.000000000000000000e+00,5.000000000000000000e+00,5.000000000000000000e+00,5.000000000000000000e+00,5.000000000000000000e+00,5.000000000000000000e+00,5.000000000000000000e+00,5.000000000000000000e+00,5.000000000000000000e+00,5.000000000000000000e+00,5.000000000000000000e+00,5.000000000000000000e+00,5.000000000000000000e+00,4.856254577636718750e+00,4.665775775909423828e+00,4.489675521850585938e+00,4.326384544372558594e+00,4.174554347991943359e+00,4.033020019531250000e+00,3.900768280029296875e+00,3.776914358139038086e+00,3.660683870315551758e+00,3.551393032073974609e+00,3.448439359664916992e+00,3.351286172866821289e+00,3.259457349777221680e+00,3.172527074813842773e+00,3.090112686157226562e+00,3.011872291564941406e+00,2.937495708465576172e+00,2.866704225540161133e+00,2.799244403839111328e+00,2.734886407852172852e+00,2.673421382904052734e+00,2.614658355712890625e+00,2.558423042297363281e+00,2.504555702209472656e+00,2.452910184860229492e+00,2.403351306915283203e+00,2.355755567550659180e+00,2.310008049011230469e+00,2.266003608703613281e+00,2.223644495010375977e+00,2.182840108871459961e+00,2.143506050109863281e+00,2.105564355850219727e+00,2.068942785263061523e+00,2.033573150634765625e+00,1.999392628669738770e+00,1.966342091560363770e+00,1.934366345405578613e+00,1.903414011001586914e+00,1.873436450958251953e+00,1.844388842582702637e+00
5.000000000000000000e+00,5.000000000000000000e+00,5.000000000000000000e+00,5.000000000000000000e+00,5.000000000000000000e+00,5.000000000000000000e+00,5.000000000000000000e+00,5.000000000000000000e+00,5.000000000000000000e+00,5.000000000000000000e+00,5.000000000000000000e+00,5.000000000000000000e+00,5.000000000000000000e+00,1.853376507759094238e+00,1.853785157203674316e+00,1.894924640655517578e+00,1.939543128013610840e+00,1.929126262664794922e+00,1.923426747322082520e+00,1.930212736129760742e+00,1.948411464691162109e+00,1.981236338615417480e+00,2.007613658905029297e+00,2.051719903945922852e+00,2.208482980728149414e+00,5.000000000000000000e+00,5.000000000000000000e+00,5.000000000000000000e+00,5.000000000000000000e+00,5.000000000000000000e+00,5.000000000000000000e+00,5.000000000000000000e+00,5.000000000000000000e+00,5.000000000000000000e+00,5.000000000000000000e+00,5.000000000000000000e+00,5.000000000000000000e+00,5.000000000000000000e+00,5.000000000000000000e+00,4.856393337249755859e+00,4.665903568267822266e+00,4.489793777465820312e+00,4.326494216918945312e+00,4.174656867980957031e+00,4.033115863800048828e+00,3.900857686996459961e+00,3.776998519897460938e+00,3.660762548446655273e+00,3.551467657089233398e+00,3.448509216308593750e+00,3.351352214813232422e+00,3.259520053863525391e+00,3.172586202621459961e+00,3.090169191360473633e+00,3.011925458908081055e+00,2.937546730041503906e+00,2.866752624511718750e+00,2.799290657043457031e+00,2.734930515289306641e+00,2.673463344573974609e+00,2.614698648452758789e+00,2.558461427688598633e+00,2.504592657089233398e+00,2.452945470809936523e+00,2.403385400772094727e+00,2.355788230895996094e+00,2.310039520263671875e+00,2.266033887863159180e+00,2.223673582077026367e+00,2.182868003845214844e+00,2.143532991409301758e+00,2.105590581893920898e+00,2.068967819213867188e+00,2.033597469329833984e+00,1.999415993690490723e+00,1.966364741325378418e+00,1.934388399124145508e+00,1.903435349464416504e+00,1.873457193374633789e+00,1.844408750534057617e+00
5.000000000000000000e+00,5.000000000000000000e+00,5.000000000000000000e+00,5.000000000000000000e+00,5.000000000000000000e+00,5.000000000000000000e+00,5.000000000000000000e+00,5.000000000000000000e+00,5.000000000000000000e+00,5.000000000000000000e+00,5.000000000000000000e+00,5.000000000000000000e+00,5.000000000000000000e+00,1.838404655456542969e+00,1.829806804656982422e+00,1.850986719131469727e+00,1.936397433280944824e+00,1.929668664932250977e+00,1.936113595962524414e+00,1.937102317810058594e+00,1.945476293563842773e+00,1.972418427467346191e+00,1.998960375785827637e+00,2.036208152770996094e+00,2.222503423690795898e+00,5.000000000000000000e+00,5.000000000000000000e+00,5.000000000000000000e+00,5.000000000000000000e+00,5.000000000000000000e+00,5.000000000000000000e+00,5.000000000000000000e+00,5.000000000000000000e+00,5.000000000000000000e+00,5.000000000000000000e+00,5.000000000000000000e+00,5.000000000000000000e+00,5.000000000000000000e+00,5.000000000000000000e+00,4.856532096862792969e+00,4.666031837463378906e+00,4.489912509918212891e+00,4.326604366302490234e+00,4.174759387969970703e+00,4.033211231231689453e+00,3.900947332382202148e+00,3.777082204818725586e+00,3.660841464996337891e+00,3.551541566848754883e+00,3.448578834533691406e+00,3.351418495178222656e+00,3.259582519531250000e+00,3.172645568847656250e+00,3.090225219726562500e+00,3.011979103088378906e+00,2.937597274780273438e+00,2.866801023483276367e+00,2.799336671829223633e+00,2.734974384307861328e+00,2.673505544662475586e+00,2.614738702774047852e+00,2.558500051498413086e+00,2.504629611968994141e+00,2.452980995178222656e+00,2.403419256210327148e+00,2.355820655822753906e+00,2.310070991516113281e+00,2.266064167022705078e+00,2.223702907562255859e+00,2.182896137237548828e+00,2.143560171127319336e+00,2.105616569519042969e+00,2.068993091583251953e+00,2.033621788024902344e+00,1.999439597129821777e+00,1.966387510299682617e+00,1.934410333633422852e+00,1.903456687927246094e+00,1.873477935791015625e+00,1.844428777694702148e+00
5.000000000000000000e+00,5.000000000000000000e+00,5.000000000000000000e+00,5.000000000000000000e+00,5.000000000000000000e+00,5.000000000000000000e+00,5.000000000000000000e+00,5.000000000000000000e+00,5.000000000000000000e+00,5.000000000000000000e+00,5.000000000000000000e+00,5.000000000000000000e+00,5.000000000000000000e+00,1.844224452972412109e+00,1.813739061355590820e+00,1.822259068489074707e+00,1.895608782768249512e+00,1.924786090850830078e+00,1.930726051330566406e+00,1.937820076942443848e+00,1.955842018127441406e+00,1.975268840789794922e+00,1.996396899223327637e+00,2.031769990921020508e+00,2.238346576690673828e+00,5.000000000000000000e+00,5.000000000000000000e+00,5.000000000000000000e+00,5.000000000000000000e+00,5.000000000000000000e+00,5.000000000000000000e+00,5.000000000000000000e+00,5.000000000000000000e+00,5.000000000000000000e+00,5.000000000000000000e+00,5.000000000000000000e+00,5.000000000000000000e+00,5.000000000000000000e+00,5.000000000000000000e+00,4.856670856475830078e+00,4.666159629821777344e+00,4.490030765533447266e+00,4.326714515686035156e+00,4.174862384796142578e+00,4.033307075500488281e+00,3.901036739349365234e+00,3.777166366577148438e+00,3.660920381546020508e+00,3.551615715026855469e+00,3.448649168014526367e+00,3.351484298706054688e+00,3.259645223617553711e+00,3.172704696655273438e+00,3.090281486511230469e+00,3.012032270431518555e+00,2.937648296356201172e+00,2.866849184036254883e+00,2.799382448196411133e+00,2.735018491744995117e+00,2.673547506332397461e+00,2.614778995513916016e+00,2.558538675308227539e+00,2.504666566848754883e+00,2.453016281127929688e+00,2.403453111648559570e+00,2.355853557586669922e+00,2.310102224349975586e+00,2.266094446182250977e+00,2.223731756210327148e+00,2.182924270629882812e+00,2.143587112426757812e+00,2.105642795562744141e+00,2.069018125534057617e+00,2.033646106719970703e+00,1.999463200569152832e+00,1.966410279273986816e+00,1.934432387351989746e+00,1.903477907180786133e+00,1.873498678207397461e+00,1.844448804855346680e+00
5.000000000000000000e+00,5.000000000000000000e+00,5.000000000000000000e+00,5.000000000000000000e+00,5.000000000000000000e+00,5.000000000000000000e+00,5.000000000000000000e+00,5.000000000000000000e+00,5.000000000000000000e+00,5.000000000000000000e+00,5.000000000000000000e+00,5.000000000000000000e+00,5.000000000000000000e+00,5.000000000000000000e+00,1.793973922729492188e+00,1.795344352722167969e+00,1.822563767433166504e+00,1.922743320465087891e+00,1.931368589401245117e+00,1.942528009414672852e+00,1.959912419319152832e+00,1.974692821502685547e+00,2.012469053268432617e+00,2.060130357742309570e+00,2.250091075897216797e+00,5.000000000000000000e+00,5.000000000000000000e+00,5.000000000000000000e+00,5.000000000000000000e+00,5.000000000000000000e+00,5.000000000000000000e+00,5.000000000000000000e+00,5.000000000000000000e+00,5.000000000000000000e+00,5.000000000000000000e+00,5.000000000000000000e+00,5.000000000000000000e+00,5.000000000000000000e+00,5.000000000000000000e+00,4.856809616088867188e+00,4.666287899017333984e+00,4.490149497985839844e+00,4.326825141906738281e+00,4.174964904785156250e+00,4.033402919769287109e+00,3.901126623153686523e+00,3.777250289916992188e+00,3.660999059677124023e+00,3.551690101623535156e+00,3.448719024658203125e+00,3.351550579071044922e+00,3.259707689285278320e+00,3.172764062881469727e+00,3.090337514877319336e+00,3.012085676193237305e+00,2.937699079513549805e+00,2.866897583007812500e+00,2.799428701400756836e+00,2.735062360763549805e+00,2.673589706420898438e+00,2.614819288253784180e+00,2.558577299118041992e+00,2.504703521728515625e+00,2.453051567077636719e+00,2.403487205505371094e+00,2.355885982513427734e+00,2.310133695602416992e+00,2.266124486923217773e+00,2.223761081695556641e+00,2.182952165603637695e+00,2.143614053726196289e+00,2.105668783187866211e+00,2.069043397903442383e+00,2.033670425415039062e+00,1.999486565589904785e+00,1.966433167457580566e+00,1.934454441070556641e+00,1.903499245643615723e+00,1.873519182205200195e+00,1.844468712806701660e+00
5.000000000000000000e+00,5.000000000000000000e+00,5.000000000000000000e+00,5.000000000000000000e+00,5.000000000000000000e+00,5.000000000000000000e+00,5.000000000000000000e+00,5.000000000000000000e+00,5.000000000000000000e+00,5.000000000000000000e+00,5.000000000000000000e+00,5.000000000000000000e+00,5.000000000000000000e+00,5.000000000000000000e+00,1.784538388252258301e+00,1.777123570442199707e+00,1.789953351020812988e+00,1.924040675163269043e+00,1.933462858200073242e+00,1.948650836944580078e+00,1.970356583595275879e+00,1.992210984230041504e+00,2.024854183197021484e+00,2.075813293457031250e+00,2.238937616348266602e+00,5.000000000000000000e+00,5.000000000000000000e+00,5.000000000000000000e+00,5.000000000000000000e+00,5.000000000000000000e+00,5.000000000000000000e+00,5.000000000000000000e+00,5.000000000000000000e+00,5.000000000000000000e+00,5.000000000000000000e+00,5.000000000000000000e+00,5.000000000000000000e+00,5.000000000000000000e+00,5.000000000000000000e+00,4.856948375701904297e+00,4.666416168212890625e+00,4.490268230438232422e+00,4.326935291290283203e+00,4.175067424774169922e+00,4.033498764038085938e+00,3.901215791702270508e+00,3.777333974838256836e+00,3.661077976226806641e+00,3.551764249801635742e+00,3.448789119720458984e+00,3.351616621017456055e+00,3.259770393371582031e+00,3.172823190689086914e+00,3.090393781661987305e+00,3.012139081954956055e+00,2.937749624252319336e+00,2.866945981979370117e+00,2.799474716186523438e+00,2.735106468200683594e+00,2.673631668090820312e+00,2.614859580993652344e+00,2.558615684509277344e+00,2.504740238189697266e+00,2.453087091445922852e+00,2.403521060943603516e+00,2.355918884277343750e+00,2.310165166854858398e+00,2.266154766082763672e+00,2.223790168762207031e+00,2.182980060577392578e+00,2.143641233444213867e+00,2.105694770812988281e+00,2.069068670272827148e+00,2.033694744110107422e+00,1.999510169029235840e+00,1.966455698013305664e+00,1.934476613998413086e+00,1.903520703315734863e+00,1.873539805412292480e+00,1.844488859176635742e+00
5.000000000000000000e+00,5.000000000000000000e+00,5.000000000000000000e+00,5.000000000000000000e+00,5.000000000000000000e+00,5.000000000000000000e+00,5.000000000000000000e+00,5.000000000000000000e+00,5.000000000000000000e+00,5.000000000000000000e+00,5.000000000000000000e+00,5.000000000000000000e+00,5.000000000000000000e+00,5.000000000000000000e+00,1.782683849334716797e+00,1.766269564628601074e+00,1.787597537040710449e+00,1.927580356597900391e+00,1.937808275222778320e+00,1.971219420433044434e+00,1.994369864463806152e+00,2.016456365585327148e+00,2.033173561096191406e+00,2.053061008453369141e+00,2.232039690017700195e+00,5.000000000000000000e+00,5.000000000000000000e+00,5.000000000000000000e+00,5.000000000000000000e+00,5.000000000000000000e+00,5.000000000000000000e+00,5.000000000000000000e+00,5.000000000000000000e+00,5.000000000000000000e+00,5.000000000000000000e+00,5.000000000000000000e+00,5.000000000000000000e+00,5.000000000000000000e+00,5.000000000000000000e+00,4.857087135314941406e+00,4.666544437408447266e+00,4.490386962890625000e+00,4.327045440673828125e+00,4.175169944763183594e+00,4.033594131469726562e+00,3.901305198669433594e+00,3.777418136596679688e+00,3.661156654357910156e+00,3.551838636398315430e+00,3.448858976364135742e+00,3.351682901382446289e+00,3.259832620620727539e+00,3.172882318496704102e+00,3.090450048446655273e+00,3.012192487716674805e+00,2.937800645828247070e+00,2.866994380950927734e+00,2.799520969390869141e+00,2.735150337219238281e+00,2.673673868179321289e+00,2.614899635314941406e+00,2.558654069900512695e+00,2.504777193069458008e+00,2.453122377395629883e+00,2.403555154800415039e+00,2.355951309204101562e+00,2.310196638107299805e+00,2.266185045242309570e+00,2.223819017410278320e+00,2.183008193969726562e+00,2.143668174743652344e+00,2.105720996856689453e+00,2.069093704223632812e+00,2.033719301223754883e+00,1.999533772468566895e+00,1.966478586196899414e+00,1.934498429298400879e+00,1.903541803359985352e+00,1.873560547828674316e+00,1.844508886337280273e+00
5.000000000000000000e+00,5.000000000000000000e+00,5.000000000000000000e+00,5.000000000000000000e+00,5.000000000000000000e+00,5.000000000000000000e+00,5.000000000000000000e+00,5.000000000000000000e+00,5.000000000000000000e+00,5.000000000000000000e+00,5.000000000000000000e+00,5.000000000000000000e+00,5.000000000000000000e+00,5.000000000000000000e+00,2.003205060958862305e+00,1.745404005050659180e+00,1.735339999198913574e+00,1.762619495391845703e+00,1.942299604415893555e+00,1.974357247352600098e+00,2.025634288787841797e+00,1.998515725135803223e+00,1.992167353630065918e+00,1.996528148651123047e+00,2.031338453292846680e+00,5.000000000000000000e+00,5.000000000000000000e+00,5.000000000000000000e+00,5.000000000000000000e+00,5.000000000000000000e+00,5.000000000000000000e+00,5.000000000000000000e+00,5.000000000000000000e+00,5.000000000000000000e+00,5.000000000000000000e+00,5.000000000000000000e+00,5.000000000000000000e+00,5.000000000000000000e+00,5.000000000000000000e+00,4.857225894927978516e+00,4.666672229766845703e+00,4.490505695343017578e+00,4.327155590057373047e+00,4.175272464752197266e+00,4.033689975738525391e+00,3.901395082473754883e+00,3.777502059936523438e+00,3.661235809326171875e+00,3.551912784576416016e+00,3.448929071426391602e+00,3.351748943328857422e+00,3.259895086288452148e+00,3.172941684722900391e+00,3.090506076812744141e+00,3.012245893478393555e+00,2.937851190567016602e+00,2.867042779922485352e+00,2.799566984176635742e+00,2.735194683074951172e+00,2.673715829849243164e+00,2.614939928054809570e+00,2.558692693710327148e+00,2.504814147949218750e+00,2.453157901763916016e+00,2.403589248657226562e+00,2.355984210968017578e+00,2.310227870941162109e+00,2.266215085983276367e+00,2.223848342895507812e+00,2.183036327362060547e+00,2.143695354461669922e+00,2.105746984481811523e+00,2.069118976593017578e+00,2.033743381500244141e+00,1.999557256698608398e+00,1.966501355171203613e+00,1.934520483016967773e+00,1.903563261032104492e+00,1.873581051826477051e+00,1.844528913497924805e+00
5.000000000000000000e+00,5.000000000000000000e+00,5.000000000000000000e+00,5.000000000000000000e+00,5.000000000000000000e+00,5.000000000000000000e+00,5.000000000000000000e+00,5.000000000000000000e+00,5.000000000000000000e+00,5.000000000000000000e+00,5.000000000000000000e+00,5.000000000000000000e+00,5.000000000000000000e+00,5.000000000000000000e+00,2.005597114562988281e+00,1.731342673301696777e+00,1.730897188186645508e+00,1.931497812271118164e+00,1.758391380310058594e+00,1.975548148155212402e+00,2.016768217086791992e+00,1.990662217140197754e+00,1.972133398056030273e+00,1.979913473129272461e+00,1.988804340362548828e+00,2.074861049652099609e+00,5.000000000000000000e+00,5.000000000000000000e+00,5.000000000000000000e+00,5.000000000000000000e+00,5.000000000000000000e+00,5.000000000000000000e+00,5.000000000000000000e+00,5.000000000000000000e+00,5.000000000000000000e+00,5.000000000000000000e+00,5.000000000000000000e+00,5.000000000000000000e+00,5.000000000000000000e+00,4.857365131378173828e+00,4.666800498962402344e+00,4.490624427795410156e+00,4.327265262603759766e+00,4.175374984741210938e+00,4.033785820007324219e+00,3.901484489440917969e+00,3.777586221694946289e+00,3.661314487457275391e+00,3.551987171173095703e+00,3.448998928070068359e+00,3.351814746856689453e+00,3.259957790374755859e+00,3.173000812530517578e+00,3.090562582015991211e+00,3.012299299240112305e+00,2.937902212142944336e+00,2.867090940475463867e+00,2.799613237380981445e+00,2.735238552093505859e+00,2.673757791519165039e+00,2.614980220794677734e+00,2.558731079101562500e+00,2.504851102828979492e+00,2.453193187713623047e+00,2.403623342514038086e+00,2.356016874313354492e+00,2.310259342193603516e+00,2.266245365142822266e+00,2.223877191543579102e+00,2.183064460754394531e+00,2.143722295761108398e+00,2.105773210525512695e+00,2.069144010543823242e+00,2.033767938613891602e+00,1.999580621719360352e+00,1.966524004936218262e+00,1.934542536735534668e+00,1.903584599494934082e+00,1.873601794242858887e+00,1.844548821449279785e+00
5.000000000000000000e+00,5.000000000000000000e+00,5.000000000000000000e+00,5.000000000000000000e+00,5.000000000000000000e+00,5.000000000000000000e+00,5.000000000000000000e+00,5.000000000000000000e+00,5.000000000000000000e+00,5.000000000000000000e+00,5.000000000000000000e+00,5.000000000000000000e+00,5.000000000000000000e+00,5.000000000000000000e+00,2.007199048995971680e+00,1.719818949699401855e+00,1.706494927406311035e+00,1.698036193847656250e+00,1.950962781906127930e+00,1.978702902793884277e+00,2.033477783203125000e+00,1.990226387977600098e+00,1.966535925865173340e+00,1.968242406845092773e+00,1.977111220359802246e+00,2.034755468368530273e+00,5.000000000000000000e+00,5.000000000000000000e+00,5.000000000000000000e+00,5.000000000000000000e+00,5.000000000000000000e+00,5.000000000000000000e+00,5.000000000000000000e+00,5.000000000000000000e+00,5.000000000000000000e+00,5.000000000000000000e+00,5.000000000000000000e+00,5.000000000000000000e+00,5.000000000000000000e+00,4.857503890991210938e+00,4.666928291320800781e+00,4.490742683410644531e+00,4.327375888824462891e+00,4.175477504730224609e+00,4.033881664276123047e+00,3.901574373245239258e+00,3.777669906616210938e+00,3.661393642425537109e+00,3.552061080932617188e+00,3.449068784713745117e+00,3.351881027221679688e+00,3.260020256042480469e+00,3.173060178756713867e+00,3.090618610382080078e+00,3.012352705001831055e+00,2.937952756881713867e+00,2.867139339447021484e+00,2.799659252166748047e+00,2.735282421112060547e+00,2.673799991607666016e+00,2.615020275115966797e+00,2.558769702911376953e+00,2.504888057708740234e+00,2.453228712081909180e+00,2.403657197952270508e+00,2.356049299240112305e+00,2.310290813446044922e+00,2.266275644302368164e+00,2.223906517028808594e+00,2.183092355728149414e+00,2.143749475479125977e+00,2.105799198150634766e+00,2.069169282913208008e+00,2.033792257308959961e+00,1.999604225158691406e+00,1.966546773910522461e+00,1.934564471244812012e+00,1.903605937957763672e+00,1.873622536659240723e+00,1.844568967819213867e+00
5.000000000000000000e+00,5.000000000000000000e+00,5.000000000000000000e+00,5.000000000000000000e+00,5.000000000000000000e+00,5.000000000000000000e+00,5.000000000000000000e+00,5.000000000000000000e+00,5.000000000000000000e+00,5.000000000000000000e+00,5.000000000000000000e+00,5.000000000000000000e+00,5.000000000000000000e+00,5.000000000000000000e+00,5.000000000000000000e+00,1.733213067054748535e+00,1.690639019012451172e+00,1.948753714561462402e+00,1.959291934967041016e+00,1.989787459373474121e+00,2.054774284362792969e+00,1.988834261894226074e+00,1.964631795883178711e+00,1.953971982002258301e+00,1.965515017509460449e+00,1.998094916343688965e+00,5.000000000000000000e+00,5.000000000000000000e+00,5.000000000000000000e+00,5.000000000000000000e+00,5.000000000000000000e+00,5.000000000000000000e+00,5.000000000000000000e+00,5.000000000000000000e+00,5.000000000000000000e+00,5.000000000000000000e+00,5.000000000000000000e+00,5.000000000000000000e+00,5.000000000000000000e+00,4.857642173767089844e+00,4.667056560516357422e+00,4.490861415863037109e+00,4.327486038208007812e+00,4.175580024719238281e+00,4.033977031707763672e+00,3.901663541793823242e+00,3.777754068374633789e+00,3.661472320556640625e+00,3.552135229110717773e+00,3.449139118194580078e+00,3.351947069168090820e+00,3.260082960128784180e+00,3.173119306564331055e+00,3.090674877166748047e+00,3.012406110763549805e+00,2.938003540039062500e+00,2.867187738418579102e+00,2.799705266952514648e+00,2.735326528549194336e+00,2.673841953277587891e+00,2.615060806274414062e+00,2.558808088302612305e+00,2.504925012588500977e+00,2.453264236450195312e+00,2.403691053390502930e+00,2.356082201004028320e+00,2.310322046279907227e+00,2.266305923461914062e+00,2.223935604095458984e+00,2.183120489120483398e+00,2.143776416778564453e+00,2.105825185775756836e+00,2.069194555282592773e+00,2.033816576004028320e+00,1.999627828598022461e+00,1.966569662094116211e+00,1.934586524963378906e+00,1.903627157211303711e+00,1.873643159866333008e+00,1.844588994979858398e+00
5.000000000000000000e+00,5.000000000000000000e+00,5.000000000000000000e+00,5.000000000000000000e+00,5.000000000000000000e+00,5.000000000000000000e+00,5.000000000000000000e+00,5.000000000000000000e+00,5.000000000000000000e+00,5.000000000000000000e+00,5.000000000000000000e+00,5.000000000000000000e+00,5.000000000000000000e+00,5.000000000000000000e+00,5.000000000000000000e+00,1.972494244575500488e+00,1.949993729591369629e+00,1.959424257278442383e+00,1.969941020011901855e+00,2.007700443267822266e+00,5.000000000000000000e+00,1.998656511306762695e+00,1.962731122970581055e+00,1.939271926879882812e+00,1.950743079185485840e+00,1.962572932243347168e+00,5.000000000000000000e+00,5.000000000000000000e+00,5.000000000000000000e+00,5.000000000000000000e+00,5.000000000000000000e+00,5.000000000000000000e+00,5.000000000000000000e+00,5.000000000000000000e+00,5.000000000000000000e+00,5.000000000000000000e+00,5.000000000000000000e+00,5.000000000000000000e+00,5.000000000000000000e+00,4.857781410217285156e+00,4.667184829711914062e+00,4.490980148315429688e+00,4.327596187591552734e+00,4.175683021545410156e+00,4.034072875976562500e+00,3.901753425598144531e+00,3.777837991714477539e+00,3.661550998687744141e+00,3.552209615707397461e+00,3.449208974838256836e+00,3.352013349533081055e+00,3.260145187377929688e+00,3.173178672790527344e+00,3.090731143951416016e+00,3.012459278106689453e+00,2.938054561614990234e+00,2.867236137390136719e+00,2.799751520156860352e+00,2.735370397567749023e+00,2.673884153366088867e+00,2.615100860595703125e+00,2.558846950531005859e+00,2.504961729049682617e+00,2.453299522399902344e+00,2.403725147247314453e+00,2.356114625930786133e+00,2.310353517532348633e+00,2.266335964202880859e+00,2.223964691162109375e+00,2.183148384094238281e+00,2.143803358078002930e+00,2.105851411819458008e+00,2.069219589233398438e+00,2.033840894699096680e+00,1.999651193618774414e+00,1.966592431068420410e+00,1.934608578681945801e+00,1.903648495674133301e+00,1.873663663864135742e+00,1.844608902931213379e+00
5.000000000000000000e+00,5.000000000000000000e+00,5.000000000000000000e+00,5.000000000000000000e+00,5.000000000000000000e+00,5.000000000000000000e+00,5.000000000000000000e+00,5.000000000000000000e+00,5.000000000000000000e+00,5.000000000000000000e+00,5.000000000000000000e+00,5.000000000000000000e+00,5.000000000000000000e+00,5.000000000000000000e+00,5.000000000000000000e+00,1.986752867698669434e+00,1.961555957794189453e+00,1.970340013504028320e+00,1.980845689773559570e+00,2.026990890502929688e+00,5.000000000000000000e+00,2.013239145278930664e+00,1.960729718208312988e+00,1.934860706329345703e+00,1.937340140342712402e+00,1.949142694473266602e+00,2.022544860839843750e+00,5.000000000000000000e+00,5.000000000000000000e+00,5.000000000000000000e+00,5.000000000000000000e+00,5.000000000000000000e+00,5.000000000000000000e+00,5.000000000000000000e+00,5.000000000000000000e+00,5.000000000000000000e+00,5.000000000000000000e+00,5.000000000000000000e+00,5.000000000000000000e+00,4.857920169830322266e+00,4.667313098907470703e+00,4.491098880767822266e+00,4.327706336975097656e+00,4.175785541534423828e+00,4.034168720245361328e+00,3.901842832565307617e+00,3.777921676635742188e+00,3.661630153656005859e+00,3.552283763885498047e+00,3.449279069900512695e+00,3.352079391479492188e+00,3.260207891464233398e+00,3.173237800598144531e+00,3.090787172317504883e+00,3.012512922286987305e+00,2.938105106353759766e+00,2.867284536361694336e+00,2.799797534942626953e+00,2.735414743423461914e+00,2.673926115036010742e+00,2.615141153335571289e+00,2.558885335922241211e+00,2.504998683929443359e+00,2.453335046768188477e+00,2.403759002685546875e+00,2.356147527694702148e+00,2.310384988784790039e+00,2.266366481781005859e+00,2.223993778228759766e+00,2.183176517486572266e+00,2.143830537796020508e+00,2.105877399444580078e+00,2.069244861602783203e+00,2.033865213394165039e+00,1.999674797058105469e+00,1.966615080833435059e+00,1.934630751609802246e+00,1.903669953346252441e+00,1.873684406280517578e+00,1.844628930091857910e+00
5.000000000000000000e+00,5.000000000000000000e+00,5.000000000000000000e+00,5.000000000000000000e+00,5.000000000000000000e+00,5.000000000000000000e+00,5.000000000000000000e+00,5.000000000000000000e+00,5.000000000000000000e+00,5.000000000000000000e+00,5.000000000000000000e+00,5.000000000000000000e+00,5.000000000000000000e+00,5.000000000000000000e+00,5.000000000000000000e+00,2.000591754913330078e+00,1.973255991935729980e+00,1.982145547866821289e+00,1.991871595382690430e+00,2.043312788009643555e+00,5.000000000000000000e+00,5.000000000000000000e+00,1.956015825271606445e+00,1.931143403053283691e+00,1.918736457824707031e+00,1.934966206550598145e+00,1.960356354713439941e+00,5.000000000000000000e+00,5.000000000000000000e+00,5.000000000000000000e+00,5.000000000000000000e+00,5.000000000000000000e+00,5.000000000000000000e+00,5.000000000000000000e+00,5.000000000000000000e+00,5.000000000000000000e+00,5.000000000000000000e+00,5.000000000000000000e+00,5.000000000000000000e+00,4.858058929443359375e+00,4.667441368103027344e+00,4.491217613220214844e+00,4.327816486358642578e+00,4.175888061523437500e+00,4.034264564514160156e+00,3.901932239532470703e+00,3.778006076812744141e+00,3.661708831787109375e+00,3.552358388900756836e+00,3.449348926544189453e+00,3.352145671844482422e+00,3.260270357131958008e+00,3.173296928405761719e+00,3.090843439102172852e+00,3.012566089630126953e+00,2.938156127929687500e+00,2.867332935333251953e+00,2.799843788146972656e+00,2.735458612442016602e+00,2.673968315124511719e+00,2.615181446075439453e+00,2.558923721313476562e+00,2.505035638809204102e+00,2.453370332717895508e+00,2.403793334960937500e+00,2.356179952621459961e+00,2.310416460037231445e+00,2.266396522521972656e+00,2.224022865295410156e+00,2.183204650878906250e+00,2.143857479095458984e+00,2.105903625488281250e+00,2.069270133972167969e+00,2.033889532089233398e+00,1.999698400497436523e+00,1.966637849807739258e+00,1.934652566909790039e+00,1.903691053390502930e+00,1.873705148696899414e+00,1.844649076461791992e+00
5.000000000000000000e+00,5.000000000000000000e+00,5.000000000000000000e+00,5.000000000000000000e+00,5.000000000000000000e+00,5.000000000000000000e+00,5.000000000000000000e+00,5.000000000000000000e+00,5.000000000000000000e+00,5.000000000000000000e+00,5.000000000000000000e+00,5.000000000000000000e+00,5.000000000000000000e+00,5.000000000000000000e+00,5.000000000000000000e+00,2.015928983688354492e+00,1.983526468276977539e+00,1.992192268371582031e+00,2.006834745407104492e+00,2.059989929199218750e+00,5.000000000000000000e+00,5.000000000000000000e+00,1.973825335502624512e+00,1.927440404891967773e+00,1.912580013275146484e+00,1.916407823562622070e+00,1.933276534080505371e+00,5.000000000000000000e+00,5.000000000000000000e+00,5.000000000000000000e+00,5.000000000000000000e+00,5.000000000000000000e+00,5.000000000000000000e+00,5.000000000000000000e+00,5.000000000000000000e+00,5.000000000000000000e+00,5.000000000000000000e+00,5.000000000000000000e+00,5.000000000000000000e+00,4.858198165893554688e+00,4.667569637298583984e+00,4.491336345672607422e+00,4.327926635742187500e+00,4.175990581512451172e+00,4.034360408782958984e+00,3.902022123336791992e+00,3.778089761734008789e+00,3.661787986755371094e+00,3.552432298660278320e+00,3.449419260025024414e+00,3.352211713790893555e+00,3.260332822799682617e+00,3.173356294631958008e+00,3.090899467468261719e+00,3.012619733810424805e+00,2.938206672668457031e+00,2.867381334304809570e+00,2.799889802932739258e+00,2.735502481460571289e+00,2.674010276794433594e+00,2.615221500396728516e+00,2.558962345123291016e+00,2.505072593688964844e+00,2.453405857086181641e+00,2.403827190399169922e+00,2.356212854385375977e+00,2.310447692871093750e+00,2.266426801681518555e+00,2.224051952362060547e+00,2.183232545852661133e+00,2.143884658813476562e+00,2.105929613113403320e+00,2.069295406341552734e+00,2.033913850784301758e+00,1.999721765518188477e+00,1.966660618782043457e+00,1.934674620628356934e+00,1.903712511062622070e+00,1.873725652694702148e+00,1.844669103622436523e+00
5.000000000000000000e+00,5.000000000000000000e+00,5.000000000000000000e+00,5.000000000000000000e+00,5.000000000000000000e+00,5.000000000000000000e+00,5.000000000000000000e+00,5.000000000000000000e+00,5.000000000000000000e+00,5.000000000000000000e+00,5.000000000000000000e+00,5.000000000000000000e+00,5.000000000000000000e+00,5.000000000000000000e+00,5.000000000000000000e+00,2.035718441009521484e+00,1.995643615722656250e+00,2.000707864761352539e+00,2.023308992385864258e+00,5.000000000000000000e+00,5.000000000000000000e+00,5.000000000000000000e+00,5.000000000000000000e+00,1.922969222068786621e+00,1.908757686614990234e+00,1.903655290603637695e+00,1.922257184982299805e+00,5.000000000000000000e+00,5.000000000000000000e+00,5.000000000000000000e+00,5.000000000000000000e+00,5.000000000000000000e+00,5.000000000000000000e+00,5.000000000000000000e+00,5.000000000000000000e+00,5.000000000000000000e+00,5.000000000000000000e+00,5.000000000000000000e+00,5.000000000000000000e+00,4.858336925506591797e+00,4.667697906494140625e+00,4.491455078125000000e+00,4.328036785125732422e+00,4.176093101501464844e+00,4.034455776214599609e+00,3.902111530303955078e+00,3.778173923492431641e+00,3.661866664886474609e+00,3.552506923675537109e+00,3.449489116668701172e+00,3.352277517318725586e+00,3.260395526885986328e+00,3.173415422439575195e+00,3.090955972671508789e+00,3.012672901153564453e+00,2.938257694244384766e+00,2.867429733276367188e+00,2.799936056137084961e+00,2.735546588897705078e+00,2.674052238464355469e+00,2.615261793136596680e+00,2.559000730514526367e+00,2.505109548568725586e+00,2.453441143035888672e+00,2.403861284255981445e+00,2.356245517730712891e+00,2.310479164123535156e+00,2.266457080841064453e+00,2.224081039428710938e+00,2.183260679244995117e+00,2.143911600112915039e+00,2.105955839157104492e+00,2.069320440292358398e+00,2.033938169479370117e+00,1.999745368957519531e+00,1.966683268547058105e+00,1.934696793556213379e+00,1.903733849525451660e+00,1.873746395111083984e+00,1.844689011573791504e+00
5.000000000000000000e+00,5.000000000000000000e+00,5.000000000000000000e+00,5.000000000000000000e+00,5.000000000000000000e+00,5.000000000000000000e+00,5.000000000000000000e+00,5.000000000000000000e+00,5.000000000000000000e+00,5.000000000000000000e+00,5.000000000000000000e+00,5.000000000000000000e+00,5.000000000000000000e+00,5.000000000000000000e+00,5.000000000000000000e+00,2.052160024642944336e+00,2.007909536361694336e+00,2.009296417236328125e+00,2.039414882659912109e+00,5.000000000000000000e+00,5.000000000000000000e+00,5.000000000000000000e+00,5.000000000000000000e+00,1.940271377563476562e+00,1.910796284675598145e+00,1.906808137893676758e+00,1.923892617225646973e+00,5.000000000000000000e+00,5.000000000000000000e+00,5.000000000000000000e+00,5.000000000000000000e+00,5.000000000000000000e+00,5.000000000000000000e+00,5.000000000000000000e+00,5.000000000000000000e+00,5.000000000000000000e+00,5.000000000000000000e+00,5.000000000000000000e+00,5.000000000000000000e+00,4.858475685119628906e+00,4.667825698852539062e+00,4.491573810577392578e+00,4.328146934509277344e+00,4.176195621490478516e+00,4.034551620483398438e+00,3.902201414108276367e+00,3.778257846832275391e+00,3.661945819854736328e+00,3.552580833435058594e+00,3.449558973312377930e+00,3.352343797683715820e+00,3.260457992553710938e+00,3.173474788665771484e+00,3.091012001037597656e+00,3.012726545333862305e+00,2.938308477401733398e+00,2.867477893829345703e+00,2.799982309341430664e+00,2.735590696334838867e+00,2.674094438552856445e+00,2.615302085876464844e+00,2.559039354324340820e+00,2.505146503448486328e+00,2.453476667404174805e+00,2.403895139694213867e+00,2.356277942657470703e+00,2.310510635375976562e+00,2.266487121582031250e+00,2.224110126495361328e+00,2.183288574218750000e+00,2.143938779830932617e+00,2.105981826782226562e+00,2.069345712661743164e+00,2.033962488174438477e+00,1.999768972396850586e+00,1.966706037521362305e+00,1.934718608856201172e+00,1.903755187988281250e+00,1.873767018318176270e+00,1.844709038734436035e+00
5.000000000000000000e+00,5.000000000000000000e+00,5.000000000000000000e+00,5.000000000000000000e+00,5.000000000000000000e+00,5.000000000000000000e+00,5.000000000000000000e+00,5.000000000000000000e+00,5.000000000000000000e+00,5.000000000000000000e+00,5.000000000000000000e+00,5.000000000000000000e+00,5.000000000000000000e+00,5.000000000000000000e+00,5.000000000000000000e+00,2.067475318908691406e+00,2.020855665206909180e+00,2.020392417907714844e+00,2.051274061203002930e+00,5.000000000000000000e+00,5.000000000000000000e+00,5.000000000000000000e+00,5.000000000000000000e+00,1.954970359802246094e+00,1.919057726860046387e+00,1.914329290390014648e+00,1.930195093154907227e+00,5.000000000000000000e+00,5.000000000000000000e+00,5.000000000000000000e+00,5.000000000000000000e+00,5.000000000000000000e+00,5.000000000000000000e+00,5.000000000000000000e+00,5.000000000000000000e+00,5.000000000000000000e+00,5.000000000000000000e+00,5.000000000000000000e+00,5.000000000000000000e+00,4.858614444732666016e+00,4.667953968048095703e+00,4.491692543029785156e+00,4.328257560729980469e+00,4.176298618316650391e+00,4.034647464752197266e+00,3.902290821075439453e+00,3.778342008590698242e+00,3.662024497985839844e+00,3.552654981613159180e+00,3.449629068374633789e+00,3.352409839630126953e+00,3.260520696640014648e+00,3.173533916473388672e+00,3.091068506240844727e+00,3.012779951095581055e+00,2.938359022140502930e+00,2.867526531219482422e+00,2.800028324127197266e+00,2.735634803771972656e+00,2.674136400222778320e+00,2.615342378616333008e+00,2.559077978134155273e+00,2.505183458328247070e+00,2.453511953353881836e+00,2.403928995132446289e+00,2.356310844421386719e+00,2.310541868209838867e+00,2.266517400741577148e+00,2.224139213562011719e+00,2.183316707611083984e+00,2.143965721130371094e+00,2.106008052825927734e+00,2.069370985031127930e+00,2.033986806869506836e+00,1.999792575836181641e+00,1.966728925704956055e+00,1.934740662574768066e+00,1.903776407241821289e+00,1.873787760734558105e+00,1.844729185104370117e+00
5.000000000000000000e+00,5.000000000000000000e+00,5.000000000000000000e+00,5.000000000000000000e+00,5.000000000000000000e+00,5.000000000000000000e+00,5.000000000000000000e+00,5.000000000000000000e+00,5.000000000000000000e+00,5.000000000000000000e+00,5.000000000000000000e+00,5.000000000000000000e+00,5.000000000000000000e+00,5.000000000000000000e+00,5.000000000000000000e+00,2.066644906997680664e+00,2.039107084274291992e+00,2.030781507492065430e+00,2.069715499877929688e+00,5.000000000000000000e+00,5.000000000000000000e+00,5.000000000000000000e+00,5.000000000000000000e+00,1.942954897880554199e+00,1.924525856971740723e+00,1.924202919006347656e+00,1.936538934707641602e+00,5.000000000000000000e+00,5.000000000000000000e+00,5.000000000000000000e+00,5.000000000000000000e+00,5.000000000000000000e+00,5.000000000000000000e+00,5.000000000000000000e+00,5.000000000000000000e+00,5.000000000000000000e+00,5.000000000000000000e+00,5.000000000000000000e+00,5.000000000000000000e+00,4.858753204345703125e+00,4.668082237243652344e+00,4.491811275482177734e+00,4.328367710113525391e+00,4.176401138305664062e+00,4.034743309020996094e+00,3.902380704879760742e+00,3.778425931930541992e+00,3.662103414535522461e+00,3.552729606628417969e+00,3.449698925018310547e+00,3.352476119995117188e+00,3.260583162307739258e+00,3.173593521118164062e+00,3.091124534606933594e+00,3.012833118438720703e+00,2.938410043716430664e+00,2.867574691772460938e+00,2.800074577331542969e+00,2.735678672790527344e+00,2.674178600311279297e+00,2.615382671356201172e+00,2.559116601943969727e+00,2.505220413208007812e+00,2.453547477722167969e+00,2.403963088989257812e+00,2.356343269348144531e+00,2.310573339462280273e+00,2.266547679901123047e+00,2.224168539047241211e+00,2.183344841003417969e+00,2.143992662429809570e+00,2.106034040451049805e+00,2.069396018981933594e+00,2.034011363983154297e+00,1.999815940856933594e+00,1.966751694679260254e+00,1.934762835502624512e+00,1.903797745704650879e+00,1.873808264732360840e+00,1.844748973846435547e+00
5.000000000000000000e+00,5.000000000000000000e+00,5.000000000000000000e+00,5.000000000000000000e+00,5.000000000000000000e+00,5.000000000000000000e+00,5.000000000000000000e+00,5.000000000000000000e+00,5.000000000000000000e+00,5.000000000000000000e+00,5.000000000000000000e+00,5.000000000000000000e+00,5.000000000000000000e+00,5.000000000000000000e+00,2.103682041168212891e+00,2.073143005371093750e+00,2.065851211547851562e+00,2.069411993026733398e+00,5.000000000000000000e+00,5.000000000000000000e+00,5.000000000000000000e+00,5.000000000000000000e+00,5.000000000000000000e+00,1.947725176811218262e+00,1.928604006767272949e+00,1.934179067611694336e+00,1.951023101806640625e+00,5.000000000000000000e+00,5.000000000000000000e+00,5.000000000000000000e+00,5.000000000000000000e+00,5.000000000000000000e+00,5.000000000000000000e+00,5.000000000000000000e+00,5.000000000000000000e+00,5.000000000000000000e+00,5.000000000000000000e+00,5.000000000000000000e+00,5.000000000000000000e+00,4.858892440795898438e+00,4.668210506439208984e+00,4.491930007934570312e+00,4.328477859497070312e+00,4.176503658294677734e+00,4.034839153289794922e+00,3.902470111846923828e+00,3.778509616851806641e+00,3.662182569503784180e+00,3.552803516387939453e+00,3.449769258499145508e+00,3.352542161941528320e+00,3.260645866394042969e+00,3.173652648925781250e+00,3.091180562973022461e+00,3.012886762619018555e+00,2.938460826873779297e+00,2.867623329162597656e+00,2.800120592117309570e+00,2.735722780227661133e+00,2.674220561981201172e+00,2.615422964096069336e+00,2.559154987335205078e+00,2.505257129669189453e+00,2.453583002090454102e+00,2.403997182846069336e+00,2.356376171112060547e+00,2.310604810714721680e+00,2.266577959060668945e+00,2.224197387695312500e+00,2.183372735977172852e+00,2.144019842147827148e+00,2.106060266494750977e+00,2.069421291351318359e+00,2.034035444259643555e+00,1.999839544296264648e+00,1.966774344444274902e+00,1.934784889221191406e+00,1.903819203376770020e+00,1.873829007148742676e+00,1.844769120216369629e+00
5.000000000000000000e+00,5.000000000000000000e+00,5.000000000000000000e+00,5.000000000000000000e+00,5.000000000000000000e+00,5.000000000000000000e+00,5.000000000000000000e+00,5.000000000000000000e+00,5.000000000000000000e+00,5.000000000000000000e+00,5.000000000000000000e+00,5.000000000000000000e+00,5.000000000000000000e+00,5.000000000000000000e+00,2.107511043548583984e+00,2.090718030929565430e+00,2.094896554946899414e+00,2.146284580230712891e+00,5.000000000000000000e+00,5.000000000000000000e+00,5.000000000000000000e+00,5.000000000000000000e+00,5.000000000000000000e+00,1.955156922340393066e+00,1.928026914596557617e+00,1.932389497756958008e+00,1.941494345664978027e+00,5.000000000000000000e+00,5.000000000000000000e+00,5.000000000000000000e+00,5.000000000000000000e+00,5.000000000000000000e+00,5.000000000000000000e+00,5.000000000000000000e+00,5.000000000000000000e+00,5.000000000000000000e+00,5.000000000000000000e+00,5.000000000000000000e+00,5.000000000000000000e+00,4.859030723571777344e+00,4.668338775634765625e+00,4.492048740386962891e+00,4.328588008880615234e+00,4.176606178283691406e+00,4.034934997558593750e+00,3.902559518814086914e+00,3.778594017028808594e+00,3.662261247634887695e+00,3.552878141403198242e+00,3.449839115142822266e+00,3.352608442306518555e+00,3.260708332061767578e+00,3.173711776733398438e+00,3.091237068176269531e+00,3.012939929962158203e+00,2.938511610031127930e+00,2.867671489715576172e+00,2.800166845321655273e+00,2.735766887664794922e+00,2.674262523651123047e+00,2.615463018417358398e+00,2.559193372726440430e+00,2.505294084548950195e+00,2.453618288040161133e+00,2.404031276702880859e+00,2.356408834457397461e+00,2.310636281967163086e+00,2.266608238220214844e+00,2.224226474761962891e+00,2.183400869369506836e+00,2.144046783447265625e+00,2.106086254119873047e+00,2.069446325302124023e+00,2.034060001373291016e+00,1.999863147735595703e+00,1.966797113418579102e+00,1.934806704521179199e+00,1.903840303421020508e+00,1.873849749565124512e+00,1.844789147377014160e+00
5.000000000000000000e+00,5.000000000000000000e+00,5.000000000000000000e+00,5.000000000000000000e+00,5.000000000000000000e+00,5.000000000000000000e+00,5.000000000000000000e+00,5.000000000000000000e+00,5.000000000000000000e+00,5.000000000000000000e+00,5.000000000000000000e+00,5.000000000000000000e+00,5.000000000000000000e+00,5.000000000000000000e+00,2.124402284622192383e+00,2.111550807952880859e+00,2.118713140487670898e+00,5.000000000000000000e+00,5.000000000000000000e+00,5.000000000000000000e+00,5.000000000000000000e+00,5.000000000000000000e+00,5.000000000000000000e+00,1.982479453086853027e+00,1.927108049392700195e+00,1.928662300109863281e+00,1.936290979385375977e+00,5.000000000000000000e+00,5.000000000000000000e+00,5.000000000000000000e+00,5.000000000000000000e+00,5.000000000000000000e+00,5.000000000000000000e+00,5.000000000000000000e+00,5.000000000000000000e+00,5.000000000000000000e+00,5.000000000000000000e+00,5.000000000000000000e+00,5.000000000000000000e+00,4.859169006347656250e+00,4.668466567993164062e+00,4.492167472839355469e+00,4.328698158264160156e+00,4.176708698272705078e+00,4.035030841827392578e+00,3.902649402618408203e+00,3.778677701950073242e+00,3.662340402603149414e+00,3.552952289581298828e+00,3.449909210205078125e+00,3.352674484252929688e+00,3.260770559310913086e+00,3.173771142959594727e+00,3.091293096542358398e+00,3.012993574142456055e+00,2.938562393188476562e+00,2.867720127105712891e+00,2.800212860107421875e+00,2.735810756683349609e+00,2.674304723739624023e+00,2.615503311157226562e+00,2.559231996536254883e+00,2.505331039428710938e+00,2.453653812408447266e+00,2.404065132141113281e+00,2.356441497802734375e+00,2.310667753219604492e+00,2.266638278961181641e+00,2.224255800247192383e+00,2.183429002761840820e+00,2.144073963165283203e+00,2.106112480163574219e+00,2.069471597671508789e+00,2.034084320068359375e+00,1.999886512756347656e+00,1.966820001602172852e+00,1.934828758239746094e+00,1.903861761093139648e+00,1.873870253562927246e+00,1.844809293746948242e+00
5.000000000000000000e+00,5.000000000000000000e+00,5.000000000000000000e+00,5.000000000000000000e+00,5.000000000000000000e+00,5.000000000000000000e+00,5.000000000000000000e+00,5.000000000000000000e+00,5.000000000000000000e+00,5.000000000000000000e+00,5.000000000000000000e+00,5.000000000000000000e+00,5.000000000000000000e+00,5.000000000000000000e+00,2.141394615173339844e+00,2.129185438156127930e+00,2.144065856933593750e+00,5.000000000000000000e+00,5.000000000000000000e+00,5.000000000000000000e+00,5.000000000000000000e+00,5.000000000000000000e+00,5.000000000000000000e+00,5.000000000000000000e+00,1.926189899444580078e+00,1.924137830734252930e+00,1.932858943939208984e+00,5.000000000000000000e+00,5.000000000000000000e+00,5.000000000000000000e+00,5.000000000000000000e+00,5.000000000000000000e+00,5.000000000000000000e+00,5.000000000000000000e+00,5.000000000000000000e+00,5.000000000000000000e+00,5.000000000000000000e+00,5.000000000000000000e+00,5.000000000000000000e+00,4.859307289123535156e+00,4.668594360351562500e+00,4.492285728454589844e+00,4.328808307647705078e+00,4.176811695098876953e+00,4.035126686096191406e+00,3.902738809585571289e+00,3.778762102127075195e+00,3.662419080734252930e+00,3.553026676177978516e+00,3.449979066848754883e+00,3.352740526199340820e+00,3.260833501815795898e+00,3.173830270767211914e+00,3.091349601745605469e+00,3.013046741485595703e+00,2.938613414764404297e+00,2.867768287658691406e+00,2.800258874893188477e+00,2.735854864120483398e+00,2.674346685409545898e+00,2.615543603897094727e+00,2.559270620346069336e+00,2.505367994308471680e+00,2.453689098358154297e+00,2.404099225997924805e+00,2.356474161148071289e+00,2.310698986053466797e+00,2.266668558120727539e+00,2.224284648895263672e+00,2.183457136154174805e+00,2.144100904464721680e+00,2.106138467788696289e+00,2.069496870040893555e+00,2.034108638763427734e+00,1.999910116195678711e+00,1.966842532157897949e+00,1.934850931167602539e+00,1.903883099555969238e+00,1.873890995979309082e+00,1.844829201698303223e+00
5.000000000000000000e+00,5.000000000000000000e+00,5.000000000000000000e+00,5.000000000000000000e+00,5.000000000000000000e+00,5.000000000000000000e+00,5.000000000000000000e+00,5.000000000000000000e+00,5.000000000000000000e+00,5.000000000000000000e+00,5.000000000000000000e+00,5.000000000000000000e+00,5.000000000000000000e+00,5.000000000000000000e+00,2.159159660339355469e+00,2.147463083267211914e+00,2.174373149871826172e+00,5.000000000000000000e+00,5.000000000000000000e+00,5.000000000000000000e+00,5.000000000000000000e+00,5.000000000000000000e+00,5.000000000000000000e+00,5.000000000000000000e+00,1.925272822380065918e+00,1.919655561447143555e+00,1.928782105445861816e+00,5.000000000000000000e+00,5.000000000000000000e+00,5.000000000000000000e+00,5.000000000000000000e+00,5.000000000000000000e+00,5.000000000000000000e+00,5.000000000000000000e+00,5.000000000000000000e+00,5.000000000000000000e+00,5.000000000000000000e+00,5.000000000000000000e+00,5.000000000000000000e+00,4.859445571899414062e+00,4.668722152709960938e+00,4.492403984069824219e+00,4.328918933868408203e+00,4.176914215087890625e+00,4.035222530364990234e+00,3.902828693389892578e+00,3.778845787048339844e+00,3.662498235702514648e+00,3.553100824356079102e+00,3.450049161911010742e+00,3.352806806564331055e+00,3.260895729064941406e+00,3.173889636993408203e+00,3.091405630111694336e+00,3.013100385665893555e+00,2.938663959503173828e+00,2.867816686630249023e+00,2.800305128097534180e+00,2.735898971557617188e+00,2.674388885498046875e+00,2.615583896636962891e+00,2.559309244155883789e+00,2.505404949188232422e+00,2.453724622726440430e+00,2.404133319854736328e+00,2.356506586074829102e+00,2.310730457305908203e+00,2.266698837280273438e+00,2.224313974380493164e+00,2.183485031127929688e+00,2.144128084182739258e+00,2.106164693832397461e+00,2.069521903991699219e+00,2.034132957458496094e+00,1.999933719635009766e+00,1.966865420341491699e+00,1.934872746467590332e+00,1.903904557228088379e+00,1.873911738395690918e+00,1.844849228858947754e+00
5.000000000000000000e+00,5.000000000000000000e+00,5.000000000000000000e+00,5.000000000000000000e+00,5.000000000000000000e+00,5.000000000000000000e+00,5.000000000000000000e+00,5.000000000000000000e+00,5.000000000000000000e+00,5.000000000000000000e+00,5.000000000000000000e+00,5.000000000000000000e+00,5.000000000000000000e+00,5.000000000000000000e+00,2.178326845169067383e+00,2.168786048889160156e+00,2.205383539199829102e+00,5.000000000000000000e+00,5.000000000000000000e+00,5.000000000000000000e+00,5.000000000000000000e+00,5.000000000000000000e+00,5.000000000000000000e+00,5.000000000000000000e+00,1.927248001098632812e+00,1.916158437728881836e+00,1.925212383270263672e+00,5.000000000000000000e+00,5.000000000000000000e+00,5.000000000000000000e+00,5.000000000000000000e+00,5.000000000000000000e+00,5.000000000000000000e+00,5.000000000000000000e+00,5.000000000000000000e+00,5.000000000000000000e+00,5.000000000000000000e+00,5.000000000000000000e+00,5.000000000000000000e+00,4.859584331512451172e+00,4.668849468231201172e+00,4.492522239685058594e+00,4.329028606414794922e+00,4.177016735076904297e+00,4.035318374633789062e+00,3.902918100357055664e+00,3.778930187225341797e+00,3.662576913833618164e+00,3.553174972534179688e+00,3.450119256973266602e+00,3.352872848510742188e+00,3.260958671569824219e+00,3.173949003219604492e+00,3.091461896896362305e+00,3.013153791427612305e+00,2.938714742660522461e+00,2.867865085601806641e+00,2.800351142883300781e+00,2.735943078994750977e+00,2.674431085586547852e+00,2.615624189376831055e+00,2.559347629547119141e+00,2.505441904067993164e+00,2.453759908676147461e+00,2.404167175292968750e+00,2.356539487838745117e+00,2.310761928558349609e+00,2.266729116439819336e+00,2.224343061447143555e+00,2.183513164520263672e+00,2.144155025482177734e+00,2.106190681457519531e+00,2.069547176361083984e+00,2.034157276153564453e+00,1.999957323074340820e+00,1.966888189315795898e+00,1.934894919395446777e+00,1.903925657272338867e+00,1.873932361602783203e+00,1.844869256019592285e+00
5.000000000000000000e+00,5.000000000000000000e+00,5.000000000000000000e+00,5.000000000000000000e+00,5.000000000000000000e+00,5.000000000000000000e+00,5.000000000000000000e+00,5.000000000000000000e+00,5.000000000000000000e+00,5.000000000000000000e+00,5.000000000000000000e+00,5.000000000000000000e+00,5.000000000000000000e+00,5.000000000000000000e+00,2.198680639266967773e+00,2.196045875549316406e+00,5.000000000000000000e+00,5.000000000000000000e+00,5.000000000000000000e+00,5.000000000000000000e+00,5.000000000000000000e+00,5.000000000000000000e+00,5.000000000000000000e+00,5.000000000000000000e+00,1.929258704185485840e+00,1.913659334182739258e+00,1.921694993972778320e+00,5.000000000000000000e+00,5.000000000000000000e+00,5.000000000000000000e+00,5.000000000000000000e+00,5.000000000000000000e+00,5.000000000000000000e+00,5.000000000000000000e+00,5.000000000000000000e+00,5.000000000000000000e+00,5.000000000000000000e+00,5.000000000000000000e+00,5.000000000000000000e+00,4.859722614288330078e+00,4.668977737426757812e+00,4.492640972137451172e+00,4.329138755798339844e+00,4.177119731903076172e+00,4.035414218902587891e+00,3.903007507324218750e+00,3.779013872146606445e+00,3.662655830383300781e+00,3.553249359130859375e+00,3.450189113616943359e+00,3.352939128875732422e+00,3.261020898818969727e+00,3.174008369445800781e+00,3.091518163681030273e+00,3.013206958770751953e+00,2.938765764236450195e+00,2.867913484573364258e+00,2.800397396087646484e+00,2.735986948013305664e+00,2.674473285675048828e+00,2.615664243698120117e+00,2.559386014938354492e+00,2.505478858947753906e+00,2.453795433044433594e+00,2.404201269149780273e+00,2.356572151184082031e+00,2.310793399810791016e+00,2.266759157180786133e+00,2.224372148513793945e+00,2.183541059494018555e+00,2.144181966781616211e+00,2.106216907501220703e+00,2.069572448730468750e+00,2.034181594848632812e+00,1.999980688095092773e+00,1.966911077499389648e+00,1.934916973114013672e+00,1.903947114944458008e+00,1.873952984809875488e+00,1.844889163970947266e+00
4.875512599945068359e+00,4.874301910400390625e+00,4.873092174530029297e+00,4.871882438659667969e+00,4.870673656463623047e+00,4.869465351104736328e+00,4.868257522583007812e+00,4.867050647735595703e+00,4.865843772888183594e+00,4.864638328552246094e+00,4.863432884216308594e+00,4.862228393554687500e+00,4.861023902893066406e+00,4.859820842742919922e+00,2.219816684722900391e+00,2.219841241836547852e+00,4.856214046478271484e+00,4.855012893676757812e+00,4.853812694549560547e+00,4.852612495422363281e+00,4.851413249969482422e+00,4.850214958190917969e+00,4.849016666412353516e+00,4.847818851470947266e+00,1.931273698806762695e+00,1.912101149559020996e+00,1.918190598487854004e+00,4.843034744262695312e+00,4.841839790344238281e+00,4.840645790100097656e+00,4.839452743530273438e+00,4.838259696960449219e+00,4.837067604064941406e+00,4.835875988006591797e+00,4.834684848785400391e+00,4.833494186401367188e+00,4.832304477691650391e+00,4.831114768981933594e+00,4.829926490783691406e+00,4.828738212585449219e+00,4.669105529785156250e+00,4.492758750915527344e+00,4.329248428344726562e+00,4.177221298217773438e+00,4.035509586334228516e+00,3.903097391128540039e+00,3.779097795486450195e+00,3.662734985351562500e+00,3.553323507308959961e+00,3.450259447097778320e+00,3.353005170822143555e+00,3.261083841323852539e+00,3.174067497253417969e+00,3.091574192047119141e+00,3.013260602951049805e+00,2.938816308975219727e+00,2.867961883544921875e+00,2.800443410873413086e+00,2.736031055450439453e+00,2.674515247344970703e+00,2.615704536437988281e+00,2.559424877166748047e+00,2.505515575408935547e+00,2.453830957412719727e+00,2.404235124588012695e+00,2.356604814529418945e+00,2.310824632644653320e+00,2.266789674758911133e+00,2.224401235580444336e+00,2.183569192886352539e+00,2.144209146499633789e+00,2.106242895126342773e+00,2.069597721099853516e+00,2.034205913543701172e+00,2.000004291534423828e+00,1.966933608055114746e+00,1.934938788414001465e+00,1.903968453407287598e+00,1.873973608016967773e+00,1.844909310340881348e+00
3.778338193893432617e+00,3.777611255645751953e+00,3.776884555816650391e+00,3.776157855987548828e+00,3.775431632995605469e+00,3.774705648422241211e+00,3.773979663848876953e+00,3.773254394531250000e+00,3.772529125213623047e+00,3.771804332733154297e+00,3.771079778671264648e+00,3.770355224609375000e+00,3.769631385803222656e+00,3.768907785415649414e+00,2.250177145004272461e+00,2.254060983657836914e+00,3.766737699508666992e+00,3.766015291213989258e+00,3.765293121337890625e+00,3.764570713043212891e+00,3.763849020004272461e+00,3.763127565383911133e+00,3.762406110763549805e+00,3.761685132980346680e+00,1.972956895828247070e+00,1.913538455963134766e+00,1.918415427207946777e+00,3.758803844451904297e+00,3.758084297180175781e+00,3.757364749908447266e+00,3.756645917892456055e+00,3.755927085876464844e+00,3.755208492279052734e+00,3.754490375518798828e+00,3.753772497177124023e+00,3.753054618835449219e+00,3.752337217330932617e+00,3.751619815826416016e+00,3.750903129577636719e+00,3.750186681747436523e+00,3.749469995498657227e+00,3.748754262924194336e+00,3.748038530349731445e+00,3.747322797775268555e+00,3.746607780456542969e+00,3.745892524719238281e+00,3.745177984237670898e+00,3.662813663482666016e+00,3.553398132324218750e+00,3.450329303741455078e+00,3.353071451187133789e+00,3.261146068572998047e+00,3.174126625061035156e+00,3.091630697250366211e+00,3.013314008712768555e+00,2.938867330551147461e+00,2.868010282516479492e+00,2.800489664077758789e+00,2.736075162887573242e+00,2.674557209014892578e+00,2.615744829177856445e+00,2.559463262557983398e+00,2.505552768707275391e+00,2.453866243362426758e+00,2.404269218444824219e+00,2.356637477874755859e+00,2.310856342315673828e+00,2.266819715499877930e+00,2.224430322647094727e+00,2.183597326278686523e+00,2.144236087799072266e+00,2.106269121170043945e+00,2.069622755050659180e+00,2.034230470657348633e+00,2.000027894973754883e+00,1.966956496238708496e+00,1.934960961341857910e+00,1.903989672660827637e+00,1.873994350433349609e+00,1.844929337501525879e+00
3.084262847900390625e+00,3.083778381347656250e+00,3.083294153213500977e+00,3.082809686660766602e+00,3.082325696945190430e+00,3.081841945648193359e+00,3.081357955932617188e+00,3.080874443054199219e+00,3.080390930175781250e+00,3.079907655715942383e+00,3.079424619674682617e+00,3.078941345214843750e+00,3.078458547592163086e+00,3.077975988388061523e+00,2.240224123001098633e+00,2.234698295593261719e+00,3.076528549194335938e+00,3.076046466827392578e+00,3.075564622879028320e+00,3.075082778930664062e+00,3.074601173400878906e+00,3.074119806289672852e+00,3.073638200759887695e+00,3.073157072067260742e+00,3.072675943374633789e+00,1.922818064689636230e+00,1.923303246498107910e+00,3.071233749389648438e+00,3.070753335952758789e+00,3.070272922515869141e+00,3.069792747497558594e+00,3.069313049316406250e+00,3.068832874298095703e+00,3.068353414535522461e+00,3.067873954772949219e+00,3.067394256591796875e+00,3.066915273666381836e+00,3.066435813903808594e+00,3.065957069396972656e+00,3.065478324890136719e+00,3.064999580383300781e+00,3.064521312713623047e+00,3.064043045043945312e+00,3.063564538955688477e+00,3.063086748123168945e+00,3.062608718872070312e+00,3.062130928039550781e+00,3.061653375625610352e+00,3.061175823211669922e+00,3.060698509216308594e+00,3.060221672058105469e+00,3.059744358062744141e+00,3.059267520904541016e+00,3.058790683746337891e+00,3.013367414474487305e+00,2.938918113708496094e+00,2.868058681488037109e+00,2.800535917282104492e+00,2.736119031906127930e+00,2.674599409103393555e+00,2.615785121917724609e+00,2.559501886367797852e+00,2.505589485168457031e+00,2.453901767730712891e+00,2.404303312301635742e+00,2.356670141220092773e+00,2.310887575149536133e+00,2.266849994659423828e+00,2.224459409713745117e+00,2.183625221252441406e+00,2.144263267517089844e+00,2.106295108795166016e+00,2.069648027420043945e+00,2.034254789352416992e+00,2.000051259994506836e+00,1.966979384422302246e+00,1.934983015060424805e+00,1.904011011123657227e+00,1.874014854431152344e+00,1.844949483871459961e+00
2.605614900588989258e+00,2.605269193649291992e+00,2.604923486709594727e+00,2.604577779769897461e+00,2.604232311248779297e+00,2.603887081146240234e+00,2.603541374206542969e+00,2.603196382522583008e+00,2.602850914001464844e+00,2.602505922317504883e+00,2.602160930633544922e+00,2.601815938949584961e+00,2.601471185684204102e+00,2.601126670837402344e+00,2.213047981262207031e+00,2.211472511291503906e+00,2.226226568222045898e+00,2.599748611450195312e+00,2.599404335021972656e+00,2.599060058593750000e+00,2.598716020584106445e+00,2.598372220993041992e+00,2.598028182983398438e+00,2.597684383392333984e+00,2.597340583801269531e+00,1.909911394119262695e+00,1.882753729820251465e+00,1.860707283020019531e+00,2.595966577529907227e+00,2.595623254776000977e+00,2.595280170440673828e+00,2.594937086105346680e+00,2.594594001770019531e+00,2.594251155853271484e+00,2.593908548355102539e+00,2.593565702438354492e+00,2.593223094940185547e+00,2.592880487442016602e+00,2.592538118362426758e+00,2.592195749282836914e+00,2.591853380203247070e+00,2.591511249542236328e+00,2.591169118881225586e+00,2.590827226638793945e+00,2.590485334396362305e+00,2.590143442153930664e+00,2.589801788330078125e+00,2.589460134506225586e+00,2.589118480682373047e+00,2.588777065277099609e+00,2.588435888290405273e+00,2.588094472885131836e+00,2.587753295898437500e+00,2.587412118911743164e+00,2.587071180343627930e+00,2.586730241775512695e+00,2.586389303207397461e+00,2.586048603057861328e+00,2.585708141326904297e+00,2.585367441177368164e+00,2.585026979446411133e+00,2.559540271759033203e+00,2.505626678466796875e+00,2.453937053680419922e+00,2.404337406158447266e+00,2.356702804565429688e+00,2.310919046401977539e+00,2.266880273818969727e+00,2.224488496780395508e+00,2.183653354644775391e+00,2.144290208816528320e+00,2.106321334838867188e+00,2.069673299789428711e+00,2.034278869628906250e+00,2.000074863433837891e+00,1.967001914978027344e+00,1.935005068778991699e+00,1.904032468795776367e+00,1.874035596847534180e+00,1.844969272613525391e+00
2.255581378936767578e+00,2.255321979522705078e+00,2.255062341690063477e+00,2.254802942276000977e+00,2.254543781280517578e+00,2.254284381866455078e+00,2.254024982452392578e+00,2.253765821456909180e+00,2.253506660461425781e+00,2.253247499465942383e+00,2.252988576889038086e+00,2.252729654312133789e+00,2.252470493316650391e+00,2.252211809158325195e+00,2.251952886581420898e+00,2.182849168777465820e+00,2.184364318847656250e+00,2.202889680862426758e+00,2.250918388366699219e+00,2.250659942626953125e+00,2.250401496887207031e+00,2.250143051147460938e+00,2.249884843826293945e+00,2.249626636505126953e+00,2.249368906021118164e+00,1.916605353355407715e+00,1.885782599449157715e+00,1.830831050872802734e+00,1.815997004508972168e+00,1.888078927993774414e+00,2.247823476791381836e+00,2.247565984725952148e+00,2.247308731079101562e+00,2.247051477432250977e+00,2.246794223785400391e+00,2.246537208557128906e+00,2.246280193328857422e+00,2.246022939682006836e+00,2.245766162872314453e+00,2.245509147644042969e+00,2.245252132415771484e+00,2.244995594024658203e+00,2.244738817214965820e+00,2.244482040405273438e+00,2.244225502014160156e+00,2.243968963623046875e+00,2.243712425231933594e+00,2.243456125259399414e+00,2.243199586868286133e+00,2.242943286895751953e+00,2.242687225341796875e+00,2.242430925369262695e+00,2.242174863815307617e+00,2.241918563842773438e+00,2.241662740707397461e+00,2.241406679153442383e+00,2.241150617599487305e+00,2.240895032882690430e+00,2.240639209747314453e+00,2.240383386611938477e+00,2.240127801895141602e+00,2.239871978759765625e+00,2.239616632461547852e+00,2.239361047744750977e+00,2.239105701446533203e+00,2.238850355148315430e+00,2.238594770431518555e+00,2.238339662551879883e+00,2.224517822265625000e+00,2.183681488037109375e+00,2.144317388534545898e+00,2.106347322463989258e+00,2.069698333740234375e+00,2.034303426742553711e+00,2.000098466873168945e+00,1.967024803161621094e+00,1.935027003288269043e+00,1.904053807258605957e+00,1.874056339263916016e+00,1.844989418983459473e+00
1.988474845886230469e+00,1.988273143768310547e+00,1.988071441650390625e+00,1.987869620323181152e+00,1.987668037414550781e+00,1.987466454505920410e+00,1.987264871597290039e+00,1.987063407897949219e+00,1.986862063407897949e+00,1.986660599708557129e+00,1.986459255218505859e+00,1.986257910728454590e+00,1.986056685447692871e+00,1.985855460166931152e+00,1.985653996467590332e+00,1.985452890396118164e+00,1.985251784324645996e+00,1.985050797462463379e+00,1.984849691390991211e+00,1.984648704528808594e+00,1.984447717666625977e+00,1.984246850013732910e+00,1.984045982360839844e+00,1.983845233917236328e+00,1.983644366264343262e+00,1.983443617820739746e+00,1.983242750167846680e+00,1.983042120933532715e+00,1.982841491699218750e+00,1.982640862464904785e+00,1.982440352439880371e+00,1.982239842414855957e+00,1.982039451599121094e+00,1.981838941574096680e+00,1.981638550758361816e+00,1.981438279151916504e+00,1.981238007545471191e+00,1.981037735939025879e+00,1.980837225914001465e+00,1.980637073516845703e+00,1.980436921119689941e+00,1.980236887931823730e+00,1.980036854743957520e+00,1.979836821556091309e+00,1.979636788368225098e+00,1.979436874389648438e+00,1.979236960411071777e+00,1.979037165641784668e+00,1.978837370872497559e+00,1.978637576103210449e+00,1.978437542915344238e+00,1.978237867355346680e+00,1.978038191795349121e+00,1.977838635444641113e+00,1.977639079093933105e+00,1.977439522743225098e+00,1.977240085601806641e+00,1.977040648460388184e+00,1.976841211318969727e+00,1.976641774177551270e+00,1.976442456245422363e+00,1.976243257522583008e+00,1.976043701171875000e+00,1.975844502449035645e+00,1.975645303726196289e+00,1.975446224212646484e+00,1.975247144699096680e+00,1.975048065185546875e+00,1.974849104881286621e+00,1.974650144577026367e+00,1.974451184272766113e+00,1.974252223968505859e+00,1.974053382873535156e+00,1.973854660987854004e+00,1.973655581474304199e+00,1.967047572135925293e+00,1.935049057006835938e+00,1.904075026512145996e+00,1.874076843261718750e+00,1.845009446144104004e+00
1.777931571006774902e+00,1.777770280838012695e+00,1.777608990669250488e+00,1.777447819709777832e+00,1.777286648750305176e+00,1.777125239372253418e+00,1.776964187622070312e+00,1.776803135871887207e+00,1.776641964912414551e+00,1.776481032371520996e+00,1.776319980621337891e+00,1.776159048080444336e+00,1.775998115539550781e+00,1.775837182998657227e+00,1.775676250457763672e+00,1.775515437126159668e+00,1.775354623794555664e+00,1.775193572044372559e+00,1.775032877922058105e+00,1.774872064590454102e+00,1.774711370468139648e+00,1.774550676345825195e+00,1.774389982223510742e+00,1.774229407310485840e+00,1.774068832397460938e+00,1.773908257484436035e+00,1.773747682571411133e+00,1.773587226867675781e+00,1.773426532745361328e+00,1.773266077041625977e+00,1.773105621337890625e+00,1.772945284843444824e+00,1.772784948348999023e+00,1.772624611854553223e+00,1.772464275360107422e+00,1.772303938865661621e+00,1.772143721580505371e+00,1.771983504295349121e+00,1.771823287010192871e+00,1.771663188934326172e+00,1.771502852439880371e+00,1.771342754364013672e+00,1.771182656288146973e+00,1.771022558212280273e+00,1.770862579345703125e+00,1.770702600479125977e+00,1.770542621612548828e+00,1.770382642745971680e+00,1.770222783088684082e+00,1.770062923431396484e+00,1.769903063774108887e+00,1.769743323326110840e+00,1.769583344459533691e+00,1.769423484802246094e+00,1.769263863563537598e+00,1.769104123115539551e+00,1.768944382667541504e+00,1.768784761428833008e+00,1.768625140190124512e+00,1.768465638160705566e+00,1.768306016921997070e+00,1.768146514892578125e+00,1.767987012863159180e+00,1.767827510833740234e+00,1.767667889595031738e+00,1.767508506774902344e+00,1.767349123954772949e+00,1.767189741134643555e+00,1.767030477523803711e+00,1.766871213912963867e+00,1.766711950302124023e+00,1.766552686691284180e+00,1.766393423080444336e+00,1.766234278678894043e+00,1.766075134277343750e+00,1.765915989875793457e+00,1.765756726264953613e+00,1.765597701072692871e+00,1.765438675880432129e+00,1.765279650688171387e+00
1.607704758644104004e+00,1.607572913169860840e+00,1.607441067695617676e+00,1.607309222221374512e+00,1.607177495956420898e+00,1.607045650482177734e+00,1.606913924217224121e+00,1.606782078742980957e+00,1.606650352478027344e+00,1.606518626213073730e+00,1.606387019157409668e+00,1.606255292892456055e+00,1.606123685836791992e+00,1.605992078781127930e+00,1.605860471725463867e+00,1.605728983879089355e+00,1.605597376823425293e+00,1.605465888977050781e+00,1.605334401130676270e+00,1.605202794075012207e+00,1.605071306228637695e+00,1.604939818382263184e+00,1.604808449745178223e+00,1.604677081108093262e+00,1.604545712471008301e+00,1.604414343833923340e+00,1.604282975196838379e+00,1.604151725769042969e+00,1.604020357131958008e+00,1.603889107704162598e+00,1.603757858276367188e+00,1.603626489639282227e+00,1.603495359420776367e+00,1.603364109992980957e+00,1.603232979774475098e+00,1.603101849555969238e+00,1.602970719337463379e+00,1.602839708328247070e+00,1.602708578109741211e+00,1.602577567100524902e+00,1.602446556091308594e+00,1.602315545082092285e+00,1.602184414863586426e+00,1.602053403854370117e+00,1.601922512054443359e+00,1.601791620254516602e+00,1.601660728454589844e+00,1.601529836654663086e+00,1.601398944854736328e+00,1.601268172264099121e+00,1.601137280464172363e+00,1.601006507873535156e+00,1.600875735282897949e+00,1.600744962692260742e+00,1.600614190101623535e+00,1.600483417510986328e+00,1.600352764129638672e+00,1.600222110748291016e+00,1.600091457366943359e+00,1.599960803985595703e+00,1.599830150604248047e+00,1.599699616432189941e+00,1.599569082260131836e+00,1.599438548088073730e+00,1.599308013916015625e+00,1.599177479743957520e+00,1.599046945571899414e+00,1.598916411399841309e+00,1.598785996437072754e+00,1.598655581474304199e+00,1.598525285720825195e+00,1.598394870758056641e+00,1.598264575004577637e+00,1.598134160041809082e+00,1.598003864288330078e+00,1.597873687744140625e+00,1.597743391990661621e+00,1.597613096237182617e+00,1.597482800483703613e+00,1.597352623939514160e+00
1.467226266860961914e+00,1.467116475105285645e+00,1.467006683349609375e+00,1.466896891593933105e+00,1.466787099838256836e+00,1.466677308082580566e+00,1.466567516326904297e+00,1.466457843780517578e+00,1.466348171234130859e+00,1.466238260269165039e+00,1.466128587722778320e+00,1.466018915176391602e+00,1.465909361839294434e+00,1.465799689292907715e+00,1.465690016746520996e+00,1.465580463409423828e+00,1.465470910072326660e+00,1.465361356735229492e+00,1.465251803398132324e+00,1.465142250061035156e+00,1.465032696723937988e+00,1.464923024177551270e+00,1.464813590049743652e+00,1.464704155921936035e+00,1.464594721794128418e+00,1.464485168457031250e+00,1.464375853538513184e+00,1.464266419410705566e+00,1.464156985282897949e+00,1.464047670364379883e+00,1.463938236236572266e+00,1.463828921318054199e+00,1.463719606399536133e+00,1.463610172271728516e+00,1.463500857353210449e+00,1.463391661643981934e+00,1.463282346725463867e+00,1.463173151016235352e+00,1.463063955307006836e+00,1.462954759597778320e+00,1.462845563888549805e+00,1.462736368179321289e+00,1.462627172470092773e+00,1.462518095970153809e+00,1.462408900260925293e+00,1.462299704551696777e+00,1.462190628051757812e+00,1.462081551551818848e+00,1.461972475051879883e+00,1.461863398551940918e+00,1.461754441261291504e+00,1.461645364761352539e+00,1.461536407470703125e+00,1.461427450180053711e+00,1.461318492889404297e+00,1.461209535598754883e+00,1.461100459098815918e+00,1.460991501808166504e+00,1.460882663726806641e+00,1.460773825645446777e+00,1.460664868354797363e+00,1.460556030273437500e+00,1.460447192192077637e+00,1.460338473320007324e+00,1.460229635238647461e+00,1.460120797157287598e+00,1.460012078285217285e+00,1.459903359413146973e+00,1.459794402122497559e+00,1.459685802459716797e+00,1.459577083587646484e+00,1.459468364715576172e+00,1.459359645843505859e+00,1.459251046180725098e+00,1.459142446517944336e+00,1.459033727645874023e+00,1.458925127983093262e+00,1.458816528320312500e+00,1.458708047866821289e+00,1.458599448204040527e+00
1.349324584007263184e+00,1.349231719970703125e+00,1.349138855934143066e+00,1.349045991897583008e+00,1.348953127861022949e+00,1.348860263824462891e+00,1.348767399787902832e+00,1.348674654960632324e+00,1.348581790924072266e+00,1.348489046096801758e+00,1.348396301269531250e+00,1.348303437232971191e+00,1.348210692405700684e+00,1.348117947578430176e+00,1.348025202751159668e+00,1.347932457923889160e+00,1.347839832305908203e+00,1.347747087478637695e+00,1.347654461860656738e+00,1.347561836242675781e+00,1.347469210624694824e+00,1.347376585006713867e+00,1.347283959388732910e+00,1.347191214561462402e+00,1.347098588943481445e+00,1.347006082534790039e+00,1.346913456916809082e+00,1.346820950508117676e+00,1.346728444099426270e+00,1.346635818481445312e+00,1.346543312072753906e+00,1.346450805664062500e+00,1.346358418464660645e+00,1.346265912055969238e+00,1.346173405647277832e+00,1.346080899238586426e+00,1.345988392829895020e+00,1.345896005630493164e+00,1.345803618431091309e+00,1.345711112022399902e+00,1.345618724822998047e+00,1.345526337623596191e+00,1.345434069633483887e+00,1.345341682434082031e+00,1.345249295234680176e+00,1.345157027244567871e+00,1.345064640045166016e+00,1.344972252845764160e+00,1.344879984855651855e+00,1.344787716865539551e+00,1.344695448875427246e+00,1.344603180885314941e+00,1.344510912895202637e+00,1.344418764114379883e+00,1.344326496124267578e+00,1.344234347343444824e+00,1.344142079353332520e+00,1.344049930572509766e+00,1.343957781791687012e+00,1.343865513801574707e+00,1.343773365020751953e+00,1.343681216239929199e+00,1.343589186668395996e+00,1.343497037887573242e+00,1.343405008316040039e+00,1.343312859535217285e+00,1.343220829963684082e+00,1.343128800392150879e+00,1.343036770820617676e+00,1.342944741249084473e+00,1.342852711677551270e+00,1.342760562896728516e+00,1.342668652534484863e+00,1.342576622962951660e+00,1.342484712600708008e+00,1.342392683029174805e+00,1.342300772666931152e+00,1.342208862304687500e+00,1.342116951942443848e+00,1.342025041580200195e+00
1.248962044715881348e+00,1.248882412910461426e+00,1.248802781105041504e+00,1.248723268508911133e+00,1.248643636703491211e+00,1.248564124107360840e+00,1.248484611511230469e+00,1.248405098915100098e+00,1.248325586318969727e+00,1.248246073722839355e+00,1.248166561126708984e+00,1.248087048530578613e+00,1.248007655143737793e+00,1.247928142547607422e+00,1.247848629951477051e+00,1.247769117355346680e+00,1.247689723968505859e+00,1.247610330581665039e+00,1.247530937194824219e+00,1.247451543807983398e+00,1.247372150421142578e+00,1.247292757034301758e+00,1.247213363647460938e+00,1.247133970260620117e+00,1.247054696083068848e+00,1.246975302696228027e+00,1.246895909309387207e+00,1.246816515922546387e+00,1.246737241744995117e+00,1.246657967567443848e+00,1.246578693389892578e+00,1.246499419212341309e+00,1.246420145034790039e+00,1.246340870857238770e+00,1.246261596679687500e+00,1.246182322502136230e+00,1.246103167533874512e+00,1.246023774147033691e+00,1.245944619178771973e+00,1.245865345001220703e+00,1.245786190032958984e+00,1.245707035064697266e+00,1.245627880096435547e+00,1.245548725128173828e+00,1.245469570159912109e+00,1.245390415191650391e+00,1.245311260223388672e+00,1.245232105255126953e+00,1.245153069496154785e+00,1.245073914527893066e+00,1.244994759559631348e+00,1.244915723800659180e+00,1.244836568832397461e+00,1.244757533073425293e+00,1.244678497314453125e+00,1.244599461555480957e+00,1.244520425796508789e+00,1.244441390037536621e+00,1.244362473487854004e+00,1.244283437728881836e+00,1.244204401969909668e+00,1.244125366210937500e+00,1.244046449661254883e+00,1.243967413902282715e+00,1.243888497352600098e+00,1.243809580802917480e+00,1.243730664253234863e+00,1.243651747703552246e+00,1.243572831153869629e+00,1.243493914604187012e+00,1.243414998054504395e+00,1.243336081504821777e+00,1.243257284164428711e+00,1.243178367614746094e+00,1.243099451065063477e+00,1.243020653724670410e+00,1.242941856384277344e+00,1.242862939834594727e+00,1.242784142494201660e+00,1.242705345153808594e+00
1.162495732307434082e+00,1.162426829338073730e+00,1.162357807159423828e+00,1.162288904190063477e+00,1.162219882011413574e+00,1.162150979042053223e+00,1.162082076072692871e+00,1.162013173103332520e+00,1.161944270133972168e+00,1.161875486373901367e+00,1.161806583404541016e+00,1.161737680435180664e+00,1.161668896675109863e+00,1.161599993705749512e+00,1.161531209945678711e+00,1.161462306976318359e+00,1.161393404006958008e+00,1.161324620246887207e+00,1.161255836486816406e+00,1.161186933517456055e+00,1.161118149757385254e+00,1.161049365997314453e+00,1.160980701446533203e+00,1.160911917686462402e+00,1.160843133926391602e+00,1.160774350166320801e+00,1.160705566406250000e+00,1.160636901855468750e+00,1.160568118095397949e+00,1.160499334335327148e+00,1.160430669784545898e+00,1.160361886024475098e+00,1.160293221473693848e+00,1.160224556922912598e+00,1.160155892372131348e+00,1.160087227821350098e+00,1.160018563270568848e+00,1.159949898719787598e+00,1.159881234169006348e+00,1.159812569618225098e+00,1.159743905067443848e+00,1.159675240516662598e+00,1.159606695175170898e+00,1.159538030624389648e+00,1.159469485282897949e+00,1.159400820732116699e+00,1.159332275390625000e+00,1.159263730049133301e+00,1.159195184707641602e+00,1.159126639366149902e+00,1.159058094024658203e+00,1.158989429473876953e+00,1.158920884132385254e+00,1.158852338790893555e+00,1.158783912658691406e+00,1.158715367317199707e+00,1.158646821975708008e+00,1.158578395843505859e+00,1.158509850502014160e+00,1.158441424369812012e+00,1.158372879028320312e+00,1.158304452896118164e+00,1.158236026763916016e+00,1.158167481422424316e+00,1.158099055290222168e+00,1.158030629158020020e+00,1.157962203025817871e+00,1.157893896102905273e+00,1.157825469970703125e+00,1.157757043838500977e+00,1.157688617706298828e+00,1.157620310783386230e+00,1.157551884651184082e+00,1.157483577728271484e+00,1.157415151596069336e+00,1.157346844673156738e+00,1.157278418540954590e+00,1.157210111618041992e+00,1.157141804695129395e+00,1.157073497772216797e+00
1.087226390838623047e+00,1.087166070938110352e+00,1.087105870246887207e+00,1.087045550346374512e+00,1.086985230445861816e+00,1.086924910545349121e+00,1.086864590644836426e+00,1.086804389953613281e+00,1.086744070053100586e+00,1.086683869361877441e+00,1.086623549461364746e+00,1.086563348770141602e+00,1.086503148078918457e+00,1.086442828178405762e+00,1.086382627487182617e+00,1.086322426795959473e+00,1.086262226104736328e+00,1.086202025413513184e+00,1.086141824722290039e+00,1.086081624031066895e+00,1.086021423339843750e+00,1.085961222648620605e+00,1.085901021957397461e+00,1.085840940475463867e+00,1.085780739784240723e+00,1.085720658302307129e+00,1.085660457611083984e+00,1.085600376129150391e+00,1.085540175437927246e+00,1.085480093955993652e+00,1.085419893264770508e+00,1.085359811782836914e+00,1.085299730300903320e+00,1.085239648818969727e+00,1.085179567337036133e+00,1.085119485855102539e+00,1.085059404373168945e+00,1.084999322891235352e+00,1.084939241409301758e+00,1.084879159927368164e+00,1.084819197654724121e+00,1.084759116172790527e+00,1.084699034690856934e+00,1.084638953208923340e+00,1.084578990936279297e+00,1.084518909454345703e+00,1.084458947181701660e+00,1.084398984909057617e+00,1.084338903427124023e+00,1.084278941154479980e+00,1.084218978881835938e+00,1.084159016609191895e+00,1.084099054336547852e+00,1.084039092063903809e+00,1.083979010581970215e+00,1.083919048309326172e+00,1.083859205245971680e+00,1.083799242973327637e+00,1.083739280700683594e+00,1.083679437637329102e+00,1.083619475364685059e+00,1.083559513092041016e+00,1.083499670028686523e+00,1.083439707756042480e+00,1.083379864692687988e+00,1.083319902420043945e+00,1.083260059356689453e+00,1.083200216293334961e+00,1.083140373229980469e+00,1.083080410957336426e+00,1.083020567893981934e+00,1.082960724830627441e+00,1.082900881767272949e+00,1.082841157913208008e+00,1.082781314849853516e+00,1.082721471786499023e+00,1.082661628723144531e+00,1.082601785659790039e+00,1.082541942596435547e+00,1.082482218742370605e+00
1.021111488342285156e+00,1.021058320999145508e+00,1.021005153656005859e+00,1.020951867103576660e+00,1.020898699760437012e+00,1.020845532417297363e+00,1.020792365074157715e+00,1.020739197731018066e+00,1.020686030387878418e+00,1.020632863044738770e+00,1.020579695701599121e+00,1.020526528358459473e+00,1.020473480224609375e+00,1.020420312881469727e+00,1.020367145538330078e+00,1.020314097404479980e+00,1.020260930061340332e+00,1.020207881927490234e+00,1.020154714584350586e+00,1.020101666450500488e+00,1.020048499107360840e+00,1.019995450973510742e+00,1.019942283630371094e+00,1.019889235496520996e+00,1.019836187362670898e+00,1.019783139228820801e+00,1.019730091094970703e+00,1.019677042961120605e+00,1.019623994827270508e+00,1.019570946693420410e+00,1.019517898559570312e+00,1.019464850425720215e+00,1.019411802291870117e+00,1.019358754158020020e+00,1.019305706024169922e+00,1.019252777099609375e+00,1.019199728965759277e+00,1.019146800041198730e+00,1.019093751907348633e+00,1.019040822982788086e+00,1.018987774848937988e+00,1.018934845924377441e+00,1.018881797790527344e+00,1.018828868865966797e+00,1.018775820732116699e+00,1.018722891807556152e+00,1.018669962882995605e+00,1.018617033958435059e+00,1.018564105033874512e+00,1.018511176109313965e+00,1.018458247184753418e+00,1.018405318260192871e+00,1.018352389335632324e+00,1.018299460411071777e+00,1.018246531486511230e+00,1.018193721771240234e+00,1.018140792846679688e+00,1.018087863922119141e+00,1.018034934997558594e+00,1.017982125282287598e+00,1.017929196357727051e+00,1.017876386642456055e+00,1.017823457717895508e+00,1.017770648002624512e+00,1.017717838287353516e+00,1.017664909362792969e+00,1.017612099647521973e+00,1.017559289932250977e+00,1.017506361007690430e+00,1.017453551292419434e+00,1.017400741577148438e+00,1.017347931861877441e+00,1.017295122146606445e+00,1.017242312431335449e+00,1.017189502716064453e+00,1.017136812210083008e+00,1.017084002494812012e+00,1.017031192779541016e+00,1.016978383064270020e+00,1.016925573348999023e+00
9.625766277313232422e-01,9.625293612480163574e-01,9.624820947647094727e-01,9.624348282814025879e-01,9.623875617980957031e-01,9.623402953147888184e-01,9.622930884361267090e-01,9.622458219528198242e-01,9.621986150741577148e-01,9.621513485908508301e-01,9.621041417121887207e-01,9.620568156242370605e-01,9.620095491409301758e-01,9.619623422622680664e-01,9.619151353836059570e-01,9.618679285049438477e-01,9.618207216262817383e-01,9.617735743522644043e-01,9.617263674736022949e-01,9.616791605949401855e-01,9.616319537162780762e-01,9.615848064422607422e-01,9.615376591682434082e-01,9.614904522895812988e-01,9.614433050155639648e-01,9.613961577415466309e-01,9.613490104675292969e-01,9.613018035888671875e-01,9.612547159194946289e-01,9.612075686454772949e-01,9.611604213714599609e-01,9.611132740974426270e-01,9.610661268234252930e-01,9.610190391540527344e-01,9.609717726707458496e-01,9.609246850013732910e-01,9.608775973320007324e-01,9.608304500579833984e-01,9.607833623886108398e-01,9.607362747192382812e-01,9.606891870498657227e-01,9.606420993804931641e-01,9.605950117111206055e-01,9.605479240417480469e-01,9.605008363723754883e-01,9.604538083076477051e-01,9.604067206382751465e-01,9.603596925735473633e-01,9.603126049041748047e-01,9.602655768394470215e-01,9.602184891700744629e-01,9.601714611053466797e-01,9.601244330406188965e-01,9.600774049758911133e-01,9.600303769111633301e-01,9.599833488464355469e-01,9.599363207817077637e-01,9.598893523216247559e-01,9.598422050476074219e-01,9.597951769828796387e-01,9.597482085227966309e-01,9.597011804580688477e-01,9.596542119979858398e-01,9.596072435379028320e-01,9.595602750778198242e-01,9.595133066177368164e-01,9.594662785530090332e-01,9.594193100929260254e-01,9.593724012374877930e-01,9.593254327774047852e-01,9.592784643173217773e-01,9.592314958572387695e-01,9.591845870018005371e-01,9.591376185417175293e-01,9.590907096862792969e-01,9.590437412261962891e-01,9.589968323707580566e-01,9.589499235153198242e-01,9.589030146598815918e-01,9.588561058044433594e-01
9.103888869285583496e-01,9.103465676307678223e-01,9.103043079376220703e-01,9.102620482444763184e-01,9.102197289466857910e-01,9.101774692535400391e-01,9.101352095603942871e-01,9.100929498672485352e-01,9.100506901741027832e-01,9.100084304809570312e-01,9.099661707878112793e-01,9.099239706993103027e-01,9.098817110061645508e-01,9.098393917083740234e-01,9.097971320152282715e-01,9.097549319267272949e-01,9.097126722335815430e-01,9.096704721450805664e-01,9.096282124519348145e-01,9.095860123634338379e-01,9.095438122749328613e-01,9.095016121864318848e-01,9.094594120979309082e-01,9.094172120094299316e-01,9.093750119209289551e-01,9.093328118324279785e-01,9.092906117439270020e-01,9.092484712600708008e-01,9.092062711715698242e-01,9.091640710830688477e-01,9.091219305992126465e-01,9.090797305107116699e-01,9.090375900268554688e-01,9.089954495429992676e-01,9.089532494544982910e-01,9.089111089706420898e-01,9.088689684867858887e-01,9.088267087936401367e-01,9.087845683097839355e-01,9.087424278259277344e-01,9.087003469467163086e-01,9.086582064628601074e-01,9.086160659790039062e-01,9.085739254951477051e-01,9.085318446159362793e-01,9.084897041320800781e-01,9.084476232528686523e-01,9.084054827690124512e-01,9.083634018898010254e-01,9.083213210105895996e-01,9.082792401313781738e-01,9.082371592521667480e-01,9.081950783729553223e-01,9.081529974937438965e-01,9.081109166145324707e-01,9.080688357353210449e-01,9.080267548561096191e-01,9.079846739768981934e-01,9.079426527023315430e-01,9.079005718231201172e-01,9.078584313392639160e-01,9.078163504600524902e-01,9.077743291854858398e-01,9.077322483062744141e-01,9.076902270317077637e-01,9.076482057571411133e-01,9.076061844825744629e-01,9.075641632080078125e-01,9.075221419334411621e-01,9.074801206588745117e-01,9.074380993843078613e-01,9.073960781097412109e-01,9.073540568351745605e-01,9.073120355606079102e-01,9.072700738906860352e-01,9.072280526161193848e-01,9.071860909461975098e-01,9.071440696716308594e-01,9.071021080017089844e-01,9.070601463317871094e-01
8.635689616203308105e-01,8.635309338569641113e-01,8.634929060935974121e-01,8.634548187255859375e-01,8.634167909622192383e-01,8.633787631988525391e-01,8.633407354354858398e-01,8.633027076721191406e-01,8.632646799087524414e-01,8.632266521453857422e-01,8.631886243820190430e-01,8.631506562232971191e-01,8.631126284599304199e-01,8.630746006965637207e-01,8.630366325378417969e-01,8.629985451698303223e-01,8.629605174064636230e-01,8.629225492477416992e-01,8.628845214843750000e-01,8.628465533256530762e-01,8.628085851669311523e-01,8.627705574035644531e-01,8.627325892448425293e-01,8.626946210861206055e-01,8.626566529273986816e-01,8.626186847686767578e-01,8.625807166099548340e-01,8.625427484512329102e-01,8.625048398971557617e-01,8.624668717384338379e-01,8.624289035797119141e-01,8.623909354209899902e-01,8.623530268669128418e-01,8.623150587081909180e-01,8.622771501541137695e-01,8.622391819953918457e-01,8.622012734413146973e-01,8.621633648872375488e-01,8.621253967285156250e-01,8.620874285697937012e-01,8.620495200157165527e-01,8.620115518569946289e-01,8.619736433029174805e-01,8.619357943534851074e-01,8.618978857994079590e-01,8.618599772453308105e-01,8.618220686912536621e-01,8.617841601371765137e-01,8.617462515830993652e-01,8.617084026336669922e-01,8.616704940795898438e-01,8.616326451301574707e-01,8.615947365760803223e-01,8.615568876266479492e-01,8.615189790725708008e-01,8.614811301231384277e-01,8.614432811737060547e-01,8.614054322242736816e-01,8.613675236701965332e-01,8.613296747207641602e-01,8.612918257713317871e-01,8.612539768218994141e-01,8.612160682678222656e-01,8.611782193183898926e-01,8.611403703689575195e-01,8.611025810241699219e-01,8.610647320747375488e-01,8.610268831253051758e-01,8.609890937805175781e-01,8.609512448310852051e-01,8.609134554862976074e-01,8.608756065368652344e-01,8.608378171920776367e-01,8.608000278472900391e-01,8.607621788978576660e-01,8.607243895530700684e-01,8.606866002082824707e-01,8.606488108634948730e-01,8.606110215187072754e-01,8.605732321739196777e-01
8.213292956352233887e-01,8.212948441505432129e-01,8.212604522705078125e-01,8.212260603904724121e-01,8.211916089057922363e-01,8.211572170257568359e-01,8.211228251457214355e-01,8.210884332656860352e-01,8.210540413856506348e-01,8.210196495056152344e-01,8.209852576255798340e-01,8.209508657455444336e-01,8.209164738655090332e-01,8.208820819854736328e-01,8.208476901054382324e-01,8.208133578300476074e-01,8.207789659500122070e-01,8.207445144653320312e-01,8.207101225852966309e-01,8.206757903099060059e-01,8.206413984298706055e-01,8.206070661544799805e-01,8.205727338790893555e-01,8.205383419990539551e-01,8.205040097236633301e-01,8.204696774482727051e-01,8.204352855682373047e-01,8.204009532928466797e-01,8.203666210174560547e-01,8.203322887420654297e-01,8.202979564666748047e-01,8.202636241912841797e-01,8.202292919158935547e-01,8.201949596405029297e-01,8.201606869697570801e-01,8.201263546943664551e-01,8.200920224189758301e-01,8.200576901435852051e-01,8.200234174728393555e-01,8.199890851974487305e-01,8.199548125267028809e-01,8.199204206466674805e-01,8.198860883712768555e-01,8.198518157005310059e-01,8.198175430297851562e-01,8.197832107543945312e-01,8.197489380836486816e-01,8.197146654129028320e-01,8.196803927421569824e-01,8.196461200714111328e-01,8.196118474006652832e-01,8.195775747299194336e-01,8.195433020591735840e-01,8.195090293884277344e-01,8.194747567176818848e-01,8.194404840469360352e-01,8.194062113761901855e-01,8.193719983100891113e-01,8.193377256393432617e-01,8.193034529685974121e-01,8.192692399024963379e-01,8.192349672317504883e-01,8.192007541656494141e-01,8.191664814949035645e-01,8.191322684288024902e-01,8.190979361534118652e-01,8.190637230873107910e-01,8.190295100212097168e-01,8.189952373504638672e-01,8.189610242843627930e-01,8.189268112182617188e-01,8.188925981521606445e-01,8.188583850860595703e-01,8.188241720199584961e-01,8.187899589538574219e-01,8.187557458877563477e-01,8.187215924263000488e-01,8.186873793601989746e-01,8.186531662940979004e-01,8.186189532279968262e-01
7.830290198326110840e-01,7.829977869987487793e-01,7.829664945602416992e-01,7.829352021217346191e-01,7.829039096832275391e-01,7.828726768493652344e-01,7.828413844108581543e-01,7.828100919723510742e-01,7.827788591384887695e-01,7.827475666999816895e-01,7.827163338661193848e-01,7.826851010322570801e-01,7.826538085937500000e-01,7.826225757598876953e-01,7.825913429260253906e-01,7.825600504875183105e-01,7.825288176536560059e-01,7.824975848197937012e-01,7.824663519859313965e-01,7.824351191520690918e-01,7.824038267135620117e-01,7.823725938796997070e-01,7.823413610458374023e-01,7.823101282119750977e-01,7.822788953781127930e-01,7.822476625442504883e-01,7.822164297103881836e-01,7.821852564811706543e-01,7.821540236473083496e-01,7.821227908134460449e-01,7.820916175842285156e-01,7.820603847503662109e-01,7.820291519165039062e-01,7.819979786872863770e-01,7.819668054580688477e-01,7.819355726242065430e-01,7.819043993949890137e-01,7.818731665611267090e-01,7.818419933319091797e-01,7.818108201026916504e-01,7.817796468734741211e-01,7.817484736442565918e-01,7.817172408103942871e-01,7.816860079765319824e-01,7.816548347473144531e-01,7.816236615180969238e-01,7.815924882888793945e-01,7.815613150596618652e-01,7.815301418304443359e-01,7.814990282058715820e-01,7.814678549766540527e-01,7.814366817474365234e-01,7.814055085182189941e-01,7.813743948936462402e-01,7.813432216644287109e-01,7.813120484352111816e-01,7.812809348106384277e-01,7.812497615814208984e-01,7.812186479568481445e-01,7.811875343322753906e-01,7.811563611030578613e-01,7.811252474784851074e-01,7.810941338539123535e-01,7.810629606246948242e-01,7.810318470001220703e-01,7.810007333755493164e-01,7.809696197509765625e-01,7.809384465217590332e-01,7.809073328971862793e-01,7.808762192726135254e-01,7.808451056480407715e-01,7.808139920234680176e-01,7.807828783988952637e-01,7.807517647743225098e-01,7.807206511497497559e-01,7.806895971298217773e-01,7.806584835052490234e-01,7.806273698806762695e-01,7.805963158607482910e-01,7.805652022361755371e-01
7.481416463851928711e-01,7.481130957603454590e-01,7.480845451354980469e-01,7.480559945106506348e-01,7.480274438858032227e-01,7.479988932609558105e-01,7.479703426361083984e-01,7.479418516159057617e-01,7.479133009910583496e-01,7.478847503662109375e-01,7.478561997413635254e-01,7.478276491165161133e-01,7.477991580963134766e-01,7.477706074714660645e-01,7.477420568466186523e-01,7.477135658264160156e-01,7.476850152015686035e-01,7.476565241813659668e-01,7.476279735565185547e-01,7.475994825363159180e-01,7.475709319114685059e-01,7.475424408912658691e-01,7.475138902664184570e-01,7.474853396415710449e-01,7.474568486213684082e-01,7.474283576011657715e-01,7.473998665809631348e-01,7.473713755607604980e-01,7.473428249359130859e-01,7.473143339157104492e-01,7.472858428955078125e-01,7.472573518753051758e-01,7.472288608551025391e-01,7.472003698348999023e-01,7.471718788146972656e-01,7.471434473991394043e-01,7.471149563789367676e-01,7.470864653587341309e-01,7.470579743385314941e-01,7.470295429229736328e-01,7.470010519027709961e-01,7.469725608825683594e-01,7.469441294670104980e-01,7.469156384468078613e-01,7.468872070312500000e-01,7.468586564064025879e-01,7.468301653861999512e-01,7.468017339706420898e-01,7.467733025550842285e-01,7.467448115348815918e-01,7.467163801193237305e-01,7.466879487037658691e-01,7.466594576835632324e-01,7.466310262680053711e-01,7.466025948524475098e-01,7.465741634368896484e-01,7.465457320213317871e-01,7.465173006057739258e-01,7.464888691902160645e-01,7.464604377746582031e-01,7.464320063591003418e-01,7.464035749435424805e-01,7.463751435279846191e-01,7.463467121124267578e-01,7.463182806968688965e-01,7.462899088859558105e-01,7.462614774703979492e-01,7.462330460548400879e-01,7.462046146392822266e-01,7.461761832237243652e-01,7.461477518081665039e-01,7.461193799972534180e-01,7.460909485816955566e-01,7.460625767707824707e-01,7.460341453552246094e-01,7.460057735443115234e-01,7.459773421287536621e-01,7.459489703178405762e-01,7.459205985069274902e-01,7.458921670913696289e-01
