5.000000000000000000e+00,5.000000000000000000e+00,5.000000000000000000e+00,5.000000000000000000e+00,5.000000000000000000e+00,5.000000000000000000e+00,5.000000000000000000e+00,5.000000000000000000e+00,5.000000000000000000e+00,5.000000000000000000e+00,5.000000000000000000e+00,5.000000000000000000e+00,5.000000000000000000e+00,2.063572406768798828e+00,2.045096874237060547e+00,2.053297281265258789e+00,2.067198038101196289e+00,2.083546638488769531e+00,2.083215475082397461e+00,2.094906806945800781e+00,2.113288640975952148e+00,2.139032840728759766e+00,2.178162097930908203e+00,2.270272731781005859e+00,2.409387350082397461e+00,5.000000000000000000e+00,5.000000000000000000e+00,5.000000000000000000e+00,5.000000000000000000e+00,5.000000000000000000e+00,5.000000000000000000e+00,5.000000000000000000e+00,5.000000000000000000e+00,5.000000000000000000e+00,5.000000000000000000e+00,5.000000000000000000e+00,5.000000000000000000e+00,5.000000000000000000e+00,5.000000000000000000e+00,4.853917121887207031e+00,4.663631439208984375e+00,4.487702369689941406e+00,4.324563980102539062e+00,4.172870635986328125e+00,4.031458377838134766e+00,3.899316787719726562e+00,3.775562763214111328e+00,3.659422159194946289e+00,3.550213575363159180e+00,3.447334766387939453e+00,3.350250005722045898e+00,3.258484125137329102e+00,3.171610832214355469e+00,3.089249610900878906e+00,3.011058092117309570e+00,2.936726570129394531e+00,2.865976810455322266e+00,2.798555612564086914e+00,2.734233617782592773e+00,2.672802209854125977e+00,2.614070177078247070e+00,2.557864189147949219e+00,2.504024028778076172e+00,2.452403783798217773e+00,2.402868747711181641e+00,2.355295419692993164e+00,2.309569120407104492e+00,2.265584468841552734e+00,2.223243951797485352e+00,2.182456970214843750e+00,2.143139123916625977e+00,2.105213403701782227e+00,2.068606138229370117e+00,2.033250808715820312e+00,1.999083518981933594e+00,1.966045498847961426e+00,1.934081673622131348e+00,1.903140664100646973e+00,1.873174071311950684e+00,1.844136357307434082e+00
5.000000000000000000e+00,5.000000000000000000e+00,5.000000000000000000e+00,5.000000000000000000e+00,5.000000000000000000e+00,5.000000000000000000e+00,5.000000000000000000e+00,5.000000000000000000e+00,5.000000000000000000e+00,5.000000000000000000e+00,5.000000000000000000e+00,5.000000000000000000e+00,5.000000000000000000e+00,5.000000000000000000e+00,2.049665689468383789e+00,2.056070327758789062e+00,2.074238061904907227e+00,2.091670036315917969e+00,2.088758468627929688e+00,2.096101284027099609e+00,2.113175153732299805e+00,2.140772819519042969e+00,2.179647684097290039e+00,2.291244983673095703e+00,5.000000000000000000e+00,5.000000000000000000e+00,5.000000000000000000e+00,5.000000000000000000e+00,5.000000000000000000e+00,5.000000000000000000e+00,5.000000000000000000e+00,5.000000000000000000e+00,5.000000000000000000e+00,5.000000000000000000e+00,5.000000000000000000e+00,5.000000000000000000e+00,5.000000000000000000e+00,5.000000000000000000e+00,5.000000000000000000e+00,4.854054450988769531e+00,4.663758277893066406e+00,4.487819671630859375e+00,4.324673175811767578e+00,4.172972202301025391e+00,4.031553268432617188e+00,3.899405717849731445e+00,3.775645732879638672e+00,3.659500598907470703e+00,3.550287246704101562e+00,3.447404146194458008e+00,3.350315570831298828e+00,3.258545875549316406e+00,3.171669721603393555e+00,3.089305400848388672e+00,3.011111021041870117e+00,2.936776876449584961e+00,2.866024494171142578e+00,2.798601388931274414e+00,2.734277248382568359e+00,2.672843933105468750e+00,2.614110231399536133e+00,2.557902097702026367e+00,2.504060506820678711e+00,2.452438831329345703e+00,2.402902603149414062e+00,2.355327844619750977e+00,2.309600114822387695e+00,2.265614509582519531e+00,2.223272800445556641e+00,2.182484626770019531e+00,2.143166065216064453e+00,2.105239152908325195e+00,2.068631172180175781e+00,2.033274888992309570e+00,1.999106884002685547e+00,1.966068029403686523e+00,1.934103608131408691e+00,1.903161883354187012e+00,1.873194336891174316e+00,1.844156146049499512e+00
5.000000000000000000e+00,5.000000000000000000e+00,5.000000000000000000e+00,5.000000000000000000e+00,5.000000000000000000e+00,5.000000000000000000e+00,5.000000000000000000e+00,5.000000000000000000e+00,5.000000000000000000e+00,5.000000000000000000e+00,5.000000000000000000e+00,5.000000000000000000e+00,5.000000000000000000e+00,5.000000000000000000e+00,2.054774999618530273e+00,2.059944152832031250e+00,2.087453603744506836e+00,2.083628654479980469e+00,2.078647136688232422e+00,2.088303804397583008e+00,2.110322713851928711e+00,2.143224716186523438e+00,2.182610034942626953e+00,2.370948076248168945e+00,5.000000000000000000e+00,5.000000000000000000e+00,5.000000000000000000e+00,5.000000000000000000e+00,5.000000000000000000e+00,5.000000000000000000e+00,5.000000000000000000e+00,5.000000000000000000e+00,5.000000000000000000e+00,5.000000000000000000e+00,5.000000000000000000e+00,5.000000000000000000e+00,5.000000000000000000e+00,5.000000000000000000e+00,5.000000000000000000e+00,4.854191780090332031e+00,4.663885116577148438e+00,4.487937450408935547e+00,4.324781894683837891e+00,4.173073768615722656e+00,4.031648159027099609e+00,3.899494409561157227e+00,3.775728940963745117e+00,3.659578800201416016e+00,3.550360918045043945e+00,3.447473049163818359e+00,3.350381135940551758e+00,3.258607864379882812e+00,3.171728372573852539e+00,3.089361190795898438e+00,3.011163711547851562e+00,2.936827421188354492e+00,2.866072416305541992e+00,2.798647165298461914e+00,2.734320878982543945e+00,2.672885417938232422e+00,2.614150047302246094e+00,2.557940483093261719e+00,2.504097223281860352e+00,2.452473878860473633e+00,2.402936220169067383e+00,2.355360269546508789e+00,2.309631347656250000e+00,2.265644311904907227e+00,2.223301410675048828e+00,2.182512283325195312e+00,2.143192768096923828e+00,2.105264902114868164e+00,2.068656206130981445e+00,2.033298969268798828e+00,1.999130010604858398e+00,1.966090559959411621e+00,1.934125423431396484e+00,1.903182983398437500e+00,1.873214840888977051e+00,1.844176054000854492e+00
5.000000000000000000e+00,5.000000000000000000e+00,5.000000000000000000e+00,5.000000000000000000e+00,5.000000000000000000e+00,5.000000000000000000e+00,5.000000000000000000e+00,5.000000000000000000e+00,5.000000000000000000e+00,5.000000000000000000e+00,5.000000000000000000e+00,5.000000000000000000e+00,5.000000000000000000e+00,5.000000000000000000e+00,2.058192491531372070e+00,2.066956281661987305e+00,2.089324474334716797e+00,2.079312562942504883e+00,2.075690269470214844e+00,2.081815004348754883e+00,2.101980447769165039e+00,2.138175249099731445e+00,2.176264762878417969e+00,2.379015684127807617e+00,5.000000000000000000e+00,5.000000000000000000e+00,5.000000000000000000e+00,5.000000000000000000e+00,5.000000000000000000e+00,5.000000000000000000e+00,5.000000000000000000e+00,5.000000000000000000e+00,5.000000000000000000e+00,5.000000000000000000e+00,5.000000000000000000e+00,5.000000000000000000e+00,5.000000000000000000e+00,5.000000000000000000e+00,5.000000000000000000e+00,4.854329586029052734e+00,4.664011955261230469e+00,4.488054752349853516e+00,4.324891567230224609e+00,4.173175334930419922e+00,4.031743049621582031e+00,3.899582862854003906e+00,3.775812149047851562e+00,3.659656524658203125e+00,3.550434589385986328e+00,3.447542667388916016e+00,3.350446701049804688e+00,3.258669853210449219e+00,3.171786785125732422e+00,3.089416980743408203e+00,3.011216640472412109e+00,2.936877727508544922e+00,2.866120576858520508e+00,2.798692703247070312e+00,2.734364509582519531e+00,2.672927141189575195e+00,2.614189863204956055e+00,2.557978630065917969e+00,2.504133701324462891e+00,2.452509164810180664e+00,2.402969837188720703e+00,2.355392694473266602e+00,2.309662342071533203e+00,2.265673875808715820e+00,2.223330259323120117e+00,2.182539939880371094e+00,2.143219709396362305e+00,2.105290889739990234e+00,2.068681001663208008e+00,2.033323049545288086e+00,1.999153375625610352e+00,1.966113209724426270e+00,1.934147238731384277e+00,1.903203964233398438e+00,1.873235344886779785e+00,1.844195961952209473e+00
5.000000000000000000e+00,5.000000000000000000e+00,5.000000000000000000e+00,5.000000000000000000e+00,5.000000000000000000e+00,5.000000000000000000e+00,5.000000000000000000e+00,5.000000000000000000e+00,5.000000000000000000e+00,5.000000000000000000e+00,5.000000000000000000e+00,5.000000000000000000e+00,5.000000000000000000e+00,5.000000000000000000e+00,2.044680595397949219e+00,2.041121244430541992e+00,2.080188751220703125e+00,2.083558797836303711e+00,2.083686590194702148e+00,2.095442056655883789e+00,2.114832878112792969e+00,2.127542972564697266e+00,2.166519403457641602e+00,2.223432064056396484e+00,5.000000000000000000e+00,5.000000000000000000e+00,5.000000000000000000e+00,5.000000000000000000e+00,5.000000000000000000e+00,5.000000000000000000e+00,5.000000000000000000e+00,5.000000000000000000e+00,5.000000000000000000e+00,5.000000000000000000e+00,5.000000000000000000e+00,5.000000000000000000e+00,5.000000000000000000e+00,5.000000000000000000e+00,5.000000000000000000e+00,4.854466915130615234e+00,4.664138793945312500e+00,4.488172531127929688e+00,4.325000762939453125e+00,4.173276901245117188e+00,4.031837940216064453e+00,3.899671554565429688e+00,3.775895595550537109e+00,3.659734725952148438e+00,3.550507783889770508e+00,3.447612047195434570e+00,3.350511789321899414e+00,3.258731842041015625e+00,3.171845674514770508e+00,3.089472532272338867e+00,3.011269569396972656e+00,2.936927795410156250e+00,2.866168498992919922e+00,2.798738479614257812e+00,2.734408140182495117e+00,2.672968864440917969e+00,2.614229679107666016e+00,2.558016777038574219e+00,2.504170417785644531e+00,2.452544212341308594e+00,2.403003692626953125e+00,2.355424880981445312e+00,2.309693336486816406e+00,2.265703916549682617e+00,2.223359107971191406e+00,2.182567834854125977e+00,2.143246412277221680e+00,2.105316877365112305e+00,2.068706035614013672e+00,2.033347368240356445e+00,1.999176621437072754e+00,1.966135740280151367e+00,1.934169173240661621e+00,1.903225183486938477e+00,1.873255848884582520e+00,1.844215750694274902e+00
5.000000000000000000e+00,5.000000000000000000e+00,5.000000000000000000e+00,5.000000000000000000e+00,5.000000000000000000e+00,5.000000000000000000e+00,5.000000000000000000e+00,5.000000000000000000e+00,5.000000000000000000e+00,5.000000000000000000e+00,5.000000000000000000e+00,5.000000000000000000e+00,5.000000000000000000e+00,5.000000000000000000e+00,2.039301633834838867e+00,2.027895689010620117e+00,2.051685333251953125e+00,2.077725172042846680e+00,2.082566261291503906e+00,2.092459917068481445e+00,2.111204385757446289e+00,2.136621236801147461e+00,2.175378322601318359e+00,2.261544942855834961e+00,5.000000000000000000e+00,5.000000000000000000e+00,5.000000000000000000e+00,5.000000000000000000e+00,5.000000000000000000e+00,5.000000000000000000e+00,5.000000000000000000e+00,5.000000000000000000e+00,5.000000000000000000e+00,5.000000000000000000e+00,5.000000000000000000e+00,5.000000000000000000e+00,5.000000000000000000e+00,5.000000000000000000e+00,5.000000000000000000e+00,4.854604721069335938e+00,4.664266109466552734e+00,4.488289833068847656e+00,4.325109481811523438e+00,4.173378467559814453e+00,4.031932830810546875e+00,3.899760484695434570e+00,3.775978326797485352e+00,3.659812927246093750e+00,3.550581455230712891e+00,3.447681427001953125e+00,3.350577354431152344e+00,3.258793592453002930e+00,3.171904325485229492e+00,3.089528083801269531e+00,3.011322498321533203e+00,2.936978101730346680e+00,2.866216421127319336e+00,2.798784017562866211e+00,2.734451770782470703e+00,2.673010587692260742e+00,2.614269495010375977e+00,2.558054924011230469e+00,2.504206895828247070e+00,2.452579259872436523e+00,2.403037309646606445e+00,2.355457067489624023e+00,2.309724569320678711e+00,2.265733957290649414e+00,2.223387718200683594e+00,2.182595729827880859e+00,2.143273115158081055e+00,2.105342626571655273e+00,2.068731069564819336e+00,2.033371210098266602e+00,1.999199986457824707e+00,1.966158390045166016e+00,1.934190988540649414e+00,1.903246283531188965e+00,1.873276352882385254e+00,1.844235658645629883e+00
5.000000000000000000e+00,5.000000000000000000e+00,5.000000000000000000e+00,5.000000000000000000e+00,5.000000000000000000e+00,5.000000000000000000e+00,5.000000000000000000e+00,5.000000000000000000e+00,5.000000000000000000e+00,5.000000000000000000e+00,5.000000000000000000e+00,5.000000000000000000e+00,5.000000000000000000e+00,5.000000000000000000e+00,5.000000000000000000e+00,2.018926620483398438e+00,2.031424999237060547e+00,2.065837860107421875e+00,2.075037002563476562e+00,2.089065074920654297e+00,2.117282629013061523e+00,2.142120838165283203e+00,2.176333189010620117e+00,2.242432594299316406e+00,5.000000000000000000e+00,5.000000000000000000e+00,5.000000000000000000e+00,5.000000000000000000e+00,5.000000000000000000e+00,5.000000000000000000e+00,5.000000000000000000e+00,5.000000000000000000e+00,5.000000000000000000e+00,5.000000000000000000e+00,5.000000000000000000e+00,5.000000000000000000e+00,5.000000000000000000e+00,5.000000000000000000e+00,5.000000000000000000e+00,4.854742050170898438e+00,4.664392948150634766e+00,4.488407611846923828e+00,4.325218677520751953e+00,4.173480510711669922e+00,4.032027244567871094e+00,3.899849414825439453e+00,3.776061773300170898e+00,3.659891366958618164e+00,3.550655126571655273e+00,3.447750568389892578e+00,3.350642919540405273e+00,3.258855581283569336e+00,3.171963214874267578e+00,3.089583873748779297e+00,3.011375188827514648e+00,2.937028646469116211e+00,2.866264104843139648e+00,2.798829793930053711e+00,2.734495401382446289e+00,2.673052310943603516e+00,2.614309549331665039e+00,2.558093070983886719e+00,2.504243612289428711e+00,2.452614307403564453e+00,2.403070688247680664e+00,2.355489492416381836e+00,2.309755563735961914e+00,2.265763998031616211e+00,2.223416805267333984e+00,2.182623386383056641e+00,2.143300056457519531e+00,2.105368375778198242e+00,2.068756103515625000e+00,2.033395528793334961e+00,1.999223351478576660e+00,1.966180920600891113e+00,1.934212565422058105e+00,1.903267502784729004e+00,1.873296856880187988e+00,1.844255566596984863e+00
5.000000000000000000e+00,5.000000000000000000e+00,5.000000000000000000e+00,5.000000000000000000e+00,5.000000000000000000e+00,5.000000000000000000e+00,5.000000000000000000e+00,5.000000000000000000e+00,5.000000000000000000e+00,5.000000000000000000e+00,5.000000000000000000e+00,5.000000000000000000e+00,5.000000000000000000e+00,5.000000000000000000e+00,5.000000000000000000e+00,2.005246162414550781e+00,2.006697416305541992e+00,2.048443317413330078e+00,2.051854848861694336e+00,2.071707010269165039e+00,2.134803295135498047e+00,2.151994228363037109e+00,2.200491666793823242e+00,2.232331752777099609e+00,5.000000000000000000e+00,5.000000000000000000e+00,5.000000000000000000e+00,5.000000000000000000e+00,5.000000000000000000e+00,5.000000000000000000e+00,5.000000000000000000e+00,5.000000000000000000e+00,5.000000000000000000e+00,5.000000000000000000e+00,5.000000000000000000e+00,5.000000000000000000e+00,5.000000000000000000e+00,5.000000000000000000e+00,5.000000000000000000e+00,4.854879379272460938e+00,4.664519786834716797e+00,4.488524913787841797e+00,4.325327873229980469e+00,4.173582077026367188e+00,4.032122135162353516e+00,3.899938106536865234e+00,3.776144981384277344e+00,3.659969091415405273e+00,3.550728797912597656e+00,3.447819948196411133e+00,3.350708484649658203e+00,3.258917570114135742e+00,3.172021627426147461e+00,3.089639663696289062e+00,3.011428117752075195e+00,2.937078952789306641e+00,2.866312265396118164e+00,2.798875331878662109e+00,2.734539031982421875e+00,2.673093795776367188e+00,2.614349365234375000e+00,2.558131217956542969e+00,2.504280090332031250e+00,2.452649116516113281e+00,2.403104305267333984e+00,2.355521917343139648e+00,2.309786796569824219e+00,2.265794038772583008e+00,2.223445653915405273e+00,2.182651281356811523e+00,2.143326759338378906e+00,2.105394363403320312e+00,2.068781137466430664e+00,2.033419609069824219e+00,1.999246716499328613e+00,1.966203451156616211e+00,1.934234499931335449e+00,1.903288602828979492e+00,1.873317360877990723e+00,1.844275236129760742e+00
5.000000000000000000e+00,5.000000000000000000e+00,5.000000000000000000e+00,5.000000000000000000e+00,5.000000000000000000e+00,5.000000000000000000e+00,5.000000000000000000e+00,5.000000000000000000e+00,5.000000000000000000e+00,5.000000000000000000e+00,5.000000000000000000e+00,5.000000000000000000e+00,5.000000000000000000e+00,5.000000000000000000e+00,5.000000000000000000e+00,1.998185396194458008e+00,2.003270864486694336e+00,2.035055160522460938e+00,2.034830808639526367e+00,2.047166585922241211e+00,2.082509279251098633e+00,2.194058418273925781e+00,2.198767662048339844e+00,2.218816757202148438e+00,2.433355569839477539e+00,5.000000000000000000e+00,5.000000000000000000e+00,5.000000000000000000e+00,5.000000000000000000e+00,5.000000000000000000e+00,5.000000000000000000e+00,5.000000000000000000e+00,5.000000000000000000e+00,5.000000000000000000e+00,5.000000000000000000e+00,5.000000000000000000e+00,5.000000000000000000e+00,5.000000000000000000e+00,5.000000000000000000e+00,4.855016708374023438e+00,4.664646625518798828e+00,4.488642692565917969e+00,4.325437068939208984e+00,4.173683643341064453e+00,4.032217025756835938e+00,3.900026559829711914e+00,3.776228189468383789e+00,3.660047292709350586e+00,3.550802469253540039e+00,3.447889328002929688e+00,3.350773811340332031e+00,3.258979797363281250e+00,3.172080516815185547e+00,3.089695453643798828e+00,3.011481285095214844e+00,2.937129020690917969e+00,2.866360187530517578e+00,2.798921108245849609e+00,2.734582662582397461e+00,2.673135519027709961e+00,2.614389181137084961e+00,2.558169603347778320e+00,2.504316329956054688e+00,2.452684402465820312e+00,2.403138160705566406e+00,2.355554342269897461e+00,2.309817790985107422e+00,2.265823841094970703e+00,2.223474502563476562e+00,2.182678937911987305e+00,2.143353700637817383e+00,2.105420112609863281e+00,2.068805932998657227e+00,2.033443689346313477e+00,1.999270081520080566e+00,1.966226100921630859e+00,1.934256315231323242e+00,1.903309822082519531e+00,1.873337864875793457e+00,1.844295024871826172e+00
5.000000000000000000e+00,5.000000000000000000e+00,5.000000000000000000e+00,5.000000000000000000e+00,5.000000000000000000e+00,5.000000000000000000e+00,5.000000000000000000e+00,5.000000000000000000e+00,5.000000000000000000e+00,5.000000000000000000e+00,5.000000000000000000e+00,5.000000000000000000e+00,5.000000000000000000e+00,5.000000000000000000e+00,5.000000000000000000e+00,2.003474950790405273e+00,1.984415292739868164e+00,2.004591703414916992e+00,2.025937080383300781e+00,2.037520170211791992e+00,2.053396701812744141e+00,2.182401180267333984e+00,2.176310777664184570e+00,2.193659782409667969e+00,2.247416496276855469e+00,5.000000000000000000e+00,5.000000000000000000e+00,5.000000000000000000e+00,5.000000000000000000e+00,5.000000000000000000e+00,5.000000000000000000e+00,5.000000000000000000e+00,5.000000000000000000e+00,5.000000000000000000e+00,5.000000000000000000e+00,5.000000000000000000e+00,5.000000000000000000e+00,5.000000000000000000e+00,5.000000000000000000e+00,4.855154514312744141e+00,4.664773941040039062e+00,4.488760471343994141e+00,4.325546264648437500e+00,4.173785209655761719e+00,4.032311916351318359e+00,3.900115489959716797e+00,3.776311635971069336e+00,3.660125494003295898e+00,3.550875663757324219e+00,3.447958707809448242e+00,3.350839376449584961e+00,3.259041786193847656e+00,3.172139167785644531e+00,3.089750766754150391e+00,3.011534214019775391e+00,2.937179565429687500e+00,2.866408109664916992e+00,2.798966884613037109e+00,2.734626054763793945e+00,2.673177242279052734e+00,2.614428997039794922e+00,2.558207750320434570e+00,2.504353046417236328e+00,2.452719211578369141e+00,2.403171777725219727e+00,2.355586528778076172e+00,2.309849023818969727e+00,2.265853643417358398e+00,2.223503112792968750e+00,2.182706832885742188e+00,2.143380403518676758e+00,2.105446100234985352e+00,2.068830966949462891e+00,2.033468008041381836e+00,1.999293446540832520e+00,1.966248393058776855e+00,1.934278130531311035e+00,1.903330922126770020e+00,1.873358368873596191e+00,1.844314932823181152e+00
5.000000000000000000e+00,5.000000000000000000e+00,5.000000000000000000e+00,5.000000000000000000e+00,5.000000000000000000e+00,5.000000000000000000e+00,5.000000000000000000e+00,5.000000000000000000e+00,5.000000000000000000e+00,5.000000000000000000e+00,5.000000000000000000e+00,5.000000000000000000e+00,5.000000000000000000e+00,5.000000000000000000e+00,5.000000000000000000e+00,1.998176813125610352e+00,1.968142986297607422e+00,1.971818923950195312e+00,1.995848059654235840e+00,2.030969142913818359e+00,2.042609930038452148e+00,2.110887765884399414e+00,2.165601253509521484e+00,2.183776855468750000e+00,2.221468448638916016e+00,5.000000000000000000e+00,5.000000000000000000e+00,5.000000000000000000e+00,5.000000000000000000e+00,5.000000000000000000e+00,5.000000000000000000e+00,5.000000000000000000e+00,5.000000000000000000e+00,5.000000000000000000e+00,5.000000000000000000e+00,5.000000000000000000e+00,5.000000000000000000e+00,5.000000000000000000e+00,5.000000000000000000e+00,4.855291843414306641e+00,4.664900779724121094e+00,4.488877773284912109e+00,4.325655460357666016e+00,4.173886775970458984e+00,4.032406806945800781e+00,3.900204181671142578e+00,3.776394367218017578e+00,3.660203933715820312e+00,3.550949335098266602e+00,3.448028326034545898e+00,3.350904941558837891e+00,3.259103536605834961e+00,3.172198057174682617e+00,3.089806556701660156e+00,3.011587142944335938e+00,2.937229871749877930e+00,2.866456031799316406e+00,2.799012660980224609e+00,2.734669923782348633e+00,2.673218965530395508e+00,2.614468812942504883e+00,2.558245420455932617e+00,2.504389762878417969e+00,2.452754497528076172e+00,2.403205633163452148e+00,2.355618953704833984e+00,2.309880018234252930e+00,2.265883684158325195e+00,2.223531961441040039e+00,2.182734727859497070e+00,2.143407106399536133e+00,2.105471849441528320e+00,2.068856000900268555e+00,2.033491849899291992e+00,1.999316811561584473e+00,1.966271042823791504e+00,1.934300065040588379e+00,1.903352141380310059e+00,1.873378634452819824e+00,1.844334840774536133e+00
5.000000000000000000e+00,5.000000000000000000e+00,5.000000000000000000e+00,5.000000000000000000e+00,5.000000000000000000e+00,5.000000000000000000e+00,5.000000000000000000e+00,5.000000000000000000e+00,5.000000000000000000e+00,5.000000000000000000e+00,5.000000000000000000e+00,5.000000000000000000e+00,5.000000000000000000e+00,5.000000000000000000e+00,5.000000000000000000e+00,5.000000000000000000e+00,1.956207275390625000e+00,1.949179291725158691e+00,1.977004885673522949e+00,2.024474620819091797e+00,2.036026239395141602e+00,2.097541570663452148e+00,2.163512229919433594e+00,2.179068803787231445e+00,2.205695629119873047e+00,5.000000000000000000e+00,5.000000000000000000e+00,5.000000000000000000e+00,5.000000000000000000e+00,5.000000000000000000e+00,5.000000000000000000e+00,5.000000000000000000e+00,5.000000000000000000e+00,5.000000000000000000e+00,5.000000000000000000e+00,5.000000000000000000e+00,5.000000000000000000e+00,5.000000000000000000e+00,5.000000000000000000e+00,4.855429649353027344e+00,4.665027618408203125e+00,4.488995552062988281e+00,4.325764656066894531e+00,4.173988342285156250e+00,4.032501697540283203e+00,3.900293111801147461e+00,3.776477813720703125e+00,3.660282135009765625e+00,3.551023006439208984e+00,3.448097467422485352e+00,3.350970506668090820e+00,3.259165525436401367e+00,3.172256708145141602e+00,3.089862346649169922e+00,3.011639833450317383e+00,2.937280416488647461e+00,2.866503953933715820e+00,2.799058437347412109e+00,2.734713554382324219e+00,2.673260688781738281e+00,2.614508628845214844e+00,2.558283805847167969e+00,2.504426240921020508e+00,2.452789545059204102e+00,2.403239011764526367e+00,2.355651378631591797e+00,2.309911251068115234e+00,2.265913724899291992e+00,2.223561048507690430e+00,2.182762384414672852e+00,2.143434047698974609e+00,2.105497837066650391e+00,2.068881034851074219e+00,2.033516168594360352e+00,1.999339818954467773e+00,1.966293573379516602e+00,1.934321880340576172e+00,1.903373241424560547e+00,1.873399138450622559e+00,1.844354629516601562e+00
5.000000000000000000e+00,5.000000000000000000e+00,5.000000000000000000e+00,5.000000000000000000e+00,5.000000000000000000e+00,5.000000000000000000e+00,5.000000000000000000e+00,5.000000000000000000e+00,5.000000000000000000e+00,5.000000000000000000e+00,5.000000000000000000e+00,5.000000000000000000e+00,5.000000000000000000e+00,5.000000000000000000e+00,5.000000000000000000e+00,5.000000000000000000e+00,1.959633469581604004e+00,2.038738012313842773e+00,2.009767293930053711e+00,2.019436836242675781e+00,2.029484987258911133e+00,2.084343194961547852e+00,2.161619186401367188e+00,2.174242019653320312e+00,2.193890333175659180e+00,5.000000000000000000e+00,5.000000000000000000e+00,5.000000000000000000e+00,5.000000000000000000e+00,5.000000000000000000e+00,5.000000000000000000e+00,5.000000000000000000e+00,5.000000000000000000e+00,5.000000000000000000e+00,5.000000000000000000e+00,5.000000000000000000e+00,5.000000000000000000e+00,5.000000000000000000e+00,5.000000000000000000e+00,4.855567455291748047e+00,4.665154457092285156e+00,4.489112854003906250e+00,4.325873851776123047e+00,4.174090385437011719e+00,4.032596588134765625e+00,3.900381565093994141e+00,3.776561021804809570e+00,3.660360097885131836e+00,3.551096677780151367e+00,3.448166847229003906e+00,3.351036310195922852e+00,3.259227514266967773e+00,3.172315359115600586e+00,3.089918136596679688e+00,3.011692762374877930e+00,2.937330722808837891e+00,2.866551876068115234e+00,2.799103975296020508e+00,2.734756946563720703e+00,2.673302173614501953e+00,2.614548683166503906e+00,2.558321952819824219e+00,2.504462718963623047e+00,2.452824831008911133e+00,2.403272867202758789e+00,2.355683803558349609e+00,2.309942483901977539e+00,2.265943527221679688e+00,2.223589897155761719e+00,2.182790279388427734e+00,2.143460988998413086e+00,2.105523586273193359e+00,2.068905830383300781e+00,2.033540248870849609e+00,1.999363183975219727e+00,1.966316223144531250e+00,1.934343695640563965e+00,1.903394222259521484e+00,1.873419642448425293e+00,1.844374537467956543e+00
5.000000000000000000e+00,5.000000000000000000e+00,5.000000000000000000e+00,5.000000000000000000e+00,5.000000000000000000e+00,5.000000000000000000e+00,5.000000000000000000e+00,5.000000000000000000e+00,5.000000000000000000e+00,5.000000000000000000e+00,5.000000000000000000e+00,5.000000000000000000e+00,5.000000000000000000e+00,5.000000000000000000e+00,5.000000000000000000e+00,5.000000000000000000e+00,1.944628477096557617e+00,2.048138856887817383e+00,2.014139652252197266e+00,2.013107538223266602e+00,2.022918224334716797e+00,2.071730136871337891e+00,2.159729242324829102e+00,2.167560338973999023e+00,2.189822673797607422e+00,5.000000000000000000e+00,5.000000000000000000e+00,5.000000000000000000e+00,5.000000000000000000e+00,5.000000000000000000e+00,5.000000000000000000e+00,5.000000000000000000e+00,5.000000000000000000e+00,5.000000000000000000e+00,5.000000000000000000e+00,5.000000000000000000e+00,5.000000000000000000e+00,5.000000000000000000e+00,5.000000000000000000e+00,4.855704784393310547e+00,4.665281772613525391e+00,4.489230632781982422e+00,4.325983047485351562e+00,4.174191474914550781e+00,4.032691478729248047e+00,3.900470495223999023e+00,3.776644468307495117e+00,3.660438299179077148e+00,3.551169872283935547e+00,3.448236227035522461e+00,3.351101398468017578e+00,3.259289741516113281e+00,3.172374010086059570e+00,3.089973926544189453e+00,3.011745691299438477e+00,2.937380790710449219e+00,2.866600036621093750e+00,2.799149751663208008e+00,2.734800577163696289e+00,2.673343896865844727e+00,2.614588260650634766e+00,2.558360338211059570e+00,2.504499435424804688e+00,2.452859878540039062e+00,2.403306722640991211e+00,2.355715990066528320e+00,2.309973478317260742e+00,2.265973567962646484e+00,2.223618745803833008e+00,2.182817935943603516e+00,2.143487691879272461e+00,2.105549573898315430e+00,2.068930864334106445e+00,2.033564329147338867e+00,1.999386548995971680e+00,1.966338753700256348e+00,1.934365630149841309e+00,1.903415322303771973e+00,1.873440146446228027e+00,1.844394445419311523e+00
5.000000000000000000e+00,5.000000000000000000e+00,5.000000000000000000e+00,5.000000000000000000e+00,5.000000000000000000e+00,5.000000000000000000e+00,5.000000000000000000e+00,5.000000000000000000e+00,5.000000000000000000e+00,5.000000000000000000e+00,5.000000000000000000e+00,5.000000000000000000e+00,5.000000000000000000e+00,5.000000000000000000e+00,5.000000000000000000e+00,5.000000000000000000e+00,5.000000000000000000e+00,2.062319755554199219e+00,2.020358562469482422e+00,2.006184101104736328e+00,2.015927076339721680e+00,2.062578439712524414e+00,2.156183242797851562e+00,2.161920309066772461e+00,2.184250593185424805e+00,2.395054817199707031e+00,5.000000000000000000e+00,5.000000000000000000e+00,5.000000000000000000e+00,5.000000000000000000e+00,5.000000000000000000e+00,5.000000000000000000e+00,5.000000000000000000e+00,5.000000000000000000e+00,5.000000000000000000e+00,5.000000000000000000e+00,5.000000000000000000e+00,5.000000000000000000e+00,5.000000000000000000e+00,4.855842590332031250e+00,4.665408611297607422e+00,4.489347934722900391e+00,4.326092243194580078e+00,4.174293518066406250e+00,4.032786369323730469e+00,3.900559186935424805e+00,3.776727199554443359e+00,3.660516500473022461e+00,3.551243543624877930e+00,3.448305606842041016e+00,3.351166963577270508e+00,3.259351253509521484e+00,3.172432899475097656e+00,3.090029478073120117e+00,3.011798858642578125e+00,2.937431335449218750e+00,2.866647958755493164e+00,2.799195289611816406e+00,2.734844207763671875e+00,2.673385620117187500e+00,2.614628314971923828e+00,2.558398485183715820e+00,2.504536151885986328e+00,2.452894926071166992e+00,2.403340339660644531e+00,2.355748414993286133e+00,2.310004711151123047e+00,2.266003608703613281e+00,2.223647356033325195e+00,2.182845830917358398e+00,2.143514394760131836e+00,2.105575323104858398e+00,2.068955898284912109e+00,2.033588409423828125e+00,1.999409914016723633e+00,1.966361403465270996e+00,1.934387445449829102e+00,1.903436541557312012e+00,1.873460650444030762e+00,1.844414234161376953e+00
5.000000000000000000e+00,5.000000000000000000e+00,5.000000000000000000e+00,5.000000000000000000e+00,5.000000000000000000e+00,5.000000000000000000e+00,5.000000000000000000e+00,5.000000000000000000e+00,5.000000000000000000e+00,5.000000000000000000e+00,5.000000000000000000e+00,5.000000000000000000e+00,5.000000000000000000e+00,5.000000000000000000e+00,5.000000000000000000e+00,5.000000000000000000e+00,5.000000000000000000e+00,5.000000000000000000e+00,2.026615858078002930e+00,2.002596616744995117e+00,2.008984088897705078e+00,2.050648212432861328e+00,2.152647733688354492e+00,2.152739048004150391e+00,2.178894758224487305e+00,2.426717519760131836e+00,5.000000000000000000e+00,5.000000000000000000e+00,5.000000000000000000e+00,5.000000000000000000e+00,5.000000000000000000e+00,5.000000000000000000e+00,5.000000000000000000e+00,5.000000000000000000e+00,5.000000000000000000e+00,5.000000000000000000e+00,5.000000000000000000e+00,5.000000000000000000e+00,5.000000000000000000e+00,4.855979919433593750e+00,4.665535449981689453e+00,4.489465713500976562e+00,4.326201438903808594e+00,4.174395084381103516e+00,4.032881259918212891e+00,3.900648117065429688e+00,3.776810646057128906e+00,3.660594701766967773e+00,3.551317214965820312e+00,3.448374748229980469e+00,3.351232767105102539e+00,3.259413480758666992e+00,3.172491550445556641e+00,3.090085268020629883e+00,3.011851549148559570e+00,2.937481641769409180e+00,2.866695404052734375e+00,2.799241065979003906e+00,2.734887838363647461e+00,2.673427343368530273e+00,2.614668130874633789e+00,2.558436393737792969e+00,2.504572629928588867e+00,2.452929973602294922e+00,2.403374195098876953e+00,2.355780839920043945e+00,2.310035705566406250e+00,2.266033649444580078e+00,2.223676443099975586e+00,2.182873725891113281e+00,2.143541336059570312e+00,2.105601310729980469e+00,2.068980932235717773e+00,2.033612489700317383e+00,1.999433279037475586e+00,1.966383934020996094e+00,1.934409141540527344e+00,1.903457641601562500e+00,1.873481154441833496e+00,1.844434142112731934e+00
5.000000000000000000e+00,5.000000000000000000e+00,5.000000000000000000e+00,5.000000000000000000e+00,5.000000000000000000e+00,5.000000000000000000e+00,5.000000000000000000e+00,5.000000000000000000e+00,5.000000000000000000e+00,5.000000000000000000e+00,5.000000000000000000e+00,5.000000000000000000e+00,5.000000000000000000e+00,5.000000000000000000e+00,5.000000000000000000e+00,5.000000000000000000e+00,5.000000000000000000e+00,5.000000000000000000e+00,2.037246227264404297e+00,1.999141454696655273e+00,2.002588510513305664e+00,2.038392543792724609e+00,2.150781154632568359e+00,2.145420551300048828e+00,2.171459197998046875e+00,5.000000000000000000e+00,5.000000000000000000e+00,5.000000000000000000e+00,5.000000000000000000e+00,5.000000000000000000e+00,5.000000000000000000e+00,5.000000000000000000e+00,5.000000000000000000e+00,5.000000000000000000e+00,5.000000000000000000e+00,5.000000000000000000e+00,5.000000000000000000e+00,5.000000000000000000e+00,5.000000000000000000e+00,4.856117725372314453e+00,4.665662765502929688e+00,4.489583015441894531e+00,4.326310634613037109e+00,4.174496650695800781e+00,4.032976150512695312e+00,3.900737047195434570e+00,3.776893854141235352e+00,3.660672664642333984e+00,3.551390886306762695e+00,3.448444366455078125e+00,3.351298332214355469e+00,3.259475469589233398e+00,3.172550201416015625e+00,3.090141057968139648e+00,3.011904478073120117e+00,2.937531709671020508e+00,2.866743564605712891e+00,2.799286603927612305e+00,2.734931468963623047e+00,2.673468828201293945e+00,2.614708185195922852e+00,2.558474779129028320e+00,2.504609346389770508e+00,2.452965021133422852e+00,2.403407573699951172e+00,2.355813264846801758e+00,2.310066938400268555e+00,2.266063451766967773e+00,2.223705291748046875e+00,2.182901382446289062e+00,2.143568038940429688e+00,2.105627059936523438e+00,2.069005727767944336e+00,2.033636808395385742e+00,1.999456644058227539e+00,1.966406583786010742e+00,1.934430956840515137e+00,1.903478860855102539e+00,1.873501658439636230e+00,1.844453811645507812e+00
5.000000000000000000e+00,5.000000000000000000e+00,5.000000000000000000e+00,5.000000000000000000e+00,5.000000000000000000e+00,5.000000000000000000e+00,5.000000000000000000e+00,5.000000000000000000e+00,5.000000000000000000e+00,5.000000000000000000e+00,5.000000000000000000e+00,5.000000000000000000e+00,5.000000000000000000e+00,5.000000000000000000e+00,5.000000000000000000e+00,5.000000000000000000e+00,5.000000000000000000e+00,5.000000000000000000e+00,2.046394586563110352e+00,2.004768371582031250e+00,2.002508640289306641e+00,2.034902572631835938e+00,2.148062229156494141e+00,2.143954992294311523e+00,2.165834426879882812e+00,5.000000000000000000e+00,5.000000000000000000e+00,5.000000000000000000e+00,5.000000000000000000e+00,5.000000000000000000e+00,5.000000000000000000e+00,5.000000000000000000e+00,5.000000000000000000e+00,5.000000000000000000e+00,5.000000000000000000e+00,5.000000000000000000e+00,5.000000000000000000e+00,5.000000000000000000e+00,5.000000000000000000e+00,4.856255054473876953e+00,4.665789604187011719e+00,4.489700794219970703e+00,4.326419830322265625e+00,4.174598693847656250e+00,4.033071041107177734e+00,3.900825500488281250e+00,3.776977300643920898e+00,3.660750865936279297e+00,3.551464557647705078e+00,3.448513746261596680e+00,3.351363658905029297e+00,3.259537458419799805e+00,3.172608852386474609e+00,3.090196847915649414e+00,3.011957168579101562e+00,2.937582015991210938e+00,2.866791486740112305e+00,2.799332380294799805e+00,2.734975099563598633e+00,2.673510551452636719e+00,2.614748001098632812e+00,2.558512926101684570e+00,2.504645824432373047e+00,2.453000307083129883e+00,2.403441429138183594e+00,2.355845451354980469e+00,2.310098171234130859e+00,2.266093492507934570e+00,2.223734140396118164e+00,2.182929277420043945e+00,2.143594980239868164e+00,2.105653047561645508e+00,2.069030761718750000e+00,2.033660888671875000e+00,1.999480009078979492e+00,1.966429114341735840e+00,1.934452772140502930e+00,1.903499960899353027e+00,1.873522162437438965e+00,1.844473719596862793e+00
5.000000000000000000e+00,5.000000000000000000e+00,5.000000000000000000e+00,5.000000000000000000e+00,5.000000000000000000e+00,5.000000000000000000e+00,5.000000000000000000e+00,5.000000000000000000e+00,5.000000000000000000e+00,5.000000000000000000e+00,5.000000000000000000e+00,5.000000000000000000e+00,5.000000000000000000e+00,5.000000000000000000e+00,5.000000000000000000e+00,5.000000000000000000e+00,5.000000000000000000e+00,2.074606180191040039e+00,2.039107322692871094e+00,2.011147022247314453e+00,2.006489515304565430e+00,2.041088104248046875e+00,2.153505325317382812e+00,2.146734952926635742e+00,2.171107053756713867e+00,5.000000000000000000e+00,5.000000000000000000e+00,5.000000000000000000e+00,5.000000000000000000e+00,5.000000000000000000e+00,5.000000000000000000e+00,5.000000000000000000e+00,5.000000000000000000e+00,5.000000000000000000e+00,5.000000000000000000e+00,5.000000000000000000e+00,5.000000000000000000e+00,5.000000000000000000e+00,5.000000000000000000e+00,4.856392860412597656e+00,4.665916919708251953e+00,4.489818572998046875e+00,4.326529026031494141e+00,4.174700260162353516e+00,4.033165931701660156e+00,3.900914430618286133e+00,3.777060508728027344e+00,3.660829305648803711e+00,3.551537752151489258e+00,3.448583126068115234e+00,3.351429224014282227e+00,3.259599685668945312e+00,3.172667741775512695e+00,3.090251922607421875e+00,3.012010097503662109e+00,2.937632322311401367e+00,2.866839408874511719e+00,2.799378156661987305e+00,2.735018730163574219e+00,2.673552274703979492e+00,2.614787817001342773e+00,2.558551311492919922e+00,2.504682540893554688e+00,2.453035354614257812e+00,2.403475046157836914e+00,2.355877876281738281e+00,2.310129165649414062e+00,2.266123294830322266e+00,2.223762750625610352e+00,2.182956933975219727e+00,2.143621683120727539e+00,2.105678796768188477e+00,2.069055795669555664e+00,2.033684968948364258e+00,1.999503374099731445e+00,1.966451525688171387e+00,1.934474706649780273e+00,1.903521180152893066e+00,1.873542666435241699e+00,1.844493508338928223e+00
5.000000000000000000e+00,5.000000000000000000e+00,5.000000000000000000e+00,5.000000000000000000e+00,5.000000000000000000e+00,5.000000000000000000e+00,5.000000000000000000e+00,5.000000000000000000e+00,5.000000000000000000e+00,5.000000000000000000e+00,5.000000000000000000e+00,5.000000000000000000e+00,5.000000000000000000e+00,5.000000000000000000e+00,5.000000000000000000e+00,5.000000000000000000e+00,2.123049497604370117e+00,2.070689678192138672e+00,2.047555685043334961e+00,2.033520460128784180e+00,2.029337167739868164e+00,2.171571969985961914e+00,2.164180517196655273e+00,2.164979696273803711e+00,2.189155817031860352e+00,5.000000000000000000e+00,5.000000000000000000e+00,5.000000000000000000e+00,5.000000000000000000e+00,5.000000000000000000e+00,5.000000000000000000e+00,5.000000000000000000e+00,5.000000000000000000e+00,5.000000000000000000e+00,5.000000000000000000e+00,5.000000000000000000e+00,5.000000000000000000e+00,5.000000000000000000e+00,5.000000000000000000e+00,4.856530189514160156e+00,4.666043758392333984e+00,4.489935874938964844e+00,4.326638221740722656e+00,4.174801826477050781e+00,4.033261299133300781e+00,3.901003122329711914e+00,3.777143478393554688e+00,3.660907506942749023e+00,3.551611423492431641e+00,3.448652744293212891e+00,3.351494789123535156e+00,3.259661436080932617e+00,3.172726392745971680e+00,3.090307712554931641e+00,3.012063264846801758e+00,2.937682867050170898e+00,2.866887331008911133e+00,2.799423933029174805e+00,2.735062360763549805e+00,2.673594236373901367e+00,2.614827871322631836e+00,2.558589220046997070e+00,2.504719018936157227e+00,2.453070402145385742e+00,2.403508901596069336e+00,2.355910301208496094e+00,2.310160160064697266e+00,2.266153335571289062e+00,2.223791837692260742e+00,2.182984828948974609e+00,2.143648386001586914e+00,2.105704784393310547e+00,2.069080829620361328e+00,2.033709049224853516e+00,1.999526739120483398e+00,1.966474056243896484e+00,1.934496521949768066e+00,1.903542399406433105e+00,1.873562932014465332e+00,1.844513416290283203e+00
5.000000000000000000e+00,5.000000000000000000e+00,5.000000000000000000e+00,5.000000000000000000e+00,5.000000000000000000e+00,5.000000000000000000e+00,5.000000000000000000e+00,5.000000000000000000e+00,5.000000000000000000e+00,5.000000000000000000e+00,5.000000000000000000e+00,5.000000000000000000e+00,5.000000000000000000e+00,5.000000000000000000e+00,5.000000000000000000e+00,5.000000000000000000e+00,2.113752841949462891e+00,2.089268684387207031e+00,2.080787420272827148e+00,2.076164007186889648e+00,5.000000000000000000e+00,2.181727886199951172e+00,2.173219919204711914e+00,2.184315443038940430e+00,5.000000000000000000e+00,5.000000000000000000e+00,5.000000000000000000e+00,5.000000000000000000e+00,5.000000000000000000e+00,5.000000000000000000e+00,5.000000000000000000e+00,5.000000000000000000e+00,5.000000000000000000e+00,5.000000000000000000e+00,5.000000000000000000e+00,5.000000000000000000e+00,5.000000000000000000e+00,5.000000000000000000e+00,5.000000000000000000e+00,4.856667995452880859e+00,4.666170597076416016e+00,4.490053653717041016e+00,4.326747417449951172e+00,4.174903392791748047e+00,4.033355712890625000e+00,3.901092052459716797e+00,3.777226924896240234e+00,3.660985708236694336e+00,3.551685333251953125e+00,3.448721885681152344e+00,3.351560354232788086e+00,3.259723186492919922e+00,3.172785043716430664e+00,3.090363502502441406e+00,3.012115955352783203e+00,2.937733173370361328e+00,2.866935253143310547e+00,2.799469709396362305e+00,2.735105991363525391e+00,2.673635721206665039e+00,2.614867687225341797e+00,2.558627367019653320e+00,2.504755735397338867e+00,2.453105449676513672e+00,2.403542518615722656e+00,2.355942726135253906e+00,2.310191392898559570e+00,2.266183376312255859e+00,2.223820686340332031e+00,2.183012485504150391e+00,2.143675327301025391e+00,2.105730533599853516e+00,2.069105625152587891e+00,2.033733367919921875e+00,1.999549746513366699e+00,1.966496706008911133e+00,1.934518337249755859e+00,1.903563499450683594e+00,1.873583436012268066e+00,1.844533324241638184e+00
5.000000000000000000e+00,5.000000000000000000e+00,5.000000000000000000e+00,5.000000000000000000e+00,5.000000000000000000e+00,5.000000000000000000e+00,5.000000000000000000e+00,5.000000000000000000e+00,5.000000000000000000e+00,5.000000000000000000e+00,5.000000000000000000e+00,5.000000000000000000e+00,5.000000000000000000e+00,5.000000000000000000e+00,5.000000000000000000e+00,2.172966241836547852e+00,2.133690118789672852e+00,2.113819599151611328e+00,2.113298892974853516e+00,5.000000000000000000e+00,2.224625349044799805e+00,2.182886362075805664e+00,2.186021089553833008e+00,2.201702356338500977e+00,5.000000000000000000e+00,5.000000000000000000e+00,5.000000000000000000e+00,5.000000000000000000e+00,5.000000000000000000e+00,5.000000000000000000e+00,5.000000000000000000e+00,5.000000000000000000e+00,5.000000000000000000e+00,5.000000000000000000e+00,5.000000000000000000e+00,5.000000000000000000e+00,5.000000000000000000e+00,5.000000000000000000e+00,5.000000000000000000e+00,4.856804370880126953e+00,4.666297435760498047e+00,4.490171432495117188e+00,4.326856613159179688e+00,4.175005435943603516e+00,4.033451080322265625e+00,3.901180505752563477e+00,3.777310132980346680e+00,3.661063671112060547e+00,3.551759004592895508e+00,3.448791265487670898e+00,3.351625680923461914e+00,3.259785175323486328e+00,3.172843694686889648e+00,3.090419292449951172e+00,3.012168884277343750e+00,2.937783479690551758e+00,2.866983175277709961e+00,2.799515247344970703e+00,2.735149860382080078e+00,2.673677444458007812e+00,2.614907741546630859e+00,2.558665752410888672e+00,2.504792213439941406e+00,2.453140735626220703e+00,2.403576135635375977e+00,2.355975151062011719e+00,2.310222625732421875e+00,2.266213178634643555e+00,2.223849534988403320e+00,2.183040380477905273e+00,2.143702268600463867e+00,2.105756521224975586e+00,2.069130659103393555e+00,2.033757448196411133e+00,1.999573111534118652e+00,1.966519236564636230e+00,1.934540271759033203e+00,1.903584480285644531e+00,1.873603940010070801e+00,1.844553232192993164e+00
5.000000000000000000e+00,5.000000000000000000e+00,5.000000000000000000e+00,5.000000000000000000e+00,5.000000000000000000e+00,5.000000000000000000e+00,5.000000000000000000e+00,5.000000000000000000e+00,5.000000000000000000e+00,5.000000000000000000e+00,5.000000000000000000e+00,5.000000000000000000e+00,5.000000000000000000e+00,5.000000000000000000e+00,5.000000000000000000e+00,2.181332588195800781e+00,2.154660701751708984e+00,2.142817258834838867e+00,5.000000000000000000e+00,5.000000000000000000e+00,2.216272592544555664e+00,2.182127952575683594e+00,2.190224647521972656e+00,2.210819959640502930e+00,5.000000000000000000e+00,5.000000000000000000e+00,5.000000000000000000e+00,5.000000000000000000e+00,5.000000000000000000e+00,5.000000000000000000e+00,5.000000000000000000e+00,5.000000000000000000e+00,5.000000000000000000e+00,5.000000000000000000e+00,5.000000000000000000e+00,5.000000000000000000e+00,5.000000000000000000e+00,5.000000000000000000e+00,5.000000000000000000e+00,4.856942176818847656e+00,4.666424751281738281e+00,4.490289211273193359e+00,4.326966285705566406e+00,4.175107002258300781e+00,4.033545494079589844e+00,3.901269435882568359e+00,3.777393579483032227e+00,3.661141872406005859e+00,3.551832199096679688e+00,3.448860406875610352e+00,3.351691007614135742e+00,3.259847402572631836e+00,3.172902345657348633e+00,3.090475082397460938e+00,3.012222051620483398e+00,2.937833786010742188e+00,2.867031335830688477e+00,2.799561023712158203e+00,2.735193490982055664e+00,2.673719167709350586e+00,2.614947319030761719e+00,2.558703899383544922e+00,2.504828929901123047e+00,2.453175783157348633e+00,2.403609991073608398e+00,2.356007337570190430e+00,2.310253858566284180e+00,2.266243219375610352e+00,2.223878383636474609e+00,2.183068275451660156e+00,2.143728971481323242e+00,2.105782270431518555e+00,2.069155693054199219e+00,2.033781528472900391e+00,1.999596476554870605e+00,1.966541886329650879e+00,1.934562087059020996e+00,1.903605580329895020e+00,1.873624444007873535e+00,1.844573020935058594e+00
5.000000000000000000e+00,5.000000000000000000e+00,5.000000000000000000e+00,5.000000000000000000e+00,5.000000000000000000e+00,5.000000000000000000e+00,5.000000000000000000e+00,5.000000000000000000e+00,5.000000000000000000e+00,5.000000000000000000e+00,5.000000000000000000e+00,5.000000000000000000e+00,5.000000000000000000e+00,5.000000000000000000e+00,2.248909473419189453e+00,2.205503940582275391e+00,2.188128709793090820e+00,2.212258577346801758e+00,5.000000000000000000e+00,5.000000000000000000e+00,2.207981824874877930e+00,2.182142257690429688e+00,2.193761110305786133e+00,5.000000000000000000e+00,5.000000000000000000e+00,5.000000000000000000e+00,5.000000000000000000e+00,5.000000000000000000e+00,5.000000000000000000e+00,5.000000000000000000e+00,5.000000000000000000e+00,5.000000000000000000e+00,5.000000000000000000e+00,5.000000000000000000e+00,5.000000000000000000e+00,5.000000000000000000e+00,5.000000000000000000e+00,5.000000000000000000e+00,5.000000000000000000e+00,4.857080459594726562e+00,4.666551113128662109e+00,4.490406513214111328e+00,4.327075004577636719e+00,4.175208568572998047e+00,4.033640861511230469e+00,3.901358366012573242e+00,3.777476549148559570e+00,3.661220312118530273e+00,3.551905632019042969e+00,3.448930025100708008e+00,3.351756572723388672e+00,3.259909152984619141e+00,3.172961235046386719e+00,3.090530633926391602e+00,3.012274980545043945e+00,2.937884092330932617e+00,2.867079257965087891e+00,2.799606800079345703e+00,2.735236883163452148e+00,2.673760890960693359e+00,2.614987373352050781e+00,2.558742284774780273e+00,2.504865407943725586e+00,2.453210830688476562e+00,2.403643608093261719e+00,2.356039762496948242e+00,2.310284852981567383e+00,2.266273260116577148e+00,2.223907232284545898e+00,2.183096170425415039e+00,2.143755674362182617e+00,2.105808258056640625e+00,2.069180727005004883e+00,2.033805608749389648e+00,1.999619841575622559e+00,1.966564416885375977e+00,1.934584021568298340e+00,1.903626799583435059e+00,1.873644948005676270e+00,1.844592928886413574e+00
5.000000000000000000e+00,5.000000000000000000e+00,5.000000000000000000e+00,5.000000000000000000e+00,5.000000000000000000e+00,5.000000000000000000e+00,5.000000000000000000e+00,5.000000000000000000e+00,5.000000000000000000e+00,5.000000000000000000e+00,5.000000000000000000e+00,5.000000000000000000e+00,5.000000000000000000e+00,5.000000000000000000e+00,2.274649143218994141e+00,2.231169223785400391e+00,2.229854583740234375e+00,5.000000000000000000e+00,5.000000000000000000e+00,5.000000000000000000e+00,2.200373172760009766e+00,2.182562112808227539e+00,2.197302341461181641e+00,5.000000000000000000e+00,5.000000000000000000e+00,5.000000000000000000e+00,5.000000000000000000e+00,5.000000000000000000e+00,5.000000000000000000e+00,5.000000000000000000e+00,5.000000000000000000e+00,5.000000000000000000e+00,5.000000000000000000e+00,5.000000000000000000e+00,5.000000000000000000e+00,5.000000000000000000e+00,5.000000000000000000e+00,5.000000000000000000e+00,5.000000000000000000e+00,4.857218742370605469e+00,4.666678428649902344e+00,4.490523338317871094e+00,4.327184677124023438e+00,4.175310611724853516e+00,4.033735275268554688e+00,3.901447296142578125e+00,3.777559757232666016e+00,3.661298274993896484e+00,3.551979303359985352e+00,3.448999166488647461e+00,3.351822376251220703e+00,3.259971141815185547e+00,3.173020124435424805e+00,3.090586423873901367e+00,3.012327671051025391e+00,2.937934637069702148e+00,2.867126941680908203e+00,2.799652576446533203e+00,2.735280513763427734e+00,2.673802614212036133e+00,2.615027189254760742e+00,2.558780193328857422e+00,2.504902124404907227e+00,2.453245878219604492e+00,2.403677463531494141e+00,2.356072187423706055e+00,2.310316085815429688e+00,2.266303300857543945e+00,2.223936080932617188e+00,2.183123826980590820e+00,2.143782615661621094e+00,2.105834007263183594e+00,2.069205522537231445e+00,2.033829689025878906e+00,1.999643206596374512e+00,1.966587066650390625e+00,1.934605598449707031e+00,1.903648018836975098e+00,1.873665452003479004e+00,1.844612836837768555e+00
5.000000000000000000e+00,5.000000000000000000e+00,5.000000000000000000e+00,5.000000000000000000e+00,5.000000000000000000e+00,5.000000000000000000e+00,5.000000000000000000e+00,5.000000000000000000e+00,5.000000000000000000e+00,5.000000000000000000e+00,5.000000000000000000e+00,5.000000000000000000e+00,5.000000000000000000e+00,5.000000000000000000e+00,2.275257110595703125e+00,2.275142669677734375e+00,5.000000000000000000e+00,5.000000000000000000e+00,5.000000000000000000e+00,5.000000000000000000e+00,2.196661710739135742e+00,2.185325145721435547e+00,2.201800346374511719e+00,5.000000000000000000e+00,5.000000000000000000e+00,5.000000000000000000e+00,5.000000000000000000e+00,5.000000000000000000e+00,5.000000000000000000e+00,5.000000000000000000e+00,5.000000000000000000e+00,5.000000000000000000e+00,5.000000000000000000e+00,5.000000000000000000e+00,5.000000000000000000e+00,5.000000000000000000e+00,5.000000000000000000e+00,5.000000000000000000e+00,5.000000000000000000e+00,4.857357025146484375e+00,4.666806221008300781e+00,4.490641117095947266e+00,4.327292442321777344e+00,4.175412178039550781e+00,4.033830642700195312e+00,3.901536226272583008e+00,3.777642965316772461e+00,3.661376237869262695e+00,3.552052974700927734e+00,3.449068546295166016e+00,3.351887941360473633e+00,3.260033130645751953e+00,3.173078536987304688e+00,3.090642213821411133e+00,3.012380599975585938e+00,2.937984943389892578e+00,2.867175102233886719e+00,2.799698114395141602e+00,2.735324382781982422e+00,2.673844337463378906e+00,2.615067243576049805e+00,2.558818578720092773e+00,2.504938602447509766e+00,2.453281164169311523e+00,2.403711080551147461e+00,2.356104612350463867e+00,2.310347080230712891e+00,2.266333341598510742e+00,2.223964929580688477e+00,2.183151721954345703e+00,2.143809318542480469e+00,2.105859994888305664e+00,2.069230556488037109e+00,2.033854007720947266e+00,1.999666571617126465e+00,1.966609597206115723e+00,1.934627413749694824e+00,1.903669118881225586e+00,1.873685956001281738e+00,1.844632506370544434e+00
5.000000000000000000e+00,5.000000000000000000e+00,5.000000000000000000e+00,5.000000000000000000e+00,5.000000000000000000e+00,5.000000000000000000e+00,5.000000000000000000e+00,5.000000000000000000e+00,5.000000000000000000e+00,5.000000000000000000e+00,5.000000000000000000e+00,5.000000000000000000e+00,5.000000000000000000e+00,5.000000000000000000e+00,2.271100282669067383e+00,2.278392314910888672e+00,5.000000000000000000e+00,5.000000000000000000e+00,5.000000000000000000e+00,5.000000000000000000e+00,2.199582576751708984e+00,2.190316438674926758e+00,2.206462383270263672e+00,5.000000000000000000e+00,5.000000000000000000e+00,5.000000000000000000e+00,5.000000000000000000e+00,5.000000000000000000e+00,5.000000000000000000e+00,5.000000000000000000e+00,5.000000000000000000e+00,5.000000000000000000e+00,5.000000000000000000e+00,5.000000000000000000e+00,5.000000000000000000e+00,5.000000000000000000e+00,5.000000000000000000e+00,5.000000000000000000e+00,5.000000000000000000e+00,4.857495307922363281e+00,4.666933536529541016e+00,4.490759372711181641e+00,4.327402114868164062e+00,4.175513744354248047e+00,4.033925533294677734e+00,3.901624441146850586e+00,3.777726173400878906e+00,3.661454439163208008e+00,3.552126646041870117e+00,3.449138164520263672e+00,3.351953268051147461e+00,3.260095357894897461e+00,3.173137426376342773e+00,3.090698003768920898e+00,3.012433767318725586e+00,2.938035249710083008e+00,2.867223024368286133e+00,2.799743890762329102e+00,2.735368013381958008e+00,2.673886060714721680e+00,2.615107059478759766e+00,2.558856725692749023e+00,2.504975318908691406e+00,2.453316211700439453e+00,2.403744697570800781e+00,2.356137037277221680e+00,2.310378313064575195e+00,2.266363143920898438e+00,2.223993778228759766e+00,2.183179378509521484e+00,2.143836259841918945e+00,2.105885744094848633e+00,2.069255590438842773e+00,2.033878087997436523e+00,1.999689936637878418e+00,1.966632246971130371e+00,1.934649348258972168e+00,1.903690338134765625e+00,1.873706459999084473e+00,1.844652295112609863e+00
4.874346256256103516e+00,4.873148918151855469e+00,4.871952056884765625e+00,4.870755672454833984e+00,4.869560241699218750e+00,4.868365287780761719e+00,4.867170810699462891e+00,4.865976810455322266e+00,4.864784240722656250e+00,4.863591194152832031e+00,4.862399101257324219e+00,4.861207962036132812e+00,4.860016822814941406e+00,4.858826637268066406e+00,2.266022443771362305e+00,2.281115531921386719e+00,4.855259418487548828e+00,4.854071140289306641e+00,4.852884292602539062e+00,4.851697444915771484e+00,2.202445983886718750e+00,2.195330142974853516e+00,4.848140239715576172e+00,4.846955776214599609e+00,4.845771789550781250e+00,4.844588756561279297e+00,4.843405723571777344e+00,4.842223644256591797e+00,4.841042041778564453e+00,4.839860916137695312e+00,4.838680744171142578e+00,4.837500572204589844e+00,4.836321353912353516e+00,4.835142612457275391e+00,4.833964347839355469e+00,4.832786560058593750e+00,4.831609725952148438e+00,4.830433368682861328e+00,4.829257488250732422e+00,4.828082561492919922e+00,4.667061328887939453e+00,4.490877628326416016e+00,4.327511787414550781e+00,4.175614833831787109e+00,4.034020423889160156e+00,3.901713371276855469e+00,3.777809619903564453e+00,3.661532878875732422e+00,3.552200078964233398e+00,3.449207544326782227e+00,3.352018833160400391e+00,3.260157346725463867e+00,3.173196077346801758e+00,3.090753555297851562e+00,3.012486696243286133e+00,2.938085556030273438e+00,2.867271184921264648e+00,2.799789667129516602e+00,2.735411405563354492e+00,2.673927783966064453e+00,2.615146875381469727e+00,2.558895111083984375e+00,2.505011796951293945e+00,2.453351259231567383e+00,2.403778553009033203e+00,2.356169462203979492e+00,2.310409545898437500e+00,2.266393184661865234e+00,2.224022626876831055e+00,2.183207273483276367e+00,2.143862962722778320e+00,2.105911731719970703e+00,2.069280624389648438e+00,2.033902168273925781e+00,1.999713301658630371e+00,1.966654539108276367e+00,1.934671163558959961e+00,1.903711438179016113e+00,1.873726963996887207e+00,1.844672203063964844e+00
3.777374744415283203e+00,3.776655912399291992e+00,3.775936841964721680e+00,3.775218486785888672e+00,3.774500131607055664e+00,3.773782014846801758e+00,3.773064374923706055e+00,3.772347211837768555e+00,3.771629571914672852e+00,3.770912885665893555e+00,3.770195960998535156e+00,3.769479751586914062e+00,3.768763780593872070e+00,3.768047809600830078e+00,2.256909847259521484e+00,2.273131132125854492e+00,3.765902042388916016e+00,3.765187501907348633e+00,3.764472961425781250e+00,3.763758659362792969e+00,2.212980985641479492e+00,2.210723638534545898e+00,3.761617660522460938e+00,3.760904788970947266e+00,3.760191679000854492e+00,3.759479284286499023e+00,3.758767127990722656e+00,3.758054971694946289e+00,3.757343292236328125e+00,3.756631851196289062e+00,3.755920410156250000e+00,3.755209684371948242e+00,3.754499197006225586e+00,3.753788471221923828e+00,3.753078460693359375e+00,3.752368688583374023e+00,3.751658916473388672e+00,3.750949621200561523e+00,3.750240802764892578e+00,3.749531745910644531e+00,3.748823404312133789e+00,3.748114824295043945e+00,3.747406959533691406e+00,3.746699333190917969e+00,3.745991706848144531e+00,3.745284557342529297e+00,3.744577884674072266e+00,3.661611080169677734e+00,3.552273750305175781e+00,3.449277162551879883e+00,3.352084398269653320e+00,3.260219097137451172e+00,3.173254966735839844e+00,3.090809345245361328e+00,3.012539625167846680e+00,2.938136100769042969e+00,2.867318868637084961e+00,2.799835443496704102e+00,2.735455274581909180e+00,2.673969507217407227e+00,2.615186929702758789e+00,2.558933019638061523e+00,2.505048513412475586e+00,2.453386306762695312e+00,2.403812170028686523e+00,2.356201887130737305e+00,2.310440540313720703e+00,2.266422986984252930e+00,2.224051475524902344e+00,2.183235168457031250e+00,2.143889904022216797e+00,2.105937480926513672e+00,2.069305658340454102e+00,2.033926248550415039e+00,1.999736666679382324e+00,1.966677188873291016e+00,1.934693098068237305e+00,1.903732657432556152e+00,1.873747229576110840e+00,1.844692111015319824e+00
3.083445787429809570e+00,3.082966327667236328e+00,3.082487344741821289e+00,3.082008600234985352e+00,3.081529855728149414e+00,3.081051349639892578e+00,3.080573081970214844e+00,3.080094575881958008e+00,3.079616546630859375e+00,3.079138278961181641e+00,3.078660488128662109e+00,3.078182935714721680e+00,3.077705383300781250e+00,3.077228069305419922e+00,3.076750755310058594e+00,3.076273441314697266e+00,3.075796604156494141e+00,3.075320005416870117e+00,3.074843168258666992e+00,3.074366807937622070e+00,2.200605392456054688e+00,2.188460350036621094e+00,3.072938203811645508e+00,3.072462081909179688e+00,3.071986436843872070e+00,3.071510791778564453e+00,3.071035146713256836e+00,3.070559978485107422e+00,3.070085048675537109e+00,3.069609642028808594e+00,3.069134950637817383e+00,3.068660259246826172e+00,3.068185567855834961e+00,3.067711114883422852e+00,3.067236900329589844e+00,3.066762685775756836e+00,3.066288709640502930e+00,3.065815210342407227e+00,3.065341234207153320e+00,3.064867734909057617e+00,3.064394235610961914e+00,3.063920974731445312e+00,3.063447952270507812e+00,3.062974929809570312e+00,3.062502145767211914e+00,3.062029600143432617e+00,3.061556816101074219e+00,3.061084508895874023e+00,3.060612440109252930e+00,3.060140132904052734e+00,3.059668302536010742e+00,3.059196472167968750e+00,3.058724641799926758e+00,3.058253288269042969e+00,3.012592554092407227e+00,2.938186407089233398e+00,2.867366790771484375e+00,2.799881219863891602e+00,2.735498905181884766e+00,2.674010992050170898e+00,2.615226745605468750e+00,2.558971405029296875e+00,2.505085229873657227e+00,2.453421592712402344e+00,2.403845787048339844e+00,2.356234312057495117e+00,2.310471773147583008e+00,2.266453027725219727e+00,2.224080324172973633e+00,2.183262825012207031e+00,2.143916606903076172e+00,2.105963468551635742e+00,2.069330453872680664e+00,2.033950567245483398e+00,1.999759793281555176e+00,1.966699719429016113e+00,1.934714913368225098e+00,1.903753757476806641e+00,1.873767852783203125e+00,1.844712018966674805e+00
2.604906558990478516e+00,2.604564666748046875e+00,2.604222774505615234e+00,2.603880882263183594e+00,2.603539228439331055e+00,2.603197574615478516e+00,2.602855920791625977e+00,2.602514743804931641e+00,2.602173089981079102e+00,2.601831912994384766e+00,2.601490736007690430e+00,2.601149559020996094e+00,2.600808620452880859e+00,2.600467920303344727e+00,2.600126981735229492e+00,2.599786281585693359e+00,2.599445581436157227e+00,2.599104881286621094e+00,2.598764419555664062e+00,2.598424196243286133e+00,2.203022956848144531e+00,2.144227981567382812e+00,2.167688131332397461e+00,2.597063541412353516e+00,2.596723556518554688e+00,2.596383571624755859e+00,2.596044063568115234e+00,2.595704317092895508e+00,2.595364570617675781e+00,2.595025300979614258e+00,2.594686031341552734e+00,2.594346523284912109e+00,2.594007253646850586e+00,2.593668222427368164e+00,2.593329191207885742e+00,2.592990159988403320e+00,2.592651128768920898e+00,2.592312574386596680e+00,2.591973781585693359e+00,2.591635227203369141e+00,2.591296672821044922e+00,2.590958356857299805e+00,2.590619802474975586e+00,2.590281724929809570e+00,2.589943647384643555e+00,2.589605331420898438e+00,2.589267492294311523e+00,2.588929653167724609e+00,2.588591814041137695e+00,2.588254213333129883e+00,2.587916374206542969e+00,2.587578773498535156e+00,2.587241411209106445e+00,2.586904048919677734e+00,2.586566925048828125e+00,2.586229801177978516e+00,2.585892438888549805e+00,2.585555553436279297e+00,2.585218667984008789e+00,2.584881782531738281e+00,2.584545135498046875e+00,2.559009552001953125e+00,2.505121707916259766e+00,2.453456640243530273e+00,2.403879642486572266e+00,2.356266736984252930e+00,2.310503005981445312e+00,2.266483068466186523e+00,2.224109172821044922e+00,2.183290719985961914e+00,2.143943548202514648e+00,2.105989456176757812e+00,2.069355487823486328e+00,2.033974647521972656e+00,1.999783158302307129e+00,1.966722369194030762e+00,1.934736728668212891e+00,1.903774738311767578e+00,1.873788356781005859e+00,1.844731807708740234e+00
2.254986286163330078e+00,2.254728317260742188e+00,2.254470586776733398e+00,2.254212617874145508e+00,2.253954887390136719e+00,2.253697156906127930e+00,2.253439426422119141e+00,2.253181695938110352e+00,2.252924203872680664e+00,2.252666950225830078e+00,2.252409458160400391e+00,2.252151966094970703e+00,2.251894712448120117e+00,2.251637458801269531e+00,2.251380205154418945e+00,2.251123189926147461e+00,2.250866174697875977e+00,2.250608921051025391e+00,2.250352144241333008e+00,2.250095129013061523e+00,2.249838352203369141e+00,2.129718303680419922e+00,2.093682050704956055e+00,2.138668775558471680e+00,2.248812913894653320e+00,2.248558044433593750e+00,2.248303174972534180e+00,2.248048305511474609e+00,2.247793674468994141e+00,2.247539043426513672e+00,2.247284412384033203e+00,2.247030019760131836e+00,2.246775627136230469e+00,2.246520996093750000e+00,2.246266603469848633e+00,2.246012210845947266e+00,2.245758056640625000e+00,2.245503902435302734e+00,2.245249748229980469e+00,2.244995594024658203e+00,2.244741678237915039e+00,2.244487524032592773e+00,2.244233846664428711e+00,2.243979930877685547e+00,2.243726015090942383e+00,2.243472337722778320e+00,2.243218898773193359e+00,2.242964982986450195e+00,2.242711544036865234e+00,2.242458105087280273e+00,2.242204666137695312e+00,2.241951227188110352e+00,2.241697788238525391e+00,2.241444587707519531e+00,2.241191387176513672e+00,2.240938186645507812e+00,2.240685224533081055e+00,2.240432262420654297e+00,2.240179061889648438e+00,2.239926099777221680e+00,2.239673376083374023e+00,2.239420413970947266e+00,2.239167690277099609e+00,2.238915205001831055e+00,2.238662242889404297e+00,2.238409757614135742e+00,2.238157272338867188e+00,2.237904787063598633e+00,2.224138021469116211e+00,2.183318614959716797e+00,2.143970251083374023e+00,2.106015205383300781e+00,2.069380521774291992e+00,2.033998727798461914e+00,1.999806523323059082e+00,1.966744899749755859e+00,1.934758663177490234e+00,1.903795957565307617e+00,1.873808860778808594e+00,1.844751715660095215e+00
1.988016843795776367e+00,1.987816333770751953e+00,1.987615704536437988e+00,1.987415313720703125e+00,1.987215042114257812e+00,1.987014770507812500e+00,1.986814498901367188e+00,1.986613988876342773e+00,1.986413836479187012e+00,1.986213803291320801e+00,1.986013650894165039e+00,1.985813379287719727e+00,1.985613346099853516e+00,1.985413432121276855e+00,1.985213518142700195e+00,1.985013604164123535e+00,1.984813570976257324e+00,1.984613776206970215e+00,1.984413981437683105e+00,1.984214305877685547e+00,1.984014630317687988e+00,1.983814716339111328e+00,1.983615040779113770e+00,1.983415484428405762e+00,1.983216047286987305e+00,1.983016252517700195e+00,1.982816815376281738e+00,1.982617497444152832e+00,1.982418060302734375e+00,1.982218742370605469e+00,1.982019305229187012e+00,1.981819987297058105e+00,1.981620788574218750e+00,1.981421709060668945e+00,1.981222510337829590e+00,1.981023192405700684e+00,1.980824112892150879e+00,1.980625152587890625e+00,1.980426192283630371e+00,1.980226993560791016e+00,1.980028152465820312e+00,1.979829311370849609e+00,1.979630470275878906e+00,1.979431748390197754e+00,1.979232788085937500e+00,1.979034066200256348e+00,1.978835463523864746e+00,1.978636860847473145e+00,1.978438019752502441e+00,1.978239536285400391e+00,1.978041052818298340e+00,1.977842569351196289e+00,1.977644205093383789e+00,1.977445602416992188e+00,1.977247238159179688e+00,1.977048993110656738e+00,1.976850748062133789e+00,1.976652503013610840e+00,1.976454138755798340e+00,1.976256012916564941e+00,1.976057887077331543e+00,1.975859880447387695e+00,1.975661635398864746e+00,1.975463628768920898e+00,1.975265741348266602e+00,1.975067853927612305e+00,1.974869966506958008e+00,1.974671959877014160e+00,1.974474191665649414e+00,1.974276423454284668e+00,1.974078774452209473e+00,1.973881125450134277e+00,1.973683238029479980e+00,1.973485708236694336e+00,1.973288178443908691e+00,1.966767549514770508e+00,1.934780478477478027e+00,1.903817057609558105e+00,1.873829364776611328e+00,1.844771623611450195e+00
1.777569055557250977e+00,1.777408599853515625e+00,1.777248382568359375e+00,1.777088165283203125e+00,1.776928067207336426e+00,1.776767849922180176e+00,1.776607632637023926e+00,1.776447534561157227e+00,1.776287436485290527e+00,1.776127457618713379e+00,1.775967240333557129e+00,1.775807261466979980e+00,1.775647282600402832e+00,1.775487422943115234e+00,1.775327563285827637e+00,1.775167465209960938e+00,1.775007605552673340e+00,1.774847865104675293e+00,1.774688124656677246e+00,1.774528384208679199e+00,1.774368405342102051e+00,1.774208784103393555e+00,1.774049162864685059e+00,1.773889541625976562e+00,1.773729681968688965e+00,1.773570179939270020e+00,1.773410558700561523e+00,1.773251056671142578e+00,1.773091554641723633e+00,1.772931933403015137e+00,1.772772550582885742e+00,1.772613167762756348e+00,1.772453784942626953e+00,1.772294402122497559e+00,1.772134900093078613e+00,1.771975636482238770e+00,1.771816372871398926e+00,1.771657109260559082e+00,1.771497726440429688e+00,1.771338582038879395e+00,1.771179437637329102e+00,1.771020412445068359e+00,1.770861268043518066e+00,1.770702004432678223e+00,1.770542979240417480e+00,1.770383954048156738e+00,1.770225048065185547e+00,1.770066142082214355e+00,1.769906997680664062e+00,1.769748091697692871e+00,1.769589304924011230e+00,1.769430398941040039e+00,1.769271492958068848e+00,1.769112706184387207e+00,1.768953919410705566e+00,1.768795251846313477e+00,1.768636584281921387e+00,1.768477678298950195e+00,1.768319129943847656e+00,1.768160462379455566e+00,1.768001914024353027e+00,1.767843365669250488e+00,1.767684698104858398e+00,1.767526149749755859e+00,1.767367720603942871e+00,1.767209291458129883e+00,1.767050743103027344e+00,1.766892433166503906e+00,1.766734004020690918e+00,1.766575694084167480e+00,1.766417384147644043e+00,1.766258955001831055e+00,1.766100764274597168e+00,1.765942573547363281e+00,1.765784382820129395e+00,1.765626311302185059e+00,1.765468001365661621e+00,1.765309929847717285e+00,1.765151858329772949e+00,1.764993906021118164e+00
1.607411384582519531e+00,1.607280373573303223e+00,1.607149243354797363e+00,1.607018232345581055e+00,1.606887340545654297e+00,1.606756210327148438e+00,1.606625199317932129e+00,1.606494307518005371e+00,1.606363415718078613e+00,1.606232404708862305e+00,1.606101512908935547e+00,1.605970740318298340e+00,1.605839848518371582e+00,1.605709075927734375e+00,1.605578184127807617e+00,1.605447411537170410e+00,1.605316758155822754e+00,1.605185985565185547e+00,1.605055332183837891e+00,1.604924440383911133e+00,1.604793906211853027e+00,1.604663252830505371e+00,1.604532599449157715e+00,1.604401946067810059e+00,1.604271292686462402e+00,1.604140758514404297e+00,1.604010343551635742e+00,1.603879809379577637e+00,1.603749155998229980e+00,1.603618741035461426e+00,1.603488326072692871e+00,1.603357911109924316e+00,1.603227496147155762e+00,1.603096961975097656e+00,1.602966666221618652e+00,1.602836251258850098e+00,1.602705955505371094e+00,1.602575540542602539e+00,1.602445363998413086e+00,1.602315068244934082e+00,1.602184891700744629e+00,1.602054715156555176e+00,1.601924300193786621e+00,1.601794123649597168e+00,1.601664066314697266e+00,1.601533889770507812e+00,1.601403832435607910e+00,1.601273655891418457e+00,1.601143598556518555e+00,1.601013541221618652e+00,1.600883603096008301e+00,1.600753426551818848e+00,1.600623488426208496e+00,1.600493550300598145e+00,1.600363612174987793e+00,1.600233674049377441e+00,1.600103616714477539e+00,1.599973797798156738e+00,1.599843859672546387e+00,1.599714159965515137e+00,1.599584341049194336e+00,1.599454402923583984e+00,1.599324584007263184e+00,1.599194884300231934e+00,1.599065184593200684e+00,1.598935365676879883e+00,1.598805665969848633e+00,1.598676085472106934e+00,1.598546385765075684e+00,1.598416805267333984e+00,1.598287105560302734e+00,1.598157525062561035e+00,1.598027944564819336e+00,1.597898483276367188e+00,1.597768902778625488e+00,1.597639322280883789e+00,1.597509860992431641e+00,1.597380399703979492e+00,1.597251057624816895e+00,1.597121477127075195e+00
1.466984510421752930e+00,1.466875314712524414e+00,1.466766238212585449e+00,1.466657042503356934e+00,1.466547846794128418e+00,1.466438770294189453e+00,1.466329693794250488e+00,1.466220617294311523e+00,1.466111540794372559e+00,1.466002464294433594e+00,1.465893387794494629e+00,1.465784430503845215e+00,1.465675473213195801e+00,1.465566396713256836e+00,1.465457439422607422e+00,1.465348482131958008e+00,1.465239644050598145e+00,1.465130686759948730e+00,1.465021729469299316e+00,1.464912891387939453e+00,1.464803934097290039e+00,1.464695215225219727e+00,1.464586377143859863e+00,1.464477419853210449e+00,1.464368700981140137e+00,1.464259862899780273e+00,1.464151144027709961e+00,1.464042305946350098e+00,1.463933587074279785e+00,1.463824868202209473e+00,1.463716149330139160e+00,1.463607549667358398e+00,1.463498711585998535e+00,1.463390111923217773e+00,1.463281512260437012e+00,1.463172912597656250e+00,1.463064312934875488e+00,1.462955594062805176e+00,1.462847113609313965e+00,1.462738513946533203e+00,1.462630033493041992e+00,1.462521433830261230e+00,1.462412834167480469e+00,1.462304472923278809e+00,1.462195992469787598e+00,1.462087512016296387e+00,1.461979031562805176e+00,1.461870551109313965e+00,1.461762189865112305e+00,1.461653828620910645e+00,1.461545467376708984e+00,1.461436986923217773e+00,1.461328625679016113e+00,1.461220383644104004e+00,1.461112022399902344e+00,1.461003661155700684e+00,1.460895419120788574e+00,1.460787177085876465e+00,1.460678935050964355e+00,1.460570693016052246e+00,1.460462331771850586e+00,1.460354208946228027e+00,1.460245966911315918e+00,1.460137844085693359e+00,1.460029721260070801e+00,1.459921479225158691e+00,1.459813356399536133e+00,1.459705352783203125e+00,1.459597229957580566e+00,1.459489107131958008e+00,1.459380984306335449e+00,1.459272980690002441e+00,1.459164977073669434e+00,1.459056973457336426e+00,1.458948850631713867e+00,1.458840966224670410e+00,1.458732962608337402e+00,1.458625078201293945e+00,1.458517193794250488e+00,1.458409070968627930e+00
1.349122285842895508e+00,1.349029898643493652e+00,1.348937630653381348e+00,1.348845243453979492e+00,1.348752975463867188e+00,1.348660707473754883e+00,1.348568439483642578e+00,1.348476171493530273e+00,1.348383784294128418e+00,1.348291635513305664e+00,1.348199367523193359e+00,1.348107218742370605e+00,1.348014950752258301e+00,1.347922801971435547e+00,1.347830653190612793e+00,1.347738504409790039e+00,1.347646355628967285e+00,1.347554087638854980e+00,1.347462058067321777e+00,1.347369909286499023e+00,1.347277879714965820e+00,1.347185850143432617e+00,1.347093701362609863e+00,1.347001671791076660e+00,1.346909642219543457e+00,1.346817612648010254e+00,1.346725463867187500e+00,1.346633553504943848e+00,1.346541523933410645e+00,1.346449613571166992e+00,1.346357583999633789e+00,1.346265554428100586e+00,1.346173644065856934e+00,1.346081733703613281e+00,1.345989823341369629e+00,1.345897912979125977e+00,1.345805883407592773e+00,1.345714092254638672e+00,1.345622181892395020e+00,1.345530390739440918e+00,1.345438480377197266e+00,1.345346689224243164e+00,1.345254778861999512e+00,1.345162987709045410e+00,1.345071315765380859e+00,1.344979405403137207e+00,1.344887614250183105e+00,1.344795942306518555e+00,1.344704151153564453e+00,1.344612479209899902e+00,1.344520688056945801e+00,1.344429016113281250e+00,1.344337344169616699e+00,1.344245672225952148e+00,1.344153881072998047e+00,1.344062209129333496e+00,1.343970656394958496e+00,1.343878984451293945e+00,1.343787431716918945e+00,1.343695640563964844e+00,1.343604087829589844e+00,1.343512535095214844e+00,1.343420982360839844e+00,1.343329429626464844e+00,1.343237757682800293e+00,1.343146324157714844e+00,1.343054771423339844e+00,1.342963337898254395e+00,1.342871665954589844e+00,1.342780232429504395e+00,1.342688798904418945e+00,1.342597365379333496e+00,1.342505931854248047e+00,1.342414379119873047e+00,1.342323064804077148e+00,1.342231631278991699e+00,1.342140197753906250e+00,1.342048883438110352e+00,1.341957449913024902e+00,1.341866016387939453e+00
1.248790383338928223e+00,1.248711347579956055e+00,1.248632192611694336e+00,1.248553037643432617e+00,1.248474001884460449e+00,1.248394966125488281e+00,1.248315930366516113e+00,1.248236775398254395e+00,1.248157739639282227e+00,1.248078703880310059e+00,1.247999787330627441e+00,1.247920751571655273e+00,1.247841596603393555e+00,1.247762680053710938e+00,1.247683763504028320e+00,1.247604727745056152e+00,1.247525691986083984e+00,1.247446775436401367e+00,1.247367858886718750e+00,1.247288942337036133e+00,1.247210025787353516e+00,1.247130990028381348e+00,1.247052192687988281e+00,1.246973276138305664e+00,1.246894359588623047e+00,1.246815562248229980e+00,1.246736645698547363e+00,1.246657729148864746e+00,1.246578931808471680e+00,1.246500134468078613e+00,1.246421217918395996e+00,1.246342420578002930e+00,1.246263623237609863e+00,1.246184825897216797e+00,1.246106028556823730e+00,1.246027231216430664e+00,1.245948433876037598e+00,1.245869755744934082e+00,1.245791077613830566e+00,1.245712280273437500e+00,1.245633482933044434e+00,1.245554804801940918e+00,1.245476126670837402e+00,1.245397448539733887e+00,1.245318651199340820e+00,1.245239973068237305e+00,1.245161414146423340e+00,1.245082736015319824e+00,1.245004057884216309e+00,1.244925379753112793e+00,1.244846820831298828e+00,1.244768142700195312e+00,1.244689583778381348e+00,1.244610905647277832e+00,1.244532346725463867e+00,1.244453787803649902e+00,1.244375228881835938e+00,1.244296669960021973e+00,1.244218111038208008e+00,1.244139552116394043e+00,1.244061112403869629e+00,1.243982553482055664e+00,1.243904113769531250e+00,1.243825554847717285e+00,1.243746995925903320e+00,1.243668556213378906e+00,1.243590116500854492e+00,1.243511557579040527e+00,1.243433117866516113e+00,1.243354797363281250e+00,1.243276357650756836e+00,1.243197917938232422e+00,1.243119478225708008e+00,1.243041038513183594e+00,1.242962718009948730e+00,1.242884397506713867e+00,1.242805957794189453e+00,1.242727518081665039e+00,1.242649197578430176e+00,1.242570877075195312e+00
1.162348628044128418e+00,1.162280082702636719e+00,1.162211537361145020e+00,1.162142992019653320e+00,1.162074565887451172e+00,1.162006020545959473e+00,1.161937475204467773e+00,1.161869049072265625e+00,1.161800503730773926e+00,1.161732077598571777e+00,1.161663651466369629e+00,1.161595106124877930e+00,1.161526679992675781e+00,1.161458253860473633e+00,1.161389827728271484e+00,1.161321282386779785e+00,1.161252856254577637e+00,1.161184549331665039e+00,1.161116123199462891e+00,1.161047697067260742e+00,1.160979270935058594e+00,1.160910964012145996e+00,1.160842537879943848e+00,1.160774230957031250e+00,1.160705804824829102e+00,1.160637497901916504e+00,1.160569071769714355e+00,1.160500764846801758e+00,1.160432457923889160e+00,1.160364151000976562e+00,1.160295844078063965e+00,1.160227537155151367e+00,1.160159230232238770e+00,1.160091042518615723e+00,1.160022616386413574e+00,1.159954428672790527e+00,1.159886121749877930e+00,1.159817934036254883e+00,1.159749627113342285e+00,1.159681320190429688e+00,1.159613132476806641e+00,1.159544944763183594e+00,1.159476757049560547e+00,1.159408450126647949e+00,1.159340262413024902e+00,1.159272074699401855e+00,1.159204006195068359e+00,1.159135818481445312e+00,1.159067630767822266e+00,1.158999443054199219e+00,1.158931255340576172e+00,1.158863186836242676e+00,1.158795118331909180e+00,1.158726930618286133e+00,1.158658742904663086e+00,1.158590674400329590e+00,1.158522605895996094e+00,1.158454418182373047e+00,1.158386349678039551e+00,1.158318281173706055e+00,1.158250331878662109e+00,1.158182263374328613e+00,1.158114075660705566e+00,1.158046126365661621e+00,1.157978057861328125e+00,1.157910108566284180e+00,1.157842040061950684e+00,1.157773971557617188e+00,1.157706022262573242e+00,1.157638072967529297e+00,1.157570004463195801e+00,1.157502055168151855e+00,1.157434105873107910e+00,1.157366156578063965e+00,1.157298207283020020e+00,1.157230257987976074e+00,1.157162189483642578e+00,1.157094359397888184e+00,1.157026410102844238e+00,1.156958460807800293e+00
1.087099075317382812e+00,1.087039232254028320e+00,1.086979269981384277e+00,1.086919307708740234e+00,1.086859345436096191e+00,1.086799383163452148e+00,1.086739540100097656e+00,1.086679577827453613e+00,1.086619734764099121e+00,1.086559772491455078e+00,1.086499929428100586e+00,1.086439967155456543e+00,1.086380124092102051e+00,1.086320281028747559e+00,1.086260318756103516e+00,1.086200475692749023e+00,1.086140632629394531e+00,1.086080789566040039e+00,1.086020946502685547e+00,1.085961103439331055e+00,1.085901260375976562e+00,1.085841536521911621e+00,1.085781693458557129e+00,1.085721850395202637e+00,1.085662007331848145e+00,1.085602283477783203e+00,1.085542440414428711e+00,1.085482716560363770e+00,1.085422873497009277e+00,1.085363149642944336e+00,1.085303425788879395e+00,1.085243582725524902e+00,1.085183858871459961e+00,1.085124135017395020e+00,1.085064411163330078e+00,1.085004687309265137e+00,1.084944963455200195e+00,1.084885239601135254e+00,1.084825515747070312e+00,1.084765791893005371e+00,1.084706068038940430e+00,1.084646344184875488e+00,1.084586620330810547e+00,1.084527015686035156e+00,1.084467291831970215e+00,1.084407687187194824e+00,1.084348082542419434e+00,1.084288358688354492e+00,1.084228754043579102e+00,1.084169149398803711e+00,1.084109425544738770e+00,1.084049820899963379e+00,1.083990216255187988e+00,1.083930611610412598e+00,1.083871006965637207e+00,1.083811402320861816e+00,1.083751797676086426e+00,1.083692193031311035e+00,1.083632588386535645e+00,1.083573102951049805e+00,1.083513498306274414e+00,1.083453893661499023e+00,1.083394408226013184e+00,1.083334803581237793e+00,1.083275318145751953e+00,1.083215832710266113e+00,1.083156228065490723e+00,1.083096742630004883e+00,1.083037137985229492e+00,1.082977652549743652e+00,1.082918167114257812e+00,1.082858681678771973e+00,1.082799196243286133e+00,1.082739710807800293e+00,1.082680225372314453e+00,1.082620739936828613e+00,1.082561254501342773e+00,1.082501888275146484e+00,1.082442402839660645e+00,1.082382917404174805e+00
1.021000385284423828e+00,1.020947575569152832e+00,1.020894646644592285e+00,1.020841836929321289e+00,1.020788908004760742e+00,1.020736098289489746e+00,1.020683169364929199e+00,1.020630359649658203e+00,1.020577549934387207e+00,1.020524621009826660e+00,1.020471811294555664e+00,1.020419001579284668e+00,1.020366191864013672e+00,1.020313382148742676e+00,1.020260572433471680e+00,1.020207762718200684e+00,1.020154953002929688e+00,1.020102143287658691e+00,1.020049333572387695e+00,1.019996523857116699e+00,1.019943714141845703e+00,1.019891023635864258e+00,1.019838213920593262e+00,1.019785404205322266e+00,1.019732713699340820e+00,1.019679903984069824e+00,1.019627213478088379e+00,1.019574522972106934e+00,1.019521713256835938e+00,1.019469022750854492e+00,1.019416213035583496e+00,1.019363522529602051e+00,1.019310832023620605e+00,1.019258022308349609e+00,1.019205331802368164e+00,1.019152641296386719e+00,1.019100069999694824e+00,1.019047260284423828e+00,1.018994569778442383e+00,1.018941879272460938e+00,1.018889307975769043e+00,1.018836617469787598e+00,1.018783926963806152e+00,1.018731236457824707e+00,1.018678665161132812e+00,1.018625974655151367e+00,1.018573284149169922e+00,1.018520712852478027e+00,1.018468022346496582e+00,1.018415451049804688e+00,1.018362879753112793e+00,1.018310189247131348e+00,1.018257617950439453e+00,1.018205046653747559e+00,1.018152475357055664e+00,1.018099784851074219e+00,1.018047213554382324e+00,1.017994642257690430e+00,1.017942070960998535e+00,1.017889499664306641e+00,1.017836928367614746e+00,1.017784357070922852e+00,1.017731785774230957e+00,1.017679333686828613e+00,1.017626762390136719e+00,1.017574191093444824e+00,1.017521619796752930e+00,1.017469167709350586e+00,1.017416596412658691e+00,1.017364144325256348e+00,1.017311573028564453e+00,1.017259120941162109e+00,1.017206549644470215e+00,1.017154097557067871e+00,1.017101526260375977e+00,1.017049074172973633e+00,1.016996622085571289e+00,1.016944169998168945e+00,1.016891717910766602e+00,1.016839146614074707e+00
9.624789953231811523e-01,9.624320864677429199e-01,9.623850584030151367e-01,9.623380303382873535e-01,9.622910618782043457e-01,9.622440338134765625e-01,9.621971845626831055e-01,9.621501564979553223e-01,9.621031284332275391e-01,9.620562195777893066e-01,9.620092511177062988e-01,9.619623422622680664e-01,9.619153738021850586e-01,9.618684053421020508e-01,9.618214964866638184e-01,9.617745280265808105e-01,9.617276787757873535e-01,9.616807103157043457e-01,9.616337418556213379e-01,9.615868926048278809e-01,9.615399241447448730e-01,9.614931344985961914e-01,9.614461660385131836e-01,9.613991975784301758e-01,9.613524079322814941e-01,9.613054394721984863e-01,9.612586498260498047e-01,9.612117409706115723e-01,9.611648321151733398e-01,9.611179828643798828e-01,9.610710740089416504e-01,9.610242247581481934e-01,9.609774351119995117e-01,9.609305262565612793e-01,9.608837366104125977e-01,9.608368277549743652e-01,9.607899785041809082e-01,9.607431888580322266e-01,9.606963396072387695e-01,9.606495499610900879e-01,9.606027007102966309e-01,9.605558514595031738e-01,9.605091214179992676e-01,9.604622721672058105e-01,9.604155421257019043e-01,9.603686928749084473e-01,9.603218436241149902e-01,9.602751135826110840e-01,9.602283239364624023e-01,9.601815938949584961e-01,9.601347446441650391e-01,9.600879549980163574e-01,9.600412845611572266e-01,9.599944353103637695e-01,9.599477648735046387e-01,9.599009752273559570e-01,9.598541855812072754e-01,9.598075151443481445e-01,9.597607254981994629e-01,9.597139358520507812e-01,9.596672654151916504e-01,9.596205353736877441e-01,9.595738649368286133e-01,9.595271348953247070e-01,9.594803452491760254e-01,9.594337344169616699e-01,9.593869447708129883e-01,9.593403339385986328e-01,9.592936038970947266e-01,9.592468738555908203e-01,9.592002630233764648e-01,9.591535329818725586e-01,9.591069221496582031e-01,9.590601921081542969e-01,9.590135216712951660e-01,9.589669108390808105e-01,9.589201807975769043e-01,9.588736295700073242e-01,9.588269591331481934e-01,9.587802290916442871e-01
9.103025197982788086e-01,9.102605581283569336e-01,9.102184772491455078e-01,9.101763963699340820e-01,9.101344347000122070e-01,9.100923538208007812e-01,9.100503921508789062e-01,9.100083708763122559e-01,9.099662899971008301e-01,9.099243283271789551e-01,9.098823070526123047e-01,9.098403453826904297e-01,9.097983241081237793e-01,9.097563028335571289e-01,9.097143411636352539e-01,9.096723198890686035e-01,9.096302986145019531e-01,9.095883965492248535e-01,9.095463752746582031e-01,9.095044732093811035e-01,9.094624519348144531e-01,9.094204306602478027e-01,9.093785881996154785e-01,9.093365669250488281e-01,9.092946648597717285e-01,9.092527031898498535e-01,9.092106819152832031e-01,9.091688394546508789e-01,9.091268777847290039e-01,9.090849757194519043e-01,9.090430140495300293e-01,9.090010523796081543e-01,9.089592099189758301e-01,9.089172482490539551e-01,9.088754057884216309e-01,9.088334441184997559e-01,9.087914824485778809e-01,9.087496399879455566e-01,9.087077379226684570e-01,9.086658954620361328e-01,9.086239337921142578e-01,9.085820317268371582e-01,9.085401892662048340e-01,9.084982872009277344e-01,9.084563851356506348e-01,9.084145426750183105e-01,9.083726406097412109e-01,9.083308577537536621e-01,9.082889556884765625e-01,9.082470536231994629e-01,9.082052707672119141e-01,9.081633687019348145e-01,9.081215858459472656e-01,9.080797433853149414e-01,9.080378413200378418e-01,9.079960584640502930e-01,9.079542160034179688e-01,9.079124331474304199e-01,9.078705906867980957e-01,9.078287482261657715e-01,9.077869653701782227e-01,9.077451229095458984e-01,9.077033996582031250e-01,9.076615571975708008e-01,9.076197147369384766e-01,9.075779914855957031e-01,9.075361490249633789e-01,9.074944257736206055e-01,9.074525833129882812e-01,9.074108004570007324e-01,9.073690772056579590e-01,9.073272943496704102e-01,9.072854518890380859e-01,9.072437882423400879e-01,9.072019457817077637e-01,9.071602821350097656e-01,9.071184992790222168e-01,9.070767164230346680e-01,9.070349931716918945e-01,9.069932699203491211e-01
8.634921908378601074e-01,8.634544014930725098e-01,8.634165525436401367e-01,8.633787035942077637e-01,8.633409142494201660e-01,8.633030652999877930e-01,8.632652163505554199e-01,8.632274866104125977e-01,8.631896376609802246e-01,8.631518483161926270e-01,8.631140589714050293e-01,8.630762100219726562e-01,8.630384802818298340e-01,8.630006313323974609e-01,8.629629015922546387e-01,8.629251122474670410e-01,8.628872632980346680e-01,8.628495931625366211e-01,8.628117442131042480e-01,8.627740740776062012e-01,8.627362251281738281e-01,8.626984357833862305e-01,8.626607656478881836e-01,8.626229763031005859e-01,8.625852465629577637e-01,8.625474572181701660e-01,8.625096678733825684e-01,8.624719977378845215e-01,8.624342083930969238e-01,8.623965382575988770e-01,8.623588085174560547e-01,8.623210191726684570e-01,8.622833490371704102e-01,8.622455596923828125e-01,8.622078299522399902e-01,8.621701598167419434e-01,8.621324300765991211e-01,8.620947599411010742e-01,8.620570302009582520e-01,8.620193004608154297e-01,8.619816303253173828e-01,8.619439005851745605e-01,8.619062900543212891e-01,8.618685603141784668e-01,8.618308305740356445e-01,8.617932200431823730e-01,8.617554903030395508e-01,8.617178797721862793e-01,8.616801500320434570e-01,8.616424202919006348e-01,8.616048097610473633e-01,8.615671396255493164e-01,8.615295290946960449e-01,8.614918589591979980e-01,8.614541292190551758e-01,8.614165782928466797e-01,8.613788485527038574e-01,8.613412976264953613e-01,8.613036274909973145e-01,8.612659573554992676e-01,8.612283468246459961e-01,8.611906766891479492e-01,8.611530065536499023e-01,8.611154556274414062e-01,8.610777854919433594e-01,8.610402345657348633e-01,8.610025644302368164e-01,8.609649538993835449e-01,8.609274029731750488e-01,8.608897328376770020e-01,8.608521819114685059e-01,8.608145713806152344e-01,8.607769608497619629e-01,8.607394099235534668e-01,8.607017993927001953e-01,8.606642484664916992e-01,8.606266379356384277e-01,8.605890274047851562e-01,8.605515360832214355e-01,8.605139255523681641e-01
8.212606310844421387e-01,8.212263584136962891e-01,8.211922049522399902e-01,8.211579322814941406e-01,8.211237788200378418e-01,8.210895657539367676e-01,8.210552930831909180e-01,8.210211396217346191e-01,8.209869265556335449e-01,8.209527730941772461e-01,8.209185600280761719e-01,8.208843469619750977e-01,8.208501935005187988e-01,8.208159804344177246e-01,8.207818269729614258e-01,8.207476139068603516e-01,8.207134604454040527e-01,8.206793069839477539e-01,8.206450939178466797e-01,8.206109404563903809e-01,8.205767869949340820e-01,8.205426335334777832e-01,8.205084800720214844e-01,8.204743266105651855e-01,8.204401135444641113e-01,8.204060196876525879e-01,8.203718662261962891e-01,8.203377723693847656e-01,8.203035593032836914e-01,8.202694058418273926e-01,8.202353119850158691e-01,8.202011585235595703e-01,8.201670646667480469e-01,8.201329112052917480e-01,8.200987577438354492e-01,8.200646638870239258e-01,8.200305104255676270e-01,8.199964761734008789e-01,8.199623227119445801e-01,8.199281692504882812e-01,8.198941349983215332e-01,8.198599815368652344e-01,8.198259472846984863e-01,8.197917938232421875e-01,8.197576999664306641e-01,8.197236061096191406e-01,8.196895122528076172e-01,8.196554183959960938e-01,8.196213245391845703e-01,8.195872306823730469e-01,8.195531964302062988e-01,8.195191025733947754e-01,8.194850087165832520e-01,8.194509744644165039e-01,8.194168806076049805e-01,8.193828463554382324e-01,8.193487524986267090e-01,8.193146586418151855e-01,8.192806839942932129e-01,8.192465901374816895e-01,8.192125558853149414e-01,8.191785216331481934e-01,8.191444277763366699e-01,8.191104531288146973e-01,8.190763592720031738e-01,8.190423846244812012e-01,8.190082907676696777e-01,8.189742565155029297e-01,8.189402818679809570e-01,8.189061880111694336e-01,8.188722133636474609e-01,8.188381791114807129e-01,8.188041448593139648e-01,8.187701702117919922e-01,8.187361359596252441e-01,8.187021017074584961e-01,8.186681270599365234e-01,8.186340928077697754e-01,8.186001181602478027e-01,8.185660839080810547e-01
7.829673290252685547e-01,7.829362154006958008e-01,7.829051613807678223e-01,7.828740477561950684e-01,7.828429341316223145e-01,7.828118801116943359e-01,7.827807664871215820e-01,7.827497124671936035e-01,7.827185988426208496e-01,7.826874852180480957e-01,7.826564311981201172e-01,7.826253175735473633e-01,7.825943231582641602e-01,7.825632095336914062e-01,7.825320959091186523e-01,7.825011014938354492e-01,7.824699878692626953e-01,7.824389934539794922e-01,7.824078798294067383e-01,7.823768258094787598e-01,7.823457717895507812e-01,7.823147177696228027e-01,7.822837233543395996e-01,7.822526097297668457e-01,7.822215557098388672e-01,7.821905612945556641e-01,7.821595072746276855e-01,7.821285128593444824e-01,7.820973992347717285e-01,7.820663452148437500e-01,7.820353507995605469e-01,7.820042967796325684e-01,7.819732427597045898e-01,7.819423079490661621e-01,7.819112539291381836e-01,7.818802595138549805e-01,7.818492054939270020e-01,7.818181514739990234e-01,7.817872166633605957e-01,7.817561626434326172e-01,7.817252278327941895e-01,7.816941738128662109e-01,7.816631197929382324e-01,7.816321849822998047e-01,7.816011905670166016e-01,7.815701961517333984e-01,7.815392017364501953e-01,7.815081477165222168e-01,7.814772129058837891e-01,7.814462184906005859e-01,7.814152836799621582e-01,7.813842892646789551e-01,7.813532948493957520e-01,7.813223600387573242e-01,7.812913656234741211e-01,7.812604308128356934e-01,7.812294363975524902e-01,7.811984419822692871e-01,7.811675071716308594e-01,7.811365127563476562e-01,7.811055183410644531e-01,7.810746431350708008e-01,7.810436487197875977e-01,7.810127139091491699e-01,7.809817790985107422e-01,7.809507846832275391e-01,7.809199094772338867e-01,7.808889150619506836e-01,7.808580398559570312e-01,7.808270454406738281e-01,7.807961106300354004e-01,7.807652354240417480e-01,7.807342410087585449e-01,7.807033658027648926e-01,7.806724309921264648e-01,7.806414961814880371e-01,7.806106209754943848e-01,7.805796861648559570e-01,7.805488109588623047e-01,7.805178761482238770e-01
7.480860352516174316e-01,7.480576038360595703e-01,7.480292916297912598e-01,7.480008602142333984e-01,7.479724287986755371e-01,7.479441165924072266e-01,7.479156851768493652e-01,7.478873729705810547e-01,7.478589415550231934e-01,7.478305697441101074e-01,7.478021979331970215e-01,7.477738261222839355e-01,7.477454543113708496e-01,7.477170825004577637e-01,7.476887106895446777e-01,7.476603984832763672e-01,7.476319670677185059e-01,7.476036548614501953e-01,7.475752830505371094e-01,7.475469112396240234e-01,7.475185990333557129e-01,7.474902272224426270e-01,7.474618554115295410e-01,7.474335432052612305e-01,7.474051713943481445e-01,7.473768591880798340e-01,7.473484873771667480e-01,7.473201155662536621e-01,7.472918629646301270e-01,7.472634911537170410e-01,7.472351789474487305e-01,7.472068667411804199e-01,7.471784949302673340e-01,7.471502423286437988e-01,7.471218705177307129e-01,7.470935583114624023e-01,7.470652461051940918e-01,7.470368742942810059e-01,7.470086216926574707e-01,7.469803094863891602e-01,7.469519972801208496e-01,7.469236850738525391e-01,7.468953728675842285e-01,7.468671202659606934e-01,7.468387484550476074e-01,7.468104958534240723e-01,7.467821836471557617e-01,7.467538714408874512e-01,7.467256188392639160e-01,7.466973066329956055e-01,7.466689944267272949e-01,7.466407418251037598e-01,7.466124296188354492e-01,7.465841770172119141e-01,7.465558648109436035e-01,7.465275526046752930e-01,7.464993596076965332e-01,7.464710474014282227e-01,7.464427947998046875e-01,7.464145421981811523e-01,7.463862299919128418e-01,7.463579773902893066e-01,7.463297247886657715e-01,7.463015317916870117e-01,7.462732195854187012e-01,7.462449669837951660e-01,7.462167143821716309e-01,7.461884617805480957e-01,7.461602091789245605e-01,7.461319565773010254e-01,7.461037039756774902e-01,7.460755109786987305e-01,7.460471987724304199e-01,7.460190057754516602e-01,7.459907531738281250e-01,7.459625005722045898e-01,7.459343075752258301e-01,7.459060549736022949e-01,7.458778023719787598e-01,7.458496093750000000e-01
