5.000000000000000000e+00,5.000000000000000000e+00,5.000000000000000000e+00,5.000000000000000000e+00,5.000000000000000000e+00,5.000000000000000000e+00,5.000000000000000000e+00,5.000000000000000000e+00,5.000000000000000000e+00,5.000000000000000000e+00,5.000000000000000000e+00,5.000000000000000000e+00,5.000000000000000000e+00,5.000000000000000000e+00,5.000000000000000000e+00,5.000000000000000000e+00,5.000000000000000000e+00,5.000000000000000000e+00,5.000000000000000000e+00,5.000000000000000000e+00,5.000000000000000000e+00,5.000000000000000000e+00,5.000000000000000000e+00,5.000000000000000000e+00,5.000000000000000000e+00,5.000000000000000000e+00,5.000000000000000000e+00,5.000000000000000000e+00,2.149920701980590820e+00,2.155577421188354492e+00,2.152068853378295898e+00,2.145955801010131836e+00,2.146533727645874023e+00,2.151660442352294922e+00,2.163844823837280273e+00,2.170959472656250000e+00,2.187964439392089844e+00,2.208670616149902344e+00,2.244720220565795898e+00,2.258096694946289062e+00,5.000000000000000000e+00,4.496404170989990234e+00,4.332583427429199219e+00,4.180280208587646484e+00,4.038321018218994141e+00,3.905686855316162109e+00,3.781488418579101562e+00,3.664945125579833984e+00,3.555371046066284180e+00,3.452158212661743164e+00,3.354769229888916016e+00,3.262724399566650391e+00,3.175595521926879883e+00,3.092998743057250977e+00,3.014590024948120117e+00,2.940058469772338867e+00,2.869123458862304688e+00,2.801530361175537109e+00,2.737048864364624023e+00,2.675469160079956055e+00,2.616599082946777344e+00,2.560263872146606445e+00,2.506303548812866211e+00,2.454570770263671875e+00,2.404930591583251953e+00,2.357258081436157227e+00,2.311439037322998047e+00,2.267367124557495117e+00,2.224944591522216797e+00,2.184080123901367188e+00,2.144689798355102539e+00,2.106695175170898438e+00,2.070023298263549805e+00,2.034606218338012695e+00,2.000380754470825195e+00,1.967287659645080566e+00,1.935271859169006348e+00,1.904281139373779297e+00,1.874267220497131348e+00,1.845185160636901855e+00
5.000000000000000000e+00,5.000000000000000000e+00,5.000000000000000000e+00,5.000000000000000000e+00,5.000000000000000000e+00,5.000000000000000000e+00,5.000000000000000000e+00,5.000000000000000000e+00,5.000000000000000000e+00,5.000000000000000000e+00,5.000000000000000000e+00,5.000000000000000000e+00,5.000000000000000000e+00,5.000000000000000000e+00,5.000000000000000000e+00,5.000000000000000000e+00,5.000000000000000000e+00,5.000000000000000000e+00,5.000000000000000000e+00,5.000000000000000000e+00,5.000000000000000000e+00,5.000000000000000000e+00,5.000000000000000000e+00,5.000000000000000000e+00,5.000000000000000000e+00,5.000000000000000000e+00,5.000000000000000000e+00,5.000000000000000000e+00,2.155579328536987305e+00,2.167227506637573242e+00,2.149946928024291992e+00,2.128103971481323242e+00,2.118587970733642578e+00,2.116872072219848633e+00,2.133219480514526367e+00,2.130905151367187500e+00,2.144516706466674805e+00,2.178409337997436523e+00,2.228433847427368164e+00,2.260330200195312500e+00,2.275049686431884766e+00,4.496523857116699219e+00,4.332694530487060547e+00,4.180383682250976562e+00,4.038417816162109375e+00,3.905777454376220703e+00,3.781573295593261719e+00,3.665024995803833008e+00,3.555445909500122070e+00,3.452228784561157227e+00,3.354835987091064453e+00,3.262787580490112305e+00,3.175655364990234375e+00,3.093055486679077148e+00,3.014643907546997070e+00,2.940109729766845703e+00,2.869172096252441406e+00,2.801576852798461914e+00,2.737093210220336914e+00,2.675511598587036133e+00,2.616639852523803711e+00,2.560302734375000000e+00,2.506340742111206055e+00,2.454606533050537109e+00,2.404964685440063477e+00,2.357290983200073242e+00,2.311470746994018555e+00,2.267397642135620117e+00,2.224973917007446289e+00,2.184108495712280273e+00,2.144717216491699219e+00,2.106721639633178711e+00,2.070048570632934570e+00,2.034630775451660156e+00,2.000404596328735352e+00,1.967310786247253418e+00,1.935293912887573242e+00,1.904302597045898438e+00,1.874288201332092285e+00,1.845205187797546387e+00
5.000000000000000000e+00,5.000000000000000000e+00,5.000000000000000000e+00,5.000000000000000000e+00,5.000000000000000000e+00,5.000000000000000000e+00,5.000000000000000000e+00,5.000000000000000000e+00,5.000000000000000000e+00,5.000000000000000000e+00,5.000000000000000000e+00,5.000000000000000000e+00,5.000000000000000000e+00,5.000000000000000000e+00,5.000000000000000000e+00,5.000000000000000000e+00,5.000000000000000000e+00,5.000000000000000000e+00,5.000000000000000000e+00,5.000000000000000000e+00,5.000000000000000000e+00,5.000000000000000000e+00,5.000000000000000000e+00,5.000000000000000000e+00,5.000000000000000000e+00,5.000000000000000000e+00,5.000000000000000000e+00,5.000000000000000000e+00,2.167999982833862305e+00,2.171053409576416016e+00,2.156287193298339844e+00,2.127288818359375000e+00,2.119879245758056641e+00,2.118678808212280273e+00,2.127209901809692383e+00,2.137613296508789062e+00,2.143362283706665039e+00,2.171257495880126953e+00,2.226420879364013672e+00,2.276986598968505859e+00,2.283170461654663086e+00,4.496644020080566406e+00,4.332806110382080078e+00,4.180487632751464844e+00,4.038514614105224609e+00,3.905868291854858398e+00,3.781657934188842773e+00,3.665104627609252930e+00,3.555520772933959961e+00,3.452299833297729492e+00,3.354902744293212891e+00,3.262850761413574219e+00,3.175715208053588867e+00,3.093112707138061523e+00,3.014697790145874023e+00,2.940160989761352539e+00,2.869220972061157227e+00,2.801623582839965820e+00,2.737137794494628906e+00,2.675554037094116211e+00,2.616680383682250977e+00,2.560341835021972656e+00,2.506378173828125000e+00,2.454642295837402344e+00,2.404999017715454102e+00,2.357324123382568359e+00,2.311502456665039062e+00,2.267428159713745117e+00,2.225003242492675781e+00,2.184136867523193359e+00,2.144744396209716797e+00,2.106747865676879883e+00,2.070074081420898438e+00,2.034655332565307617e+00,2.000428199768066406e+00,1.967333555221557617e+00,1.935316324234008789e+00,1.904324173927307129e+00,1.874309062957763672e+00,1.845225572586059570e+00
5.000000000000000000e+00,5.000000000000000000e+00,5.000000000000000000e+00,5.000000000000000000e+00,5.000000000000000000e+00,5.000000000000000000e+00,5.000000000000000000e+00,5.000000000000000000e+00,5.000000000000000000e+00,5.000000000000000000e+00,5.000000000000000000e+00,5.000000000000000000e+00,5.000000000000000000e+00,5.000000000000000000e+00,5.000000000000000000e+00,5.000000000000000000e+00,5.000000000000000000e+00,5.000000000000000000e+00,5.000000000000000000e+00,5.000000000000000000e+00,5.000000000000000000e+00,5.000000000000000000e+00,5.000000000000000000e+00,5.000000000000000000e+00,5.000000000000000000e+00,5.000000000000000000e+00,5.000000000000000000e+00,5.000000000000000000e+00,2.184962511062622070e+00,2.174154043197631836e+00,2.169981718063354492e+00,2.134309053421020508e+00,2.128165006637573242e+00,2.116454362869262695e+00,2.122962951660156250e+00,2.130236148834228516e+00,2.147892713546752930e+00,2.175201654434204102e+00,2.231141567230224609e+00,2.280151605606079102e+00,2.299531221389770508e+00,4.496764183044433594e+00,4.332917213439941406e+00,4.180591106414794922e+00,4.038611412048339844e+00,3.905958890914916992e+00,3.781742811203002930e+00,3.665184259414672852e+00,3.555595874786376953e+00,3.452370643615722656e+00,3.354969501495361328e+00,3.262913942337036133e+00,3.175775051116943359e+00,3.093169450759887695e+00,3.014751911163330078e+00,2.940212249755859375e+00,2.869269847869873047e+00,2.801670074462890625e+00,2.737182140350341797e+00,2.675596475601196289e+00,2.616720914840698242e+00,2.560380697250366211e+00,2.506415367126464844e+00,2.454678058624267578e+00,2.405033349990844727e+00,2.357357263565063477e+00,2.311534166336059570e+00,2.267458677291870117e+00,2.225032806396484375e+00,2.184165239334106445e+00,2.144771814346313477e+00,2.106774330139160156e+00,2.070099353790283203e+00,2.034679889678955078e+00,2.000452041625976562e+00,1.967356681823730469e+00,1.935338377952575684e+00,1.904345870018005371e+00,1.874329924583435059e+00,1.845245718955993652e+00
5.000000000000000000e+00,5.000000000000000000e+00,5.000000000000000000e+00,5.000000000000000000e+00,5.000000000000000000e+00,5.000000000000000000e+00,5.000000000000000000e+00,5.000000000000000000e+00,5.000000000000000000e+00,5.000000000000000000e+00,5.000000000000000000e+00,5.000000000000000000e+00,5.000000000000000000e+00,5.000000000000000000e+00,5.000000000000000000e+00,5.000000000000000000e+00,5.000000000000000000e+00,5.000000000000000000e+00,5.000000000000000000e+00,5.000000000000000000e+00,5.000000000000000000e+00,5.000000000000000000e+00,5.000000000000000000e+00,5.000000000000000000e+00,5.000000000000000000e+00,5.000000000000000000e+00,5.000000000000000000e+00,5.000000000000000000e+00,2.190909624099731445e+00,2.174760580062866211e+00,2.181953191757202148e+00,2.147535085678100586e+00,2.130072355270385742e+00,2.119276523590087891e+00,2.116948843002319336e+00,2.124480247497558594e+00,2.146014928817749023e+00,2.183785200119018555e+00,2.285187721252441406e+00,2.288772344589233398e+00,2.325012922286987305e+00,4.496883869171142578e+00,4.333028793334960938e+00,4.180695056915283203e+00,4.038707733154296875e+00,3.906049251556396484e+00,3.781827688217163086e+00,3.665263891220092773e+00,3.555670976638793945e+00,3.452441215515136719e+00,3.355036258697509766e+00,3.262976884841918945e+00,3.175834894180297852e+00,3.093226194381713867e+00,3.014805793762207031e+00,2.940263748168945312e+00,2.869318723678588867e+00,2.801716804504394531e+00,2.737226486206054688e+00,2.675638914108276367e+00,2.616761684417724609e+00,2.560419559478759766e+00,2.506452560424804688e+00,2.454713821411132812e+00,2.405067682266235352e+00,2.357390165328979492e+00,2.311565876007080078e+00,2.267489194869995117e+00,2.225062131881713867e+00,2.184193611145019531e+00,2.144798994064331055e+00,2.106800556182861328e+00,2.070124864578247070e+00,2.034704446792602539e+00,2.000475645065307617e+00,1.967379570007324219e+00,1.935360670089721680e+00,1.904367208480834961e+00,1.874350666999816895e+00,1.845265984535217285e+00
5.000000000000000000e+00,5.000000000000000000e+00,5.000000000000000000e+00,5.000000000000000000e+00,5.000000000000000000e+00,5.000000000000000000e+00,5.000000000000000000e+00,5.000000000000000000e+00,5.000000000000000000e+00,5.000000000000000000e+00,5.000000000000000000e+00,5.000000000000000000e+00,5.000000000000000000e+00,5.000000000000000000e+00,5.000000000000000000e+00,5.000000000000000000e+00,5.000000000000000000e+00,5.000000000000000000e+00,5.000000000000000000e+00,5.000000000000000000e+00,5.000000000000000000e+00,5.000000000000000000e+00,5.000000000000000000e+00,5.000000000000000000e+00,5.000000000000000000e+00,5.000000000000000000e+00,5.000000000000000000e+00,5.000000000000000000e+00,2.192039966583251953e+00,2.172919988632202148e+00,2.173636198043823242e+00,2.149676322937011719e+00,2.126663923263549805e+00,2.117449522018432617e+00,2.118083238601684570e+00,2.125239610671997070e+00,2.140399694442749023e+00,2.173295497894287109e+00,2.292365312576293945e+00,2.293015718460083008e+00,2.337012529373168945e+00,4.497004032135009766e+00,4.333140373229980469e+00,4.180798530578613281e+00,4.038805007934570312e+00,3.906139850616455078e+00,3.781912803649902344e+00,3.665343523025512695e+00,3.555745840072631836e+00,3.452512025833129883e+00,3.355103254318237305e+00,3.263040065765380859e+00,3.175894737243652344e+00,3.093282938003540039e+00,3.014859914779663086e+00,2.940315008163452148e+00,2.869367599487304688e+00,2.801763296127319336e+00,2.737271308898925781e+00,2.675681352615356445e+00,2.616802215576171875e+00,2.560458421707153320e+00,2.506489992141723633e+00,2.454749584197998047e+00,2.405102014541625977e+00,2.357423067092895508e+00,2.311597585678100586e+00,2.267519712448120117e+00,2.225091457366943359e+00,2.184221744537353516e+00,2.144826412200927734e+00,2.106826782226562500e+00,2.070150375366210938e+00,2.034729003906250000e+00,2.000499486923217773e+00,1.967402577400207520e+00,1.935382843017578125e+00,1.904388785362243652e+00,1.874371647834777832e+00,1.845286130905151367e+00
5.000000000000000000e+00,5.000000000000000000e+00,5.000000000000000000e+00,5.000000000000000000e+00,5.000000000000000000e+00,5.000000000000000000e+00,5.000000000000000000e+00,5.000000000000000000e+00,5.000000000000000000e+00,5.000000000000000000e+00,5.000000000000000000e+00,5.000000000000000000e+00,5.000000000000000000e+00,5.000000000000000000e+00,5.000000000000000000e+00,5.000000000000000000e+00,5.000000000000000000e+00,5.000000000000000000e+00,5.000000000000000000e+00,5.000000000000000000e+00,5.000000000000000000e+00,5.000000000000000000e+00,5.000000000000000000e+00,5.000000000000000000e+00,5.000000000000000000e+00,5.000000000000000000e+00,5.000000000000000000e+00,5.000000000000000000e+00,2.193318843841552734e+00,2.170569896697998047e+00,2.174853563308715820e+00,2.165136337280273438e+00,2.131350994110107422e+00,2.120943307876586914e+00,2.120286941528320312e+00,2.127538442611694336e+00,2.143169403076171875e+00,2.172669887542724609e+00,2.294554233551025391e+00,2.295084714889526367e+00,2.348446846008300781e+00,4.497123718261718750e+00,4.333251953125000000e+00,4.180902004241943359e+00,4.038901805877685547e+00,3.906230211257934570e+00,3.781997680664062500e+00,3.665423154830932617e+00,3.555820941925048828e+00,3.452582597732543945e+00,3.355170011520385742e+00,3.263103246688842773e+00,3.175954580307006836e+00,3.093339681625366211e+00,3.014913797378540039e+00,2.940366268157958984e+00,2.869416236877441406e+00,2.801809787750244141e+00,2.737315654754638672e+00,2.675723791122436523e+00,2.616842746734619141e+00,2.560497283935546875e+00,2.506527423858642578e+00,2.454785108566284180e+00,2.405136346817016602e+00,2.357455968856811523e+00,2.311629295349121094e+00,2.267550230026245117e+00,2.225120782852172852e+00,2.184250116348266602e+00,2.144853591918945312e+00,2.106853246688842773e+00,2.070175647735595703e+00,2.034753561019897461e+00,2.000523328781127930e+00,1.967425465583801270e+00,1.935405135154724121e+00,1.904410243034362793e+00,1.874392628669738770e+00,1.845306396484375000e+00
5.000000000000000000e+00,5.000000000000000000e+00,5.000000000000000000e+00,5.000000000000000000e+00,5.000000000000000000e+00,5.000000000000000000e+00,5.000000000000000000e+00,5.000000000000000000e+00,5.000000000000000000e+00,5.000000000000000000e+00,5.000000000000000000e+00,5.000000000000000000e+00,5.000000000000000000e+00,5.000000000000000000e+00,5.000000000000000000e+00,5.000000000000000000e+00,5.000000000000000000e+00,5.000000000000000000e+00,5.000000000000000000e+00,5.000000000000000000e+00,5.000000000000000000e+00,5.000000000000000000e+00,5.000000000000000000e+00,5.000000000000000000e+00,5.000000000000000000e+00,5.000000000000000000e+00,5.000000000000000000e+00,5.000000000000000000e+00,2.198426961898803711e+00,2.173297882080078125e+00,2.181785106658935547e+00,2.155227422714233398e+00,2.119625806808471680e+00,2.111753225326538086e+00,2.120358228683471680e+00,2.122483730316162109e+00,2.131089210510253906e+00,2.160630702972412109e+00,2.308320760726928711e+00,2.304861068725585938e+00,4.674007415771484375e+00,4.497243881225585938e+00,4.333363056182861328e+00,4.181005954742431641e+00,4.038998603820800781e+00,3.906320810317993164e+00,3.782082557678222656e+00,3.665503025054931641e+00,3.555895805358886719e+00,3.452653408050537109e+00,3.355236768722534180e+00,3.263166427612304688e+00,3.176014184951782227e+00,3.093396425247192383e+00,3.014967679977416992e+00,2.940417528152465820e+00,2.869465112686157227e+00,2.801856279373168945e+00,2.737360000610351562e+00,2.675766229629516602e+00,2.616883516311645508e+00,2.560536146163940430e+00,2.506564617156982422e+00,2.454820871353149414e+00,2.405170679092407227e+00,2.357489109039306641e+00,2.311661005020141602e+00,2.267580747604370117e+00,2.225150108337402344e+00,2.184278488159179688e+00,2.144881010055541992e+00,2.106879472732543945e+00,2.070201158523559570e+00,2.034778118133544922e+00,2.000546932220458984e+00,1.967448472976684570e+00,1.935427188873291016e+00,1.904431819915771484e+00,1.874413371086120605e+00,1.845326423645019531e+00
5.000000000000000000e+00,5.000000000000000000e+00,5.000000000000000000e+00,5.000000000000000000e+00,5.000000000000000000e+00,5.000000000000000000e+00,5.000000000000000000e+00,5.000000000000000000e+00,5.000000000000000000e+00,5.000000000000000000e+00,5.000000000000000000e+00,5.000000000000000000e+00,5.000000000000000000e+00,5.000000000000000000e+00,5.000000000000000000e+00,5.000000000000000000e+00,5.000000000000000000e+00,5.000000000000000000e+00,5.000000000000000000e+00,5.000000000000000000e+00,5.000000000000000000e+00,5.000000000000000000e+00,5.000000000000000000e+00,5.000000000000000000e+00,5.000000000000000000e+00,5.000000000000000000e+00,5.000000000000000000e+00,5.000000000000000000e+00,5.000000000000000000e+00,2.179432630538940430e+00,2.188482999801635742e+00,2.144267320632934570e+00,2.110958337783813477e+00,2.107840538024902344e+00,2.110939025878906250e+00,2.115771532058715820e+00,2.126032352447509766e+00,2.153711318969726562e+00,2.321922779083251953e+00,2.321624994277954102e+00,4.674137115478515625e+00,4.497364044189453125e+00,4.333474636077880859e+00,4.181109905242919922e+00,4.039094924926757812e+00,3.906411170959472656e+00,3.782167434692382812e+00,3.665583133697509766e+00,3.555970907211303711e+00,3.452723979949951172e+00,3.355303525924682617e+00,3.263229846954345703e+00,3.176074028015136719e+00,3.093453168869018555e+00,3.015021562576293945e+00,2.940469026565551758e+00,2.869513988494873047e+00,2.801903009414672852e+00,2.737404584884643555e+00,2.675808906555175781e+00,2.616924047470092773e+00,2.560575246810913086e+00,2.506601810455322266e+00,2.454856872558593750e+00,2.405205011367797852e+00,2.357522010803222656e+00,2.311692714691162109e+00,2.267611265182495117e+00,2.225179433822631836e+00,2.184306621551513672e+00,2.144908189773559570e+00,2.106905937194824219e+00,2.070226669311523438e+00,2.034802675247192383e+00,2.000570774078369141e+00,1.967471599578857422e+00,1.935449600219726562e+00,1.904453277587890625e+00,1.874434232711791992e+00,1.845346808433532715e+00
5.000000000000000000e+00,5.000000000000000000e+00,5.000000000000000000e+00,5.000000000000000000e+00,5.000000000000000000e+00,5.000000000000000000e+00,5.000000000000000000e+00,5.000000000000000000e+00,5.000000000000000000e+00,5.000000000000000000e+00,5.000000000000000000e+00,5.000000000000000000e+00,5.000000000000000000e+00,5.000000000000000000e+00,5.000000000000000000e+00,5.000000000000000000e+00,5.000000000000000000e+00,5.000000000000000000e+00,5.000000000000000000e+00,5.000000000000000000e+00,5.000000000000000000e+00,5.000000000000000000e+00,5.000000000000000000e+00,5.000000000000000000e+00,5.000000000000000000e+00,5.000000000000000000e+00,5.000000000000000000e+00,5.000000000000000000e+00,5.000000000000000000e+00,2.156634807586669922e+00,2.176374435424804688e+00,2.151163339614868164e+00,2.127229213714599609e+00,2.117917299270629883e+00,2.114754915237426758e+00,2.124071121215820312e+00,2.138255834579467773e+00,2.171481609344482422e+00,2.243046045303344727e+00,2.337956666946411133e+00,4.674266338348388672e+00,4.497484207153320312e+00,4.333585739135742188e+00,4.181213378906250000e+00,4.039191722869873047e+00,3.906501770019531250e+00,3.782252311706542969e+00,3.665662765502929688e+00,3.556045770645141602e+00,3.452794790267944336e+00,3.355370283126831055e+00,3.263293027877807617e+00,3.176133871078491211e+00,3.093509912490844727e+00,3.015075445175170898e+00,2.940520286560058594e+00,2.869562864303588867e+00,2.801949501037597656e+00,2.737448930740356445e+00,2.675851345062255859e+00,2.616964578628540039e+00,2.560614109039306641e+00,2.506639003753662109e+00,2.454892635345458984e+00,2.405239343643188477e+00,2.357554912567138672e+00,2.311724424362182617e+00,2.267641782760620117e+00,2.225208759307861328e+00,2.184334993362426758e+00,2.144935607910156250e+00,2.106932401657104492e+00,2.070251941680908203e+00,2.034827232360839844e+00,2.000594377517700195e+00,1.967494368553161621e+00,1.935471653938293457e+00,1.904474854469299316e+00,1.874454975128173828e+00,1.845367074012756348e+00
5.000000000000000000e+00,5.000000000000000000e+00,5.000000000000000000e+00,5.000000000000000000e+00,5.000000000000000000e+00,5.000000000000000000e+00,5.000000000000000000e+00,5.000000000000000000e+00,5.000000000000000000e+00,5.000000000000000000e+00,5.000000000000000000e+00,5.000000000000000000e+00,5.000000000000000000e+00,5.000000000000000000e+00,5.000000000000000000e+00,5.000000000000000000e+00,5.000000000000000000e+00,5.000000000000000000e+00,5.000000000000000000e+00,5.000000000000000000e+00,5.000000000000000000e+00,5.000000000000000000e+00,5.000000000000000000e+00,5.000000000000000000e+00,5.000000000000000000e+00,5.000000000000000000e+00,5.000000000000000000e+00,5.000000000000000000e+00,2.153798818588256836e+00,2.127199888229370117e+00,2.149387121200561523e+00,2.145452260971069336e+00,2.126754760742187500e+00,2.121859073638916016e+00,2.117367506027221680e+00,2.128222942352294922e+00,2.143590688705444336e+00,2.171436786651611328e+00,2.257298707962036133e+00,2.330738067626953125e+00,4.674396038055419922e+00,4.497603893280029297e+00,4.333697319030761719e+00,4.181317329406738281e+00,4.039288520812988281e+00,3.906592369079589844e+00,3.782336950302124023e+00,3.665742397308349609e+00,3.556120872497558594e+00,3.452865362167358398e+00,3.355437040328979492e+00,3.263356208801269531e+00,3.176193714141845703e+00,3.093566656112670898e+00,3.015129327774047852e+00,2.940571546554565430e+00,2.869611740112304688e+00,2.801995992660522461e+00,2.737493515014648438e+00,2.675893783569335938e+00,2.617005348205566406e+00,2.560652971267700195e+00,2.506676435470581055e+00,2.454928398132324219e+00,2.405273437500000000e+00,2.357587814331054688e+00,2.311756134033203125e+00,2.267672300338745117e+00,2.225238323211669922e+00,2.184363365173339844e+00,2.144962787628173828e+00,2.106958627700805664e+00,2.070277452468872070e+00,2.034851789474487305e+00,2.000618219375610352e+00,1.967517495155334473e+00,1.935493946075439453e+00,1.904496312141418457e+00,1.874475955963134766e+00,1.845387220382690430e+00
5.000000000000000000e+00,5.000000000000000000e+00,5.000000000000000000e+00,5.000000000000000000e+00,5.000000000000000000e+00,5.000000000000000000e+00,5.000000000000000000e+00,5.000000000000000000e+00,5.000000000000000000e+00,5.000000000000000000e+00,5.000000000000000000e+00,5.000000000000000000e+00,5.000000000000000000e+00,5.000000000000000000e+00,5.000000000000000000e+00,5.000000000000000000e+00,5.000000000000000000e+00,5.000000000000000000e+00,5.000000000000000000e+00,5.000000000000000000e+00,5.000000000000000000e+00,5.000000000000000000e+00,5.000000000000000000e+00,5.000000000000000000e+00,5.000000000000000000e+00,5.000000000000000000e+00,5.000000000000000000e+00,5.000000000000000000e+00,2.124886512756347656e+00,2.095486402511596680e+00,2.134042263031005859e+00,2.144420385360717773e+00,2.130546808242797852e+00,2.134266138076782227e+00,2.128048896789550781e+00,2.146895885467529297e+00,2.148168802261352539e+00,2.158482074737548828e+00,2.226070165634155273e+00,2.324519872665405273e+00,4.674526214599609375e+00,4.497724056243896484e+00,4.333808898925781250e+00,4.181420803070068359e+00,4.039385795593261719e+00,3.906682729721069336e+00,3.782421827316284180e+00,3.665822029113769531e+00,3.556196212768554688e+00,3.452936172485351562e+00,3.355504035949707031e+00,3.263419389724731445e+00,3.176254034042358398e+00,3.093623399734497070e+00,3.015183448791503906e+00,2.940622806549072266e+00,2.869660615921020508e+00,2.802042722702026367e+00,2.737537860870361328e+00,2.675936222076416016e+00,2.617046117782592773e+00,2.560691833496093750e+00,2.506713628768920898e+00,2.454964160919189453e+00,2.405308008193969727e+00,2.357620954513549805e+00,2.311787843704223633e+00,2.267702817916870117e+00,2.225267648696899414e+00,2.184391498565673828e+00,2.144990205764770508e+00,2.106985092163085938e+00,2.070302963256835938e+00,2.034876346588134766e+00,2.000642061233520508e+00,1.967540383338928223e+00,1.935516357421875000e+00,1.904517889022827148e+00,1.874496698379516602e+00,1.845407485961914062e+00
5.000000000000000000e+00,5.000000000000000000e+00,5.000000000000000000e+00,5.000000000000000000e+00,5.000000000000000000e+00,5.000000000000000000e+00,5.000000000000000000e+00,5.000000000000000000e+00,5.000000000000000000e+00,5.000000000000000000e+00,5.000000000000000000e+00,5.000000000000000000e+00,5.000000000000000000e+00,5.000000000000000000e+00,5.000000000000000000e+00,5.000000000000000000e+00,5.000000000000000000e+00,5.000000000000000000e+00,5.000000000000000000e+00,5.000000000000000000e+00,5.000000000000000000e+00,5.000000000000000000e+00,5.000000000000000000e+00,5.000000000000000000e+00,5.000000000000000000e+00,5.000000000000000000e+00,5.000000000000000000e+00,5.000000000000000000e+00,2.087898492813110352e+00,2.069550037384033203e+00,2.149663925170898438e+00,2.143002986907958984e+00,2.128568172454833984e+00,2.152955770492553711e+00,2.156575202941894531e+00,2.138197183609008789e+00,2.104348659515380859e+00,2.106702804565429688e+00,2.140538692474365234e+00,2.318824529647827148e+00,4.674655437469482422e+00,4.497843742370605469e+00,4.333920478820800781e+00,4.181524753570556641e+00,4.039482593536376953e+00,3.906773328781127930e+00,3.782506704330444336e+00,3.665901899337768555e+00,3.556271076202392578e+00,3.453006982803344727e+00,3.355570793151855469e+00,3.263482570648193359e+00,3.176313638687133789e+00,3.093680143356323242e+00,3.015237331390380859e+00,2.940674066543579102e+00,2.869709491729736328e+00,2.802089214324951172e+00,2.737582206726074219e+00,2.675978899002075195e+00,2.617086648941040039e+00,2.560730695724487305e+00,2.506750822067260742e+00,2.454999923706054688e+00,2.405342340469360352e+00,2.357653856277465820e+00,2.311819553375244141e+00,2.267733335494995117e+00,2.225297212600708008e+00,2.184419870376586914e+00,2.145017385482788086e+00,2.107011318206787109e+00,2.070328474044799805e+00,2.034900903701782227e+00,2.000665664672851562e+00,1.967563390731811523e+00,1.935538411140441895e+00,1.904539346694946289e+00,1.874517679214477539e+00,1.845427513122558594e+00
5.000000000000000000e+00,5.000000000000000000e+00,5.000000000000000000e+00,5.000000000000000000e+00,5.000000000000000000e+00,5.000000000000000000e+00,5.000000000000000000e+00,5.000000000000000000e+00,5.000000000000000000e+00,5.000000000000000000e+00,5.000000000000000000e+00,5.000000000000000000e+00,5.000000000000000000e+00,5.000000000000000000e+00,5.000000000000000000e+00,5.000000000000000000e+00,5.000000000000000000e+00,5.000000000000000000e+00,5.000000000000000000e+00,5.000000000000000000e+00,5.000000000000000000e+00,5.000000000000000000e+00,5.000000000000000000e+00,5.000000000000000000e+00,5.000000000000000000e+00,5.000000000000000000e+00,5.000000000000000000e+00,5.000000000000000000e+00,2.070600748062133789e+00,2.077814817428588867e+00,2.180837154388427734e+00,2.137476205825805664e+00,2.125697612762451172e+00,2.148959159851074219e+00,2.200453996658325195e+00,2.097756147384643555e+00,2.081130981445312500e+00,2.085713386535644531e+00,2.119373321533203125e+00,2.315533638000488281e+00,2.351546049118041992e+00,4.497963905334472656e+00,4.334031581878662109e+00,4.181628227233886719e+00,4.039579391479492188e+00,3.906863927841186523e+00,3.782591581344604492e+00,3.665981531143188477e+00,3.556346178054809570e+00,3.453077554702758789e+00,3.355637550354003906e+00,3.263545751571655273e+00,3.176373481750488281e+00,3.093736886978149414e+00,3.015291213989257812e+00,2.940725326538085938e+00,2.869758367538452148e+00,2.802135705947875977e+00,2.737626791000366211e+00,2.676021337509155273e+00,2.617127418518066406e+00,2.560769557952880859e+00,2.506788253784179688e+00,2.455035686492919922e+00,2.405376672744750977e+00,2.357686758041381836e+00,2.311851263046264648e+00,2.267763853073120117e+00,2.225326538085937500e+00,2.184448242187500000e+00,2.145044803619384766e+00,2.107037544250488281e+00,2.070353746414184570e+00,2.034925460815429688e+00,2.000689506530761719e+00,1.967586278915405273e+00,1.935560703277587891e+00,1.904560923576354980e+00,1.874538302421569824e+00,1.845447897911071777e+00
5.000000000000000000e+00,5.000000000000000000e+00,5.000000000000000000e+00,5.000000000000000000e+00,5.000000000000000000e+00,5.000000000000000000e+00,5.000000000000000000e+00,5.000000000000000000e+00,5.000000000000000000e+00,5.000000000000000000e+00,5.000000000000000000e+00,5.000000000000000000e+00,5.000000000000000000e+00,5.000000000000000000e+00,5.000000000000000000e+00,5.000000000000000000e+00,5.000000000000000000e+00,5.000000000000000000e+00,5.000000000000000000e+00,5.000000000000000000e+00,5.000000000000000000e+00,5.000000000000000000e+00,5.000000000000000000e+00,5.000000000000000000e+00,5.000000000000000000e+00,5.000000000000000000e+00,5.000000000000000000e+00,5.000000000000000000e+00,2.011424779891967773e+00,2.012141704559326172e+00,2.170910835266113281e+00,2.134885311126708984e+00,2.121457338333129883e+00,2.144137859344482422e+00,2.196573019027709961e+00,2.083305358886718750e+00,2.068859815597534180e+00,2.070307016372680664e+00,2.102512121200561523e+00,2.318800210952758789e+00,2.337584018707275391e+00,4.498084068298339844e+00,4.334143161773681641e+00,4.181732177734375000e+00,4.039676189422607422e+00,3.906954765319824219e+00,3.782676458358764648e+00,3.666061162948608398e+00,3.556421279907226562e+00,3.453148603439331055e+00,3.355704307556152344e+00,3.263608932495117188e+00,3.176433324813842773e+00,3.093793869018554688e+00,3.015345096588134766e+00,2.940776586532592773e+00,2.869807243347167969e+00,2.802182435989379883e+00,2.737671136856079102e+00,2.676063776016235352e+00,2.617167949676513672e+00,2.560808658599853516e+00,2.506825447082519531e+00,2.455071449279785156e+00,2.405411005020141602e+00,2.357719898223876953e+00,2.311882972717285156e+00,2.267794370651245117e+00,2.225355863571166992e+00,2.184476613998413086e+00,2.145071983337402344e+00,2.107064008712768555e+00,2.070379257202148438e+00,2.034950256347656250e+00,2.000713109970092773e+00,1.967609286308288574e+00,1.935582876205444336e+00,1.904582500457763672e+00,1.874559283256530762e+00,1.845467925071716309e+00
5.000000000000000000e+00,5.000000000000000000e+00,5.000000000000000000e+00,5.000000000000000000e+00,5.000000000000000000e+00,5.000000000000000000e+00,5.000000000000000000e+00,5.000000000000000000e+00,5.000000000000000000e+00,5.000000000000000000e+00,5.000000000000000000e+00,5.000000000000000000e+00,5.000000000000000000e+00,5.000000000000000000e+00,5.000000000000000000e+00,5.000000000000000000e+00,5.000000000000000000e+00,5.000000000000000000e+00,5.000000000000000000e+00,5.000000000000000000e+00,5.000000000000000000e+00,5.000000000000000000e+00,5.000000000000000000e+00,5.000000000000000000e+00,5.000000000000000000e+00,5.000000000000000000e+00,5.000000000000000000e+00,5.000000000000000000e+00,1.976199984550476074e+00,1.985247373580932617e+00,2.153048038482666016e+00,2.138602495193481445e+00,2.124699115753173828e+00,2.144644737243652344e+00,2.198354721069335938e+00,2.068562984466552734e+00,2.057424306869506836e+00,2.055168390274047852e+00,2.088770389556884766e+00,2.314418554306030273e+00,4.675044536590576172e+00,4.498204231262207031e+00,4.334254264831542969e+00,4.181836128234863281e+00,4.039772987365722656e+00,3.907045364379882812e+00,3.782761335372924805e+00,3.666141033172607422e+00,3.556496143341064453e+00,3.453219413757324219e+00,3.355771064758300781e+00,3.263672113418579102e+00,3.176493167877197266e+00,3.093850612640380859e+00,3.015398979187011719e+00,2.940828084945678711e+00,2.869856119155883789e+00,2.802229166030883789e+00,2.737715721130371094e+00,2.676106214523315430e+00,2.617208480834960938e+00,2.560847520828247070e+00,2.506862640380859375e+00,2.455106973648071289e+00,2.405445337295532227e+00,2.357752799987792969e+00,2.311914682388305664e+00,2.267824888229370117e+00,2.225385189056396484e+00,2.184504985809326172e+00,2.145099163055419922e+00,2.107090234756469727e+00,2.070404529571533203e+00,2.034974813461303711e+00,2.000736951828002930e+00,1.967632174491882324e+00,1.935605168342590332e+00,1.904603958129882812e+00,1.874580025672912598e+00,1.845488309860229492e+00
5.000000000000000000e+00,5.000000000000000000e+00,5.000000000000000000e+00,5.000000000000000000e+00,5.000000000000000000e+00,5.000000000000000000e+00,5.000000000000000000e+00,5.000000000000000000e+00,5.000000000000000000e+00,5.000000000000000000e+00,5.000000000000000000e+00,5.000000000000000000e+00,5.000000000000000000e+00,5.000000000000000000e+00,5.000000000000000000e+00,5.000000000000000000e+00,5.000000000000000000e+00,5.000000000000000000e+00,5.000000000000000000e+00,5.000000000000000000e+00,5.000000000000000000e+00,5.000000000000000000e+00,5.000000000000000000e+00,5.000000000000000000e+00,5.000000000000000000e+00,5.000000000000000000e+00,5.000000000000000000e+00,5.000000000000000000e+00,1.949795961380004883e+00,5.000000000000000000e+00,2.181245803833007812e+00,2.144985914230346680e+00,2.130343198776245117e+00,2.150968074798583984e+00,2.215853452682495117e+00,2.056437253952026367e+00,2.043140411376953125e+00,2.040897369384765625e+00,2.075890302658081055e+00,2.291272640228271484e+00,2.325515270233154297e+00,4.498324394226074219e+00,4.334366321563720703e+00,4.181939601898193359e+00,4.039869785308837891e+00,3.907135963439941406e+00,3.782846689224243164e+00,3.666220664978027344e+00,3.556571245193481445e+00,3.453289985656738281e+00,3.355838060379028320e+00,3.263735294342041016e+00,3.176553010940551758e+00,3.093907356262207031e+00,3.015453338623046875e+00,2.940879344940185547e+00,2.869904994964599609e+00,2.802275657653808594e+00,2.737760305404663086e+00,2.676148653030395508e+00,2.617249250411987305e+00,2.560886383056640625e+00,2.506900072097778320e+00,2.455142736434936523e+00,2.405479669570922852e+00,2.357785940170288086e+00,2.311946392059326172e+00,2.267855405807495117e+00,2.225414514541625977e+00,2.184533357620239258e+00,2.145126581192016602e+00,2.107116460800170898e+00,2.070430040359497070e+00,2.034999370574951172e+00,2.000760793685913086e+00,1.967655301094055176e+00,1.935627341270446777e+00,1.904625535011291504e+00,1.874601006507873535e+00,1.845508337020874023e+00
5.000000000000000000e+00,5.000000000000000000e+00,5.000000000000000000e+00,5.000000000000000000e+00,5.000000000000000000e+00,5.000000000000000000e+00,5.000000000000000000e+00,5.000000000000000000e+00,5.000000000000000000e+00,5.000000000000000000e+00,5.000000000000000000e+00,5.000000000000000000e+00,5.000000000000000000e+00,5.000000000000000000e+00,5.000000000000000000e+00,5.000000000000000000e+00,5.000000000000000000e+00,5.000000000000000000e+00,5.000000000000000000e+00,5.000000000000000000e+00,5.000000000000000000e+00,5.000000000000000000e+00,5.000000000000000000e+00,5.000000000000000000e+00,5.000000000000000000e+00,5.000000000000000000e+00,5.000000000000000000e+00,5.000000000000000000e+00,5.000000000000000000e+00,5.000000000000000000e+00,5.000000000000000000e+00,2.151915550231933594e+00,2.136984109878540039e+00,2.159034252166748047e+00,2.229166030883789062e+00,2.046419858932495117e+00,2.030289649963378906e+00,2.021646022796630859e+00,2.057879209518432617e+00,2.283418416976928711e+00,2.304144144058227539e+00,4.498444080352783203e+00,4.334477424621582031e+00,4.182043552398681641e+00,4.039966583251953125e+00,3.907226324081420898e+00,3.782931566238403320e+00,3.666300296783447266e+00,3.556646347045898438e+00,3.453360795974731445e+00,3.355905055999755859e+00,3.263798236846923828e+00,3.176612854003906250e+00,3.093964338302612305e+00,3.015507221221923828e+00,2.940930604934692383e+00,2.869953870773315430e+00,2.802322149276733398e+00,2.737804889678955078e+00,2.676191091537475586e+00,2.617289781570434570e+00,2.560925245285034180e+00,2.506937503814697266e+00,2.455178499221801758e+00,2.405514001846313477e+00,2.357818841934204102e+00,2.311978101730346680e+00,2.267885923385620117e+00,2.225444078445434570e+00,2.184561491012573242e+00,2.145153999328613281e+00,2.107142925262451172e+00,2.070455551147460938e+00,2.035023927688598633e+00,2.000784397125244141e+00,1.967678070068359375e+00,1.935649633407592773e+00,1.904646992683410645e+00,1.874621868133544922e+00,1.845528602600097656e+00
5.000000000000000000e+00,5.000000000000000000e+00,5.000000000000000000e+00,5.000000000000000000e+00,5.000000000000000000e+00,5.000000000000000000e+00,5.000000000000000000e+00,5.000000000000000000e+00,5.000000000000000000e+00,5.000000000000000000e+00,5.000000000000000000e+00,5.000000000000000000e+00,5.000000000000000000e+00,5.000000000000000000e+00,5.000000000000000000e+00,5.000000000000000000e+00,5.000000000000000000e+00,5.000000000000000000e+00,5.000000000000000000e+00,5.000000000000000000e+00,5.000000000000000000e+00,5.000000000000000000e+00,5.000000000000000000e+00,5.000000000000000000e+00,5.000000000000000000e+00,5.000000000000000000e+00,5.000000000000000000e+00,5.000000000000000000e+00,5.000000000000000000e+00,5.000000000000000000e+00,5.000000000000000000e+00,2.160149812698364258e+00,2.143666267395019531e+00,2.165230274200439453e+00,2.242558956146240234e+00,2.038251876831054688e+00,2.015876054763793945e+00,2.007734298706054688e+00,2.045295715332031250e+00,4.866779804229736328e+00,2.288564682006835938e+00,4.498564243316650391e+00,4.334589004516601562e+00,4.182147026062011719e+00,4.040063381195068359e+00,3.907316923141479492e+00,3.783016443252563477e+00,3.666380167007446289e+00,3.556721210479736328e+00,3.453431606292724609e+00,3.355971813201904297e+00,3.263861417770385742e+00,3.176672697067260742e+00,3.094021081924438477e+00,3.015561103820800781e+00,2.940981864929199219e+00,2.870002746582031250e+00,2.802368879318237305e+00,2.737849235534667969e+00,2.676233530044555664e+00,2.617330551147460938e+00,2.560964107513427734e+00,2.506974697113037109e+00,2.455214262008666992e+00,2.405548334121704102e+00,2.357851743698120117e+00,2.312009811401367188e+00,2.267916440963745117e+00,2.225473403930664062e+00,2.184589862823486328e+00,2.145181179046630859e+00,2.107169151306152344e+00,2.070480823516845703e+00,2.035048484802246094e+00,2.000808238983154297e+00,1.967701196670532227e+00,1.935671687126159668e+00,1.904668569564819336e+00,1.874642610549926758e+00,1.845548748970031738e+00
5.000000000000000000e+00,5.000000000000000000e+00,5.000000000000000000e+00,5.000000000000000000e+00,5.000000000000000000e+00,5.000000000000000000e+00,5.000000000000000000e+00,5.000000000000000000e+00,5.000000000000000000e+00,5.000000000000000000e+00,5.000000000000000000e+00,5.000000000000000000e+00,5.000000000000000000e+00,5.000000000000000000e+00,5.000000000000000000e+00,5.000000000000000000e+00,5.000000000000000000e+00,5.000000000000000000e+00,5.000000000000000000e+00,5.000000000000000000e+00,5.000000000000000000e+00,5.000000000000000000e+00,5.000000000000000000e+00,5.000000000000000000e+00,5.000000000000000000e+00,5.000000000000000000e+00,5.000000000000000000e+00,5.000000000000000000e+00,5.000000000000000000e+00,5.000000000000000000e+00,5.000000000000000000e+00,2.166455984115600586e+00,2.150056600570678711e+00,2.171493530273437500e+00,5.000000000000000000e+00,2.030148983001708984e+00,1.999311447143554688e+00,1.994558811187744141e+00,2.034794330596923828e+00,4.866920471191406250e+00,4.675563335418701172e+00,4.498684406280517578e+00,4.334700584411621094e+00,4.182250976562500000e+00,4.040160179138183594e+00,3.907407522201538086e+00,3.783101320266723633e+00,3.666460275650024414e+00,3.556796312332153320e+00,3.453502178192138672e+00,3.356038570404052734e+00,3.263925075531005859e+00,3.176732540130615234e+00,3.094077825546264648e+00,3.015614986419677734e+00,2.941033363342285156e+00,2.870051383972167969e+00,2.802415370941162109e+00,2.737893581390380859e+00,2.676276206970214844e+00,2.617371082305908203e+00,2.561003208160400391e+00,2.507011890411376953e+00,2.455250263214111328e+00,2.405582666397094727e+00,2.357884645462036133e+00,2.312041521072387695e+00,2.267946958541870117e+00,2.225502729415893555e+00,2.184618234634399414e+00,2.145208597183227539e+00,2.107195615768432617e+00,2.070506334304809570e+00,2.035073041915893555e+00,2.000832080841064453e+00,1.967724204063415527e+00,1.935694098472595215e+00,1.904690027236938477e+00,1.874663591384887695e+00,1.845569014549255371e+00
5.000000000000000000e+00,5.000000000000000000e+00,5.000000000000000000e+00,5.000000000000000000e+00,5.000000000000000000e+00,5.000000000000000000e+00,5.000000000000000000e+00,5.000000000000000000e+00,5.000000000000000000e+00,5.000000000000000000e+00,5.000000000000000000e+00,5.000000000000000000e+00,5.000000000000000000e+00,5.000000000000000000e+00,5.000000000000000000e+00,5.000000000000000000e+00,5.000000000000000000e+00,5.000000000000000000e+00,5.000000000000000000e+00,5.000000000000000000e+00,5.000000000000000000e+00,5.000000000000000000e+00,5.000000000000000000e+00,5.000000000000000000e+00,5.000000000000000000e+00,5.000000000000000000e+00,5.000000000000000000e+00,5.000000000000000000e+00,5.000000000000000000e+00,5.000000000000000000e+00,5.000000000000000000e+00,2.170697689056396484e+00,2.156661272048950195e+00,2.178230524063110352e+00,5.000000000000000000e+00,2.020778894424438477e+00,1.987809538841247559e+00,1.985143780708312988e+00,5.000000000000000000e+00,4.867061138153076172e+00,4.675693035125732422e+00,4.498804569244384766e+00,4.334811687469482422e+00,4.182354927062988281e+00,4.040256977081298828e+00,3.907498121261596680e+00,3.783186197280883789e+00,3.666539907455444336e+00,3.556871414184570312e+00,3.453572988510131836e+00,3.356105327606201172e+00,3.263988256454467773e+00,3.176792383193969727e+00,3.094134569168090820e+00,3.015668869018554688e+00,2.941084623336791992e+00,2.870100259780883789e+00,2.802462100982666016e+00,2.737938165664672852e+00,2.676318883895874023e+00,2.617411613464355469e+00,2.561042070388793945e+00,2.507049322128295898e+00,2.455286026000976562e+00,2.405616998672485352e+00,2.357917785644531250e+00,2.312073230743408203e+00,2.267977476119995117e+00,2.225532054901123047e+00,2.184646368026733398e+00,2.145235776901245117e+00,2.107222080230712891e+00,2.070531845092773438e+00,2.035097599029541016e+00,2.000855684280395508e+00,1.967747092247009277e+00,1.935716152191162109e+00,1.904711604118347168e+00,1.874684333801269531e+00,1.845589399337768555e+00
5.000000000000000000e+00,5.000000000000000000e+00,5.000000000000000000e+00,5.000000000000000000e+00,5.000000000000000000e+00,5.000000000000000000e+00,5.000000000000000000e+00,5.000000000000000000e+00,5.000000000000000000e+00,5.000000000000000000e+00,5.000000000000000000e+00,5.000000000000000000e+00,5.000000000000000000e+00,5.000000000000000000e+00,5.000000000000000000e+00,5.000000000000000000e+00,5.000000000000000000e+00,5.000000000000000000e+00,5.000000000000000000e+00,5.000000000000000000e+00,5.000000000000000000e+00,5.000000000000000000e+00,5.000000000000000000e+00,5.000000000000000000e+00,5.000000000000000000e+00,5.000000000000000000e+00,5.000000000000000000e+00,5.000000000000000000e+00,5.000000000000000000e+00,5.000000000000000000e+00,5.000000000000000000e+00,2.179811000823974609e+00,2.163306474685668945e+00,2.182096242904663086e+00,5.000000000000000000e+00,2.022954702377319336e+00,1.989929795265197754e+00,1.986409544944763184e+00,5.000000000000000000e+00,4.867201805114746094e+00,4.675822257995605469e+00,4.498924732208251953e+00,4.334923267364501953e+00,4.182458400726318359e+00,4.040353775024414062e+00,3.907588481903076172e+00,3.783271074295043945e+00,3.666619539260864258e+00,3.556946277618408203e+00,3.453643798828125000e+00,3.356172084808349609e+00,3.264051437377929688e+00,3.176852464675903320e+00,3.094191312789916992e+00,3.015722990036010742e+00,2.941135883331298828e+00,2.870149135589599609e+00,2.802508592605590820e+00,2.737982749938964844e+00,2.676361322402954102e+00,2.617452383041381836e+00,2.561080932617187500e+00,2.507086515426635742e+00,2.455321788787841797e+00,2.405651092529296875e+00,2.357950687408447266e+00,2.312104940414428711e+00,2.268007993698120117e+00,2.225561380386352539e+00,2.184674739837646484e+00,2.145263195037841797e+00,2.107248306274414062e+00,2.070557117462158203e+00,2.035122156143188477e+00,2.000879526138305664e+00,1.967770218849182129e+00,1.935738563537597656e+00,1.904733061790466309e+00,1.874705314636230469e+00,1.845609426498413086e+00
5.000000000000000000e+00,5.000000000000000000e+00,5.000000000000000000e+00,5.000000000000000000e+00,5.000000000000000000e+00,5.000000000000000000e+00,5.000000000000000000e+00,5.000000000000000000e+00,5.000000000000000000e+00,5.000000000000000000e+00,5.000000000000000000e+00,5.000000000000000000e+00,5.000000000000000000e+00,5.000000000000000000e+00,5.000000000000000000e+00,5.000000000000000000e+00,5.000000000000000000e+00,5.000000000000000000e+00,5.000000000000000000e+00,5.000000000000000000e+00,5.000000000000000000e+00,5.000000000000000000e+00,5.000000000000000000e+00,5.000000000000000000e+00,5.000000000000000000e+00,5.000000000000000000e+00,5.000000000000000000e+00,5.000000000000000000e+00,5.000000000000000000e+00,5.000000000000000000e+00,5.000000000000000000e+00,2.189774036407470703e+00,2.169775724411010742e+00,2.185949563980102539e+00,5.000000000000000000e+00,2.037285566329956055e+00,2.000848054885864258e+00,1.997111797332763672e+00,5.000000000000000000e+00,4.867341995239257812e+00,4.675952434539794922e+00,4.499044895172119141e+00,4.335034847259521484e+00,4.182562351226806641e+00,4.040451049804687500e+00,3.907679080963134766e+00,3.783355951309204102e+00,3.666699409484863281e+00,3.557021856307983398e+00,3.453714609146118164e+00,3.356238842010498047e+00,3.264114618301391602e+00,3.176912546157836914e+00,3.094248056411743164e+00,3.015776872634887695e+00,2.941187381744384766e+00,2.870198249816894531e+00,2.802555084228515625e+00,2.738027095794677734e+00,2.676403760910034180e+00,2.617493152618408203e+00,2.561119794845581055e+00,2.507123708724975586e+00,2.455357551574707031e+00,2.405685663223266602e+00,2.357983589172363281e+00,2.312136650085449219e+00,2.268038511276245117e+00,2.225590944290161133e+00,2.184703111648559570e+00,2.145290374755859375e+00,2.107274770736694336e+00,2.070582628250122070e+00,2.035146713256835938e+00,2.000903129577636719e+00,1.967792987823486328e+00,1.935760855674743652e+00,1.904754638671875000e+00,1.874726057052612305e+00,1.845629811286926270e+00
5.000000000000000000e+00,5.000000000000000000e+00,5.000000000000000000e+00,5.000000000000000000e+00,5.000000000000000000e+00,5.000000000000000000e+00,5.000000000000000000e+00,5.000000000000000000e+00,5.000000000000000000e+00,5.000000000000000000e+00,5.000000000000000000e+00,5.000000000000000000e+00,5.000000000000000000e+00,5.000000000000000000e+00,5.000000000000000000e+00,5.000000000000000000e+00,5.000000000000000000e+00,5.000000000000000000e+00,5.000000000000000000e+00,5.000000000000000000e+00,5.000000000000000000e+00,5.000000000000000000e+00,5.000000000000000000e+00,5.000000000000000000e+00,5.000000000000000000e+00,5.000000000000000000e+00,5.000000000000000000e+00,5.000000000000000000e+00,5.000000000000000000e+00,5.000000000000000000e+00,5.000000000000000000e+00,2.250223398208618164e+00,2.180606126785278320e+00,2.195925474166870117e+00,5.000000000000000000e+00,2.054494380950927734e+00,2.015611648559570312e+00,2.014208316802978516e+00,5.000000000000000000e+00,4.867482662200927734e+00,4.676082134246826172e+00,4.499164581298828125e+00,4.335146427154541016e+00,4.182665824890136719e+00,4.040547847747802734e+00,3.907769680023193359e+00,3.783440828323364258e+00,3.666779041290283203e+00,3.557096719741821289e+00,3.453785181045532227e+00,3.356305837631225586e+00,3.264177799224853516e+00,3.176972389221191406e+00,3.094304800033569336e+00,3.015830755233764648e+00,2.941238641738891602e+00,2.870247125625610352e+00,2.802601814270019531e+00,2.738071680068969727e+00,2.676446199417114258e+00,2.617533683776855469e+00,2.561158657073974609e+00,2.507161140441894531e+00,2.455393314361572266e+00,2.405719995498657227e+00,2.358016729354858398e+00,2.312168359756469727e+00,2.268069028854370117e+00,2.225620269775390625e+00,2.184731483459472656e+00,2.145317792892456055e+00,2.107300996780395508e+00,2.070608139038085938e+00,2.035171270370483398e+00,2.000926971435546875e+00,1.967816114425659180e+00,1.935782909393310547e+00,1.904776096343994141e+00,1.874747037887573242e+00,1.845649838447570801e+00
5.000000000000000000e+00,5.000000000000000000e+00,5.000000000000000000e+00,5.000000000000000000e+00,5.000000000000000000e+00,5.000000000000000000e+00,5.000000000000000000e+00,5.000000000000000000e+00,5.000000000000000000e+00,5.000000000000000000e+00,5.000000000000000000e+00,5.000000000000000000e+00,5.000000000000000000e+00,5.000000000000000000e+00,5.000000000000000000e+00,5.000000000000000000e+00,5.000000000000000000e+00,5.000000000000000000e+00,5.000000000000000000e+00,5.000000000000000000e+00,5.000000000000000000e+00,5.000000000000000000e+00,5.000000000000000000e+00,5.000000000000000000e+00,5.000000000000000000e+00,5.000000000000000000e+00,5.000000000000000000e+00,5.000000000000000000e+00,5.000000000000000000e+00,5.000000000000000000e+00,5.000000000000000000e+00,2.266712427139282227e+00,2.205617189407348633e+00,2.224475383758544922e+00,5.000000000000000000e+00,2.064241409301757812e+00,2.032355308532714844e+00,2.031192064285278320e+00,2.092553615570068359e+00,4.867623329162597656e+00,4.676211833953857422e+00,4.499284744262695312e+00,4.335258007049560547e+00,4.182769775390625000e+00,4.040644645690917969e+00,3.907860279083251953e+00,3.783525705337524414e+00,3.666858911514282227e+00,3.557171821594238281e+00,3.453855991363525391e+00,3.356372594833374023e+00,3.264240980148315430e+00,3.177032232284545898e+00,3.094361782073974609e+00,3.015884637832641602e+00,2.941289901733398438e+00,2.870296001434326172e+00,2.802648305892944336e+00,2.738116025924682617e+00,2.676488637924194336e+00,2.617574453353881836e+00,2.561197519302368164e+00,2.507198333740234375e+00,2.455429077148437500e+00,2.405754327774047852e+00,2.358049631118774414e+00,2.312200069427490234e+00,2.268099546432495117e+00,2.225649833679199219e+00,2.184759616851806641e+00,2.145344972610473633e+00,2.107327461242675781e+00,2.070633649826049805e+00,2.035195827484130859e+00,2.000950574874877930e+00,1.967839002609252930e+00,1.935805320739746094e+00,1.904797673225402832e+00,1.874767780303955078e+00,1.845670223236083984e+00
5.000000000000000000e+00,5.000000000000000000e+00,5.000000000000000000e+00,5.000000000000000000e+00,5.000000000000000000e+00,5.000000000000000000e+00,5.000000000000000000e+00,5.000000000000000000e+00,5.000000000000000000e+00,5.000000000000000000e+00,5.000000000000000000e+00,5.000000000000000000e+00,5.000000000000000000e+00,5.000000000000000000e+00,5.000000000000000000e+00,5.000000000000000000e+00,5.000000000000000000e+00,5.000000000000000000e+00,5.000000000000000000e+00,5.000000000000000000e+00,5.000000000000000000e+00,5.000000000000000000e+00,5.000000000000000000e+00,5.000000000000000000e+00,5.000000000000000000e+00,5.000000000000000000e+00,5.000000000000000000e+00,5.000000000000000000e+00,5.000000000000000000e+00,5.000000000000000000e+00,5.000000000000000000e+00,2.330862760543823242e+00,2.272631168365478516e+00,2.331977128982543945e+00,5.000000000000000000e+00,2.061972618103027344e+00,2.035503149032592773e+00,2.034999608993530273e+00,2.105789184570312500e+00,4.867762565612792969e+00,4.676341533660888672e+00,4.499404907226562500e+00,4.335369586944580078e+00,4.182873725891113281e+00,4.040741443634033203e+00,3.907951354980468750e+00,3.783610582351684570e+00,3.666938543319702148e+00,3.557246923446655273e+00,3.453927040100097656e+00,3.356439352035522461e+00,3.264304161071777344e+00,3.177092075347900391e+00,3.094418764114379883e+00,3.015938758850097656e+00,2.941341161727905273e+00,2.870344877243041992e+00,2.802695035934448242e+00,2.738160610198974609e+00,2.676531314849853516e+00,2.617614984512329102e+00,2.561236619949340820e+00,2.507235765457153320e+00,2.455464839935302734e+00,2.405788660049438477e+00,2.358082771301269531e+00,2.312231779098510742e+00,2.268130064010620117e+00,2.225679159164428711e+00,2.184788227081298828e+00,2.145372390747070312e+00,2.107353687286376953e+00,2.070658922195434570e+00,2.035220623016357422e+00,2.000974416732788086e+00,1.967862010002136230e+00,1.935827374458312988e+00,1.904819369316101074e+00,1.874788641929626465e+00,1.845690250396728516e+00
5.000000000000000000e+00,5.000000000000000000e+00,5.000000000000000000e+00,5.000000000000000000e+00,5.000000000000000000e+00,5.000000000000000000e+00,5.000000000000000000e+00,5.000000000000000000e+00,5.000000000000000000e+00,5.000000000000000000e+00,5.000000000000000000e+00,5.000000000000000000e+00,5.000000000000000000e+00,5.000000000000000000e+00,5.000000000000000000e+00,5.000000000000000000e+00,5.000000000000000000e+00,5.000000000000000000e+00,5.000000000000000000e+00,5.000000000000000000e+00,5.000000000000000000e+00,5.000000000000000000e+00,5.000000000000000000e+00,5.000000000000000000e+00,5.000000000000000000e+00,5.000000000000000000e+00,5.000000000000000000e+00,5.000000000000000000e+00,5.000000000000000000e+00,5.000000000000000000e+00,5.000000000000000000e+00,2.395704269409179688e+00,2.338114738464355469e+00,2.380630970001220703e+00,5.000000000000000000e+00,2.059777498245239258e+00,2.035877704620361328e+00,2.035222768783569336e+00,5.000000000000000000e+00,4.867901325225830078e+00,4.676470756530761719e+00,4.499525070190429688e+00,4.335480690002441406e+00,4.182977676391601562e+00,4.040838241577148438e+00,3.908041954040527344e+00,3.783695459365844727e+00,3.667018413543701172e+00,3.557322025299072266e+00,3.453997850418090820e+00,3.356506109237670898e+00,3.264367341995239258e+00,3.177151918411254883e+00,3.094475507736206055e+00,3.015992641448974609e+00,2.941392421722412109e+00,2.870393753051757812e+00,2.802741765975952148e+00,2.738204956054687500e+00,2.676573753356933594e+00,2.617655754089355469e+00,2.561275720596313477e+00,2.507272958755493164e+00,2.455500602722167969e+00,2.405822992324829102e+00,2.358115673065185547e+00,2.312263488769531250e+00,2.268160581588745117e+00,2.225708484649658203e+00,2.184816360473632812e+00,2.145399570465087891e+00,2.107380151748657227e+00,2.070684432983398438e+00,2.035245180130004883e+00,2.000998258590698242e+00,1.967884898185729980e+00,1.935849785804748535e+00,1.904840707778930664e+00,1.874809384346008301e+00,1.845710635185241699e+00
5.000000000000000000e+00,5.000000000000000000e+00,5.000000000000000000e+00,5.000000000000000000e+00,5.000000000000000000e+00,5.000000000000000000e+00,5.000000000000000000e+00,5.000000000000000000e+00,5.000000000000000000e+00,5.000000000000000000e+00,5.000000000000000000e+00,5.000000000000000000e+00,5.000000000000000000e+00,5.000000000000000000e+00,5.000000000000000000e+00,5.000000000000000000e+00,5.000000000000000000e+00,5.000000000000000000e+00,5.000000000000000000e+00,5.000000000000000000e+00,5.000000000000000000e+00,5.000000000000000000e+00,5.000000000000000000e+00,5.000000000000000000e+00,5.000000000000000000e+00,5.000000000000000000e+00,5.000000000000000000e+00,5.000000000000000000e+00,5.000000000000000000e+00,5.000000000000000000e+00,5.000000000000000000e+00,2.465728282928466797e+00,2.385116338729858398e+00,2.426945686340332031e+00,5.000000000000000000e+00,2.058355569839477539e+00,2.035440206527709961e+00,2.035827159881591797e+00,5.000000000000000000e+00,4.868040561676025391e+00,4.676598548889160156e+00,4.499645233154296875e+00,4.335592269897460938e+00,4.183081150054931641e+00,4.040935039520263672e+00,3.908132553100585938e+00,3.783780336380004883e+00,3.667098045349121094e+00,3.557396888732910156e+00,3.454068660736083984e+00,3.356573104858398438e+00,3.264430522918701172e+00,3.177211761474609375e+00,3.094532251358032227e+00,3.016046524047851562e+00,2.941443920135498047e+00,2.870442628860473633e+00,2.802788257598876953e+00,2.738249540328979492e+00,2.676616191864013672e+00,2.617696285247802734e+00,2.561314582824707031e+00,2.507310152053833008e+00,2.455536365509033203e+00,2.405857324600219727e+00,2.358148813247680664e+00,2.312295198440551758e+00,2.268191099166870117e+00,2.225737810134887695e+00,2.184844732284545898e+00,2.145426988601684570e+00,2.107406377792358398e+00,2.070709943771362305e+00,2.035269737243652344e+00,2.001021862030029297e+00,1.967907905578613281e+00,1.935871839523315430e+00,1.904862403869628906e+00,1.874830365180969238e+00,1.845730662345886230e+00
5.000000000000000000e+00,5.000000000000000000e+00,5.000000000000000000e+00,5.000000000000000000e+00,5.000000000000000000e+00,5.000000000000000000e+00,5.000000000000000000e+00,5.000000000000000000e+00,5.000000000000000000e+00,5.000000000000000000e+00,5.000000000000000000e+00,5.000000000000000000e+00,5.000000000000000000e+00,5.000000000000000000e+00,5.000000000000000000e+00,5.000000000000000000e+00,5.000000000000000000e+00,5.000000000000000000e+00,5.000000000000000000e+00,5.000000000000000000e+00,5.000000000000000000e+00,5.000000000000000000e+00,5.000000000000000000e+00,5.000000000000000000e+00,5.000000000000000000e+00,5.000000000000000000e+00,5.000000000000000000e+00,5.000000000000000000e+00,5.000000000000000000e+00,5.000000000000000000e+00,5.000000000000000000e+00,5.000000000000000000e+00,2.434143781661987305e+00,2.490145444869995117e+00,5.000000000000000000e+00,2.058683395385742188e+00,2.034902572631835938e+00,2.040761947631835938e+00,5.000000000000000000e+00,4.868179321289062500e+00,4.676727294921875000e+00,4.499763965606689453e+00,4.335704326629638672e+00,4.183185100555419922e+00,4.041032314300537109e+00,3.908222913742065430e+00,3.783865690231323242e+00,3.667177915573120117e+00,3.557471990585327148e+00,3.454139232635498047e+00,3.356640100479125977e+00,3.264493703842163086e+00,3.177271604537963867e+00,3.094589233398437500e+00,3.016100883483886719e+00,2.941495180130004883e+00,2.870491504669189453e+00,2.802834987640380859e+00,2.738294124603271484e+00,2.676658630371093750e+00,2.617737054824829102e+00,2.561353445053100586e+00,2.507347583770751953e+00,2.455572128295898438e+00,2.405891656875610352e+00,2.358181715011596680e+00,2.312327146530151367e+00,2.268221616744995117e+00,2.225767135620117188e+00,2.184873104095458984e+00,2.145454406738281250e+00,2.107432842254638672e+00,2.070735216140747070e+00,2.035294294357299805e+00,2.001045703887939453e+00,1.967930793762207031e+00,1.935894250869750977e+00,1.904883742332458496e+00,1.874851346015930176e+00,1.845750927925109863e+00
5.000000000000000000e+00,5.000000000000000000e+00,5.000000000000000000e+00,5.000000000000000000e+00,5.000000000000000000e+00,5.000000000000000000e+00,5.000000000000000000e+00,5.000000000000000000e+00,5.000000000000000000e+00,5.000000000000000000e+00,5.000000000000000000e+00,5.000000000000000000e+00,5.000000000000000000e+00,5.000000000000000000e+00,5.000000000000000000e+00,5.000000000000000000e+00,5.000000000000000000e+00,5.000000000000000000e+00,5.000000000000000000e+00,5.000000000000000000e+00,5.000000000000000000e+00,5.000000000000000000e+00,5.000000000000000000e+00,5.000000000000000000e+00,5.000000000000000000e+00,5.000000000000000000e+00,5.000000000000000000e+00,5.000000000000000000e+00,5.000000000000000000e+00,5.000000000000000000e+00,5.000000000000000000e+00,5.000000000000000000e+00,2.509916305541992188e+00,5.000000000000000000e+00,5.000000000000000000e+00,2.063389301300048828e+00,2.035399436950683594e+00,2.049352884292602539e+00,5.000000000000000000e+00,4.868318557739257812e+00,4.676855087280273438e+00,4.499882221221923828e+00,4.335814476013183594e+00,4.183289051055908203e+00,4.041129112243652344e+00,3.908313512802124023e+00,3.783950567245483398e+00,3.667257547378540039e+00,3.557547092437744141e+00,3.454210042953491211e+00,3.356707096099853516e+00,3.264556884765625000e+00,3.177331447601318359e+00,3.094645977020263672e+00,3.016154766082763672e+00,2.941546440124511719e+00,2.870540380477905273e+00,2.802881479263305664e+00,2.738338708877563477e+00,2.676701068878173828e+00,2.617777585983276367e+00,2.561392307281494141e+00,2.507385015487670898e+00,2.455607891082763672e+00,2.405925989151000977e+00,2.358214616775512695e+00,2.312358856201171875e+00,2.268252134323120117e+00,2.225796699523925781e+00,2.184901475906372070e+00,2.145481586456298828e+00,2.107459068298339844e+00,2.070760726928710938e+00,2.035318851470947266e+00,2.001069545745849609e+00,1.967953920364379883e+00,1.935916304588317871e+00,1.904905438423156738e+00,1.874872088432312012e+00,1.845771074295043945e+00
5.000000000000000000e+00,5.000000000000000000e+00,5.000000000000000000e+00,5.000000000000000000e+00,5.000000000000000000e+00,5.000000000000000000e+00,5.000000000000000000e+00,5.000000000000000000e+00,5.000000000000000000e+00,5.000000000000000000e+00,5.000000000000000000e+00,5.000000000000000000e+00,5.000000000000000000e+00,5.000000000000000000e+00,5.000000000000000000e+00,5.000000000000000000e+00,5.000000000000000000e+00,5.000000000000000000e+00,5.000000000000000000e+00,5.000000000000000000e+00,5.000000000000000000e+00,5.000000000000000000e+00,5.000000000000000000e+00,5.000000000000000000e+00,5.000000000000000000e+00,5.000000000000000000e+00,5.000000000000000000e+00,5.000000000000000000e+00,5.000000000000000000e+00,5.000000000000000000e+00,5.000000000000000000e+00,5.000000000000000000e+00,2.574172496795654297e+00,2.611054897308349609e+00,5.000000000000000000e+00,2.068001508712768555e+00,2.035896778106689453e+00,2.061640501022338867e+00,5.000000000000000000e+00,4.868457317352294922e+00,4.676983356475830078e+00,4.500001430511474609e+00,4.335924625396728516e+00,4.183392047882080078e+00,4.041225910186767578e+00,3.908404111862182617e+00,3.784035682678222656e+00,3.667337417602539062e+00,3.557622194290161133e+00,3.454280853271484375e+00,3.356773853302001953e+00,3.264620065689086914e+00,3.177391529083251953e+00,3.094702720642089844e+00,3.016208648681640625e+00,2.941597700119018555e+00,2.870589256286621094e+00,2.802927970886230469e+00,2.738383054733276367e+00,2.676743745803833008e+00,2.617818355560302734e+00,2.561431169509887695e+00,2.507422208786010742e+00,2.455643653869628906e+00,2.405960321426391602e+00,2.358247756958007812e+00,2.312390565872192383e+00,2.268282651901245117e+00,2.225826025009155273e+00,2.184929609298706055e+00,2.145509004592895508e+00,2.107485294342041016e+00,2.070786237716674805e+00,2.035343408584594727e+00,2.001093387603759766e+00,1.967976689338684082e+00,1.935938715934753418e+00,1.904926776885986328e+00,1.874893069267272949e+00,1.845791339874267578e+00
4.874791145324707031e+00,4.873579978942871094e+00,4.872369289398193359e+00,4.871159076690673828e+00,4.869949817657470703e+00,4.868740558624267578e+00,4.867532253265380859e+00,4.866324424743652344e+00,4.865117549896240234e+00,4.863910675048828125e+00,4.862704753875732422e+00,4.861499309539794922e+00,4.860294818878173828e+00,4.859090805053710938e+00,4.857887268066406250e+00,4.856684207916259766e+00,4.855482101440429688e+00,4.854279994964599609e+00,4.853078842163085938e+00,4.851878643035888672e+00,4.850678443908691406e+00,4.849479198455810547e+00,4.848280429840087891e+00,4.847082138061523438e+00,4.845884323120117188e+00,4.844687938690185547e+00,4.843491077423095703e+00,4.842295169830322266e+00,4.841100215911865234e+00,4.839905261993408203e+00,4.838711261749267578e+00,4.837518215179443359e+00,2.579659461975097656e+00,2.589477539062500000e+00,4.833940982818603516e+00,2.072389841079711914e+00,2.036394357681274414e+00,2.076430797576904297e+00,4.829179763793945312e+00,4.827991008758544922e+00,4.677111625671386719e+00,4.500119686126708984e+00,4.336034774780273438e+00,4.183494567871093750e+00,4.041322708129882812e+00,3.908494710922241211e+00,3.784120559692382812e+00,3.667417526245117188e+00,3.557697296142578125e+00,3.454351663589477539e+00,3.356840610504150391e+00,3.264683723449707031e+00,3.177451372146606445e+00,3.094759464263916016e+00,3.016262531280517578e+00,2.941649436950683594e+00,2.870638132095336914e+00,2.802974700927734375e+00,2.738427639007568359e+00,2.676786422729492188e+00,2.617858886718750000e+00,2.561470270156860352e+00,2.507459640502929688e+00,2.455679416656494141e+00,2.405994653701782227e+00,2.358280658721923828e+00,2.312422275543212891e+00,2.268313169479370117e+00,2.225855350494384766e+00,2.184957981109619141e+00,2.145536184310913086e+00,2.107511997222900391e+00,2.070811510086059570e+00,2.035367965698242188e+00,2.001116991043090820e+00,1.967999815940856934e+00,1.935960769653320312e+00,1.904948472976684570e+00,1.874913811683654785e+00,1.845811724662780762e+00
3.777566194534301758e+00,3.776839017868041992e+00,3.776111841201782227e+00,3.775384902954101562e+00,3.774658203125000000e+00,3.773931741714477539e+00,3.773205757141113281e+00,3.772480249404907227e+00,3.771754741668701172e+00,3.771029472351074219e+00,3.770304441452026367e+00,3.769579648971557617e+00,3.768855333328247070e+00,3.768131494522094727e+00,3.767407655715942383e+00,3.766684055328369141e+00,3.765960693359375000e+00,3.765237808227539062e+00,3.764514923095703125e+00,3.763792753219604492e+00,3.763070583343505859e+00,3.762348651885986328e+00,3.761626958847045898e+00,3.760905742645263672e+00,3.760184526443481445e+00,3.759464263916015625e+00,3.758743524551391602e+00,3.758023262023925781e+00,3.757303237915039062e+00,3.756583690643310547e+00,3.755864143371582031e+00,3.755145311355590820e+00,2.579926490783691406e+00,2.577627658843994141e+00,3.752989530563354492e+00,3.752271413803100586e+00,2.045881986618041992e+00,3.750836372375488281e+00,3.750119209289550781e+00,3.749402284622192383e+00,3.748685598373413086e+00,3.747969150543212891e+00,3.747252941131591797e+00,3.746537446975708008e+00,3.745821714401245117e+00,3.745106458663940430e+00,3.744391441345214844e+00,3.667497396469116211e+00,3.557772159576416016e+00,3.454422473907470703e+00,3.356907606124877930e+00,3.264746904373168945e+00,3.177511215209960938e+00,3.094816446304321289e+00,3.016316652297973633e+00,2.941700696945190430e+00,2.870687007904052734e+00,2.803021192550659180e+00,2.738471984863281250e+00,2.676828861236572266e+00,2.617899656295776367e+00,2.561509132385253906e+00,2.507496833801269531e+00,2.455715179443359375e+00,2.406028985977172852e+00,2.358313560485839844e+00,2.312453985214233398e+00,2.268343687057495117e+00,2.225884675979614258e+00,2.184986352920532227e+00,2.145563602447509766e+00,2.107538223266601562e+00,2.070837020874023438e+00,2.035392522811889648e+00,2.001140832901000977e+00,1.968022942543029785e+00,1.935983061790466309e+00,1.904969811439514160e+00,1.874934673309326172e+00,1.845831751823425293e+00
3.083522796630859375e+00,3.083038091659545898e+00,3.082553386688232422e+00,3.082068920135498047e+00,3.081584930419921875e+00,3.081100702285766602e+00,3.080616712570190430e+00,3.080132961273193359e+00,3.079649209976196289e+00,3.079165697097778320e+00,3.078682661056518555e+00,3.078199386596679688e+00,3.077716350555419922e+00,3.077233314514160156e+00,3.076750516891479492e+00,3.076267957687377930e+00,3.075785636901855469e+00,3.075303316116333008e+00,3.074821233749389648e+00,3.074339151382446289e+00,3.073857307434082031e+00,3.073375463485717773e+00,3.072894334793090820e+00,3.072412729263305664e+00,3.071931600570678711e+00,3.071450471878051758e+00,3.070969343185424805e+00,3.070488691329956055e+00,3.070008277893066406e+00,3.069527626037597656e+00,3.069047451019287109e+00,3.068567037582397461e+00,2.576953172683715820e+00,2.568913936614990234e+00,3.067127704620361328e+00,2.078583002090454102e+00,2.046837568283081055e+00,3.065689325332641602e+00,3.065210103988647461e+00,3.064731121063232422e+00,3.064252614974975586e+00,3.063773870468139648e+00,3.063295364379882812e+00,3.062816858291625977e+00,3.062338590621948242e+00,3.061860799789428711e+00,3.061382770538330078e+00,3.060904979705810547e+00,3.060427188873291016e+00,3.059949636459350586e+00,3.059472322463989258e+00,3.058995485305786133e+00,3.058518409729003906e+00,3.058041334152221680e+00,3.016370534896850586e+00,2.941751956939697266e+00,2.870735883712768555e+00,2.803067922592163086e+00,2.738516569137573242e+00,2.676871299743652344e+00,2.617940187454223633e+00,2.561547994613647461e+00,2.507534027099609375e+00,2.455750942230224609e+00,2.406063318252563477e+00,2.358346700668334961e+00,2.312485694885253906e+00,2.268374204635620117e+00,2.225914239883422852e+00,2.185014724731445312e+00,2.145590782165527344e+00,2.107564449310302734e+00,2.070862531661987305e+00,2.035417079925537109e+00,2.001164436340332031e+00,1.968045830726623535e+00,1.936005234718322754e+00,1.904991507530212402e+00,1.874955415725708008e+00,1.845852136611938477e+00
2.604925632476806641e+00,2.604579925537109375e+00,2.604233980178833008e+00,2.603888273239135742e+00,2.603542566299438477e+00,2.603196859359741211e+00,2.602851390838623047e+00,2.602506160736083984e+00,2.602160930633544922e+00,2.601815700531005859e+00,2.601470470428466797e+00,2.601125478744506836e+00,2.600780487060546875e+00,2.600435733795166016e+00,2.600090980529785156e+00,2.599746227264404297e+00,2.599401712417602539e+00,2.599057197570800781e+00,2.598712682723999023e+00,2.598368644714355469e+00,2.598024368286132812e+00,2.597680330276489258e+00,2.597336292266845703e+00,2.596992254257202148e+00,2.596648454666137695e+00,2.596304893493652344e+00,2.595961332321166992e+00,2.595617532730102539e+00,2.595274209976196289e+00,2.594930648803710938e+00,2.594587326049804688e+00,2.594244480133056641e+00,2.593901157379150391e+00,2.593558311462402344e+00,2.593215227127075195e+00,2.007769823074340820e+00,2.004639387130737305e+00,2.592187166213989258e+00,2.591844558715820312e+00,2.591501951217651367e+00,2.591159582138061523e+00,2.590817213058471680e+00,2.590475082397460938e+00,2.590133190155029297e+00,2.589791059494018555e+00,2.589449167251586914e+00,2.589107275009155273e+00,2.588765621185302734e+00,2.588423967361450195e+00,2.588082313537597656e+00,2.587740898132324219e+00,2.587399482727050781e+00,2.587058067321777344e+00,2.586716890335083008e+00,2.586375951766967773e+00,2.586035013198852539e+00,2.585694074630737305e+00,2.585353136062622070e+00,2.585012435913085938e+00,2.584671735763549805e+00,2.584331274032592773e+00,2.561586856842041016e+00,2.507571458816528320e+00,2.455786705017089844e+00,2.406097888946533203e+00,2.358379602432250977e+00,2.312517404556274414e+00,2.268404722213745117e+00,2.225943803787231445e+00,2.185042858123779297e+00,2.145618200302124023e+00,2.107590913772583008e+00,2.070888042449951172e+00,2.035441637039184570e+00,2.001188278198242188e+00,1.968068838119506836e+00,1.936027526855468750e+00,1.905012845993041992e+00,1.874976396560668945e+00,1.845872282981872559e+00
2.254979848861694336e+00,2.254718542098999023e+00,2.254457473754882812e+00,2.254196405410766602e+00,2.253935098648071289e+00,2.253674268722534180e+00,2.253413200378417969e+00,2.253152370452880859e+00,2.252891540527343750e+00,2.252630949020385742e+00,2.252370119094848633e+00,2.252109527587890625e+00,2.251848936080932617e+00,2.251588344573974609e+00,2.251327991485595703e+00,2.251067638397216797e+00,2.250807285308837891e+00,2.250546932220458984e+00,2.250286817550659180e+00,2.250026702880859375e+00,2.249766349792480469e+00,2.249506235122680664e+00,2.249246358871459961e+00,2.248987674713134766e+00,2.248729705810546875e+00,2.248471975326538086e+00,2.248214244842529297e+00,2.247956514358520508e+00,2.247699022293090820e+00,2.247441530227661133e+00,2.247183799743652344e+00,2.246926307678222656e+00,2.246669054031372070e+00,2.246411561965942383e+00,2.246154546737670898e+00,1.926809787750244141e+00,1.941563606262207031e+00,1.978738069534301758e+00,2.245126008987426758e+00,2.244868993759155273e+00,2.244612216949462891e+00,2.244355201721191406e+00,2.244098424911499023e+00,2.243841648101806641e+00,2.243584871292114258e+00,2.243328332901000977e+00,2.243071794509887695e+00,2.242815256118774414e+00,2.242558956146240234e+00,2.242302417755126953e+00,2.242046117782592773e+00,2.241790056228637695e+00,2.241533756256103516e+00,2.241277456283569336e+00,2.241021394729614258e+00,2.240765333175659180e+00,2.240509271621704102e+00,2.240253448486328125e+00,2.239997625350952148e+00,2.239741802215576172e+00,2.239485979080200195e+00,2.239230394363403320e+00,2.238974809646606445e+00,2.238719224929809570e+00,2.238463640213012695e+00,2.238208293914794922e+00,2.237952947616577148e+00,2.237697362899780273e+00,2.225973129272460938e+00,2.185071229934692383e+00,2.145645380020141602e+00,2.107617139816284180e+00,2.070913553237915039e+00,2.035466194152832031e+00,2.001212120056152344e+00,1.968091726303100586e+00,1.936049938201904297e+00,1.905034542083740234e+00,1.874997138977050781e+00,1.845892548561096191e+00
1.988011360168457031e+00,1.987808346748352051e+00,1.987605333328247070e+00,1.987402439117431641e+00,1.987199306488037109e+00,1.986996412277221680e+00,1.986793518066406250e+00,1.986590743064880371e+00,1.986387968063354492e+00,1.986185312271118164e+00,1.985982656478881836e+00,1.985780000686645508e+00,1.985577464103698730e+00,1.985374927520751953e+00,1.985172390937805176e+00,1.984969973564147949e+00,1.984767556190490723e+00,1.984565138816833496e+00,1.984362840652465820e+00,1.984160542488098145e+00,1.983958005905151367e+00,1.983755826950073242e+00,1.983553647994995117e+00,1.983351469039916992e+00,1.983149409294128418e+00,1.982947349548339844e+00,1.982745409011840820e+00,1.982543468475341797e+00,1.982341527938842773e+00,1.982139587402343750e+00,1.981937766075134277e+00,1.981735944747924805e+00,1.981534242630004883e+00,1.981332540512084961e+00,1.981130838394165039e+00,1.980929136276245117e+00,1.980727314949035645e+00,1.980525851249694824e+00,1.980324268341064453e+00,1.980122804641723633e+00,1.979921340942382812e+00,1.979719996452331543e+00,1.979518651962280273e+00,1.979317307472229004e+00,1.979116082191467285e+00,1.978914856910705566e+00,1.978713631629943848e+00,1.978512525558471680e+00,1.978311419486999512e+00,1.978110313415527344e+00,1.977909326553344727e+00,1.977708339691162109e+00,1.977507114410400391e+00,1.977306246757507324e+00,1.977105379104614258e+00,1.976904511451721191e+00,1.976703763008117676e+00,1.976503014564514160e+00,1.976302385330200195e+00,1.976101636886596680e+00,1.975901007652282715e+00,1.975700497627258301e+00,1.975499987602233887e+00,1.975299477577209473e+00,1.975098967552185059e+00,1.974898576736450195e+00,1.974698185920715332e+00,1.974497914314270020e+00,1.974297404289245605e+00,1.974097132682800293e+00,1.973896861076354980e+00,1.973696708679199219e+00,1.973496556282043457e+00,1.973296523094177246e+00,1.973096489906311035e+00,1.968114852905273438e+00,1.936071991920471191e+00,1.905056118965148926e+00,1.875018119812011719e+00,1.845912575721740723e+00
1.777564406394958496e+00,1.777402043342590332e+00,1.777239799499511719e+00,1.777077436447143555e+00,1.776915073394775391e+00,1.776752829551696777e+00,1.776590704917907715e+00,1.776428461074829102e+00,1.776266336441040039e+00,1.776104331016540527e+00,1.775942206382751465e+00,1.775780200958251953e+00,1.775618195533752441e+00,1.775456190109252930e+00,1.775294303894042969e+00,1.775132417678833008e+00,1.774970531463623047e+00,1.774808645248413086e+00,1.774646759033203125e+00,1.774484992027282715e+00,1.774322986602783203e+00,1.774161338806152344e+00,1.773999571800231934e+00,1.773837924003601074e+00,1.773676276206970215e+00,1.773514628410339355e+00,1.773353099822998047e+00,1.773191452026367188e+00,1.773029923439025879e+00,1.772868394851684570e+00,1.772706985473632812e+00,1.772545576095581055e+00,1.772384166717529297e+00,1.772222757339477539e+00,1.772061347961425781e+00,1.771900057792663574e+00,1.771738529205322266e+00,1.771577239036560059e+00,1.771416068077087402e+00,1.771254777908325195e+00,1.771093606948852539e+00,1.770932435989379883e+00,1.770771384239196777e+00,1.770610332489013672e+00,1.770449161529541016e+00,1.770288228988647461e+00,1.770127177238464355e+00,1.769966244697570801e+00,1.769805312156677246e+00,1.769644379615783691e+00,1.769483447074890137e+00,1.769322633743286133e+00,1.769161581993103027e+00,1.769000768661499023e+00,1.768839955329895020e+00,1.768679261207580566e+00,1.768518567085266113e+00,1.768357872962951660e+00,1.768197178840637207e+00,1.768036603927612305e+00,1.767876029014587402e+00,1.767715454101562500e+00,1.767554879188537598e+00,1.767394423484802246e+00,1.767233848571777344e+00,1.767073392868041992e+00,1.766913056373596191e+00,1.766752600669860840e+00,1.766592144966125488e+00,1.766431808471679688e+00,1.766271471977233887e+00,1.766111135482788086e+00,1.765950918197631836e+00,1.765790700912475586e+00,1.765630483627319336e+00,1.765470385551452637e+00,1.765310287475585938e+00,1.765150189399719238e+00,1.764990091323852539e+00,1.764830112457275391e+00
1.607407331466674805e+00,1.607274651527404785e+00,1.607141852378845215e+00,1.607009172439575195e+00,1.606876373291015625e+00,1.606743693351745605e+00,1.606611132621765137e+00,1.606478452682495117e+00,1.606345891952514648e+00,1.606213331222534180e+00,1.606080770492553711e+00,1.605948209762573242e+00,1.605815768241882324e+00,1.605683326721191406e+00,1.605550885200500488e+00,1.605418443679809570e+00,1.605286002159118652e+00,1.605153560638427734e+00,1.605021238327026367e+00,1.604888916015625000e+00,1.604756355285644531e+00,1.604624152183532715e+00,1.604491829872131348e+00,1.604359507560729980e+00,1.604227304458618164e+00,1.604095101356506348e+00,1.603962898254394531e+00,1.603830695152282715e+00,1.603698611259460449e+00,1.603566408157348633e+00,1.603434324264526367e+00,1.603302240371704102e+00,1.603170156478881836e+00,1.603038191795349121e+00,1.602906107902526855e+00,1.602774143218994141e+00,1.602642059326171875e+00,1.602510094642639160e+00,1.602378129959106445e+00,1.602246165275573730e+00,1.602114319801330566e+00,1.601982474327087402e+00,1.601850628852844238e+00,1.601718783378601074e+00,1.601586937904357910e+00,1.601455211639404297e+00,1.601323485374450684e+00,1.601191759109497070e+00,1.601060032844543457e+00,1.600928306579589844e+00,1.600796580314636230e+00,1.600664973258972168e+00,1.600533246994018555e+00,1.600401639938354492e+00,1.600270032882690430e+00,1.600138425827026367e+00,1.600006937980651855e+00,1.599875330924987793e+00,1.599743843078613281e+00,1.599612355232238770e+00,1.599480867385864258e+00,1.599349498748779297e+00,1.599218130111694336e+00,1.599086642265319824e+00,1.598955273628234863e+00,1.598824024200439453e+00,1.598692655563354492e+00,1.598561286926269531e+00,1.598429918289184570e+00,1.598298668861389160e+00,1.598167419433593750e+00,1.598036170005798340e+00,1.597905039787292480e+00,1.597773790359497070e+00,1.597642660140991211e+00,1.597511529922485352e+00,1.597380399703979492e+00,1.597249388694763184e+00,1.597118258476257324e+00,1.596987247467041016e+00
1.466980934143066406e+00,1.466870307922363281e+00,1.466759800910949707e+00,1.466649293899536133e+00,1.466538548469543457e+00,1.466428160667419434e+00,1.466317653656005859e+00,1.466207146644592285e+00,1.466096758842468262e+00,1.465986251831054688e+00,1.465875864028930664e+00,1.465765476226806641e+00,1.465655088424682617e+00,1.465544700622558594e+00,1.465434432029724121e+00,1.465324044227600098e+00,1.465213775634765625e+00,1.465103507041931152e+00,1.464993119239807129e+00,1.464882850646972656e+00,1.464772582054138184e+00,1.464662313461303711e+00,1.464552044868469238e+00,1.464441895484924316e+00,1.464331746101379395e+00,1.464221596717834473e+00,1.464111447334289551e+00,1.464001297950744629e+00,1.463891148567199707e+00,1.463781118392944336e+00,1.463670969009399414e+00,1.463560938835144043e+00,1.463450908660888672e+00,1.463340878486633301e+00,1.463230848312377930e+00,1.463120818138122559e+00,1.463010668754577637e+00,1.462900757789611816e+00,1.462790846824645996e+00,1.462680935859680176e+00,1.462571024894714355e+00,1.462461113929748535e+00,1.462351202964782715e+00,1.462241291999816895e+00,1.462131500244140625e+00,1.462021708488464355e+00,1.461911797523498535e+00,1.461802005767822266e+00,1.461692214012145996e+00,1.461582541465759277e+00,1.461472749710083008e+00,1.461363077163696289e+00,1.461253166198730469e+00,1.461143493652343750e+00,1.461033821105957031e+00,1.460924148559570312e+00,1.460814476013183594e+00,1.460704803466796875e+00,1.460595250129699707e+00,1.460485577583312988e+00,1.460376024246215820e+00,1.460266470909118652e+00,1.460156917572021484e+00,1.460047364234924316e+00,1.459937930107116699e+00,1.459828376770019531e+00,1.459718942642211914e+00,1.459609389305114746e+00,1.459499835968017578e+00,1.459390401840209961e+00,1.459280967712402344e+00,1.459171533584594727e+00,1.459062218666076660e+00,1.458952784538269043e+00,1.458843469619750977e+00,1.458734154701232910e+00,1.458624839782714844e+00,1.458515524864196777e+00,1.458406209945678711e+00,1.458296895027160645e+00
1.349118947982788086e+00,1.349025487899780273e+00,1.348931908607482910e+00,1.348838448524475098e+00,1.348744869232177734e+00,1.348651409149169922e+00,1.348557949066162109e+00,1.348464608192443848e+00,1.348371148109436035e+00,1.348277688026428223e+00,1.348184347152709961e+00,1.348091006278991699e+00,1.347997546195983887e+00,1.347904205322265625e+00,1.347810864448547363e+00,1.347717523574829102e+00,1.347624301910400391e+00,1.347530961036682129e+00,1.347437620162963867e+00,1.347344398498535156e+00,1.347251057624816895e+00,1.347157835960388184e+00,1.347064614295959473e+00,1.346971392631530762e+00,1.346878170967102051e+00,1.346784949302673340e+00,1.346691727638244629e+00,1.346598625183105469e+00,1.346505403518676758e+00,1.346412301063537598e+00,1.346319198608398438e+00,1.346225976943969727e+00,1.346132874488830566e+00,1.346039772033691406e+00,1.345946788787841797e+00,1.345853686332702637e+00,1.345760464668273926e+00,1.345667481422424316e+00,1.345574378967285156e+00,1.345481395721435547e+00,1.345388412475585938e+00,1.345295429229736328e+00,1.345202445983886719e+00,1.345109462738037109e+00,1.345016479492187500e+00,1.344923496246337891e+00,1.344830632209777832e+00,1.344737648963928223e+00,1.344644784927368164e+00,1.344551920890808105e+00,1.344459056854248047e+00,1.344366192817687988e+00,1.344273209571838379e+00,1.344180345535278320e+00,1.344087481498718262e+00,1.343994736671447754e+00,1.343901872634887695e+00,1.343809127807617188e+00,1.343716382980346680e+00,1.343623638153076172e+00,1.343530774116516113e+00,1.343438148498535156e+00,1.343345403671264648e+00,1.343252658843994141e+00,1.343159914016723633e+00,1.343067288398742676e+00,1.342974543571472168e+00,1.342881917953491211e+00,1.342789173126220703e+00,1.342696547508239746e+00,1.342603921890258789e+00,1.342511296272277832e+00,1.342418670654296875e+00,1.342326164245605469e+00,1.342233538627624512e+00,1.342141032218933105e+00,1.342048406600952148e+00,1.341955900192260742e+00,1.341863393783569336e+00,1.341770887374877930e+00
1.248787403106689453e+00,1.248707294464111328e+00,1.248627185821533203e+00,1.248547196388244629e+00,1.248466968536376953e+00,1.248386859893798828e+00,1.248306870460510254e+00,1.248226761817932129e+00,1.248146653175354004e+00,1.248066663742065430e+00,1.247986674308776855e+00,1.247906684875488281e+00,1.247826576232910156e+00,1.247746586799621582e+00,1.247666597366333008e+00,1.247586607933044434e+00,1.247506737709045410e+00,1.247426748275756836e+00,1.247346758842468262e+00,1.247266888618469238e+00,1.247186899185180664e+00,1.247106909751892090e+00,1.247027039527893066e+00,1.246947169303894043e+00,1.246867299079895020e+00,1.246787428855895996e+00,1.246707558631896973e+00,1.246627688407897949e+00,1.246547818183898926e+00,1.246467947959899902e+00,1.246388196945190430e+00,1.246308326721191406e+00,1.246228575706481934e+00,1.246148705482482910e+00,1.246068954467773438e+00,1.245989203453063965e+00,1.245909333229064941e+00,1.245829582214355469e+00,1.245749831199645996e+00,1.245670080184936523e+00,1.245590448379516602e+00,1.245510697364807129e+00,1.245430946350097656e+00,1.245351314544677734e+00,1.245271682739257812e+00,1.245191931724548340e+00,1.245112299919128418e+00,1.245032668113708496e+00,1.244953036308288574e+00,1.244873404502868652e+00,1.244793772697448730e+00,1.244714140892028809e+00,1.244634509086608887e+00,1.244554877281188965e+00,1.244475364685058594e+00,1.244395732879638672e+00,1.244316220283508301e+00,1.244236588478088379e+00,1.244157075881958008e+00,1.244077563285827637e+00,1.243998050689697266e+00,1.243918538093566895e+00,1.243839025497436523e+00,1.243759632110595703e+00,1.243680119514465332e+00,1.243600606918334961e+00,1.243521213531494141e+00,1.243441700935363770e+00,1.243362188339233398e+00,1.243282794952392578e+00,1.243203401565551758e+00,1.243124008178710938e+00,1.243044614791870117e+00,1.242965221405029297e+00,1.242885828018188477e+00,1.242806434631347656e+00,1.242727160453796387e+00,1.242647767066955566e+00,1.242568492889404297e+00,1.242489099502563477e+00
1.162345886230468750e+00,1.162276506423950195e+00,1.162207126617431641e+00,1.162137746810913086e+00,1.162068247795104980e+00,1.161998867988586426e+00,1.161929488182067871e+00,1.161860108375549316e+00,1.161790847778320312e+00,1.161721467971801758e+00,1.161652088165283203e+00,1.161582827568054199e+00,1.161513447761535645e+00,1.161444187164306641e+00,1.161374807357788086e+00,1.161305546760559082e+00,1.161236286163330078e+00,1.161167025566101074e+00,1.161097764968872070e+00,1.161028504371643066e+00,1.160959124565124512e+00,1.160889863967895508e+00,1.160820603370666504e+00,1.160751342773437500e+00,1.160682201385498047e+00,1.160612940788269043e+00,1.160543799400329590e+00,1.160474538803100586e+00,1.160405397415161133e+00,1.160336136817932129e+00,1.160266995429992676e+00,1.160197854042053223e+00,1.160128712654113770e+00,1.160059571266174316e+00,1.159990429878234863e+00,1.159921288490295410e+00,1.159852027893066406e+00,1.159783005714416504e+00,1.159713864326477051e+00,1.159644722938537598e+00,1.159575700759887695e+00,1.159506559371948242e+00,1.159437537193298340e+00,1.159368395805358887e+00,1.159299373626708984e+00,1.159230351448059082e+00,1.159161329269409180e+00,1.159092187881469727e+00,1.159023165702819824e+00,1.158954143524169922e+00,1.158885240554809570e+00,1.158816218376159668e+00,1.158747076988220215e+00,1.158678174018859863e+00,1.158609151840209961e+00,1.158540248870849609e+00,1.158471226692199707e+00,1.158402323722839355e+00,1.158333420753479004e+00,1.158264398574829102e+00,1.158195495605468750e+00,1.158126592636108398e+00,1.158057689666748047e+00,1.157988786697387695e+00,1.157919883728027344e+00,1.157850980758666992e+00,1.157782196998596191e+00,1.157713294029235840e+00,1.157644391059875488e+00,1.157575488090515137e+00,1.157506585121154785e+00,1.157437801361083984e+00,1.157369017601013184e+00,1.157300114631652832e+00,1.157231330871582031e+00,1.157162547111511230e+00,1.157093763351440430e+00,1.157024979591369629e+00,1.156956195831298828e+00,1.156887412071228027e+00
1.087096691131591797e+00,1.087035894393920898e+00,1.086975216865539551e+00,1.086914539337158203e+00,1.086853742599487305e+00,1.086793065071105957e+00,1.086732387542724609e+00,1.086671710014343262e+00,1.086611032485961914e+00,1.086550354957580566e+00,1.086489796638488770e+00,1.086429119110107422e+00,1.086368441581726074e+00,1.086307764053344727e+00,1.086247205734252930e+00,1.086186528205871582e+00,1.086125969886779785e+00,1.086065411567687988e+00,1.086004734039306641e+00,1.085944175720214844e+00,1.085883498191833496e+00,1.085822939872741699e+00,1.085762381553649902e+00,1.085701823234558105e+00,1.085641264915466309e+00,1.085580706596374512e+00,1.085520148277282715e+00,1.085459589958190918e+00,1.085399031639099121e+00,1.085338592529296875e+00,1.085278034210205078e+00,1.085217475891113281e+00,1.085157036781311035e+00,1.085096478462219238e+00,1.085036039352416992e+00,1.084975481033325195e+00,1.084915041923522949e+00,1.084854483604431152e+00,1.084794044494628906e+00,1.084733605384826660e+00,1.084673166275024414e+00,1.084612727165222168e+00,1.084552288055419922e+00,1.084491848945617676e+00,1.084431409835815430e+00,1.084370970726013184e+00,1.084310531616210938e+00,1.084250211715698242e+00,1.084189772605895996e+00,1.084129333496093750e+00,1.084069013595581055e+00,1.084008574485778809e+00,1.083948135375976562e+00,1.083887815475463867e+00,1.083827495574951172e+00,1.083767056465148926e+00,1.083706736564636230e+00,1.083646416664123535e+00,1.083586096763610840e+00,1.083525776863098145e+00,1.083465456962585449e+00,1.083405137062072754e+00,1.083344817161560059e+00,1.083284497261047363e+00,1.083224296569824219e+00,1.083163976669311523e+00,1.083103656768798828e+00,1.083043456077575684e+00,1.082983016967773438e+00,1.082922816276550293e+00,1.082862615585327148e+00,1.082802295684814453e+00,1.082742094993591309e+00,1.082681894302368164e+00,1.082621574401855469e+00,1.082561373710632324e+00,1.082501173019409180e+00,1.082440972328186035e+00,1.082380771636962891e+00,1.082320570945739746e+00
1.020998120307922363e+00,1.020944595336914062e+00,1.020891070365905762e+00,1.020837426185607910e+00,1.020783901214599609e+00,1.020730376243591309e+00,1.020676851272583008e+00,1.020623326301574707e+00,1.020569801330566406e+00,1.020516276359558105e+00,1.020462751388549805e+00,1.020409226417541504e+00,1.020355820655822754e+00,1.020302295684814453e+00,1.020248770713806152e+00,1.020195364952087402e+00,1.020141839981079102e+00,1.020088434219360352e+00,1.020034909248352051e+00,1.019981503486633301e+00,1.019927978515625000e+00,1.019874453544616699e+00,1.019821047782897949e+00,1.019767642021179199e+00,1.019714236259460449e+00,1.019660830497741699e+00,1.019607424736022949e+00,1.019554018974304199e+00,1.019500613212585449e+00,1.019447207450866699e+00,1.019393801689147949e+00,1.019340395927429199e+00,1.019286990165710449e+00,1.019233584403991699e+00,1.019180297851562500e+00,1.019126892089843750e+00,1.019073486328125000e+00,1.019020080566406250e+00,1.018966794013977051e+00,1.018913388252258301e+00,1.018860101699829102e+00,1.018806695938110352e+00,1.018753409385681152e+00,1.018700122833251953e+00,1.018646717071533203e+00,1.018593430519104004e+00,1.018540143966674805e+00,1.018486857414245605e+00,1.018433570861816406e+00,1.018380284309387207e+00,1.018326997756958008e+00,1.018273711204528809e+00,1.018220424652099609e+00,1.018167138099670410e+00,1.018113851547241211e+00,1.018060564994812012e+00,1.018007397651672363e+00,1.017954111099243164e+00,1.017900824546813965e+00,1.017847657203674316e+00,1.017794370651245117e+00,1.017741203308105469e+00,1.017688035964965820e+00,1.017634749412536621e+00,1.017581582069396973e+00,1.017528414726257324e+00,1.017475128173828125e+00,1.017421960830688477e+00,1.017368793487548828e+00,1.017315626144409180e+00,1.017262339591979980e+00,1.017209291458129883e+00,1.017156124114990234e+00,1.017102956771850586e+00,1.017049789428710938e+00,1.016996622085571289e+00,1.016943454742431641e+00,1.016890406608581543e+00,1.016837239265441895e+00,1.016784071922302246e+00
9.624769091606140137e-01,9.624293446540832520e-01,9.623817205429077148e-01,9.623341560363769531e-01,9.622864723205566406e-01,9.622388482093811035e-01,9.621912837028503418e-01,9.621437191963195801e-01,9.620962142944335938e-01,9.620486497879028320e-01,9.620010852813720703e-01,9.619535207748413086e-01,9.619060158729553223e-01,9.618584513664245605e-01,9.618109464645385742e-01,9.617633819580078125e-01,9.617158770561218262e-01,9.616683721542358398e-01,9.616208672523498535e-01,9.615733623504638672e-01,9.615258574485778809e-01,9.614783525466918945e-01,9.614308476448059082e-01,9.613833427429199219e-01,9.613358974456787109e-01,9.612883925437927246e-01,9.612408876419067383e-01,9.611934423446655273e-01,9.611459970474243164e-01,9.610984921455383301e-01,9.610510468482971191e-01,9.610036015510559082e-01,9.609561562538146973e-01,9.609087109565734863e-01,9.608612656593322754e-01,9.608138203620910645e-01,9.607663154602050781e-01,9.607188701629638672e-01,9.606714844703674316e-01,9.606240391731262207e-01,9.605766534805297852e-01,9.605292081832885742e-01,9.604818224906921387e-01,9.604344367980957031e-01,9.603870511054992676e-01,9.603396654129028320e-01,9.602922797203063965e-01,9.602448940277099609e-01,9.601975083351135254e-01,9.601501226425170898e-01,9.601027965545654297e-01,9.600554108619689941e-01,9.600080847740173340e-01,9.599606990814208984e-01,9.599133729934692383e-01,9.598660469055175781e-01,9.598187208175659180e-01,9.597713947296142578e-01,9.597240686416625977e-01,9.596767425537109375e-01,9.596294164657592773e-01,9.595820903778076172e-01,9.595347642898559570e-01,9.594874978065490723e-01,9.594401717185974121e-01,9.593929052352905273e-01,9.593455791473388672e-01,9.592983126640319824e-01,9.592509269714355469e-01,9.592036604881286621e-01,9.591563940048217773e-01,9.591091275215148926e-01,9.590618610382080078e-01,9.590145945549011230e-01,9.589673280715942383e-01,9.589201211929321289e-01,9.588728547096252441e-01,9.588256478309631348e-01,9.587783813476562500e-01,9.587311744689941406e-01
9.103005528450012207e-01,9.102579951286315918e-01,9.102154374122619629e-01,9.101728200912475586e-01,9.101302027702331543e-01,9.100876450538635254e-01,9.100450873374938965e-01,9.100025296211242676e-01,9.099599719047546387e-01,9.099174141883850098e-01,9.098749160766601562e-01,9.098323583602905273e-01,9.097898602485656738e-01,9.097473025321960449e-01,9.097048044204711914e-01,9.096622467041015625e-01,9.096197485923767090e-01,9.095772504806518555e-01,9.095347523689270020e-01,9.094922542572021484e-01,9.094497561454772949e-01,9.094072580337524414e-01,9.093647599220275879e-01,9.093222618103027344e-01,9.092797636985778809e-01,9.092373251914978027e-01,9.091948270797729492e-01,9.091523885726928711e-01,9.091098904609680176e-01,9.090674519538879395e-01,9.090249538421630859e-01,9.089825153350830078e-01,9.089400768280029297e-01,9.088976383209228516e-01,9.088551998138427734e-01,9.088127613067626953e-01,9.087702035903930664e-01,9.087277650833129883e-01,9.086853861808776855e-01,9.086429476737976074e-01,9.086005091667175293e-01,9.085581302642822266e-01,9.085156917572021484e-01,9.084733128547668457e-01,9.084308743476867676e-01,9.083884954452514648e-01,9.083461165428161621e-01,9.083037376403808594e-01,9.082612991333007812e-01,9.082189202308654785e-01,9.081765413284301758e-01,9.081341624259948730e-01,9.080918431282043457e-01,9.080494642257690430e-01,9.080070853233337402e-01,9.079647660255432129e-01,9.079223871231079102e-01,9.078800082206726074e-01,9.078376889228820801e-01,9.077953100204467773e-01,9.077529907226562500e-01,9.077106714248657227e-01,9.076683521270751953e-01,9.076259732246398926e-01,9.075836539268493652e-01,9.075413346290588379e-01,9.074990749359130859e-01,9.074567556381225586e-01,9.074143171310424805e-01,9.073719978332519531e-01,9.073297381401062012e-01,9.072874188423156738e-01,9.072451591491699219e-01,9.072028398513793945e-01,9.071605801582336426e-01,9.071182608604431152e-01,9.070760011672973633e-01,9.070337414741516113e-01,9.069914817810058594e-01,9.069492220878601074e-01
