5.000000000000000000e+00,5.000000000000000000e+00,5.000000000000000000e+00,5.000000000000000000e+00,5.000000000000000000e+00,5.000000000000000000e+00,5.000000000000000000e+00,5.000000000000000000e+00,5.000000000000000000e+00,5.000000000000000000e+00,5.000000000000000000e+00,5.000000000000000000e+00,5.000000000000000000e+00,5.000000000000000000e+00,5.000000000000000000e+00,5.000000000000000000e+00,5.000000000000000000e+00,5.000000000000000000e+00,5.000000000000000000e+00,5.000000000000000000e+00,5.000000000000000000e+00,5.000000000000000000e+00,5.000000000000000000e+00,5.000000000000000000e+00,3.067411422729492188e+00,3.081567525863647461e+00,3.084010839462280273e+00,3.083803415298461914e+00,3.082391023635864258e+00,3.114715814590454102e+00,3.159358263015747070e+00,3.297589302062988281e+00,3.346131563186645508e+00,5.000000000000000000e+00,5.000000000000000000e+00,5.000000000000000000e+00,5.000000000000000000e+00,5.000000000000000000e+00,5.000000000000000000e+00,4.850585937500000000e+00,4.660588741302490234e+00,4.484914779663085938e+00,4.322002887725830078e+00,4.170512199401855469e+00,4.029281616210937500e+00,3.897302627563476562e+00,3.773695707321166992e+00,3.657688617706298828e+00,3.548600673675537109e+00,3.445831537246704102e+00,3.348846912384033203e+00,3.257172822952270508e+00,3.170383453369140625e+00,3.088099479675292969e+00,3.009979009628295898e+00,2.935713052749633789e+00,2.865023612976074219e+00,2.797658205032348633e+00,2.733388423919677734e+00,2.672004938125610352e+00,2.613318204879760742e+00,2.557153701782226562e+00,2.503352642059326172e+00,2.451768875122070312e+00,2.402267694473266602e+00,2.354726314544677734e+00,2.309029817581176758e+00,2.265073299407958984e+00,2.222758769989013672e+00,2.181996583938598633e+00,2.142702579498291016e+00,2.104798555374145508e+00,2.068212270736694336e+00,2.032876253128051758e+00,1.998727440834045410e+00,1.965706706047058105e+00,1.933759331703186035e+00,1.902833938598632812e+00,1.872882127761840820e+00,1.843858718872070312e+00
5.000000000000000000e+00,5.000000000000000000e+00,5.000000000000000000e+00,5.000000000000000000e+00,5.000000000000000000e+00,5.000000000000000000e+00,5.000000000000000000e+00,5.000000000000000000e+00,5.000000000000000000e+00,5.000000000000000000e+00,5.000000000000000000e+00,5.000000000000000000e+00,5.000000000000000000e+00,5.000000000000000000e+00,5.000000000000000000e+00,5.000000000000000000e+00,5.000000000000000000e+00,5.000000000000000000e+00,5.000000000000000000e+00,5.000000000000000000e+00,5.000000000000000000e+00,5.000000000000000000e+00,5.000000000000000000e+00,5.000000000000000000e+00,3.064481496810913086e+00,3.071043014526367188e+00,3.095255136489868164e+00,3.080950260162353516e+00,3.086534023284912109e+00,3.109731197357177734e+00,3.158463239669799805e+00,3.296118974685668945e+00,3.360586166381835938e+00,5.000000000000000000e+00,5.000000000000000000e+00,5.000000000000000000e+00,5.000000000000000000e+00,5.000000000000000000e+00,5.000000000000000000e+00,4.850724697113037109e+00,4.660717010498046875e+00,4.485033988952636719e+00,4.322113513946533203e+00,4.170615196228027344e+00,4.029377460479736328e+00,3.897392749786376953e+00,3.773779869079589844e+00,3.657767534255981445e+00,3.548675298690795898e+00,3.445901632308959961e+00,3.348913431167602539e+00,3.257235288619995117e+00,3.170443058013916016e+00,3.088155984878540039e+00,3.010032415390014648e+00,2.935763835906982422e+00,2.865072011947631836e+00,2.797704696655273438e+00,2.733432531356811523e+00,2.672047376632690430e+00,2.613358497619628906e+00,2.557192325592041016e+00,2.503389596939086914e+00,2.451804161071777344e+00,2.402302026748657227e+00,2.354758977890014648e+00,2.309061288833618164e+00,2.265103578567504883e+00,2.222788095474243164e+00,2.182024717330932617e+00,2.142729759216308594e+00,2.104824781417846680e+00,2.068237543106079102e+00,2.032900810241699219e+00,1.998750925064086914e+00,1.965729713439941406e+00,1.933781385421752930e+00,1.902855396270751953e+00,1.872902870178222656e+00,1.843878746032714844e+00
5.000000000000000000e+00,5.000000000000000000e+00,5.000000000000000000e+00,5.000000000000000000e+00,5.000000000000000000e+00,5.000000000000000000e+00,5.000000000000000000e+00,5.000000000000000000e+00,5.000000000000000000e+00,5.000000000000000000e+00,5.000000000000000000e+00,5.000000000000000000e+00,5.000000000000000000e+00,5.000000000000000000e+00,5.000000000000000000e+00,5.000000000000000000e+00,5.000000000000000000e+00,5.000000000000000000e+00,5.000000000000000000e+00,5.000000000000000000e+00,5.000000000000000000e+00,5.000000000000000000e+00,5.000000000000000000e+00,5.000000000000000000e+00,3.065069913864135742e+00,3.073395013809204102e+00,3.109872102737426758e+00,3.082625627517700195e+00,3.089906692504882812e+00,3.113818168640136719e+00,3.160028934478759766e+00,3.299693822860717773e+00,5.000000000000000000e+00,5.000000000000000000e+00,5.000000000000000000e+00,5.000000000000000000e+00,5.000000000000000000e+00,5.000000000000000000e+00,5.000000000000000000e+00,4.850863933563232422e+00,4.660845279693603516e+00,4.485152244567871094e+00,4.322223663330078125e+00,4.170718193054199219e+00,4.029473304748535156e+00,3.897482395172119141e+00,3.773864269256591797e+00,3.657846450805664062e+00,3.548749685287475586e+00,3.445971727371215820e+00,3.348979711532592773e+00,3.257298231124877930e+00,3.170502424240112305e+00,3.088212490081787109e+00,3.010085821151733398e+00,2.935814857482910156e+00,2.865120410919189453e+00,2.797750949859619141e+00,2.733476638793945312e+00,2.672089576721191406e+00,2.613399028778076172e+00,2.557230949401855469e+00,2.503426790237426758e+00,2.451839685440063477e+00,2.402336120605468750e+00,2.354791641235351562e+00,2.309092760086059570e+00,2.265134096145629883e+00,2.222817420959472656e+00,2.182053089141845703e+00,2.142756700515747070e+00,2.104851007461547852e+00,2.068262815475463867e+00,2.032925128936767578e+00,1.998774528503417969e+00,1.965752601623535156e+00,1.933803677558898926e+00,1.902876734733581543e+00,1.872923612594604492e+00,1.843898773193359375e+00
5.000000000000000000e+00,5.000000000000000000e+00,5.000000000000000000e+00,5.000000000000000000e+00,5.000000000000000000e+00,5.000000000000000000e+00,5.000000000000000000e+00,5.000000000000000000e+00,5.000000000000000000e+00,5.000000000000000000e+00,5.000000000000000000e+00,5.000000000000000000e+00,5.000000000000000000e+00,5.000000000000000000e+00,5.000000000000000000e+00,5.000000000000000000e+00,5.000000000000000000e+00,5.000000000000000000e+00,5.000000000000000000e+00,5.000000000000000000e+00,5.000000000000000000e+00,5.000000000000000000e+00,5.000000000000000000e+00,5.000000000000000000e+00,3.063633441925048828e+00,3.084155082702636719e+00,3.094316005706787109e+00,3.070465087890625000e+00,3.081446170806884766e+00,3.113280057907104492e+00,3.147476196289062500e+00,3.318927764892578125e+00,5.000000000000000000e+00,5.000000000000000000e+00,5.000000000000000000e+00,5.000000000000000000e+00,5.000000000000000000e+00,5.000000000000000000e+00,5.000000000000000000e+00,4.851003170013427734e+00,4.660974025726318359e+00,4.485271453857421875e+00,4.322334289550781250e+00,4.170820713043212891e+00,4.029569149017333984e+00,3.897572517395019531e+00,3.773948431015014648e+00,3.657925844192504883e+00,3.548824071884155273e+00,3.446042060852050781e+00,3.349045753479003906e+00,3.257360935211181641e+00,3.170561790466308594e+00,3.088268756866455078e+00,3.010139465332031250e+00,2.935865879058837891e+00,2.865169286727905273e+00,2.797797203063964844e+00,2.733520984649658203e+00,2.672131538391113281e+00,2.613439321517944336e+00,2.557269811630249023e+00,2.503463745117187500e+00,2.451875448226928711e+00,2.402370214462280273e+00,2.354824542999267578e+00,2.309124231338500977e+00,2.265164136886596680e+00,2.222846508026123047e+00,2.182081222534179688e+00,2.142783880233764648e+00,2.104876995086669922e+00,2.068288087844848633e+00,2.032949447631835938e+00,1.998798131942749023e+00,1.965775370597839355e+00,1.933825850486755371e+00,1.902898311614990234e+00,1.872944235801696777e+00,1.843918800354003906e+00
5.000000000000000000e+00,5.000000000000000000e+00,5.000000000000000000e+00,5.000000000000000000e+00,5.000000000000000000e+00,5.000000000000000000e+00,5.000000000000000000e+00,5.000000000000000000e+00,5.000000000000000000e+00,5.000000000000000000e+00,5.000000000000000000e+00,5.000000000000000000e+00,5.000000000000000000e+00,5.000000000000000000e+00,5.000000000000000000e+00,5.000000000000000000e+00,5.000000000000000000e+00,5.000000000000000000e+00,5.000000000000000000e+00,5.000000000000000000e+00,5.000000000000000000e+00,5.000000000000000000e+00,5.000000000000000000e+00,5.000000000000000000e+00,3.028528451919555664e+00,3.044169664382934570e+00,3.085373640060424805e+00,3.080156326293945312e+00,3.089972019195556641e+00,3.114967346191406250e+00,3.158547163009643555e+00,3.332020521163940430e+00,5.000000000000000000e+00,5.000000000000000000e+00,5.000000000000000000e+00,5.000000000000000000e+00,5.000000000000000000e+00,5.000000000000000000e+00,5.000000000000000000e+00,4.851141929626464844e+00,4.661102294921875000e+00,4.485390663146972656e+00,4.322444915771484375e+00,4.170923709869384766e+00,4.029665470123291016e+00,3.897662162780761719e+00,3.774032354354858398e+00,3.658004760742187500e+00,3.548898696899414062e+00,3.446112155914306641e+00,3.349112272262573242e+00,3.257423400878906250e+00,3.170621395111083984e+00,3.088325023651123047e+00,3.010193109512329102e+00,2.935916662216186523e+00,2.865217685699462891e+00,2.797843694686889648e+00,2.733565092086791992e+00,2.672173976898193359e+00,2.613479614257812500e+00,2.557308435440063477e+00,2.503500699996948242e+00,2.451910972595214844e+00,2.402404308319091797e+00,2.354857444763183594e+00,2.309155941009521484e+00,2.265194416046142578e+00,2.222875833511352539e+00,2.182109117507934570e+00,2.142811059951782227e+00,2.104903221130371094e+00,2.068313360214233398e+00,2.032974004745483398e+00,1.998821735382080078e+00,1.965798139572143555e+00,1.933847904205322266e+00,1.902919650077819824e+00,1.872964978218078613e+00,1.843938946723937988e+00
5.000000000000000000e+00,5.000000000000000000e+00,5.000000000000000000e+00,5.000000000000000000e+00,5.000000000000000000e+00,5.000000000000000000e+00,5.000000000000000000e+00,5.000000000000000000e+00,5.000000000000000000e+00,5.000000000000000000e+00,5.000000000000000000e+00,5.000000000000000000e+00,5.000000000000000000e+00,5.000000000000000000e+00,5.000000000000000000e+00,5.000000000000000000e+00,5.000000000000000000e+00,5.000000000000000000e+00,5.000000000000000000e+00,5.000000000000000000e+00,5.000000000000000000e+00,5.000000000000000000e+00,5.000000000000000000e+00,5.000000000000000000e+00,3.003977775573730469e+00,3.008675813674926758e+00,3.080953836441040039e+00,3.081330299377441406e+00,3.097097873687744141e+00,3.128044128417968750e+00,3.184840917587280273e+00,3.320335626602172852e+00,5.000000000000000000e+00,5.000000000000000000e+00,5.000000000000000000e+00,5.000000000000000000e+00,5.000000000000000000e+00,5.000000000000000000e+00,5.000000000000000000e+00,4.851281166076660156e+00,4.661230564117431641e+00,4.485509395599365234e+00,4.322555541992187500e+00,4.171026706695556641e+00,4.029761314392089844e+00,3.897751808166503906e+00,3.774116992950439453e+00,3.658083915710449219e+00,3.548973083496093750e+00,3.446182250976562500e+00,3.349178552627563477e+00,3.257486343383789062e+00,3.170680761337280273e+00,3.088381528854370117e+00,3.010246515274047852e+00,2.935967683792114258e+00,2.865266084671020508e+00,2.797889947891235352e+00,2.733609437942504883e+00,2.672216176986694336e+00,2.613520145416259766e+00,2.557346820831298828e+00,2.503537893295288086e+00,2.451946258544921875e+00,2.402438402175903320e+00,2.354890108108520508e+00,2.309187412261962891e+00,2.265224933624267578e+00,2.222904920578002930e+00,2.182137489318847656e+00,2.142838239669799805e+00,2.104929447174072266e+00,2.068338632583618164e+00,2.032998323440551758e+00,1.998845458030700684e+00,1.965820908546447754e+00,1.933869957923889160e+00,1.902940988540649414e+00,1.872985839843750000e+00,1.843958973884582520e+00
5.000000000000000000e+00,5.000000000000000000e+00,5.000000000000000000e+00,5.000000000000000000e+00,5.000000000000000000e+00,5.000000000000000000e+00,5.000000000000000000e+00,5.000000000000000000e+00,5.000000000000000000e+00,5.000000000000000000e+00,5.000000000000000000e+00,5.000000000000000000e+00,5.000000000000000000e+00,5.000000000000000000e+00,5.000000000000000000e+00,5.000000000000000000e+00,5.000000000000000000e+00,5.000000000000000000e+00,5.000000000000000000e+00,5.000000000000000000e+00,5.000000000000000000e+00,5.000000000000000000e+00,5.000000000000000000e+00,5.000000000000000000e+00,2.982394695281982422e+00,2.966066837310791016e+00,3.081022262573242188e+00,3.085279226303100586e+00,3.135089874267578125e+00,3.139906167984008789e+00,3.114735603332519531e+00,3.318265676498413086e+00,3.362383842468261719e+00,5.000000000000000000e+00,5.000000000000000000e+00,5.000000000000000000e+00,5.000000000000000000e+00,5.000000000000000000e+00,5.000000000000000000e+00,4.851420402526855469e+00,4.661358833312988281e+00,4.485628128051757812e+00,4.322665691375732422e+00,4.171129226684570312e+00,4.029857158660888672e+00,3.897841930389404297e+00,3.774200916290283203e+00,3.658163309097290039e+00,3.549047231674194336e+00,3.446252584457397461e+00,3.349244594573974609e+00,3.257549047470092773e+00,3.170739889144897461e+00,3.088437795639038086e+00,3.010300159454345703e+00,2.936018705368041992e+00,2.865314722061157227e+00,2.797935962677001953e+00,2.733653545379638672e+00,2.672258138656616211e+00,2.613560438156127930e+00,2.557385683059692383e+00,2.503574848175048828e+00,2.451982021331787109e+00,2.402472496032714844e+00,2.354923009872436523e+00,2.309218883514404297e+00,2.265255212783813477e+00,2.222934007644653320e+00,2.182165622711181641e+00,2.142865419387817383e+00,2.104955673217773438e+00,2.068363904953002930e+00,2.033022880554199219e+00,1.998869061470031738e+00,1.965843796730041504e+00,1.933892011642456055e+00,1.902962446212768555e+00,1.873006582260131836e+00,1.843979239463806152e+00
5.000000000000000000e+00,5.000000000000000000e+00,5.000000000000000000e+00,5.000000000000000000e+00,5.000000000000000000e+00,5.000000000000000000e+00,5.000000000000000000e+00,5.000000000000000000e+00,5.000000000000000000e+00,5.000000000000000000e+00,5.000000000000000000e+00,5.000000000000000000e+00,5.000000000000000000e+00,5.000000000000000000e+00,5.000000000000000000e+00,5.000000000000000000e+00,5.000000000000000000e+00,5.000000000000000000e+00,5.000000000000000000e+00,5.000000000000000000e+00,5.000000000000000000e+00,5.000000000000000000e+00,5.000000000000000000e+00,5.000000000000000000e+00,5.000000000000000000e+00,2.935611248016357422e+00,3.078468561172485352e+00,3.086872816085815430e+00,3.145069837570190430e+00,3.091206550598144531e+00,3.083959817886352539e+00,3.130371093750000000e+00,3.322119474411010742e+00,5.000000000000000000e+00,5.000000000000000000e+00,5.000000000000000000e+00,5.000000000000000000e+00,5.000000000000000000e+00,5.000000000000000000e+00,4.851559638977050781e+00,4.661487579345703125e+00,4.485747337341308594e+00,4.322776317596435547e+00,4.171232223510742188e+00,4.029953479766845703e+00,3.897931575775146484e+00,3.774285078048706055e+00,3.658242225646972656e+00,3.549122095108032227e+00,3.446322679519653320e+00,3.349311351776123047e+00,3.257611751556396484e+00,3.170799493789672852e+00,3.088494062423706055e+00,3.010353803634643555e+00,2.936069726943969727e+00,2.865363121032714844e+00,2.797982454299926758e+00,2.733697652816772461e+00,2.672300577163696289e+00,2.613600730895996094e+00,2.557424306869506836e+00,2.503611803054809570e+00,2.452017545700073242e+00,2.402506589889526367e+00,2.354955673217773438e+00,2.309250354766845703e+00,2.265285491943359375e+00,2.222963333129882812e+00,2.182193756103515625e+00,2.142892599105834961e+00,2.104981899261474609e+00,2.068389177322387695e+00,2.033047199249267578e+00,1.998892664909362793e+00,1.965866804122924805e+00,1.933914065361022949e+00,1.902983784675598145e+00,1.873027205467224121e+00,1.843999266624450684e+00
5.000000000000000000e+00,5.000000000000000000e+00,5.000000000000000000e+00,5.000000000000000000e+00,5.000000000000000000e+00,5.000000000000000000e+00,5.000000000000000000e+00,5.000000000000000000e+00,5.000000000000000000e+00,5.000000000000000000e+00,5.000000000000000000e+00,5.000000000000000000e+00,5.000000000000000000e+00,5.000000000000000000e+00,5.000000000000000000e+00,5.000000000000000000e+00,5.000000000000000000e+00,5.000000000000000000e+00,5.000000000000000000e+00,5.000000000000000000e+00,5.000000000000000000e+00,5.000000000000000000e+00,5.000000000000000000e+00,5.000000000000000000e+00,2.949031352996826172e+00,2.896253108978271484e+00,2.919696331024169922e+00,3.092405557632446289e+00,3.144341468811035156e+00,3.090326070785522461e+00,3.065013885498046875e+00,3.087368488311767578e+00,3.318345069885253906e+00,5.000000000000000000e+00,5.000000000000000000e+00,5.000000000000000000e+00,5.000000000000000000e+00,5.000000000000000000e+00,5.000000000000000000e+00,4.851698875427246094e+00,4.661615848541259766e+00,4.485866069793701172e+00,4.322886943817138672e+00,4.171335220336914062e+00,4.030049324035644531e+00,3.898021221160888672e+00,3.774369478225708008e+00,3.658321142196655273e+00,3.549196481704711914e+00,3.446392774581909180e+00,3.349377393722534180e+00,3.257674694061279297e+00,3.170858860015869141e+00,3.088550806045532227e+00,3.010407209396362305e+00,2.936120748519897461e+00,2.865411758422851562e+00,2.798028707504272461e+00,2.733741998672485352e+00,2.672342777252197266e+00,2.613641262054443359e+00,2.557462930679321289e+00,2.503648996353149414e+00,2.452053070068359375e+00,2.402540683746337891e+00,2.354988336563110352e+00,2.309281826019287109e+00,2.265316009521484375e+00,2.222992658615112305e+00,2.182221889495849609e+00,2.142919540405273438e+00,2.105008125305175781e+00,2.068414449691772461e+00,2.033071756362915039e+00,1.998916268348693848e+00,1.965889573097229004e+00,1.933936357498168945e+00,1.903005123138427734e+00,1.873047947883605957e+00,1.844019412994384766e+00
5.000000000000000000e+00,5.000000000000000000e+00,5.000000000000000000e+00,5.000000000000000000e+00,5.000000000000000000e+00,5.000000000000000000e+00,5.000000000000000000e+00,5.000000000000000000e+00,5.000000000000000000e+00,5.000000000000000000e+00,5.000000000000000000e+00,5.000000000000000000e+00,5.000000000000000000e+00,5.000000000000000000e+00,5.000000000000000000e+00,5.000000000000000000e+00,5.000000000000000000e+00,5.000000000000000000e+00,5.000000000000000000e+00,5.000000000000000000e+00,5.000000000000000000e+00,5.000000000000000000e+00,5.000000000000000000e+00,5.000000000000000000e+00,5.000000000000000000e+00,3.198088645935058594e+00,3.101712226867675781e+00,3.104766607284545898e+00,3.158349275588989258e+00,3.088247537612915039e+00,3.041316747665405273e+00,3.043442010879516602e+00,3.286514997482299805e+00,5.000000000000000000e+00,5.000000000000000000e+00,5.000000000000000000e+00,5.000000000000000000e+00,5.000000000000000000e+00,5.000000000000000000e+00,4.851838111877441406e+00,4.661744594573974609e+00,4.485985279083251953e+00,4.322997093200683594e+00,4.171437740325927734e+00,4.030145645141601562e+00,3.898111343383789062e+00,3.774453639984130859e+00,3.658400535583496094e+00,3.549270629882812500e+00,3.446463346481323242e+00,3.349443674087524414e+00,3.257737159729003906e+00,3.170918464660644531e+00,3.088607072830200195e+00,3.010460853576660156e+00,2.936171531677246094e+00,2.865460395812988281e+00,2.798074960708618164e+00,2.733785867691040039e+00,2.672384977340698242e+00,2.613681554794311523e+00,2.557501792907714844e+00,2.503685951232910156e+00,2.452088594436645508e+00,2.402574777603149414e+00,2.355021238327026367e+00,2.309313297271728516e+00,2.265346288681030273e+00,2.223021984100341797e+00,2.182250022888183594e+00,2.142946720123291016e+00,2.105034112930297852e+00,2.068439722061157227e+00,2.033096075057983398e+00,1.998939752578735352e+00,1.965912461280822754e+00,1.933958411216735840e+00,1.903026700019836426e+00,1.873068690299987793e+00,1.844039440155029297e+00
5.000000000000000000e+00,5.000000000000000000e+00,5.000000000000000000e+00,5.000000000000000000e+00,5.000000000000000000e+00,5.000000000000000000e+00,5.000000000000000000e+00,5.000000000000000000e+00,5.000000000000000000e+00,5.000000000000000000e+00,5.000000000000000000e+00,5.000000000000000000e+00,5.000000000000000000e+00,5.000000000000000000e+00,5.000000000000000000e+00,5.000000000000000000e+00,5.000000000000000000e+00,5.000000000000000000e+00,5.000000000000000000e+00,5.000000000000000000e+00,5.000000000000000000e+00,5.000000000000000000e+00,5.000000000000000000e+00,5.000000000000000000e+00,5.000000000000000000e+00,5.000000000000000000e+00,3.117004632949829102e+00,3.118278264999389648e+00,3.172180891036987305e+00,3.105945110321044922e+00,3.019270181655883789e+00,3.022117853164672852e+00,3.275446653366088867e+00,5.000000000000000000e+00,5.000000000000000000e+00,5.000000000000000000e+00,5.000000000000000000e+00,5.000000000000000000e+00,5.000000000000000000e+00,4.851977348327636719e+00,4.661872863769531250e+00,4.486104011535644531e+00,4.323107719421386719e+00,4.171540737152099609e+00,4.030241489410400391e+00,3.898200988769531250e+00,3.774537563323974609e+00,3.658479452133178711e+00,3.549345493316650391e+00,3.446533441543579102e+00,3.349510192871093750e+00,3.257799863815307617e+00,3.170977830886840820e+00,3.088663339614868164e+00,3.010514497756958008e+00,2.936222553253173828e+00,2.865508794784545898e+00,2.798121213912963867e+00,2.733829975128173828e+00,2.672427177429199219e+00,2.613721847534179688e+00,2.557540416717529297e+00,2.503722906112670898e+00,2.452124118804931641e+00,2.402609109878540039e+00,2.355054140090942383e+00,2.309345006942749023e+00,2.265376567840576172e+00,2.223051071166992188e+00,2.182278156280517578e+00,2.142973899841308594e+00,2.105060577392578125e+00,2.068464994430541992e+00,2.033120632171630859e+00,1.998963356018066406e+00,1.965935230255126953e+00,1.933980464935302734e+00,1.903048157691955566e+00,1.873089313507080078e+00,1.844059467315673828e+00
5.000000000000000000e+00,5.000000000000000000e+00,5.000000000000000000e+00,5.000000000000000000e+00,5.000000000000000000e+00,5.000000000000000000e+00,5.000000000000000000e+00,5.000000000000000000e+00,5.000000000000000000e+00,5.000000000000000000e+00,5.000000000000000000e+00,5.000000000000000000e+00,5.000000000000000000e+00,5.000000000000000000e+00,5.000000000000000000e+00,5.000000000000000000e+00,5.000000000000000000e+00,5.000000000000000000e+00,5.000000000000000000e+00,5.000000000000000000e+00,5.000000000000000000e+00,5.000000000000000000e+00,5.000000000000000000e+00,5.000000000000000000e+00,5.000000000000000000e+00,5.000000000000000000e+00,3.131594896316528320e+00,3.130494594573974609e+00,3.196413278579711914e+00,5.000000000000000000e+00,3.013128519058227539e+00,2.996730566024780273e+00,5.000000000000000000e+00,5.000000000000000000e+00,5.000000000000000000e+00,5.000000000000000000e+00,5.000000000000000000e+00,5.000000000000000000e+00,5.000000000000000000e+00,4.852116107940673828e+00,4.662001132965087891e+00,4.486223220825195312e+00,4.323218345642089844e+00,4.171643733978271484e+00,4.030337333679199219e+00,3.898290634155273438e+00,3.774622201919555664e+00,3.658558368682861328e+00,3.549419641494750977e+00,3.446603775024414062e+00,3.349576473236083984e+00,3.257862806320190430e+00,3.171037197113037109e+00,3.088719844818115234e+00,3.010567903518676758e+00,2.936273574829101562e+00,2.865557193756103516e+00,2.798167467117309570e+00,2.733874320983886719e+00,2.672469377517700195e+00,2.613762378692626953e+00,2.557578802108764648e+00,2.503760099411010742e+00,2.452159643173217773e+00,2.402643203735351562e+00,2.355087041854858398e+00,2.309376478195190430e+00,2.265406847000122070e+00,2.223080158233642578e+00,2.182306289672851562e+00,2.143001079559326172e+00,2.105086565017700195e+00,2.068490266799926758e+00,2.033144950866699219e+00,1.998987197875976562e+00,1.965957999229431152e+00,1.934002518653869629e+00,1.903069496154785156e+00,1.873110294342041016e+00,1.844079613685607910e+00
5.000000000000000000e+00,5.000000000000000000e+00,5.000000000000000000e+00,5.000000000000000000e+00,5.000000000000000000e+00,5.000000000000000000e+00,5.000000000000000000e+00,5.000000000000000000e+00,5.000000000000000000e+00,5.000000000000000000e+00,5.000000000000000000e+00,5.000000000000000000e+00,5.000000000000000000e+00,5.000000000000000000e+00,5.000000000000000000e+00,5.000000000000000000e+00,5.000000000000000000e+00,5.000000000000000000e+00,5.000000000000000000e+00,5.000000000000000000e+00,5.000000000000000000e+00,5.000000000000000000e+00,5.000000000000000000e+00,5.000000000000000000e+00,5.000000000000000000e+00,5.000000000000000000e+00,3.161165237426757812e+00,3.140106916427612305e+00,5.000000000000000000e+00,5.000000000000000000e+00,3.011398315429687500e+00,2.989263772964477539e+00,5.000000000000000000e+00,5.000000000000000000e+00,5.000000000000000000e+00,5.000000000000000000e+00,5.000000000000000000e+00,5.000000000000000000e+00,5.000000000000000000e+00,4.852255344390869141e+00,4.662129878997802734e+00,4.486341953277587891e+00,4.323328495025634766e+00,4.171746253967285156e+00,4.030433654785156250e+00,3.898380756378173828e+00,3.774706125259399414e+00,3.658637762069702148e+00,3.549494028091430664e+00,3.446673870086669922e+00,3.349642515182495117e+00,3.257925510406494141e+00,3.171096801757812500e+00,3.088776111602783203e+00,3.010621786117553711e+00,2.936324357986450195e+00,2.865606069564819336e+00,2.798213720321655273e+00,2.733918428421020508e+00,2.672511577606201172e+00,2.613802671432495117e+00,2.557617664337158203e+00,2.503797054290771484e+00,2.452195167541503906e+00,2.402677059173583984e+00,2.355119705200195312e+00,2.309407949447631836e+00,2.265437126159667969e+00,2.223109483718872070e+00,2.182334423065185547e+00,2.143028259277343750e+00,2.105112791061401367e+00,2.068515539169311523e+00,2.033169269561767578e+00,1.999010801315307617e+00,1.965980887413024902e+00,1.934024691581726074e+00,1.903090834617614746e+00,1.873131036758422852e+00,1.844099879264831543e+00
5.000000000000000000e+00,5.000000000000000000e+00,5.000000000000000000e+00,5.000000000000000000e+00,5.000000000000000000e+00,5.000000000000000000e+00,5.000000000000000000e+00,5.000000000000000000e+00,5.000000000000000000e+00,5.000000000000000000e+00,5.000000000000000000e+00,5.000000000000000000e+00,5.000000000000000000e+00,5.000000000000000000e+00,5.000000000000000000e+00,5.000000000000000000e+00,5.000000000000000000e+00,5.000000000000000000e+00,5.000000000000000000e+00,5.000000000000000000e+00,5.000000000000000000e+00,5.000000000000000000e+00,5.000000000000000000e+00,5.000000000000000000e+00,5.000000000000000000e+00,5.000000000000000000e+00,3.196952104568481445e+00,3.152279615402221680e+00,5.000000000000000000e+00,5.000000000000000000e+00,3.028138637542724609e+00,3.001812696456909180e+00,5.000000000000000000e+00,5.000000000000000000e+00,5.000000000000000000e+00,5.000000000000000000e+00,5.000000000000000000e+00,5.000000000000000000e+00,5.000000000000000000e+00,4.852394580841064453e+00,4.662258148193359375e+00,4.486461162567138672e+00,4.323439121246337891e+00,4.171849250793457031e+00,4.030529499053955078e+00,3.898470640182495117e+00,3.774790763854980469e+00,3.658716917037963867e+00,3.549568891525268555e+00,3.446743965148925781e+00,3.349709033966064453e+00,3.257987976074218750e+00,3.171156167984008789e+00,3.088832378387451172e+00,3.010675191879272461e+00,2.936375617980957031e+00,2.865654468536376953e+00,2.798260211944580078e+00,2.733962535858154297e+00,2.672553777694702148e+00,2.613842964172363281e+00,2.557656288146972656e+00,2.503834247589111328e+00,2.452230691909790039e+00,2.402711391448974609e+00,2.355152368545532227e+00,2.309439659118652344e+00,2.265467405319213867e+00,2.223138570785522461e+00,2.182362556457519531e+00,2.143055438995361328e+00,2.105139017105102539e+00,2.068540811538696289e+00,2.033193826675415039e+00,1.999034404754638672e+00,1.966003894805908203e+00,1.934046745300292969e+00,1.903112173080444336e+00,1.873151659965515137e+00,1.844119906425476074e+00
5.000000000000000000e+00,5.000000000000000000e+00,5.000000000000000000e+00,5.000000000000000000e+00,5.000000000000000000e+00,5.000000000000000000e+00,5.000000000000000000e+00,5.000000000000000000e+00,5.000000000000000000e+00,5.000000000000000000e+00,5.000000000000000000e+00,5.000000000000000000e+00,5.000000000000000000e+00,5.000000000000000000e+00,5.000000000000000000e+00,5.000000000000000000e+00,5.000000000000000000e+00,5.000000000000000000e+00,5.000000000000000000e+00,5.000000000000000000e+00,5.000000000000000000e+00,5.000000000000000000e+00,5.000000000000000000e+00,5.000000000000000000e+00,5.000000000000000000e+00,5.000000000000000000e+00,3.209300756454467773e+00,3.189850091934204102e+00,5.000000000000000000e+00,5.000000000000000000e+00,3.046736001968383789e+00,3.021948337554931641e+00,3.099338769912719727e+00,5.000000000000000000e+00,5.000000000000000000e+00,5.000000000000000000e+00,5.000000000000000000e+00,5.000000000000000000e+00,5.000000000000000000e+00,4.852533340454101562e+00,4.662386417388916016e+00,4.486579895019531250e+00,4.323549747467041016e+00,4.171952247619628906e+00,4.030625343322753906e+00,3.898560285568237305e+00,3.774874687194824219e+00,3.658795833587646484e+00,3.549643039703369141e+00,3.446814537048339844e+00,3.349775314331054688e+00,3.258050918579101562e+00,3.171215534210205078e+00,3.088889122009277344e+00,3.010728597640991211e+00,2.936426401138305664e+00,2.865702867507934570e+00,2.798306226730346680e+00,2.734006881713867188e+00,2.672595977783203125e+00,2.613883495330810547e+00,2.557694911956787109e+00,2.503871202468872070e+00,2.452266216278076172e+00,2.402745485305786133e+00,2.355185270309448242e+00,2.309471130371093750e+00,2.265497922897338867e+00,2.223167896270751953e+00,2.182390689849853516e+00,2.143082380294799805e+00,2.105165243148803711e+00,2.068566083908081055e+00,2.033218383789062500e+00,1.999057888984680176e+00,1.966026663780212402e+00,1.934069037437438965e+00,1.903133630752563477e+00,1.873172402381896973e+00,1.844139933586120605e+00
5.000000000000000000e+00,5.000000000000000000e+00,5.000000000000000000e+00,5.000000000000000000e+00,5.000000000000000000e+00,5.000000000000000000e+00,5.000000000000000000e+00,5.000000000000000000e+00,5.000000000000000000e+00,5.000000000000000000e+00,5.000000000000000000e+00,5.000000000000000000e+00,5.000000000000000000e+00,5.000000000000000000e+00,5.000000000000000000e+00,5.000000000000000000e+00,5.000000000000000000e+00,5.000000000000000000e+00,5.000000000000000000e+00,5.000000000000000000e+00,5.000000000000000000e+00,5.000000000000000000e+00,5.000000000000000000e+00,5.000000000000000000e+00,5.000000000000000000e+00,5.000000000000000000e+00,3.237544298171997070e+00,3.248981952667236328e+00,5.000000000000000000e+00,5.000000000000000000e+00,3.051202535629272461e+00,3.024026870727539062e+00,3.099212408065795898e+00,5.000000000000000000e+00,5.000000000000000000e+00,5.000000000000000000e+00,5.000000000000000000e+00,5.000000000000000000e+00,5.000000000000000000e+00,4.852671146392822266e+00,4.662515163421630859e+00,4.486699104309082031e+00,4.323659896850585938e+00,4.172055244445800781e+00,4.030721664428710938e+00,3.898650407791137695e+00,3.774958848953247070e+00,3.658875226974487305e+00,3.549717426300048828e+00,3.446884632110595703e+00,3.349841594696044922e+00,3.258113622665405273e+00,3.171275138854980469e+00,3.088945388793945312e+00,3.010782480239868164e+00,2.936477184295654297e+00,2.865751504898071289e+00,2.798352479934692383e+00,2.734050989151000977e+00,2.672638416290283203e+00,2.613923788070678711e+00,2.557733774185180664e+00,2.503908395767211914e+00,2.452301979064941406e+00,2.402779579162597656e+00,2.355217933654785156e+00,2.309502601623535156e+00,2.265528202056884766e+00,2.223197221755981445e+00,2.182418823242187500e+00,2.143109798431396484e+00,2.105191469192504883e+00,2.068591594696044922e+00,2.033242702484130859e+00,1.999081492424011230e+00,1.966049432754516602e+00,1.934091091156005859e+00,1.903155207633972168e+00,1.873193144798278809e+00,1.844160079956054688e+00
5.000000000000000000e+00,5.000000000000000000e+00,5.000000000000000000e+00,5.000000000000000000e+00,5.000000000000000000e+00,5.000000000000000000e+00,5.000000000000000000e+00,5.000000000000000000e+00,5.000000000000000000e+00,5.000000000000000000e+00,5.000000000000000000e+00,5.000000000000000000e+00,5.000000000000000000e+00,5.000000000000000000e+00,5.000000000000000000e+00,5.000000000000000000e+00,5.000000000000000000e+00,5.000000000000000000e+00,5.000000000000000000e+00,5.000000000000000000e+00,5.000000000000000000e+00,5.000000000000000000e+00,5.000000000000000000e+00,5.000000000000000000e+00,5.000000000000000000e+00,5.000000000000000000e+00,3.264942884445190430e+00,3.284286499023437500e+00,5.000000000000000000e+00,5.000000000000000000e+00,3.052686214447021484e+00,3.021386146545410156e+00,3.092444658279418945e+00,5.000000000000000000e+00,5.000000000000000000e+00,5.000000000000000000e+00,5.000000000000000000e+00,5.000000000000000000e+00,5.000000000000000000e+00,4.852809429168701172e+00,4.662642478942871094e+00,4.486817836761474609e+00,4.323770523071289062e+00,4.172157764434814453e+00,4.030817508697509766e+00,3.898740053176879883e+00,3.775043487548828125e+00,3.658954143524169922e+00,3.549792289733886719e+00,3.446954727172851562e+00,3.349908113479614258e+00,3.258176326751708984e+00,3.171334505081176758e+00,3.089001655578613281e+00,3.010835886001586914e+00,2.936528444290161133e+00,2.865800142288208008e+00,2.798398971557617188e+00,2.734095096588134766e+00,2.672680616378784180e+00,2.613964080810546875e+00,2.557772397994995117e+00,2.503945589065551758e+00,2.452337265014648438e+00,2.402813673019409180e+00,2.355250835418701172e+00,2.309534072875976562e+00,2.265558481216430664e+00,2.223226308822631836e+00,2.182446956634521484e+00,2.143136739730834961e+00,2.105217695236206055e+00,2.068616867065429688e+00,2.033267259597778320e+00,1.999105095863342285e+00,1.966072320938110352e+00,1.934113144874572754e+00,1.903176546096801758e+00,1.873214006423950195e+00,1.844180107116699219e+00
5.000000000000000000e+00,5.000000000000000000e+00,5.000000000000000000e+00,5.000000000000000000e+00,5.000000000000000000e+00,5.000000000000000000e+00,5.000000000000000000e+00,5.000000000000000000e+00,5.000000000000000000e+00,5.000000000000000000e+00,5.000000000000000000e+00,5.000000000000000000e+00,5.000000000000000000e+00,5.000000000000000000e+00,5.000000000000000000e+00,5.000000000000000000e+00,5.000000000000000000e+00,5.000000000000000000e+00,5.000000000000000000e+00,5.000000000000000000e+00,5.000000000000000000e+00,5.000000000000000000e+00,5.000000000000000000e+00,5.000000000000000000e+00,5.000000000000000000e+00,5.000000000000000000e+00,3.292425394058227539e+00,3.307456254959106445e+00,5.000000000000000000e+00,5.000000000000000000e+00,5.000000000000000000e+00,3.018704414367675781e+00,3.091541528701782227e+00,5.000000000000000000e+00,5.000000000000000000e+00,5.000000000000000000e+00,5.000000000000000000e+00,5.000000000000000000e+00,5.000000000000000000e+00,4.852947711944580078e+00,4.662769794464111328e+00,4.486936092376708984e+00,4.323881149291992188e+00,4.172260761260986328e+00,4.030913352966308594e+00,3.898829698562622070e+00,3.775127410888671875e+00,3.659033298492431641e+00,3.549866676330566406e+00,3.447025060653686523e+00,3.349974393844604492e+00,3.258239269256591797e+00,3.171393871307373047e+00,3.089058160781860352e+00,3.010889291763305664e+00,2.936579227447509766e+00,2.865848779678344727e+00,2.798445224761962891e+00,2.734139442443847656e+00,2.672722816467285156e+00,2.614004611968994141e+00,2.557810783386230469e+00,2.503982543945312500e+00,2.452372789382934570e+00,2.402847766876220703e+00,2.355283737182617188e+00,2.309565544128417969e+00,2.265588760375976562e+00,2.223255395889282227e+00,2.182475328445434570e+00,2.143163919448852539e+00,2.105243921279907227e+00,2.068642139434814453e+00,2.033291578292846680e+00,1.999128937721252441e+00,1.966095089912414551e+00,1.934135198593139648e+00,1.903197884559631348e+00,1.873234748840332031e+00,1.844200134277343750e+00
5.000000000000000000e+00,5.000000000000000000e+00,5.000000000000000000e+00,5.000000000000000000e+00,5.000000000000000000e+00,5.000000000000000000e+00,5.000000000000000000e+00,5.000000000000000000e+00,5.000000000000000000e+00,5.000000000000000000e+00,5.000000000000000000e+00,5.000000000000000000e+00,5.000000000000000000e+00,5.000000000000000000e+00,5.000000000000000000e+00,5.000000000000000000e+00,5.000000000000000000e+00,5.000000000000000000e+00,5.000000000000000000e+00,5.000000000000000000e+00,5.000000000000000000e+00,5.000000000000000000e+00,5.000000000000000000e+00,5.000000000000000000e+00,5.000000000000000000e+00,5.000000000000000000e+00,3.322303533554077148e+00,3.333067655563354492e+00,5.000000000000000000e+00,5.000000000000000000e+00,5.000000000000000000e+00,3.017058849334716797e+00,5.000000000000000000e+00,5.000000000000000000e+00,5.000000000000000000e+00,5.000000000000000000e+00,5.000000000000000000e+00,5.000000000000000000e+00,5.000000000000000000e+00,4.853085994720458984e+00,4.662897586822509766e+00,4.487054347991943359e+00,4.323990821838378906e+00,4.172363758087158203e+00,4.031009674072265625e+00,3.898919820785522461e+00,3.775211572647094727e+00,3.659112691879272461e+00,3.549941062927246094e+00,3.447095155715942383e+00,3.350040435791015625e+00,3.258301973342895508e+00,3.171453475952148438e+00,3.089114427566528320e+00,3.010943174362182617e+00,2.936630249023437500e+00,2.865897178649902344e+00,2.798491477966308594e+00,2.734183549880981445e+00,2.672765016555786133e+00,2.614044904708862305e+00,2.557849645614624023e+00,2.504019498825073242e+00,2.452408552169799805e+00,2.402881860733032227e+00,2.355316400527954102e+00,2.309597015380859375e+00,2.265619039535522461e+00,2.223284721374511719e+00,2.182503461837768555e+00,2.143191099166870117e+00,2.105269908905029297e+00,2.068667411804199219e+00,2.033315896987915039e+00,1.999152541160583496e+00,1.966118097305297852e+00,1.934157252311706543e+00,1.903219342231750488e+00,1.873255372047424316e+00,1.844220399856567383e+00
5.000000000000000000e+00,5.000000000000000000e+00,5.000000000000000000e+00,5.000000000000000000e+00,5.000000000000000000e+00,5.000000000000000000e+00,5.000000000000000000e+00,5.000000000000000000e+00,5.000000000000000000e+00,5.000000000000000000e+00,5.000000000000000000e+00,5.000000000000000000e+00,5.000000000000000000e+00,5.000000000000000000e+00,5.000000000000000000e+00,5.000000000000000000e+00,5.000000000000000000e+00,5.000000000000000000e+00,5.000000000000000000e+00,5.000000000000000000e+00,5.000000000000000000e+00,5.000000000000000000e+00,5.000000000000000000e+00,5.000000000000000000e+00,5.000000000000000000e+00,5.000000000000000000e+00,3.354476690292358398e+00,3.361330509185791016e+00,5.000000000000000000e+00,5.000000000000000000e+00,5.000000000000000000e+00,3.018231868743896484e+00,5.000000000000000000e+00,5.000000000000000000e+00,5.000000000000000000e+00,5.000000000000000000e+00,5.000000000000000000e+00,5.000000000000000000e+00,5.000000000000000000e+00,4.853223800659179688e+00,4.663025379180908203e+00,4.487172603607177734e+00,4.324100971221923828e+00,4.172466754913330078e+00,4.031105518341064453e+00,3.899009704589843750e+00,3.775296211242675781e+00,3.659191608428955078e+00,3.550015687942504883e+00,3.447165250778198242e+00,3.350107192993164062e+00,3.258364439010620117e+00,3.171512842178344727e+00,3.089171171188354492e+00,3.010996580123901367e+00,2.936681270599365234e+00,2.865945816040039062e+00,2.798537731170654297e+00,2.734227657318115234e+00,2.672807216644287109e+00,2.614085197448730469e+00,2.557888269424438477e+00,2.504056692123413086e+00,2.452444076538085938e+00,2.402916193008422852e+00,2.355349063873291016e+00,2.309628725051879883e+00,2.265649318695068359e+00,2.223314046859741211e+00,2.182531595230102539e+00,2.143218278884887695e+00,2.105296373367309570e+00,2.068692684173583984e+00,2.033340454101562500e+00,1.999176144599914551e+00,1.966140985488891602e+00,1.934179425239562988e+00,1.903240680694580078e+00,1.873276114463806152e+00,1.844240546226501465e+00
4.875079631805419922e+00,4.873868942260742188e+00,4.872659206390380859e+00,4.871449470520019531e+00,4.870240688323974609e+00,4.869032859802246094e+00,4.867825031280517578e+00,4.866618156433105469e+00,4.865411758422851562e+00,4.864205837249755859e+00,4.863000392913818359e+00,4.861795902252197266e+00,4.860592365264892578e+00,4.859388828277587891e+00,4.858186244964599609e+00,4.856983661651611328e+00,4.855782032012939453e+00,4.854580879211425781e+00,4.853380680084228516e+00,4.852180957794189453e+00,4.850981712341308594e+00,4.849782943725585938e+00,4.848585128784179688e+00,4.847387313842773438e+00,4.846190929412841797e+00,4.844994544982910156e+00,3.393331766128540039e+00,3.390751838684082031e+00,4.841409206390380859e+00,4.840215206146240234e+00,4.839021682739257812e+00,3.028841257095336914e+00,4.836636543273925781e+00,4.835444927215576172e+00,4.834254264831542969e+00,4.833063602447509766e+00,4.831873893737792969e+00,4.830684661865234375e+00,4.829495906829833984e+00,4.828308105468750000e+00,4.663152694702148438e+00,4.487290382385253906e+00,4.324210643768310547e+00,4.172568798065185547e+00,4.031201839447021484e+00,3.899099349975585938e+00,3.775380134582519531e+00,3.659270524978637695e+00,3.550090074539184570e+00,3.447235822677612305e+00,3.350173234939575195e+00,3.258427381515502930e+00,3.171572208404541016e+00,3.089227437973022461e+00,3.011050224304199219e+00,2.936732292175292969e+00,2.865994453430175781e+00,2.798583984375000000e+00,2.734272003173828125e+00,2.672849416732788086e+00,2.614125728607177734e+00,2.557926893234252930e+00,2.504093647003173828e+00,2.452479600906372070e+00,2.402950286865234375e+00,2.355381965637207031e+00,2.309660196304321289e+00,2.265679836273193359e+00,2.223343133926391602e+00,2.182559728622436523e+00,2.143245458602905273e+00,2.105322360992431641e+00,2.068717956542968750e+00,2.033364772796630859e+00,1.999199628829956055e+00,1.966163754463195801e+00,1.934201717376708984e+00,1.903262019157409668e+00,1.873296856880187988e+00,1.844260573387145996e+00
3.777906894683837891e+00,3.777179956436157227e+00,3.776453018188476562e+00,3.775726556777954102e+00,3.775000572204589844e+00,3.774274349212646484e+00,3.773549079895019531e+00,3.772823333740234375e+00,3.772098541259765625e+00,3.771373510360717773e+00,3.770648956298828125e+00,3.769924879074096680e+00,3.769200801849365234e+00,3.768477201461791992e+00,3.767753601074218750e+00,3.767030477523803711e+00,3.766307830810546875e+00,3.765584945678710938e+00,3.764863014221191406e+00,3.764140844345092773e+00,3.763418912887573242e+00,3.762697696685791016e+00,3.761976242065429688e+00,3.761255502700805664e+00,3.760534763336181641e+00,3.759814739227294922e+00,3.362552404403686523e+00,3.323023557662963867e+00,3.757655143737792969e+00,3.756935596466064453e+00,3.756216764450073242e+00,3.021568059921264648e+00,2.904865980148315430e+00,2.907778024673461914e+00,3.753343343734741211e+00,3.752625942230224609e+00,3.751908540725708008e+00,3.751191616058349609e+00,3.750474691390991211e+00,3.749758005142211914e+00,3.749042034149169922e+00,3.748325824737548828e+00,3.747610330581665039e+00,3.746894836425781250e+00,3.746179342269897461e+00,3.745464801788330078e+00,3.744750022888183594e+00,3.659350156784057617e+00,3.550164461135864258e+00,3.447305917739868164e+00,3.350239992141723633e+00,3.258490085601806641e+00,3.171631813049316406e+00,3.089283704757690430e+00,3.011103868484497070e+00,2.936783075332641602e+00,2.866042852401733398e+00,2.798630237579345703e+00,2.734316110610961914e+00,2.672891855239868164e+00,2.614166259765625000e+00,2.557965755462646484e+00,2.504130601882934570e+00,2.452515125274658203e+00,2.402984380722045898e+00,2.355414867401123047e+00,2.309691905975341797e+00,2.265710115432739258e+00,2.223372459411621094e+00,2.182587862014770508e+00,2.143272638320922852e+00,2.105348587036132812e+00,2.068743228912353516e+00,2.033389329910278320e+00,1.999223232269287109e+00,1.966186523437500000e+00,1.934223771095275879e+00,1.903283596038818359e+00,1.873317599296569824e+00,1.844280600547790527e+00
3.083861112594604492e+00,3.083376884460449219e+00,3.082892417907714844e+00,3.082408189773559570e+00,3.081924200057983398e+00,3.081440448760986328e+00,3.080956697463989258e+00,3.080473184585571289e+00,3.079989910125732422e+00,3.079506635665893555e+00,3.079023361206054688e+00,3.078540563583374023e+00,3.078057527542114258e+00,3.077575206756591797e+00,3.077092647552490234e+00,3.076610088348388672e+00,3.076128005981445312e+00,3.075645923614501953e+00,3.075164079666137695e+00,3.074682235717773438e+00,3.074200630187988281e+00,3.073719263076782227e+00,3.073237895965576172e+00,3.072757005691528320e+00,3.072275876998901367e+00,3.071795225143432617e+00,3.071314334869384766e+00,3.070833683013916016e+00,3.070353507995605469e+00,3.069873094558715820e+00,3.069393157958984375e+00,3.068913221359252930e+00,3.068433284759521484e+00,3.067953824996948242e+00,3.067474126815795898e+00,3.066995143890380859e+00,3.066515684127807617e+00,3.066036939620971680e+00,3.065557956695556641e+00,3.065079212188720703e+00,3.064600706100463867e+00,3.064122200012207031e+00,3.063644170761108398e+00,3.063165903091430664e+00,3.062687635421752930e+00,3.062210083007812500e+00,3.061732292175292969e+00,3.061254978179931641e+00,3.060777425765991211e+00,3.060300350189208984e+00,3.059823036193847656e+00,3.059345960617065430e+00,3.058869361877441406e+00,3.058392524719238281e+00,3.011157512664794922e+00,2.936834335327148438e+00,2.866091251373291016e+00,2.798676729202270508e+00,2.734360218048095703e+00,2.672933816909790039e+00,2.614206552505493164e+00,2.558004379272460938e+00,2.504167795181274414e+00,2.452550649642944336e+00,2.403018474578857422e+00,2.355447530746459961e+00,2.309723377227783203e+00,2.265740394592285156e+00,2.223401546478271484e+00,2.182615995407104492e+00,2.143299579620361328e+00,2.105374813079833984e+00,2.068768501281738281e+00,2.033413887023925781e+00,1.999246835708618164e+00,1.966209411621093750e+00,1.934245824813842773e+00,1.903305053710937500e+00,1.873338460922241211e+00,1.844300746917724609e+00
2.605246782302856445e+00,2.604901075363159180e+00,2.604555368423461914e+00,2.604209661483764648e+00,2.603864431381225586e+00,2.603518962860107422e+00,2.603173732757568359e+00,2.602828264236450195e+00,2.602483272552490234e+00,2.602138280868530273e+00,2.601793289184570312e+00,2.601448535919189453e+00,2.601103544235229492e+00,2.600759029388427734e+00,2.600414514541625977e+00,2.600069761276245117e+00,2.599725484848022461e+00,2.599381208419799805e+00,2.599037170410156250e+00,2.598692893981933594e+00,2.598348855972290039e+00,2.598005056381225586e+00,2.597661018371582031e+00,2.597317457199096680e+00,2.596973657608032227e+00,2.596630096435546875e+00,2.596286535263061523e+00,2.595943212509155273e+00,2.595599889755249023e+00,2.595256567001342773e+00,2.594913721084594727e+00,2.594570636749267578e+00,2.594227552413940430e+00,2.593884706497192383e+00,2.593541860580444336e+00,2.593199491500854492e+00,2.592856645584106445e+00,2.592514276504516602e+00,2.592171907424926758e+00,2.591829538345336914e+00,2.591487407684326172e+00,2.591145277023315430e+00,2.590803384780883789e+00,2.590461254119873047e+00,2.590119361877441406e+00,2.589777708053588867e+00,2.589436054229736328e+00,2.589094400405883789e+00,2.588752985000610352e+00,2.588411569595336914e+00,2.588070154190063477e+00,2.587728977203369141e+00,2.587388038635253906e+00,2.587046861648559570e+00,2.586705923080444336e+00,2.586364984512329102e+00,2.586024284362792969e+00,2.585683584213256836e+00,2.585342884063720703e+00,2.585002660751342773e+00,2.584662199020385742e+00,2.558043003082275391e+00,2.504204988479614258e+00,2.452586412429809570e+00,2.403052568435668945e+00,2.355480432510375977e+00,2.309754848480224609e+00,2.265770912170410156e+00,2.223430871963500977e+00,2.182644128799438477e+00,2.143326759338378906e+00,2.105401039123535156e+00,2.068794012069702148e+00,2.033438205718994141e+00,1.999270677566528320e+00,1.966232180595397949e+00,1.934267878532409668e+00,1.903326392173767090e+00,1.873359203338623047e+00,1.844321012496948242e+00
2.255264282226562500e+00,2.255003929138183594e+00,2.254743576049804688e+00,2.254483461380004883e+00,2.254223108291625977e+00,2.253962993621826172e+00,2.253702878952026367e+00,2.253443002700805664e+00,2.253182888031005859e+00,2.252923011779785156e+00,2.252663373947143555e+00,2.252403497695922852e+00,2.252143859863281250e+00,2.251884222030639648e+00,2.251624584197998047e+00,2.251364946365356445e+00,2.251105546951293945e+00,2.250846385955810547e+00,2.250586986541748047e+00,2.250327587127685547e+00,2.250068426132202148e+00,2.249809265136718750e+00,2.249550104141235352e+00,2.249291181564331055e+00,2.249032974243164062e+00,2.248775243759155273e+00,2.248517751693725586e+00,2.248260021209716797e+00,2.248002529144287109e+00,2.247745037078857422e+00,2.247487783432006836e+00,2.247230291366577148e+00,2.246973037719726562e+00,2.246716022491455078e+00,2.246458768844604492e+00,2.246201753616333008e+00,2.245944738388061523e+00,2.245687723159790039e+00,2.245430707931518555e+00,2.245173931121826172e+00,2.244917154312133789e+00,2.244660377502441406e+00,2.244403600692749023e+00,2.244147062301635742e+00,2.243890523910522461e+00,2.243633985519409180e+00,2.243377447128295898e+00,2.243121147155761719e+00,2.242864847183227539e+00,2.242608547210693359e+00,2.242352247238159180e+00,2.242096185684204102e+00,2.241840124130249023e+00,2.241584062576293945e+00,2.241328239440917969e+00,2.241072177886962891e+00,2.240816116333007812e+00,2.240560531616210938e+00,2.240304708480834961e+00,2.240049123764038086e+00,2.239793300628662109e+00,2.239537954330444336e+00,2.239282369613647461e+00,2.239026784896850586e+00,2.238771438598632812e+00,2.238516092300415039e+00,2.238260984420776367e+00,2.238005638122558594e+00,2.223460197448730469e+00,2.182672262191772461e+00,2.143353939056396484e+00,2.105427265167236328e+00,2.068819284439086914e+00,2.033462524414062500e+00,1.999294281005859375e+00,1.966255187988281250e+00,1.934289932250976562e+00,1.903347730636596680e+00,1.873379945755004883e+00,1.844341039657592773e+00
1.988231897354125977e+00,1.988029479980468750e+00,1.987827181816101074e+00,1.987625122070312500e+00,1.987422823905944824e+00,1.987220644950866699e+00,1.987018465995788574e+00,1.986816406250000000e+00,1.986614227294921875e+00,1.986412286758422852e+00,1.986210227012634277e+00,1.986008286476135254e+00,1.985806345939636230e+00,1.985604524612426758e+00,1.985402584075927734e+00,1.985200881958007812e+00,1.984999060630798340e+00,1.984797596931457520e+00,1.984595894813537598e+00,1.984394192695617676e+00,1.984192609786987305e+00,1.983991146087646484e+00,1.983789563179016113e+00,1.983588099479675293e+00,1.983386754989624023e+00,1.983185291290283203e+00,1.982983946800231934e+00,1.982782602310180664e+00,1.982581377029418945e+00,1.982380151748657227e+00,1.982179164886474609e+00,1.981978058815002441e+00,1.981776952743530273e+00,1.981575846672058105e+00,1.981374859809875488e+00,1.981173872947692871e+00,1.980972886085510254e+00,1.980772018432617188e+00,1.980571150779724121e+00,1.980370402336120605e+00,1.980169534683227539e+00,1.979968786239624023e+00,1.979768157005310059e+00,1.979567646980285645e+00,1.979367017745971680e+00,1.979166507720947266e+00,1.978965997695922852e+00,1.978765487670898438e+00,1.978564977645874023e+00,1.978364586830139160e+00,1.978164196014404297e+00,1.977963924407958984e+00,1.977763533592224121e+00,1.977563261985778809e+00,1.977363109588623047e+00,1.977162957191467285e+00,1.976963043212890625e+00,1.976762890815734863e+00,1.976562857627868652e+00,1.976362824440002441e+00,1.976162910461425781e+00,1.975962996482849121e+00,1.975763082504272461e+00,1.975563168525695801e+00,1.975363373756408691e+00,1.975163698196411133e+00,1.974963903427124023e+00,1.974764227867126465e+00,1.974564552307128906e+00,1.974364995956420898e+00,1.974165678024291992e+00,1.973966121673583984e+00,1.973766565322875977e+00,1.973567128181457520e+00,1.973367810249328613e+00,1.966278076171875000e+00,1.934312343597412109e+00,1.903369188308715820e+00,1.873400568962097168e+00,1.844361186027526855e+00
1.777740478515625000e+00,1.777578711509704590e+00,1.777416944503784180e+00,1.777255177497863770e+00,1.777093529701232910e+00,1.776931762695312500e+00,1.776770114898681641e+00,1.776608586311340332e+00,1.776446938514709473e+00,1.776285409927368164e+00,1.776124000549316406e+00,1.775962591171264648e+00,1.775801062583923340e+00,1.775639653205871582e+00,1.775478243827819824e+00,1.775316834449768066e+00,1.775155425071716309e+00,1.774994134902954102e+00,1.774832844734191895e+00,1.774671554565429688e+00,1.774510383605957031e+00,1.774349093437194824e+00,1.774187922477722168e+00,1.774026989936828613e+00,1.773865818977355957e+00,1.773704767227172852e+00,1.773543715476989746e+00,1.773382663726806641e+00,1.773221611976623535e+00,1.773060679435729980e+00,1.772899746894836426e+00,1.772738814353942871e+00,1.772577881813049316e+00,1.772417068481445312e+00,1.772256255149841309e+00,1.772095441818237305e+00,1.771934628486633301e+00,1.771774053573608398e+00,1.771613359451293945e+00,1.771452665328979492e+00,1.771292090415954590e+00,1.771131396293640137e+00,1.770970821380615234e+00,1.770810246467590332e+00,1.770649671554565430e+00,1.770489215850830078e+00,1.770328760147094727e+00,1.770168304443359375e+00,1.770007848739624023e+00,1.769847393035888672e+00,1.769687294960021973e+00,1.769526958465576172e+00,1.769366621971130371e+00,1.769206285476684570e+00,1.769046068191528320e+00,1.768885850906372070e+00,1.768725633621215820e+00,1.768565535545349121e+00,1.768405437469482422e+00,1.768245339393615723e+00,1.768085241317749023e+00,1.767925143241882324e+00,1.767765164375305176e+00,1.767605304718017578e+00,1.767445445060729980e+00,1.767285466194152832e+00,1.767125606536865234e+00,1.766965746879577637e+00,1.766805887222290039e+00,1.766646027565002441e+00,1.766486287117004395e+00,1.766326546669006348e+00,1.766166806221008301e+00,1.766007065773010254e+00,1.765847444534301758e+00,1.765687823295593262e+00,1.765528321266174316e+00,1.765368819236755371e+00,1.765209317207336426e+00,1.765049695968627930e+00
1.607551097869873047e+00,1.607418775558471680e+00,1.607286453247070312e+00,1.607154369354248047e+00,1.607022166252136230e+00,1.606889963150024414e+00,1.606757760047912598e+00,1.606625556945800781e+00,1.606493353843688965e+00,1.606361269950866699e+00,1.606229186058044434e+00,1.606097102165222168e+00,1.605965018272399902e+00,1.605832934379577637e+00,1.605700969696044922e+00,1.605569005012512207e+00,1.605437040328979492e+00,1.605305194854736328e+00,1.605173230171203613e+00,1.605041384696960449e+00,1.604909420013427734e+00,1.604777574539184570e+00,1.604645729064941406e+00,1.604513883590698242e+00,1.604382157325744629e+00,1.604250311851501465e+00,1.604118585586547852e+00,1.603986859321594238e+00,1.603855133056640625e+00,1.603723406791687012e+00,1.603591918945312500e+00,1.603460192680358887e+00,1.603328585624694824e+00,1.603196978569030762e+00,1.603065371513366699e+00,1.602933883666992188e+00,1.602802276611328125e+00,1.602670788764953613e+00,1.602539300918579102e+00,1.602407813072204590e+00,1.602276325225830078e+00,1.602144956588745117e+00,1.602013468742370605e+00,1.601882219314575195e+00,1.601750850677490234e+00,1.601619601249694824e+00,1.601488232612609863e+00,1.601356863975524902e+00,1.601225614547729492e+00,1.601094365119934082e+00,1.600963115692138672e+00,1.600831866264343262e+00,1.600700736045837402e+00,1.600569605827331543e+00,1.600438356399536133e+00,1.600307226181030273e+00,1.600176334381103516e+00,1.600045204162597656e+00,1.599914073944091797e+00,1.599783062934875488e+00,1.599652051925659180e+00,1.599521040916442871e+00,1.599390029907226562e+00,1.599259138107299805e+00,1.599128127098083496e+00,1.598997235298156738e+00,1.598866343498229980e+00,1.598735451698303223e+00,1.598604559898376465e+00,1.598473787307739258e+00,1.598343133926391602e+00,1.598212361335754395e+00,1.598081588745117188e+00,1.597950816154479980e+00,1.597820043563842773e+00,1.597689390182495117e+00,1.597558736801147461e+00,1.597428083419799805e+00,1.597297430038452148e+00,1.597166776657104492e+00
1.467100381851196289e+00,1.466990232467651367e+00,1.466880083084106445e+00,1.466769933700561523e+00,1.466659784317016602e+00,1.466549634933471680e+00,1.466439485549926758e+00,1.466329455375671387e+00,1.466219305992126465e+00,1.466109275817871094e+00,1.465999364852905273e+00,1.465889334678649902e+00,1.465779304504394531e+00,1.465669274330139160e+00,1.465559363365173340e+00,1.465449333190917969e+00,1.465339422225952148e+00,1.465229511260986328e+00,1.465119600296020508e+00,1.465009689331054688e+00,1.464899778366088867e+00,1.464789867401123047e+00,1.464680075645446777e+00,1.464570403099060059e+00,1.464460611343383789e+00,1.464350700378417969e+00,1.464241027832031250e+00,1.464131236076354980e+00,1.464021444320678711e+00,1.463911771774291992e+00,1.463801980018615723e+00,1.463692307472229004e+00,1.463582634925842285e+00,1.463472962379455566e+00,1.463363289833068848e+00,1.463253617286682129e+00,1.463144063949584961e+00,1.463034629821777344e+00,1.462924957275390625e+00,1.462815403938293457e+00,1.462705850601196289e+00,1.462596297264099121e+00,1.462486863136291504e+00,1.462377309799194336e+00,1.462267875671386719e+00,1.462158322334289551e+00,1.462048888206481934e+00,1.461939454078674316e+00,1.461830019950866699e+00,1.461720705032348633e+00,1.461611390113830566e+00,1.461502075195312500e+00,1.461392641067504883e+00,1.461283326148986816e+00,1.461174011230468750e+00,1.461064696311950684e+00,1.460955381393432617e+00,1.460846185684204102e+00,1.460736870765686035e+00,1.460627675056457520e+00,1.460518479347229004e+00,1.460409283638000488e+00,1.460300087928771973e+00,1.460191011428833008e+00,1.460081815719604492e+00,1.459972739219665527e+00,1.459863543510437012e+00,1.459754467010498047e+00,1.459645390510559082e+00,1.459536314010620117e+00,1.459427237510681152e+00,1.459318161010742188e+00,1.459209203720092773e+00,1.459100127220153809e+00,1.458991169929504395e+00,1.458882212638854980e+00,1.458773374557495117e+00,1.458664417266845703e+00,1.458555459976196289e+00,1.458446502685546875e+00
1.349219918251037598e+00,1.349126696586608887e+00,1.349033474922180176e+00,1.348940372467041016e+00,1.348847270011901855e+00,1.348754167556762695e+00,1.348660945892333984e+00,1.348567843437194824e+00,1.348474740982055664e+00,1.348381638526916504e+00,1.348288536071777344e+00,1.348195552825927734e+00,1.348102450370788574e+00,1.348009467124938965e+00,1.347916364669799805e+00,1.347823381423950195e+00,1.347730398178100586e+00,1.347637414932250977e+00,1.347544550895690918e+00,1.347451567649841309e+00,1.347358584403991699e+00,1.347265720367431641e+00,1.347172737121582031e+00,1.347079873085021973e+00,1.346986889839172363e+00,1.346894025802612305e+00,1.346801161766052246e+00,1.346708297729492188e+00,1.346615433692932129e+00,1.346522569656372070e+00,1.346429944038391113e+00,1.346337080001831055e+00,1.346244215965270996e+00,1.346151471138000488e+00,1.346058726310729980e+00,1.345965981483459473e+00,1.345873236656188965e+00,1.345780491828918457e+00,1.345687747001647949e+00,1.345595002174377441e+00,1.345502376556396484e+00,1.345409631729125977e+00,1.345317006111145020e+00,1.345224380493164062e+00,1.345131754875183105e+00,1.345039129257202148e+00,1.344946503639221191e+00,1.344853878021240234e+00,1.344761252403259277e+00,1.344668745994567871e+00,1.344576120376586914e+00,1.344483613967895508e+00,1.344390988349914551e+00,1.344298481941223145e+00,1.344205975532531738e+00,1.344113469123840332e+00,1.344021081924438477e+00,1.343928575515747070e+00,1.343836188316345215e+00,1.343743681907653809e+00,1.343651294708251953e+00,1.343558788299560547e+00,1.343466401100158691e+00,1.343374013900756836e+00,1.343281626701354980e+00,1.343189239501953125e+00,1.343096852302551270e+00,1.343004465103149414e+00,1.342912197113037109e+00,1.342819809913635254e+00,1.342727541923522949e+00,1.342635273933410645e+00,1.342543005943298340e+00,1.342450737953186035e+00,1.342358469963073730e+00,1.342266201972961426e+00,1.342173933982849121e+00,1.342081785202026367e+00,1.341989517211914062e+00,1.341897368431091309e+00
1.248873829841613770e+00,1.248793959617614746e+00,1.248714089393615723e+00,1.248634338378906250e+00,1.248554468154907227e+00,1.248474717140197754e+00,1.248394846916198730e+00,1.248315095901489258e+00,1.248235344886779785e+00,1.248155474662780762e+00,1.248075842857360840e+00,1.247996091842651367e+00,1.247916340827941895e+00,1.247836589813232422e+00,1.247756958007812500e+00,1.247677206993103027e+00,1.247597575187683105e+00,1.247517824172973633e+00,1.247438192367553711e+00,1.247358441352844238e+00,1.247278809547424316e+00,1.247199177742004395e+00,1.247119545936584473e+00,1.247040033340454102e+00,1.246960401535034180e+00,1.246880769729614258e+00,1.246801137924194336e+00,1.246721625328063965e+00,1.246641993522644043e+00,1.246562480926513672e+00,1.246482849121093750e+00,1.246403336524963379e+00,1.246323823928833008e+00,1.246244311332702637e+00,1.246164798736572266e+00,1.246085286140441895e+00,1.246005773544311523e+00,1.245926380157470703e+00,1.245846867561340332e+00,1.245767474174499512e+00,1.245687961578369141e+00,1.245608568191528320e+00,1.245529055595397949e+00,1.245449662208557129e+00,1.245370268821716309e+00,1.245290875434875488e+00,1.245211482048034668e+00,1.245132088661193848e+00,1.245052695274353027e+00,1.244973301887512207e+00,1.244894027709960938e+00,1.244814753532409668e+00,1.244735360145568848e+00,1.244656085968017578e+00,1.244576811790466309e+00,1.244497418403625488e+00,1.244418144226074219e+00,1.244338870048522949e+00,1.244259595870971680e+00,1.244180321693420410e+00,1.244101047515869141e+00,1.244021892547607422e+00,1.243942618370056152e+00,1.243863463401794434e+00,1.243784308433532715e+00,1.243705034255981445e+00,1.243625879287719727e+00,1.243546724319458008e+00,1.243467569351196289e+00,1.243388414382934570e+00,1.243309259414672852e+00,1.243230104446411133e+00,1.243150949478149414e+00,1.243071794509887695e+00,1.242992758750915527e+00,1.242913603782653809e+00,1.242834687232971191e+00,1.242755532264709473e+00,1.242676496505737305e+00,1.242597460746765137e+00
1.162420630455017090e+00,1.162351369857788086e+00,1.162282228469848633e+00,1.162213206291198730e+00,1.162143945693969727e+00,1.162074804306030273e+00,1.162005662918090820e+00,1.161936640739440918e+00,1.161867499351501465e+00,1.161798357963562012e+00,1.161729216575622559e+00,1.161660194396972656e+00,1.161591053009033203e+00,1.161522030830383301e+00,1.161452889442443848e+00,1.161383867263793945e+00,1.161314845085144043e+00,1.161245822906494141e+00,1.161176800727844238e+00,1.161107778549194336e+00,1.161038756370544434e+00,1.160969734191894531e+00,1.160900712013244629e+00,1.160831689834594727e+00,1.160762667655944824e+00,1.160693764686584473e+00,1.160624742507934570e+00,1.160555839538574219e+00,1.160486817359924316e+00,1.160417914390563965e+00,1.160349011421203613e+00,1.160280108451843262e+00,1.160211205482482910e+00,1.160142302513122559e+00,1.160073280334472656e+00,1.160004496574401855e+00,1.159935593605041504e+00,1.159866690635681152e+00,1.159797787666320801e+00,1.159728884696960449e+00,1.159660100936889648e+00,1.159591197967529297e+00,1.159522294998168945e+00,1.159453630447387695e+00,1.159384727478027344e+00,1.159315943717956543e+00,1.159247159957885742e+00,1.159178376197814941e+00,1.159109592437744141e+00,1.159040808677673340e+00,1.158972024917602539e+00,1.158903241157531738e+00,1.158834457397460938e+00,1.158765673637390137e+00,1.158696889877319336e+00,1.158628225326538086e+00,1.158559560775756836e+00,1.158490777015686035e+00,1.158422112464904785e+00,1.158353447914123535e+00,1.158284783363342285e+00,1.158216118812561035e+00,1.158147335052490234e+00,1.158078670501708984e+00,1.158010005950927734e+00,1.157941341400146484e+00,1.157872796058654785e+00,1.157804131507873535e+00,1.157735466957092285e+00,1.157666802406311035e+00,1.157598376274108887e+00,1.157529711723327637e+00,1.157461166381835938e+00,1.157392501831054688e+00,1.157323956489562988e+00,1.157255411148071289e+00,1.157186865806579590e+00,1.157118201255798340e+00,1.157049655914306641e+00,1.156981110572814941e+00
1.087161898612976074e+00,1.087101340293884277e+00,1.087040901184082031e+00,1.086980342864990234e+00,1.086919903755187988e+00,1.086859345436096191e+00,1.086798906326293945e+00,1.086738467216491699e+00,1.086678028106689453e+00,1.086617588996887207e+00,1.086557149887084961e+00,1.086496710777282715e+00,1.086436271667480469e+00,1.086375832557678223e+00,1.086315393447875977e+00,1.086254954338073730e+00,1.086194634437561035e+00,1.086134195327758789e+00,1.086073756217956543e+00,1.086013436317443848e+00,1.085952997207641602e+00,1.085892677307128906e+00,1.085832238197326660e+00,1.085772037506103516e+00,1.085711598396301270e+00,1.085651278495788574e+00,1.085590958595275879e+00,1.085530638694763184e+00,1.085470318794250488e+00,1.085409998893737793e+00,1.085349678993225098e+00,1.085289359092712402e+00,1.085229039192199707e+00,1.085168719291687012e+00,1.085108399391174316e+00,1.085048198699951172e+00,1.084987878799438477e+00,1.084927678108215332e+00,1.084867477416992188e+00,1.084807157516479492e+00,1.084746956825256348e+00,1.084686636924743652e+00,1.084626436233520508e+00,1.084566235542297363e+00,1.084505915641784668e+00,1.084445714950561523e+00,1.084385514259338379e+00,1.084325313568115234e+00,1.084265112876892090e+00,1.084204912185668945e+00,1.084144830703735352e+00,1.084084630012512207e+00,1.084024548530578613e+00,1.083964347839355469e+00,1.083904147148132324e+00,1.083844065666198730e+00,1.083783864974975586e+00,1.083723783493041992e+00,1.083663582801818848e+00,1.083603501319885254e+00,1.083543419837951660e+00,1.083483338356018066e+00,1.083423137664794922e+00,1.083363175392150879e+00,1.083303093910217285e+00,1.083243012428283691e+00,1.083182930946350098e+00,1.083122849464416504e+00,1.083062767982482910e+00,1.083002686500549316e+00,1.082942724227905273e+00,1.082882642745971680e+00,1.082822561264038086e+00,1.082762598991394043e+00,1.082702517509460449e+00,1.082642555236816406e+00,1.082582592964172363e+00,1.082522630691528320e+00,1.082462549209594727e+00,1.082402586936950684e+00
1.021055579185485840e+00,1.021002173423767090e+00,1.020948767662048340e+00,1.020895481109619141e+00,1.020842194557189941e+00,1.020788788795471191e+00,1.020735383033752441e+00,1.020682096481323242e+00,1.020628809928894043e+00,1.020575404167175293e+00,1.020522117614746094e+00,1.020468831062316895e+00,1.020415425300598145e+00,1.020362138748168945e+00,1.020308852195739746e+00,1.020255565643310547e+00,1.020202279090881348e+00,1.020148992538452148e+00,1.020095705986022949e+00,1.020042538642883301e+00,1.019989252090454102e+00,1.019935965538024902e+00,1.019882678985595703e+00,1.019829392433166504e+00,1.019776225090026855e+00,1.019722938537597656e+00,1.019669771194458008e+00,1.019616484642028809e+00,1.019563198089599609e+00,1.019510030746459961e+00,1.019456863403320312e+00,1.019403696060180664e+00,1.019350528717041016e+00,1.019297242164611816e+00,1.019244074821472168e+00,1.019190907478332520e+00,1.019137740135192871e+00,1.019084572792053223e+00,1.019031405448913574e+00,1.018978238105773926e+00,1.018925070762634277e+00,1.018871903419494629e+00,1.018818736076354980e+00,1.018765687942504883e+00,1.018712520599365234e+00,1.018659353256225586e+00,1.018606305122375488e+00,1.018553137779235840e+00,1.018500089645385742e+00,1.018446922302246094e+00,1.018393874168395996e+00,1.018340706825256348e+00,1.018287658691406250e+00,1.018234491348266602e+00,1.018181443214416504e+00,1.018128395080566406e+00,1.018075346946716309e+00,1.018022298812866211e+00,1.017969250679016113e+00,1.017916202545166016e+00,1.017863154411315918e+00,1.017810106277465820e+00,1.017757058143615723e+00,1.017704010009765625e+00,1.017650961875915527e+00,1.017598032951354980e+00,1.017544984817504883e+00,1.017491936683654785e+00,1.017439007759094238e+00,1.017385959625244141e+00,1.017333030700683594e+00,1.017279982566833496e+00,1.017227053642272949e+00,1.017174124717712402e+00,1.017121076583862305e+00,1.017068147659301758e+00,1.017015218734741211e+00,1.016962170600891113e+00,1.016909241676330566e+00,1.016856312751770020e+00
9.625278115272521973e-01,9.624804854393005371e-01,9.624329805374145508e-01,9.623855948448181152e-01,9.623380899429321289e-01,9.622907638549804688e-01,9.622433185577392578e-01,9.621959328651428223e-01,9.621484875679016113e-01,9.621011614799499512e-01,9.620538353919982910e-01,9.620063900947570801e-01,9.619590640068054199e-01,9.619116187095642090e-01,9.618642926216125488e-01,9.618169069290161133e-01,9.617695808410644531e-01,9.617221951484680176e-01,9.616748690605163574e-01,9.616274833679199219e-01,9.615801572799682617e-01,9.615327715873718262e-01,9.614855051040649414e-01,9.614382386207580566e-01,9.613908529281616211e-01,9.613435864448547363e-01,9.612962007522583008e-01,9.612489342689514160e-01,9.612016081809997559e-01,9.611543416976928711e-01,9.611070156097412109e-01,9.610597491264343262e-01,9.610124230384826660e-01,9.609652161598205566e-01,9.609178304672241211e-01,9.608706235885620117e-01,9.608232975006103516e-01,9.607760906219482422e-01,9.607288837432861328e-01,9.606815576553344727e-01,9.606344103813171387e-01,9.605870842933654785e-01,9.605398774147033691e-01,9.604926109313964844e-01,9.604454040527343750e-01,9.603981375694274902e-01,9.603509902954101562e-01,9.603037238121032715e-01,9.602565765380859375e-01,9.602093100547790527e-01,9.601621627807617188e-01,9.601150155067443848e-01,9.600677490234375000e-01,9.600206017494201660e-01,9.599733352661132812e-01,9.599262475967407227e-01,9.598789811134338379e-01,9.598318934440612793e-01,9.597846865653991699e-01,9.597375392913818359e-01,9.596903324127197266e-01,9.596432447433471680e-01,9.595960378646850586e-01,9.595489501953125000e-01,9.595018625259399414e-01,9.594546556472778320e-01,9.594076275825500488e-01,9.593604207038879395e-01,9.593133330345153809e-01,9.592661857604980469e-01,9.592190980911254883e-01,9.591719508171081543e-01,9.591249227523803711e-01,9.590777754783630371e-01,9.590306878089904785e-01,9.589836001396179199e-01,9.589365720748901367e-01,9.588895440101623535e-01,9.588423967361450195e-01,9.587953686714172363e-01
9.103459715843200684e-01,9.103035926818847656e-01,9.102611541748046875e-01,9.102187752723693848e-01,9.101763963699340820e-01,9.101339578628540039e-01,9.100915789604187012e-01,9.100491404533386230e-01,9.100067615509033203e-01,9.099643230438232422e-01,9.099219441413879395e-01,9.098795056343078613e-01,9.098371863365173340e-01,9.097947478294372559e-01,9.097524285316467285e-01,9.097099900245666504e-01,9.096676707267761230e-01,9.096253514289855957e-01,9.095829725265502930e-01,9.095406532287597656e-01,9.094982743263244629e-01,9.094559550285339355e-01,9.094135761260986328e-01,9.093712568283081055e-01,9.093288779258728027e-01,9.092866182327270508e-01,9.092442393302917480e-01,9.092019200325012207e-01,9.091595411300659180e-01,9.091172814369201660e-01,9.090750217437744141e-01,9.090326428413391113e-01,9.089903831481933594e-01,9.089480638504028320e-01,9.089058041572570801e-01,9.088634848594665527e-01,9.088212251663208008e-01,9.087789058685302734e-01,9.087366461753845215e-01,9.086943268775939941e-01,9.086520671844482422e-01,9.086097478866577148e-01,9.085675477981567383e-01,9.085253477096557617e-01,9.084830284118652344e-01,9.084408283233642578e-01,9.083985090255737305e-01,9.083563089370727539e-01,9.083140492439270020e-01,9.082718491554260254e-01,9.082295894622802734e-01,9.081873893737792969e-01,9.081451296806335449e-01,9.081029295921325684e-01,9.080606698989868164e-01,9.080184698104858398e-01,9.079763293266296387e-01,9.079340696334838867e-01,9.078919291496276855e-01,9.078496694564819336e-01,9.078075289726257324e-01,9.077652692794799805e-01,9.077231287956237793e-01,9.076809287071228027e-01,9.076387882232666016e-01,9.075965285301208496e-01,9.075543880462646484e-01,9.075121879577636719e-01,9.074701070785522461e-01,9.074278473854064941e-01,9.073857665061950684e-01,9.073436856269836426e-01,9.073014855384826660e-01,9.072593450546264648e-01,9.072172045707702637e-01,9.071750640869140625e-01,9.071329236030578613e-01,9.070908427238464355e-01,9.070486426353454590e-01,9.070065617561340332e-01
8.635311722755432129e-01,8.634929656982421875e-01,8.634548187255859375e-01,8.634166121482849121e-01,8.633785247802734375e-01,8.633403182029724121e-01,8.633021712303161621e-01,8.632639646530151367e-01,8.632258772850036621e-01,8.631876707077026367e-01,8.631495833396911621e-01,8.631114959716796875e-01,8.630732893943786621e-01,8.630352020263671875e-01,8.629969954490661621e-01,8.629589080810546875e-01,8.629207611083984375e-01,8.628826737403869629e-01,8.628445267677307129e-01,8.628064393997192383e-01,8.627682924270629883e-01,8.627302050590515137e-01,8.626920580863952637e-01,8.626540303230285645e-01,8.626159429550170898e-01,8.625777959823608398e-01,8.625397682189941406e-01,8.625016212463378906e-01,8.624635934829711914e-01,8.624254465103149414e-01,8.623874187469482422e-01,8.623492717742919922e-01,8.623112440109252930e-01,8.622731566429138184e-01,8.622351288795471191e-01,8.621970415115356445e-01,8.621590137481689453e-01,8.621209859848022461e-01,8.620828986167907715e-01,8.620448708534240723e-01,8.620067834854125977e-01,8.619688153266906738e-01,8.619307279586791992e-01,8.618927001953125000e-01,8.618546724319458008e-01,8.618166446685791016e-01,8.617786169052124023e-01,8.617405891418457031e-01,8.617025613784790039e-01,8.616645932197570801e-01,8.616266250610351562e-01,8.615885376930236816e-01,8.615505695343017578e-01,8.615125417709350586e-01,8.614745736122131348e-01,8.614365458488464355e-01,8.613985776901245117e-01,8.613605499267578125e-01,8.613226413726806641e-01,8.612846136093139648e-01,8.612466454505920410e-01,8.612086176872253418e-01,8.611707091331481934e-01,8.611328005790710449e-01,8.610947728157043457e-01,8.610568642616271973e-01,8.610188364982604980e-01,8.609809279441833496e-01,8.609429597854614258e-01,8.609050512313842773e-01,8.608670234680175781e-01,8.608291745185852051e-01,8.607911467552185059e-01,8.607532978057861328e-01,8.607153296470642090e-01,8.606774210929870605e-01,8.606395125389099121e-01,8.606015443801879883e-01,8.605636954307556152e-01,8.605257272720336914e-01
8.212957382202148438e-01,8.212611675262451172e-01,8.212266564369201660e-01,8.211922049522399902e-01,8.211576342582702637e-01,8.211231231689453125e-01,8.210885524749755859e-01,8.210541009902954102e-01,8.210195302963256836e-01,8.209850788116455078e-01,8.209505081176757812e-01,8.209160566329956055e-01,8.208815455436706543e-01,8.208470344543457031e-01,8.208125233650207520e-01,8.207780718803405762e-01,8.207435607910156250e-01,8.207091093063354492e-01,8.206746578216552734e-01,8.206401467323303223e-01,8.206056952476501465e-01,8.205711841583251953e-01,8.205367326736450195e-01,8.205022215843200684e-01,8.204678297042846680e-01,8.204333186149597168e-01,8.203988671302795410e-01,8.203644156455993652e-01,8.203299641609191895e-01,8.202954530715942383e-01,8.202610611915588379e-01,8.202266693115234375e-01,8.201921582221984863e-01,8.201577663421630859e-01,8.201233148574829102e-01,8.200889229774475098e-01,8.200544118881225586e-01,8.200200200080871582e-01,8.199855685234069824e-01,8.199511766433715820e-01,8.199167251586914062e-01,8.198823332786560059e-01,8.198478817939758301e-01,8.198134899139404297e-01,8.197791576385498047e-01,8.197447061538696289e-01,8.197103142738342285e-01,8.196759223937988281e-01,8.196415305137634277e-01,8.196070790290832520e-01,8.195727467536926270e-01,8.195382952690124512e-01,8.195039629936218262e-01,8.194695711135864258e-01,8.194351792335510254e-01,8.194007873535156250e-01,8.193664550781250000e-01,8.193321228027343750e-01,8.192977309226989746e-01,8.192633986473083496e-01,8.192289471626281738e-01,8.191946744918823242e-01,8.191602826118469238e-01,8.191259503364562988e-01,8.190915584564208984e-01,8.190572261810302734e-01,8.190228343009948730e-01,8.189885616302490234e-01,8.189541697502136230e-01,8.189198374748229980e-01,8.188855648040771484e-01,8.188511729240417480e-01,8.188169002532958984e-01,8.187825679779052734e-01,8.187482357025146484e-01,8.187139034271240234e-01,8.186796307563781738e-01,8.186452388763427734e-01,8.186109662055969238e-01,8.185766339302062988e-01
7.829991579055786133e-01,7.829678058624267578e-01,7.829363942146301270e-01,7.829050421714782715e-01,7.828736305236816406e-01,7.828422784805297852e-01,7.828108668327331543e-01,7.827795147895812988e-01,7.827481031417846680e-01,7.827167510986328125e-01,7.826854586601257324e-01,7.826540470123291016e-01,7.826226949691772461e-01,7.825913429260253906e-01,7.825599908828735352e-01,7.825286388397216797e-01,7.824972867965698242e-01,7.824659347534179688e-01,7.824345827102661133e-01,7.824032306671142578e-01,7.823719382286071777e-01,7.823405265808105469e-01,7.823092341423034668e-01,7.822779417037963867e-01,7.822465896606445312e-01,7.822152972221374512e-01,7.821838855743408203e-01,7.821526527404785156e-01,7.821212410926818848e-01,7.820900082588195801e-01,7.820586562156677246e-01,7.820273637771606445e-01,7.819960117340087891e-01,7.819647192955017090e-01,7.819333672523498535e-01,7.819021344184875488e-01,7.818707823753356934e-01,7.818395495414733887e-01,7.818082571029663086e-01,7.817769050598144531e-01,7.817456722259521484e-01,7.817143797874450684e-01,7.816830873489379883e-01,7.816517949104309082e-01,7.816205620765686035e-01,7.815892100334167480e-01,7.815579771995544434e-01,7.815266847610473633e-01,7.814954519271850586e-01,7.814640998840332031e-01,7.814329266548156738e-01,7.814016938209533691e-01,7.813704013824462891e-01,7.813391685485839844e-01,7.813078761100769043e-01,7.812766432762145996e-01,7.812453508377075195e-01,7.812141180038452148e-01,7.811828851699829102e-01,7.811516523361206055e-01,7.811203598976135254e-01,7.810891866683959961e-01,7.810578942298889160e-01,7.810267210006713867e-01,7.809954881668090820e-01,7.809642553329467773e-01,7.809330224990844727e-01,7.809017896652221680e-01,7.808706164360046387e-01,7.808393239974975586e-01,7.808081507682800293e-01,7.807769179344177246e-01,7.807457447052001953e-01,7.807145118713378906e-01,7.806833386421203613e-01,7.806521058082580566e-01,7.806209325790405273e-01,7.805897593498229980e-01,7.805585265159606934e-01,7.805273532867431641e-01
7.481149435043334961e-01,7.480862736701965332e-01,7.480576038360595703e-01,7.480289936065673828e-01,7.480003833770751953e-01,7.479717135429382324e-01,7.479431033134460449e-01,7.479144334793090820e-01,7.478858232498168945e-01,7.478571534156799316e-01,7.478285431861877441e-01,7.477998733520507812e-01,7.477712631225585938e-01,7.477425932884216309e-01,7.477140426635742188e-01,7.476853728294372559e-01,7.476567625999450684e-01,7.476282119750976562e-01,7.475995421409606934e-01,7.475709319114685059e-01,7.475423216819763184e-01,7.475137114524841309e-01,7.474851012229919434e-01,7.474564909934997559e-01,7.474278807640075684e-01,7.473993301391601562e-01,7.473706603050231934e-01,7.473421096801757812e-01,7.473134994506835938e-01,7.472849488258361816e-01,7.472563982009887695e-01,7.472277283668518066e-01,7.471991777420043945e-01,7.471705675125122070e-01,7.471420168876647949e-01,7.471134066581726074e-01,7.470848560333251953e-01,7.470562458038330078e-01,7.470276951789855957e-01,7.469990849494934082e-01,7.469705939292907715e-01,7.469419836997985840e-01,7.469134330749511719e-01,7.468849420547485352e-01,7.468563318252563477e-01,7.468277812004089355e-01,7.467992305755615234e-01,7.467706799507141113e-01,7.467421293258666992e-01,7.467135787010192871e-01,7.466850280761718750e-01,7.466564774513244629e-01,7.466279268264770508e-01,7.465994358062744141e-01,7.465708255767822266e-01,7.465423345565795898e-01,7.465138435363769531e-01,7.464852929115295410e-01,7.464567422866821289e-01,7.464281916618347168e-01,7.463997006416320801e-01,7.463711500167846680e-01,7.463426589965820312e-01,7.463141083717346191e-01,7.462856173515319824e-01,7.462570667266845703e-01,7.462285757064819336e-01,7.462000846862792969e-01,7.461715936660766602e-01,7.461430430412292480e-01,7.461145520210266113e-01,7.460861206054687500e-01,7.460575699806213379e-01,7.460291385650634766e-01,7.460005879402160645e-01,7.459720969200134277e-01,7.459436058998107910e-01,7.459151148796081543e-01,7.458866238594055176e-01,7.458581924438476562e-01
7.162064909934997559e-01,7.161802053451538086e-01,7.161539793014526367e-01,7.161276936531066895e-01,7.161014676094055176e-01,7.160751819610595703e-01,7.160489559173583984e-01,7.160226702690124512e-01,7.159964442253112793e-01,7.159701585769653320e-01,7.159439921379089355e-01,7.159177660942077637e-01,7.158914804458618164e-01,7.158652544021606445e-01,7.158390283584594727e-01,7.158128023147583008e-01,7.157865166664123535e-01,7.157603502273559570e-01,7.157340645790100098e-01,7.157078981399536133e-01,7.156816124916076660e-01,7.156554460525512695e-01,7.156291604042053223e-01,7.156029939651489258e-01,7.155768275260925293e-01,7.155505418777465820e-01,7.155243754386901855e-01,7.154981493949890137e-01,7.154719233512878418e-01,7.154456973075866699e-01,7.154195308685302734e-01,7.153933048248291016e-01,7.153671383857727051e-01,7.153409123420715332e-01,7.153147459030151367e-01,7.152885198593139648e-01,7.152623534202575684e-01,7.152361869812011719e-01,7.152099609375000000e-01,7.151837944984436035e-01,7.151575684547424316e-01,7.151314020156860352e-01,7.151052355766296387e-01,7.150790691375732422e-01,7.150528430938720703e-01,7.150266766548156738e-01,7.150005102157592773e-01,7.149743437767028809e-01,7.149481773376464844e-01,7.149220108985900879e-01,7.148958444595336914e-01,7.148696780204772949e-01,7.148435115814208984e-01,7.148173451423645020e-01,7.147912383079528809e-01,7.147650122642517090e-01,7.147389054298400879e-01,7.147127389907836914e-01,7.146865725517272949e-01,7.146604061126708984e-01,7.146342992782592773e-01,7.146081328392028809e-01,7.145820260047912598e-01,7.145559191703796387e-01,7.145296931266784668e-01,7.145035862922668457e-01,7.144774198532104492e-01,7.144513130187988281e-01,7.144251465797424316e-01,7.143990397453308105e-01,7.143729329109191895e-01,7.143468260765075684e-01,7.143206596374511719e-01,7.142945528030395508e-01,7.142683863639831543e-01,7.142423391342163086e-01,7.142162322998046875e-01,7.141900658607482910e-01,7.141640186309814453e-01,7.141378521919250488e-01
6.869086027145385742e-01,6.868844032287597656e-01,6.868602633476257324e-01,6.868361830711364746e-01,6.868119835853576660e-01,6.867878437042236328e-01,6.867636442184448242e-01,6.867395639419555664e-01,6.867153644561767578e-01,6.866912841796875000e-01,6.866670846939086914e-01,6.866430044174194336e-01,6.866188049316406250e-01,6.865947246551513672e-01,6.865705251693725586e-01,6.865464448928833008e-01,6.865222454071044922e-01,6.864981651306152344e-01,6.864740848541259766e-01,6.864498853683471680e-01,6.864258050918579102e-01,6.864016652107238770e-01,6.863775849342346191e-01,6.863534450531005859e-01,6.863293051719665527e-01,6.863051652908325195e-01,6.862810850143432617e-01,6.862569451332092285e-01,6.862328648567199707e-01,6.862087249755859375e-01,6.861846446990966797e-01,6.861605644226074219e-01,6.861364245414733887e-01,6.861123442649841309e-01,6.860882639884948730e-01,6.860641837120056152e-01,6.860400438308715820e-01,6.860159635543823242e-01,6.859918236732482910e-01,6.859678030014038086e-01,6.859436631202697754e-01,6.859195828437805176e-01,6.858955025672912598e-01,6.858714222908020020e-01,6.858473420143127441e-01,6.858232617378234863e-01,6.857991814613342285e-01,6.857751011848449707e-01,6.857510209083557129e-01,6.857269406318664551e-01,6.857029199600219727e-01,6.856787800788879395e-01,6.856547594070434570e-01,6.856306791305541992e-01,6.856065988540649414e-01,6.855825185775756836e-01,6.855584979057312012e-01,6.855344772338867188e-01,6.855103373527526855e-01,6.854863166809082031e-01,6.854622364044189453e-01,6.854382157325744629e-01,6.854141354560852051e-01,6.853901147842407227e-01,6.853660345077514648e-01,6.853420138359069824e-01,6.853179335594177246e-01,6.852939128875732422e-01,6.852698326110839844e-01,6.852458119392395020e-01,6.852217912673950195e-01,6.851977705955505371e-01,6.851737499237060547e-01,6.851496696472167969e-01,6.851256489753723145e-01,6.851016283035278320e-01,6.850776076316833496e-01,6.850535273551940918e-01,6.850295662879943848e-01,6.850054860115051270e-01
6.599134802818298340e-01,6.598911881446838379e-01,6.598688960075378418e-01,6.598466038703918457e-01,6.598243117332458496e-01,6.598020195960998535e-01,6.597797274589538574e-01,6.597574353218078613e-01,6.597351431846618652e-01,6.597129106521606445e-01,6.596906185150146484e-01,6.596683263778686523e-01,6.596460938453674316e-01,6.596237421035766602e-01,6.596015095710754395e-01,6.595792174339294434e-01,6.595569849014282227e-01,6.595346927642822266e-01,6.595124006271362305e-01,6.594901084899902344e-01,6.594678759574890137e-01,6.594455838203430176e-01,6.594233512878417969e-01,6.594011187553405762e-01,6.593788266181945801e-01,6.593565940856933594e-01,6.593343019485473633e-01,6.593120694160461426e-01,6.592897772789001465e-01,6.592675447463989258e-01,6.592453122138977051e-01,6.592230796813964844e-01,6.592007875442504883e-01,6.591785550117492676e-01,6.591563224792480469e-01,6.591340899467468262e-01,6.591117978096008301e-01,6.590895652770996094e-01,6.590673923492431641e-01,6.590451002120971680e-01,6.590229272842407227e-01,6.590006351470947266e-01,6.589784026145935059e-01,6.589561700820922852e-01,6.589339375495910645e-01,6.589117050170898438e-01,6.588895320892333984e-01,6.588672399520874023e-01,6.588450670242309570e-01,6.588227748870849609e-01,6.588006019592285156e-01,6.587784290313720703e-01,6.587561368942260742e-01,6.587339639663696289e-01,6.587117314338684082e-01,6.586895585060119629e-01,6.586673259735107422e-01,6.586450934410095215e-01,6.586228609085083008e-01,6.586006879806518555e-01,6.585784554481506348e-01,6.585562825202941895e-01,6.585340499877929688e-01,6.585118770599365234e-01,6.584897041320800781e-01,6.584674715995788574e-01,6.584452986717224121e-01,6.584230661392211914e-01,6.584008932113647461e-01,6.583786606788635254e-01,6.583565473556518555e-01,6.583343148231506348e-01,6.583121418952941895e-01,6.582899093627929688e-01,6.582677364349365234e-01,6.582455635070800781e-01,6.582233905792236328e-01,6.582012176513671875e-01,6.581790447235107422e-01,6.581568717956542969e-01
6.349598765373229980e-01,6.349392533302307129e-01,6.349185705184936523e-01,6.348980069160461426e-01,6.348773837089538574e-01,6.348567008972167969e-01,6.348360776901245117e-01,6.348154544830322266e-01,6.347948312759399414e-01,6.347741484642028809e-01,6.347535848617553711e-01,6.347329020500183105e-01,6.347123384475708008e-01,6.346916556358337402e-01,6.346710324287414551e-01,6.346504092216491699e-01,6.346297860145568848e-01,6.346092224121093750e-01,6.345885992050170898e-01,6.345679759979248047e-01,6.345473527908325195e-01,6.345267295837402344e-01,6.345061063766479492e-01,6.344855427742004395e-01,6.344648599624633789e-01,6.344442963600158691e-01,6.344236731529235840e-01,6.344031095504760742e-01,6.343824267387390137e-01,6.343618631362915039e-01,6.343412995338439941e-01,6.343206763267517090e-01,6.343001127243041992e-01,6.342794895172119141e-01,6.342589259147644043e-01,6.342383027076721191e-01,6.342176795005798340e-01,6.341971158981323242e-01,6.341764926910400391e-01,6.341559290885925293e-01,6.341353654861450195e-01,6.341147422790527344e-01,6.340941786766052246e-01,6.340736150741577148e-01,6.340529918670654297e-01,6.340324282646179199e-01,6.340118050575256348e-01,6.339913010597229004e-01,6.339706778526306152e-01,6.339501142501831055e-01,6.339294910430908203e-01,6.339089870452880859e-01,6.338883638381958008e-01,6.338678002357482910e-01,6.338472366333007812e-01,6.338266730308532715e-01,6.338061690330505371e-01,6.337855458259582520e-01,6.337649822235107422e-01,6.337444186210632324e-01,6.337238550186157227e-01,6.337032914161682129e-01,6.336827874183654785e-01,6.336621642112731934e-01,6.336416006088256836e-01,6.336210370063781738e-01,6.336005330085754395e-01,6.335799694061279297e-01,6.335594058036804199e-01,6.335388422012329102e-01,6.335183382034301758e-01,6.334977746009826660e-01,6.334772109985351562e-01,6.334567070007324219e-01,6.334361433982849121e-01,6.334156394004821777e-01,6.333950161933898926e-01,6.333745121955871582e-01,6.333539485931396484e-01,6.333334445953369141e-01
6.118247509002685547e-01,6.118055582046508789e-01,6.117864251136779785e-01,6.117672324180603027e-01,6.117480993270874023e-01,6.117289066314697266e-01,6.117097735404968262e-01,6.116906404495239258e-01,6.116714477539062500e-01,6.116523146629333496e-01,6.116331815719604492e-01,6.116140484809875488e-01,6.115948557853698730e-01,6.115757226943969727e-01,6.115565896034240723e-01,6.115374565124511719e-01,6.115182638168334961e-01,6.114991307258605957e-01,6.114799976348876953e-01,6.114608645439147949e-01,6.114416718482971191e-01,6.114225983619689941e-01,6.114034056663513184e-01,6.113842725753784180e-01,6.113651990890502930e-01,6.113460063934326172e-01,6.113269329071044922e-01,6.113077402114868164e-01,6.112886071205139160e-01,6.112694740295410156e-01,6.112504005432128906e-01,6.112312078475952148e-01,6.112121343612670898e-01,6.111929416656494141e-01,6.111738681793212891e-01,6.111547350883483887e-01,6.111356019973754883e-01,6.111165285110473633e-01,6.110973954200744629e-01,6.110782623291015625e-01,6.110591292381286621e-01,6.110400557518005371e-01,6.110209226608276367e-01,6.110017895698547363e-01,6.109826564788818359e-01,6.109635829925537109e-01,6.109444499015808105e-01,6.109253764152526855e-01,6.109062433242797852e-01,6.108871698379516602e-01,6.108680367469787598e-01,6.108489036560058594e-01,6.108298301696777344e-01,6.108106970787048340e-01,6.107916235923767090e-01,6.107724905014038086e-01,6.107534170150756836e-01,6.107343435287475586e-01,6.107152700424194336e-01,6.106961369514465332e-01,6.106770634651184082e-01,6.106579303741455078e-01,6.106388568878173828e-01,6.106197834014892578e-01,6.106007099151611328e-01,6.105816364288330078e-01,6.105625033378601074e-01,6.105434298515319824e-01,6.105243563652038574e-01,6.105052828788757324e-01,6.104861497879028320e-01,6.104671359062194824e-01,6.104480028152465820e-01,6.104289293289184570e-01,6.104098558425903320e-01,6.103907823562622070e-01,6.103717684745788574e-01,6.103526353836059570e-01,6.103336215019226074e-01,6.103144884109497070e-01
5.903161764144897461e-01,5.902983546257019043e-01,5.902805328369140625e-01,5.902627110481262207e-01,5.902448296546936035e-01,5.902270078659057617e-01,5.902091860771179199e-01,5.901913642883300781e-01,5.901734828948974609e-01,5.901556611061096191e-01,5.901378393173217773e-01,5.901200175285339355e-01,5.901021957397460938e-01,5.900843739509582520e-01,5.900664925575256348e-01,5.900487303733825684e-01,5.900308489799499512e-01,5.900130867958068848e-01,5.899952650070190430e-01,5.899773836135864258e-01,5.899596214294433594e-01,5.899417996406555176e-01,5.899239778518676758e-01,5.899061560630798340e-01,5.898883342742919922e-01,5.898705124855041504e-01,5.898527503013610840e-01,5.898348689079284668e-01,5.898171067237854004e-01,5.897992849349975586e-01,5.897814631462097168e-01,5.897637009620666504e-01,5.897458791732788086e-01,5.897280573844909668e-01,5.897102355957031250e-01,5.896924734115600586e-01,5.896746516227722168e-01,5.896568894386291504e-01,5.896390676498413086e-01,5.896212458610534668e-01,5.896034240722656250e-01,5.895856618881225586e-01,5.895678400993347168e-01,5.895500779151916504e-01,5.895323157310485840e-01,5.895144939422607422e-01,5.894967317581176758e-01,5.894789099693298340e-01,5.894611477851867676e-01,5.894433259963989258e-01,5.894255638122558594e-01,5.894077420234680176e-01,5.893899798393249512e-01,5.893721580505371094e-01,5.893543958663940430e-01,5.893365740776062012e-01,5.893188118934631348e-01,5.893010497093200684e-01,5.892832875251770020e-01,5.892655253410339355e-01,5.892477035522460938e-01,5.892299413681030273e-01,5.892121791839599609e-01,5.891944169998168945e-01,5.891765952110290527e-01,5.891588926315307617e-01,5.891410708427429199e-01,5.891233086585998535e-01,5.891055464744567871e-01,5.890877842903137207e-01,5.890700221061706543e-01,5.890522599220275879e-01,5.890344977378845215e-01,5.890167355537414551e-01,5.889989733695983887e-01,5.889812111854553223e-01,5.889634490013122559e-01,5.889456868171691895e-01,5.889279246330261230e-01,5.889101624488830566e-01
5.702685713768005371e-01,5.702519416809082031e-01,5.702352523803710938e-01,5.702186226844787598e-01,5.702019333839416504e-01,5.701853036880493164e-01,5.701686739921569824e-01,5.701520442962646484e-01,5.701353549957275391e-01,5.701187252998352051e-01,5.701020956039428711e-01,5.700854659080505371e-01,5.700688362121582031e-01,5.700522065162658691e-01,5.700355768203735352e-01,5.700188875198364258e-01,5.700023174285888672e-01,5.699856281280517578e-01,5.699689984321594238e-01,5.699523687362670898e-01,5.699357390403747559e-01,5.699191093444824219e-01,5.699024796485900879e-01,5.698859095573425293e-01,5.698692202568054199e-01,5.698526501655578613e-01,5.698359608650207520e-01,5.698193907737731934e-01,5.698027610778808594e-01,5.697861313819885254e-01,5.697695016860961914e-01,5.697528719902038574e-01,5.697362422943115234e-01,5.697196722030639648e-01,5.697030425071716309e-01,5.696864128112792969e-01,5.696697831153869629e-01,5.696532130241394043e-01,5.696365833282470703e-01,5.696199536323547363e-01,5.696033835411071777e-01,5.695867538452148438e-01,5.695701241493225098e-01,5.695534944534301758e-01,5.695369243621826172e-01,5.695202946662902832e-01,5.695037245750427246e-01,5.694870948791503906e-01,5.694705247879028320e-01,5.694538950920104980e-01,5.694372653961181641e-01,5.694206953048706055e-01,5.694040656089782715e-01,5.693874955177307129e-01,5.693708658218383789e-01,5.693542957305908203e-01,5.693376660346984863e-01,5.693210959434509277e-01,5.693045258522033691e-01,5.692879557609558105e-01,5.692713260650634766e-01,5.692547559738159180e-01,5.692381262779235840e-01,5.692215561866760254e-01,5.692049860954284668e-01,5.691883563995361328e-01,5.691717863082885742e-01,5.691552162170410156e-01,5.691386461257934570e-01,5.691220164299011230e-01,5.691054463386535645e-01,5.690888762474060059e-01,5.690723061561584473e-01,5.690557360649108887e-01,5.690391659736633301e-01,5.690225362777709961e-01,5.690059661865234375e-01,5.689894556999206543e-01,5.689728260040283203e-01,5.689562559127807617e-01
