5.000000000000000000e+00,5.000000000000000000e+00,5.000000000000000000e+00,5.000000000000000000e+00,5.000000000000000000e+00,5.000000000000000000e+00,5.000000000000000000e+00,5.000000000000000000e+00,5.000000000000000000e+00,5.000000000000000000e+00,5.000000000000000000e+00,5.000000000000000000e+00,5.000000000000000000e+00,5.000000000000000000e+00,5.000000000000000000e+00,5.000000000000000000e+00,5.000000000000000000e+00,5.000000000000000000e+00,5.000000000000000000e+00,5.000000000000000000e+00,5.000000000000000000e+00,5.000000000000000000e+00,5.000000000000000000e+00,5.000000000000000000e+00,5.000000000000000000e+00,5.000000000000000000e+00,5.000000000000000000e+00,5.000000000000000000e+00,5.000000000000000000e+00,5.000000000000000000e+00,5.000000000000000000e+00,5.000000000000000000e+00,5.000000000000000000e+00,5.000000000000000000e+00,5.000000000000000000e+00,5.000000000000000000e+00,5.000000000000000000e+00,5.000000000000000000e+00,5.000000000000000000e+00,1.462308049201965332e+00,1.459808230400085449e+00,1.434574604034423828e+00,1.394234418869018555e+00,1.377179503440856934e+00,1.371027946472167969e+00,1.365010976791381836e+00,1.379193902015686035e+00,1.381654977798461914e+00,1.382017374038696289e+00,1.388325214385986328e+00,1.396094322204589844e+00,1.406676650047302246e+00,1.439356803894042969e+00,1.545300960540771484e+00,1.521326899528503418e+00,1.503428697586059570e+00,1.504341483116149902e+00,2.801349163055419922e+00,2.736876964569091797e+00,2.675305604934692383e+00,2.616443634033203125e+00,2.560116052627563477e+00,2.506162643432617188e+00,2.454436302185058594e+00,2.404802083969116211e+00,2.357135772705078125e+00,2.311321973800659180e+00,2.267255306243896484e+00,2.224837303161621094e+00,2.183977603912353516e+00,2.144591569900512695e+00,2.106600761413574219e+00,2.069932460784912109e+00,2.034519195556640625e+00,2.000297069549560547e+00,1.967207431793212891e+00,1.935194253921508789e+00,1.904206752777099609e+00,1.874195694923400879e+00,1.845116138458251953e+00
5.000000000000000000e+00,5.000000000000000000e+00,5.000000000000000000e+00,5.000000000000000000e+00,5.000000000000000000e+00,5.000000000000000000e+00,5.000000000000000000e+00,5.000000000000000000e+00,5.000000000000000000e+00,5.000000000000000000e+00,5.000000000000000000e+00,5.000000000000000000e+00,5.000000000000000000e+00,5.000000000000000000e+00,5.000000000000000000e+00,5.000000000000000000e+00,5.000000000000000000e+00,5.000000000000000000e+00,5.000000000000000000e+00,5.000000000000000000e+00,5.000000000000000000e+00,5.000000000000000000e+00,5.000000000000000000e+00,5.000000000000000000e+00,5.000000000000000000e+00,5.000000000000000000e+00,5.000000000000000000e+00,5.000000000000000000e+00,5.000000000000000000e+00,5.000000000000000000e+00,5.000000000000000000e+00,5.000000000000000000e+00,5.000000000000000000e+00,5.000000000000000000e+00,5.000000000000000000e+00,5.000000000000000000e+00,5.000000000000000000e+00,5.000000000000000000e+00,5.000000000000000000e+00,1.456989169120788574e+00,1.453674435615539551e+00,1.430228829383850098e+00,1.388310194015502930e+00,1.367819547653198242e+00,1.363763689994812012e+00,1.360178351402282715e+00,1.379006385803222656e+00,1.394243836402893066e+00,1.383911728858947754e+00,1.400768399238586426e+00,1.408677816390991211e+00,1.411463499069213867e+00,1.432276010513305664e+00,1.560592174530029297e+00,1.518976449966430664e+00,1.498849749565124512e+00,1.492173671722412109e+00,1.518147587776184082e+00,2.736921072006225586e+00,2.675347805023193359e+00,2.616484165191650391e+00,2.560154676437377930e+00,2.506199598312377930e+00,2.454471826553344727e+00,2.404836416244506836e+00,2.357168436050415039e+00,2.311353445053100586e+00,2.267285585403442383e+00,2.224866628646850586e+00,2.184005737304687500e+00,2.144618511199951172e+00,2.106626987457275391e+00,2.069957733154296875e+00,2.034543752670288086e+00,2.000320672988891602e+00,1.967230200767517090e+00,1.935216307640075684e+00,1.904228091239929199e+00,1.874216318130493164e+00,1.845136165618896484e+00
5.000000000000000000e+00,5.000000000000000000e+00,5.000000000000000000e+00,5.000000000000000000e+00,5.000000000000000000e+00,5.000000000000000000e+00,5.000000000000000000e+00,5.000000000000000000e+00,5.000000000000000000e+00,5.000000000000000000e+00,5.000000000000000000e+00,5.000000000000000000e+00,5.000000000000000000e+00,5.000000000000000000e+00,5.000000000000000000e+00,5.000000000000000000e+00,5.000000000000000000e+00,5.000000000000000000e+00,5.000000000000000000e+00,5.000000000000000000e+00,5.000000000000000000e+00,5.000000000000000000e+00,5.000000000000000000e+00,5.000000000000000000e+00,5.000000000000000000e+00,5.000000000000000000e+00,5.000000000000000000e+00,5.000000000000000000e+00,5.000000000000000000e+00,5.000000000000000000e+00,5.000000000000000000e+00,5.000000000000000000e+00,5.000000000000000000e+00,5.000000000000000000e+00,5.000000000000000000e+00,5.000000000000000000e+00,5.000000000000000000e+00,5.000000000000000000e+00,5.000000000000000000e+00,1.453137755393981934e+00,1.447245478630065918e+00,1.424600839614868164e+00,1.380656719207763672e+00,1.355280160903930664e+00,1.350646972656250000e+00,1.346045255661010742e+00,1.356441259384155273e+00,1.407064318656921387e+00,1.406160950660705566e+00,1.413436651229858398e+00,1.409260869026184082e+00,1.404531836509704590e+00,1.418566584587097168e+00,3.092886209487915039e+00,1.527412295341491699e+00,1.495493173599243164e+00,1.474079132080078125e+00,1.477042198181152344e+00,2.736965417861938477e+00,2.675390243530273438e+00,2.616524457931518555e+00,2.560193300247192383e+00,2.506236791610717773e+00,2.454507350921630859e+00,2.404870510101318359e+00,2.357201337814331055e+00,2.311385154724121094e+00,2.267315864562988281e+00,2.224895715713500977e+00,2.184033870697021484e+00,2.144645690917968750e+00,2.106653213500976562e+00,2.069983243942260742e+00,2.034568071365356445e+00,2.000344276428222656e+00,1.967253088951110840e+00,1.935238480567932129e+00,1.904249548912048340e+00,1.874237060546875000e+00,1.845156311988830566e+00
5.000000000000000000e+00,5.000000000000000000e+00,5.000000000000000000e+00,5.000000000000000000e+00,5.000000000000000000e+00,5.000000000000000000e+00,5.000000000000000000e+00,5.000000000000000000e+00,5.000000000000000000e+00,5.000000000000000000e+00,5.000000000000000000e+00,5.000000000000000000e+00,5.000000000000000000e+00,5.000000000000000000e+00,5.000000000000000000e+00,5.000000000000000000e+00,5.000000000000000000e+00,5.000000000000000000e+00,5.000000000000000000e+00,5.000000000000000000e+00,5.000000000000000000e+00,5.000000000000000000e+00,5.000000000000000000e+00,5.000000000000000000e+00,5.000000000000000000e+00,5.000000000000000000e+00,5.000000000000000000e+00,5.000000000000000000e+00,5.000000000000000000e+00,5.000000000000000000e+00,5.000000000000000000e+00,5.000000000000000000e+00,5.000000000000000000e+00,5.000000000000000000e+00,5.000000000000000000e+00,5.000000000000000000e+00,5.000000000000000000e+00,5.000000000000000000e+00,5.000000000000000000e+00,1.449306488037109375e+00,1.440520763397216797e+00,1.418257236480712891e+00,1.373435378074645996e+00,1.348673939704895020e+00,1.343242168426513672e+00,1.338009834289550781e+00,1.332818031311035156e+00,1.369027376174926758e+00,1.428188800811767578e+00,1.407065272331237793e+00,1.400624871253967285e+00,1.393002510070800781e+00,1.389185309410095215e+00,1.425436973571777344e+00,1.546981215476989746e+00,1.493230819702148438e+00,1.472174763679504395e+00,1.461363673210144043e+00,2.737009525299072266e+00,2.675432443618774414e+00,2.616564750671386719e+00,2.560232162475585938e+00,2.506273746490478516e+00,2.454543113708496094e+00,2.404904603958129883e+00,2.357234001159667969e+00,2.311416625976562500e+00,2.267346143722534180e+00,2.224925041198730469e+00,2.184062004089355469e+00,2.144672870635986328e+00,2.106679439544677734e+00,2.070008516311645508e+00,2.034592628479003906e+00,2.000367879867553711e+00,1.967275977134704590e+00,1.935260534286499023e+00,1.904270887374877930e+00,1.874257802963256836e+00,1.845176339149475098e+00
5.000000000000000000e+00,5.000000000000000000e+00,5.000000000000000000e+00,5.000000000000000000e+00,5.000000000000000000e+00,5.000000000000000000e+00,5.000000000000000000e+00,5.000000000000000000e+00,5.000000000000000000e+00,5.000000000000000000e+00,5.000000000000000000e+00,5.000000000000000000e+00,5.000000000000000000e+00,5.000000000000000000e+00,5.000000000000000000e+00,5.000000000000000000e+00,5.000000000000000000e+00,5.000000000000000000e+00,5.000000000000000000e+00,5.000000000000000000e+00,5.000000000000000000e+00,5.000000000000000000e+00,5.000000000000000000e+00,5.000000000000000000e+00,5.000000000000000000e+00,5.000000000000000000e+00,5.000000000000000000e+00,5.000000000000000000e+00,5.000000000000000000e+00,5.000000000000000000e+00,5.000000000000000000e+00,5.000000000000000000e+00,5.000000000000000000e+00,5.000000000000000000e+00,5.000000000000000000e+00,5.000000000000000000e+00,5.000000000000000000e+00,5.000000000000000000e+00,5.000000000000000000e+00,1.437759160995483398e+00,1.428755044937133789e+00,1.420221209526062012e+00,1.372794151306152344e+00,1.345667600631713867e+00,1.340188145637512207e+00,1.334753274917602539e+00,1.329499840736389160e+00,1.350358486175537109e+00,1.422864437103271484e+00,1.395985126495361328e+00,1.388089179992675781e+00,1.380282044410705566e+00,1.374166846275329590e+00,1.400847077369689941e+00,3.014591455459594727e+00,1.512340307235717773e+00,1.475978732109069824e+00,1.467313528060913086e+00,2.737053632736206055e+00,2.675474643707275391e+00,2.616605281829833984e+00,2.560270786285400391e+00,2.506311178207397461e+00,2.454578638076782227e+00,2.404938697814941406e+00,2.357266902923583984e+00,2.311448097229003906e+00,2.267376661300659180e+00,2.224954128265380859e+00,2.184090137481689453e+00,2.144700050354003906e+00,2.106705665588378906e+00,2.070033788681030273e+00,2.034616947174072266e+00,2.000391721725463867e+00,1.967298746109008789e+00,1.935282707214355469e+00,1.904292345046997070e+00,1.874278783798217773e+00,1.845196485519409180e+00
5.000000000000000000e+00,5.000000000000000000e+00,5.000000000000000000e+00,5.000000000000000000e+00,5.000000000000000000e+00,5.000000000000000000e+00,5.000000000000000000e+00,5.000000000000000000e+00,5.000000000000000000e+00,5.000000000000000000e+00,5.000000000000000000e+00,5.000000000000000000e+00,5.000000000000000000e+00,5.000000000000000000e+00,5.000000000000000000e+00,5.000000000000000000e+00,5.000000000000000000e+00,5.000000000000000000e+00,5.000000000000000000e+00,5.000000000000000000e+00,5.000000000000000000e+00,5.000000000000000000e+00,5.000000000000000000e+00,5.000000000000000000e+00,5.000000000000000000e+00,5.000000000000000000e+00,5.000000000000000000e+00,5.000000000000000000e+00,5.000000000000000000e+00,5.000000000000000000e+00,5.000000000000000000e+00,5.000000000000000000e+00,5.000000000000000000e+00,5.000000000000000000e+00,5.000000000000000000e+00,5.000000000000000000e+00,5.000000000000000000e+00,5.000000000000000000e+00,5.000000000000000000e+00,1.430285453796386719e+00,1.421602725982666016e+00,1.429639220237731934e+00,1.363335132598876953e+00,1.343307018280029297e+00,1.337901115417480469e+00,1.332538485527038574e+00,1.327218651771545410e+00,1.342893958091735840e+00,1.372822284698486328e+00,1.391041636466979980e+00,1.379781723022460938e+00,1.374647140502929688e+00,1.369550824165344238e+00,1.390385031700134277e+00,1.427981853485107422e+00,2.940111875534057617e+00,1.456177949905395508e+00,1.442011594772338867e+00,1.474906921386718750e+00,2.675516843795776367e+00,2.616645574569702148e+00,2.560309648513793945e+00,2.506348133087158203e+00,2.454614162445068359e+00,2.404972791671752930e+00,2.357299804687500000e+00,2.311479568481445312e+00,2.267406940460205078e+00,2.224983453750610352e+00,2.184118270874023438e+00,2.144727230072021484e+00,2.106731653213500977e+00,2.070059061050415039e+00,2.034641265869140625e+00,2.000415325164794922e+00,1.967321634292602539e+00,1.935304760932922363e+00,1.904313683509826660e+00,1.874299526214599609e+00,1.845216512680053711e+00
5.000000000000000000e+00,5.000000000000000000e+00,5.000000000000000000e+00,5.000000000000000000e+00,5.000000000000000000e+00,5.000000000000000000e+00,5.000000000000000000e+00,5.000000000000000000e+00,5.000000000000000000e+00,5.000000000000000000e+00,5.000000000000000000e+00,5.000000000000000000e+00,5.000000000000000000e+00,5.000000000000000000e+00,5.000000000000000000e+00,5.000000000000000000e+00,5.000000000000000000e+00,5.000000000000000000e+00,5.000000000000000000e+00,5.000000000000000000e+00,5.000000000000000000e+00,5.000000000000000000e+00,5.000000000000000000e+00,5.000000000000000000e+00,5.000000000000000000e+00,5.000000000000000000e+00,5.000000000000000000e+00,5.000000000000000000e+00,5.000000000000000000e+00,5.000000000000000000e+00,5.000000000000000000e+00,5.000000000000000000e+00,5.000000000000000000e+00,5.000000000000000000e+00,5.000000000000000000e+00,5.000000000000000000e+00,5.000000000000000000e+00,5.000000000000000000e+00,5.000000000000000000e+00,1.439641714096069336e+00,1.437602043151855469e+00,1.437634944915771484e+00,1.370492577552795410e+00,1.342617034912109375e+00,1.336735606193542480e+00,1.331382155418395996e+00,1.326071739196777344e+00,1.339622139930725098e+00,1.367018103599548340e+00,1.392890930175781250e+00,1.377037644386291504e+00,1.371562480926513672e+00,1.366657733917236328e+00,1.382259011268615723e+00,1.418481826782226562e+00,2.940162897109985352e+00,1.428209185600280762e+00,1.425768256187438965e+00,1.422622442245483398e+00,2.675559043884277344e+00,2.616686105728149414e+00,2.560348272323608398e+00,2.506385087966918945e+00,2.454649925231933594e+00,2.405007123947143555e+00,2.357332468032836914e+00,2.311511039733886719e+00,2.267437219619750977e+00,2.225012540817260742e+00,2.184146404266357422e+00,2.144754409790039062e+00,2.106757879257202148e+00,2.070084333419799805e+00,2.034665822982788086e+00,2.000438928604125977e+00,1.967344403266906738e+00,1.935326814651489258e+00,1.904335141181945801e+00,1.874320268630981445e+00,1.845236659049987793e+00
5.000000000000000000e+00,5.000000000000000000e+00,5.000000000000000000e+00,5.000000000000000000e+00,5.000000000000000000e+00,5.000000000000000000e+00,5.000000000000000000e+00,5.000000000000000000e+00,5.000000000000000000e+00,5.000000000000000000e+00,5.000000000000000000e+00,5.000000000000000000e+00,5.000000000000000000e+00,5.000000000000000000e+00,5.000000000000000000e+00,5.000000000000000000e+00,5.000000000000000000e+00,5.000000000000000000e+00,5.000000000000000000e+00,5.000000000000000000e+00,5.000000000000000000e+00,5.000000000000000000e+00,5.000000000000000000e+00,5.000000000000000000e+00,5.000000000000000000e+00,5.000000000000000000e+00,5.000000000000000000e+00,5.000000000000000000e+00,5.000000000000000000e+00,5.000000000000000000e+00,5.000000000000000000e+00,5.000000000000000000e+00,5.000000000000000000e+00,5.000000000000000000e+00,5.000000000000000000e+00,5.000000000000000000e+00,5.000000000000000000e+00,5.000000000000000000e+00,5.000000000000000000e+00,1.432407140731811523e+00,1.425150752067565918e+00,1.449252367019653320e+00,1.379219412803649902e+00,1.342391848564147949e+00,1.335887312889099121e+00,1.330227971076965332e+00,1.324926614761352539e+00,1.336594104766845703e+00,1.363007426261901855e+00,1.395147800445556641e+00,1.375235676765441895e+00,1.370455861091613770e+00,1.365708947181701660e+00,1.376497268676757812e+00,1.412414908409118652e+00,2.940213918685913086e+00,2.869272232055664062e+00,1.404928445816040039e+00,1.413857579231262207e+00,2.675601243972778320e+00,2.616726636886596680e+00,2.560386896133422852e+00,2.506422281265258789e+00,2.454685449600219727e+00,2.405041217803955078e+00,2.357365369796752930e+00,2.311542749404907227e+00,2.267467498779296875e+00,2.225041866302490234e+00,2.184174537658691406e+00,2.144781351089477539e+00,2.106784105300903320e+00,2.070109605789184570e+00,2.034690141677856445e+00,2.000462532043457031e+00,1.967367291450500488e+00,1.935349225997924805e+00,1.904356479644775391e+00,1.874341011047363281e+00,1.845256686210632324e+00
4.050845623016357422e+00,4.036590576171875000e+00,5.000000000000000000e+00,5.000000000000000000e+00,5.000000000000000000e+00,5.000000000000000000e+00,5.000000000000000000e+00,5.000000000000000000e+00,5.000000000000000000e+00,5.000000000000000000e+00,5.000000000000000000e+00,5.000000000000000000e+00,5.000000000000000000e+00,5.000000000000000000e+00,5.000000000000000000e+00,5.000000000000000000e+00,5.000000000000000000e+00,5.000000000000000000e+00,5.000000000000000000e+00,5.000000000000000000e+00,5.000000000000000000e+00,5.000000000000000000e+00,5.000000000000000000e+00,5.000000000000000000e+00,5.000000000000000000e+00,5.000000000000000000e+00,5.000000000000000000e+00,5.000000000000000000e+00,5.000000000000000000e+00,5.000000000000000000e+00,5.000000000000000000e+00,5.000000000000000000e+00,5.000000000000000000e+00,5.000000000000000000e+00,5.000000000000000000e+00,5.000000000000000000e+00,5.000000000000000000e+00,5.000000000000000000e+00,5.000000000000000000e+00,1.415774226188659668e+00,1.406540632247924805e+00,1.406179904937744141e+00,1.388058066368103027e+00,1.346524357795715332e+00,1.335664510726928711e+00,1.329224705696105957e+00,1.323783636093139648e+00,1.333579659461975098e+00,1.358280062675476074e+00,1.396640896797180176e+00,1.372816681861877441e+00,1.369501829147338867e+00,1.364761710166931152e+00,1.370783329010009766e+00,1.407666683197021484e+00,2.940264940261840820e+00,2.869320869445800781e+00,1.400581955909729004e+00,1.453051567077636719e+00,1.395655035972595215e+00,2.616767168045043945e+00,2.560425758361816406e+00,2.506459236145019531e+00,2.454720973968505859e+00,2.405075311660766602e+00,2.357398033142089844e+00,2.311574220657348633e+00,2.267498016357421875e+00,2.225070953369140625e+00,2.184202671051025391e+00,2.144808530807495117e+00,2.106810331344604492e+00,2.070134878158569336e+00,2.034714698791503906e+00,2.000486135482788086e+00,1.967390179634094238e+00,1.935371279716491699e+00,1.904377937316894531e+00,1.874361634254455566e+00,1.845276832580566406e+00
4.043484687805175781e+00,4.033846855163574219e+00,4.089651584625244141e+00,5.000000000000000000e+00,5.000000000000000000e+00,5.000000000000000000e+00,5.000000000000000000e+00,5.000000000000000000e+00,5.000000000000000000e+00,5.000000000000000000e+00,5.000000000000000000e+00,5.000000000000000000e+00,5.000000000000000000e+00,5.000000000000000000e+00,5.000000000000000000e+00,5.000000000000000000e+00,5.000000000000000000e+00,5.000000000000000000e+00,5.000000000000000000e+00,5.000000000000000000e+00,5.000000000000000000e+00,5.000000000000000000e+00,5.000000000000000000e+00,5.000000000000000000e+00,5.000000000000000000e+00,5.000000000000000000e+00,5.000000000000000000e+00,5.000000000000000000e+00,5.000000000000000000e+00,5.000000000000000000e+00,5.000000000000000000e+00,5.000000000000000000e+00,5.000000000000000000e+00,5.000000000000000000e+00,5.000000000000000000e+00,5.000000000000000000e+00,5.000000000000000000e+00,5.000000000000000000e+00,5.000000000000000000e+00,1.401025295257568359e+00,1.406936287879943848e+00,1.392867088317871094e+00,1.400795936584472656e+00,1.355187773704528809e+00,1.335441708564758301e+00,1.329004049301147461e+00,1.322642445564270020e+00,1.330356001853942871e+00,1.353585362434387207e+00,1.398035049438476562e+00,1.370190739631652832e+00,1.367297530174255371e+00,1.363815546035766602e+00,1.365116596221923828e+00,1.403614640235900879e+00,2.940315961837768555e+00,2.869369506835937500e+00,2.801766157150268555e+00,2.737275123596191406e+00,1.378637433052062988e+00,2.616807460784912109e+00,2.560464382171630859e+00,2.506496429443359375e+00,2.454756498336791992e+00,2.405109405517578125e+00,2.357430934906005859e+00,2.311605691909790039e+00,2.267528295516967773e+00,2.225100278854370117e+00,2.184231042861938477e+00,2.144835710525512695e+00,2.106836557388305664e+00,2.070160150527954102e+00,2.034739017486572266e+00,2.000509738922119141e+00,1.967412948608398438e+00,1.935393452644348145e+00,1.904399275779724121e+00,1.874382376670837402e+00,1.845296978950500488e+00
5.000000000000000000e+00,4.041468620300292969e+00,4.104510307312011719e+00,5.000000000000000000e+00,5.000000000000000000e+00,5.000000000000000000e+00,5.000000000000000000e+00,5.000000000000000000e+00,5.000000000000000000e+00,5.000000000000000000e+00,5.000000000000000000e+00,5.000000000000000000e+00,5.000000000000000000e+00,5.000000000000000000e+00,5.000000000000000000e+00,5.000000000000000000e+00,5.000000000000000000e+00,5.000000000000000000e+00,5.000000000000000000e+00,5.000000000000000000e+00,5.000000000000000000e+00,5.000000000000000000e+00,5.000000000000000000e+00,5.000000000000000000e+00,5.000000000000000000e+00,5.000000000000000000e+00,5.000000000000000000e+00,5.000000000000000000e+00,5.000000000000000000e+00,5.000000000000000000e+00,5.000000000000000000e+00,5.000000000000000000e+00,5.000000000000000000e+00,5.000000000000000000e+00,5.000000000000000000e+00,5.000000000000000000e+00,5.000000000000000000e+00,5.000000000000000000e+00,5.000000000000000000e+00,1.409922599792480469e+00,4.673837661743164062e+00,1.386662364006042480e+00,1.420603990554809570e+00,1.363963246345520020e+00,1.335102796554565430e+00,1.328455209732055664e+00,1.321873426437377930e+00,1.325879693031311035e+00,1.348922848701477051e+00,1.399330139160156250e+00,1.369892358779907227e+00,1.364692687988281250e+00,1.361822724342346191e+00,1.359496593475341797e+00,1.399585843086242676e+00,2.940366983413696289e+00,2.869418144226074219e+00,2.801812648773193359e+00,2.737319231033325195e+00,1.443984389305114746e+00,2.616847991943359375e+00,2.560503005981445312e+00,2.506533384323120117e+00,2.454792022705078125e+00,2.405143499374389648e+00,2.357463598251342773e+00,2.311637163162231445e+00,2.267558574676513672e+00,2.225129365921020508e+00,2.184259176254272461e+00,2.144862890243530273e+00,2.106862783432006836e+00,2.070185422897338867e+00,2.034763574600219727e+00,2.000533342361450195e+00,1.967435836791992188e+00,1.935415506362915039e+00,1.904420733451843262e+00,1.874403119087219238e+00,1.845317006111145020e+00
5.000000000000000000e+00,4.106860160827636719e+00,4.159803867340087891e+00,5.000000000000000000e+00,5.000000000000000000e+00,5.000000000000000000e+00,5.000000000000000000e+00,5.000000000000000000e+00,5.000000000000000000e+00,5.000000000000000000e+00,5.000000000000000000e+00,5.000000000000000000e+00,5.000000000000000000e+00,5.000000000000000000e+00,5.000000000000000000e+00,5.000000000000000000e+00,5.000000000000000000e+00,5.000000000000000000e+00,5.000000000000000000e+00,5.000000000000000000e+00,5.000000000000000000e+00,5.000000000000000000e+00,5.000000000000000000e+00,5.000000000000000000e+00,5.000000000000000000e+00,5.000000000000000000e+00,5.000000000000000000e+00,5.000000000000000000e+00,5.000000000000000000e+00,5.000000000000000000e+00,5.000000000000000000e+00,5.000000000000000000e+00,5.000000000000000000e+00,5.000000000000000000e+00,5.000000000000000000e+00,5.000000000000000000e+00,5.000000000000000000e+00,5.000000000000000000e+00,5.000000000000000000e+00,1.408726215362548828e+00,4.673966407775878906e+00,4.497209072113037109e+00,1.438434004783630371e+00,1.373290777206420898e+00,1.333876252174377441e+00,1.325541853904724121e+00,1.318988800048828125e+00,1.321668863296508789e+00,1.344487428665161133e+00,1.400604724884033203e+00,1.371113657951354980e+00,1.362177371978759766e+00,1.359649777412414551e+00,1.357131600379943848e+00,1.394754648208618164e+00,2.940418004989624023e+00,2.869466543197631836e+00,2.801858901977539062e+00,2.737363338470458984e+00,2.675770521163940430e+00,2.616888284683227539e+00,2.560541629791259766e+00,2.506570577621459961e+00,2.454827547073364258e+00,2.405177593231201172e+00,2.357496500015258789e+00,2.311668872833251953e+00,2.267588853836059570e+00,2.225158691406250000e+00,2.184287309646606445e+00,2.144890069961547852e+00,2.106889009475708008e+00,2.070210695266723633e+00,2.034788131713867188e+00,2.000556945800781250e+00,1.967458605766296387e+00,1.935437560081481934e+00,1.904442071914672852e+00,1.874423861503601074e+00,1.845337152481079102e+00
4.020045280456542969e+00,4.058485031127929688e+00,4.093893051147460938e+00,4.150430202484130859e+00,4.193066120147705078e+00,5.000000000000000000e+00,5.000000000000000000e+00,5.000000000000000000e+00,5.000000000000000000e+00,5.000000000000000000e+00,5.000000000000000000e+00,5.000000000000000000e+00,5.000000000000000000e+00,5.000000000000000000e+00,5.000000000000000000e+00,5.000000000000000000e+00,5.000000000000000000e+00,5.000000000000000000e+00,5.000000000000000000e+00,5.000000000000000000e+00,5.000000000000000000e+00,5.000000000000000000e+00,5.000000000000000000e+00,5.000000000000000000e+00,5.000000000000000000e+00,5.000000000000000000e+00,5.000000000000000000e+00,5.000000000000000000e+00,5.000000000000000000e+00,5.000000000000000000e+00,5.000000000000000000e+00,5.000000000000000000e+00,5.000000000000000000e+00,5.000000000000000000e+00,5.000000000000000000e+00,5.000000000000000000e+00,5.000000000000000000e+00,5.000000000000000000e+00,5.000000000000000000e+00,1.402242898941040039e+00,4.674095630645751953e+00,4.497328281402587891e+00,4.333443641662597656e+00,1.383393406867980957e+00,1.339812874794006348e+00,1.322641372680664062e+00,1.316116929054260254e+00,1.317484855651855469e+00,1.340157866477966309e+00,1.401349067687988281e+00,1.370588660240173340e+00,1.361134171485900879e+00,1.358610510826110840e+00,1.356096148490905762e+00,1.386414647102355957e+00,2.940469026565551758e+00,2.869515419006347656e+00,2.801905155181884766e+00,2.737407684326171875e+00,2.675812721252441406e+00,2.616928815841674805e+00,2.560580492019653320e+00,2.506607532501220703e+00,2.454863071441650391e+00,2.405211925506591797e+00,2.357529163360595703e+00,2.311700344085693359e+00,2.267619371414184570e+00,2.225188016891479492e+00,2.184315443038940430e+00,2.144917249679565430e+00,2.106915235519409180e+00,2.070236206054687500e+00,2.034812450408935547e+00,2.000580549240112305e+00,1.967481493949890137e+00,1.935459733009338379e+00,1.904463529586791992e+00,1.874444603919982910e+00,1.845357179641723633e+00
3.987225770950317383e+00,4.018600940704345703e+00,4.053742885589599609e+00,4.108486175537109375e+00,4.198425292968750000e+00,4.242188930511474609e+00,5.000000000000000000e+00,5.000000000000000000e+00,5.000000000000000000e+00,5.000000000000000000e+00,5.000000000000000000e+00,5.000000000000000000e+00,5.000000000000000000e+00,5.000000000000000000e+00,5.000000000000000000e+00,5.000000000000000000e+00,5.000000000000000000e+00,5.000000000000000000e+00,5.000000000000000000e+00,5.000000000000000000e+00,5.000000000000000000e+00,5.000000000000000000e+00,5.000000000000000000e+00,5.000000000000000000e+00,5.000000000000000000e+00,5.000000000000000000e+00,5.000000000000000000e+00,5.000000000000000000e+00,5.000000000000000000e+00,5.000000000000000000e+00,5.000000000000000000e+00,5.000000000000000000e+00,5.000000000000000000e+00,5.000000000000000000e+00,5.000000000000000000e+00,5.000000000000000000e+00,5.000000000000000000e+00,5.000000000000000000e+00,1.431982755661010742e+00,4.865467071533203125e+00,4.674224376678466797e+00,4.497447490692138672e+00,4.333554267883300781e+00,1.401151180267333984e+00,1.350326061248779297e+00,1.323308229446411133e+00,1.313257455825805664e+00,1.313327074050903320e+00,1.333841323852539062e+00,1.400208353996276855e+00,1.370807051658630371e+00,1.358143091201782227e+00,1.357572793960571289e+00,1.355062246322631836e+00,1.378173828125000000e+00,2.940520286560058594e+00,2.869564056396484375e+00,2.801951646804809570e+00,2.737451791763305664e+00,2.675854921340942383e+00,2.616969108581542969e+00,2.560619115829467773e+00,2.506644725799560547e+00,2.454898834228515625e+00,2.405246019363403320e+00,2.357562065124511719e+00,2.311731815338134766e+00,2.267649650573730469e+00,2.225217103958129883e+00,2.184343576431274414e+00,2.144944429397583008e+00,2.106941461563110352e+00,2.070261478424072266e+00,2.034837007522583008e+00,2.000604152679443359e+00,1.967504382133483887e+00,1.935481786727905273e+00,1.904484868049621582e+00,1.874465346336364746e+00,1.845377326011657715e+00
3.995445251464843750e+00,4.017804622650146484e+00,4.052836894989013672e+00,4.114124298095703125e+00,4.217882156372070312e+00,4.264714241027832031e+00,5.000000000000000000e+00,5.000000000000000000e+00,5.000000000000000000e+00,5.000000000000000000e+00,5.000000000000000000e+00,5.000000000000000000e+00,5.000000000000000000e+00,5.000000000000000000e+00,5.000000000000000000e+00,5.000000000000000000e+00,5.000000000000000000e+00,5.000000000000000000e+00,5.000000000000000000e+00,5.000000000000000000e+00,5.000000000000000000e+00,5.000000000000000000e+00,5.000000000000000000e+00,5.000000000000000000e+00,5.000000000000000000e+00,5.000000000000000000e+00,5.000000000000000000e+00,5.000000000000000000e+00,5.000000000000000000e+00,5.000000000000000000e+00,5.000000000000000000e+00,5.000000000000000000e+00,5.000000000000000000e+00,5.000000000000000000e+00,5.000000000000000000e+00,5.000000000000000000e+00,5.000000000000000000e+00,5.000000000000000000e+00,5.000000000000000000e+00,4.865606784820556641e+00,4.674353599548339844e+00,4.497566699981689453e+00,4.333665370941162109e+00,1.417629599571228027e+00,1.360283136367797852e+00,1.324573874473571777e+00,1.311663031578063965e+00,1.309195518493652344e+00,1.327564954757690430e+00,1.399069547653198242e+00,1.371688604354858398e+00,1.354735732078552246e+00,1.355631589889526367e+00,1.354030013084411621e+00,1.370030403137207031e+00,2.940571308135986328e+00,2.869612693786621094e+00,2.801997900009155273e+00,2.737496137619018555e+00,2.675897359848022461e+00,2.617009639739990234e+00,2.560657739639282227e+00,2.506681680679321289e+00,2.454934358596801758e+00,2.405280113220214844e+00,2.357594728469848633e+00,2.311763525009155273e+00,2.267679929733276367e+00,2.225246429443359375e+00,2.184371709823608398e+00,2.144971609115600586e+00,2.106967687606811523e+00,2.070286750793457031e+00,2.034861326217651367e+00,2.000627756118774414e+00,1.967527151107788086e+00,1.935503959655761719e+00,1.904506325721740723e+00,1.874486088752746582e+00,1.845397353172302246e+00
3.993902206420898438e+00,4.015756130218505859e+00,4.052433490753173828e+00,4.113939762115478516e+00,4.217756748199462891e+00,4.274443149566650391e+00,5.000000000000000000e+00,5.000000000000000000e+00,5.000000000000000000e+00,5.000000000000000000e+00,5.000000000000000000e+00,5.000000000000000000e+00,5.000000000000000000e+00,5.000000000000000000e+00,5.000000000000000000e+00,5.000000000000000000e+00,5.000000000000000000e+00,5.000000000000000000e+00,5.000000000000000000e+00,5.000000000000000000e+00,5.000000000000000000e+00,5.000000000000000000e+00,5.000000000000000000e+00,5.000000000000000000e+00,5.000000000000000000e+00,5.000000000000000000e+00,5.000000000000000000e+00,5.000000000000000000e+00,5.000000000000000000e+00,5.000000000000000000e+00,5.000000000000000000e+00,5.000000000000000000e+00,5.000000000000000000e+00,5.000000000000000000e+00,5.000000000000000000e+00,5.000000000000000000e+00,5.000000000000000000e+00,5.000000000000000000e+00,5.000000000000000000e+00,4.865746498107910156e+00,4.674482345581054688e+00,4.497686386108398438e+00,4.333775997161865234e+00,1.429005980491638184e+00,1.370194554328918457e+00,1.325841903686523438e+00,1.312906384468078613e+00,1.304444313049316406e+00,1.321347355842590332e+00,1.397932529449462891e+00,1.372571229934692383e+00,1.352259516716003418e+00,1.352236866950988770e+00,1.352999329566955566e+00,1.361982822418212891e+00,2.940622329711914062e+00,2.869661331176757812e+00,2.802044153213500977e+00,2.737540245056152344e+00,2.675939559936523438e+00,2.617049932479858398e+00,2.560696363449096680e+00,2.506718873977661133e+00,2.454969882965087891e+00,2.405314207077026367e+00,2.357627630233764648e+00,2.311794996261596680e+00,2.267710208892822266e+00,2.225275516510009766e+00,2.184399843215942383e+00,2.144998788833618164e+00,2.106993913650512695e+00,2.070312023162841797e+00,2.034885883331298828e+00,2.000651597976684570e+00,1.967550039291381836e+00,1.935526013374328613e+00,1.904527783393859863e+00,1.874506831169128418e+00,1.845417499542236328e+00
3.988909244537353516e+00,4.020740985870361328e+00,4.050201892852783203e+00,4.114399433135986328e+00,4.239116191864013672e+00,4.288451671600341797e+00,5.000000000000000000e+00,5.000000000000000000e+00,5.000000000000000000e+00,5.000000000000000000e+00,5.000000000000000000e+00,5.000000000000000000e+00,5.000000000000000000e+00,5.000000000000000000e+00,5.000000000000000000e+00,5.000000000000000000e+00,5.000000000000000000e+00,5.000000000000000000e+00,5.000000000000000000e+00,5.000000000000000000e+00,5.000000000000000000e+00,5.000000000000000000e+00,5.000000000000000000e+00,5.000000000000000000e+00,5.000000000000000000e+00,5.000000000000000000e+00,5.000000000000000000e+00,5.000000000000000000e+00,5.000000000000000000e+00,5.000000000000000000e+00,5.000000000000000000e+00,5.000000000000000000e+00,5.000000000000000000e+00,5.000000000000000000e+00,5.000000000000000000e+00,5.000000000000000000e+00,5.000000000000000000e+00,5.000000000000000000e+00,5.000000000000000000e+00,4.865886211395263672e+00,4.674611091613769531e+00,4.497805595397949219e+00,4.333887100219726562e+00,4.181495666503906250e+00,1.383991360664367676e+00,1.333760619163513184e+00,1.312856078147888184e+00,1.303300499916076660e+00,1.319122195243835449e+00,1.398241519927978516e+00,1.373455047607421875e+00,1.353117346763610840e+00,1.348859071731567383e+00,1.349747061729431152e+00,1.354124665260314941e+00,2.940673351287841797e+00,2.869709730148315430e+00,2.802090644836425781e+00,2.737584590911865234e+00,2.675981760025024414e+00,2.617090463638305664e+00,2.560735225677490234e+00,2.506756067276000977e+00,2.455005407333374023e+00,2.405348300933837891e+00,2.357660531997680664e+00,2.311826467514038086e+00,2.267740726470947266e+00,2.225304841995239258e+00,2.184428215026855469e+00,2.145025968551635742e+00,2.107019901275634766e+00,2.070337295532226562e+00,2.034910202026367188e+00,2.000675201416015625e+00,1.967572808265686035e+00,1.935548186302185059e+00,1.904549121856689453e+00,1.874527573585510254e+00,1.845437645912170410e+00
3.995307683944702148e+00,4.015587329864501953e+00,4.059051990509033203e+00,4.106574058532714844e+00,4.252028465270996094e+00,4.294629573822021484e+00,5.000000000000000000e+00,5.000000000000000000e+00,5.000000000000000000e+00,5.000000000000000000e+00,5.000000000000000000e+00,5.000000000000000000e+00,5.000000000000000000e+00,5.000000000000000000e+00,5.000000000000000000e+00,5.000000000000000000e+00,5.000000000000000000e+00,5.000000000000000000e+00,5.000000000000000000e+00,5.000000000000000000e+00,5.000000000000000000e+00,5.000000000000000000e+00,5.000000000000000000e+00,5.000000000000000000e+00,5.000000000000000000e+00,5.000000000000000000e+00,5.000000000000000000e+00,5.000000000000000000e+00,5.000000000000000000e+00,5.000000000000000000e+00,5.000000000000000000e+00,5.000000000000000000e+00,5.000000000000000000e+00,5.000000000000000000e+00,5.000000000000000000e+00,5.000000000000000000e+00,5.000000000000000000e+00,5.000000000000000000e+00,5.000000000000000000e+00,4.866025924682617188e+00,4.674740314483642578e+00,4.497924804687500000e+00,4.333997726440429688e+00,4.181599140167236328e+00,1.395993828773498535e+00,1.345325112342834473e+00,1.318129181861877441e+00,1.306555390357971191e+00,1.321280121803283691e+00,3.453066825866699219e+00,1.374380469322204590e+00,1.354798078536987305e+00,1.349334955215454102e+00,1.350577712059020996e+00,1.357203245162963867e+00,2.940724372863769531e+00,2.869758367538452148e+00,2.802136898040771484e+00,2.737628698348999023e+00,2.676023960113525391e+00,2.617130756378173828e+00,2.560773849487304688e+00,2.506793022155761719e+00,2.455040931701660156e+00,2.405382633209228516e+00,2.357693195343017578e+00,2.311857938766479492e+00,2.267771005630493164e+00,2.225334167480468750e+00,2.184456348419189453e+00,2.145053148269653320e+00,2.107046127319335938e+00,2.070362567901611328e+00,2.034934759140014648e+00,2.000698804855346680e+00,1.967595696449279785e+00,1.935570240020751953e+00,1.904570579528808594e+00,1.874548316001892090e+00,1.845457673072814941e+00
4.006353378295898438e+00,4.031891822814941406e+00,4.074441432952880859e+00,4.120685577392578125e+00,4.244387626647949219e+00,4.279591083526611328e+00,5.000000000000000000e+00,5.000000000000000000e+00,5.000000000000000000e+00,5.000000000000000000e+00,5.000000000000000000e+00,5.000000000000000000e+00,5.000000000000000000e+00,5.000000000000000000e+00,5.000000000000000000e+00,5.000000000000000000e+00,5.000000000000000000e+00,5.000000000000000000e+00,5.000000000000000000e+00,5.000000000000000000e+00,5.000000000000000000e+00,5.000000000000000000e+00,5.000000000000000000e+00,5.000000000000000000e+00,5.000000000000000000e+00,5.000000000000000000e+00,5.000000000000000000e+00,5.000000000000000000e+00,5.000000000000000000e+00,5.000000000000000000e+00,5.000000000000000000e+00,5.000000000000000000e+00,5.000000000000000000e+00,5.000000000000000000e+00,5.000000000000000000e+00,5.000000000000000000e+00,5.000000000000000000e+00,5.000000000000000000e+00,5.000000000000000000e+00,4.866165637969970703e+00,4.674869060516357422e+00,4.498044490814208984e+00,4.334108829498291016e+00,4.181702613830566406e+00,1.400957107543945312e+00,1.349365949630737305e+00,1.325745344161987305e+00,1.315892457962036133e+00,1.332049369812011719e+00,1.470421910285949707e+00,1.377713322639465332e+00,1.358947873115539551e+00,1.353195428848266602e+00,1.355245709419250488e+00,1.366141438484191895e+00,2.940775394439697266e+00,2.869807004928588867e+00,2.802183151245117188e+00,2.737673044204711914e+00,2.676066398620605469e+00,2.617171287536621094e+00,2.560812473297119141e+00,2.506830215454101562e+00,2.455076456069946289e+00,2.405416727066040039e+00,2.357726097106933594e+00,2.311889648437500000e+00,2.267801523208618164e+00,2.225363492965698242e+00,2.184484481811523438e+00,2.145080089569091797e+00,2.107072353363037109e+00,2.070387840270996094e+00,2.034959077835083008e+00,2.000722408294677734e+00,1.967618584632873535e+00,1.935592293739318848e+00,1.904591917991638184e+00,1.874569058418273926e+00,1.845477819442749023e+00
4.024724960327148438e+00,4.054458141326904297e+00,4.008144378662109375e+00,4.058755397796630859e+00,4.265132427215576172e+00,4.267373085021972656e+00,5.000000000000000000e+00,5.000000000000000000e+00,5.000000000000000000e+00,5.000000000000000000e+00,5.000000000000000000e+00,5.000000000000000000e+00,5.000000000000000000e+00,5.000000000000000000e+00,5.000000000000000000e+00,5.000000000000000000e+00,5.000000000000000000e+00,5.000000000000000000e+00,5.000000000000000000e+00,5.000000000000000000e+00,5.000000000000000000e+00,5.000000000000000000e+00,5.000000000000000000e+00,5.000000000000000000e+00,5.000000000000000000e+00,5.000000000000000000e+00,5.000000000000000000e+00,5.000000000000000000e+00,5.000000000000000000e+00,5.000000000000000000e+00,5.000000000000000000e+00,5.000000000000000000e+00,5.000000000000000000e+00,5.000000000000000000e+00,5.000000000000000000e+00,5.000000000000000000e+00,5.000000000000000000e+00,5.000000000000000000e+00,5.000000000000000000e+00,4.866305351257324219e+00,4.674998283386230469e+00,4.498163700103759766e+00,4.334219932556152344e+00,4.181805610656738281e+00,1.397733807563781738e+00,1.353115320205688477e+00,1.337977766990661621e+00,1.328244805335998535e+00,1.344708561897277832e+00,1.419118165969848633e+00,1.389380335807800293e+00,1.366886377334594727e+00,1.362363576889038086e+00,1.364038944244384766e+00,3.015396356582641602e+00,2.940826416015625000e+00,2.869855642318725586e+00,2.802229642868041992e+00,2.737717151641845703e+00,2.676108598709106445e+00,2.617211580276489258e+00,2.560851335525512695e+00,2.506867170333862305e+00,2.455112218856811523e+00,2.405450820922851562e+00,2.357758760452270508e+00,2.311921358108520508e+00,2.267831802368164062e+00,2.225392580032348633e+00,2.184512615203857422e+00,2.145107269287109375e+00,2.107098579406738281e+00,2.070413112640380859e+00,2.034983634948730469e+00,2.000746011734008789e+00,1.967641353607177734e+00,1.935614466667175293e+00,1.904613375663757324e+00,1.874589800834655762e+00,1.845497846603393555e+00
4.027485847473144531e+00,4.032166004180908203e+00,3.982124090194702148e+00,4.027843952178955078e+00,5.000000000000000000e+00,4.267737388610839844e+00,5.000000000000000000e+00,5.000000000000000000e+00,5.000000000000000000e+00,5.000000000000000000e+00,5.000000000000000000e+00,5.000000000000000000e+00,5.000000000000000000e+00,5.000000000000000000e+00,5.000000000000000000e+00,5.000000000000000000e+00,5.000000000000000000e+00,5.000000000000000000e+00,5.000000000000000000e+00,5.000000000000000000e+00,5.000000000000000000e+00,5.000000000000000000e+00,5.000000000000000000e+00,5.000000000000000000e+00,5.000000000000000000e+00,5.000000000000000000e+00,5.000000000000000000e+00,5.000000000000000000e+00,5.000000000000000000e+00,5.000000000000000000e+00,5.000000000000000000e+00,5.000000000000000000e+00,5.000000000000000000e+00,5.000000000000000000e+00,5.000000000000000000e+00,5.000000000000000000e+00,5.000000000000000000e+00,5.000000000000000000e+00,5.000000000000000000e+00,4.866445064544677734e+00,4.675127029418945312e+00,4.498283386230468750e+00,4.334330558776855469e+00,4.181909084320068359e+00,1.391782760620117188e+00,1.360299587249755859e+00,1.350437998771667480e+00,1.340831518173217773e+00,1.361852645874023438e+00,1.446894288063049316e+00,1.411336779594421387e+00,1.380620121955871582e+00,1.378755331039428711e+00,1.379263877868652344e+00,3.015450000762939453e+00,2.940877437591552734e+00,2.869904279708862305e+00,2.802275896072387695e+00,2.737761497497558594e+00,2.676150798797607422e+00,2.617252111434936523e+00,2.560889959335327148e+00,2.506904363632202148e+00,2.455147743225097656e+00,2.405484914779663086e+00,2.357791662216186523e+00,2.311952829360961914e+00,2.267862319946289062e+00,2.225421905517578125e+00,2.184540748596191406e+00,2.145134449005126953e+00,2.107124805450439453e+00,2.070438385009765625e+00,2.035007953643798828e+00,2.000769615173339844e+00,1.967664241790771484e+00,1.935636520385742188e+00,1.904634714126586914e+00,1.874610543251037598e+00,1.845517992973327637e+00
4.043950080871582031e+00,4.117452621459960938e+00,3.955929994583129883e+00,3.999861001968383789e+00,4.198789596557617188e+00,4.250322818756103516e+00,5.000000000000000000e+00,5.000000000000000000e+00,5.000000000000000000e+00,5.000000000000000000e+00,5.000000000000000000e+00,5.000000000000000000e+00,5.000000000000000000e+00,5.000000000000000000e+00,5.000000000000000000e+00,5.000000000000000000e+00,5.000000000000000000e+00,5.000000000000000000e+00,5.000000000000000000e+00,5.000000000000000000e+00,5.000000000000000000e+00,5.000000000000000000e+00,5.000000000000000000e+00,5.000000000000000000e+00,5.000000000000000000e+00,5.000000000000000000e+00,5.000000000000000000e+00,5.000000000000000000e+00,5.000000000000000000e+00,5.000000000000000000e+00,5.000000000000000000e+00,5.000000000000000000e+00,5.000000000000000000e+00,5.000000000000000000e+00,5.000000000000000000e+00,5.000000000000000000e+00,5.000000000000000000e+00,5.000000000000000000e+00,5.000000000000000000e+00,4.866584777832031250e+00,4.675256252288818359e+00,4.498403072357177734e+00,4.334441661834716797e+00,4.182012081146240234e+00,1.393228769302368164e+00,1.367560625076293945e+00,1.359792232513427734e+00,1.353658914566040039e+00,1.384905219078063965e+00,1.464802861213684082e+00,1.433980464935302734e+00,1.417388081550598145e+00,1.414982676506042480e+00,3.093959331512451172e+00,3.015503644943237305e+00,2.940928459167480469e+00,2.869952917098999023e+00,2.802322149276733398e+00,2.737805604934692383e+00,2.676192998886108398e+00,2.617292404174804688e+00,2.560928583145141602e+00,2.506941318511962891e+00,2.455183267593383789e+00,2.405519008636474609e+00,2.357824563980102539e+00,2.311984300613403320e+00,2.267892599105834961e+00,2.225450992584228516e+00,2.184568881988525391e+00,2.145161628723144531e+00,2.107151031494140625e+00,2.070463657379150391e+00,2.035032510757446289e+00,2.000793218612670898e+00,1.967687129974365234e+00,1.935658693313598633e+00,1.904656171798706055e+00,1.874631285667419434e+00,1.845538139343261719e+00
4.065471172332763672e+00,4.131517410278320312e+00,3.927822828292846680e+00,3.971398115158081055e+00,5.000000000000000000e+00,4.239767551422119141e+00,5.000000000000000000e+00,5.000000000000000000e+00,5.000000000000000000e+00,5.000000000000000000e+00,5.000000000000000000e+00,5.000000000000000000e+00,5.000000000000000000e+00,5.000000000000000000e+00,5.000000000000000000e+00,5.000000000000000000e+00,5.000000000000000000e+00,5.000000000000000000e+00,5.000000000000000000e+00,5.000000000000000000e+00,5.000000000000000000e+00,5.000000000000000000e+00,5.000000000000000000e+00,5.000000000000000000e+00,5.000000000000000000e+00,5.000000000000000000e+00,5.000000000000000000e+00,5.000000000000000000e+00,5.000000000000000000e+00,5.000000000000000000e+00,5.000000000000000000e+00,5.000000000000000000e+00,5.000000000000000000e+00,5.000000000000000000e+00,5.000000000000000000e+00,5.000000000000000000e+00,5.000000000000000000e+00,5.000000000000000000e+00,5.000000000000000000e+00,4.866724491119384766e+00,4.675385475158691406e+00,4.498522281646728516e+00,4.334552288055419922e+00,4.182115077972412109e+00,1.400132179260253906e+00,1.376331925392150879e+00,1.368802547454833984e+00,1.369230031967163086e+00,1.405816912651062012e+00,1.489787697792053223e+00,1.472875237464904785e+00,1.456167936325073242e+00,3.176666259765625000e+00,3.094015836715698242e+00,3.015557289123535156e+00,2.940979480743408203e+00,2.870001316070556641e+00,2.802368640899658203e+00,2.737849950790405273e+00,2.676235437393188477e+00,2.617332935333251953e+00,2.560967445373535156e+00,2.506978511810302734e+00,2.455218791961669922e+00,2.405553340911865234e+00,2.357857465744018555e+00,2.312015771865844727e+00,2.267922878265380859e+00,2.225480318069458008e+00,2.184597015380859375e+00,2.145188808441162109e+00,2.107177257537841797e+00,2.070489168167114258e+00,2.035056829452514648e+00,2.000816822052001953e+00,1.967709898948669434e+00,1.935680747032165527e+00,1.904677510261535645e+00,1.874652028083801270e+00,1.845558166503906250e+00
4.084939479827880859e+00,4.147861480712890625e+00,3.906360149383544922e+00,3.957298517227172852e+00,5.000000000000000000e+00,5.000000000000000000e+00,5.000000000000000000e+00,5.000000000000000000e+00,5.000000000000000000e+00,5.000000000000000000e+00,5.000000000000000000e+00,5.000000000000000000e+00,5.000000000000000000e+00,5.000000000000000000e+00,5.000000000000000000e+00,5.000000000000000000e+00,5.000000000000000000e+00,5.000000000000000000e+00,5.000000000000000000e+00,5.000000000000000000e+00,5.000000000000000000e+00,5.000000000000000000e+00,5.000000000000000000e+00,5.000000000000000000e+00,5.000000000000000000e+00,5.000000000000000000e+00,5.000000000000000000e+00,5.000000000000000000e+00,5.000000000000000000e+00,5.000000000000000000e+00,5.000000000000000000e+00,5.000000000000000000e+00,5.000000000000000000e+00,5.000000000000000000e+00,5.000000000000000000e+00,5.000000000000000000e+00,5.000000000000000000e+00,5.000000000000000000e+00,5.000000000000000000e+00,4.866864681243896484e+00,4.675514221191406250e+00,4.498641490936279297e+00,4.334663391113281250e+00,4.182218551635742188e+00,1.407443761825561523e+00,1.382537603378295898e+00,1.374292254447937012e+00,1.376601099967956543e+00,1.407749772071838379e+00,1.512898087501525879e+00,1.501617193222045898e+00,1.517717957496643066e+00,3.176725625991821289e+00,3.094072341918945312e+00,3.015610933303833008e+00,2.941030502319335938e+00,2.870049953460693359e+00,2.802414894104003906e+00,2.737894058227539062e+00,2.676277637481689453e+00,2.617373228073120117e+00,2.561006069183349609e+00,2.507015466690063477e+00,2.455254554748535156e+00,2.405587673187255859e+00,2.357890129089355469e+00,2.312047481536865234e+00,2.267953157424926758e+00,2.225509405136108398e+00,2.184625387191772461e+00,2.145215988159179688e+00,2.107203483581542969e+00,2.070514440536499023e+00,2.035081386566162109e+00,2.000840425491333008e+00,1.967732787132263184e+00,1.935702919960021973e+00,1.904698967933654785e+00,1.874672770500183105e+00,1.845578432083129883e+00
4.104399681091308594e+00,4.168284416198730469e+00,3.915445327758789062e+00,3.960699081420898438e+00,5.000000000000000000e+00,5.000000000000000000e+00,5.000000000000000000e+00,5.000000000000000000e+00,5.000000000000000000e+00,5.000000000000000000e+00,5.000000000000000000e+00,5.000000000000000000e+00,5.000000000000000000e+00,5.000000000000000000e+00,5.000000000000000000e+00,5.000000000000000000e+00,5.000000000000000000e+00,5.000000000000000000e+00,5.000000000000000000e+00,5.000000000000000000e+00,5.000000000000000000e+00,5.000000000000000000e+00,5.000000000000000000e+00,5.000000000000000000e+00,5.000000000000000000e+00,5.000000000000000000e+00,5.000000000000000000e+00,5.000000000000000000e+00,5.000000000000000000e+00,5.000000000000000000e+00,5.000000000000000000e+00,5.000000000000000000e+00,5.000000000000000000e+00,5.000000000000000000e+00,5.000000000000000000e+00,5.000000000000000000e+00,5.000000000000000000e+00,5.000000000000000000e+00,5.000000000000000000e+00,4.867002964019775391e+00,4.675643444061279297e+00,4.498761177062988281e+00,4.334774017333984375e+00,4.182321548461914062e+00,1.414360284805297852e+00,1.388826727867126465e+00,1.377530694007873535e+00,1.378963232040405273e+00,1.409462213516235352e+00,1.536598563194274902e+00,1.525098919868469238e+00,3.263978958129882812e+00,3.176785230636596680e+00,3.094128847122192383e+00,3.015664577484130859e+00,2.941081523895263672e+00,2.870098590850830078e+00,2.802461385726928711e+00,2.737938404083251953e+00,2.676319837570190430e+00,2.617413759231567383e+00,2.561044692993164062e+00,2.507052659988403320e+00,2.455290079116821289e+00,2.405621767044067383e+00,2.357923030853271484e+00,2.312078952789306641e+00,2.267983675003051758e+00,2.225538730621337891e+00,2.184653520584106445e+00,2.145243167877197266e+00,2.107229471206665039e+00,2.070539712905883789e+00,2.035105705261230469e+00,2.000864028930664062e+00,1.967755675315856934e+00,1.935724973678588867e+00,1.904720425605773926e+00,1.874693393707275391e+00,1.845598578453063965e+00
4.156850814819335938e+00,4.224063873291015625e+00,3.931788921356201172e+00,3.963936328887939453e+00,5.000000000000000000e+00,5.000000000000000000e+00,5.000000000000000000e+00,5.000000000000000000e+00,5.000000000000000000e+00,5.000000000000000000e+00,5.000000000000000000e+00,5.000000000000000000e+00,5.000000000000000000e+00,5.000000000000000000e+00,5.000000000000000000e+00,5.000000000000000000e+00,5.000000000000000000e+00,5.000000000000000000e+00,5.000000000000000000e+00,5.000000000000000000e+00,5.000000000000000000e+00,5.000000000000000000e+00,5.000000000000000000e+00,5.000000000000000000e+00,5.000000000000000000e+00,5.000000000000000000e+00,5.000000000000000000e+00,5.000000000000000000e+00,5.000000000000000000e+00,5.000000000000000000e+00,5.000000000000000000e+00,5.000000000000000000e+00,5.000000000000000000e+00,5.000000000000000000e+00,5.000000000000000000e+00,5.000000000000000000e+00,5.000000000000000000e+00,5.000000000000000000e+00,5.000000000000000000e+00,4.867141723632812500e+00,4.675771236419677734e+00,4.498880386352539062e+00,4.334885120391845703e+00,4.182425022125244141e+00,1.421344995498657227e+00,1.395691633224487305e+00,1.380784630775451660e+00,1.381333589553833008e+00,1.411178588867187500e+00,1.560831904411315918e+00,1.563840270042419434e+00,3.264041900634765625e+00,3.176844835281372070e+00,3.094185352325439453e+00,3.015718221664428711e+00,2.941132545471191406e+00,2.870147228240966797e+00,2.802507638931274414e+00,2.737982749938964844e+00,2.676362037658691406e+00,2.617454051971435547e+00,2.561083555221557617e+00,2.507089853286743164e+00,2.455325603485107422e+00,2.405655860900878906e+00,2.357955932617187500e+00,2.312110424041748047e+00,2.268013954162597656e+00,2.225568056106567383e+00,2.184681653976440430e+00,2.145270347595214844e+00,2.107255697250366211e+00,2.070564985275268555e+00,2.035130262374877930e+00,2.000887632369995117e+00,1.967778444290161133e+00,1.935747146606445312e+00,1.904741764068603516e+00,1.874714136123657227e+00,1.845618724822998047e+00
4.219443798065185547e+00,4.268061637878417969e+00,3.922909736633300781e+00,3.955680608749389648e+00,5.000000000000000000e+00,5.000000000000000000e+00,5.000000000000000000e+00,5.000000000000000000e+00,5.000000000000000000e+00,5.000000000000000000e+00,5.000000000000000000e+00,5.000000000000000000e+00,5.000000000000000000e+00,5.000000000000000000e+00,5.000000000000000000e+00,5.000000000000000000e+00,5.000000000000000000e+00,5.000000000000000000e+00,5.000000000000000000e+00,5.000000000000000000e+00,5.000000000000000000e+00,5.000000000000000000e+00,5.000000000000000000e+00,5.000000000000000000e+00,5.000000000000000000e+00,5.000000000000000000e+00,5.000000000000000000e+00,5.000000000000000000e+00,5.000000000000000000e+00,5.000000000000000000e+00,5.000000000000000000e+00,5.000000000000000000e+00,5.000000000000000000e+00,5.000000000000000000e+00,5.000000000000000000e+00,5.000000000000000000e+00,5.000000000000000000e+00,5.000000000000000000e+00,5.000000000000000000e+00,4.867280483245849609e+00,4.675899028778076172e+00,4.499000072479248047e+00,4.334995746612548828e+00,4.182528018951416016e+00,1.428398966789245605e+00,1.402624726295471191e+00,1.384847283363342285e+00,1.383712172508239746e+00,1.412899374961853027e+00,1.585878133773803711e+00,3.356227159500122070e+00,3.264104843139648438e+00,3.176904439926147461e+00,3.094241857528686523e+00,3.015771865844726562e+00,2.941183805465698242e+00,2.870195865631103516e+00,2.802553892135620117e+00,2.738026857376098633e+00,2.676404476165771484e+00,2.617494583129882812e+00,2.561122417449951172e+00,2.507127046585083008e+00,2.455361366271972656e+00,2.405689954757690430e+00,2.357988595962524414e+00,2.312142133712768555e+00,2.268044233322143555e+00,2.225597143173217773e+00,2.184709787368774414e+00,2.145297527313232422e+00,2.107281923294067383e+00,2.070590257644653320e+00,2.035154581069946289e+00,2.000911235809326172e+00,1.967801332473754883e+00,1.935769200325012207e+00,1.904763460159301758e+00,1.874734878540039062e+00,1.845638751983642578e+00
4.262884616851806641e+00,4.296620845794677734e+00,3.913265466690063477e+00,3.953304052352905273e+00,5.000000000000000000e+00,5.000000000000000000e+00,5.000000000000000000e+00,5.000000000000000000e+00,5.000000000000000000e+00,5.000000000000000000e+00,5.000000000000000000e+00,5.000000000000000000e+00,5.000000000000000000e+00,5.000000000000000000e+00,5.000000000000000000e+00,5.000000000000000000e+00,5.000000000000000000e+00,5.000000000000000000e+00,5.000000000000000000e+00,5.000000000000000000e+00,5.000000000000000000e+00,5.000000000000000000e+00,5.000000000000000000e+00,5.000000000000000000e+00,5.000000000000000000e+00,5.000000000000000000e+00,5.000000000000000000e+00,5.000000000000000000e+00,5.000000000000000000e+00,5.000000000000000000e+00,5.000000000000000000e+00,5.000000000000000000e+00,5.000000000000000000e+00,5.000000000000000000e+00,5.000000000000000000e+00,5.000000000000000000e+00,5.000000000000000000e+00,5.000000000000000000e+00,5.000000000000000000e+00,4.867419719696044922e+00,4.676027774810791016e+00,4.499117851257324219e+00,4.335106849670410156e+00,4.182631492614746094e+00,1.435523390769958496e+00,1.409626960754394531e+00,1.389830112457275391e+00,1.386098742485046387e+00,1.414624214172363281e+00,3.453771114349365234e+00,3.356293678283691406e+00,3.264167547225952148e+00,3.176964044570922852e+00,3.094298362731933594e+00,3.015825510025024414e+00,2.941234827041625977e+00,2.870244503021240234e+00,2.802600383758544922e+00,2.738071203231811523e+00,2.676446676254272461e+00,2.617535114288330078e+00,2.561161041259765625e+00,2.507164001464843750e+00,2.455396890640258789e+00,2.405724048614501953e+00,2.358021497726440430e+00,2.312173604965209961e+00,2.268074750900268555e+00,2.225626468658447266e+00,2.184737920761108398e+00,2.145324707031250000e+00,2.107308149337768555e+00,2.070615530014038086e+00,2.035179138183593750e+00,2.000934839248657227e+00,1.967824220657348633e+00,1.935791373252868652e+00,1.904784798622131348e+00,1.874755620956420898e+00,1.845658898353576660e+00
4.337015151977539062e+00,4.328615665435791016e+00,3.905215978622436523e+00,3.953451395034790039e+00,5.000000000000000000e+00,5.000000000000000000e+00,5.000000000000000000e+00,5.000000000000000000e+00,5.000000000000000000e+00,5.000000000000000000e+00,5.000000000000000000e+00,5.000000000000000000e+00,5.000000000000000000e+00,5.000000000000000000e+00,5.000000000000000000e+00,5.000000000000000000e+00,5.000000000000000000e+00,5.000000000000000000e+00,5.000000000000000000e+00,5.000000000000000000e+00,5.000000000000000000e+00,5.000000000000000000e+00,5.000000000000000000e+00,5.000000000000000000e+00,5.000000000000000000e+00,5.000000000000000000e+00,5.000000000000000000e+00,5.000000000000000000e+00,5.000000000000000000e+00,5.000000000000000000e+00,5.000000000000000000e+00,5.000000000000000000e+00,5.000000000000000000e+00,5.000000000000000000e+00,5.000000000000000000e+00,5.000000000000000000e+00,5.000000000000000000e+00,5.000000000000000000e+00,5.000000000000000000e+00,4.867558956146240234e+00,4.676156044006347656e+00,4.499236583709716797e+00,4.335216522216796875e+00,4.182734966278076172e+00,1.442719101905822754e+00,1.416749000549316406e+00,1.395571470260620117e+00,1.388162255287170410e+00,1.417407393455505371e+00,3.453841447830200195e+00,3.356360197067260742e+00,3.264230489730834961e+00,3.177023410797119141e+00,3.094354867935180664e+00,3.015879392623901367e+00,2.941285848617553711e+00,2.870293140411376953e+00,2.802646636962890625e+00,2.738115549087524414e+00,2.676489114761352539e+00,2.617575645446777344e+00,2.561199665069580078e+00,2.507201194763183594e+00,2.455432415008544922e+00,2.405758380889892578e+00,2.358054161071777344e+00,2.312205076217651367e+00,2.268105030059814453e+00,2.225655555725097656e+00,2.184766054153442383e+00,2.145351648330688477e+00,2.107334375381469727e+00,2.070640802383422852e+00,2.035203456878662109e+00,2.000958681106567383e+00,1.967847228050231934e+00,1.935813426971435547e+00,1.904806256294250488e+00,1.874776363372802734e+00,1.845678925514221191e+00
5.000000000000000000e+00,4.367764472961425781e+00,3.919865846633911133e+00,5.000000000000000000e+00,5.000000000000000000e+00,5.000000000000000000e+00,5.000000000000000000e+00,5.000000000000000000e+00,5.000000000000000000e+00,5.000000000000000000e+00,5.000000000000000000e+00,5.000000000000000000e+00,5.000000000000000000e+00,5.000000000000000000e+00,5.000000000000000000e+00,5.000000000000000000e+00,5.000000000000000000e+00,5.000000000000000000e+00,5.000000000000000000e+00,5.000000000000000000e+00,5.000000000000000000e+00,5.000000000000000000e+00,5.000000000000000000e+00,5.000000000000000000e+00,5.000000000000000000e+00,5.000000000000000000e+00,5.000000000000000000e+00,5.000000000000000000e+00,5.000000000000000000e+00,5.000000000000000000e+00,5.000000000000000000e+00,5.000000000000000000e+00,5.000000000000000000e+00,5.000000000000000000e+00,5.000000000000000000e+00,5.000000000000000000e+00,5.000000000000000000e+00,5.000000000000000000e+00,5.000000000000000000e+00,4.867697715759277344e+00,4.676284313201904297e+00,4.499355316162109375e+00,4.335326671600341797e+00,4.182837009429931641e+00,1.490431427955627441e+00,1.424937248229980469e+00,1.403263688087463379e+00,1.392094016075134277e+00,1.420598149299621582e+00,3.453911781311035156e+00,3.356426715850830078e+00,3.264293432235717773e+00,3.177083015441894531e+00,3.094411373138427734e+00,3.015933036804199219e+00,2.941336870193481445e+00,2.870341777801513672e+00,2.802693128585815430e+00,2.738159656524658203e+00,2.676531314849853516e+00,2.617616176605224609e+00,2.561238527297973633e+00,2.507238388061523438e+00,2.455467939376831055e+00,2.405792474746704102e+00,2.358087062835693359e+00,2.312236785888671875e+00,2.268135309219360352e+00,2.225684881210327148e+00,2.184794187545776367e+00,2.145378828048706055e+00,2.107360601425170898e+00,2.070666074752807617e+00,2.035228013992309570e+00,2.000982284545898438e+00,1.967870116233825684e+00,1.935835599899291992e+00,1.904827594757080078e+00,1.874797105789184570e+00,1.845699071884155273e+00
4.875495433807373047e+00,4.312898159027099609e+00,3.775768756866455078e+00,3.816638708114624023e+00,4.870654582977294922e+00,4.869445323944091797e+00,4.868237018585205078e+00,4.867029666900634766e+00,4.865822792053222656e+00,4.864616394042968750e+00,4.863410472869873047e+00,4.862205505371093750e+00,4.861000537872314453e+00,4.859796524047851562e+00,4.858593463897705078e+00,4.857390880584716797e+00,4.856188297271728516e+00,4.854986667633056641e+00,4.853785991668701172e+00,4.852585315704345703e+00,4.851385593414306641e+00,4.850186347961425781e+00,4.848987579345703125e+00,4.847789287567138672e+00,4.846591949462890625e+00,4.845395565032958984e+00,4.844199180603027344e+00,4.843003273010253906e+00,4.841808319091796875e+00,4.840613842010498047e+00,4.839419841766357422e+00,4.838226318359375000e+00,4.837033748626708984e+00,4.835841655731201172e+00,4.834649562835693359e+00,4.833458900451660156e+00,4.832268714904785156e+00,4.831079006195068359e+00,4.829889297485351562e+00,4.828701019287109375e+00,4.676412582397460938e+00,4.499474525451660156e+00,4.335436820983886719e+00,4.182939529418945312e+00,4.040806770324707031e+00,1.433220863342285156e+00,1.408271670341491699e+00,1.401459574699401855e+00,1.424310564994812012e+00,3.453982114791870117e+00,3.356493234634399414e+00,3.264356136322021484e+00,3.177142620086669922e+00,3.094467878341674805e+00,3.015986680984497070e+00,2.941387891769409180e+00,2.870390415191650391e+00,2.802739381790161133e+00,2.738204240798950195e+00,2.676573753356933594e+00,2.617656469345092773e+00,2.561277151107788086e+00,2.507275342941284180e+00,2.455503702163696289e+00,2.405826568603515625e+00,2.358119964599609375e+00,2.312268257141113281e+00,2.268165826797485352e+00,2.225714206695556641e+00,2.184822320938110352e+00,2.145406007766723633e+00,2.107386827468872070e+00,2.070691347122192383e+00,2.035252332687377930e+00,2.001005887985229492e+00,1.967893004417419434e+00,1.935857653617858887e+00,1.904849052429199219e+00,1.874817848205566406e+00,1.845719218254089355e+00
3.778282880783081055e+00,3.777555465698242188e+00,3.776828527450561523e+00,3.776101112365722656e+00,3.775374650955200195e+00,3.774648427963256836e+00,3.773922443389892578e+00,3.773196697235107422e+00,3.772471427917480469e+00,3.771746158599853516e+00,3.771020889282226562e+00,3.770296335220336914e+00,3.769572019577026367e+00,3.768848180770874023e+00,3.768124341964721680e+00,3.767400979995727539e+00,3.766677856445312500e+00,3.765954971313476562e+00,3.765231847763061523e+00,3.764509439468383789e+00,3.763787269592285156e+00,3.763065576553344727e+00,3.762344121932983398e+00,3.761622905731201172e+00,3.760901927947998047e+00,3.760180711746215820e+00,3.759460449218750000e+00,3.758740186691284180e+00,3.758020401000976562e+00,3.757300853729248047e+00,3.756581544876098633e+00,3.755862474441528320e+00,3.755143165588378906e+00,3.754424810409545898e+00,3.753706455230712891e+00,3.752988576889038086e+00,3.752270936965942383e+00,3.751553535461425781e+00,3.750836372375488281e+00,3.750119686126708984e+00,3.749402523040771484e+00,3.748686313629150391e+00,3.747970342636108398e+00,3.747254610061645508e+00,3.746539115905761719e+00,1.441601276397705078e+00,1.416506886482238770e+00,1.410952091217041016e+00,1.429590940475463867e+00,3.454052686691284180e+00,3.356559514999389648e+00,3.264419078826904297e+00,3.177202224731445312e+00,3.094524383544921875e+00,3.016040325164794922e+00,2.941438913345336914e+00,2.870438814163208008e+00,2.802785873413085938e+00,2.738248348236083984e+00,2.676615953445434570e+00,2.617697000503540039e+00,2.561316013336181641e+00,2.507312536239624023e+00,2.455539226531982422e+00,2.405860662460327148e+00,2.358152627944946289e+00,2.312299728393554688e+00,2.268196105957031250e+00,2.225743293762207031e+00,2.184850692749023438e+00,2.145433187484741211e+00,2.107413053512573242e+00,2.070716857910156250e+00,2.035276889801025391e+00,2.001029491424560547e+00,1.967915773391723633e+00,1.935879826545715332e+00,1.904870510101318359e+00,1.874838590621948242e+00,1.845739245414733887e+00
3.084195852279663086e+00,3.083711147308349609e+00,3.083226442337036133e+00,3.082741975784301758e+00,3.082257747650146484e+00,3.081773757934570312e+00,3.081289768218994141e+00,3.080806016921997070e+00,3.080322504043579102e+00,3.079838752746582031e+00,3.079355239868164062e+00,3.078872203826904297e+00,3.078389167785644531e+00,3.077906370162963867e+00,3.077423572540283203e+00,3.076941013336181641e+00,3.076458215713500977e+00,3.075976133346557617e+00,3.075494050979614258e+00,3.075011968612670898e+00,3.074530124664306641e+00,3.074048519134521484e+00,3.073566913604736328e+00,3.073085308074951172e+00,3.072604179382324219e+00,3.072123050689697266e+00,3.071642160415649414e+00,3.071161508560180664e+00,3.070680856704711914e+00,3.070200443267822266e+00,3.069719791412353516e+00,3.069239616394042969e+00,3.068759679794311523e+00,3.068279743194580078e+00,3.067800045013427734e+00,3.067320585250854492e+00,3.066841125488281250e+00,3.066361904144287109e+00,3.065882444381713867e+00,3.065403699874877930e+00,3.064924955368041992e+00,3.064446210861206055e+00,3.063967704772949219e+00,3.063489437103271484e+00,3.063011169433593750e+00,1.450141906738281250e+00,1.424839019775390625e+00,1.417756080627441406e+00,1.434910774230957031e+00,3.060622215270996094e+00,3.060144901275634766e+00,3.059667587280273438e+00,3.059190273284912109e+00,3.058713436126708984e+00,3.016093969345092773e+00,2.941489934921264648e+00,2.870487689971923828e+00,2.802832365036010742e+00,2.738292694091796875e+00,2.676658153533935547e+00,2.617737293243408203e+00,2.561354637145996094e+00,2.507349491119384766e+00,2.455574750900268555e+00,2.405894994735717773e+00,2.358185529708862305e+00,2.312331438064575195e+00,2.268226385116577148e+00,2.225772619247436523e+00,2.184878826141357422e+00,2.145460367202758789e+00,2.107439279556274414e+00,2.070742130279541016e+00,2.035301446914672852e+00,2.001053094863891602e+00,1.967938661575317383e+00,1.935901880264282227e+00,1.904891848564147949e+00,1.874859333038330078e+00,1.845759391784667969e+00
2.605545520782470703e+00,2.605199575424194336e+00,2.604853868484497070e+00,2.604508161544799805e+00,2.604162454605102539e+00,2.603816747665405273e+00,2.603471279144287109e+00,2.603125810623168945e+00,2.602780580520629883e+00,2.602435350418090820e+00,2.602090120315551758e+00,2.601745128631591797e+00,2.601400375366210938e+00,2.601055383682250977e+00,2.600710630416870117e+00,2.600365877151489258e+00,2.600021362304687500e+00,2.599676847457885742e+00,2.599332571029663086e+00,2.598988294601440430e+00,2.598644018173217773e+00,2.598299741744995117e+00,2.597955703735351562e+00,2.597611665725708008e+00,2.597267866134643555e+00,2.596924304962158203e+00,2.596580505371093750e+00,2.596236944198608398e+00,2.595893621444702148e+00,2.595550060272216797e+00,2.595206737518310547e+00,2.594863414764404297e+00,2.594520330429077148e+00,2.594177484512329102e+00,2.593834400177001953e+00,2.593491554260253906e+00,2.593148708343505859e+00,2.592806100845336914e+00,2.592463493347167969e+00,2.592121124267578125e+00,2.591778755187988281e+00,2.591436386108398438e+00,2.591094255447387695e+00,2.590751886367797852e+00,2.590409994125366211e+00,1.458875536918640137e+00,1.433269858360290527e+00,1.422300696372985840e+00,2.589042663574218750e+00,2.588701248168945312e+00,2.588359594345092773e+00,2.588018178939819336e+00,2.587676763534545898e+00,2.587335586547851562e+00,2.586994647979736328e+00,2.586653470993041992e+00,2.586312532424926758e+00,2.585971832275390625e+00,2.585630893707275391e+00,2.585290193557739258e+00,2.584949731826782227e+00,2.561393260955810547e+00,2.507386684417724609e+00,2.455610275268554688e+00,2.405929088592529297e+00,2.358218431472778320e+00,2.312362909317016602e+00,2.268256902694702148e+00,2.225801706314086914e+00,2.184906959533691406e+00,2.145487546920776367e+00,2.107465505599975586e+00,2.070767402648925781e+00,2.035325765609741211e+00,2.001076698303222656e+00,1.967961549758911133e+00,1.935924053192138672e+00,1.904913306236267090e+00,1.874880075454711914e+00,1.845779538154602051e+00
2.255518913269042969e+00,2.255259037017822266e+00,2.254999160766601562e+00,2.254739284515380859e+00,2.254479646682739258e+00,2.254220008850097656e+00,2.253960371017456055e+00,2.253700733184814453e+00,2.253441333770751953e+00,2.253181934356689453e+00,2.252922534942626953e+00,2.252663135528564453e+00,2.252403974533081055e+00,2.252144575119018555e+00,2.251885652542114258e+00,2.251626491546630859e+00,2.251367568969726562e+00,2.251108407974243164e+00,2.250849723815917969e+00,2.250590801239013672e+00,2.250331878662109375e+00,2.250073194503784180e+00,2.249814510345458984e+00,2.249556303024291992e+00,2.249298334121704102e+00,2.249040603637695312e+00,2.248782873153686523e+00,2.248524904251098633e+00,2.248267412185668945e+00,2.248009920120239258e+00,2.247752428054809570e+00,2.247494935989379883e+00,2.247237443923950195e+00,2.246980190277099609e+00,2.246722698211669922e+00,2.246465444564819336e+00,2.246208429336547852e+00,2.245951175689697266e+00,2.245694160461425781e+00,2.245437145233154297e+00,2.245180368423461914e+00,2.244923353195190430e+00,2.244666576385498047e+00,2.244409799575805664e+00,2.244153022766113281e+00,2.243896484375000000e+00,1.451490044593811035e+00,1.437644720077514648e+00,2.243126630783081055e+00,2.242870330810546875e+00,2.242614030838012695e+00,2.242357730865478516e+00,2.242101430892944336e+00,2.241845369338989258e+00,2.241589307785034180e+00,2.241333246231079102e+00,2.241077184677124023e+00,2.240821123123168945e+00,2.240565299987792969e+00,2.240309476852416992e+00,2.240053653717041016e+00,2.239798069000244141e+00,2.239542484283447266e+00,2.239286661148071289e+00,2.239031076431274414e+00,2.238775730133056641e+00,2.238520383834838867e+00,2.238265037536621094e+00,2.225831031799316406e+00,2.184935092926025391e+00,2.145514726638793945e+00,2.107491731643676758e+00,2.070792913436889648e+00,2.035350322723388672e+00,2.001100540161132812e+00,1.967984318733215332e+00,1.935946106910705566e+00,1.904934644699096680e+00,1.874900817871093750e+00,1.845799565315246582e+00
1.988428831100463867e+00,1.988227009773254395e+00,1.988025069236755371e+00,1.987822890281677246e+00,1.987621068954467773e+00,1.987419366836547852e+00,1.987217307090759277e+00,1.987015724182128906e+00,1.986814022064208984e+00,1.986612439155578613e+00,1.986410617828369141e+00,1.986209034919738770e+00,1.986007571220397949e+00,1.985805869102478027e+00,1.985604524612426758e+00,1.985403060913085938e+00,1.985201835632324219e+00,1.985000252723693848e+00,1.984799027442932129e+00,1.984597802162170410e+00,1.984396338462829590e+00,1.984195232391357422e+00,1.983994126319885254e+00,1.983793139457702637e+00,1.983591914176940918e+00,1.983390927314758301e+00,1.983189940452575684e+00,1.982988834381103516e+00,1.982788085937500000e+00,1.982587218284606934e+00,1.982386469841003418e+00,1.982185482978820801e+00,1.981984853744506836e+00,1.981784224510192871e+00,1.981583356857299805e+00,1.981382846832275391e+00,1.981182336807250977e+00,1.980981826782226562e+00,1.980781197547912598e+00,1.980580806732177734e+00,1.980380415916442871e+00,1.980179786682128906e+00,1.979979515075683594e+00,1.979779362678527832e+00,1.979579091072082520e+00,1.979378700256347656e+00,1.450351119041442871e+00,1.427829027175903320e+00,1.424802541732788086e+00,1.978578329086303711e+00,1.978378295898437500e+00,1.978178381919860840e+00,1.977978348731994629e+00,1.977778434753417969e+00,1.977578639984130859e+00,1.977378726005554199e+00,1.977179050445556641e+00,1.976979374885559082e+00,1.976779699325561523e+00,1.976579904556274414e+00,1.976380348205566406e+00,1.976180791854858398e+00,1.975981116294860840e+00,1.975781679153442383e+00,1.975582242012023926e+00,1.975382924079895020e+00,1.975183367729187012e+00,1.974984169006347656e+00,1.974784970283508301e+00,1.974585771560668945e+00,1.974386334419250488e+00,1.974187254905700684e+00,1.973988175392150879e+00,1.973788857460021973e+00,1.973589897155761719e+00,1.968007206916809082e+00,1.935968279838562012e+00,1.904956102371215820e+00,1.874921560287475586e+00,1.845819711685180664e+00
1.777897000312805176e+00,1.777735590934753418e+00,1.777573943138122559e+00,1.777412533760070801e+00,1.777251243591308594e+00,1.777089953422546387e+00,1.776928424835205078e+00,1.776767134666442871e+00,1.776605844497680664e+00,1.776444435119628906e+00,1.776283264160156250e+00,1.776122212409973145e+00,1.775961041450500488e+00,1.775799751281738281e+00,1.775638699531555176e+00,1.775477647781372070e+00,1.775316476821899414e+00,1.775155425071716309e+00,1.774994492530822754e+00,1.774833559989929199e+00,1.774672508239746094e+00,1.774511694908142090e+00,1.774350762367248535e+00,1.774189829826354980e+00,1.774029016494750977e+00,1.773868322372436523e+00,1.773707628250122070e+00,1.773546695709228516e+00,1.773386001586914062e+00,1.773225426673889160e+00,1.773064851760864258e+00,1.772904038429260254e+00,1.772743463516235352e+00,1.772583007812500000e+00,1.772422313690185547e+00,1.772261857986450195e+00,1.772101402282714844e+00,1.771941065788269043e+00,1.771780490875244141e+00,1.771620154380798340e+00,1.771459817886352539e+00,1.771299362182617188e+00,1.771139025688171387e+00,1.770978808403015137e+00,1.770818710327148438e+00,1.770658254623413086e+00,1.440207362174987793e+00,1.412206888198852539e+00,1.400277853012084961e+00,1.404754161834716797e+00,1.769857764244079590e+00,1.769697666168212891e+00,1.769537568092346191e+00,1.769377589225769043e+00,1.769217729568481445e+00,1.769057631492614746e+00,1.768897771835327148e+00,1.768738031387329102e+00,1.768578171730041504e+00,1.768418192863464355e+00,1.768258571624755859e+00,1.768098831176757812e+00,1.767938971519470215e+00,1.767779350280761719e+00,1.767619729042053223e+00,1.767460107803344727e+00,1.767300367355346680e+00,1.767140865325927734e+00,1.766981363296508789e+00,1.766821622848510742e+00,1.766662240028381348e+00,1.766502857208251953e+00,1.766343474388122559e+00,1.766183853149414062e+00,1.766024589538574219e+00,1.765865206718444824e+00,1.765705823898315430e+00,1.765546560287475586e+00,1.765387415885925293e+00,1.765228152275085449e+00
1.607678413391113281e+00,1.607546448707580566e+00,1.607414245605468750e+00,1.607282280921936035e+00,1.607150316238403320e+00,1.607018470764160156e+00,1.606886386871337891e+00,1.606754541397094727e+00,1.606622576713562012e+00,1.606490612030029297e+00,1.606358766555786133e+00,1.606227040290832520e+00,1.606095194816589355e+00,1.605963349342346191e+00,1.605831623077392578e+00,1.605699896812438965e+00,1.605568051338195801e+00,1.605436325073242188e+00,1.605304718017578125e+00,1.605173110961914062e+00,1.605041384696960449e+00,1.604909777641296387e+00,1.604778170585632324e+00,1.604646563529968262e+00,1.604514956474304199e+00,1.604383468627929688e+00,1.604251980781555176e+00,1.604120373725891113e+00,1.603989005088806152e+00,1.603857517242431641e+00,1.603726029396057129e+00,1.603594660758972168e+00,1.603463292121887207e+00,1.603332042694091797e+00,1.603200554847717285e+00,1.603069305419921875e+00,1.602937936782836914e+00,1.602806568145751953e+00,1.602675437927246094e+00,1.602544188499450684e+00,1.602413058280944824e+00,1.602281689643859863e+00,1.602150559425354004e+00,1.602019429206848145e+00,1.601888179779052734e+00,1.601757168769836426e+00,1.421121358871459961e+00,1.393104553222656250e+00,1.378941774368286133e+00,1.373445868492126465e+00,1.370563507080078125e+00,1.600970983505249023e+00,1.600839972496032715e+00,1.600709080696105957e+00,1.600578308105468750e+00,1.600447297096252441e+00,1.600316405296325684e+00,1.600185632705688477e+00,1.600054740905761719e+00,1.599923849105834961e+00,1.599793076515197754e+00,1.599662423133850098e+00,1.599531531333923340e+00,1.599400877952575684e+00,1.599270224571228027e+00,1.599139571189880371e+00,1.599008798599243164e+00,1.598878264427185059e+00,1.598747611045837402e+00,1.598616957664489746e+00,1.598486423492431641e+00,1.598355889320373535e+00,1.598225355148315430e+00,1.598094820976257324e+00,1.597964406013488770e+00,1.597833871841430664e+00,1.597703337669372559e+00,1.597573041915893555e+00,1.597442626953125000e+00,1.597312331199645996e+00
1.467205882072448730e+00,1.467095971107482910e+00,1.466985940933227539e+00,1.466875910758972168e+00,1.466765999794006348e+00,1.466656088829040527e+00,1.466546177864074707e+00,1.466436266899108887e+00,1.466326475143432617e+00,1.466216564178466797e+00,1.466106653213500977e+00,1.465996980667114258e+00,1.465887069702148438e+00,1.465777277946472168e+00,1.465667486190795898e+00,1.465557813644409180e+00,1.465447902679443359e+00,1.465338230133056641e+00,1.465228557586669922e+00,1.465118885040283203e+00,1.465009212493896484e+00,1.464899539947509766e+00,1.464789867401123047e+00,1.464680194854736328e+00,1.464570641517639160e+00,1.464461088180541992e+00,1.464351534843444824e+00,1.464241862297058105e+00,1.464132308959960938e+00,1.464022874832153320e+00,1.463913202285766602e+00,1.463803768157958984e+00,1.463694334030151367e+00,1.463584899902343750e+00,1.463475346565246582e+00,1.463366031646728516e+00,1.463256597518920898e+00,1.463147163391113281e+00,1.463037729263305664e+00,1.462928414344787598e+00,1.462819099426269531e+00,1.462709665298461914e+00,1.462600469589233398e+00,1.462491154670715332e+00,1.462381839752197266e+00,1.462272524833679199e+00,1.462163329124450684e+00,1.364158868789672852e+00,1.347247004508972168e+00,1.336136698722839355e+00,1.347976326942443848e+00,1.338263273239135742e+00,1.461508154869079590e+00,1.461399078369140625e+00,1.461290001869201660e+00,1.461180806159973145e+00,1.461071729660034180e+00,1.460962653160095215e+00,1.460853576660156250e+00,1.460744500160217285e+00,1.460635542869567871e+00,1.460526585578918457e+00,1.460417509078979492e+00,1.460308551788330078e+00,1.460199594497680664e+00,1.460090637207031250e+00,1.459981679916381836e+00,1.459872841835021973e+00,1.459764003753662109e+00,1.459655046463012695e+00,1.459546208381652832e+00,1.459437370300292969e+00,1.459328413009643555e+00,1.459219694137573242e+00,1.459110975265502930e+00,1.459002137184143066e+00,1.458893299102783203e+00,1.458784580230712891e+00,1.458675861358642578e+00,1.458567142486572266e+00
1.349308609962463379e+00,1.349215626716613770e+00,1.349122524261474609e+00,1.349029541015625000e+00,1.348936676979064941e+00,1.348843574523925781e+00,1.348750591278076172e+00,1.348657727241516113e+00,1.348564863204956055e+00,1.348471879959106445e+00,1.348378896713256836e+00,1.348286032676696777e+00,1.348193168640136719e+00,1.348100304603576660e+00,1.348007440567016602e+00,1.347914695739746094e+00,1.347821712493896484e+00,1.347728967666625977e+00,1.347636222839355469e+00,1.347543358802795410e+00,1.347450613975524902e+00,1.347357869148254395e+00,1.347265124320983887e+00,1.347172260284423828e+00,1.347079634666442871e+00,1.346986889839172363e+00,1.346894145011901855e+00,1.346801519393920898e+00,1.346708893775939941e+00,1.346616148948669434e+00,1.346523523330688477e+00,1.346430897712707520e+00,1.346338272094726562e+00,1.346245527267456055e+00,1.346153020858764648e+00,1.346060395240783691e+00,1.345967888832092285e+00,1.345875263214111328e+00,1.345782756805419922e+00,1.345690250396728516e+00,1.345597624778747559e+00,1.345505118370056152e+00,1.345412611961364746e+00,1.345320224761962891e+00,1.345227599143981934e+00,1.345135211944580078e+00,1.345042824745178223e+00,1.344950318336486816e+00,1.338088870048522949e+00,1.323998093605041504e+00,1.318699836730957031e+00,1.315257787704467773e+00,1.344488382339477539e+00,1.344395995140075684e+00,1.344303727149963379e+00,1.344211220741271973e+00,1.344118952751159668e+00,1.344026684761047363e+00,1.343934297561645508e+00,1.343842029571533203e+00,1.343749761581420898e+00,1.343657612800598145e+00,1.343565225601196289e+00,1.343473076820373535e+00,1.343380808830261230e+00,1.343288540840148926e+00,1.343196392059326172e+00,1.343104243278503418e+00,1.343012094497680664e+00,1.342919826507568359e+00,1.342827796936035156e+00,1.342735648155212402e+00,1.342643499374389648e+00,1.342551350593566895e+00,1.342459321022033691e+00,1.342367291450500488e+00,1.342275142669677734e+00,1.342183113098144531e+00,1.342091083526611328e+00,1.341998934745788574e+00
1.248949408531188965e+00,1.248869657516479492e+00,1.248789906501770020e+00,1.248710274696350098e+00,1.248630642890930176e+00,1.248550891876220703e+00,1.248471379280090332e+00,1.248391747474670410e+00,1.248311996459960938e+00,1.248232364654541016e+00,1.248152852058410645e+00,1.248073220252990723e+00,1.247993588447570801e+00,1.247914075851440430e+00,1.247834563255310059e+00,1.247754931449890137e+00,1.247675299644470215e+00,1.247595787048339844e+00,1.247516393661499023e+00,1.247436761856079102e+00,1.247357249259948730e+00,1.247277855873107910e+00,1.247198343276977539e+00,1.247118830680847168e+00,1.247039318084716797e+00,1.246959924697875977e+00,1.246880412101745605e+00,1.246801018714904785e+00,1.246721625328063965e+00,1.246642231941223145e+00,1.246562719345092773e+00,1.246483325958251953e+00,1.246404051780700684e+00,1.246324539184570312e+00,1.246245265007019043e+00,1.246165871620178223e+00,1.246086597442626953e+00,1.246007204055786133e+00,1.245927810668945312e+00,1.245848536491394043e+00,1.245769143104553223e+00,1.245689868927001953e+00,1.245610713958740234e+00,1.245531439781188965e+00,1.245452046394348145e+00,1.245372891426086426e+00,1.245293617248535156e+00,1.245214343070983887e+00,1.245135068893432617e+00,1.245055913925170898e+00,1.244976758956909180e+00,1.244897484779357910e+00,1.244818329811096191e+00,1.244739174842834473e+00,1.244659900665283203e+00,1.244580864906311035e+00,1.244501709938049316e+00,1.244422554969787598e+00,1.244343400001525879e+00,1.244264364242553711e+00,1.244185209274291992e+00,1.244106054306030273e+00,1.244027018547058105e+00,1.243947982788085938e+00,1.243868947029113770e+00,1.243789792060852051e+00,1.243710756301879883e+00,1.243631839752197266e+00,1.243552684783935547e+00,1.243473768234252930e+00,1.243394732475280762e+00,1.243315815925598145e+00,1.243236780166625977e+00,1.243157744407653809e+00,1.243078827857971191e+00,1.242999792098999023e+00,1.242920875549316406e+00,1.242841958999633789e+00,1.242763161659240723e+00,1.242684125900268555e+00
1.162485718727111816e+00,1.162416696548461914e+00,1.162347674369812012e+00,1.162278652191162109e+00,1.162209630012512207e+00,1.162140488624572754e+00,1.162071585655212402e+00,1.162002563476562500e+00,1.161933541297912598e+00,1.161864519119262695e+00,1.161795616149902344e+00,1.161726713180541992e+00,1.161657691001892090e+00,1.161588788032531738e+00,1.161519765853881836e+00,1.161450862884521484e+00,1.161381959915161133e+00,1.161313056945800781e+00,1.161244153976440430e+00,1.161175131797790527e+00,1.161106348037719727e+00,1.161037445068359375e+00,1.160968542098999023e+00,1.160899639129638672e+00,1.160830855369567871e+00,1.160761952400207520e+00,1.160693049430847168e+00,1.160624265670776367e+00,1.160555481910705566e+00,1.160486578941345215e+00,1.160417795181274414e+00,1.160349011421203613e+00,1.160280227661132812e+00,1.160211443901062012e+00,1.160142660140991211e+00,1.160073876380920410e+00,1.160005092620849609e+00,1.159936308860778809e+00,1.159867644309997559e+00,1.159798860549926758e+00,1.159730076789855957e+00,1.159661412239074707e+00,1.159592747688293457e+00,1.159524083137512207e+00,1.159455299377441406e+00,1.159386634826660156e+00,1.159317970275878906e+00,1.159249186515808105e+00,1.159180521965026855e+00,1.159111976623535156e+00,1.159043312072753906e+00,1.158974647521972656e+00,1.158905982971191406e+00,1.158837437629699707e+00,1.158768773078918457e+00,1.158700108528137207e+00,1.158631563186645508e+00,1.158563017845153809e+00,1.158494353294372559e+00,1.158425807952880859e+00,1.158357262611389160e+00,1.158288717269897461e+00,1.158220171928405762e+00,1.158151626586914062e+00,1.158083081245422363e+00,1.158014535903930664e+00,1.157945990562438965e+00,1.157877564430236816e+00,1.157809019088745117e+00,1.157740473747253418e+00,1.157672047615051270e+00,1.157603621482849121e+00,1.157535076141357422e+00,1.157466650009155273e+00,1.157398223876953125e+00,1.157329678535461426e+00,1.157261252403259277e+00,1.157192826271057129e+00,1.157124519348144531e+00,1.157055974006652832e+00
1.087218523025512695e+00,1.087158083915710449e+00,1.087097764015197754e+00,1.087037324905395508e+00,1.086977005004882812e+00,1.086916565895080566e+00,1.086856245994567871e+00,1.086795926094055176e+00,1.086735486984252930e+00,1.086675167083740234e+00,1.086614847183227539e+00,1.086554527282714844e+00,1.086494207382202148e+00,1.086433887481689453e+00,1.086373567581176758e+00,1.086313247680664062e+00,1.086252927780151367e+00,1.086192727088928223e+00,1.086132407188415527e+00,1.086072087287902832e+00,1.086011886596679688e+00,1.085951566696166992e+00,1.085891366004943848e+00,1.085831046104431152e+00,1.085770845413208008e+00,1.085710644721984863e+00,1.085650324821472168e+00,1.085590124130249023e+00,1.085529923439025879e+00,1.085469722747802734e+00,1.085409522056579590e+00,1.085349321365356445e+00,1.085289239883422852e+00,1.085228919982910156e+00,1.085168838500976562e+00,1.085108637809753418e+00,1.085048437118530273e+00,1.084988355636596680e+00,1.084928154945373535e+00,1.084868073463439941e+00,1.084807872772216797e+00,1.084747791290283203e+00,1.084687590599060059e+00,1.084627509117126465e+00,1.084567427635192871e+00,1.084507346153259277e+00,1.084447264671325684e+00,1.084387063980102539e+00,1.084326982498168945e+00,1.084267020225524902e+00,1.084206819534301758e+00,1.084146857261657715e+00,1.084086775779724121e+00,1.084026694297790527e+00,1.083966612815856934e+00,1.083906650543212891e+00,1.083846688270568848e+00,1.083786606788635254e+00,1.083726525306701660e+00,1.083666563034057617e+00,1.083606600761413574e+00,1.083546519279479980e+00,1.083486557006835938e+00,1.083426594734191895e+00,1.083366632461547852e+00,1.083306670188903809e+00,1.083246707916259766e+00,1.083186745643615723e+00,1.083126783370971680e+00,1.083066821098327637e+00,1.083006858825683594e+00,1.082946896553039551e+00,1.082887053489685059e+00,1.082827091217041016e+00,1.082767248153686523e+00,1.082707285881042480e+00,1.082647442817687988e+00,1.082587480545043945e+00,1.082527637481689453e+00,1.082467794418334961e+00
1.021105289459228516e+00,1.021052002906799316e+00,1.020998716354370117e+00,1.020945429801940918e+00,1.020892143249511719e+00,1.020838856697082520e+00,1.020785689353942871e+00,1.020732402801513672e+00,1.020679235458374023e+00,1.020625948905944824e+00,1.020572781562805176e+00,1.020519495010375977e+00,1.020466327667236328e+00,1.020413160324096680e+00,1.020359873771667480e+00,1.020306706428527832e+00,1.020253539085388184e+00,1.020200371742248535e+00,1.020147085189819336e+00,1.020093917846679688e+00,1.020040869712829590e+00,1.019987702369689941e+00,1.019934415817260742e+00,1.019881367683410645e+00,1.019828200340270996e+00,1.019775032997131348e+00,1.019721865653991699e+00,1.019668817520141602e+00,1.019615650177001953e+00,1.019562482833862305e+00,1.019509434700012207e+00,1.019456267356872559e+00,1.019403219223022461e+00,1.019350051879882812e+00,1.019297003746032715e+00,1.019243955612182617e+00,1.019190788269042969e+00,1.019137740135192871e+00,1.019084692001342773e+00,1.019031643867492676e+00,1.018978595733642578e+00,1.018925547599792480e+00,1.018872499465942383e+00,1.018819451332092285e+00,1.018766403198242188e+00,1.018713355064392090e+00,1.018660426139831543e+00,1.018607378005981445e+00,1.018554329872131348e+00,1.018501281738281250e+00,1.018448233604431152e+00,1.018395304679870605e+00,1.018342375755310059e+00,1.018289327621459961e+00,1.018236279487609863e+00,1.018183350563049316e+00,1.018130421638488770e+00,1.018077373504638672e+00,1.018024444580078125e+00,1.017971515655517578e+00,1.017918586730957031e+00,1.017865657806396484e+00,1.017812728881835938e+00,1.017759799957275391e+00,1.017706871032714844e+00,1.017653942108154297e+00,1.017601013183593750e+00,1.017548084259033203e+00,1.017495155334472656e+00,1.017442345619201660e+00,1.017389416694641113e+00,1.017336487770080566e+00,1.017283558845520020e+00,1.017230749130249023e+00,1.017177939414978027e+00,1.017125010490417480e+00,1.017072200775146484e+00,1.017019271850585938e+00,1.016966462135314941e+00,1.016913533210754395e+00
9.625717997550964355e-01,9.625244140625000000e-01,9.624770283699035645e-01,9.624297618865966797e-01,9.623823761940002441e-01,9.623350501060485840e-01,9.622877836227416992e-01,9.622403979301452637e-01,9.621930718421936035e-01,9.621458649635314941e-01,9.620984792709350586e-01,9.620511531829833984e-01,9.620039463043212891e-01,9.619566202163696289e-01,9.619094133377075195e-01,9.618620872497558594e-01,9.618147611618041992e-01,9.617676138877868652e-01,9.617202877998352051e-01,9.616729617118835449e-01,9.616258144378662109e-01,9.615785479545593262e-01,9.615312218666076660e-01,9.614840745925903320e-01,9.614368081092834473e-01,9.613895416259765625e-01,9.613423943519592285e-01,9.612951278686523438e-01,9.612479805946350098e-01,9.612007141113281250e-01,9.611534476280212402e-01,9.611063599586486816e-01,9.610590934753417969e-01,9.610118865966796875e-01,9.609647393226623535e-01,9.609175324440002441e-01,9.608703255653381348e-01,9.608231782913208008e-01,9.607759714126586914e-01,9.607287645339965820e-01,9.606816768646240234e-01,9.606345295906066895e-01,9.605874419212341309e-01,9.605402350425720215e-01,9.604930281639099121e-01,9.604460000991821289e-01,9.603987932205200195e-01,9.603516459465026855e-01,9.603046178817749023e-01,9.602574110031127930e-01,9.602102637290954590e-01,9.601632356643676758e-01,9.601160883903503418e-01,9.600689411163330078e-01,9.600219130516052246e-01,9.599747657775878906e-01,9.599277973175048828e-01,9.598806500434875488e-01,9.598335623741149902e-01,9.597865343093872070e-01,9.597394466400146484e-01,9.596922993659973145e-01,9.596453309059143066e-01,9.595982432365417480e-01,9.595511555671691895e-01,9.595041871070861816e-01,9.594570994377136230e-01,9.594101309776306152e-01,9.593630433082580566e-01,9.593159556388854980e-01,9.592690467834472656e-01,9.592219591140747070e-01,9.591749310493469238e-01,9.591279625892639160e-01,9.590809345245361328e-01,9.590339064598083496e-01,9.589869976043701172e-01,9.589399695396423340e-01,9.588929414749145508e-01,9.588459730148315430e-01
9.103850126266479492e-01,9.103427529335021973e-01,9.103003740310668945e-01,9.102580547332763672e-01,9.102157354354858398e-01,9.101733565330505371e-01,9.101310968399047852e-01,9.100887179374694824e-01,9.100463390350341797e-01,9.100040793418884277e-01,9.099617600440979004e-01,9.099193811416625977e-01,9.098771810531616211e-01,9.098348021507263184e-01,9.097924828529357910e-01,9.097502827644348145e-01,9.097079634666442871e-01,9.096657037734985352e-01,9.096233844757080078e-01,9.095810651779174805e-01,9.095388650894165039e-01,9.094966053962707520e-01,9.094542860984802246e-01,9.094120860099792480e-01,9.093697667121887207e-01,9.093275070190429688e-01,9.092853069305419922e-01,9.092430472373962402e-01,9.092008471488952637e-01,9.091585874557495117e-01,9.091163277626037598e-01,9.090741276741027832e-01,9.090318679809570312e-01,9.089896082878112793e-01,9.089474678039550781e-01,9.089052081108093262e-01,9.088629484176635742e-01,9.088208079338073730e-01,9.087786078453063965e-01,9.087363481521606445e-01,9.086942076683044434e-01,9.086520075798034668e-01,9.086098670959472656e-01,9.085676670074462891e-01,9.085254669189453125e-01,9.084833264350891113e-01,9.084411263465881348e-01,9.083989262580871582e-01,9.083568453788757324e-01,9.083146452903747559e-01,9.082724452018737793e-01,9.082303643226623535e-01,9.081881642341613770e-01,9.081459641456604004e-01,9.081038832664489746e-01,9.080617427825927734e-01,9.080196619033813477e-01,9.079775214195251465e-01,9.079353809356689453e-01,9.078933000564575195e-01,9.078511595726013184e-01,9.078090190887451172e-01,9.077669382095336914e-01,9.077247977256774902e-01,9.076826572418212891e-01,9.076406359672546387e-01,9.075984954833984375e-01,9.075563549995422363e-01,9.075143337249755859e-01,9.074722528457641602e-01,9.074302315711975098e-01,9.073881506919860840e-01,9.073460102081298828e-01,9.073039889335632324e-01,9.072619080543518066e-01,9.072198271751403809e-01,9.071778655052185059e-01,9.071357250213623047e-01,9.070936441421508789e-01,9.070516824722290039e-01
8.635660409927368164e-01,8.635280132293701172e-01,8.634898662567138672e-01,8.634518384933471680e-01,8.634136915206909180e-01,8.633755445480346680e-01,8.633375167846679688e-01,8.632994294166564941e-01,8.632612824440002441e-01,8.632233142852783203e-01,8.631851673126220703e-01,8.631470799446105957e-01,8.631090521812438965e-01,8.630709648132324219e-01,8.630328774452209473e-01,8.629949092864990234e-01,8.629568219184875488e-01,8.629187941551208496e-01,8.628807067871093750e-01,8.628426194190979004e-01,8.628046512603759766e-01,8.627666234970092773e-01,8.627285361289978027e-01,8.626905679702758789e-01,8.626524806022644043e-01,8.626144528388977051e-01,8.625764846801757812e-01,8.625383973121643066e-01,8.625003695487976074e-01,8.624624013900756836e-01,8.624243736267089844e-01,8.623864650726318359e-01,8.623484373092651367e-01,8.623103499412536621e-01,8.622724413871765137e-01,8.622344136238098145e-01,8.621963858604431152e-01,8.621584773063659668e-01,8.621204495429992676e-01,8.620824813842773438e-01,8.620445132255554199e-01,8.620065450668334961e-01,8.619685173034667969e-01,8.619306087493896484e-01,8.618926405906677246e-01,8.618547320365905762e-01,8.618167638778686523e-01,8.617787957191467285e-01,8.617408871650695801e-01,8.617029190063476562e-01,8.616649508476257324e-01,8.616270422935485840e-01,8.615890741348266602e-01,8.615511059761047363e-01,8.615132570266723633e-01,8.614752888679504395e-01,8.614374399185180664e-01,8.613994717597961426e-01,8.613615632057189941e-01,8.613236546516418457e-01,8.612857460975646973e-01,8.612478375434875488e-01,8.612099885940551758e-01,8.611720204353332520e-01,8.611341118812561035e-01,8.610962629318237305e-01,8.610583543777465820e-01,8.610204458236694336e-01,8.609825968742370605e-01,8.609446883201599121e-01,8.609068989753723145e-01,8.608689904212951660e-01,8.608310818672180176e-01,8.607932925224304199e-01,8.607553839683532715e-01,8.607175350189208984e-01,8.606796860694885254e-01,8.606418371200561523e-01,8.606039285659790039e-01,8.605661392211914062e-01
