5.000000000000000000e+00,5.000000000000000000e+00,5.000000000000000000e+00,5.000000000000000000e+00,5.000000000000000000e+00,5.000000000000000000e+00,5.000000000000000000e+00,5.000000000000000000e+00,5.000000000000000000e+00,5.000000000000000000e+00,5.000000000000000000e+00,5.000000000000000000e+00,5.000000000000000000e+00,5.000000000000000000e+00,5.000000000000000000e+00,5.000000000000000000e+00,5.000000000000000000e+00,5.000000000000000000e+00,5.000000000000000000e+00,5.000000000000000000e+00,5.000000000000000000e+00,5.000000000000000000e+00,5.000000000000000000e+00,5.000000000000000000e+00,3.016140699386596680e+00,3.004558563232421875e+00,2.962053537368774414e+00,2.935661315917968750e+00,2.935202121734619141e+00,2.941010951995849609e+00,2.952013969421386719e+00,2.984462022781372070e+00,3.044358491897583008e+00,3.046055078506469727e+00,5.000000000000000000e+00,5.000000000000000000e+00,5.000000000000000000e+00,5.000000000000000000e+00,5.000000000000000000e+00,4.865508079528808594e+00,4.674258232116699219e+00,4.497475147247314453e+00,4.333576202392578125e+00,4.181203365325927734e+00,4.039181232452392578e+00,3.906490802764892578e+00,3.782241106033325195e+00,3.665651082992553711e+00,3.556034564971923828e+00,3.452783107757568359e+00,3.355358600616455078e+00,3.263280868530273438e+00,3.176122188568115234e+00,3.093497991561889648e+00,3.015063524246215820e+00,2.940508127212524414e+00,2.869550943374633789e+00,2.801937580108642578e+00,2.737437248229980469e+00,2.675839424133300781e+00,2.616952896118164062e+00,2.560602188110351562e+00,2.506627559661865234e+00,2.454880952835083008e+00,2.405227899551391602e+00,2.357543230056762695e+00,2.311712741851806641e+00,2.267630338668823242e+00,2.225197553634643555e+00,2.184323787689208984e+00,2.144924402236938477e+00,2.106921195983886719e+00,2.070240974426269531e+00,2.034816265106201172e+00,2.000583648681640625e+00,1.967483639717102051e+00,1.935461282730102539e+00,1.904464364051818848e+00,1.874444603919982910e+00,1.845356583595275879e+00
5.000000000000000000e+00,5.000000000000000000e+00,5.000000000000000000e+00,5.000000000000000000e+00,5.000000000000000000e+00,5.000000000000000000e+00,5.000000000000000000e+00,5.000000000000000000e+00,5.000000000000000000e+00,5.000000000000000000e+00,5.000000000000000000e+00,5.000000000000000000e+00,5.000000000000000000e+00,5.000000000000000000e+00,5.000000000000000000e+00,5.000000000000000000e+00,5.000000000000000000e+00,5.000000000000000000e+00,5.000000000000000000e+00,5.000000000000000000e+00,5.000000000000000000e+00,5.000000000000000000e+00,5.000000000000000000e+00,5.000000000000000000e+00,5.000000000000000000e+00,3.019953727722167969e+00,2.968667507171630859e+00,2.941861152648925781e+00,2.931422233581542969e+00,2.939531326293945312e+00,2.958483457565307617e+00,2.984870195388793945e+00,3.057648181915283203e+00,3.044575929641723633e+00,5.000000000000000000e+00,5.000000000000000000e+00,5.000000000000000000e+00,5.000000000000000000e+00,5.000000000000000000e+00,4.865648269653320312e+00,4.674387454986572266e+00,4.497594833374023438e+00,4.333687305450439453e+00,4.181306838989257812e+00,4.039278030395507812e+00,3.906581401824951172e+00,3.782325506210327148e+00,3.665730714797973633e+00,3.556109189987182617e+00,3.452853679656982422e+00,3.355425119400024414e+00,3.263344049453735352e+00,3.176181793212890625e+00,3.093554735183715820e+00,3.015117168426513672e+00,2.940559387207031250e+00,2.869599580764770508e+00,2.801984071731567383e+00,2.737481355667114258e+00,2.675881862640380859e+00,2.616993427276611328e+00,2.560641288757324219e+00,2.506664514541625977e+00,2.454916715621948242e+00,2.405261754989624023e+00,2.357576131820678711e+00,2.311744451522827148e+00,2.267660617828369141e+00,2.225226879119873047e+00,2.184351921081542969e+00,2.144951581954956055e+00,2.106947422027587891e+00,2.070266246795654297e+00,2.034840822219848633e+00,2.000607252120971680e+00,1.967506766319274902e+00,1.935483336448669434e+00,1.904485821723937988e+00,1.874465346336364746e+00,1.845376849174499512e+00
5.000000000000000000e+00,5.000000000000000000e+00,5.000000000000000000e+00,5.000000000000000000e+00,5.000000000000000000e+00,5.000000000000000000e+00,5.000000000000000000e+00,5.000000000000000000e+00,5.000000000000000000e+00,5.000000000000000000e+00,5.000000000000000000e+00,5.000000000000000000e+00,5.000000000000000000e+00,5.000000000000000000e+00,5.000000000000000000e+00,5.000000000000000000e+00,5.000000000000000000e+00,5.000000000000000000e+00,5.000000000000000000e+00,5.000000000000000000e+00,5.000000000000000000e+00,5.000000000000000000e+00,5.000000000000000000e+00,5.000000000000000000e+00,5.000000000000000000e+00,3.035851478576660156e+00,2.975267410278320312e+00,2.942059516906738281e+00,2.926892995834350586e+00,2.933631658554077148e+00,2.956404685974121094e+00,3.001864910125732422e+00,3.055610656738281250e+00,3.041283369064331055e+00,3.092160463333129883e+00,5.000000000000000000e+00,5.000000000000000000e+00,5.000000000000000000e+00,5.000000000000000000e+00,4.865787982940673828e+00,4.674516677856445312e+00,4.497714042663574219e+00,4.333798408508300781e+00,4.181409835815429688e+00,4.039374351501464844e+00,3.906671524047851562e+00,3.782409906387329102e+00,3.665810108184814453e+00,3.556183815002441406e+00,3.452924013137817383e+00,3.355491399765014648e+00,3.263406991958618164e+00,3.176241397857666016e+00,3.093611001968383789e+00,3.015170812606811523e+00,2.940610408782958984e+00,2.869648218154907227e+00,2.802030563354492188e+00,2.737525463104248047e+00,2.675924062728881836e+00,2.617033720016479492e+00,2.560679912567138672e+00,2.506701707839965820e+00,2.454952001571655273e+00,2.405295848846435547e+00,2.357609033584594727e+00,2.311775922775268555e+00,2.267691135406494141e+00,2.225255966186523438e+00,2.184380054473876953e+00,2.144978523254394531e+00,2.106973648071289062e+00,2.070291519165039062e+00,2.034865379333496094e+00,2.000630855560302734e+00,1.967529535293579102e+00,1.935505509376525879e+00,1.904507160186767578e+00,1.874486088752746582e+00,1.845396995544433594e+00
5.000000000000000000e+00,5.000000000000000000e+00,5.000000000000000000e+00,5.000000000000000000e+00,5.000000000000000000e+00,5.000000000000000000e+00,5.000000000000000000e+00,5.000000000000000000e+00,5.000000000000000000e+00,5.000000000000000000e+00,5.000000000000000000e+00,5.000000000000000000e+00,5.000000000000000000e+00,5.000000000000000000e+00,5.000000000000000000e+00,5.000000000000000000e+00,5.000000000000000000e+00,5.000000000000000000e+00,5.000000000000000000e+00,5.000000000000000000e+00,5.000000000000000000e+00,5.000000000000000000e+00,5.000000000000000000e+00,5.000000000000000000e+00,5.000000000000000000e+00,3.046848058700561523e+00,3.018748998641967773e+00,2.941693305969238281e+00,2.930392265319824219e+00,2.936832189559936523e+00,2.957173824310302734e+00,3.009548664093017578e+00,5.000000000000000000e+00,3.039076089859008789e+00,3.067723751068115234e+00,5.000000000000000000e+00,5.000000000000000000e+00,5.000000000000000000e+00,5.000000000000000000e+00,4.865927696228027344e+00,4.674645423889160156e+00,4.497833251953125000e+00,4.333909034729003906e+00,4.181513309478759766e+00,4.039470672607421875e+00,3.906761407852172852e+00,3.782494306564331055e+00,3.665889501571655273e+00,3.556258440017700195e+00,3.452994346618652344e+00,3.355557918548583984e+00,3.263469696044921875e+00,3.176300764083862305e+00,3.093667507171630859e+00,3.015224456787109375e+00,2.940661430358886719e+00,2.869696855545043945e+00,2.802076816558837891e+00,2.737569808959960938e+00,2.675966501235961914e+00,2.617074251174926758e+00,2.560718536376953125e+00,2.506738424301147461e+00,2.454987525939941406e+00,2.405329942703247070e+00,2.357641935348510742e+00,2.311807394027709961e+00,2.267721414566040039e+00,2.225285291671752930e+00,2.184408187866210938e+00,2.145005702972412109e+00,2.106999635696411133e+00,2.070316791534423828e+00,2.034889698028564453e+00,2.000654458999633789e+00,1.967552423477172852e+00,1.935527563095092773e+00,1.904528617858886719e+00,1.874506831169128418e+00,1.845417141914367676e+00
5.000000000000000000e+00,5.000000000000000000e+00,5.000000000000000000e+00,5.000000000000000000e+00,5.000000000000000000e+00,5.000000000000000000e+00,5.000000000000000000e+00,5.000000000000000000e+00,5.000000000000000000e+00,5.000000000000000000e+00,5.000000000000000000e+00,5.000000000000000000e+00,5.000000000000000000e+00,5.000000000000000000e+00,5.000000000000000000e+00,5.000000000000000000e+00,5.000000000000000000e+00,5.000000000000000000e+00,5.000000000000000000e+00,5.000000000000000000e+00,5.000000000000000000e+00,5.000000000000000000e+00,5.000000000000000000e+00,5.000000000000000000e+00,5.000000000000000000e+00,3.062492132186889648e+00,2.988281965255737305e+00,2.928385257720947266e+00,2.925651550292968750e+00,2.936950206756591797e+00,2.949557065963745117e+00,3.011950969696044922e+00,5.000000000000000000e+00,3.051651000976562500e+00,3.065600156784057617e+00,5.000000000000000000e+00,5.000000000000000000e+00,5.000000000000000000e+00,5.000000000000000000e+00,4.866067886352539062e+00,4.674774646759033203e+00,4.497952938079833984e+00,4.334020137786865234e+00,4.181616306304931641e+00,4.039566993713378906e+00,3.906851530075073242e+00,3.782579183578491211e+00,3.665968656539916992e+00,3.556333303451538086e+00,3.453064680099487305e+00,3.355624675750732422e+00,3.263532638549804688e+00,3.176360607147216797e+00,3.093724012374877930e+00,3.015278339385986328e+00,2.940712451934814453e+00,2.869745731353759766e+00,2.802123069763183594e+00,2.737614154815673828e+00,2.676008701324462891e+00,2.617114782333374023e+00,2.560757160186767578e+00,2.506775856018066406e+00,2.455023050308227539e+00,2.405364274978637695e+00,2.357674598693847656e+00,2.311839103698730469e+00,2.267751693725585938e+00,2.225314617156982422e+00,2.184436559677124023e+00,2.145033121109008789e+00,2.107025861740112305e+00,2.070342302322387695e+00,2.034914255142211914e+00,2.000678300857543945e+00,1.967575311660766602e+00,1.935549736022949219e+00,1.904549956321716309e+00,1.874527812004089355e+00,1.845437169075012207e+00
5.000000000000000000e+00,5.000000000000000000e+00,5.000000000000000000e+00,5.000000000000000000e+00,5.000000000000000000e+00,5.000000000000000000e+00,5.000000000000000000e+00,5.000000000000000000e+00,5.000000000000000000e+00,5.000000000000000000e+00,5.000000000000000000e+00,5.000000000000000000e+00,5.000000000000000000e+00,5.000000000000000000e+00,5.000000000000000000e+00,5.000000000000000000e+00,5.000000000000000000e+00,5.000000000000000000e+00,5.000000000000000000e+00,5.000000000000000000e+00,5.000000000000000000e+00,5.000000000000000000e+00,5.000000000000000000e+00,5.000000000000000000e+00,5.000000000000000000e+00,3.088739633560180664e+00,2.979761600494384766e+00,2.922125816345214844e+00,2.920333147048950195e+00,2.928166151046752930e+00,2.963635206222534180e+00,2.992389917373657227e+00,5.000000000000000000e+00,3.025740623474121094e+00,3.013891458511352539e+00,5.000000000000000000e+00,5.000000000000000000e+00,5.000000000000000000e+00,5.000000000000000000e+00,4.866207599639892578e+00,4.674903869628906250e+00,4.498072624206542969e+00,4.334131240844726562e+00,4.181719779968261719e+00,4.039663314819335938e+00,3.906941652297973633e+00,3.782663583755493164e+00,3.666048049926757812e+00,3.556407928466796875e+00,3.453135251998901367e+00,3.355691194534301758e+00,3.263595581054687500e+00,3.176420211791992188e+00,3.093780517578125000e+00,3.015332221984863281e+00,2.940763473510742188e+00,2.869794368743896484e+00,2.802169322967529297e+00,2.737658500671386719e+00,2.676050901412963867e+00,2.617155075073242188e+00,2.560795783996582031e+00,2.506812810897827148e+00,2.455058813095092773e+00,2.405398607254028320e+00,2.357707500457763672e+00,2.311870574951171875e+00,2.267782211303710938e+00,2.225343704223632812e+00,2.184464693069458008e+00,2.145060300827026367e+00,2.107052087783813477e+00,2.070367574691772461e+00,2.034938573837280273e+00,2.000701904296875000e+00,1.967598080635070801e+00,1.935571789741516113e+00,1.904571413993835449e+00,1.874548554420471191e+00,1.845457315444946289e+00
5.000000000000000000e+00,5.000000000000000000e+00,5.000000000000000000e+00,5.000000000000000000e+00,5.000000000000000000e+00,5.000000000000000000e+00,5.000000000000000000e+00,5.000000000000000000e+00,5.000000000000000000e+00,5.000000000000000000e+00,5.000000000000000000e+00,5.000000000000000000e+00,5.000000000000000000e+00,5.000000000000000000e+00,5.000000000000000000e+00,5.000000000000000000e+00,5.000000000000000000e+00,5.000000000000000000e+00,5.000000000000000000e+00,5.000000000000000000e+00,5.000000000000000000e+00,5.000000000000000000e+00,5.000000000000000000e+00,5.000000000000000000e+00,5.000000000000000000e+00,3.087067127227783203e+00,2.994882106781005859e+00,2.947001934051513672e+00,2.937715768814086914e+00,2.936845779418945312e+00,2.957542896270751953e+00,2.993527412414550781e+00,5.000000000000000000e+00,3.011514425277709961e+00,2.970163583755493164e+00,5.000000000000000000e+00,5.000000000000000000e+00,5.000000000000000000e+00,5.000000000000000000e+00,4.866347312927246094e+00,4.675032615661621094e+00,4.498191833496093750e+00,4.334241867065429688e+00,4.181822776794433594e+00,4.039759635925292969e+00,3.907031774520874023e+00,3.782748222351074219e+00,3.666127204895019531e+00,3.556482553482055664e+00,3.453205585479736328e+00,3.355757713317871094e+00,3.263658285140991211e+00,3.176479816436767578e+00,3.093837022781372070e+00,3.015385866165161133e+00,2.940814495086669922e+00,2.869842767715454102e+00,2.802215814590454102e+00,2.737702608108520508e+00,2.676093101501464844e+00,2.617195367813110352e+00,2.560834407806396484e+00,2.506850004196166992e+00,2.455094337463378906e+00,2.405432701110839844e+00,2.357740163803100586e+00,2.311902284622192383e+00,2.267812490463256836e+00,2.225373029708862305e+00,2.184492826461791992e+00,2.145087480545043945e+00,2.107078313827514648e+00,2.070392847061157227e+00,2.034963130950927734e+00,2.000725507736206055e+00,1.967620968818664551e+00,1.935593962669372559e+00,1.904592752456665039e+00,1.874569296836853027e+00,1.845477342605590820e+00
5.000000000000000000e+00,5.000000000000000000e+00,5.000000000000000000e+00,5.000000000000000000e+00,5.000000000000000000e+00,5.000000000000000000e+00,5.000000000000000000e+00,5.000000000000000000e+00,5.000000000000000000e+00,5.000000000000000000e+00,5.000000000000000000e+00,5.000000000000000000e+00,5.000000000000000000e+00,5.000000000000000000e+00,5.000000000000000000e+00,5.000000000000000000e+00,5.000000000000000000e+00,5.000000000000000000e+00,5.000000000000000000e+00,5.000000000000000000e+00,5.000000000000000000e+00,5.000000000000000000e+00,5.000000000000000000e+00,5.000000000000000000e+00,5.000000000000000000e+00,3.054479837417602539e+00,2.946013689041137695e+00,2.930477619171142578e+00,2.960188865661621094e+00,2.962146997451782227e+00,2.970963239669799805e+00,2.992180347442626953e+00,5.000000000000000000e+00,5.000000000000000000e+00,2.949455261230468750e+00,5.000000000000000000e+00,5.000000000000000000e+00,5.000000000000000000e+00,5.000000000000000000e+00,4.866487026214599609e+00,4.675161838531494141e+00,4.498311519622802734e+00,4.334352970123291016e+00,4.181926250457763672e+00,4.039856433868408203e+00,3.907122135162353516e+00,3.782832622528076172e+00,3.666207075119018555e+00,3.556557178497314453e+00,3.453276157379150391e+00,3.355823993682861328e+00,3.263721466064453125e+00,3.176539182662963867e+00,3.093893766403198242e+00,3.015439510345458984e+00,2.940865755081176758e+00,2.869891405105590820e+00,2.802262306213378906e+00,2.737746715545654297e+00,2.676135540008544922e+00,2.617235898971557617e+00,2.560873270034790039e+00,2.506886959075927734e+00,2.455130100250244141e+00,2.405466794967651367e+00,2.357773065567016602e+00,2.311933755874633789e+00,2.267843008041381836e+00,2.225402355194091797e+00,2.184520959854125977e+00,2.145114421844482422e+00,2.107104778289794922e+00,2.070418119430541992e+00,2.034987688064575195e+00,2.000749111175537109e+00,1.967643857002258301e+00,1.935616016387939453e+00,1.904614448547363281e+00,1.874589920043945312e+00,1.845497488975524902e+00
5.000000000000000000e+00,5.000000000000000000e+00,5.000000000000000000e+00,5.000000000000000000e+00,5.000000000000000000e+00,5.000000000000000000e+00,5.000000000000000000e+00,5.000000000000000000e+00,5.000000000000000000e+00,5.000000000000000000e+00,5.000000000000000000e+00,5.000000000000000000e+00,5.000000000000000000e+00,5.000000000000000000e+00,5.000000000000000000e+00,5.000000000000000000e+00,5.000000000000000000e+00,5.000000000000000000e+00,5.000000000000000000e+00,5.000000000000000000e+00,5.000000000000000000e+00,5.000000000000000000e+00,5.000000000000000000e+00,5.000000000000000000e+00,5.000000000000000000e+00,3.044086694717407227e+00,2.894713401794433594e+00,2.868200302124023438e+00,2.902124404907226562e+00,3.005617141723632812e+00,2.979789018630981445e+00,2.994174718856811523e+00,5.000000000000000000e+00,5.000000000000000000e+00,2.893976449966430664e+00,5.000000000000000000e+00,5.000000000000000000e+00,5.000000000000000000e+00,5.000000000000000000e+00,4.866627216339111328e+00,4.675291061401367188e+00,4.498430728912353516e+00,4.334464073181152344e+00,4.182029724121093750e+00,4.039952754974365234e+00,3.907212257385253906e+00,3.782917022705078125e+00,3.666286230087280273e+00,3.556631803512573242e+00,3.453346729278564453e+00,3.355890512466430664e+00,3.263784408569335938e+00,3.176598787307739258e+00,3.093950271606445312e+00,3.015493154525756836e+00,2.940916776657104492e+00,2.869940042495727539e+00,2.802308797836303711e+00,2.737790822982788086e+00,2.676177740097045898e+00,2.617276191711425781e+00,2.560911893844604492e+00,2.506924152374267578e+00,2.455165624618530273e+00,2.405500888824462891e+00,2.357805967330932617e+00,2.311965227127075195e+00,2.267873287200927734e+00,2.225431442260742188e+00,2.184549331665039062e+00,2.145141601562500000e+00,2.107130765914916992e+00,2.070443391799926758e+00,2.035012006759643555e+00,2.000772714614868164e+00,1.967666625976562500e+00,1.935638070106506348e+00,1.904635787010192871e+00,1.874610662460327148e+00,1.845517516136169434e+00
5.000000000000000000e+00,5.000000000000000000e+00,5.000000000000000000e+00,5.000000000000000000e+00,5.000000000000000000e+00,5.000000000000000000e+00,5.000000000000000000e+00,5.000000000000000000e+00,5.000000000000000000e+00,5.000000000000000000e+00,5.000000000000000000e+00,5.000000000000000000e+00,5.000000000000000000e+00,5.000000000000000000e+00,5.000000000000000000e+00,5.000000000000000000e+00,5.000000000000000000e+00,5.000000000000000000e+00,5.000000000000000000e+00,5.000000000000000000e+00,5.000000000000000000e+00,5.000000000000000000e+00,5.000000000000000000e+00,5.000000000000000000e+00,5.000000000000000000e+00,3.024166345596313477e+00,2.869328498840332031e+00,2.844636440277099609e+00,2.879084587097167969e+00,3.005748987197875977e+00,2.976982355117797852e+00,2.993275880813598633e+00,5.000000000000000000e+00,5.000000000000000000e+00,5.000000000000000000e+00,2.888953208923339844e+00,5.000000000000000000e+00,5.000000000000000000e+00,5.000000000000000000e+00,4.866766929626464844e+00,4.675419807434082031e+00,4.498550415039062500e+00,4.334574699401855469e+00,4.182132720947265625e+00,4.040049076080322266e+00,3.907302379608154297e+00,3.783001422882080078e+00,3.666365623474121094e+00,3.556706666946411133e+00,3.453417062759399414e+00,3.355957031250000000e+00,3.263847351074218750e+00,3.176658391952514648e+00,3.094006776809692383e+00,3.015546798706054688e+00,2.940968036651611328e+00,2.869988679885864258e+00,2.802354812622070312e+00,2.737835168838500977e+00,2.676219940185546875e+00,2.617316722869873047e+00,2.560950756072998047e+00,2.506961107254028320e+00,2.455201148986816406e+00,2.405534982681274414e+00,2.357838869094848633e+00,2.311996936798095703e+00,2.267903566360473633e+00,2.225460767745971680e+00,2.184577465057373047e+00,2.145168781280517578e+00,2.107156991958618164e+00,2.070468664169311523e+00,2.035036563873291016e+00,2.000796318054199219e+00,1.967689514160156250e+00,1.935660243034362793e+00,1.904657244682312012e+00,1.874631404876708984e+00,1.845537662506103516e+00
5.000000000000000000e+00,5.000000000000000000e+00,5.000000000000000000e+00,5.000000000000000000e+00,5.000000000000000000e+00,5.000000000000000000e+00,5.000000000000000000e+00,5.000000000000000000e+00,5.000000000000000000e+00,5.000000000000000000e+00,5.000000000000000000e+00,5.000000000000000000e+00,5.000000000000000000e+00,5.000000000000000000e+00,5.000000000000000000e+00,5.000000000000000000e+00,5.000000000000000000e+00,5.000000000000000000e+00,5.000000000000000000e+00,5.000000000000000000e+00,5.000000000000000000e+00,5.000000000000000000e+00,5.000000000000000000e+00,5.000000000000000000e+00,5.000000000000000000e+00,3.024659156799316406e+00,2.848401308059692383e+00,2.826390027999877930e+00,2.857508420944213867e+00,3.012105464935302734e+00,2.982191324234008789e+00,3.003652095794677734e+00,5.000000000000000000e+00,5.000000000000000000e+00,5.000000000000000000e+00,2.843106031417846680e+00,5.000000000000000000e+00,5.000000000000000000e+00,5.000000000000000000e+00,4.866907119750976562e+00,4.675549507141113281e+00,4.498670101165771484e+00,4.334685802459716797e+00,4.182236194610595703e+00,4.040145397186279297e+00,3.907392501831054688e+00,3.783086299896240234e+00,3.666445016860961914e+00,3.556781530380249023e+00,3.453487396240234375e+00,3.356023788452148438e+00,3.263910055160522461e+00,3.176718235015869141e+00,3.094063282012939453e+00,3.015600681304931641e+00,2.941019058227539062e+00,2.870037317276000977e+00,2.802401065826416016e+00,2.737879514694213867e+00,2.676262140274047852e+00,2.617357254028320312e+00,2.560989379882812500e+00,2.506998538970947266e+00,2.455236673355102539e+00,2.405569314956665039e+00,2.357871532440185547e+00,2.312028646469116211e+00,2.267934083938598633e+00,2.225490093231201172e+00,2.184605598449707031e+00,2.145196199417114258e+00,2.107183218002319336e+00,2.070494174957275391e+00,2.035060882568359375e+00,2.000820159912109375e+00,1.967712402343750000e+00,1.935682535171508789e+00,1.904678583145141602e+00,1.874652147293090820e+00,1.845557808876037598e+00
5.000000000000000000e+00,5.000000000000000000e+00,5.000000000000000000e+00,5.000000000000000000e+00,5.000000000000000000e+00,5.000000000000000000e+00,5.000000000000000000e+00,5.000000000000000000e+00,5.000000000000000000e+00,5.000000000000000000e+00,5.000000000000000000e+00,5.000000000000000000e+00,5.000000000000000000e+00,5.000000000000000000e+00,5.000000000000000000e+00,5.000000000000000000e+00,5.000000000000000000e+00,5.000000000000000000e+00,5.000000000000000000e+00,5.000000000000000000e+00,5.000000000000000000e+00,5.000000000000000000e+00,5.000000000000000000e+00,5.000000000000000000e+00,5.000000000000000000e+00,2.996773481369018555e+00,2.823501110076904297e+00,2.806192874908447266e+00,2.835485935211181641e+00,3.026467800140380859e+00,2.996144533157348633e+00,3.018665313720703125e+00,5.000000000000000000e+00,5.000000000000000000e+00,5.000000000000000000e+00,5.000000000000000000e+00,5.000000000000000000e+00,5.000000000000000000e+00,5.000000000000000000e+00,4.867046833038330078e+00,4.675678253173828125e+00,4.498789310455322266e+00,4.334796905517578125e+00,4.182339191436767578e+00,4.040241718292236328e+00,3.907482624053955078e+00,3.783170700073242188e+00,3.666524410247802734e+00,3.556856155395507812e+00,3.453557729721069336e+00,3.356090307235717773e+00,3.263972997665405273e+00,3.176777839660644531e+00,3.094119787216186523e+00,3.015654325485229492e+00,2.941069841384887695e+00,2.870085954666137695e+00,2.802447557449340820e+00,2.737923860549926758e+00,2.676304578781127930e+00,2.617397785186767578e+00,2.561028003692626953e+00,2.507035493850708008e+00,2.455272197723388672e+00,2.405603647232055664e+00,2.357904434204101562e+00,2.312060117721557617e+00,2.267964363098144531e+00,2.225519180297851562e+00,2.184633731842041016e+00,2.145223379135131836e+00,2.107209444046020508e+00,2.070519447326660156e+00,2.035085439682006836e+00,2.000843763351440430e+00,1.967735171318054199e+00,1.935704708099365234e+00,1.904700040817260742e+00,1.874672889709472656e+00,1.845577836036682129e+00
5.000000000000000000e+00,5.000000000000000000e+00,5.000000000000000000e+00,5.000000000000000000e+00,5.000000000000000000e+00,5.000000000000000000e+00,5.000000000000000000e+00,5.000000000000000000e+00,5.000000000000000000e+00,5.000000000000000000e+00,5.000000000000000000e+00,5.000000000000000000e+00,5.000000000000000000e+00,5.000000000000000000e+00,5.000000000000000000e+00,5.000000000000000000e+00,5.000000000000000000e+00,5.000000000000000000e+00,5.000000000000000000e+00,5.000000000000000000e+00,5.000000000000000000e+00,5.000000000000000000e+00,5.000000000000000000e+00,5.000000000000000000e+00,5.000000000000000000e+00,2.982394695281982422e+00,2.804106712341308594e+00,2.785873413085937500e+00,2.814790964126586914e+00,3.038811922073364258e+00,3.010707855224609375e+00,3.036098003387451172e+00,5.000000000000000000e+00,5.000000000000000000e+00,5.000000000000000000e+00,5.000000000000000000e+00,5.000000000000000000e+00,5.000000000000000000e+00,5.000000000000000000e+00,4.867187023162841797e+00,4.675807476043701172e+00,4.498908996582031250e+00,4.334908008575439453e+00,4.182443141937255859e+00,4.040338516235351562e+00,3.907573223114013672e+00,3.783255338668823242e+00,3.666604042053222656e+00,3.556930780410766602e+00,3.453628540039062500e+00,3.356156826019287109e+00,3.264036178588867188e+00,3.176837205886840820e+00,3.094176530838012695e+00,3.015707731246948242e+00,2.941121101379394531e+00,2.870134592056274414e+00,2.802494049072265625e+00,2.737968206405639648e+00,2.676347017288208008e+00,2.617438316345214844e+00,2.561067104339599609e+00,2.507072687149047852e+00,2.455307960510253906e+00,2.405637741088867188e+00,2.357937335968017578e+00,2.312091588973999023e+00,2.267994880676269531e+00,2.225548505783081055e+00,2.184662103652954102e+00,2.145250320434570312e+00,2.107235908508300781e+00,2.070544719696044922e+00,2.035109996795654297e+00,2.000867366790771484e+00,1.967758297920227051e+00,1.935726761817932129e+00,1.904721498489379883e+00,1.874693632125854492e+00,1.845598220825195312e+00
5.000000000000000000e+00,5.000000000000000000e+00,5.000000000000000000e+00,5.000000000000000000e+00,5.000000000000000000e+00,5.000000000000000000e+00,5.000000000000000000e+00,5.000000000000000000e+00,5.000000000000000000e+00,5.000000000000000000e+00,5.000000000000000000e+00,5.000000000000000000e+00,5.000000000000000000e+00,5.000000000000000000e+00,5.000000000000000000e+00,5.000000000000000000e+00,5.000000000000000000e+00,5.000000000000000000e+00,5.000000000000000000e+00,5.000000000000000000e+00,5.000000000000000000e+00,5.000000000000000000e+00,5.000000000000000000e+00,5.000000000000000000e+00,5.000000000000000000e+00,5.000000000000000000e+00,2.803215026855468750e+00,2.764329195022583008e+00,2.801743030548095703e+00,3.046008348464965820e+00,3.023500442504882812e+00,3.049526214599609375e+00,5.000000000000000000e+00,5.000000000000000000e+00,5.000000000000000000e+00,5.000000000000000000e+00,5.000000000000000000e+00,5.000000000000000000e+00,5.000000000000000000e+00,4.867326736450195312e+00,4.675936698913574219e+00,4.499028682708740234e+00,4.335018634796142578e+00,4.182546138763427734e+00,4.040434837341308594e+00,3.907663106918334961e+00,3.783339738845825195e+00,3.666683435440063477e+00,3.557005643844604492e+00,3.453698873519897461e+00,3.356223106384277344e+00,3.264099121093750000e+00,3.176896810531616211e+00,3.094232797622680664e+00,3.015761375427246094e+00,2.941172122955322266e+00,2.870182991027832031e+00,2.802540302276611328e+00,2.738012313842773438e+00,2.676389217376708984e+00,2.617478609085083008e+00,2.561105728149414062e+00,2.507109642028808594e+00,2.455343723297119141e+00,2.405671834945678711e+00,2.357970237731933594e+00,2.312123298645019531e+00,2.268025159835815430e+00,2.225577831268310547e+00,2.184690237045288086e+00,2.145277500152587891e+00,2.107262134552001953e+00,2.070569992065429688e+00,2.035134315490722656e+00,2.000890970230102539e+00,1.967781186103820801e+00,1.935748934745788574e+00,1.904742836952209473e+00,1.874714374542236328e+00,1.845618247985839844e+00
5.000000000000000000e+00,5.000000000000000000e+00,5.000000000000000000e+00,5.000000000000000000e+00,5.000000000000000000e+00,5.000000000000000000e+00,5.000000000000000000e+00,5.000000000000000000e+00,5.000000000000000000e+00,5.000000000000000000e+00,5.000000000000000000e+00,5.000000000000000000e+00,5.000000000000000000e+00,5.000000000000000000e+00,5.000000000000000000e+00,5.000000000000000000e+00,5.000000000000000000e+00,5.000000000000000000e+00,5.000000000000000000e+00,5.000000000000000000e+00,5.000000000000000000e+00,5.000000000000000000e+00,5.000000000000000000e+00,5.000000000000000000e+00,5.000000000000000000e+00,5.000000000000000000e+00,5.000000000000000000e+00,2.762519121170043945e+00,2.797647953033447266e+00,3.061734914779663086e+00,3.037337064743041992e+00,3.070220708847045898e+00,5.000000000000000000e+00,5.000000000000000000e+00,5.000000000000000000e+00,5.000000000000000000e+00,5.000000000000000000e+00,5.000000000000000000e+00,5.000000000000000000e+00,4.867466449737548828e+00,4.676065444946289062e+00,4.499147891998291016e+00,4.335129737854003906e+00,4.182649135589599609e+00,4.040531158447265625e+00,3.907753229141235352e+00,3.783424139022827148e+00,3.666762590408325195e+00,3.557080268859863281e+00,3.453769207000732422e+00,3.356289625167846680e+00,3.264161825180053711e+00,3.176956176757812500e+00,3.094289302825927734e+00,3.015815019607543945e+00,2.941223144531250000e+00,2.870231628417968750e+00,2.802586793899536133e+00,2.738056659698486328e+00,2.676431417465209961e+00,2.617519140243530273e+00,2.561144351959228516e+00,2.507146835327148438e+00,2.455379247665405273e+00,2.405705928802490234e+00,2.358002901077270508e+00,2.312154769897460938e+00,2.268055677413940430e+00,2.225606918334960938e+00,2.184718370437622070e+00,2.145304679870605469e+00,2.107288122177124023e+00,2.070595502853393555e+00,2.035158872604370117e+00,2.000914573669433594e+00,1.967803955078125000e+00,1.935770988464355469e+00,1.904764294624328613e+00,1.874735116958618164e+00,1.845638394355773926e+00
5.000000000000000000e+00,5.000000000000000000e+00,5.000000000000000000e+00,5.000000000000000000e+00,5.000000000000000000e+00,5.000000000000000000e+00,5.000000000000000000e+00,5.000000000000000000e+00,5.000000000000000000e+00,5.000000000000000000e+00,5.000000000000000000e+00,5.000000000000000000e+00,5.000000000000000000e+00,5.000000000000000000e+00,5.000000000000000000e+00,5.000000000000000000e+00,5.000000000000000000e+00,5.000000000000000000e+00,5.000000000000000000e+00,5.000000000000000000e+00,5.000000000000000000e+00,5.000000000000000000e+00,5.000000000000000000e+00,5.000000000000000000e+00,5.000000000000000000e+00,5.000000000000000000e+00,2.796678304672241211e+00,2.765178680419921875e+00,2.807429075241088867e+00,3.076484441757202148e+00,3.048855781555175781e+00,5.000000000000000000e+00,5.000000000000000000e+00,5.000000000000000000e+00,5.000000000000000000e+00,5.000000000000000000e+00,5.000000000000000000e+00,5.000000000000000000e+00,5.000000000000000000e+00,4.867606639862060547e+00,4.676194667816162109e+00,4.499268054962158203e+00,4.335240840911865234e+00,4.182753086090087891e+00,4.040627479553222656e+00,3.907843351364135742e+00,3.783509016036987305e+00,3.666841983795166016e+00,3.557155132293701172e+00,3.453839540481567383e+00,3.356356382369995117e+00,3.264224529266357422e+00,3.177016019821166992e+00,3.094345808029174805e+00,3.015869140625000000e+00,2.941274166107177734e+00,2.870280504226684570e+00,2.802633047103881836e+00,2.738101005554199219e+00,2.676473855972290039e+00,2.617559671401977539e+00,2.561183214187622070e+00,2.507184028625488281e+00,2.455414772033691406e+00,2.405740261077880859e+00,2.358035802841186523e+00,2.312186479568481445e+00,2.268085956573486328e+00,2.225636243820190430e+00,2.184746503829956055e+00,2.145332098007202148e+00,2.107314348220825195e+00,2.070620775222778320e+00,2.035183191299438477e+00,2.000938177108764648e+00,1.967826843261718750e+00,1.935793161392211914e+00,1.904785633087158203e+00,1.874756097793579102e+00,1.845658421516418457e+00
5.000000000000000000e+00,5.000000000000000000e+00,5.000000000000000000e+00,5.000000000000000000e+00,5.000000000000000000e+00,5.000000000000000000e+00,5.000000000000000000e+00,5.000000000000000000e+00,5.000000000000000000e+00,5.000000000000000000e+00,5.000000000000000000e+00,5.000000000000000000e+00,5.000000000000000000e+00,5.000000000000000000e+00,5.000000000000000000e+00,5.000000000000000000e+00,5.000000000000000000e+00,5.000000000000000000e+00,5.000000000000000000e+00,5.000000000000000000e+00,5.000000000000000000e+00,5.000000000000000000e+00,5.000000000000000000e+00,5.000000000000000000e+00,5.000000000000000000e+00,5.000000000000000000e+00,2.796658754348754883e+00,2.770288944244384766e+00,2.810634851455688477e+00,3.125748395919799805e+00,3.081207513809204102e+00,5.000000000000000000e+00,5.000000000000000000e+00,5.000000000000000000e+00,5.000000000000000000e+00,5.000000000000000000e+00,5.000000000000000000e+00,5.000000000000000000e+00,5.000000000000000000e+00,4.867744445800781250e+00,4.676323890686035156e+00,4.499387264251708984e+00,4.335351943969726562e+00,4.182856082916259766e+00,4.040723800659179688e+00,3.907933473587036133e+00,3.783593654632568359e+00,3.666921377182006836e+00,3.557229995727539062e+00,3.453910112380981445e+00,3.356422662734985352e+00,3.264287471771240234e+00,3.177075624465942383e+00,3.094402313232421875e+00,3.015922784805297852e+00,2.941325187683105469e+00,2.870329141616821289e+00,2.802679538726806641e+00,2.738145351409912109e+00,2.676516056060791016e+00,2.617600202560424805e+00,2.561221837997436523e+00,2.507221221923828125e+00,2.455450296401977539e+00,2.405774354934692383e+00,2.358068704605102539e+00,2.312217950820922852e+00,2.268116235733032227e+00,2.225665569305419922e+00,2.184774637222290039e+00,2.145359277725219727e+00,2.107340574264526367e+00,2.070646047592163086e+00,2.035207748413085938e+00,2.000962018966674805e+00,1.967849612236022949e+00,1.935815215110778809e+00,1.904807090759277344e+00,1.874776840209960938e+00,1.845678567886352539e+00
5.000000000000000000e+00,5.000000000000000000e+00,5.000000000000000000e+00,5.000000000000000000e+00,5.000000000000000000e+00,5.000000000000000000e+00,5.000000000000000000e+00,5.000000000000000000e+00,5.000000000000000000e+00,5.000000000000000000e+00,5.000000000000000000e+00,5.000000000000000000e+00,5.000000000000000000e+00,5.000000000000000000e+00,5.000000000000000000e+00,5.000000000000000000e+00,5.000000000000000000e+00,5.000000000000000000e+00,5.000000000000000000e+00,5.000000000000000000e+00,5.000000000000000000e+00,5.000000000000000000e+00,5.000000000000000000e+00,5.000000000000000000e+00,5.000000000000000000e+00,5.000000000000000000e+00,2.794213056564331055e+00,2.756630182266235352e+00,2.796568155288696289e+00,3.162135362625122070e+00,3.129628419876098633e+00,5.000000000000000000e+00,5.000000000000000000e+00,5.000000000000000000e+00,5.000000000000000000e+00,5.000000000000000000e+00,5.000000000000000000e+00,5.000000000000000000e+00,5.000000000000000000e+00,4.867882728576660156e+00,4.676451683044433594e+00,4.499506950378417969e+00,4.335462570190429688e+00,4.182959556579589844e+00,4.040820121765136719e+00,3.908023595809936523e+00,3.783678054809570312e+00,3.667000770568847656e+00,3.557304620742797852e+00,3.453980207443237305e+00,3.356489181518554688e+00,3.264350175857543945e+00,3.177135229110717773e+00,3.094458818435668945e+00,3.015976428985595703e+00,2.941376209259033203e+00,2.870377779006958008e+00,2.802725791931152344e+00,2.738189697265625000e+00,2.676558256149291992e+00,2.617640495300292969e+00,2.561260461807250977e+00,2.507258176803588867e+00,2.455485820770263672e+00,2.405808687210083008e+00,2.358101367950439453e+00,2.312249422073364258e+00,2.268146753311157227e+00,2.225694894790649414e+00,2.184802770614624023e+00,2.145386457443237305e+00,2.107366800308227539e+00,2.070671319961547852e+00,2.035232067108154297e+00,2.000985622406005859e+00,1.967872500419616699e+00,1.935837388038635254e+00,1.904828548431396484e+00,1.874797582626342773e+00,1.845698714256286621e+00
5.000000000000000000e+00,5.000000000000000000e+00,5.000000000000000000e+00,5.000000000000000000e+00,5.000000000000000000e+00,5.000000000000000000e+00,5.000000000000000000e+00,5.000000000000000000e+00,5.000000000000000000e+00,5.000000000000000000e+00,5.000000000000000000e+00,5.000000000000000000e+00,5.000000000000000000e+00,5.000000000000000000e+00,5.000000000000000000e+00,5.000000000000000000e+00,5.000000000000000000e+00,5.000000000000000000e+00,5.000000000000000000e+00,5.000000000000000000e+00,5.000000000000000000e+00,5.000000000000000000e+00,5.000000000000000000e+00,5.000000000000000000e+00,5.000000000000000000e+00,5.000000000000000000e+00,2.790630340576171875e+00,2.743105411529541016e+00,2.782773494720458984e+00,3.183082103729248047e+00,3.166882038116455078e+00,5.000000000000000000e+00,5.000000000000000000e+00,5.000000000000000000e+00,5.000000000000000000e+00,5.000000000000000000e+00,5.000000000000000000e+00,5.000000000000000000e+00,5.000000000000000000e+00,4.868021011352539062e+00,4.676579475402832031e+00,4.499626636505126953e+00,4.335573673248291016e+00,4.183063030242919922e+00,4.040916919708251953e+00,3.908114194869995117e+00,3.783762454986572266e+00,3.667080402374267578e+00,3.557379007339477539e+00,3.454051017761230469e+00,3.356555700302124023e+00,3.264413356781005859e+00,3.177194833755493164e+00,3.094515562057495117e+00,3.016030073165893555e+00,2.941427707672119141e+00,2.870426416397094727e+00,2.802772283554077148e+00,2.738233804702758789e+00,2.676600694656372070e+00,2.617681026458740234e+00,2.561299324035644531e+00,2.507295370101928711e+00,2.455521583557128906e+00,2.405842781066894531e+00,2.358134508132934570e+00,2.312281131744384766e+00,2.268177270889282227e+00,2.225723981857299805e+00,2.184831142425537109e+00,2.145413637161254883e+00,2.107393264770507812e+00,2.070696830749511719e+00,2.035256624221801758e+00,2.001009225845336914e+00,1.967895388603210449e+00,1.935859441757202148e+00,1.904850125312805176e+00,1.874818325042724609e+00,1.845718741416931152e+00
5.000000000000000000e+00,5.000000000000000000e+00,5.000000000000000000e+00,5.000000000000000000e+00,5.000000000000000000e+00,5.000000000000000000e+00,5.000000000000000000e+00,5.000000000000000000e+00,5.000000000000000000e+00,5.000000000000000000e+00,5.000000000000000000e+00,5.000000000000000000e+00,5.000000000000000000e+00,5.000000000000000000e+00,5.000000000000000000e+00,5.000000000000000000e+00,5.000000000000000000e+00,5.000000000000000000e+00,5.000000000000000000e+00,5.000000000000000000e+00,5.000000000000000000e+00,5.000000000000000000e+00,5.000000000000000000e+00,5.000000000000000000e+00,5.000000000000000000e+00,5.000000000000000000e+00,2.787160873413085938e+00,2.729476928710937500e+00,2.772179603576660156e+00,3.204463005065917969e+00,3.193639755249023438e+00,5.000000000000000000e+00,5.000000000000000000e+00,5.000000000000000000e+00,5.000000000000000000e+00,5.000000000000000000e+00,5.000000000000000000e+00,5.000000000000000000e+00,5.000000000000000000e+00,4.868159294128417969e+00,4.676707267761230469e+00,4.499743938446044922e+00,4.335684776306152344e+00,4.183166027069091797e+00,4.041013240814208984e+00,3.908204317092895508e+00,3.783846855163574219e+00,3.667159557342529297e+00,3.557453632354736328e+00,3.454121351242065430e+00,3.356622219085693359e+00,3.264476299285888672e+00,3.177254199981689453e+00,3.094572067260742188e+00,3.016083717346191406e+00,2.941478729248046875e+00,2.870475053787231445e+00,2.802818775177001953e+00,2.738278150558471680e+00,2.676643133163452148e+00,2.617721319198608398e+00,2.561338186264038086e+00,2.507332563400268555e+00,2.455557346343994141e+00,2.405876874923706055e+00,2.358167171478271484e+00,2.312312602996826172e+00,2.268207550048828125e+00,2.225753307342529297e+00,2.184859275817871094e+00,2.145440578460693359e+00,2.107419490814208984e+00,2.070722103118896484e+00,2.035281181335449219e+00,2.001032829284667969e+00,1.967918276786804199e+00,1.935881614685058594e+00,1.904871582984924316e+00,1.874839067459106445e+00,1.845738887786865234e+00
5.000000000000000000e+00,5.000000000000000000e+00,5.000000000000000000e+00,5.000000000000000000e+00,5.000000000000000000e+00,5.000000000000000000e+00,5.000000000000000000e+00,5.000000000000000000e+00,5.000000000000000000e+00,5.000000000000000000e+00,5.000000000000000000e+00,5.000000000000000000e+00,5.000000000000000000e+00,5.000000000000000000e+00,5.000000000000000000e+00,5.000000000000000000e+00,5.000000000000000000e+00,5.000000000000000000e+00,5.000000000000000000e+00,5.000000000000000000e+00,5.000000000000000000e+00,5.000000000000000000e+00,5.000000000000000000e+00,5.000000000000000000e+00,5.000000000000000000e+00,5.000000000000000000e+00,5.000000000000000000e+00,2.720495700836181641e+00,2.766892194747924805e+00,3.227986574172973633e+00,3.235705852508544922e+00,5.000000000000000000e+00,5.000000000000000000e+00,5.000000000000000000e+00,5.000000000000000000e+00,5.000000000000000000e+00,5.000000000000000000e+00,5.000000000000000000e+00,5.000000000000000000e+00,4.868297576904296875e+00,4.676834583282470703e+00,4.499862194061279297e+00,4.335793972015380859e+00,4.183269500732421875e+00,4.041109561920166016e+00,3.908294439315795898e+00,3.783931255340576172e+00,3.667238950729370117e+00,3.557528257369995117e+00,3.454191684722900391e+00,3.356688737869262695e+00,3.264539241790771484e+00,3.177313804626464844e+00,3.094628572463989258e+00,3.016137361526489258e+00,2.941529750823974609e+00,2.870523691177368164e+00,2.802865028381347656e+00,2.738322257995605469e+00,2.676685333251953125e+00,2.617761850357055664e+00,2.561376810073852539e+00,2.507369518280029297e+00,2.455592870712280273e+00,2.405910968780517578e+00,2.358200073242187500e+00,2.312344074249267578e+00,2.268237829208374023e+00,2.225782394409179688e+00,2.184887409210205078e+00,2.145467758178710938e+00,2.107445478439331055e+00,2.070747375488281250e+00,2.035305500030517578e+00,2.001056432723999023e+00,1.967941045761108398e+00,1.935903668403625488e+00,1.904892921447753906e+00,1.874859809875488281e+00,1.845759034156799316e+00
5.000000000000000000e+00,5.000000000000000000e+00,5.000000000000000000e+00,5.000000000000000000e+00,5.000000000000000000e+00,5.000000000000000000e+00,5.000000000000000000e+00,5.000000000000000000e+00,5.000000000000000000e+00,5.000000000000000000e+00,5.000000000000000000e+00,5.000000000000000000e+00,5.000000000000000000e+00,5.000000000000000000e+00,5.000000000000000000e+00,5.000000000000000000e+00,5.000000000000000000e+00,5.000000000000000000e+00,5.000000000000000000e+00,5.000000000000000000e+00,5.000000000000000000e+00,5.000000000000000000e+00,5.000000000000000000e+00,5.000000000000000000e+00,5.000000000000000000e+00,5.000000000000000000e+00,5.000000000000000000e+00,2.716382741928100586e+00,2.761113643646240234e+00,3.254349708557128906e+00,3.293788909912109375e+00,5.000000000000000000e+00,5.000000000000000000e+00,5.000000000000000000e+00,5.000000000000000000e+00,5.000000000000000000e+00,5.000000000000000000e+00,5.000000000000000000e+00,5.000000000000000000e+00,4.868435859680175781e+00,4.676962375640869141e+00,4.499980449676513672e+00,4.335904121398925781e+00,4.183371543884277344e+00,4.041206359863281250e+00,3.908384323120117188e+00,3.784016132354736328e+00,3.667318344116210938e+00,3.557603359222412109e+00,3.454262256622314453e+00,3.356755495071411133e+00,3.264602184295654297e+00,3.177373647689819336e+00,3.094685077667236328e+00,3.016191244125366211e+00,2.941580772399902344e+00,2.870572566986083984e+00,2.802911520004272461e+00,2.738366842269897461e+00,2.676727533340454102e+00,2.617802381515502930e+00,2.561415672302246094e+00,2.507406949996948242e+00,2.455628395080566406e+00,2.405945301055908203e+00,2.358232736587524414e+00,2.312375783920288086e+00,2.268268346786499023e+00,2.225811958312988281e+00,2.184915542602539062e+00,2.145495176315307617e+00,2.107471704483032227e+00,2.070772647857666016e+00,2.035330057144165039e+00,2.001080274581909180e+00,1.967963933944702148e+00,1.935926079750061035e+00,1.904914379119873047e+00,1.874880552291870117e+00,1.845779061317443848e+00
4.875311851501464844e+00,4.874100208282470703e+00,4.872889041900634766e+00,4.871678829193115234e+00,4.870469570159912109e+00,4.869260311126708984e+00,4.868052005767822266e+00,4.866844654083251953e+00,4.865637302398681641e+00,4.864430427551269531e+00,4.863224506378173828e+00,4.862019062042236328e+00,4.860814094543457031e+00,4.859610080718994141e+00,4.858406543731689453e+00,4.857203483581542969e+00,4.856000900268554688e+00,4.854799270629882812e+00,4.853598117828369141e+00,4.852397441864013672e+00,4.851197719573974609e+00,4.849997997283935547e+00,4.848799228668212891e+00,4.847600936889648438e+00,4.846403121948242188e+00,4.845206260681152344e+00,4.844009876251220703e+00,2.718644618988037109e+00,4.841618537902832031e+00,3.282775402069091797e+00,4.839229583740234375e+00,4.838036060333251953e+00,4.836843013763427734e+00,4.835650444030761719e+00,4.834458827972412109e+00,4.833267688751220703e+00,4.832077026367187500e+00,4.830887317657470703e+00,4.829697608947753906e+00,4.828508853912353516e+00,4.677090167999267578e+00,4.500098228454589844e+00,4.336013793945312500e+00,4.183474063873291016e+00,4.041302680969238281e+00,3.908474445343017578e+00,3.784100532531738281e+00,3.667397737503051758e+00,3.557678222656250000e+00,3.454332590103149414e+00,3.356822013854980469e+00,3.264665126800537109e+00,3.177433252334594727e+00,3.094741582870483398e+00,3.016245126724243164e+00,2.941631793975830078e+00,2.870621204376220703e+00,2.802957773208618164e+00,2.738410949707031250e+00,2.676769971847534180e+00,2.617842912673950195e+00,2.561454296112060547e+00,2.507443904876708984e+00,2.455663919448852539e+00,2.405979633331298828e+00,2.358265638351440430e+00,2.312407493591308594e+00,2.268298625946044922e+00,2.225841045379638672e+00,2.184943914413452148e+00,2.145522356033325195e+00,2.107497930526733398e+00,2.070798158645629883e+00,2.035354375839233398e+00,2.001103878021240234e+00,1.967986822128295898e+00,1.935948133468627930e+00,1.904935836791992188e+00,1.874901294708251953e+00,1.845799207687377930e+00
3.778093099594116211e+00,3.777365922927856445e+00,3.776638507843017578e+00,3.775911808013916016e+00,3.775184869766235352e+00,3.774458646774291992e+00,3.773732423782348633e+00,3.773006200790405273e+00,3.772280931472778320e+00,3.771555423736572266e+00,3.770830631256103516e+00,3.770105838775634766e+00,3.769381523132324219e+00,3.768657207489013672e+00,3.767933130264282227e+00,3.767209768295288086e+00,3.766486167907714844e+00,3.765763521194458008e+00,3.765040397644042969e+00,3.764317989349365234e+00,3.763595581054687500e+00,3.762873649597167969e+00,3.762152194976806641e+00,3.761430501937866211e+00,3.760709762573242188e+00,3.759988546371459961e+00,3.759268283843994141e+00,2.557348012924194336e+00,3.757827520370483398e+00,3.217479705810546875e+00,3.756388425827026367e+00,3.755669593811035156e+00,3.754950284957885742e+00,3.754231929779052734e+00,3.753513336181640625e+00,3.752795219421386719e+00,3.752077579498291016e+00,3.751359701156616211e+00,3.750642776489257812e+00,3.749925613403320312e+00,3.749209165573120117e+00,3.748492479324340820e+00,3.747776031494140625e+00,3.747060298919677734e+00,3.746344566345214844e+00,3.745629549026489258e+00,3.744914293289184570e+00,3.667477369308471680e+00,3.557752847671508789e+00,3.454403400421142578e+00,3.356888532638549805e+00,3.264728307723999023e+00,3.177492856979370117e+00,3.094798326492309570e+00,3.016298770904541016e+00,2.941683053970336914e+00,2.870669841766357422e+00,2.803004503250122070e+00,2.738455295562744141e+00,2.676812410354614258e+00,2.617883443832397461e+00,2.561493158340454102e+00,2.507481098175048828e+00,2.455699682235717773e+00,2.406013727188110352e+00,2.358298540115356445e+00,2.312438964843750000e+00,2.268329143524169922e+00,2.225870370864868164e+00,2.184972047805786133e+00,2.145549535751342773e+00,2.107524394989013672e+00,2.070823431015014648e+00,2.035379171371459961e+00,2.001127481460571289e+00,1.968009829521179199e+00,1.935970306396484375e+00,1.904957175254821777e+00,1.874922037124633789e+00,1.845819473266601562e+00
3.084016799926757812e+00,3.083532094955444336e+00,3.083047389984130859e+00,3.082562685012817383e+00,3.082078695297241211e+00,3.081594228744506836e+00,3.081110477447509766e+00,3.080626487731933594e+00,3.080142736434936523e+00,3.079659223556518555e+00,3.079175710678100586e+00,3.078692436218261719e+00,3.078209161758422852e+00,3.077726364135742188e+00,3.077243566513061523e+00,3.076761007308959961e+00,3.076278448104858398e+00,3.075795888900756836e+00,3.075313806533813477e+00,3.074831724166870117e+00,3.074349880218505859e+00,3.073868036270141602e+00,3.073386430740356445e+00,3.072905063629150391e+00,3.072423458099365234e+00,3.071942567825317383e+00,3.071461439132690430e+00,2.701365232467651367e+00,3.070499897003173828e+00,3.070019483566284180e+00,3.069539070129394531e+00,3.069058656692504883e+00,3.068578720092773438e+00,3.068098545074462891e+00,3.067618846893310547e+00,3.067139148712158203e+00,3.066659927368164062e+00,3.066180467605590820e+00,3.065701007843017578e+00,3.065222263336181641e+00,3.064743280410766602e+00,3.064264535903930664e+00,3.063785791397094727e+00,3.063307523727416992e+00,3.062829256057739258e+00,3.062351226806640625e+00,3.061872959136962891e+00,3.061395168304443359e+00,3.060917615890502930e+00,3.060439825057983398e+00,3.059962511062622070e+00,3.059485197067260742e+00,3.059008121490478516e+00,3.058531045913696289e+00,3.016352415084838867e+00,2.941734313964843750e+00,2.870718479156494141e+00,2.803050756454467773e+00,2.738499641418457031e+00,2.676854610443115234e+00,2.617923736572265625e+00,2.561532020568847656e+00,2.507518053054809570e+00,2.455735445022583008e+00,2.406047821044921875e+00,2.358331441879272461e+00,2.312470674514770508e+00,2.268359422683715820e+00,2.225899696350097656e+00,2.185000419616699219e+00,2.145576715469360352e+00,2.107550621032714844e+00,2.070848703384399414e+00,2.035403490066528320e+00,2.001151084899902344e+00,1.968032717704772949e+00,1.935992360115051270e+00,1.904978632926940918e+00,1.874942779541015625e+00,1.845839619636535645e+00
2.605380296707153320e+00,2.605034112930297852e+00,2.604688405990600586e+00,2.604342460632324219e+00,2.603996992111206055e+00,2.603651285171508789e+00,2.603305578231811523e+00,2.602960109710693359e+00,2.602614641189575195e+00,2.602269649505615234e+00,2.601924419403076172e+00,2.601579427719116211e+00,2.601234197616577148e+00,2.600889205932617188e+00,2.600544691085815430e+00,2.600199937820434570e+00,2.599855422973632812e+00,2.599510669708251953e+00,2.599166393280029297e+00,2.598821878433227539e+00,2.598477602005004883e+00,2.598133563995361328e+00,2.597789287567138672e+00,2.597445487976074219e+00,2.597101449966430664e+00,2.596757888793945312e+00,2.596414089202880859e+00,2.596070528030395508e+00,2.595726966857910156e+00,2.595383405685424805e+00,2.595040082931518555e+00,2.594696760177612305e+00,2.594353675842285156e+00,2.594010591506958008e+00,2.593667745590209961e+00,2.593324661254882812e+00,2.592981815338134766e+00,2.592639207839965820e+00,2.592296600341796875e+00,2.591953992843627930e+00,2.591611623764038086e+00,2.591269254684448242e+00,2.590926885604858398e+00,2.590584754943847656e+00,2.590242624282836914e+00,2.589900732040405273e+00,2.589558839797973633e+00,2.589216947555541992e+00,2.588875293731689453e+00,2.588533639907836914e+00,2.588191986083984375e+00,2.587850570678710938e+00,2.587509155273437500e+00,2.587167978286743164e+00,2.586826801300048828e+00,2.586485862731933594e+00,2.586144685745239258e+00,2.585803747177124023e+00,2.585463047027587891e+00,2.585122346878051758e+00,2.584781646728515625e+00,2.561570644378662109e+00,2.507555246353149414e+00,2.455770969390869141e+00,2.406082153320312500e+00,2.358364343643188477e+00,2.312502145767211914e+00,2.268389940261840820e+00,2.225928783416748047e+00,2.185028553009033203e+00,2.145603895187377930e+00,2.107576847076416016e+00,2.070873975753784180e+00,2.035428047180175781e+00,2.001174688339233398e+00,1.968055605888366699e+00,1.936014533042907715e+00,1.905000090599060059e+00,1.874963521957397461e+00,1.845859766006469727e+00
2.255374193191528320e+00,2.255114078521728516e+00,2.254853725433349609e+00,2.254593610763549805e+00,2.254333496093750000e+00,2.254073381423950195e+00,2.253813505172729492e+00,2.253553390502929688e+00,2.253293514251708984e+00,2.253033876419067383e+00,2.252774000167846680e+00,2.252514362335205078e+00,2.252254724502563477e+00,2.251995086669921875e+00,2.251735687255859375e+00,2.251476287841796875e+00,2.251216888427734375e+00,2.250957489013671875e+00,2.250698089599609375e+00,2.250438928604125977e+00,2.250180006027221680e+00,2.249920845031738281e+00,2.249661684036254883e+00,2.249403476715087891e+00,2.249145507812500000e+00,2.248887538909912109e+00,2.248629808425903320e+00,2.248372077941894531e+00,2.248114585876464844e+00,2.247856855392456055e+00,2.247599363327026367e+00,2.247341871261596680e+00,2.247084379196166992e+00,2.246826887130737305e+00,2.246569633483886719e+00,2.246312379837036133e+00,2.246055126190185547e+00,2.245798110961914062e+00,2.245540857315063477e+00,2.245283842086791992e+00,2.245026826858520508e+00,2.244769811630249023e+00,2.244513273239135742e+00,2.244256258010864258e+00,2.243999719619750977e+00,2.243742942810058594e+00,2.243486166000366211e+00,2.243229866027832031e+00,2.242973089218139648e+00,2.242716789245605469e+00,2.242460489273071289e+00,2.242204189300537109e+00,2.241947889328002930e+00,2.241691589355468750e+00,2.241435527801513672e+00,2.241179227828979492e+00,2.240923404693603516e+00,2.240667343139648438e+00,2.240411520004272461e+00,2.240155696868896484e+00,2.239899635314941406e+00,2.239644050598144531e+00,2.239388227462768555e+00,2.239132881164550781e+00,2.238877058029174805e+00,2.238621711730957031e+00,2.238366127014160156e+00,2.238111019134521484e+00,2.225958108901977539e+00,2.185056686401367188e+00,2.145631074905395508e+00,2.107603073120117188e+00,2.070899486541748047e+00,2.035452365875244141e+00,2.001198530197143555e+00,1.968078374862670898e+00,1.936036586761474609e+00,1.905021429061889648e+00,1.874984502792358398e+00,1.845879793167114258e+00
1.988315105438232422e+00,1.988112688064575195e+00,1.987910509109497070e+00,1.987708210945129395e+00,1.987506031990051270e+00,1.987303972244262695e+00,1.987101793289184570e+00,1.986899852752685547e+00,1.986697793006896973e+00,1.986495733261108398e+00,1.986293911933898926e+00,1.986091971397399902e+00,1.985890269279479980e+00,1.985688328742980957e+00,1.985486507415771484e+00,1.985284924507141113e+00,1.985083222389221191e+00,1.984881639480590820e+00,1.984679937362670898e+00,1.984478235244750977e+00,1.984276890754699707e+00,1.984075307846069336e+00,1.983874082565307617e+00,1.983672499656677246e+00,1.983471155166625977e+00,1.983269929885864258e+00,1.983068585395812988e+00,1.982867479324340820e+00,1.982666134834289551e+00,1.982464909553527832e+00,1.982263922691345215e+00,1.982062816619873047e+00,1.981861948966979980e+00,1.981660842895507812e+00,1.981459856033325195e+00,1.981258988380432129e+00,1.981058120727539062e+00,1.980857372283935547e+00,1.980656504631042480e+00,1.980455636978149414e+00,1.980255126953125000e+00,1.980054378509521484e+00,1.979853868484497070e+00,1.979653239250183105e+00,1.979452490806579590e+00,1.979252219200134277e+00,1.979051589965820312e+00,1.978851318359375000e+00,1.978650808334350586e+00,1.978450417518615723e+00,1.978250265121459961e+00,1.978049874305725098e+00,1.977849841117858887e+00,1.977649569511413574e+00,1.977449297904968262e+00,1.977249383926391602e+00,1.977049231529235840e+00,1.976849317550659180e+00,1.976649284362792969e+00,1.976449251174926758e+00,1.976249456405639648e+00,1.976049542427062988e+00,1.975849866867065430e+00,1.975649952888488770e+00,1.975450158119201660e+00,1.975250601768493652e+00,1.975050806999206543e+00,1.974851369857788086e+00,1.974651694297790527e+00,1.974452137947082520e+00,1.974252700805664062e+00,1.974053144454956055e+00,1.973853945732116699e+00,1.973654508590698242e+00,1.973455071449279785e+00,1.968101263046264648e+00,1.936058759689331055e+00,1.905042886734008789e+00,1.875005245208740234e+00,1.845899939537048340e+00
1.777804970741271973e+00,1.777643084526062012e+00,1.777481555938720703e+00,1.777319788932800293e+00,1.777158021926879883e+00,1.776996493339538574e+00,1.776834845542907715e+00,1.776673436164855957e+00,1.776511788368225098e+00,1.776350259780883789e+00,1.776188969612121582e+00,1.776027441024780273e+00,1.775866150856018066e+00,1.775704622268676758e+00,1.775543212890625000e+00,1.775382041931152344e+00,1.775220632553100586e+00,1.775059461593627930e+00,1.774898171424865723e+00,1.774736881256103516e+00,1.774575829505920410e+00,1.774414658546447754e+00,1.774253606796264648e+00,1.774092435836791992e+00,1.773931264877319336e+00,1.773770451545715332e+00,1.773609280586242676e+00,1.773448467254638672e+00,1.773287415504455566e+00,1.773126482963562012e+00,1.772965669631958008e+00,1.772804737091064453e+00,1.772644042968750000e+00,1.772483110427856445e+00,1.772322297096252441e+00,1.772161722183227539e+00,1.772000908851623535e+00,1.771840333938598633e+00,1.771679639816284180e+00,1.771518945693969727e+00,1.771358489990234375e+00,1.771197795867919922e+00,1.771037340164184570e+00,1.770876765251159668e+00,1.770716190338134766e+00,1.770555853843688965e+00,1.770395398139953613e+00,1.770235180854797363e+00,1.770074725151062012e+00,1.769914269447326660e+00,1.769754052162170410e+00,1.769593715667724609e+00,1.769433617591857910e+00,1.769273281097412109e+00,1.769113063812255859e+00,1.768952965736389160e+00,1.768792867660522461e+00,1.768632769584655762e+00,1.768472671508789062e+00,1.768312573432922363e+00,1.768152713775634766e+00,1.767992615699768066e+00,1.767832756042480469e+00,1.767672777175903320e+00,1.767512798309326172e+00,1.767353057861328125e+00,1.767193078994750977e+00,1.767033457756042480e+00,1.766873598098754883e+00,1.766713738441467285e+00,1.766554117202758789e+00,1.766394376754760742e+00,1.766234874725341797e+00,1.766075134277343750e+00,1.765915393829345703e+00,1.765756011009216309e+00,1.765596389770507812e+00,1.765437006950378418e+00,1.765277385711669922e+00,1.765117883682250977e+00
1.607602238655090332e+00,1.607469916343688965e+00,1.607337713241577148e+00,1.607205510139465332e+00,1.607073187828063965e+00,1.606941223144531250e+00,1.606809020042419434e+00,1.606676936149597168e+00,1.606544733047485352e+00,1.606412649154663086e+00,1.606280684471130371e+00,1.606148600578308105e+00,1.606016635894775391e+00,1.605884671211242676e+00,1.605752587318420410e+00,1.605620741844177246e+00,1.605488777160644531e+00,1.605356931686401367e+00,1.605224967002868652e+00,1.605093121528625488e+00,1.604961395263671875e+00,1.604829430580139160e+00,1.604697823524475098e+00,1.604565978050231934e+00,1.604434132575988770e+00,1.604302525520324707e+00,1.604170680046081543e+00,1.604039072990417480e+00,1.603907346725463867e+00,1.603775739669799805e+00,1.603644132614135742e+00,1.603512525558471680e+00,1.603381037712097168e+00,1.603249430656433105e+00,1.603117823600769043e+00,1.602986335754394531e+00,1.602854847908020020e+00,1.602723479270935059e+00,1.602591991424560547e+00,1.602460503578186035e+00,1.602329134941101074e+00,1.602197766304016113e+00,1.602066397666931152e+00,1.601935029029846191e+00,1.601803660392761230e+00,1.601672410964965820e+00,1.601541161537170410e+00,1.601409912109375000e+00,1.601278662681579590e+00,1.601147413253784180e+00,1.601016283035278320e+00,1.600885033607482910e+00,1.600754022598266602e+00,1.600622892379760742e+00,1.600491642951965332e+00,1.600360751152038574e+00,1.600229620933532715e+00,1.600098609924316406e+00,1.599967479705810547e+00,1.599836587905883789e+00,1.599705576896667480e+00,1.599574565887451172e+00,1.599443674087524414e+00,1.599312782287597656e+00,1.599182009696960449e+00,1.599050998687744141e+00,1.598920106887817383e+00,1.598789334297180176e+00,1.598658561706542969e+00,1.598527789115905762e+00,1.598397016525268555e+00,1.598266243934631348e+00,1.598135590553283691e+00,1.598004817962646484e+00,1.597874283790588379e+00,1.597743511199951172e+00,1.597612857818603516e+00,1.597482323646545410e+00,1.597351670265197754e+00,1.597221255302429199e+00
1.467141628265380859e+00,1.467031478881835938e+00,1.466921329498291016e+00,1.466811180114746094e+00,1.466701149940490723e+00,1.466591000556945801e+00,1.466480970382690430e+00,1.466370940208435059e+00,1.466260910034179688e+00,1.466150879859924316e+00,1.466040849685668945e+00,1.465930819511413574e+00,1.465820908546447754e+00,1.465710878372192383e+00,1.465601086616516113e+00,1.465491056442260742e+00,1.465381145477294922e+00,1.465271353721618652e+00,1.465161442756652832e+00,1.465051651000976562e+00,1.464941740036010742e+00,1.464831829071044922e+00,1.464722156524658203e+00,1.464612364768981934e+00,1.464502573013305664e+00,1.464392781257629395e+00,1.464282989501953125e+00,1.464173316955566406e+00,1.464063644409179688e+00,1.463953971862792969e+00,1.463844299316406250e+00,1.463734626770019531e+00,1.463624954223632812e+00,1.463515281677246094e+00,1.463405847549438477e+00,1.463296175003051758e+00,1.463186502456665039e+00,1.463077068328857422e+00,1.462967514991760254e+00,1.462857961654663086e+00,1.462748527526855469e+00,1.462638974189758301e+00,1.462529540061950684e+00,1.462419986724853516e+00,1.462310671806335449e+00,1.462201237678527832e+00,1.462091684341430664e+00,1.461982369422912598e+00,1.461872935295104980e+00,1.461763739585876465e+00,1.461654305458068848e+00,1.461544990539550781e+00,1.461435675621032715e+00,1.461326360702514648e+00,1.461217164993286133e+00,1.461107850074768066e+00,1.460998535156250000e+00,1.460889458656311035e+00,1.460780143737792969e+00,1.460671067237854004e+00,1.460561752319335938e+00,1.460452556610107422e+00,1.460343480110168457e+00,1.460234284400939941e+00,1.460125327110290527e+00,1.460016131401062012e+00,1.459907054901123047e+00,1.459797978401184082e+00,1.459688901901245117e+00,1.459579944610595703e+00,1.459470868110656738e+00,1.459361791610717773e+00,1.459252953529357910e+00,1.459143877029418945e+00,1.459035038948059082e+00,1.458926081657409668e+00,1.458817124366760254e+00,1.458708286285400391e+00,1.458599328994750977e+00,1.458490490913391113e+00
1.349253654479980469e+00,1.349160432815551758e+00,1.349067330360412598e+00,1.348974108695983887e+00,1.348881125450134277e+00,1.348787903785705566e+00,1.348694801330566406e+00,1.348601818084716797e+00,1.348508715629577637e+00,1.348415732383728027e+00,1.348322629928588867e+00,1.348229527473449707e+00,1.348136544227600098e+00,1.348043560981750488e+00,1.347950577735900879e+00,1.347857594490051270e+00,1.347764611244201660e+00,1.347671627998352051e+00,1.347578644752502441e+00,1.347485780715942383e+00,1.347392916679382324e+00,1.347299933433532715e+00,1.347207188606262207e+00,1.347114205360412598e+00,1.347021460533142090e+00,1.346928477287292480e+00,1.346835613250732422e+00,1.346742868423461914e+00,1.346650004386901855e+00,1.346557259559631348e+00,1.346464514732360840e+00,1.346371650695800781e+00,1.346278905868530273e+00,1.346186161041259766e+00,1.346093535423278809e+00,1.346000671386718750e+00,1.345907926559448242e+00,1.345815300941467285e+00,1.345722556114196777e+00,1.345630049705505371e+00,1.345537304878234863e+00,1.345444560050964355e+00,1.345352053642272949e+00,1.345259308815002441e+00,1.345166802406311035e+00,1.345074176788330078e+00,1.344981551170349121e+00,1.344889044761657715e+00,1.344796419143676758e+00,1.344703912734985352e+00,1.344611406326293945e+00,1.344518780708312988e+00,1.344426393508911133e+00,1.344333887100219727e+00,1.344241380691528320e+00,1.344148874282836914e+00,1.344056367874145508e+00,1.343963980674743652e+00,1.343871593475341797e+00,1.343779206275939941e+00,1.343686699867248535e+00,1.343594312667846680e+00,1.343502044677734375e+00,1.343409538269042969e+00,1.343317270278930664e+00,1.343224883079528809e+00,1.343132495880126953e+00,1.343040227890014648e+00,1.342947959899902344e+00,1.342855691909790039e+00,1.342763423919677734e+00,1.342671036720275879e+00,1.342578887939453125e+00,1.342486619949340820e+00,1.342394471168518066e+00,1.342302203178405762e+00,1.342209935188293457e+00,1.342117786407470703e+00,1.342025637626647949e+00,1.341933488845825195e+00
1.248901724815368652e+00,1.248821854591369629e+00,1.248742103576660156e+00,1.248662233352661133e+00,1.248582601547241211e+00,1.248502731323242188e+00,1.248422980308532715e+00,1.248343229293823242e+00,1.248263478279113770e+00,1.248183727264404297e+00,1.248103976249694824e+00,1.248024225234985352e+00,1.247944593429565430e+00,1.247864842414855957e+00,1.247785210609436035e+00,1.247705459594726562e+00,1.247625827789306641e+00,1.247546195983886719e+00,1.247466564178466797e+00,1.247386932373046875e+00,1.247307300567626953e+00,1.247227668762207031e+00,1.247148036956787109e+00,1.247068405151367188e+00,1.246988892555236816e+00,1.246909379959106445e+00,1.246829748153686523e+00,1.246750235557556152e+00,1.246670603752136230e+00,1.246591210365295410e+00,1.246511578559875488e+00,1.246432065963745117e+00,1.246352553367614746e+00,1.246273040771484375e+00,1.246193647384643555e+00,1.246114134788513184e+00,1.246034622192382812e+00,1.245955228805541992e+00,1.245875716209411621e+00,1.245796442031860352e+00,1.245716929435729980e+00,1.245637536048889160e+00,1.245558142662048340e+00,1.245478749275207520e+00,1.245399355888366699e+00,1.245319962501525879e+00,1.245240569114685059e+00,1.245161294937133789e+00,1.245081901550292969e+00,1.245002627372741699e+00,1.244923233985900879e+00,1.244843959808349609e+00,1.244764685630798340e+00,1.244685411453247070e+00,1.244606137275695801e+00,1.244526863098144531e+00,1.244447469711303711e+00,1.244368314743041992e+00,1.244289040565490723e+00,1.244209885597229004e+00,1.244130611419677734e+00,1.244051337242126465e+00,1.243972182273864746e+00,1.243893027305603027e+00,1.243813872337341309e+00,1.243734717369079590e+00,1.243655443191528320e+00,1.243576407432556152e+00,1.243497252464294434e+00,1.243418097496032715e+00,1.243338942527770996e+00,1.243259906768798828e+00,1.243180751800537109e+00,1.243101716041564941e+00,1.243022680282592773e+00,1.242943525314331055e+00,1.242864608764648438e+00,1.242785453796386719e+00,1.242706418037414551e+00,1.242627382278442383e+00
1.162443995475769043e+00,1.162374854087829590e+00,1.162305712699890137e+00,1.162236452102661133e+00,1.162167429924011230e+00,1.162098288536071777e+00,1.162029266357421875e+00,1.161960124969482422e+00,1.161890983581542969e+00,1.161821961402893066e+00,1.161752820014953613e+00,1.161683797836303711e+00,1.161614656448364258e+00,1.161545634269714355e+00,1.161476612091064453e+00,1.161407589912414551e+00,1.161338567733764648e+00,1.161269545555114746e+00,1.161200523376464844e+00,1.161131501197814941e+00,1.161062479019165039e+00,1.160993576049804688e+00,1.160924553871154785e+00,1.160855531692504883e+00,1.160786628723144531e+00,1.160717606544494629e+00,1.160648822784423828e+00,1.160579800605773926e+00,1.160510778427124023e+00,1.160441994667053223e+00,1.160372972488403320e+00,1.160304188728332520e+00,1.160235285758972168e+00,1.160166263580322266e+00,1.160097479820251465e+00,1.160028576850891113e+00,1.159959793090820312e+00,1.159890890121459961e+00,1.159821987152099609e+00,1.159753203392028809e+00,1.159684300422668457e+00,1.159615516662597656e+00,1.159546732902526855e+00,1.159477829933166504e+00,1.159409165382385254e+00,1.159340262413024902e+00,1.159271597862243652e+00,1.159202814102172852e+00,1.159133911132812500e+00,1.159065246582031250e+00,1.158996462821960449e+00,1.158927798271179199e+00,1.158859014511108398e+00,1.158790230751037598e+00,1.158721566200256348e+00,1.158652901649475098e+00,1.158584237098693848e+00,1.158515453338623047e+00,1.158446788787841797e+00,1.158378124237060547e+00,1.158309459686279297e+00,1.158240795135498047e+00,1.158172130584716797e+00,1.158103466033935547e+00,1.158034920692443848e+00,1.157966256141662598e+00,1.157897710800170898e+00,1.157829046249389648e+00,1.157760381698608398e+00,1.157691836357116699e+00,1.157623291015625000e+00,1.157554745674133301e+00,1.157486081123352051e+00,1.157417535781860352e+00,1.157348990440368652e+00,1.157280445098876953e+00,1.157211899757385254e+00,1.157143354415893555e+00,1.157074809074401855e+00,1.157006382942199707e+00
1.087181568145751953e+00,1.087121129035949707e+00,1.087060570716857910e+00,1.087000131607055664e+00,1.086939692497253418e+00,1.086879134178161621e+00,1.086818814277648926e+00,1.086758255958557129e+00,1.086697816848754883e+00,1.086637496948242188e+00,1.086576938629150391e+00,1.086516618728637695e+00,1.086456179618835449e+00,1.086395740509033203e+00,1.086335420608520508e+00,1.086274981498718262e+00,1.086214661598205566e+00,1.086154222488403320e+00,1.086093783378601074e+00,1.086033463478088379e+00,1.085973143577575684e+00,1.085912823677062988e+00,1.085852503776550293e+00,1.085792064666748047e+00,1.085731744766235352e+00,1.085671424865722656e+00,1.085611104965209961e+00,1.085550785064697266e+00,1.085490465164184570e+00,1.085430264472961426e+00,1.085369944572448730e+00,1.085309743881225586e+00,1.085249423980712891e+00,1.085189104080200195e+00,1.085128903388977051e+00,1.085068583488464355e+00,1.085008382797241211e+00,1.084948062896728516e+00,1.084887862205505371e+00,1.084827661514282227e+00,1.084767460823059082e+00,1.084707140922546387e+00,1.084646940231323242e+00,1.084586739540100098e+00,1.084526538848876953e+00,1.084466338157653809e+00,1.084406256675720215e+00,1.084346055984497070e+00,1.084285855293273926e+00,1.084225654602050781e+00,1.084165573120117188e+00,1.084105372428894043e+00,1.084045290946960449e+00,1.083985090255737305e+00,1.083925008773803711e+00,1.083864808082580566e+00,1.083804726600646973e+00,1.083744645118713379e+00,1.083684444427490234e+00,1.083624482154846191e+00,1.083564281463623047e+00,1.083504319190979004e+00,1.083444118499755859e+00,1.083384037017822266e+00,1.083324074745178223e+00,1.083263993263244629e+00,1.083203911781311035e+00,1.083143830299377441e+00,1.083083868026733398e+00,1.083023786544799805e+00,1.082963824272155762e+00,1.082903861999511719e+00,1.082843780517578125e+00,1.082783699035644531e+00,1.082723736763000488e+00,1.082663774490356445e+00,1.082603812217712402e+00,1.082543849945068359e+00,1.082483768463134766e+00,1.082423925399780273e+00
1.021072268486022949e+00,1.021018981933593750e+00,1.020965576171875000e+00,1.020912170410156250e+00,1.020858883857727051e+00,1.020805597305297852e+00,1.020752310752868652e+00,1.020698904991149902e+00,1.020645618438720703e+00,1.020592331886291504e+00,1.020539045333862305e+00,1.020485758781433105e+00,1.020432353019714355e+00,1.020379066467285156e+00,1.020325899124145508e+00,1.020272612571716309e+00,1.020219326019287109e+00,1.020166039466857910e+00,1.020112752914428711e+00,1.020059585571289062e+00,1.020006299018859863e+00,1.019953012466430664e+00,1.019899845123291016e+00,1.019846558570861816e+00,1.019793391227722168e+00,1.019740104675292969e+00,1.019686937332153320e+00,1.019633650779724121e+00,1.019580483436584473e+00,1.019527316093444824e+00,1.019474148750305176e+00,1.019420981407165527e+00,1.019367694854736328e+00,1.019314527511596680e+00,1.019261360168457031e+00,1.019208192825317383e+00,1.019155144691467285e+00,1.019101977348327637e+00,1.019048810005187988e+00,1.018995642662048340e+00,1.018942475318908691e+00,1.018889427185058594e+00,1.018836259841918945e+00,1.018783092498779297e+00,1.018730044364929199e+00,1.018676877021789551e+00,1.018623828887939453e+00,1.018570661544799805e+00,1.018517613410949707e+00,1.018464565277099609e+00,1.018411397933959961e+00,1.018358349800109863e+00,1.018305301666259766e+00,1.018252253532409668e+00,1.018199205398559570e+00,1.018146157264709473e+00,1.018093109130859375e+00,1.018040060997009277e+00,1.017987012863159180e+00,1.017933964729309082e+00,1.017880916595458984e+00,1.017827987670898438e+00,1.017774939537048340e+00,1.017721891403198242e+00,1.017668962478637695e+00,1.017615914344787598e+00,1.017562985420227051e+00,1.017509937286376953e+00,1.017456889152526855e+00,1.017403960227966309e+00,1.017351031303405762e+00,1.017298102378845215e+00,1.017245054244995117e+00,1.017192125320434570e+00,1.017139196395874023e+00,1.017086267471313477e+00,1.017033338546752930e+00,1.016980409622192383e+00,1.016927361488342285e+00,1.016874551773071289e+00
9.625420570373535156e-01,9.624947309494018555e-01,9.624473452568054199e-01,9.623998403549194336e-01,9.623524546623229980e-01,9.623051285743713379e-01,9.622577428817749023e-01,9.622102975845336914e-01,9.621629714965820312e-01,9.621155858039855957e-01,9.620681405067443848e-01,9.620208144187927246e-01,9.619734883308410645e-01,9.619261622428894043e-01,9.618787765502929688e-01,9.618314504623413086e-01,9.617841243743896484e-01,9.617367386817932129e-01,9.616894125938415527e-01,9.616421461105346680e-01,9.615947008132934570e-01,9.615474343299865723e-01,9.615001678466796875e-01,9.614529013633728027e-01,9.614055156707763672e-01,9.613582491874694824e-01,9.613109827041625977e-01,9.612635970115661621e-01,9.612163305282592773e-01,9.611691236495971680e-01,9.611217379570007324e-01,9.610745310783386230e-01,9.610272645950317383e-01,9.609800577163696289e-01,9.609327316284179688e-01,9.608854651451110840e-01,9.608382582664489746e-01,9.607909321784973145e-01,9.607437252998352051e-01,9.606965780258178711e-01,9.606492519378662109e-01,9.606020450592041016e-01,9.605548381805419922e-01,9.605076909065246582e-01,9.604603648185729980e-01,9.604132175445556641e-01,9.603660702705383301e-01,9.603187441825866699e-01,9.602715969085693359e-01,9.602244496345520020e-01,9.601771831512451172e-01,9.601300358772277832e-01,9.600828886032104492e-01,9.600357413291931152e-01,9.599885344505310059e-01,9.599413871765136719e-01,9.598942995071411133e-01,9.598470330238342285e-01,9.597999453544616699e-01,9.597527980804443359e-01,9.597055912017822266e-01,9.596585035324096680e-01,9.596114158630371094e-01,9.595643281936645508e-01,9.595171213150024414e-01,9.594700336456298828e-01,9.594229459762573242e-01,9.593757987022399902e-01,9.593287110328674316e-01,9.592816233634948730e-01,9.592344760894775391e-01,9.591874480247497559e-01,9.591403603553771973e-01,9.590933322906494141e-01,9.590461850166320801e-01,9.589991569519042969e-01,9.589521288871765137e-01,9.589049816131591797e-01,9.588579535484313965e-01,9.588109254837036133e-01
9.103582501411437988e-01,9.103158712387084961e-01,9.102734923362731934e-01,9.102311134338378906e-01,9.101886749267578125e-01,9.101462960243225098e-01,9.101039171218872070e-01,9.100614786148071289e-01,9.100190997123718262e-01,9.099767804145812988e-01,9.099343419075012207e-01,9.098919630050659180e-01,9.098496437072753906e-01,9.098073244094848633e-01,9.097648859024047852e-01,9.097225666046142578e-01,9.096802473068237305e-01,9.096378087997436523e-01,9.095954895019531250e-01,9.095531702041625977e-01,9.095107913017272949e-01,9.094684720039367676e-01,9.094261527061462402e-01,9.093838930130004883e-01,9.093415141105651855e-01,9.092991948127746582e-01,9.092569351196289062e-01,9.092145562171936035e-01,9.091722965240478516e-01,9.091299772262573242e-01,9.090876579284667969e-01,9.090453982353210449e-01,9.090031385421752930e-01,9.089608788490295410e-01,9.089184999465942383e-01,9.088762402534484863e-01,9.088340401649475098e-01,9.087916612625122070e-01,9.087494611740112305e-01,9.087072014808654785e-01,9.086648821830749512e-01,9.086226820945739746e-01,9.085804224014282227e-01,9.085382223129272461e-01,9.084959030151367188e-01,9.084537029266357422e-01,9.084115028381347656e-01,9.083692431449890137e-01,9.083270430564880371e-01,9.082848429679870605e-01,9.082425236701965332e-01,9.082003831863403320e-01,9.081581830978393555e-01,9.081159830093383789e-01,9.080737233161926270e-01,9.080315828323364258e-01,9.079893827438354492e-01,9.079471230506896973e-01,9.079049825668334961e-01,9.078628420829772949e-01,9.078205823898315430e-01,9.077784419059753418e-01,9.077363014221191406e-01,9.076941609382629395e-01,9.076519012451171875e-01,9.076098203659057617e-01,9.075676798820495605e-01,9.075254797935485840e-01,9.074833393096923828e-01,9.074411988258361816e-01,9.073989987373352051e-01,9.073569178581237793e-01,9.073148369789123535e-01,9.072726964950561523e-01,9.072304964065551758e-01,9.071884155273437500e-01,9.071463346481323242e-01,9.071041345596313477e-01,9.070621132850646973e-01,9.070200324058532715e-01
8.635416626930236816e-01,8.635035753250122070e-01,8.634654283523559570e-01,8.634272813796997070e-01,8.633890748023986816e-01,8.633509874343872070e-01,8.633128404617309570e-01,8.632746338844299316e-01,8.632365465164184570e-01,8.631983995437622070e-01,8.631602525711059570e-01,8.631221055984497070e-01,8.630840182304382324e-01,8.630459308624267578e-01,8.630077838897705078e-01,8.629696965217590332e-01,8.629316091537475586e-01,8.628934025764465332e-01,8.628553152084350586e-01,8.628172874450683594e-01,8.627790808677673340e-01,8.627410531044006348e-01,8.627029657363891602e-01,8.626649379730224609e-01,8.626267910003662109e-01,8.625887036323547363e-01,8.625506758689880371e-01,8.625125288963317871e-01,8.624745011329650879e-01,8.624364733695983887e-01,8.623983263969421387e-01,8.623602986335754395e-01,8.623222708702087402e-01,8.622842431068420410e-01,8.622460961341857910e-01,8.622080683708190918e-01,8.621701002120971680e-01,8.621319532394409180e-01,8.620939850807189941e-01,8.620559573173522949e-01,8.620178699493408203e-01,8.619798421859741211e-01,8.619418740272521973e-01,8.619039058685302734e-01,8.618658185005187988e-01,8.618277907371520996e-01,8.617898225784301758e-01,8.617517948150634766e-01,8.617137670516967773e-01,8.616757988929748535e-01,8.616377711296081543e-01,8.615998029708862305e-01,8.615618348121643066e-01,8.615238666534423828e-01,8.614858388900756836e-01,8.614478707313537598e-01,8.614099025726318359e-01,8.613718748092651367e-01,8.613339662551879883e-01,8.612959980964660645e-01,8.612579703330993652e-01,8.612200617790222168e-01,8.611820936203002930e-01,8.611441850662231445e-01,8.611061573028564453e-01,8.610682487487792969e-01,8.610303401947021484e-01,8.609923720359802246e-01,8.609544634819030762e-01,8.609165549278259277e-01,8.608785271644592285e-01,8.608406186103820801e-01,8.608027696609497070e-01,8.607648611068725586e-01,8.607268929481506348e-01,8.606889843940734863e-01,8.606510758399963379e-01,8.606131076812744141e-01,8.605752587318420410e-01,8.605374097824096680e-01
8.213047981262207031e-01,8.212703466415405273e-01,8.212358355522155762e-01,8.212013244628906250e-01,8.211668133735656738e-01,8.211323022842407227e-01,8.210978507995605469e-01,8.210632801055908203e-01,8.210287690162658691e-01,8.209943175315856934e-01,8.209597468376159668e-01,8.209252953529357910e-01,8.208908438682556152e-01,8.208563923835754395e-01,8.208218216896057129e-01,8.207873702049255371e-01,8.207529187202453613e-01,8.207184076309204102e-01,8.206839561462402344e-01,8.206495046615600586e-01,8.206149935722351074e-01,8.205806016921997070e-01,8.205461502075195312e-01,8.205116987228393555e-01,8.204771876335144043e-01,8.204427957534790039e-01,8.204083442687988281e-01,8.203738331794738770e-01,8.203394412994384766e-01,8.203050494194030762e-01,8.202705979347229004e-01,8.202361464500427246e-01,8.202016949653625488e-01,8.201673030853271484e-01,8.201328516006469727e-01,8.200984597206115723e-01,8.200640678405761719e-01,8.200295567512512207e-01,8.199951648712158203e-01,8.199607729911804199e-01,8.199264407157897949e-01,8.198919296264648438e-01,8.198575973510742188e-01,8.198232054710388184e-01,8.197887539863586426e-01,8.197543621063232422e-01,8.197200298309326172e-01,8.196855783462524414e-01,8.196512460708618164e-01,8.196168541908264160e-01,8.195825219154357910e-01,8.195480704307556152e-01,8.195137381553649902e-01,8.194794058799743652e-01,8.194449543952941895e-01,8.194106221199035645e-01,8.193762898445129395e-01,8.193418979644775391e-01,8.193075656890869141e-01,8.192732334136962891e-01,8.192389011383056641e-01,8.192045092582702637e-01,8.191701769828796387e-01,8.191358447074890137e-01,8.191014528274536133e-01,8.190671801567077637e-01,8.190328478813171387e-01,8.189984560012817383e-01,8.189641833305358887e-01,8.189298510551452637e-01,8.188955783843994141e-01,8.188611865043640137e-01,8.188269138336181641e-01,8.187926411628723145e-01,8.187582492828369141e-01,8.187239766120910645e-01,8.186897039413452148e-01,8.186553120613098145e-01,8.186210393905639648e-01,8.185867667198181152e-01
7.830071449279785156e-01,7.829756736755371094e-01,7.829443216323852539e-01,7.829129695892333984e-01,7.828815579414367676e-01,7.828502058982849121e-01,7.828189134597778320e-01,7.827875018119812012e-01,7.827561497688293457e-01,7.827247977256774902e-01,7.826935052871704102e-01,7.826620936393737793e-01,7.826307415962219238e-01,7.825994491577148438e-01,7.825680375099182129e-01,7.825366854667663574e-01,7.825053930282592773e-01,7.824739813804626465e-01,7.824426889419555664e-01,7.824113965034484863e-01,7.823801040649414062e-01,7.823486924171447754e-01,7.823173999786376953e-01,7.822861075401306152e-01,7.822547554969787598e-01,7.822234630584716797e-01,7.821921706199645996e-01,7.821608185768127441e-01,7.821295261383056641e-01,7.820982336997985840e-01,7.820669412612915039e-01,7.820355892181396484e-01,7.820042967796325684e-01,7.819730639457702637e-01,7.819417119026184082e-01,7.819104194641113281e-01,7.818791866302490234e-01,7.818478345870971680e-01,7.818165421485900879e-01,7.817853093147277832e-01,7.817540764808654785e-01,7.817227244377136230e-01,7.816914916038513184e-01,7.816602587699890137e-01,7.816289067268371582e-01,7.815976738929748535e-01,7.815664410591125488e-01,7.815350890159606934e-01,7.815038561820983887e-01,7.814726233482360840e-01,7.814413905143737793e-01,7.814100980758666992e-01,7.813788652420043945e-01,7.813476920127868652e-01,7.813163995742797852e-01,7.812851667404174805e-01,7.812539339065551758e-01,7.812226414680480957e-01,7.811914682388305664e-01,7.811602354049682617e-01,7.811290025711059570e-01,7.810977697372436523e-01,7.810665369033813477e-01,7.810353636741638184e-01,7.810040712356567383e-01,7.809728980064392090e-01,7.809417247772216797e-01,7.809104323387145996e-01,7.808792591094970703e-01,7.808480858802795410e-01,7.808169126510620117e-01,7.807856202125549316e-01,7.807544469833374023e-01,7.807232737541198730e-01,7.806920409202575684e-01,7.806608676910400391e-01,7.806296944618225098e-01,7.805984616279602051e-01,7.805672883987426758e-01,7.805361747741699219e-01
7.481218576431274414e-01,7.480931878089904785e-01,7.480645775794982910e-01,7.480359077453613281e-01,7.480072379112243652e-01,7.479786276817321777e-01,7.479500174522399902e-01,7.479213476181030273e-01,7.478927373886108398e-01,7.478641271591186523e-01,7.478355169296264648e-01,7.478068470954895020e-01,7.477782964706420898e-01,7.477496862411499023e-01,7.477210164070129395e-01,7.476924061775207520e-01,7.476638555526733398e-01,7.476351857185363770e-01,7.476065754890441895e-01,7.475780248641967773e-01,7.475494146347045898e-01,7.475208044052124023e-01,7.474921941757202148e-01,7.474636435508728027e-01,7.474350333213806152e-01,7.474064230918884277e-01,7.473778724670410156e-01,7.473492622375488281e-01,7.473206520080566406e-01,7.472921013832092285e-01,7.472635507583618164e-01,7.472349405288696289e-01,7.472063899040222168e-01,7.471778392791748047e-01,7.471492290496826172e-01,7.471206784248352051e-01,7.470921277999877930e-01,7.470635175704956055e-01,7.470349669456481934e-01,7.470064163208007812e-01,7.469778656959533691e-01,7.469493150711059570e-01,7.469207644462585449e-01,7.468922138214111328e-01,7.468636631965637207e-01,7.468351125717163086e-01,7.468065619468688965e-01,7.467780113220214844e-01,7.467494606971740723e-01,7.467209696769714355e-01,7.466924190521240234e-01,7.466638684272766113e-01,7.466353774070739746e-01,7.466068267822265625e-01,7.465782761573791504e-01,7.465497851371765137e-01,7.465212941169738770e-01,7.464926838874816895e-01,7.464641928672790527e-01,7.464357018470764160e-01,7.464072108268737793e-01,7.463786602020263672e-01,7.463501691818237305e-01,7.463216781616210938e-01,7.462931275367736816e-01,7.462646365165710449e-01,7.462361454963684082e-01,7.462076544761657715e-01,7.461791634559631348e-01,7.461506724357604980e-01,7.461221814155578613e-01,7.460936903953552246e-01,7.460651993751525879e-01,7.460367679595947266e-01,7.460082173347473145e-01,7.459797263145446777e-01,7.459512948989868164e-01,7.459227442741394043e-01,7.458943128585815430e-01,7.458658814430236816e-01
7.162125110626220703e-01,7.161862254142761230e-01,7.161599993705749512e-01,7.161337137222290039e-01,7.161074280738830566e-01,7.160812616348266602e-01,7.160550355911254883e-01,7.160287499427795410e-01,7.160025238990783691e-01,7.159762978553771973e-01,7.159500718116760254e-01,7.159237861633300781e-01,7.158975601196289062e-01,7.158713936805725098e-01,7.158451080322265625e-01,7.158188819885253906e-01,7.157927155494689941e-01,7.157664299011230469e-01,7.157402634620666504e-01,7.157140374183654785e-01,7.156878709793090820e-01,7.156615853309631348e-01,7.156354188919067383e-01,7.156091928482055664e-01,7.155829668045043945e-01,7.155568003654479980e-01,7.155305743217468262e-01,7.155043482780456543e-01,7.154781818389892578e-01,7.154520153999328613e-01,7.154257893562316895e-01,7.153995633125305176e-01,7.153733968734741211e-01,7.153472304344177246e-01,7.153210043907165527e-01,7.152948379516601562e-01,7.152686715126037598e-01,7.152425050735473633e-01,7.152162790298461914e-01,7.151901125907897949e-01,7.151639461517333984e-01,7.151377797126770020e-01,7.151116132736206055e-01,7.150854468345642090e-01,7.150592207908630371e-01,7.150331139564514160e-01,7.150069475173950195e-01,7.149807810783386230e-01,7.149546146392822266e-01,7.149284482002258301e-01,7.149023413658142090e-01,7.148761153221130371e-01,7.148500084877014160e-01,7.148238420486450195e-01,7.147976756095886230e-01,7.147715687751770020e-01,7.147454023361206055e-01,7.147192955017089844e-01,7.146931290626525879e-01,7.146669626235961914e-01,7.146408557891845703e-01,7.146146893501281738e-01,7.145885825157165527e-01,7.145624756813049316e-01,7.145363092422485352e-01,7.145102024078369141e-01,7.144840955734252930e-01,7.144579887390136719e-01,7.144318222999572754e-01,7.144057154655456543e-01,7.143796086311340332e-01,7.143534421920776367e-01,7.143273353576660156e-01,7.143012285232543945e-01,7.142751216888427734e-01,7.142490148544311523e-01,7.142229080200195312e-01,7.141968607902526855e-01,7.141706943511962891e-01,7.141445875167846680e-01
6.869138479232788086e-01,6.868896484375000000e-01,6.868655085563659668e-01,6.868413686752319336e-01,6.868172287940979004e-01,6.867930889129638672e-01,6.867689490318298340e-01,6.867448687553405762e-01,6.867206692695617676e-01,6.866965293884277344e-01,6.866724491119384766e-01,6.866482496261596680e-01,6.866241693496704102e-01,6.866000294685363770e-01,6.865758895874023438e-01,6.865517497062683105e-01,6.865276694297790527e-01,6.865035891532897949e-01,6.864793896675109863e-01,6.864553093910217285e-01,6.864312291145324707e-01,6.864070296287536621e-01,6.863829493522644043e-01,6.863588690757751465e-01,6.863347291946411133e-01,6.863106489181518555e-01,6.862865686416625977e-01,6.862624883651733398e-01,6.862383484840393066e-01,6.862142086029052734e-01,6.861901283264160156e-01,6.861660480499267578e-01,6.861419677734375000e-01,6.861178874969482422e-01,6.860937476158142090e-01,6.860696673393249512e-01,6.860455870628356934e-01,6.860215067863464355e-01,6.859974265098571777e-01,6.859733462333679199e-01,6.859492659568786621e-01,6.859251260757446289e-01,6.859011054039001465e-01,6.858770251274108887e-01,6.858529448509216309e-01,6.858288645744323730e-01,6.858047842979431152e-01,6.857807636260986328e-01,6.857566237449645996e-01,6.857326030731201172e-01,6.857085824012756348e-01,6.856844425201416016e-01,6.856604218482971191e-01,6.856363415718078613e-01,6.856122612953186035e-01,6.855882406234741211e-01,6.855642199516296387e-01,6.855401396751403809e-01,6.855160593986511230e-01,6.854920387268066406e-01,6.854680180549621582e-01,6.854439377784729004e-01,6.854199171066284180e-01,6.853958964347839355e-01,6.853718161582946777e-01,6.853477954864501953e-01,6.853237748146057129e-01,6.852997541427612305e-01,6.852756738662719727e-01,6.852516531944274902e-01,6.852276325225830078e-01,6.852035522460937500e-01,6.851795315742492676e-01,6.851555705070495605e-01,6.851314902305603027e-01,6.851074695587158203e-01,6.850835084915161133e-01,6.850594878196716309e-01,6.850354075431823730e-01,6.850114464759826660e-01
6.599180102348327637e-01,6.598957180976867676e-01,6.598734259605407715e-01,6.598511934280395508e-01,6.598288416862487793e-01,6.598066091537475586e-01,6.597843170166015625e-01,6.597620844841003418e-01,6.597397327423095703e-01,6.597175002098083496e-01,6.596952676773071289e-01,6.596729159355163574e-01,6.596506834030151367e-01,6.596284508705139160e-01,6.596060991287231445e-01,6.595838665962219238e-01,6.595616340637207031e-01,6.595394015312194824e-01,6.595171093940734863e-01,6.594948172569274902e-01,6.594725847244262695e-01,6.594502925872802734e-01,6.594280600547790527e-01,6.594058275222778320e-01,6.593835353851318359e-01,6.593613028526306152e-01,6.593390703201293945e-01,6.593168377876281738e-01,6.592945456504821777e-01,6.592723131179809570e-01,6.592501401901245117e-01,6.592278480529785156e-01,6.592056155204772949e-01,6.591833829879760742e-01,6.591610908508300781e-01,6.591389179229736328e-01,6.591166853904724121e-01,6.590944528579711914e-01,6.590722203254699707e-01,6.590499877929687500e-01,6.590277552604675293e-01,6.590055227279663086e-01,6.589832901954650879e-01,6.589611172676086426e-01,6.589388251304626465e-01,6.589166522026062012e-01,6.588944196701049805e-01,6.588722467422485352e-01,6.588499546051025391e-01,6.588277816772460938e-01,6.588055491447448730e-01,6.587833166122436523e-01,6.587611436843872070e-01,6.587389111518859863e-01,6.587166786193847656e-01,6.586945056915283203e-01,6.586723327636718750e-01,6.586501598358154297e-01,6.586278676986694336e-01,6.586056947708129883e-01,6.585835218429565430e-01,6.585612893104553223e-01,6.585391163825988770e-01,6.585169434547424316e-01,6.584947109222412109e-01,6.584725379943847656e-01,6.584503650665283203e-01,6.584281921386718750e-01,6.584059596061706543e-01,6.583837866783142090e-01,6.583616137504577637e-01,6.583394408226013184e-01,6.583172678947448730e-01,6.582950949668884277e-01,6.582728624343872070e-01,6.582506895065307617e-01,6.582285761833190918e-01,6.582064032554626465e-01,6.581841707229614258e-01,6.581620573997497559e-01
6.349638700485229492e-01,6.349431872367858887e-01,6.349225640296936035e-01,6.349019408226013184e-01,6.348813176155090332e-01,6.348606944084167480e-01,6.348400712013244629e-01,6.348194479942321777e-01,6.347988247871398926e-01,6.347782015800476074e-01,6.347575783729553223e-01,6.347369551658630371e-01,6.347163319587707520e-01,6.346957683563232422e-01,6.346750855445861816e-01,6.346544623374938965e-01,6.346338987350463867e-01,6.346132755279541016e-01,6.345926523208618164e-01,6.345720887184143066e-01,6.345514655113220215e-01,6.345308423042297363e-01,6.345102190971374512e-01,6.344896554946899414e-01,6.344690322875976562e-01,6.344484090805053711e-01,6.344278454780578613e-01,6.344072818756103516e-01,6.343866586685180664e-01,6.343660354614257812e-01,6.343454718589782715e-01,6.343248486518859863e-01,6.343042850494384766e-01,6.342837214469909668e-01,6.342630982398986816e-01,6.342424750328063965e-01,6.342219114303588867e-01,6.342013478279113770e-01,6.341807246208190918e-01,6.341601610183715820e-01,6.341395974159240723e-01,6.341189742088317871e-01,6.340984106063842773e-01,6.340778470039367676e-01,6.340572834014892578e-01,6.340367197990417480e-01,6.340161561965942383e-01,6.339955925941467285e-01,6.339749693870544434e-01,6.339544057846069336e-01,6.339339017868041992e-01,6.339132785797119141e-01,6.338927149772644043e-01,6.338721513748168945e-01,6.338515877723693848e-01,6.338310241699218750e-01,6.338105201721191406e-01,6.337899565696716309e-01,6.337693929672241211e-01,6.337488293647766113e-01,6.337282657623291016e-01,6.337077021598815918e-01,6.336871385574340820e-01,6.336666345596313477e-01,6.336460709571838379e-01,6.336255073547363281e-01,6.336049437522888184e-01,6.335844397544860840e-01,6.335638761520385742e-01,6.335433125495910645e-01,6.335228085517883301e-01,6.335022449493408203e-01,6.334817409515380859e-01,6.334611773490905762e-01,6.334406733512878418e-01,6.334201097488403320e-01,6.333996057510375977e-01,6.333791017532348633e-01,6.333585381507873535e-01,6.333379745483398438e-01
6.118282079696655273e-01,6.118090152740478516e-01,6.117898821830749512e-01,6.117707490921020508e-01,6.117516160011291504e-01,6.117324233055114746e-01,6.117132902145385742e-01,6.116941571235656738e-01,6.116749644279479980e-01,6.116558313369750977e-01,6.116366982460021973e-01,6.116175055503845215e-01,6.115983724594116211e-01,6.115792393684387207e-01,6.115601062774658203e-01,6.115409731864929199e-01,6.115218400955200195e-01,6.115027070045471191e-01,6.114835143089294434e-01,6.114644408226013184e-01,6.114453077316284180e-01,6.114261150360107422e-01,6.114070415496826172e-01,6.113879084587097168e-01,6.113687753677368164e-01,6.113496422767639160e-01,6.113305091857910156e-01,6.113113760948181152e-01,6.112922430038452148e-01,6.112731099128723145e-01,6.112540364265441895e-01,6.112349033355712891e-01,6.112157702445983887e-01,6.111966371536254883e-01,6.111775636672973633e-01,6.111584305763244629e-01,6.111392974853515625e-01,6.111202239990234375e-01,6.111010909080505371e-01,6.110819578170776367e-01,6.110628843307495117e-01,6.110437512397766113e-01,6.110246181488037109e-01,6.110055446624755859e-01,6.109864711761474609e-01,6.109673380851745605e-01,6.109482049942016602e-01,6.109291315078735352e-01,6.109099984169006348e-01,6.108909249305725098e-01,6.108718514442443848e-01,6.108527183532714844e-01,6.108336448669433594e-01,6.108145713806152344e-01,6.107954382896423340e-01,6.107763648033142090e-01,6.107572913169860840e-01,6.107382178306579590e-01,6.107190847396850586e-01,6.107000112533569336e-01,6.106809377670288086e-01,6.106618046760559082e-01,6.106427311897277832e-01,6.106236577033996582e-01,6.106045842170715332e-01,6.105855107307434082e-01,6.105664372444152832e-01,6.105473637580871582e-01,6.105282306671142578e-01,6.105092167854309082e-01,6.104901432991027832e-01,6.104710102081298828e-01,6.104519367218017578e-01,6.104329228401184082e-01,6.104138493537902832e-01,6.103947758674621582e-01,6.103757023811340332e-01,6.103566288948059082e-01,6.103375554084777832e-01,6.103184819221496582e-01
