5.000000000000000000e+00,5.000000000000000000e+00,5.000000000000000000e+00,5.000000000000000000e+00,5.000000000000000000e+00,5.000000000000000000e+00,5.000000000000000000e+00,5.000000000000000000e+00,5.000000000000000000e+00,5.000000000000000000e+00,5.000000000000000000e+00,5.000000000000000000e+00,5.000000000000000000e+00,5.000000000000000000e+00,5.000000000000000000e+00,5.000000000000000000e+00,5.000000000000000000e+00,5.000000000000000000e+00,5.000000000000000000e+00,5.000000000000000000e+00,5.000000000000000000e+00,5.000000000000000000e+00,5.000000000000000000e+00,5.000000000000000000e+00,5.000000000000000000e+00,5.000000000000000000e+00,5.000000000000000000e+00,5.000000000000000000e+00,5.000000000000000000e+00,5.000000000000000000e+00,5.000000000000000000e+00,5.000000000000000000e+00,5.000000000000000000e+00,5.000000000000000000e+00,5.000000000000000000e+00,5.000000000000000000e+00,5.000000000000000000e+00,5.000000000000000000e+00,5.000000000000000000e+00,5.000000000000000000e+00,4.872979640960693359e+00,4.679776191711425781e+00,4.501308441162109375e+00,4.335952758789062500e+00,4.182315349578857422e+00,4.039192676544189453e+00,3.905542373657226562e+00,3.780452728271484375e+00,3.663127183914184570e+00,3.552865266799926758e+00,3.449046850204467773e+00,3.351123809814453125e+00,3.258607625961303711e+00,3.171061992645263672e+00,3.088097810745239258e+00,3.009363889694213867e+00,2.934545278549194336e+00,2.863356351852416992e+00,2.795539379119873047e+00,2.730860948562622070e+00,2.669107437133789062e+00,2.610085248947143555e+00,2.553616523742675781e+00,2.499539613723754883e+00,2.447705745697021484e+00,2.397977590560913086e+00,2.350230216979980469e+00,2.304346799850463867e+00,2.260221004486083984e+00,2.217753171920776367e+00,2.176851749420166016e+00,2.137431859970092773e+00,2.099414110183715820e+00,2.062725067138671875e+00,2.027296543121337891e+00,1.993064165115356445e+00,1.959969043731689453e+00,1.927954912185668945e+00,1.896969795227050781e+00,1.866964817047119141e+00
5.000000000000000000e+00,5.000000000000000000e+00,5.000000000000000000e+00,5.000000000000000000e+00,5.000000000000000000e+00,5.000000000000000000e+00,5.000000000000000000e+00,5.000000000000000000e+00,5.000000000000000000e+00,5.000000000000000000e+00,5.000000000000000000e+00,5.000000000000000000e+00,5.000000000000000000e+00,5.000000000000000000e+00,5.000000000000000000e+00,5.000000000000000000e+00,5.000000000000000000e+00,5.000000000000000000e+00,5.000000000000000000e+00,5.000000000000000000e+00,5.000000000000000000e+00,5.000000000000000000e+00,5.000000000000000000e+00,5.000000000000000000e+00,5.000000000000000000e+00,5.000000000000000000e+00,5.000000000000000000e+00,5.000000000000000000e+00,5.000000000000000000e+00,5.000000000000000000e+00,5.000000000000000000e+00,5.000000000000000000e+00,5.000000000000000000e+00,5.000000000000000000e+00,5.000000000000000000e+00,5.000000000000000000e+00,5.000000000000000000e+00,5.000000000000000000e+00,5.000000000000000000e+00,5.000000000000000000e+00,4.873122215270996094e+00,4.679907798767089844e+00,4.501430034637451172e+00,4.336065769195556641e+00,4.182420253753662109e+00,4.039290904998779297e+00,3.905633687973022461e+00,3.780538797378540039e+00,3.663208007812500000e+00,3.552941322326660156e+00,3.449118375778198242e+00,3.351191282272338867e+00,3.258671522140502930e+00,3.171122550964355469e+00,3.088155269622802734e+00,3.009418487548828125e+00,2.934596776962280273e+00,2.863405704498291016e+00,2.795586347579956055e+00,2.730905771255493164e+00,2.669150352478027344e+00,2.610126018524169922e+00,2.553655862808227539e+00,2.499577283859252930e+00,2.447741746902465820e+00,2.398012399673461914e+00,2.350263357162475586e+00,2.304378986358642578e+00,2.260251760482788086e+00,2.217782735824584961e+00,2.176880359649658203e+00,2.137459278106689453e+00,2.099440574645996094e+00,2.062750577926635742e+00,2.027321100234985352e+00,1.993088126182556152e+00,1.959992170333862305e+00,1.927977323532104492e+00,1.896991372108459473e+00,1.866985797882080078e+00
5.000000000000000000e+00,5.000000000000000000e+00,5.000000000000000000e+00,5.000000000000000000e+00,5.000000000000000000e+00,5.000000000000000000e+00,5.000000000000000000e+00,5.000000000000000000e+00,5.000000000000000000e+00,5.000000000000000000e+00,5.000000000000000000e+00,5.000000000000000000e+00,5.000000000000000000e+00,5.000000000000000000e+00,5.000000000000000000e+00,5.000000000000000000e+00,5.000000000000000000e+00,5.000000000000000000e+00,5.000000000000000000e+00,5.000000000000000000e+00,5.000000000000000000e+00,5.000000000000000000e+00,5.000000000000000000e+00,5.000000000000000000e+00,5.000000000000000000e+00,5.000000000000000000e+00,5.000000000000000000e+00,5.000000000000000000e+00,5.000000000000000000e+00,5.000000000000000000e+00,5.000000000000000000e+00,5.000000000000000000e+00,5.000000000000000000e+00,5.000000000000000000e+00,5.000000000000000000e+00,5.000000000000000000e+00,5.000000000000000000e+00,5.000000000000000000e+00,5.000000000000000000e+00,5.000000000000000000e+00,4.873265266418457031e+00,4.680039405822753906e+00,4.501552104949951172e+00,4.336178779602050781e+00,4.182525634765625000e+00,4.039389133453369141e+00,3.905725479125976562e+00,3.780624628067016602e+00,3.663288831710815430e+00,3.553016901016235352e+00,3.449190139770507812e+00,3.351258754730224609e+00,3.258735418319702148e+00,3.171183109283447266e+00,3.088212490081787109e+00,3.009473085403442383e+00,2.934648752212524414e+00,2.863455057144165039e+00,2.795633554458618164e+00,2.730950355529785156e+00,2.669193029403686523e+00,2.610167026519775391e+00,2.553695201873779297e+00,2.499614715576171875e+00,2.447777748107910156e+00,2.398046970367431641e+00,2.350296497344970703e+00,2.304410934448242188e+00,2.260282516479492188e+00,2.217812299728393555e+00,2.176908731460571289e+00,2.137486696243286133e+00,2.099467039108276367e+00,2.062776327133178711e+00,2.027345895767211914e+00,1.993111968040466309e+00,1.960015177726745605e+00,1.927999615669250488e+00,1.897013068199157715e+00,1.867006778717041016e+00
5.000000000000000000e+00,5.000000000000000000e+00,5.000000000000000000e+00,5.000000000000000000e+00,5.000000000000000000e+00,5.000000000000000000e+00,5.000000000000000000e+00,5.000000000000000000e+00,5.000000000000000000e+00,5.000000000000000000e+00,5.000000000000000000e+00,5.000000000000000000e+00,5.000000000000000000e+00,5.000000000000000000e+00,5.000000000000000000e+00,5.000000000000000000e+00,5.000000000000000000e+00,5.000000000000000000e+00,5.000000000000000000e+00,5.000000000000000000e+00,5.000000000000000000e+00,5.000000000000000000e+00,5.000000000000000000e+00,5.000000000000000000e+00,5.000000000000000000e+00,5.000000000000000000e+00,5.000000000000000000e+00,5.000000000000000000e+00,5.000000000000000000e+00,5.000000000000000000e+00,5.000000000000000000e+00,5.000000000000000000e+00,5.000000000000000000e+00,5.000000000000000000e+00,5.000000000000000000e+00,5.000000000000000000e+00,5.000000000000000000e+00,5.000000000000000000e+00,5.000000000000000000e+00,5.000000000000000000e+00,4.873407840728759766e+00,4.680171012878417969e+00,4.501673698425292969e+00,4.336291790008544922e+00,4.182631015777587891e+00,4.039487361907958984e+00,3.905817508697509766e+00,3.780710458755493164e+00,3.663369655609130859e+00,3.553092956542968750e+00,3.449261665344238281e+00,3.351326465606689453e+00,3.258799076080322266e+00,3.171243667602539062e+00,3.088269948959350586e+00,3.009527444839477539e+00,2.934700489044189453e+00,2.863504171371459961e+00,2.795680522918701172e+00,2.730995416641235352e+00,2.669235944747924805e+00,2.610208034515380859e+00,2.553734064102172852e+00,2.499652385711669922e+00,2.447813749313354492e+00,2.398081541061401367e+00,2.350329875946044922e+00,2.304442644119262695e+00,2.260313272476196289e+00,2.217841863632202148e+00,2.176937341690063477e+00,2.137514114379882812e+00,2.099493503570556641e+00,2.062801837921142578e+00,2.027370452880859375e+00,1.993135929107666016e+00,1.960038304328918457e+00,1.928022027015686035e+00,1.897034764289855957e+00,1.867027759552001953e+00
5.000000000000000000e+00,5.000000000000000000e+00,5.000000000000000000e+00,5.000000000000000000e+00,5.000000000000000000e+00,5.000000000000000000e+00,5.000000000000000000e+00,5.000000000000000000e+00,5.000000000000000000e+00,5.000000000000000000e+00,5.000000000000000000e+00,5.000000000000000000e+00,5.000000000000000000e+00,5.000000000000000000e+00,5.000000000000000000e+00,5.000000000000000000e+00,5.000000000000000000e+00,5.000000000000000000e+00,5.000000000000000000e+00,5.000000000000000000e+00,5.000000000000000000e+00,5.000000000000000000e+00,5.000000000000000000e+00,5.000000000000000000e+00,5.000000000000000000e+00,5.000000000000000000e+00,5.000000000000000000e+00,5.000000000000000000e+00,5.000000000000000000e+00,5.000000000000000000e+00,5.000000000000000000e+00,5.000000000000000000e+00,5.000000000000000000e+00,5.000000000000000000e+00,5.000000000000000000e+00,5.000000000000000000e+00,5.000000000000000000e+00,5.000000000000000000e+00,5.000000000000000000e+00,5.000000000000000000e+00,4.873550891876220703e+00,4.680302619934082031e+00,4.501795768737792969e+00,4.336404800415039062e+00,4.182735919952392578e+00,4.039585113525390625e+00,3.905909299850463867e+00,3.780796289443969727e+00,3.663450241088867188e+00,3.553169012069702148e+00,3.449332952499389648e+00,3.351393938064575195e+00,3.258862972259521484e+00,3.171304225921630859e+00,3.088327169418334961e+00,3.009581804275512695e+00,2.934752464294433594e+00,2.863553524017333984e+00,2.795727491378784180e+00,2.731040239334106445e+00,2.669278621673583984e+00,2.610249042510986328e+00,2.553773403167724609e+00,2.499690055847167969e+00,2.447849750518798828e+00,2.398115873336791992e+00,2.350363016128540039e+00,2.304474592208862305e+00,2.260344028472900391e+00,2.217871427536010742e+00,2.176965713500976562e+00,2.137541770935058594e+00,2.099519968032836914e+00,2.062827348709106445e+00,2.027395248413085938e+00,1.993159890174865723e+00,1.960061430931091309e+00,1.928044199943542480e+00,1.897056460380554199e+00,1.867048740386962891e+00
5.000000000000000000e+00,5.000000000000000000e+00,5.000000000000000000e+00,5.000000000000000000e+00,5.000000000000000000e+00,5.000000000000000000e+00,5.000000000000000000e+00,5.000000000000000000e+00,5.000000000000000000e+00,5.000000000000000000e+00,5.000000000000000000e+00,5.000000000000000000e+00,5.000000000000000000e+00,5.000000000000000000e+00,5.000000000000000000e+00,5.000000000000000000e+00,5.000000000000000000e+00,5.000000000000000000e+00,5.000000000000000000e+00,5.000000000000000000e+00,5.000000000000000000e+00,5.000000000000000000e+00,5.000000000000000000e+00,5.000000000000000000e+00,5.000000000000000000e+00,5.000000000000000000e+00,5.000000000000000000e+00,5.000000000000000000e+00,5.000000000000000000e+00,5.000000000000000000e+00,5.000000000000000000e+00,5.000000000000000000e+00,5.000000000000000000e+00,5.000000000000000000e+00,5.000000000000000000e+00,5.000000000000000000e+00,5.000000000000000000e+00,5.000000000000000000e+00,5.000000000000000000e+00,5.000000000000000000e+00,4.873693943023681641e+00,4.680434226989746094e+00,4.501917362213134766e+00,4.336517810821533203e+00,4.182841300964355469e+00,4.039683341979980469e+00,3.906000614166259766e+00,3.780882358551025391e+00,3.663530826568603516e+00,3.553244829177856445e+00,3.449404716491699219e+00,3.351461648941040039e+00,3.258926868438720703e+00,3.171364545822143555e+00,3.088384628295898438e+00,3.009636402130126953e+00,2.934804201126098633e+00,2.863602876663208008e+00,2.795774459838867188e+00,2.731085062026977539e+00,2.669321537017822266e+00,2.610290050506591797e+00,2.553812742233276367e+00,2.499727487564086914e+00,2.447885990142822266e+00,2.398150682449340820e+00,2.350396394729614258e+00,2.304506540298461914e+00,2.260374546051025391e+00,2.217900991439819336e+00,2.176994323730468750e+00,2.137569189071655273e+00,2.099546432495117188e+00,2.062852859497070312e+00,2.027420043945312500e+00,1.993183732032775879e+00,1.960084557533264160e+00,1.928066611289978027e+00,1.897077918052673340e+00,1.867069721221923828e+00
5.000000000000000000e+00,5.000000000000000000e+00,5.000000000000000000e+00,5.000000000000000000e+00,5.000000000000000000e+00,5.000000000000000000e+00,5.000000000000000000e+00,5.000000000000000000e+00,5.000000000000000000e+00,5.000000000000000000e+00,5.000000000000000000e+00,5.000000000000000000e+00,5.000000000000000000e+00,5.000000000000000000e+00,5.000000000000000000e+00,5.000000000000000000e+00,5.000000000000000000e+00,5.000000000000000000e+00,5.000000000000000000e+00,5.000000000000000000e+00,5.000000000000000000e+00,5.000000000000000000e+00,5.000000000000000000e+00,5.000000000000000000e+00,5.000000000000000000e+00,5.000000000000000000e+00,5.000000000000000000e+00,5.000000000000000000e+00,5.000000000000000000e+00,5.000000000000000000e+00,5.000000000000000000e+00,5.000000000000000000e+00,5.000000000000000000e+00,5.000000000000000000e+00,5.000000000000000000e+00,5.000000000000000000e+00,5.000000000000000000e+00,5.000000000000000000e+00,5.000000000000000000e+00,5.000000000000000000e+00,4.873836517333984375e+00,4.680566310882568359e+00,4.502039432525634766e+00,4.336631298065185547e+00,4.182946205139160156e+00,4.039781570434570312e+00,3.906092405319213867e+00,3.780968427658081055e+00,3.663611650466918945e+00,3.553320884704589844e+00,3.449476242065429688e+00,3.351528882980346680e+00,3.258990764617919922e+00,3.171425104141235352e+00,3.088442087173461914e+00,3.009690761566162109e+00,2.934855937957763672e+00,2.863652229309082031e+00,2.795821428298950195e+00,2.731130123138427734e+00,2.669364452362060547e+00,2.610330820083618164e+00,2.553851842880249023e+00,2.499765157699584961e+00,2.447921991348266602e+00,2.398185253143310547e+00,2.350429534912109375e+00,2.304538488388061523e+00,2.260405302047729492e+00,2.217930793762207031e+00,2.177022695541381836e+00,2.137596607208251953e+00,2.099573135375976562e+00,2.062878608703613281e+00,2.027444839477539062e+00,1.993207693099975586e+00,1.960107684135437012e+00,1.928088903427124023e+00,1.897099494934082031e+00,1.867090702056884766e+00
5.000000000000000000e+00,5.000000000000000000e+00,5.000000000000000000e+00,5.000000000000000000e+00,5.000000000000000000e+00,5.000000000000000000e+00,5.000000000000000000e+00,5.000000000000000000e+00,5.000000000000000000e+00,5.000000000000000000e+00,5.000000000000000000e+00,5.000000000000000000e+00,5.000000000000000000e+00,5.000000000000000000e+00,5.000000000000000000e+00,5.000000000000000000e+00,5.000000000000000000e+00,5.000000000000000000e+00,5.000000000000000000e+00,5.000000000000000000e+00,5.000000000000000000e+00,5.000000000000000000e+00,5.000000000000000000e+00,5.000000000000000000e+00,5.000000000000000000e+00,5.000000000000000000e+00,5.000000000000000000e+00,5.000000000000000000e+00,5.000000000000000000e+00,5.000000000000000000e+00,5.000000000000000000e+00,5.000000000000000000e+00,5.000000000000000000e+00,5.000000000000000000e+00,5.000000000000000000e+00,5.000000000000000000e+00,5.000000000000000000e+00,5.000000000000000000e+00,5.000000000000000000e+00,5.000000000000000000e+00,4.873979568481445312e+00,4.680698394775390625e+00,4.502161502838134766e+00,4.336744308471679688e+00,4.183051586151123047e+00,4.039879798889160156e+00,3.906184434890747070e+00,3.781054258346557617e+00,3.663692235946655273e+00,3.553396463394165039e+00,3.449548006057739258e+00,3.351596593856811523e+00,3.259054660797119141e+00,3.171485662460327148e+00,3.088499307632446289e+00,3.009745359420776367e+00,2.934907674789428711e+00,2.863701581954956055e+00,2.795868635177612305e+00,2.731174707412719727e+00,2.669407367706298828e+00,2.610371828079223633e+00,2.553891181945800781e+00,2.499802589416503906e+00,2.447957992553710938e+00,2.398219823837280273e+00,2.350462675094604492e+00,2.304570436477661133e+00,2.260436058044433594e+00,2.217960119247436523e+00,2.177051305770874023e+00,2.137624025344848633e+00,2.099599599838256836e+00,2.062904119491577148e+00,2.027469396591186523e+00,1.993231654167175293e+00,1.960130810737609863e+00,1.928111314773559570e+00,1.897121191024780273e+00,1.867111444473266602e+00
5.000000000000000000e+00,5.000000000000000000e+00,5.000000000000000000e+00,5.000000000000000000e+00,5.000000000000000000e+00,5.000000000000000000e+00,5.000000000000000000e+00,5.000000000000000000e+00,5.000000000000000000e+00,5.000000000000000000e+00,5.000000000000000000e+00,5.000000000000000000e+00,5.000000000000000000e+00,5.000000000000000000e+00,5.000000000000000000e+00,5.000000000000000000e+00,5.000000000000000000e+00,5.000000000000000000e+00,5.000000000000000000e+00,5.000000000000000000e+00,5.000000000000000000e+00,5.000000000000000000e+00,5.000000000000000000e+00,5.000000000000000000e+00,5.000000000000000000e+00,5.000000000000000000e+00,5.000000000000000000e+00,5.000000000000000000e+00,5.000000000000000000e+00,5.000000000000000000e+00,5.000000000000000000e+00,5.000000000000000000e+00,5.000000000000000000e+00,5.000000000000000000e+00,5.000000000000000000e+00,5.000000000000000000e+00,5.000000000000000000e+00,5.000000000000000000e+00,5.000000000000000000e+00,5.000000000000000000e+00,4.874122142791748047e+00,4.680829524993896484e+00,4.502283573150634766e+00,4.336857318878173828e+00,4.183156967163085938e+00,4.039978027343750000e+00,3.906276226043701172e+00,3.781140327453613281e+00,3.663773059844970703e+00,3.553472518920898438e+00,3.449619293212890625e+00,3.351664066314697266e+00,3.259118318557739258e+00,3.171546220779418945e+00,3.088556766510009766e+00,3.009799957275390625e+00,2.934959650039672852e+00,2.863750696182250977e+00,2.795915603637695312e+00,2.731219768524169922e+00,2.669450283050537109e+00,2.610412836074829102e+00,2.553930282592773438e+00,2.499840259552001953e+00,2.447993993759155273e+00,2.398254394531250000e+00,2.350496053695678711e+00,2.304602384567260742e+00,2.260466814041137695e+00,2.217989683151245117e+00,2.177079916000366211e+00,2.137651681900024414e+00,2.099626064300537109e+00,2.062929868698120117e+00,2.027494192123413086e+00,1.993255496025085449e+00,1.960153937339782715e+00,1.928133726119995117e+00,1.897142887115478516e+00,1.867132544517517090e+00
5.000000000000000000e+00,5.000000000000000000e+00,5.000000000000000000e+00,5.000000000000000000e+00,5.000000000000000000e+00,5.000000000000000000e+00,5.000000000000000000e+00,5.000000000000000000e+00,5.000000000000000000e+00,5.000000000000000000e+00,5.000000000000000000e+00,5.000000000000000000e+00,5.000000000000000000e+00,5.000000000000000000e+00,5.000000000000000000e+00,5.000000000000000000e+00,5.000000000000000000e+00,5.000000000000000000e+00,5.000000000000000000e+00,5.000000000000000000e+00,5.000000000000000000e+00,5.000000000000000000e+00,5.000000000000000000e+00,5.000000000000000000e+00,5.000000000000000000e+00,5.000000000000000000e+00,5.000000000000000000e+00,5.000000000000000000e+00,5.000000000000000000e+00,5.000000000000000000e+00,5.000000000000000000e+00,5.000000000000000000e+00,5.000000000000000000e+00,5.000000000000000000e+00,5.000000000000000000e+00,5.000000000000000000e+00,5.000000000000000000e+00,5.000000000000000000e+00,5.000000000000000000e+00,5.000000000000000000e+00,4.874265193939208984e+00,4.680961608886718750e+00,4.502405166625976562e+00,4.336970329284667969e+00,4.183261871337890625e+00,4.040076255798339844e+00,3.906368017196655273e+00,3.781226396560668945e+00,3.663853645324707031e+00,3.553548574447631836e+00,3.449690818786621094e+00,3.351731777191162109e+00,3.259182214736938477e+00,3.171606302261352539e+00,3.088613986968994141e+00,3.009854078292846680e+00,2.935011386871337891e+00,2.863800048828125000e+00,2.795962572097778320e+00,2.731264591217041016e+00,2.669492959976196289e+00,2.610453844070434570e+00,2.553969621658325195e+00,2.499877929687500000e+00,2.448029994964599609e+00,2.398288965225219727e+00,2.350529193878173828e+00,2.304634332656860352e+00,2.260497570037841797e+00,2.218019485473632812e+00,2.177108287811279297e+00,2.137679100036621094e+00,2.099652528762817383e+00,2.062955379486083984e+00,2.027518987655639648e+00,1.993279218673706055e+00,1.960177063941955566e+00,1.928156137466430664e+00,1.897164583206176758e+00,1.867153525352478027e+00
5.000000000000000000e+00,5.000000000000000000e+00,5.000000000000000000e+00,5.000000000000000000e+00,5.000000000000000000e+00,5.000000000000000000e+00,5.000000000000000000e+00,5.000000000000000000e+00,5.000000000000000000e+00,5.000000000000000000e+00,5.000000000000000000e+00,5.000000000000000000e+00,5.000000000000000000e+00,5.000000000000000000e+00,5.000000000000000000e+00,5.000000000000000000e+00,5.000000000000000000e+00,5.000000000000000000e+00,5.000000000000000000e+00,5.000000000000000000e+00,5.000000000000000000e+00,5.000000000000000000e+00,5.000000000000000000e+00,5.000000000000000000e+00,5.000000000000000000e+00,5.000000000000000000e+00,5.000000000000000000e+00,5.000000000000000000e+00,5.000000000000000000e+00,5.000000000000000000e+00,5.000000000000000000e+00,5.000000000000000000e+00,5.000000000000000000e+00,5.000000000000000000e+00,5.000000000000000000e+00,5.000000000000000000e+00,5.000000000000000000e+00,5.000000000000000000e+00,5.000000000000000000e+00,5.000000000000000000e+00,4.874407768249511719e+00,4.681093215942382812e+00,4.502527236938476562e+00,4.337083816528320312e+00,4.183367252349853516e+00,4.040174484252929688e+00,3.906459569931030273e+00,3.781312465667724609e+00,3.663934469223022461e+00,3.553624629974365234e+00,3.449762582778930664e+00,3.351799011230468750e+00,3.259246349334716797e+00,3.171666860580444336e+00,3.088671445846557617e+00,3.009908676147460938e+00,2.935062885284423828e+00,2.863849401473999023e+00,2.796009540557861328e+00,2.731309413909912109e+00,2.669535875320434570e+00,2.610494852066040039e+00,2.554008722305297852e+00,2.499915361404418945e+00,2.448065996170043945e+00,2.398323535919189453e+00,2.350562572479248047e+00,2.304666280746459961e+00,2.260528326034545898e+00,2.218049049377441406e+00,2.177136659622192383e+00,2.137706518173217773e+00,2.099678993225097656e+00,2.062980890274047852e+00,2.027543544769287109e+00,1.993303179740905762e+00,1.960200190544128418e+00,1.928178429603576660e+00,1.897186160087585449e+00,1.867174506187438965e+00
5.000000000000000000e+00,5.000000000000000000e+00,5.000000000000000000e+00,5.000000000000000000e+00,5.000000000000000000e+00,5.000000000000000000e+00,5.000000000000000000e+00,5.000000000000000000e+00,5.000000000000000000e+00,5.000000000000000000e+00,5.000000000000000000e+00,5.000000000000000000e+00,5.000000000000000000e+00,5.000000000000000000e+00,5.000000000000000000e+00,5.000000000000000000e+00,5.000000000000000000e+00,5.000000000000000000e+00,5.000000000000000000e+00,5.000000000000000000e+00,5.000000000000000000e+00,5.000000000000000000e+00,5.000000000000000000e+00,5.000000000000000000e+00,5.000000000000000000e+00,5.000000000000000000e+00,5.000000000000000000e+00,5.000000000000000000e+00,5.000000000000000000e+00,5.000000000000000000e+00,5.000000000000000000e+00,5.000000000000000000e+00,5.000000000000000000e+00,5.000000000000000000e+00,5.000000000000000000e+00,5.000000000000000000e+00,5.000000000000000000e+00,5.000000000000000000e+00,5.000000000000000000e+00,5.000000000000000000e+00,4.874550819396972656e+00,4.681225299835205078e+00,4.502649307250976562e+00,4.337196350097656250e+00,4.183472633361816406e+00,4.040272235870361328e+00,3.906551361083984375e+00,3.781398534774780273e+00,3.664015293121337891e+00,3.553700208663940430e+00,3.449834108352661133e+00,3.351866722106933594e+00,3.259310245513916016e+00,3.171727418899536133e+00,3.088728666305541992e+00,3.009963274002075195e+00,2.935114860534667969e+00,2.863898754119873047e+00,2.796056509017944336e+00,2.731354236602783203e+00,2.669578790664672852e+00,2.610535860061645508e+00,2.554048061370849609e+00,2.499953031539916992e+00,2.448102235794067383e+00,2.398358106613159180e+00,2.350595474243164062e+00,2.304698228836059570e+00,2.260559082031250000e+00,2.218078613281250000e+00,2.177165269851684570e+00,2.137733936309814453e+00,2.099705696105957031e+00,2.063006639480590820e+00,2.027568340301513672e+00,1.993327021598815918e+00,1.960223078727722168e+00,1.928200840950012207e+00,1.897207856178283691e+00,1.867195487022399902e+00
5.000000000000000000e+00,5.000000000000000000e+00,5.000000000000000000e+00,5.000000000000000000e+00,5.000000000000000000e+00,5.000000000000000000e+00,5.000000000000000000e+00,5.000000000000000000e+00,5.000000000000000000e+00,5.000000000000000000e+00,5.000000000000000000e+00,5.000000000000000000e+00,5.000000000000000000e+00,5.000000000000000000e+00,5.000000000000000000e+00,5.000000000000000000e+00,5.000000000000000000e+00,5.000000000000000000e+00,5.000000000000000000e+00,5.000000000000000000e+00,5.000000000000000000e+00,5.000000000000000000e+00,5.000000000000000000e+00,5.000000000000000000e+00,5.000000000000000000e+00,5.000000000000000000e+00,5.000000000000000000e+00,5.000000000000000000e+00,5.000000000000000000e+00,5.000000000000000000e+00,5.000000000000000000e+00,5.000000000000000000e+00,5.000000000000000000e+00,5.000000000000000000e+00,5.000000000000000000e+00,5.000000000000000000e+00,5.000000000000000000e+00,5.000000000000000000e+00,5.000000000000000000e+00,5.000000000000000000e+00,4.874693870544433594e+00,4.681356906890869141e+00,4.502770900726318359e+00,4.337309837341308594e+00,4.183578014373779297e+00,4.040370464324951172e+00,3.906643152236938477e+00,3.781484127044677734e+00,3.664095878601074219e+00,3.553776264190673828e+00,3.449905633926391602e+00,3.351934432983398438e+00,3.259373903274536133e+00,3.171788215637207031e+00,3.088786125183105469e+00,3.010017871856689453e+00,2.935166835784912109e+00,2.863947868347167969e+00,2.796103477478027344e+00,2.731399059295654297e+00,2.669621706008911133e+00,2.610576868057250977e+00,2.554087400436401367e+00,2.499990701675415039e+00,2.448137998580932617e+00,2.398392915725708008e+00,2.350628852844238281e+00,2.304730176925659180e+00,2.260589838027954102e+00,2.218108177185058594e+00,2.177193880081176758e+00,2.137761592864990234e+00,2.099732160568237305e+00,2.063032150268554688e+00,2.027593135833740234e+00,1.993350982666015625e+00,1.960246205329895020e+00,1.928223252296447754e+00,1.897229552268981934e+00,1.867216467857360840e+00
5.000000000000000000e+00,5.000000000000000000e+00,5.000000000000000000e+00,5.000000000000000000e+00,5.000000000000000000e+00,5.000000000000000000e+00,5.000000000000000000e+00,5.000000000000000000e+00,5.000000000000000000e+00,5.000000000000000000e+00,5.000000000000000000e+00,5.000000000000000000e+00,5.000000000000000000e+00,5.000000000000000000e+00,5.000000000000000000e+00,5.000000000000000000e+00,5.000000000000000000e+00,5.000000000000000000e+00,5.000000000000000000e+00,5.000000000000000000e+00,5.000000000000000000e+00,5.000000000000000000e+00,5.000000000000000000e+00,5.000000000000000000e+00,5.000000000000000000e+00,5.000000000000000000e+00,5.000000000000000000e+00,5.000000000000000000e+00,5.000000000000000000e+00,5.000000000000000000e+00,5.000000000000000000e+00,5.000000000000000000e+00,5.000000000000000000e+00,5.000000000000000000e+00,5.000000000000000000e+00,5.000000000000000000e+00,5.000000000000000000e+00,5.000000000000000000e+00,5.000000000000000000e+00,5.000000000000000000e+00,4.874836921691894531e+00,4.681488513946533203e+00,4.502892971038818359e+00,4.337422847747802734e+00,4.183682918548583984e+00,4.040468692779541016e+00,3.906735181808471680e+00,3.781570196151733398e+00,3.664176702499389648e+00,3.553852319717407227e+00,3.449977159500122070e+00,3.352001905441284180e+00,3.259437799453735352e+00,3.171848773956298828e+00,3.088843584060668945e+00,3.010071992874145508e+00,2.935218572616577148e+00,2.863997220993041992e+00,2.796150684356689453e+00,2.731443881988525391e+00,2.669664382934570312e+00,2.610617876052856445e+00,2.554126501083374023e+00,2.500028133392333984e+00,2.448174238204956055e+00,2.398427486419677734e+00,2.350661993026733398e+00,2.304762125015258789e+00,2.260620594024658203e+00,2.218137741088867188e+00,2.177222251892089844e+00,2.137789011001586914e+00,2.099758625030517578e+00,2.063057899475097656e+00,2.027617692947387695e+00,1.993374943733215332e+00,1.960269331932067871e+00,1.928245425224304199e+00,1.897251248359680176e+00,1.867237448692321777e+00
5.000000000000000000e+00,5.000000000000000000e+00,5.000000000000000000e+00,5.000000000000000000e+00,5.000000000000000000e+00,5.000000000000000000e+00,5.000000000000000000e+00,5.000000000000000000e+00,5.000000000000000000e+00,5.000000000000000000e+00,5.000000000000000000e+00,5.000000000000000000e+00,5.000000000000000000e+00,5.000000000000000000e+00,5.000000000000000000e+00,5.000000000000000000e+00,5.000000000000000000e+00,5.000000000000000000e+00,5.000000000000000000e+00,5.000000000000000000e+00,5.000000000000000000e+00,5.000000000000000000e+00,5.000000000000000000e+00,5.000000000000000000e+00,5.000000000000000000e+00,5.000000000000000000e+00,5.000000000000000000e+00,5.000000000000000000e+00,5.000000000000000000e+00,5.000000000000000000e+00,5.000000000000000000e+00,5.000000000000000000e+00,5.000000000000000000e+00,5.000000000000000000e+00,5.000000000000000000e+00,5.000000000000000000e+00,5.000000000000000000e+00,5.000000000000000000e+00,5.000000000000000000e+00,5.000000000000000000e+00,4.874979972839355469e+00,4.681620597839355469e+00,4.503014564514160156e+00,4.337535858154296875e+00,4.183788299560546875e+00,4.040566921234130859e+00,3.906826972961425781e+00,3.781656265258789062e+00,3.664257287979125977e+00,3.553928375244140625e+00,3.450048685073852539e+00,3.352069616317749023e+00,3.259501695632934570e+00,3.171908855438232422e+00,3.088901042938232422e+00,3.010126590728759766e+00,2.935270547866821289e+00,2.864046812057495117e+00,2.796197414398193359e+00,2.731488943099975586e+00,2.669707298278808594e+00,2.610658884048461914e+00,2.554165601730346680e+00,2.500065565109252930e+00,2.448210239410400391e+00,2.398461818695068359e+00,2.350695371627807617e+00,2.304794073104858398e+00,2.260651350021362305e+00,2.218167304992675781e+00,2.177250862121582031e+00,2.137816429138183594e+00,2.099785089492797852e+00,2.063083410263061523e+00,2.027642488479614258e+00,1.993398785591125488e+00,1.960292458534240723e+00,1.928267836570739746e+00,1.897272825241088867e+00,1.867258429527282715e+00
5.000000000000000000e+00,5.000000000000000000e+00,5.000000000000000000e+00,5.000000000000000000e+00,5.000000000000000000e+00,5.000000000000000000e+00,5.000000000000000000e+00,5.000000000000000000e+00,5.000000000000000000e+00,5.000000000000000000e+00,5.000000000000000000e+00,5.000000000000000000e+00,5.000000000000000000e+00,5.000000000000000000e+00,5.000000000000000000e+00,5.000000000000000000e+00,5.000000000000000000e+00,5.000000000000000000e+00,5.000000000000000000e+00,5.000000000000000000e+00,5.000000000000000000e+00,5.000000000000000000e+00,5.000000000000000000e+00,5.000000000000000000e+00,5.000000000000000000e+00,5.000000000000000000e+00,5.000000000000000000e+00,5.000000000000000000e+00,5.000000000000000000e+00,5.000000000000000000e+00,5.000000000000000000e+00,5.000000000000000000e+00,5.000000000000000000e+00,5.000000000000000000e+00,5.000000000000000000e+00,5.000000000000000000e+00,5.000000000000000000e+00,5.000000000000000000e+00,5.000000000000000000e+00,5.000000000000000000e+00,4.875122547149658203e+00,4.681752204895019531e+00,4.503136634826660156e+00,4.337649345397949219e+00,4.183893680572509766e+00,4.040665149688720703e+00,3.906918287277221680e+00,3.781742334365844727e+00,3.664338111877441406e+00,3.554004430770874023e+00,3.450120449066162109e+00,3.352136850357055664e+00,3.259565830230712891e+00,3.171969413757324219e+00,3.088958501815795898e+00,3.010181188583374023e+00,2.935322046279907227e+00,2.864096164703369141e+00,2.796244621276855469e+00,2.731533765792846680e+00,2.669750213623046875e+00,2.610699653625488281e+00,2.554204940795898438e+00,2.500103235244750977e+00,2.448246240615844727e+00,2.398496627807617188e+00,2.350728511810302734e+00,2.304826021194458008e+00,2.260681867599487305e+00,2.218196868896484375e+00,2.177279233932495117e+00,2.137844085693359375e+00,2.099811792373657227e+00,2.063108921051025391e+00,2.027667284011840820e+00,1.993422746658325195e+00,1.960315585136413574e+00,1.928290128707885742e+00,1.897294282913208008e+00,1.867279410362243652e+00
5.000000000000000000e+00,5.000000000000000000e+00,5.000000000000000000e+00,5.000000000000000000e+00,5.000000000000000000e+00,5.000000000000000000e+00,5.000000000000000000e+00,5.000000000000000000e+00,5.000000000000000000e+00,5.000000000000000000e+00,5.000000000000000000e+00,5.000000000000000000e+00,5.000000000000000000e+00,5.000000000000000000e+00,5.000000000000000000e+00,5.000000000000000000e+00,5.000000000000000000e+00,5.000000000000000000e+00,5.000000000000000000e+00,5.000000000000000000e+00,5.000000000000000000e+00,5.000000000000000000e+00,5.000000000000000000e+00,5.000000000000000000e+00,5.000000000000000000e+00,5.000000000000000000e+00,5.000000000000000000e+00,5.000000000000000000e+00,5.000000000000000000e+00,5.000000000000000000e+00,5.000000000000000000e+00,5.000000000000000000e+00,5.000000000000000000e+00,5.000000000000000000e+00,5.000000000000000000e+00,5.000000000000000000e+00,5.000000000000000000e+00,5.000000000000000000e+00,5.000000000000000000e+00,5.000000000000000000e+00,4.875265598297119141e+00,4.681884288787841797e+00,4.503258705139160156e+00,4.337762355804443359e+00,4.183999061584472656e+00,4.040763378143310547e+00,3.907010316848754883e+00,3.781828403472900391e+00,3.664418935775756836e+00,3.554080009460449219e+00,3.450191974639892578e+00,3.352204561233520508e+00,3.259629726409912109e+00,3.172029972076416016e+00,3.089015483856201172e+00,3.010235786437988281e+00,2.935374021530151367e+00,2.864145517349243164e+00,2.796291589736938477e+00,2.731578588485717773e+00,2.669793128967285156e+00,2.610740661621093750e+00,2.554244279861450195e+00,2.500140905380249023e+00,2.448282241821289062e+00,2.398531198501586914e+00,2.350761651992797852e+00,2.304857969284057617e+00,2.260712623596191406e+00,2.218226432800292969e+00,2.177307844161987305e+00,2.137871503829956055e+00,2.099838256835937500e+00,2.063134431838989258e+00,2.027692079544067383e+00,1.993446707725524902e+00,1.960338711738586426e+00,1.928312540054321289e+00,1.897315979003906250e+00,1.867300391197204590e+00
5.000000000000000000e+00,5.000000000000000000e+00,5.000000000000000000e+00,5.000000000000000000e+00,5.000000000000000000e+00,5.000000000000000000e+00,5.000000000000000000e+00,5.000000000000000000e+00,5.000000000000000000e+00,5.000000000000000000e+00,5.000000000000000000e+00,5.000000000000000000e+00,5.000000000000000000e+00,5.000000000000000000e+00,5.000000000000000000e+00,5.000000000000000000e+00,5.000000000000000000e+00,5.000000000000000000e+00,5.000000000000000000e+00,5.000000000000000000e+00,5.000000000000000000e+00,5.000000000000000000e+00,5.000000000000000000e+00,5.000000000000000000e+00,5.000000000000000000e+00,5.000000000000000000e+00,5.000000000000000000e+00,5.000000000000000000e+00,5.000000000000000000e+00,5.000000000000000000e+00,5.000000000000000000e+00,5.000000000000000000e+00,5.000000000000000000e+00,5.000000000000000000e+00,5.000000000000000000e+00,5.000000000000000000e+00,5.000000000000000000e+00,5.000000000000000000e+00,5.000000000000000000e+00,5.000000000000000000e+00,4.875408172607421875e+00,4.682015895843505859e+00,4.503380775451660156e+00,4.337875366210937500e+00,4.184104442596435547e+00,4.040861606597900391e+00,3.907102108001708984e+00,3.781914234161376953e+00,3.664499759674072266e+00,3.554156064987182617e+00,3.450263738632202148e+00,3.352272272109985352e+00,3.259693384170532227e+00,3.172090768814086914e+00,3.089072942733764648e+00,3.010290384292602539e+00,2.935425758361816406e+00,2.864194631576538086e+00,2.796338796615600586e+00,2.731623411178588867e+00,2.669836044311523438e+00,2.610781669616699219e+00,2.554283380508422852e+00,2.500178575515747070e+00,2.448318243026733398e+00,2.398565769195556641e+00,2.350795030593872070e+00,2.304889917373657227e+00,2.260743379592895508e+00,2.218255996704101562e+00,2.177336454391479492e+00,2.137898921966552734e+00,2.099864721298217773e+00,2.063160181045532227e+00,2.027716636657714844e+00,1.993470549583435059e+00,1.960361838340759277e+00,1.928334951400756836e+00,1.897337675094604492e+00,1.867321133613586426e+00
5.000000000000000000e+00,5.000000000000000000e+00,5.000000000000000000e+00,5.000000000000000000e+00,5.000000000000000000e+00,5.000000000000000000e+00,5.000000000000000000e+00,5.000000000000000000e+00,5.000000000000000000e+00,5.000000000000000000e+00,5.000000000000000000e+00,5.000000000000000000e+00,5.000000000000000000e+00,5.000000000000000000e+00,5.000000000000000000e+00,5.000000000000000000e+00,5.000000000000000000e+00,5.000000000000000000e+00,5.000000000000000000e+00,5.000000000000000000e+00,5.000000000000000000e+00,5.000000000000000000e+00,5.000000000000000000e+00,5.000000000000000000e+00,5.000000000000000000e+00,5.000000000000000000e+00,5.000000000000000000e+00,5.000000000000000000e+00,5.000000000000000000e+00,5.000000000000000000e+00,5.000000000000000000e+00,5.000000000000000000e+00,5.000000000000000000e+00,5.000000000000000000e+00,5.000000000000000000e+00,5.000000000000000000e+00,5.000000000000000000e+00,5.000000000000000000e+00,5.000000000000000000e+00,5.000000000000000000e+00,4.875551700592041016e+00,4.682147979736328125e+00,4.503502845764160156e+00,4.337988853454589844e+00,4.184209346771240234e+00,4.040959835052490234e+00,3.907194137573242188e+00,3.782000303268432617e+00,3.664580583572387695e+00,3.554232120513916016e+00,3.450335025787353516e+00,3.352339982986450195e+00,3.259757280349731445e+00,3.172151327133178711e+00,3.089130401611328125e+00,3.010344505310058594e+00,2.935477733612060547e+00,2.864243984222412109e+00,2.796385765075683594e+00,2.731668233871459961e+00,2.669878721237182617e+00,2.610822677612304688e+00,2.554322719573974609e+00,2.500216245651245117e+00,2.448354482650756836e+00,2.398600339889526367e+00,2.350828170776367188e+00,2.304921865463256836e+00,2.260774135589599609e+00,2.218285799026489258e+00,2.177364826202392578e+00,2.137926578521728516e+00,2.099891185760498047e+00,2.063185691833496094e+00,2.027741432189941406e+00,1.993494510650634766e+00,1.960384964942932129e+00,1.928357362747192383e+00,1.897359371185302734e+00,1.867342114448547363e+00
5.000000000000000000e+00,5.000000000000000000e+00,5.000000000000000000e+00,5.000000000000000000e+00,5.000000000000000000e+00,5.000000000000000000e+00,5.000000000000000000e+00,5.000000000000000000e+00,5.000000000000000000e+00,5.000000000000000000e+00,5.000000000000000000e+00,5.000000000000000000e+00,5.000000000000000000e+00,5.000000000000000000e+00,5.000000000000000000e+00,5.000000000000000000e+00,5.000000000000000000e+00,5.000000000000000000e+00,5.000000000000000000e+00,5.000000000000000000e+00,5.000000000000000000e+00,5.000000000000000000e+00,5.000000000000000000e+00,5.000000000000000000e+00,5.000000000000000000e+00,5.000000000000000000e+00,5.000000000000000000e+00,5.000000000000000000e+00,5.000000000000000000e+00,5.000000000000000000e+00,5.000000000000000000e+00,5.000000000000000000e+00,5.000000000000000000e+00,5.000000000000000000e+00,5.000000000000000000e+00,5.000000000000000000e+00,5.000000000000000000e+00,5.000000000000000000e+00,5.000000000000000000e+00,5.000000000000000000e+00,4.875694751739501953e+00,4.682279586791992188e+00,4.503624439239501953e+00,4.338101863861083984e+00,4.184314727783203125e+00,4.041058063507080078e+00,3.907285928726196289e+00,3.782086372375488281e+00,3.664660930633544922e+00,3.554308176040649414e+00,3.450406551361083984e+00,3.352407455444335938e+00,3.259821176528930664e+00,3.172211408615112305e+00,3.089187860488891602e+00,3.010399103164672852e+00,2.935529470443725586e+00,2.864293336868286133e+00,2.796432733535766602e+00,2.731713294982910156e+00,2.669921636581420898e+00,2.610863685607910156e+00,2.554361820220947266e+00,2.500253677368164062e+00,2.448390483856201172e+00,2.398634910583496094e+00,2.350861549377441406e+00,2.304953813552856445e+00,2.260804891586303711e+00,2.218315362930297852e+00,2.177393198013305664e+00,2.137953996658325195e+00,2.099917650222778320e+00,2.063211202621459961e+00,2.027766227722167969e+00,1.993518233299255371e+00,1.960408091545104980e+00,1.928379774093627930e+00,1.897381067276000977e+00,1.867363214492797852e+00
5.000000000000000000e+00,5.000000000000000000e+00,5.000000000000000000e+00,5.000000000000000000e+00,5.000000000000000000e+00,5.000000000000000000e+00,5.000000000000000000e+00,5.000000000000000000e+00,5.000000000000000000e+00,5.000000000000000000e+00,5.000000000000000000e+00,5.000000000000000000e+00,5.000000000000000000e+00,5.000000000000000000e+00,5.000000000000000000e+00,5.000000000000000000e+00,5.000000000000000000e+00,5.000000000000000000e+00,5.000000000000000000e+00,5.000000000000000000e+00,5.000000000000000000e+00,5.000000000000000000e+00,5.000000000000000000e+00,5.000000000000000000e+00,5.000000000000000000e+00,5.000000000000000000e+00,5.000000000000000000e+00,5.000000000000000000e+00,5.000000000000000000e+00,5.000000000000000000e+00,5.000000000000000000e+00,5.000000000000000000e+00,5.000000000000000000e+00,5.000000000000000000e+00,5.000000000000000000e+00,5.000000000000000000e+00,5.000000000000000000e+00,5.000000000000000000e+00,5.000000000000000000e+00,5.000000000000000000e+00,4.875837326049804688e+00,4.682411670684814453e+00,4.503746509552001953e+00,4.338215351104736328e+00,4.184420108795166016e+00,4.041155815124511719e+00,3.907377481460571289e+00,3.782172441482543945e+00,3.664741992950439453e+00,3.554384231567382812e+00,3.450478315353393555e+00,3.352474927902221680e+00,3.259885311126708984e+00,3.172272205352783203e+00,3.089245319366455078e+00,3.010453701019287109e+00,2.935581207275390625e+00,2.864342689514160156e+00,2.796479701995849609e+00,2.731758117675781250e+00,2.669964551925659180e+00,2.610904693603515625e+00,2.554401159286499023e+00,2.500291347503662109e+00,2.448426485061645508e+00,2.398669481277465820e+00,2.350894689559936523e+00,2.304985761642456055e+00,2.260835647583007812e+00,2.218344926834106445e+00,2.177421808242797852e+00,2.137981414794921875e+00,2.099944353103637695e+00,2.063236951828002930e+00,2.027791023254394531e+00,1.993542075157165527e+00,1.960431098937988281e+00,1.928402066230773926e+00,1.897402644157409668e+00,1.867384195327758789e+00
5.000000000000000000e+00,5.000000000000000000e+00,5.000000000000000000e+00,5.000000000000000000e+00,5.000000000000000000e+00,5.000000000000000000e+00,5.000000000000000000e+00,5.000000000000000000e+00,5.000000000000000000e+00,5.000000000000000000e+00,5.000000000000000000e+00,5.000000000000000000e+00,5.000000000000000000e+00,5.000000000000000000e+00,5.000000000000000000e+00,5.000000000000000000e+00,5.000000000000000000e+00,5.000000000000000000e+00,5.000000000000000000e+00,5.000000000000000000e+00,5.000000000000000000e+00,5.000000000000000000e+00,5.000000000000000000e+00,5.000000000000000000e+00,5.000000000000000000e+00,5.000000000000000000e+00,5.000000000000000000e+00,5.000000000000000000e+00,5.000000000000000000e+00,5.000000000000000000e+00,5.000000000000000000e+00,5.000000000000000000e+00,5.000000000000000000e+00,5.000000000000000000e+00,5.000000000000000000e+00,5.000000000000000000e+00,5.000000000000000000e+00,5.000000000000000000e+00,5.000000000000000000e+00,5.000000000000000000e+00,4.875980377197265625e+00,4.682543277740478516e+00,4.503868579864501953e+00,4.338328361511230469e+00,4.184525489807128906e+00,4.041254520416259766e+00,3.907469272613525391e+00,3.782258272171020508e+00,3.664822816848754883e+00,3.554459810256958008e+00,3.450550079345703125e+00,3.352542638778686523e+00,3.259949207305908203e+00,3.172332763671875000e+00,3.089302539825439453e+00,3.010508298873901367e+00,2.935633182525634766e+00,2.864392042160034180e+00,2.796526670455932617e+00,2.731802940368652344e+00,2.670007467269897461e+00,2.610945701599121094e+00,2.554440498352050781e+00,2.500329017639160156e+00,2.448462486267089844e+00,2.398704051971435547e+00,2.350927829742431641e+00,2.305017709732055664e+00,2.260866403579711914e+00,2.218374490737915039e+00,2.177450418472290039e+00,2.138008832931518555e+00,2.099970817565917969e+00,2.063262462615966797e+00,2.027815580368041992e+00,1.993566036224365234e+00,1.960454225540161133e+00,1.928424477577209473e+00,1.897424340248107910e+00,1.867405176162719727e+00
5.000000000000000000e+00,5.000000000000000000e+00,5.000000000000000000e+00,5.000000000000000000e+00,5.000000000000000000e+00,5.000000000000000000e+00,5.000000000000000000e+00,5.000000000000000000e+00,5.000000000000000000e+00,5.000000000000000000e+00,5.000000000000000000e+00,5.000000000000000000e+00,5.000000000000000000e+00,5.000000000000000000e+00,5.000000000000000000e+00,5.000000000000000000e+00,5.000000000000000000e+00,5.000000000000000000e+00,5.000000000000000000e+00,5.000000000000000000e+00,5.000000000000000000e+00,5.000000000000000000e+00,5.000000000000000000e+00,5.000000000000000000e+00,5.000000000000000000e+00,5.000000000000000000e+00,5.000000000000000000e+00,5.000000000000000000e+00,5.000000000000000000e+00,5.000000000000000000e+00,5.000000000000000000e+00,5.000000000000000000e+00,5.000000000000000000e+00,5.000000000000000000e+00,5.000000000000000000e+00,5.000000000000000000e+00,5.000000000000000000e+00,5.000000000000000000e+00,5.000000000000000000e+00,5.000000000000000000e+00,4.876123428344726562e+00,4.682675361633300781e+00,4.503990650177001953e+00,4.338441371917724609e+00,4.184630870819091797e+00,4.041352272033691406e+00,3.907561302185058594e+00,3.782344341278076172e+00,3.664903640747070312e+00,3.554535865783691406e+00,3.450621604919433594e+00,3.352610111236572266e+00,3.260012865066528320e+00,3.172393321990966797e+00,3.089359998703002930e+00,3.010562896728515625e+00,2.935684919357299805e+00,2.864441394805908203e+00,2.796573877334594727e+00,2.731847763061523438e+00,2.670050382614135742e+00,2.610986709594726562e+00,2.554479598999023438e+00,2.500366449356079102e+00,2.448498487472534180e+00,2.398738861083984375e+00,2.350961208343505859e+00,2.305049657821655273e+00,2.260897159576416016e+00,2.218404054641723633e+00,2.177479028701782227e+00,2.138036489486694336e+00,2.099997282028198242e+00,2.063288211822509766e+00,2.027840375900268555e+00,1.993589997291564941e+00,1.960477352142333984e+00,1.928446650505065918e+00,1.897446036338806152e+00,1.867426156997680664e+00
5.000000000000000000e+00,5.000000000000000000e+00,5.000000000000000000e+00,5.000000000000000000e+00,5.000000000000000000e+00,5.000000000000000000e+00,5.000000000000000000e+00,5.000000000000000000e+00,5.000000000000000000e+00,5.000000000000000000e+00,5.000000000000000000e+00,5.000000000000000000e+00,5.000000000000000000e+00,5.000000000000000000e+00,5.000000000000000000e+00,5.000000000000000000e+00,5.000000000000000000e+00,5.000000000000000000e+00,5.000000000000000000e+00,5.000000000000000000e+00,5.000000000000000000e+00,5.000000000000000000e+00,5.000000000000000000e+00,5.000000000000000000e+00,5.000000000000000000e+00,5.000000000000000000e+00,5.000000000000000000e+00,5.000000000000000000e+00,5.000000000000000000e+00,5.000000000000000000e+00,5.000000000000000000e+00,5.000000000000000000e+00,5.000000000000000000e+00,5.000000000000000000e+00,5.000000000000000000e+00,5.000000000000000000e+00,5.000000000000000000e+00,5.000000000000000000e+00,5.000000000000000000e+00,5.000000000000000000e+00,4.876263618469238281e+00,4.682806968688964844e+00,4.504112720489501953e+00,4.338554382324218750e+00,4.184735774993896484e+00,4.041450977325439453e+00,3.907653093338012695e+00,3.782430410385131836e+00,3.664983987808227539e+00,3.554611921310424805e+00,3.450693130493164062e+00,3.352677822113037109e+00,3.260076761245727539e+00,3.172453880310058594e+00,3.089417457580566406e+00,3.010617017745971680e+00,2.935736894607543945e+00,2.864490747451782227e+00,2.796620845794677734e+00,2.731892824172973633e+00,2.670093059539794922e+00,2.611027717590332031e+00,2.554518938064575195e+00,2.500404119491577148e+00,2.448534727096557617e+00,2.398773193359375000e+00,2.350994348526000977e+00,2.305081605911254883e+00,2.260927915573120117e+00,2.218433618545532227e+00,2.177507400512695312e+00,2.138063907623291016e+00,2.100023746490478516e+00,2.063313722610473633e+00,2.027865171432495117e+00,1.993613839149475098e+00,1.960500478744506836e+00,1.928469061851501465e+00,1.897467732429504395e+00,1.867447137832641602e+00
5.000000000000000000e+00,5.000000000000000000e+00,5.000000000000000000e+00,5.000000000000000000e+00,5.000000000000000000e+00,5.000000000000000000e+00,5.000000000000000000e+00,5.000000000000000000e+00,5.000000000000000000e+00,5.000000000000000000e+00,5.000000000000000000e+00,5.000000000000000000e+00,5.000000000000000000e+00,5.000000000000000000e+00,5.000000000000000000e+00,5.000000000000000000e+00,5.000000000000000000e+00,5.000000000000000000e+00,5.000000000000000000e+00,5.000000000000000000e+00,5.000000000000000000e+00,5.000000000000000000e+00,5.000000000000000000e+00,5.000000000000000000e+00,5.000000000000000000e+00,5.000000000000000000e+00,5.000000000000000000e+00,5.000000000000000000e+00,5.000000000000000000e+00,5.000000000000000000e+00,5.000000000000000000e+00,5.000000000000000000e+00,5.000000000000000000e+00,5.000000000000000000e+00,5.000000000000000000e+00,5.000000000000000000e+00,5.000000000000000000e+00,5.000000000000000000e+00,5.000000000000000000e+00,5.000000000000000000e+00,4.876404285430908203e+00,4.682937622070312500e+00,4.504234313964843750e+00,4.338667869567871094e+00,4.184841156005859375e+00,4.041549205780029297e+00,3.907744646072387695e+00,3.782516479492187500e+00,3.665065050125122070e+00,3.554687976837158203e+00,3.450764656066894531e+00,3.352745294570922852e+00,3.260140895843505859e+00,3.172514200210571289e+00,3.089474916458129883e+00,3.010671615600585938e+00,2.935788631439208984e+00,2.864540100097656250e+00,2.796667814254760742e+00,2.731937646865844727e+00,2.670135974884033203e+00,2.611068725585937500e+00,2.554558038711547852e+00,2.500441551208496094e+00,2.448570728302001953e+00,2.398808002471923828e+00,2.351027727127075195e+00,2.305113554000854492e+00,2.260958433151245117e+00,2.218463420867919922e+00,2.177535772323608398e+00,2.138091325759887695e+00,2.100050449371337891e+00,2.063339233398437500e+00,2.027889728546142578e+00,1.993637800216674805e+00,1.960523605346679688e+00,1.928491473197937012e+00,1.897489190101623535e+00,1.867468118667602539e+00
5.000000000000000000e+00,5.000000000000000000e+00,5.000000000000000000e+00,5.000000000000000000e+00,5.000000000000000000e+00,5.000000000000000000e+00,5.000000000000000000e+00,5.000000000000000000e+00,5.000000000000000000e+00,5.000000000000000000e+00,5.000000000000000000e+00,5.000000000000000000e+00,5.000000000000000000e+00,5.000000000000000000e+00,5.000000000000000000e+00,5.000000000000000000e+00,5.000000000000000000e+00,5.000000000000000000e+00,5.000000000000000000e+00,5.000000000000000000e+00,5.000000000000000000e+00,5.000000000000000000e+00,5.000000000000000000e+00,5.000000000000000000e+00,5.000000000000000000e+00,5.000000000000000000e+00,5.000000000000000000e+00,5.000000000000000000e+00,5.000000000000000000e+00,5.000000000000000000e+00,5.000000000000000000e+00,5.000000000000000000e+00,5.000000000000000000e+00,5.000000000000000000e+00,5.000000000000000000e+00,5.000000000000000000e+00,5.000000000000000000e+00,5.000000000000000000e+00,5.000000000000000000e+00,5.000000000000000000e+00,4.876544475555419922e+00,4.683066844940185547e+00,4.504356861114501953e+00,4.338780879974365234e+00,4.184946537017822266e+00,4.041646957397460938e+00,3.907836675643920898e+00,3.782602787017822266e+00,3.665145874023437500e+00,3.554763793945312500e+00,3.450836420059204102e+00,3.352812767028808594e+00,3.260204792022705078e+00,3.172574758529663086e+00,3.089532136917114258e+00,3.010726213455200195e+00,2.935840368270874023e+00,2.864589452743530273e+00,2.796714782714843750e+00,2.731982707977294922e+00,2.670178890228271484e+00,2.611109733581542969e+00,2.554597377777099609e+00,2.500479221343994141e+00,2.448606967926025391e+00,2.398842573165893555e+00,2.351060867309570312e+00,2.305145502090454102e+00,2.260989189147949219e+00,2.218492984771728516e+00,2.177564382553100586e+00,2.138118743896484375e+00,2.100076913833618164e+00,2.063364982604980469e+00,2.027914524078369141e+00,1.993661761283874512e+00,1.960546731948852539e+00,1.928513765335083008e+00,1.897510886192321777e+00,1.867489099502563477e+00
5.000000000000000000e+00,5.000000000000000000e+00,5.000000000000000000e+00,5.000000000000000000e+00,5.000000000000000000e+00,5.000000000000000000e+00,5.000000000000000000e+00,5.000000000000000000e+00,5.000000000000000000e+00,5.000000000000000000e+00,5.000000000000000000e+00,5.000000000000000000e+00,5.000000000000000000e+00,5.000000000000000000e+00,5.000000000000000000e+00,5.000000000000000000e+00,5.000000000000000000e+00,5.000000000000000000e+00,5.000000000000000000e+00,5.000000000000000000e+00,5.000000000000000000e+00,5.000000000000000000e+00,5.000000000000000000e+00,5.000000000000000000e+00,5.000000000000000000e+00,5.000000000000000000e+00,5.000000000000000000e+00,5.000000000000000000e+00,5.000000000000000000e+00,5.000000000000000000e+00,5.000000000000000000e+00,5.000000000000000000e+00,5.000000000000000000e+00,5.000000000000000000e+00,5.000000000000000000e+00,5.000000000000000000e+00,5.000000000000000000e+00,5.000000000000000000e+00,5.000000000000000000e+00,5.000000000000000000e+00,4.876684665679931641e+00,4.683196544647216797e+00,4.504475593566894531e+00,4.338894367218017578e+00,4.185051918029785156e+00,4.041745662689208984e+00,3.907928466796875000e+00,3.782688379287719727e+00,3.665226697921752930e+00,3.554839849472045898e+00,3.450908184051513672e+00,3.352880477905273438e+00,3.260268449783325195e+00,3.172635316848754883e+00,3.089589595794677734e+00,3.010780811309814453e+00,2.935892343521118164e+00,2.864638566970825195e+00,2.796761989593505859e+00,2.732027292251586914e+00,2.670221805572509766e+00,2.611150741577148438e+00,2.554636716842651367e+00,2.500516891479492188e+00,2.448642730712890625e+00,2.398877143859863281e+00,2.351094245910644531e+00,2.305177450180053711e+00,2.261020183563232422e+00,2.218522310256958008e+00,2.177592992782592773e+00,2.138146400451660156e+00,2.100103378295898438e+00,2.063390493392944336e+00,2.027939319610595703e+00,1.993685722351074219e+00,1.960569858551025391e+00,1.928536176681518555e+00,1.897532463073730469e+00,1.867509961128234863e+00
5.000000000000000000e+00,5.000000000000000000e+00,5.000000000000000000e+00,5.000000000000000000e+00,5.000000000000000000e+00,5.000000000000000000e+00,5.000000000000000000e+00,5.000000000000000000e+00,5.000000000000000000e+00,5.000000000000000000e+00,5.000000000000000000e+00,5.000000000000000000e+00,5.000000000000000000e+00,5.000000000000000000e+00,5.000000000000000000e+00,5.000000000000000000e+00,5.000000000000000000e+00,5.000000000000000000e+00,5.000000000000000000e+00,5.000000000000000000e+00,5.000000000000000000e+00,5.000000000000000000e+00,5.000000000000000000e+00,5.000000000000000000e+00,5.000000000000000000e+00,5.000000000000000000e+00,5.000000000000000000e+00,5.000000000000000000e+00,5.000000000000000000e+00,5.000000000000000000e+00,5.000000000000000000e+00,5.000000000000000000e+00,5.000000000000000000e+00,5.000000000000000000e+00,5.000000000000000000e+00,5.000000000000000000e+00,5.000000000000000000e+00,5.000000000000000000e+00,5.000000000000000000e+00,5.000000000000000000e+00,4.876825332641601562e+00,4.683325767517089844e+00,4.504595756530761719e+00,4.339005470275878906e+00,4.185157299041748047e+00,4.041843414306640625e+00,3.908020496368408203e+00,3.782774448394775391e+00,3.665307521820068359e+00,3.554915904998779297e+00,3.450979471206665039e+00,3.352948188781738281e+00,3.260332584381103516e+00,3.172695875167846680e+00,3.089647054672241211e+00,3.010835170745849609e+00,2.935944080352783203e+00,2.864688158035278320e+00,2.796808958053588867e+00,2.732072353363037109e+00,2.670264482498168945e+00,2.611191749572753906e+00,2.554675817489624023e+00,2.500554561614990234e+00,2.448678970336914062e+00,2.398911952972412109e+00,2.351127386093139648e+00,2.305209398269653320e+00,2.261050939559936523e+00,2.218552112579345703e+00,2.177621603012084961e+00,2.138173818588256836e+00,2.100129842758178711e+00,2.063416242599487305e+00,2.027963876724243164e+00,1.993709564208984375e+00,1.960592985153198242e+00,1.928558588027954102e+00,1.897554159164428711e+00,1.867530941963195801e+00
5.000000000000000000e+00,5.000000000000000000e+00,5.000000000000000000e+00,5.000000000000000000e+00,5.000000000000000000e+00,5.000000000000000000e+00,5.000000000000000000e+00,5.000000000000000000e+00,5.000000000000000000e+00,5.000000000000000000e+00,5.000000000000000000e+00,5.000000000000000000e+00,5.000000000000000000e+00,5.000000000000000000e+00,5.000000000000000000e+00,5.000000000000000000e+00,5.000000000000000000e+00,5.000000000000000000e+00,5.000000000000000000e+00,5.000000000000000000e+00,5.000000000000000000e+00,5.000000000000000000e+00,5.000000000000000000e+00,5.000000000000000000e+00,5.000000000000000000e+00,5.000000000000000000e+00,5.000000000000000000e+00,5.000000000000000000e+00,5.000000000000000000e+00,5.000000000000000000e+00,5.000000000000000000e+00,5.000000000000000000e+00,5.000000000000000000e+00,5.000000000000000000e+00,5.000000000000000000e+00,5.000000000000000000e+00,5.000000000000000000e+00,5.000000000000000000e+00,5.000000000000000000e+00,5.000000000000000000e+00,4.876965522766113281e+00,4.683454990386962891e+00,4.504715442657470703e+00,4.339116573333740234e+00,4.185261726379394531e+00,4.041942119598388672e+00,3.908112287521362305e+00,3.782860755920410156e+00,3.665388107299804688e+00,3.554991960525512695e+00,3.451051235198974609e+00,3.353015899658203125e+00,3.260396480560302734e+00,3.172756195068359375e+00,3.089704513549804688e+00,3.010889768600463867e+00,2.935996055603027344e+00,2.864737510681152344e+00,2.796855926513671875e+00,2.732117176055908203e+00,2.670307397842407227e+00,2.611232757568359375e+00,2.554715156555175781e+00,2.500592231750488281e+00,2.448714971542358398e+00,2.398946285247802734e+00,2.351160764694213867e+00,2.305241346359252930e+00,2.261081695556640625e+00,2.218581676483154297e+00,2.177649974822998047e+00,2.138201475143432617e+00,2.100156307220458984e+00,2.063441753387451172e+00,2.027988672256469727e+00,1.993733286857604980e+00,1.960616111755371094e+00,1.928580999374389648e+00,1.897575855255126953e+00,1.867551922798156738e+00
4.872177600860595703e+00,4.870958328247070312e+00,4.869740009307861328e+00,4.868521690368652344e+00,4.867304325103759766e+00,4.866087913513183594e+00,4.864871501922607422e+00,4.863656044006347656e+00,4.862441062927246094e+00,4.861226558685302734e+00,4.860013008117675781e+00,4.858799934387207031e+00,4.857587337493896484e+00,4.856375694274902344e+00,4.855164051055908203e+00,4.853953838348388672e+00,4.852743625640869141e+00,4.851534366607666016e+00,4.850325107574462891e+00,4.849116802215576172e+00,4.847909450531005859e+00,4.846702098846435547e+00,4.845495223999023438e+00,4.844289779663085938e+00,4.843084335327148438e+00,4.841879844665527344e+00,4.840675830841064453e+00,4.839471817016601562e+00,4.838269233703613281e+00,4.837066650390625000e+00,4.835865497589111328e+00,4.834663867950439453e+00,4.833463191986083984e+00,4.832263469696044922e+00,4.831064224243164062e+00,4.829865455627441406e+00,4.828667640686035156e+00,4.827469825744628906e+00,4.826272964477539062e+00,4.825076580047607422e+00,4.823880672454833984e+00,4.683584690093994141e+00,4.504835128784179688e+00,4.339227676391601562e+00,4.185364723205566406e+00,4.042039871215820312e+00,3.908203840255737305e+00,3.782946825027465820e+00,3.665468931198120117e+00,3.555068016052246094e+00,3.451122760772705078e+00,3.353083372116088867e+00,3.260460376739501953e+00,3.172816753387451172e+00,3.089761972427368164e+00,3.010944128036499023e+00,2.936047554016113281e+00,2.864786863327026367e+00,2.796902894973754883e+00,2.732162237167358398e+00,2.670350313186645508e+00,2.611273527145385742e+00,2.554754257202148438e+00,2.500629663467407227e+00,2.448750972747802734e+00,2.398980855941772461e+00,2.351193904876708984e+00,2.305273294448852539e+00,2.261112213134765625e+00,2.218611240386962891e+00,2.177678585052490234e+00,2.138228893280029297e+00,2.100183010101318359e+00,2.063467264175415039e+00,2.028013467788696289e+00,1.993757247924804688e+00,1.960639357566833496e+00,1.928603410720825195e+00,1.897597551345825195e+00,1.867572903633117676e+00
3.776669502258300781e+00,3.775936841964721680e+00,3.775204420089721680e+00,3.774472713470458984e+00,3.773740768432617188e+00,3.773009300231933594e+00,3.772278070449829102e+00,3.771547079086303711e+00,3.770816802978515625e+00,3.770086288452148438e+00,3.769356250762939453e+00,3.768626213073730469e+00,3.767896652221679688e+00,3.767167806625366211e+00,3.766438961029052734e+00,3.765710115432739258e+00,3.764981746673583984e+00,3.764253377914428711e+00,3.763525724411010742e+00,3.762798547744750977e+00,3.762071132659912109e+00,3.761344194412231445e+00,3.760617256164550781e+00,3.759890794754028320e+00,3.759165048599243164e+00,3.758439302444458008e+00,3.757713556289672852e+00,3.756988286972045898e+00,3.756263256072998047e+00,3.755538702011108398e+00,3.754814147949218750e+00,3.754090070724487305e+00,3.753365993499755859e+00,3.752642393112182617e+00,3.751919269561767578e+00,3.751196146011352539e+00,3.750473499298095703e+00,3.749750852584838867e+00,3.749028444290161133e+00,3.748306989669799805e+00,3.747585296630859375e+00,3.746863842010498047e+00,3.746142625808715820e+00,3.745421648025512695e+00,3.744701147079467773e+00,3.743981122970581055e+00,3.743261098861694336e+00,3.742541313171386719e+00,3.665549755096435547e+00,3.555143833160400391e+00,3.451194524765014648e+00,3.353150844573974609e+00,3.260524511337280273e+00,3.172877311706542969e+00,3.089819192886352539e+00,3.010998725891113281e+00,2.936099529266357422e+00,2.864836215972900391e+00,2.796950101852416992e+00,2.732206821441650391e+00,2.670393466949462891e+00,2.611314773559570312e+00,2.554793596267700195e+00,2.500667333602905273e+00,2.448786973953247070e+00,2.399015665054321289e+00,2.351227045059204102e+00,2.305305480957031250e+00,2.261142969131469727e+00,2.218641042709350586e+00,2.177706956863403320e+00,2.138256311416625977e+00,2.100209474563598633e+00,2.063493013381958008e+00,2.028038263320922852e+00,1.993781208992004395e+00,1.960662245750427246e+00,1.928625822067260742e+00,1.897619247436523438e+00,1.867593884468078613e+00
3.083373546600341797e+00,3.082885026931762695e+00,3.082397222518920898e+00,3.081908941268920898e+00,3.081421136856079102e+00,3.080933332443237305e+00,3.080445766448974609e+00,3.079958438873291016e+00,3.079471111297607422e+00,3.078984022140502930e+00,3.078496932983398438e+00,3.078010082244873047e+00,3.077523708343505859e+00,3.077037334442138672e+00,3.076550722122192383e+00,3.076064586639404297e+00,3.075578451156616211e+00,3.075092792510986328e+00,3.074607133865356445e+00,3.074121475219726562e+00,3.073636054992675781e+00,3.073150634765625000e+00,3.072665452957153320e+00,3.072180747985839844e+00,3.071695804595947266e+00,3.071211099624633789e+00,3.070726633071899414e+00,3.070242166519165039e+00,3.069758176803588867e+00,3.069274187088012695e+00,3.068790197372436523e+00,3.068306446075439453e+00,3.067822933197021484e+00,3.067339658737182617e+00,3.066856384277343750e+00,3.066373109817504883e+00,3.065890073776245117e+00,3.065407276153564453e+00,3.064924955368041992e+00,3.064442396163940430e+00,3.063959836959838867e+00,3.063477754592895508e+00,3.062995433807373047e+00,3.062513828277587891e+00,3.062031984329223633e+00,3.061550378799438477e+00,3.061068773269653320e+00,3.060587406158447266e+00,3.060106277465820312e+00,3.059625625610351562e+00,3.059144496917724609e+00,3.058663845062255859e+00,3.058183193206787109e+00,3.057702779769897461e+00,3.057222843170166016e+00,3.011053323745727539e+00,2.936151504516601562e+00,2.864885330200195312e+00,2.796997308731079102e+00,2.732251882553100586e+00,2.670436382293701172e+00,2.611355781555175781e+00,2.554832696914672852e+00,2.500705003738403320e+00,2.448822975158691406e+00,2.399050235748291016e+00,2.351260423660278320e+00,2.305337190628051758e+00,2.261173725128173828e+00,2.218670368194580078e+00,2.177735567092895508e+00,2.138283729553222656e+00,2.100236177444458008e+00,2.063518524169921875e+00,2.028062820434570312e+00,1.993805050849914551e+00,1.960685372352600098e+00,1.928648114204406738e+00,1.897640943527221680e+00,1.867614865303039551e+00
2.605139255523681641e+00,2.604790687561035156e+00,2.604442119598388672e+00,2.604093790054321289e+00,2.603745222091674805e+00,2.603397130966186523e+00,2.603049039840698242e+00,2.602700948715209961e+00,2.602352857589721680e+00,2.602005004882812500e+00,2.601657152175903320e+00,2.601309776306152344e+00,2.600962162017822266e+00,2.600614547729492188e+00,2.600267171859741211e+00,2.599919795989990234e+00,2.599572658538818359e+00,2.599225521087646484e+00,2.598878383636474609e+00,2.598531484603881836e+00,2.598184585571289062e+00,2.597837924957275391e+00,2.597491264343261719e+00,2.597144603729248047e+00,2.596798181533813477e+00,2.596451759338378906e+00,2.596105337142944336e+00,2.595759391784667969e+00,2.595413208007812500e+00,2.595067262649536133e+00,2.594721317291259766e+00,2.594375371932983398e+00,2.594029903411865234e+00,2.593684196472167969e+00,2.593338489532470703e+00,2.592993021011352539e+00,2.592647552490234375e+00,2.592302560806274414e+00,2.591957330703735352e+00,2.591612100601196289e+00,2.591267108917236328e+00,2.590922117233276367e+00,2.590577602386474609e+00,2.590232610702514648e+00,2.589888095855712891e+00,2.589543342590332031e+00,2.589199066162109375e+00,2.588854789733886719e+00,2.588510513305664062e+00,2.588166236877441406e+00,2.587822198867797852e+00,2.587478160858154297e+00,2.587134361267089844e+00,2.586790561676025391e+00,2.586446762084960938e+00,2.586103200912475586e+00,2.585759639739990234e+00,2.585416078567504883e+00,2.585072994232177734e+00,2.584729671478271484e+00,2.584386348724365234e+00,2.584043264389038086e+00,2.554872035980224609e+00,2.500742673873901367e+00,2.448859214782714844e+00,2.399084806442260742e+00,2.351293563842773438e+00,2.305369138717651367e+00,2.261204481124877930e+00,2.218700170516967773e+00,2.177763938903808594e+00,2.138311386108398438e+00,2.100262403488159180e+00,2.063544273376464844e+00,2.028087615966796875e+00,1.993829011917114258e+00,1.960708498954772949e+00,1.928670287132263184e+00,1.897662639617919922e+00,1.867635846138000488e+00
2.255325317382812500e+00,2.255064964294433594e+00,2.254804849624633789e+00,2.254544973373413086e+00,2.254284858703613281e+00,2.254024744033813477e+00,2.253765106201171875e+00,2.253505229949951172e+00,2.253245353698730469e+00,2.252985239028930664e+00,2.252724647521972656e+00,2.252463817596435547e+00,2.252203226089477539e+00,2.251942634582519531e+00,2.251682281494140625e+00,2.251421928405761719e+00,2.251161575317382812e+00,2.250901222229003906e+00,2.250640869140625000e+00,2.250380516052246094e+00,2.250120639801025391e+00,2.249860525131225586e+00,2.249600410461425781e+00,2.249340534210205078e+00,2.249080657958984375e+00,2.248820781707763672e+00,2.248561143875122070e+00,2.248301267623901367e+00,2.248041629791259766e+00,2.247781991958618164e+00,2.247522592544555664e+00,2.247262954711914062e+00,2.247003555297851562e+00,2.246744155883789062e+00,2.246484994888305664e+00,2.246225595474243164e+00,2.245966672897338867e+00,2.245707511901855469e+00,2.245448350906372070e+00,2.245189189910888672e+00,2.244930267333984375e+00,2.244671583175659180e+00,2.244412660598754883e+00,2.244153976440429688e+00,2.243895292282104492e+00,2.243636608123779297e+00,2.243378162384033203e+00,2.243119478225708008e+00,2.242861032485961914e+00,2.242602586746215820e+00,2.242344141006469727e+00,2.242086172103881836e+00,2.241827726364135742e+00,2.241569757461547852e+00,2.241311550140380859e+00,2.241053342819213867e+00,2.240795612335205078e+00,2.240537643432617188e+00,2.240279674530029297e+00,2.240021944046020508e+00,2.239764213562011719e+00,2.239506483078002930e+00,2.239248991012573242e+00,2.238991260528564453e+00,2.238733768463134766e+00,2.238476276397705078e+00,2.238218784332275391e+00,2.237961530685424805e+00,2.237704277038574219e+00,2.218729734420776367e+00,2.177792549133300781e+00,2.138338804244995117e+00,2.100289106369018555e+00,2.063569784164428711e+00,2.028112411499023438e+00,1.993852972984313965e+00,1.960731625556945801e+00,1.928692698478698730e+00,1.897684216499328613e+00,1.867656946182250977e+00
1.988278508186340332e+00,1.988076210021972656e+00,1.987874031066894531e+00,1.987671971321105957e+00,1.987469673156738281e+00,1.987267732620239258e+00,1.987065792083740234e+00,1.986863613128662109e+00,1.986661791801452637e+00,1.986459970474243164e+00,1.986257910728454590e+00,1.986056208610534668e+00,1.985854506492614746e+00,1.985652685165405273e+00,1.985450983047485352e+00,1.985249519348144531e+00,1.985047698020935059e+00,1.984846234321594238e+00,1.984644770622253418e+00,1.984443068504333496e+00,1.984241724014282227e+00,1.984040379524230957e+00,1.983838796615600586e+00,1.983637571334838867e+00,1.983436346054077148e+00,1.983235001564025879e+00,1.983033895492553711e+00,1.982832789421081543e+00,1.982631564140319824e+00,1.982430458068847656e+00,1.982229590415954590e+00,1.982028365135192871e+00,1.981827497482299805e+00,1.981626629829406738e+00,1.981425642967224121e+00,1.981224894523620605e+00,1.981024146080017090e+00,1.980823278427124023e+00,1.980622649192810059e+00,1.980422019958496094e+00,1.980221152305603027e+00,1.980020642280578613e+00,1.979820251464843750e+00,1.979619503021240234e+00,1.979419112205505371e+00,1.979218840599060059e+00,1.979018211364746094e+00,1.978817939758300781e+00,1.978617787361145020e+00,1.978417277336120605e+00,1.978217124938964844e+00,1.978017091751098633e+00,1.977816700935363770e+00,1.977616667747497559e+00,1.977416753768920898e+00,1.977216482162475586e+00,1.977016568183898926e+00,1.976816773414611816e+00,1.976616621017456055e+00,1.976416826248168945e+00,1.976217150688171387e+00,1.976017236709594727e+00,1.975817561149597168e+00,1.975617885589599609e+00,1.975418090820312500e+00,1.975218534469604492e+00,1.975018978118896484e+00,1.974819302558898926e+00,1.974619865417480469e+00,1.974420547485351562e+00,1.974220871925354004e+00,1.974021553993225098e+00,1.973822355270385742e+00,1.973622918128967285e+00,1.973423719406127930e+00,1.973224520683288574e+00,1.960754752159118652e+00,1.928715109825134277e+00,1.897705674171447754e+00,1.867677927017211914e+00
1.777776837348937988e+00,1.777615189552307129e+00,1.777453660964965820e+00,1.777291893959045410e+00,1.777130365371704102e+00,1.776968836784362793e+00,1.776807188987731934e+00,1.776645779609680176e+00,1.776484370231628418e+00,1.776322841644287109e+00,1.776161432266235352e+00,1.776000142097473145e+00,1.775838613510131836e+00,1.775677442550659180e+00,1.775516152381896973e+00,1.775354743003845215e+00,1.775193572044372559e+00,1.775032401084899902e+00,1.774871110916137695e+00,1.774710059165954590e+00,1.774549007415771484e+00,1.774387836456298828e+00,1.774226784706115723e+00,1.774065852165222168e+00,1.773904681205749512e+00,1.773743748664855957e+00,1.773582935333251953e+00,1.773421883583068848e+00,1.773261070251464844e+00,1.773100256919860840e+00,1.772939324378967285e+00,1.772778511047363281e+00,1.772617816925048828e+00,1.772457003593444824e+00,1.772296309471130371e+00,1.772135615348815918e+00,1.771974921226501465e+00,1.771814346313476562e+00,1.771653771400451660e+00,1.771493077278137207e+00,1.771332621574401855e+00,1.771172165870666504e+00,1.771011590957641602e+00,1.770851135253906250e+00,1.770690798759460449e+00,1.770530343055725098e+00,1.770370006561279297e+00,1.770209670066833496e+00,1.770049333572387695e+00,1.769889116287231445e+00,1.769728899002075195e+00,1.769568562507629395e+00,1.769408464431762695e+00,1.769248366355895996e+00,1.769088029861450195e+00,1.768928050994873047e+00,1.768767952919006348e+00,1.768607854843139648e+00,1.768447875976562500e+00,1.768288016319274902e+00,1.768127918243408203e+00,1.767968058586120605e+00,1.767808198928833008e+00,1.767648220062255859e+00,1.767488360404968262e+00,1.767328619956970215e+00,1.767168760299682617e+00,1.767009019851684570e+00,1.766849398612976074e+00,1.766689538955688477e+00,1.766529917716979980e+00,1.766370415687561035e+00,1.766210675239562988e+00,1.766051173210144043e+00,1.765891671180725098e+00,1.765732049942016602e+00,1.765572547912597656e+00,1.765413165092468262e+00,1.765253663063049316e+00,1.765094280242919922e+00
1.607580304145812988e+00,1.607447981834411621e+00,1.607315897941589355e+00,1.607183814048767090e+00,1.607051491737365723e+00,1.606919527053833008e+00,1.606787443161010742e+00,1.606655240058898926e+00,1.606523275375366211e+00,1.606391310691833496e+00,1.606259107589721680e+00,1.606127262115478516e+00,1.605995297431945801e+00,1.605863213539123535e+00,1.605731368064880371e+00,1.605599522590637207e+00,1.605467557907104492e+00,1.605335712432861328e+00,1.605203986167907715e+00,1.605072021484375000e+00,1.604940295219421387e+00,1.604808568954467773e+00,1.604676723480224609e+00,1.604545116424560547e+00,1.604413390159606934e+00,1.604281663894653320e+00,1.604150056838989258e+00,1.604018449783325195e+00,1.603886723518371582e+00,1.603755116462707520e+00,1.603623628616333008e+00,1.603492021560668945e+00,1.603360533714294434e+00,1.603229045867919922e+00,1.603097438812255859e+00,1.602966070175170898e+00,1.602834582328796387e+00,1.602703094482421875e+00,1.602571725845336914e+00,1.602440357208251953e+00,1.602308988571166992e+00,1.602177619934082031e+00,1.602046370506286621e+00,1.601915001869201660e+00,1.601783752441406250e+00,1.601652622222900391e+00,1.601521253585815430e+00,1.601390123367309570e+00,1.601258993148803711e+00,1.601127743721008301e+00,1.600996613502502441e+00,1.600865483283996582e+00,1.600734353065490723e+00,1.600603342056274414e+00,1.600472331047058105e+00,1.600341200828552246e+00,1.600210189819335938e+00,1.600079298019409180e+00,1.599948167800903320e+00,1.599817276000976562e+00,1.599686384201049805e+00,1.599555373191833496e+00,1.599424481391906738e+00,1.599293708801269531e+00,1.599162697792053223e+00,1.599031925201416016e+00,1.598901271820068359e+00,1.598770380020141602e+00,1.598639607429504395e+00,1.598508954048156738e+00,1.598378181457519531e+00,1.598247528076171875e+00,1.598116874694824219e+00,1.597986102104187012e+00,1.597855567932128906e+00,1.597725033760070801e+00,1.597594261169433594e+00,1.597463726997375488e+00,1.597333312034606934e+00,1.597202658653259277e+00
1.467124223709106445e+00,1.467014074325561523e+00,1.466904044151306152e+00,1.466793894767761230e+00,1.466683864593505859e+00,1.466573834419250488e+00,1.466463685035705566e+00,1.466353774070739746e+00,1.466243863105773926e+00,1.466133713722229004e+00,1.466023802757263184e+00,1.465913891792297363e+00,1.465803861618041992e+00,1.465694069862365723e+00,1.465584158897399902e+00,1.465474247932434082e+00,1.465364336967468262e+00,1.465254545211791992e+00,1.465144634246826172e+00,1.465034842491149902e+00,1.464925169944763184e+00,1.464815258979797363e+00,1.464705467224121094e+00,1.464595794677734375e+00,1.464486002922058105e+00,1.464376330375671387e+00,1.464266657829284668e+00,1.464156866073608398e+00,1.464047312736511230e+00,1.463937640190124512e+00,1.463827967643737793e+00,1.463718414306640625e+00,1.463608741760253906e+00,1.463499069213867188e+00,1.463389635086059570e+00,1.463280081748962402e+00,1.463170409202575684e+00,1.463060975074768066e+00,1.462951540946960449e+00,1.462841987609863281e+00,1.462732553482055664e+00,1.462623119354248047e+00,1.462513566017150879e+00,1.462404251098632812e+00,1.462294816970825195e+00,1.462185382843017578e+00,1.462076067924499512e+00,1.461966753005981445e+00,1.461857318878173828e+00,1.461748003959655762e+00,1.461638808250427246e+00,1.461529374122619629e+00,1.461420178413391113e+00,1.461310982704162598e+00,1.461201667785644531e+00,1.461092472076416016e+00,1.460983276367187500e+00,1.460873961448669434e+00,1.460764884948730469e+00,1.460655808448791504e+00,1.460546493530273438e+00,1.460437417030334473e+00,1.460328340530395508e+00,1.460219144821166992e+00,1.460110187530517578e+00,1.460001111030578613e+00,1.459892034530639648e+00,1.459783077239990234e+00,1.459674000740051270e+00,1.459564924240112305e+00,1.459456086158752441e+00,1.459347128868103027e+00,1.459238052368164062e+00,1.459129214286804199e+00,1.459020376205444336e+00,1.458911299705505371e+00,1.458802461624145508e+00,1.458693623542785645e+00,1.458584785461425781e+00,1.458475947380065918e+00
1.349239587783813477e+00,1.349146485328674316e+00,1.349053382873535156e+00,1.348960280418395996e+00,1.348867177963256836e+00,1.348774075508117676e+00,1.348681092262268066e+00,1.348587989807128906e+00,1.348494887351989746e+00,1.348401904106140137e+00,1.348308920860290527e+00,1.348215818405151367e+00,1.348122954368591309e+00,1.348029971122741699e+00,1.347936987876892090e+00,1.347844004631042480e+00,1.347751140594482422e+00,1.347658157348632812e+00,1.347565293312072754e+00,1.347472429275512695e+00,1.347379446029663086e+00,1.347286701202392578e+00,1.347193837165832520e+00,1.347100973129272461e+00,1.347008109092712402e+00,1.346915364265441895e+00,1.346822500228881836e+00,1.346729755401611328e+00,1.346637010574340820e+00,1.346544146537780762e+00,1.346451401710510254e+00,1.346358656883239746e+00,1.346265912055969238e+00,1.346173167228698730e+00,1.346080541610717773e+00,1.345987796783447266e+00,1.345895171165466309e+00,1.345802545547485352e+00,1.345709800720214844e+00,1.345617175102233887e+00,1.345524549484252930e+00,1.345431923866271973e+00,1.345339298248291016e+00,1.345246791839599609e+00,1.345154047012329102e+00,1.345061540603637695e+00,1.344969034194946289e+00,1.344876408576965332e+00,1.344783902168273926e+00,1.344691514968872070e+00,1.344598889350891113e+00,1.344506382942199707e+00,1.344413995742797852e+00,1.344321489334106445e+00,1.344228982925415039e+00,1.344136595726013184e+00,1.344044089317321777e+00,1.343951702117919922e+00,1.343859434127807617e+00,1.343766927719116211e+00,1.343674540519714355e+00,1.343582272529602051e+00,1.343489885330200195e+00,1.343397498130798340e+00,1.343305230140686035e+00,1.343212842941284180e+00,1.343120574951171875e+00,1.343028306961059570e+00,1.342936038970947266e+00,1.342843770980834961e+00,1.342751502990722656e+00,1.342659235000610352e+00,1.342567086219787598e+00,1.342474937438964844e+00,1.342382669448852539e+00,1.342290520668029785e+00,1.342198371887207031e+00,1.342106103897094727e+00,1.342013955116271973e+00,1.341921925544738770e+00
1.248890280723571777e+00,1.248810529708862305e+00,1.248730778694152832e+00,1.248650908470153809e+00,1.248571157455444336e+00,1.248491525650024414e+00,1.248411655426025391e+00,1.248332023620605469e+00,1.248252272605895996e+00,1.248172521591186523e+00,1.248092889785766602e+00,1.248013138771057129e+00,1.247933506965637207e+00,1.247853755950927734e+00,1.247774243354797363e+00,1.247694492340087891e+00,1.247614860534667969e+00,1.247535228729248047e+00,1.247455596923828125e+00,1.247375965118408203e+00,1.247296452522277832e+00,1.247216820716857910e+00,1.247137188911437988e+00,1.247057676315307617e+00,1.246978044509887695e+00,1.246898531913757324e+00,1.246819019317626953e+00,1.246739506721496582e+00,1.246659994125366211e+00,1.246580481529235840e+00,1.246500968933105469e+00,1.246421456336975098e+00,1.246342062950134277e+00,1.246262550354003906e+00,1.246183037757873535e+00,1.246103644371032715e+00,1.246024131774902344e+00,1.245944738388061523e+00,1.245865345001220703e+00,1.245785951614379883e+00,1.245706558227539062e+00,1.245627164840698242e+00,1.245547771453857422e+00,1.245468497276306152e+00,1.245389103889465332e+00,1.245309710502624512e+00,1.245230436325073242e+00,1.245151162147521973e+00,1.245071768760681152e+00,1.244992494583129883e+00,1.244913220405578613e+00,1.244833827018737793e+00,1.244754552841186523e+00,1.244675397872924805e+00,1.244596123695373535e+00,1.244516849517822266e+00,1.244437694549560547e+00,1.244358420372009277e+00,1.244279146194458008e+00,1.244199991226196289e+00,1.244120717048645020e+00,1.244041562080383301e+00,1.243962407112121582e+00,1.243883252143859863e+00,1.243804097175598145e+00,1.243725061416625977e+00,1.243645787239074707e+00,1.243566751480102539e+00,1.243487596511840820e+00,1.243408441543579102e+00,1.243329405784606934e+00,1.243250370025634766e+00,1.243171215057373047e+00,1.243092179298400879e+00,1.243013143539428711e+00,1.242934226989746094e+00,1.242855072021484375e+00,1.242776036262512207e+00,1.242697119712829590e+00,1.242618083953857422e+00
1.162434577941894531e+00,1.162365555763244629e+00,1.162296295166015625e+00,1.162227272987365723e+00,1.162158131599426270e+00,1.162088990211486816e+00,1.162019968032836914e+00,1.161950945854187012e+00,1.161881804466247559e+00,1.161812782287597656e+00,1.161743760108947754e+00,1.161674618721008301e+00,1.161605596542358398e+00,1.161536574363708496e+00,1.161467552185058594e+00,1.161398530006408691e+00,1.161329627037048340e+00,1.161260485649108887e+00,1.161191582679748535e+00,1.161122560501098633e+00,1.161053538322448730e+00,1.160984635353088379e+00,1.160915732383728027e+00,1.160846710205078125e+00,1.160777807235717773e+00,1.160708904266357422e+00,1.160639882087707520e+00,1.160571098327636719e+00,1.160502195358276367e+00,1.160433173179626465e+00,1.160364389419555664e+00,1.160295486450195312e+00,1.160226583480834961e+00,1.160157680511474609e+00,1.160088896751403809e+00,1.160019993782043457e+00,1.159951210021972656e+00,1.159882426261901855e+00,1.159813523292541504e+00,1.159744739532470703e+00,1.159675955772399902e+00,1.159607052803039551e+00,1.159538269042968750e+00,1.159469604492187500e+00,1.159400701522827148e+00,1.159331917762756348e+00,1.159263253211975098e+00,1.159194469451904297e+00,1.159125685691833496e+00,1.159057021141052246e+00,1.158988237380981445e+00,1.158919572830200195e+00,1.158850908279418945e+00,1.158782124519348145e+00,1.158713459968566895e+00,1.158644795417785645e+00,1.158576011657714844e+00,1.158507347106933594e+00,1.158438801765441895e+00,1.158370137214660645e+00,1.158301472663879395e+00,1.158232808113098145e+00,1.158164143562316895e+00,1.158095598220825195e+00,1.158027052879333496e+00,1.157958388328552246e+00,1.157889723777770996e+00,1.157821178436279297e+00,1.157752633094787598e+00,1.157684087753295898e+00,1.157615542411804199e+00,1.157546877861022949e+00,1.157478332519531250e+00,1.157409906387329102e+00,1.157341241836547852e+00,1.157272815704345703e+00,1.157204270362854004e+00,1.157135725021362305e+00,1.157067298889160156e+00,1.156998753547668457e+00
1.087173819541931152e+00,1.087113380432128906e+00,1.087052941322326660e+00,1.086992502212524414e+00,1.086931943893432617e+00,1.086871623992919922e+00,1.086811184883117676e+00,1.086750745773315430e+00,1.086690306663513184e+00,1.086629867553710938e+00,1.086569428443908691e+00,1.086509108543395996e+00,1.086448669433593750e+00,1.086388349533081055e+00,1.086327910423278809e+00,1.086267590522766113e+00,1.086207151412963867e+00,1.086146831512451172e+00,1.086086511611938477e+00,1.086026072502136230e+00,1.085965871810913086e+00,1.085905551910400391e+00,1.085845112800598145e+00,1.085784792900085449e+00,1.085724592208862305e+00,1.085664153099060059e+00,1.085603952407836914e+00,1.085543632507324219e+00,1.085483312606811523e+00,1.085423111915588379e+00,1.085362792015075684e+00,1.085302472114562988e+00,1.085242271423339844e+00,1.085182070732116699e+00,1.085121750831604004e+00,1.085061550140380859e+00,1.085001349449157715e+00,1.084941029548645020e+00,1.084880948066711426e+00,1.084820747375488281e+00,1.084760427474975586e+00,1.084700226783752441e+00,1.084640145301818848e+00,1.084579825401306152e+00,1.084519743919372559e+00,1.084459543228149414e+00,1.084399342536926270e+00,1.084339261054992676e+00,1.084279060363769531e+00,1.084218859672546387e+00,1.084158778190612793e+00,1.084098696708679199e+00,1.084038496017456055e+00,1.083978414535522461e+00,1.083918333053588867e+00,1.083858132362365723e+00,1.083798170089721680e+00,1.083738088607788086e+00,1.083677887916564941e+00,1.083617806434631348e+00,1.083557844161987305e+00,1.083497643470764160e+00,1.083437681198120117e+00,1.083377599716186523e+00,1.083317518234252930e+00,1.083257555961608887e+00,1.083197474479675293e+00,1.083137512207031250e+00,1.083077430725097656e+00,1.083017468452453613e+00,1.082957386970520020e+00,1.082897424697875977e+00,1.082837462425231934e+00,1.082777500152587891e+00,1.082717537879943848e+00,1.082657575607299805e+00,1.082597494125366211e+00,1.082537651062011719e+00,1.082477688789367676e+00,1.082417726516723633e+00
1.021065831184387207e+00,1.021012544631958008e+00,1.020959138870239258e+00,1.020905852317810059e+00,1.020852565765380859e+00,1.020799279212951660e+00,1.020745992660522461e+00,1.020692706108093262e+00,1.020639300346374512e+00,1.020586013793945312e+00,1.020532727241516113e+00,1.020479440689086914e+00,1.020426154136657715e+00,1.020372986793518066e+00,1.020319700241088867e+00,1.020266413688659668e+00,1.020213127136230469e+00,1.020159840583801270e+00,1.020106673240661621e+00,1.020053505897521973e+00,1.020000219345092773e+00,1.019946932792663574e+00,1.019893765449523926e+00,1.019840478897094727e+00,1.019787311553955078e+00,1.019734144210815430e+00,1.019680976867675781e+00,1.019627809524536133e+00,1.019574642181396484e+00,1.019521355628967285e+00,1.019468188285827637e+00,1.019415020942687988e+00,1.019361853599548340e+00,1.019308686256408691e+00,1.019255638122558594e+00,1.019202351570129395e+00,1.019149303436279297e+00,1.019096136093139648e+00,1.019042968750000000e+00,1.018989920616149902e+00,1.018936753273010254e+00,1.018883705139160156e+00,1.018830537796020508e+00,1.018777489662170410e+00,1.018724322319030762e+00,1.018671274185180664e+00,1.018618226051330566e+00,1.018565058708190918e+00,1.018512010574340820e+00,1.018458962440490723e+00,1.018405914306640625e+00,1.018352866172790527e+00,1.018299818038940430e+00,1.018246769905090332e+00,1.018193721771240234e+00,1.018140673637390137e+00,1.018087625503540039e+00,1.018034577369689941e+00,1.017981648445129395e+00,1.017928600311279297e+00,1.017875552177429199e+00,1.017822623252868652e+00,1.017769575119018555e+00,1.017716526985168457e+00,1.017663598060607910e+00,1.017610669136047363e+00,1.017557621002197266e+00,1.017504692077636719e+00,1.017451763153076172e+00,1.017398715019226074e+00,1.017345786094665527e+00,1.017292857170104980e+00,1.017239928245544434e+00,1.017186999320983887e+00,1.017134070396423340e+00,1.017081141471862793e+00,1.017028212547302246e+00,1.016975283622741699e+00,1.016922354698181152e+00,1.016869425773620605e+00
9.625368118286132812e-01,9.624894261360168457e-01,9.624420404434204102e-01,9.623946547508239746e-01,9.623471498489379883e-01,9.622998237609863281e-01,9.622524380683898926e-01,9.622051119804382324e-01,9.621577858924865723e-01,9.621104001998901367e-01,9.620629549026489258e-01,9.620156288146972656e-01,9.619683027267456055e-01,9.619209766387939453e-01,9.618736505508422852e-01,9.618263840675354004e-01,9.617789387702941895e-01,9.617316722869873047e-01,9.616843461990356445e-01,9.616370797157287598e-01,9.615897536277770996e-01,9.615424871444702148e-01,9.614951014518737793e-01,9.614478349685668945e-01,9.614005684852600098e-01,9.613533020019531250e-01,9.613060355186462402e-01,9.612587690353393555e-01,9.612113833427429199e-01,9.611641168594360352e-01,9.611169099807739258e-01,9.610696434974670410e-01,9.610224366188049316e-01,9.609752297401428223e-01,9.609279036521911621e-01,9.608806371688842773e-01,9.608334302902221680e-01,9.607862234115600586e-01,9.607390165328979492e-01,9.606918096542358398e-01,9.606444835662841797e-01,9.605973362922668457e-01,9.605501294136047363e-01,9.605029225349426270e-01,9.604557752609252930e-01,9.604085683822631836e-01,9.603613018989562988e-01,9.603141546249389648e-01,9.602670073509216309e-01,9.602198600769042969e-01,9.601727128028869629e-01,9.601255655288696289e-01,9.600782990455627441e-01,9.600311517715454102e-01,9.599840044975280762e-01,9.599369168281555176e-01,9.598897695541381836e-01,9.598426222801208496e-01,9.597954154014587402e-01,9.597483277320861816e-01,9.597011804580688477e-01,9.596540927886962891e-01,9.596070051193237305e-01,9.595599174499511719e-01,9.595127105712890625e-01,9.594656229019165039e-01,9.594185948371887207e-01,9.593715071678161621e-01,9.593244194984436035e-01,9.592773914337158203e-01,9.592301845550537109e-01,9.591831564903259277e-01,9.591360688209533691e-01,9.590890407562255859e-01,9.590420126914978027e-01,9.589949846267700195e-01,9.589478373527526855e-01,9.589008092880249023e-01,9.588537812232971191e-01,9.588067531585693359e-01
9.103537797927856445e-01,9.103114008903503418e-01,9.102690219879150391e-01,9.102266430854797363e-01,9.101843237876892090e-01,9.101419448852539062e-01,9.100994467735290527e-01,9.100571274757385254e-01,9.100147485733032227e-01,9.099724292755126953e-01,9.099300503730773926e-01,9.098877310752868652e-01,9.098452925682067871e-01,9.098029732704162598e-01,9.097606539726257324e-01,9.097182750701904297e-01,9.096759557723999023e-01,9.096336364746093750e-01,9.095912575721740723e-01,9.095489382743835449e-01,9.095066189765930176e-01,9.094643592834472656e-01,9.094220399856567383e-01,9.093797206878662109e-01,9.093373417854309082e-01,9.092950820922851562e-01,9.092527627944946289e-01,9.092105031013488770e-01,9.091682434082031250e-01,9.091259837150573730e-01,9.090836048126220703e-01,9.090413451194763184e-01,9.089990854263305664e-01,9.089568257331848145e-01,9.089145660400390625e-01,9.088723063468933105e-01,9.088299870491027832e-01,9.087877273559570312e-01,9.087455272674560547e-01,9.087032675743103027e-01,9.086610674858093262e-01,9.086188077926635742e-01,9.085764884948730469e-01,9.085342884063720703e-01,9.084920883178710938e-01,9.084498882293701172e-01,9.084076881408691406e-01,9.083654880523681641e-01,9.083231687545776367e-01,9.082809686660766602e-01,9.082388281822204590e-01,9.081966280937194824e-01,9.081544280052185059e-01,9.081122875213623047e-01,9.080700278282165527e-01,9.080278277397155762e-01,9.079856872558593750e-01,9.079434871673583984e-01,9.079013466835021973e-01,9.078592061996459961e-01,9.078169465065002441e-01,9.077748060226440430e-01,9.077326655387878418e-01,9.076905250549316406e-01,9.076483845710754395e-01,9.076062440872192383e-01,9.075640439987182617e-01,9.075219035148620605e-01,9.074798226356506348e-01,9.074376821517944336e-01,9.073956012725830078e-01,9.073534607887268066e-01,9.073112607002258301e-01,9.072691798210144043e-01,9.072270989418029785e-01,9.071850180625915527e-01,9.071429371833801270e-01,9.071008563041687012e-01,9.070586562156677246e-01,9.070165753364562988e-01
8.635380268096923828e-01,8.634998202323913574e-01,8.634616732597351074e-01,8.634235262870788574e-01,8.633854389190673828e-01,8.633472919464111328e-01,8.633092045783996582e-01,8.632709980010986328e-01,8.632329106330871582e-01,8.631947636604309082e-01,8.631566762924194336e-01,8.631185889244079590e-01,8.630805015563964844e-01,8.630422949790954590e-01,8.630042076110839844e-01,8.629661202430725098e-01,8.629280328750610352e-01,8.628899455070495605e-01,8.628518581390380859e-01,8.628137111663818359e-01,8.627756237983703613e-01,8.627375960350036621e-01,8.626995086669921875e-01,8.626614809036254883e-01,8.626233935356140137e-01,8.625852465629577637e-01,8.625472187995910645e-01,8.625091314315795898e-01,8.624711036682128906e-01,8.624330759048461914e-01,8.623950481414794922e-01,8.623570203781127930e-01,8.623188734054565430e-01,8.622808456420898438e-01,8.622428178787231445e-01,8.622048497200012207e-01,8.621668219566345215e-01,8.621287941932678223e-01,8.620907068252563477e-01,8.620526790618896484e-01,8.620147109031677246e-01,8.619766831398010254e-01,8.619387149810791016e-01,8.619006872177124023e-01,8.618625998497009277e-01,8.618246316909790039e-01,8.617866635322570801e-01,8.617486953735351562e-01,8.617106676101684570e-01,8.616726994514465332e-01,8.616346716880798340e-01,8.615967035293579102e-01,8.615587353706359863e-01,8.615207672119140625e-01,8.614827990531921387e-01,8.614448904991149902e-01,8.614068031311035156e-01,8.613688945770263672e-01,8.613309264183044434e-01,8.612930178642272949e-01,8.612550497055053711e-01,8.612171411514282227e-01,8.611791133880615234e-01,8.611412048339843750e-01,8.611032366752624512e-01,8.610653281211853027e-01,8.610274195671081543e-01,8.609895110130310059e-01,8.609515428543090820e-01,8.609136343002319336e-01,8.608757257461547852e-01,8.608378171920776367e-01,8.607999086380004883e-01,8.607620000839233398e-01,8.607240319252014160e-01,8.606861829757690430e-01,8.606482744216918945e-01,8.606104254722595215e-01,8.605725169181823730e-01,8.605346679687500000e-01
8.213017582893371582e-01,8.212672472000122070e-01,8.212327957153320312e-01,8.211982250213623047e-01,8.211637139320373535e-01,8.211292624473571777e-01,8.210947513580322266e-01,8.210602998733520508e-01,8.210258483886718750e-01,8.209912776947021484e-01,8.209568262100219727e-01,8.209223151206970215e-01,8.208878636360168457e-01,8.208534121513366699e-01,8.208189606666564941e-01,8.207844495773315430e-01,8.207499980926513672e-01,8.207155466079711914e-01,8.206810951232910156e-01,8.206466436386108398e-01,8.206121921539306641e-01,8.205776810646057129e-01,8.205432295799255371e-01,8.205088376998901367e-01,8.204743862152099609e-01,8.204399943351745605e-01,8.204055428504943848e-01,8.203710317611694336e-01,8.203366398811340332e-01,8.203021883964538574e-01,8.202677965164184570e-01,8.202334046363830566e-01,8.201990127563476562e-01,8.201645016670227051e-01,8.201301097869873047e-01,8.200957179069519043e-01,8.200613260269165039e-01,8.200269341468811035e-01,8.199925422668457031e-01,8.199580907821655273e-01,8.199236989021301270e-01,8.198893070220947266e-01,8.198549151420593262e-01,8.198205828666687012e-01,8.197861909866333008e-01,8.197517395019531250e-01,8.197174072265625000e-01,8.196830153465270996e-01,8.196486830711364746e-01,8.196142911911010742e-01,8.195799589157104492e-01,8.195455074310302734e-01,8.195111751556396484e-01,8.194768428802490234e-01,8.194425106048583984e-01,8.194081187248229980e-01,8.193737864494323730e-01,8.193393945693969727e-01,8.193050622940063477e-01,8.192707300186157227e-01,8.192363977432250977e-01,8.192020654678344727e-01,8.191677927970886230e-01,8.191334009170532227e-01,8.190990686416625977e-01,8.190647363662719727e-01,8.190304636955261230e-01,8.189961314201354980e-01,8.189618587493896484e-01,8.189274668693542480e-01,8.188931941986083984e-01,8.188588619232177734e-01,8.188245892524719238e-01,8.187903165817260742e-01,8.187559843063354492e-01,8.187216520309448242e-01,8.186873793601989746e-01,8.186531066894531250e-01,8.186188340187072754e-01,8.185845613479614258e-01
