5.000000000000000000e+00,5.000000000000000000e+00,5.000000000000000000e+00,5.000000000000000000e+00,5.000000000000000000e+00,5.000000000000000000e+00,5.000000000000000000e+00,5.000000000000000000e+00,5.000000000000000000e+00,5.000000000000000000e+00,5.000000000000000000e+00,5.000000000000000000e+00,5.000000000000000000e+00,5.000000000000000000e+00,5.000000000000000000e+00,5.000000000000000000e+00,5.000000000000000000e+00,5.000000000000000000e+00,5.000000000000000000e+00,5.000000000000000000e+00,5.000000000000000000e+00,5.000000000000000000e+00,5.000000000000000000e+00,5.000000000000000000e+00,5.000000000000000000e+00,5.000000000000000000e+00,5.000000000000000000e+00,5.000000000000000000e+00,5.000000000000000000e+00,5.000000000000000000e+00,5.000000000000000000e+00,5.000000000000000000e+00,5.000000000000000000e+00,5.000000000000000000e+00,5.000000000000000000e+00,5.000000000000000000e+00,5.000000000000000000e+00,5.000000000000000000e+00,5.000000000000000000e+00,4.862331390380859375e+00,4.671346187591552734e+00,1.550117254257202148e+00,1.541803956031799316e+00,1.533242464065551758e+00,1.481583237648010254e+00,1.460432529449462891e+00,1.453894495964050293e+00,1.447414755821228027e+00,1.440992474555969238e+00,1.479504704475402832e+00,1.601961016654968262e+00,1.603051543235778809e+00,1.603394508361816406e+00,1.745782732963562012e+00,1.726609468460083008e+00,1.725069642066955566e+00,2.868571281433105469e+00,2.801010608673095703e+00,2.736558914184570312e+00,2.675006866455078125e+00,2.616162538528442383e+00,2.559851646423339844e+00,2.505913734436035156e+00,2.454201698303222656e+00,2.404581069946289062e+00,2.356926918029785156e+00,2.311125040054321289e+00,2.267069339752197266e+00,2.224661827087402344e+00,2.183811902999877930e+00,2.144434690475463867e+00,2.106452941894531250e+00,2.069792747497558594e+00,2.034387111663818359e+00,2.000172138214111328e+00,1.967089056968688965e+00,1.935082674026489258e+00,1.904101014137268066e+00,1.874095797538757324e+00,1.845021724700927734e+00
5.000000000000000000e+00,5.000000000000000000e+00,5.000000000000000000e+00,5.000000000000000000e+00,5.000000000000000000e+00,5.000000000000000000e+00,5.000000000000000000e+00,5.000000000000000000e+00,5.000000000000000000e+00,5.000000000000000000e+00,5.000000000000000000e+00,5.000000000000000000e+00,5.000000000000000000e+00,5.000000000000000000e+00,5.000000000000000000e+00,5.000000000000000000e+00,5.000000000000000000e+00,5.000000000000000000e+00,5.000000000000000000e+00,5.000000000000000000e+00,5.000000000000000000e+00,5.000000000000000000e+00,5.000000000000000000e+00,5.000000000000000000e+00,5.000000000000000000e+00,5.000000000000000000e+00,5.000000000000000000e+00,5.000000000000000000e+00,5.000000000000000000e+00,5.000000000000000000e+00,5.000000000000000000e+00,5.000000000000000000e+00,5.000000000000000000e+00,5.000000000000000000e+00,5.000000000000000000e+00,5.000000000000000000e+00,5.000000000000000000e+00,5.000000000000000000e+00,5.000000000000000000e+00,4.862470626831054688e+00,4.671474456787109375e+00,1.542538881301879883e+00,1.530955910682678223e+00,1.535221576690673828e+00,1.483336091041564941e+00,1.450382709503173828e+00,1.442770600318908691e+00,1.436253905296325684e+00,1.429930210113525391e+00,1.454422712326049805e+00,1.588970065116882324e+00,1.588765740394592285e+00,1.588561058044433594e+00,1.648496031761169434e+00,1.726420640945434570e+00,1.714929580688476562e+00,2.868619441986083984e+00,2.801056623458862305e+00,2.736603021621704102e+00,2.675048828125000000e+00,2.616202831268310547e+00,2.559890031814575195e+00,2.505950450897216797e+00,2.454237222671508789e+00,2.404614925384521484e+00,2.356959819793701172e+00,2.311156511306762695e+00,2.267099618911743164e+00,2.224690914154052734e+00,2.183839797973632812e+00,2.144461870193481445e+00,2.106478929519653320e+00,2.069818019866943359e+00,2.034411191940307617e+00,2.000195741653442383e+00,1.967111945152282715e+00,1.935104489326477051e+00,1.904122471809387207e+00,1.874116539955139160e+00,1.845041632652282715e+00
5.000000000000000000e+00,5.000000000000000000e+00,5.000000000000000000e+00,5.000000000000000000e+00,5.000000000000000000e+00,5.000000000000000000e+00,5.000000000000000000e+00,5.000000000000000000e+00,5.000000000000000000e+00,5.000000000000000000e+00,5.000000000000000000e+00,5.000000000000000000e+00,5.000000000000000000e+00,5.000000000000000000e+00,5.000000000000000000e+00,5.000000000000000000e+00,5.000000000000000000e+00,5.000000000000000000e+00,5.000000000000000000e+00,5.000000000000000000e+00,5.000000000000000000e+00,5.000000000000000000e+00,5.000000000000000000e+00,5.000000000000000000e+00,5.000000000000000000e+00,5.000000000000000000e+00,5.000000000000000000e+00,5.000000000000000000e+00,5.000000000000000000e+00,5.000000000000000000e+00,5.000000000000000000e+00,5.000000000000000000e+00,5.000000000000000000e+00,5.000000000000000000e+00,5.000000000000000000e+00,5.000000000000000000e+00,5.000000000000000000e+00,5.000000000000000000e+00,5.000000000000000000e+00,4.862609863281250000e+00,4.671602725982666016e+00,1.543235778808593750e+00,1.535209059715270996e+00,1.542339920997619629e+00,1.487255930900573730e+00,1.449876785278320312e+00,1.433286666870117188e+00,1.425852537155151367e+00,1.419036388397216797e+00,1.431170582771301270e+00,1.472307205200195312e+00,1.580525398254394531e+00,1.582266688346862793e+00,1.630965709686279297e+00,1.739803910255432129e+00,1.724494934082031250e+00,2.868668079376220703e+00,2.801102638244628906e+00,2.736647129058837891e+00,2.675090789794921875e+00,2.616243124008178711e+00,2.559928655624389648e+00,2.505987405776977539e+00,2.454272508621215820e+00,2.404648780822753906e+00,2.356992483139038086e+00,2.311187982559204102e+00,2.267129659652709961e+00,2.224720001220703125e+00,2.183867931365966797e+00,2.144489049911499023e+00,2.106505155563354492e+00,2.069843053817749023e+00,2.034435749053955078e+00,2.000219106674194336e+00,1.967134714126586914e+00,1.935126662254333496e+00,1.904143571853637695e+00,1.874137282371520996e+00,1.845061779022216797e+00
5.000000000000000000e+00,5.000000000000000000e+00,5.000000000000000000e+00,5.000000000000000000e+00,5.000000000000000000e+00,5.000000000000000000e+00,5.000000000000000000e+00,5.000000000000000000e+00,5.000000000000000000e+00,5.000000000000000000e+00,5.000000000000000000e+00,5.000000000000000000e+00,5.000000000000000000e+00,5.000000000000000000e+00,5.000000000000000000e+00,5.000000000000000000e+00,5.000000000000000000e+00,5.000000000000000000e+00,5.000000000000000000e+00,5.000000000000000000e+00,5.000000000000000000e+00,5.000000000000000000e+00,5.000000000000000000e+00,5.000000000000000000e+00,5.000000000000000000e+00,5.000000000000000000e+00,5.000000000000000000e+00,5.000000000000000000e+00,5.000000000000000000e+00,5.000000000000000000e+00,5.000000000000000000e+00,5.000000000000000000e+00,5.000000000000000000e+00,5.000000000000000000e+00,5.000000000000000000e+00,5.000000000000000000e+00,5.000000000000000000e+00,5.000000000000000000e+00,5.000000000000000000e+00,4.862748622894287109e+00,4.671730995178222656e+00,1.533751845359802246e+00,1.512023329734802246e+00,1.513682484626770020e+00,1.491196632385253906e+00,1.454120278358459473e+00,1.423926472663879395e+00,1.416588902473449707e+00,1.409326672554016113e+00,1.407742738723754883e+00,1.446213126182556152e+00,1.577602744102478027e+00,1.578733086585998535e+00,1.621915578842163086e+00,1.774108052253723145e+00,1.699348926544189453e+00,1.713144540786743164e+00,2.801149129867553711e+00,2.736690998077392578e+00,2.675133228302001953e+00,2.616283416748046875e+00,2.559967279434204102e+00,2.506024360656738281e+00,2.454308032989501953e+00,2.404682874679565430e+00,2.357024908065795898e+00,2.311219215393066406e+00,2.267159938812255859e+00,2.224749088287353516e+00,2.183896064758300781e+00,2.144515991210937500e+00,2.106531143188476562e+00,2.069868326187133789e+00,2.034460067749023438e+00,2.000242710113525391e+00,1.967157363891601562e+00,1.935148715972900391e+00,1.904165029525756836e+00,1.874157786369323730e+00,1.845081806182861328e+00
5.000000000000000000e+00,5.000000000000000000e+00,5.000000000000000000e+00,5.000000000000000000e+00,5.000000000000000000e+00,5.000000000000000000e+00,5.000000000000000000e+00,5.000000000000000000e+00,5.000000000000000000e+00,5.000000000000000000e+00,5.000000000000000000e+00,5.000000000000000000e+00,5.000000000000000000e+00,5.000000000000000000e+00,5.000000000000000000e+00,5.000000000000000000e+00,5.000000000000000000e+00,5.000000000000000000e+00,5.000000000000000000e+00,5.000000000000000000e+00,5.000000000000000000e+00,5.000000000000000000e+00,5.000000000000000000e+00,5.000000000000000000e+00,5.000000000000000000e+00,5.000000000000000000e+00,5.000000000000000000e+00,5.000000000000000000e+00,5.000000000000000000e+00,5.000000000000000000e+00,5.000000000000000000e+00,5.000000000000000000e+00,5.000000000000000000e+00,5.000000000000000000e+00,5.000000000000000000e+00,5.000000000000000000e+00,5.000000000000000000e+00,5.000000000000000000e+00,5.000000000000000000e+00,4.862887859344482422e+00,4.671859264373779297e+00,1.525375247001647949e+00,1.495739698410034180e+00,1.510612130165100098e+00,1.502156257629394531e+00,1.458388686180114746e+00,1.420699834823608398e+00,1.405821204185485840e+00,1.398139715194702148e+00,1.390541911125183105e+00,1.422046065330505371e+00,1.576833963394165039e+00,1.578145980834960938e+00,1.619495153427124023e+00,3.014179229736328125e+00,1.679996132850646973e+00,1.688518762588500977e+00,2.801195144653320312e+00,2.736734867095947266e+00,2.675175189971923828e+00,2.616323709487915039e+00,2.560005664825439453e+00,2.506061315536499023e+00,2.454343318939208984e+00,2.404716968536376953e+00,2.357057809829711914e+00,2.311250686645507812e+00,2.267190217971801758e+00,2.224778175354003906e+00,2.183923959732055664e+00,2.144543170928955078e+00,2.106557130813598633e+00,2.069893598556518555e+00,2.034484386444091797e+00,2.000266313552856445e+00,1.967180252075195312e+00,1.935170650482177734e+00,1.904186367988586426e+00,1.874178528785705566e+00,1.845101714134216309e+00
5.000000000000000000e+00,5.000000000000000000e+00,5.000000000000000000e+00,5.000000000000000000e+00,5.000000000000000000e+00,5.000000000000000000e+00,5.000000000000000000e+00,5.000000000000000000e+00,5.000000000000000000e+00,5.000000000000000000e+00,5.000000000000000000e+00,5.000000000000000000e+00,5.000000000000000000e+00,5.000000000000000000e+00,5.000000000000000000e+00,5.000000000000000000e+00,5.000000000000000000e+00,5.000000000000000000e+00,5.000000000000000000e+00,5.000000000000000000e+00,5.000000000000000000e+00,5.000000000000000000e+00,5.000000000000000000e+00,5.000000000000000000e+00,5.000000000000000000e+00,5.000000000000000000e+00,5.000000000000000000e+00,5.000000000000000000e+00,5.000000000000000000e+00,5.000000000000000000e+00,5.000000000000000000e+00,5.000000000000000000e+00,5.000000000000000000e+00,5.000000000000000000e+00,5.000000000000000000e+00,5.000000000000000000e+00,5.000000000000000000e+00,5.000000000000000000e+00,5.000000000000000000e+00,4.863026618957519531e+00,4.671987533569335938e+00,1.519517660140991211e+00,1.500671267509460449e+00,1.484318017959594727e+00,1.490753293037414551e+00,1.462682127952575684e+00,1.425382614135742188e+00,1.396015882492065430e+00,1.386787176132202148e+00,1.379311680793762207e+00,1.400841236114501953e+00,1.575910091400146484e+00,1.577559232711791992e+00,1.617279648780822754e+00,3.014232635498046875e+00,1.770376920700073242e+00,1.664387702941894531e+00,1.680902719497680664e+00,2.736779212951660156e+00,2.675217151641845703e+00,2.616364002227783203e+00,2.560044050216674805e+00,2.506098270416259766e+00,2.454378843307495117e+00,2.404750823974609375e+00,2.357090473175048828e+00,2.311281919479370117e+00,2.267220497131347656e+00,2.224807500839233398e+00,2.183952093124389648e+00,2.144570112228393555e+00,2.106583356857299805e+00,2.069918632507324219e+00,2.034508705139160156e+00,2.000289678573608398e+00,1.967203021049499512e+00,1.935192704200744629e+00,1.904207587242126465e+00,1.874199151992797852e+00,1.845121741294860840e+00
5.000000000000000000e+00,5.000000000000000000e+00,5.000000000000000000e+00,5.000000000000000000e+00,5.000000000000000000e+00,5.000000000000000000e+00,5.000000000000000000e+00,5.000000000000000000e+00,5.000000000000000000e+00,5.000000000000000000e+00,5.000000000000000000e+00,5.000000000000000000e+00,5.000000000000000000e+00,5.000000000000000000e+00,5.000000000000000000e+00,5.000000000000000000e+00,5.000000000000000000e+00,5.000000000000000000e+00,5.000000000000000000e+00,5.000000000000000000e+00,5.000000000000000000e+00,5.000000000000000000e+00,5.000000000000000000e+00,5.000000000000000000e+00,5.000000000000000000e+00,5.000000000000000000e+00,5.000000000000000000e+00,5.000000000000000000e+00,5.000000000000000000e+00,5.000000000000000000e+00,5.000000000000000000e+00,5.000000000000000000e+00,5.000000000000000000e+00,5.000000000000000000e+00,5.000000000000000000e+00,5.000000000000000000e+00,5.000000000000000000e+00,5.000000000000000000e+00,5.000000000000000000e+00,4.863165855407714844e+00,4.672116279602050781e+00,1.516001343727111816e+00,1.489218115806579590e+00,1.465063929557800293e+00,4.037640094757080078e+00,1.473610997200012207e+00,1.430096268653869629e+00,1.392167210578918457e+00,1.376915931701660156e+00,1.368261456489562988e+00,1.380259513854980469e+00,1.407836794853210449e+00,1.576972842216491699e+00,1.618447422981262207e+00,3.014286279678344727e+00,2.939776420593261719e+00,1.749183893203735352e+00,1.670073747634887695e+00,2.736823081970214844e+00,2.675259351730346680e+00,2.616404056549072266e+00,2.560082912445068359e+00,2.506135225296020508e+00,2.454414129257202148e+00,2.404784917831420898e+00,2.357122898101806641e+00,2.311313629150390625e+00,2.267250537872314453e+00,2.224836587905883789e+00,2.183979988098144531e+00,2.144597053527832031e+00,2.106609344482421875e+00,2.069943904876708984e+00,2.034533023834228516e+00,2.000313282012939453e+00,1.967225670814514160e+00,1.935214757919311523e+00,1.904228925704956055e+00,1.874219775199890137e+00,1.845141649246215820e+00
5.000000000000000000e+00,5.000000000000000000e+00,5.000000000000000000e+00,5.000000000000000000e+00,5.000000000000000000e+00,5.000000000000000000e+00,5.000000000000000000e+00,5.000000000000000000e+00,5.000000000000000000e+00,5.000000000000000000e+00,5.000000000000000000e+00,5.000000000000000000e+00,5.000000000000000000e+00,5.000000000000000000e+00,5.000000000000000000e+00,5.000000000000000000e+00,5.000000000000000000e+00,5.000000000000000000e+00,5.000000000000000000e+00,5.000000000000000000e+00,5.000000000000000000e+00,5.000000000000000000e+00,5.000000000000000000e+00,5.000000000000000000e+00,5.000000000000000000e+00,5.000000000000000000e+00,5.000000000000000000e+00,5.000000000000000000e+00,5.000000000000000000e+00,5.000000000000000000e+00,5.000000000000000000e+00,5.000000000000000000e+00,5.000000000000000000e+00,5.000000000000000000e+00,5.000000000000000000e+00,5.000000000000000000e+00,5.000000000000000000e+00,5.000000000000000000e+00,5.000000000000000000e+00,4.863304615020751953e+00,4.672244548797607422e+00,1.514297604560852051e+00,1.478430628776550293e+00,1.456936001777648926e+00,4.037735939025878906e+00,1.486268401145935059e+00,1.435641050338745117e+00,1.398153305053710938e+00,1.370360374450683594e+00,1.358331680297851562e+00,1.360273957252502441e+00,1.385257482528686523e+00,1.575191617012023926e+00,1.621191620826721191e+00,3.014339685440063477e+00,2.939827203750610352e+00,2.868909835815429688e+00,1.702533125877380371e+00,2.736867189407348633e+00,2.675301313400268555e+00,2.616444349288940430e+00,2.560121297836303711e+00,2.506172180175781250e+00,2.454449653625488281e+00,2.404819011688232422e+00,2.357155561447143555e+00,2.311344861984252930e+00,2.267281055450439453e+00,2.224865436553955078e+00,2.184008121490478516e+00,2.144623994827270508e+00,2.106635570526123047e+00,2.069969177246093750e+00,2.034557342529296875e+00,2.000336885452270508e+00,1.967248439788818359e+00,1.935236692428588867e+00,1.904250383377075195e+00,1.874240398406982422e+00,1.845161795616149902e+00
5.000000000000000000e+00,5.000000000000000000e+00,5.000000000000000000e+00,5.000000000000000000e+00,5.000000000000000000e+00,5.000000000000000000e+00,5.000000000000000000e+00,5.000000000000000000e+00,5.000000000000000000e+00,5.000000000000000000e+00,5.000000000000000000e+00,5.000000000000000000e+00,5.000000000000000000e+00,5.000000000000000000e+00,5.000000000000000000e+00,5.000000000000000000e+00,5.000000000000000000e+00,5.000000000000000000e+00,5.000000000000000000e+00,5.000000000000000000e+00,5.000000000000000000e+00,5.000000000000000000e+00,5.000000000000000000e+00,5.000000000000000000e+00,5.000000000000000000e+00,5.000000000000000000e+00,5.000000000000000000e+00,5.000000000000000000e+00,5.000000000000000000e+00,5.000000000000000000e+00,5.000000000000000000e+00,5.000000000000000000e+00,5.000000000000000000e+00,5.000000000000000000e+00,5.000000000000000000e+00,5.000000000000000000e+00,5.000000000000000000e+00,5.000000000000000000e+00,5.000000000000000000e+00,4.863443851470947266e+00,4.672372817993164062e+00,1.535854816436767578e+00,1.469526648521423340e+00,4.179741382598876953e+00,4.037831783294677734e+00,3.905242443084716797e+00,1.447651863098144531e+00,1.403547286987304688e+00,1.364142179489135742e+00,1.351951360702514648e+00,1.343080878257751465e+00,1.363391041755676270e+00,1.573648929595947266e+00,1.616402626037597656e+00,3.014392852783203125e+00,2.939878225326538086e+00,2.868958234786987305e+00,2.801379680633544922e+00,1.688966512680053711e+00,2.675343513488769531e+00,2.616484642028808594e+00,2.560159683227539062e+00,2.506209135055541992e+00,2.454484939575195312e+00,2.404852867126464844e+00,2.357188463211059570e+00,2.311376333236694336e+00,2.267311096191406250e+00,2.224894523620605469e+00,2.184036254882812500e+00,2.144651174545288086e+00,2.106661558151245117e+00,2.069994211196899414e+00,2.034581661224365234e+00,2.000360250473022461e+00,1.967271327972412109e+00,1.935258746147155762e+00,1.904271602630615234e+00,1.874261021614074707e+00,1.845181822776794434e+00
5.000000000000000000e+00,5.000000000000000000e+00,5.000000000000000000e+00,5.000000000000000000e+00,5.000000000000000000e+00,5.000000000000000000e+00,5.000000000000000000e+00,5.000000000000000000e+00,5.000000000000000000e+00,5.000000000000000000e+00,5.000000000000000000e+00,5.000000000000000000e+00,5.000000000000000000e+00,5.000000000000000000e+00,5.000000000000000000e+00,5.000000000000000000e+00,5.000000000000000000e+00,5.000000000000000000e+00,5.000000000000000000e+00,5.000000000000000000e+00,5.000000000000000000e+00,5.000000000000000000e+00,5.000000000000000000e+00,5.000000000000000000e+00,5.000000000000000000e+00,5.000000000000000000e+00,5.000000000000000000e+00,5.000000000000000000e+00,5.000000000000000000e+00,5.000000000000000000e+00,5.000000000000000000e+00,5.000000000000000000e+00,5.000000000000000000e+00,5.000000000000000000e+00,5.000000000000000000e+00,5.000000000000000000e+00,5.000000000000000000e+00,5.000000000000000000e+00,5.000000000000000000e+00,4.863582611083984375e+00,4.672501087188720703e+00,4.495866298675537109e+00,4.332099437713623047e+00,4.179844379425048828e+00,4.037927627563476562e+00,3.905331850051879883e+00,1.454910874366760254e+00,1.410687923431396484e+00,1.370348572731018066e+00,1.348975777626037598e+00,1.338164925575256348e+00,1.357359886169433594e+00,1.572297811508178711e+00,1.605158686637878418e+00,3.014446258544921875e+00,2.939929008483886719e+00,2.869006872177124023e+00,2.801425695419311523e+00,2.736955404281616211e+00,2.675385475158691406e+00,2.616524934768676758e+00,2.560198545455932617e+00,2.506245851516723633e+00,2.454520463943481445e+00,2.404886960983276367e+00,2.357221126556396484e+00,2.311407804489135742e+00,2.267341375350952148e+00,2.224923849105834961e+00,2.184064149856567383e+00,2.144678115844726562e+00,2.106687545776367188e+00,2.070019483566284180e+00,2.034605979919433594e+00,2.000383853912353516e+00,1.967293977737426758e+00,1.935280680656433105e+00,1.904292941093444824e+00,1.874281644821166992e+00,1.845201730728149414e+00
5.000000000000000000e+00,5.000000000000000000e+00,5.000000000000000000e+00,5.000000000000000000e+00,5.000000000000000000e+00,5.000000000000000000e+00,5.000000000000000000e+00,5.000000000000000000e+00,5.000000000000000000e+00,5.000000000000000000e+00,5.000000000000000000e+00,5.000000000000000000e+00,5.000000000000000000e+00,5.000000000000000000e+00,5.000000000000000000e+00,5.000000000000000000e+00,5.000000000000000000e+00,5.000000000000000000e+00,5.000000000000000000e+00,5.000000000000000000e+00,5.000000000000000000e+00,5.000000000000000000e+00,5.000000000000000000e+00,5.000000000000000000e+00,5.000000000000000000e+00,5.000000000000000000e+00,5.000000000000000000e+00,5.000000000000000000e+00,5.000000000000000000e+00,5.000000000000000000e+00,5.000000000000000000e+00,5.000000000000000000e+00,5.000000000000000000e+00,5.000000000000000000e+00,5.000000000000000000e+00,5.000000000000000000e+00,5.000000000000000000e+00,5.000000000000000000e+00,5.000000000000000000e+00,4.863721847534179688e+00,4.672629356384277344e+00,4.495985031127929688e+00,4.332210063934326172e+00,4.179946899414062500e+00,4.038023471832275391e+00,3.905421495437622070e+00,3.781251430511474609e+00,1.417664766311645508e+00,1.376716852188110352e+00,1.349750041961669922e+00,1.336534857749938965e+00,1.352078914642333984e+00,1.570948719978332520e+00,1.594070076942443848e+00,3.014499902725219727e+00,2.939979791641235352e+00,2.869055271148681641e+00,2.801471710205078125e+00,2.736999273300170898e+00,2.675427675247192383e+00,2.616564989089965820e+00,2.560236930847167969e+00,2.506282806396484375e+00,2.454555988311767578e+00,2.404921054840087891e+00,2.357253551483154297e+00,2.311439275741577148e+00,2.267371416091918945e+00,2.224952936172485352e+00,2.184092283248901367e+00,2.144705295562744141e+00,2.106713771820068359e+00,2.070044517517089844e+00,2.034630298614501953e+00,2.000407457351684570e+00,1.967316746711730957e+00,1.935302734375000000e+00,1.904314160346984863e+00,1.874302387237548828e+00,1.845221877098083496e+00
5.000000000000000000e+00,5.000000000000000000e+00,5.000000000000000000e+00,5.000000000000000000e+00,5.000000000000000000e+00,5.000000000000000000e+00,5.000000000000000000e+00,5.000000000000000000e+00,5.000000000000000000e+00,5.000000000000000000e+00,5.000000000000000000e+00,5.000000000000000000e+00,5.000000000000000000e+00,5.000000000000000000e+00,5.000000000000000000e+00,5.000000000000000000e+00,5.000000000000000000e+00,5.000000000000000000e+00,5.000000000000000000e+00,5.000000000000000000e+00,5.000000000000000000e+00,5.000000000000000000e+00,5.000000000000000000e+00,5.000000000000000000e+00,5.000000000000000000e+00,5.000000000000000000e+00,5.000000000000000000e+00,5.000000000000000000e+00,5.000000000000000000e+00,5.000000000000000000e+00,5.000000000000000000e+00,5.000000000000000000e+00,5.000000000000000000e+00,5.000000000000000000e+00,5.000000000000000000e+00,5.000000000000000000e+00,5.000000000000000000e+00,5.000000000000000000e+00,5.000000000000000000e+00,4.863861560821533203e+00,4.672758102416992188e+00,4.496103763580322266e+00,4.332320213317871094e+00,4.180049419403076172e+00,4.038119792938232422e+00,3.905511379241943359e+00,3.781335353851318359e+00,1.419490933418273926e+00,1.376637697219848633e+00,1.354355812072753906e+00,1.343381166458129883e+00,1.360079526901245117e+00,1.567323327064514160e+00,1.583133816719055176e+00,3.014553308486938477e+00,2.940030813217163086e+00,2.869103431701660156e+00,2.801518201828002930e+00,2.737043380737304688e+00,2.675469636917114258e+00,2.616605520248413086e+00,2.560275316238403320e+00,2.506319761276245117e+00,2.454591274261474609e+00,2.404954910278320312e+00,2.357286214828491211e+00,2.311470508575439453e+00,2.267401933670043945e+00,2.224982023239135742e+00,2.184120416641235352e+00,2.144732236862182617e+00,2.106739759445190430e+00,2.070069789886474609e+00,2.034654617309570312e+00,2.000431060791015625e+00,1.967339396476745605e+00,1.935324907302856445e+00,1.904335498809814453e+00,1.874323010444641113e+00,1.845241904258728027e+00
5.000000000000000000e+00,5.000000000000000000e+00,5.000000000000000000e+00,5.000000000000000000e+00,5.000000000000000000e+00,5.000000000000000000e+00,5.000000000000000000e+00,5.000000000000000000e+00,5.000000000000000000e+00,5.000000000000000000e+00,5.000000000000000000e+00,5.000000000000000000e+00,5.000000000000000000e+00,5.000000000000000000e+00,5.000000000000000000e+00,5.000000000000000000e+00,5.000000000000000000e+00,5.000000000000000000e+00,5.000000000000000000e+00,5.000000000000000000e+00,5.000000000000000000e+00,5.000000000000000000e+00,5.000000000000000000e+00,5.000000000000000000e+00,5.000000000000000000e+00,5.000000000000000000e+00,5.000000000000000000e+00,5.000000000000000000e+00,5.000000000000000000e+00,5.000000000000000000e+00,5.000000000000000000e+00,5.000000000000000000e+00,5.000000000000000000e+00,5.000000000000000000e+00,5.000000000000000000e+00,5.000000000000000000e+00,5.000000000000000000e+00,5.000000000000000000e+00,5.000000000000000000e+00,4.864000320434570312e+00,4.672886371612548828e+00,4.496222972869873047e+00,4.332430839538574219e+00,4.180152416229248047e+00,4.038215160369873047e+00,3.905601024627685547e+00,3.781419277191162109e+00,1.410823941230773926e+00,1.381152749061584473e+00,1.364907383918762207e+00,1.357924580574035645e+00,1.376569032669067383e+00,1.564705848693847656e+00,3.093008518218994141e+00,3.014606714248657227e+00,2.940081596374511719e+00,2.869151830673217773e+00,2.801564216613769531e+00,2.737087488174438477e+00,2.675511837005615234e+00,2.616645574569702148e+00,2.560313940048217773e+00,2.506356716156005859e+00,2.454626798629760742e+00,2.404989004135131836e+00,2.357319116592407227e+00,2.311501979827880859e+00,2.267431974411010742e+00,2.225011110305786133e+00,2.184148311614990234e+00,2.144759416580200195e+00,2.106765985488891602e+00,2.070095062255859375e+00,2.034679174423217773e+00,2.000454425811767578e+00,1.967362165451049805e+00,1.935346722602844238e+00,1.904356956481933594e+00,1.874343633651733398e+00,1.845261812210083008e+00
5.000000000000000000e+00,5.000000000000000000e+00,5.000000000000000000e+00,5.000000000000000000e+00,5.000000000000000000e+00,5.000000000000000000e+00,5.000000000000000000e+00,5.000000000000000000e+00,5.000000000000000000e+00,5.000000000000000000e+00,5.000000000000000000e+00,5.000000000000000000e+00,5.000000000000000000e+00,5.000000000000000000e+00,5.000000000000000000e+00,5.000000000000000000e+00,5.000000000000000000e+00,5.000000000000000000e+00,5.000000000000000000e+00,5.000000000000000000e+00,5.000000000000000000e+00,5.000000000000000000e+00,5.000000000000000000e+00,5.000000000000000000e+00,5.000000000000000000e+00,5.000000000000000000e+00,5.000000000000000000e+00,5.000000000000000000e+00,5.000000000000000000e+00,5.000000000000000000e+00,5.000000000000000000e+00,5.000000000000000000e+00,5.000000000000000000e+00,5.000000000000000000e+00,5.000000000000000000e+00,5.000000000000000000e+00,5.000000000000000000e+00,5.000000000000000000e+00,5.000000000000000000e+00,4.864139556884765625e+00,4.673014640808105469e+00,4.496341705322265625e+00,4.332540988922119141e+00,4.180254936218261719e+00,4.038311481475830078e+00,3.905690670013427734e+00,1.451364159584045410e+00,1.414367914199829102e+00,1.394217371940612793e+00,1.380177617073059082e+00,1.384698271751403809e+00,1.556026697158813477e+00,1.565444827079772949e+00,3.093064785003662109e+00,3.014660358428955078e+00,2.940132141113281250e+00,2.869200468063354492e+00,2.801610231399536133e+00,2.737131357192993164e+00,2.675553798675537109e+00,2.616685867309570312e+00,2.560352563858032227e+00,2.506393671035766602e+00,2.454662084579467773e+00,2.405022859573364258e+00,2.357351779937744141e+00,2.311533451080322266e+00,2.267462253570556641e+00,2.225040197372436523e+00,2.184176445007324219e+00,2.144786357879638672e+00,2.106791973114013672e+00,2.070120096206665039e+00,2.034703493118286133e+00,2.000478029251098633e+00,1.967385053634643555e+00,1.935368895530700684e+00,1.904378175735473633e+00,1.874364376068115234e+00,1.845281958580017090e+00
5.000000000000000000e+00,5.000000000000000000e+00,5.000000000000000000e+00,5.000000000000000000e+00,5.000000000000000000e+00,5.000000000000000000e+00,5.000000000000000000e+00,5.000000000000000000e+00,5.000000000000000000e+00,5.000000000000000000e+00,5.000000000000000000e+00,5.000000000000000000e+00,5.000000000000000000e+00,5.000000000000000000e+00,5.000000000000000000e+00,5.000000000000000000e+00,5.000000000000000000e+00,5.000000000000000000e+00,5.000000000000000000e+00,5.000000000000000000e+00,5.000000000000000000e+00,5.000000000000000000e+00,5.000000000000000000e+00,5.000000000000000000e+00,5.000000000000000000e+00,5.000000000000000000e+00,5.000000000000000000e+00,5.000000000000000000e+00,5.000000000000000000e+00,5.000000000000000000e+00,5.000000000000000000e+00,5.000000000000000000e+00,5.000000000000000000e+00,5.000000000000000000e+00,5.000000000000000000e+00,5.000000000000000000e+00,5.000000000000000000e+00,5.000000000000000000e+00,5.000000000000000000e+00,4.864278316497802734e+00,4.673142910003662109e+00,4.496460437774658203e+00,4.332651138305664062e+00,4.180357933044433594e+00,4.038406848907470703e+00,3.905780076980590820e+00,1.449219942092895508e+00,1.423690199851989746e+00,1.409761667251586914e+00,1.395793318748474121e+00,1.420209050178527832e+00,1.569559574127197266e+00,1.576001524925231934e+00,3.093120813369750977e+00,3.014713525772094727e+00,2.940182924270629883e+00,2.869248628616333008e+00,2.801656484603881836e+00,2.737175464630126953e+00,2.675595998764038086e+00,2.616726160049438477e+00,2.560391187667846680e+00,2.506430625915527344e+00,2.454697608947753906e+00,2.405056953430175781e+00,2.357384204864501953e+00,2.311564922332763672e+00,2.267492532730102539e+00,2.225069284439086914e+00,2.184204578399658203e+00,2.144813299179077148e+00,2.106818199157714844e+00,2.070145368576049805e+00,2.034727811813354492e+00,2.000501632690429688e+00,1.967407703399658203e+00,1.935390949249267578e+00,1.904399514198303223e+00,1.874384999275207520e+00,1.845301985740661621e+00
5.000000000000000000e+00,5.000000000000000000e+00,5.000000000000000000e+00,5.000000000000000000e+00,5.000000000000000000e+00,5.000000000000000000e+00,5.000000000000000000e+00,5.000000000000000000e+00,5.000000000000000000e+00,5.000000000000000000e+00,5.000000000000000000e+00,5.000000000000000000e+00,5.000000000000000000e+00,5.000000000000000000e+00,5.000000000000000000e+00,5.000000000000000000e+00,5.000000000000000000e+00,5.000000000000000000e+00,5.000000000000000000e+00,5.000000000000000000e+00,5.000000000000000000e+00,5.000000000000000000e+00,5.000000000000000000e+00,5.000000000000000000e+00,5.000000000000000000e+00,5.000000000000000000e+00,5.000000000000000000e+00,5.000000000000000000e+00,5.000000000000000000e+00,5.000000000000000000e+00,5.000000000000000000e+00,5.000000000000000000e+00,5.000000000000000000e+00,5.000000000000000000e+00,5.000000000000000000e+00,5.000000000000000000e+00,5.000000000000000000e+00,5.000000000000000000e+00,5.000000000000000000e+00,4.864417552947998047e+00,4.673271656036376953e+00,4.496579170227050781e+00,4.332761764526367188e+00,4.180460929870605469e+00,4.038503170013427734e+00,3.905870199203491211e+00,1.459004878997802734e+00,1.434940099716186523e+00,1.425656795501708984e+00,1.421110153198242188e+00,1.587525129318237305e+00,1.587908744812011719e+00,1.593461871147155762e+00,3.093177080154418945e+00,3.014766931533813477e+00,2.940233945846557617e+00,2.869297027587890625e+00,2.801702737808227539e+00,2.737219333648681641e+00,2.675637960433959961e+00,2.616766452789306641e+00,2.560429573059082031e+00,2.506467580795288086e+00,2.454732894897460938e+00,2.405091047286987305e+00,2.357417106628417969e+00,2.311596155166625977e+00,2.267522811889648438e+00,2.225098371505737305e+00,2.184232473373413086e+00,2.144840478897094727e+00,2.106844186782836914e+00,2.070170640945434570e+00,2.034752130508422852e+00,2.000524997711181641e+00,1.967430472373962402e+00,1.935412764549255371e+00,1.904420971870422363e+00,1.874405622482299805e+00,1.845321893692016602e+00
5.000000000000000000e+00,5.000000000000000000e+00,5.000000000000000000e+00,5.000000000000000000e+00,5.000000000000000000e+00,5.000000000000000000e+00,5.000000000000000000e+00,5.000000000000000000e+00,5.000000000000000000e+00,5.000000000000000000e+00,5.000000000000000000e+00,5.000000000000000000e+00,5.000000000000000000e+00,5.000000000000000000e+00,5.000000000000000000e+00,5.000000000000000000e+00,5.000000000000000000e+00,5.000000000000000000e+00,5.000000000000000000e+00,5.000000000000000000e+00,5.000000000000000000e+00,5.000000000000000000e+00,5.000000000000000000e+00,5.000000000000000000e+00,5.000000000000000000e+00,5.000000000000000000e+00,5.000000000000000000e+00,5.000000000000000000e+00,5.000000000000000000e+00,5.000000000000000000e+00,5.000000000000000000e+00,5.000000000000000000e+00,5.000000000000000000e+00,5.000000000000000000e+00,5.000000000000000000e+00,5.000000000000000000e+00,5.000000000000000000e+00,5.000000000000000000e+00,5.000000000000000000e+00,4.864556789398193359e+00,4.673399925231933594e+00,4.496698379516601562e+00,4.332871913909912109e+00,4.180563449859619141e+00,4.038599014282226562e+00,1.511261582374572754e+00,1.468894362449645996e+00,1.447168231010437012e+00,1.439122796058654785e+00,1.458820223808288574e+00,1.605882167816162109e+00,1.607191562652587891e+00,3.175834178924560547e+00,3.093233585357666016e+00,3.014820337295532227e+00,2.940284729003906250e+00,2.869345664978027344e+00,2.801748752593994141e+00,2.737263679504394531e+00,2.675680160522460938e+00,2.616806745529174805e+00,2.560468196868896484e+00,2.506504535675048828e+00,2.454768419265747070e+00,2.405124902725219727e+00,2.357449769973754883e+00,2.311627626419067383e+00,2.267552852630615234e+00,2.225127458572387695e+00,2.184260606765747070e+00,2.144867658615112305e+00,2.106870174407958984e+00,2.070195674896240234e+00,2.034776449203491211e+00,2.000548601150512695e+00,1.967453360557556152e+00,1.935434937477111816e+00,1.904442071914672852e+00,1.874426364898681641e+00,1.845342040061950684e+00
5.000000000000000000e+00,5.000000000000000000e+00,5.000000000000000000e+00,5.000000000000000000e+00,5.000000000000000000e+00,5.000000000000000000e+00,5.000000000000000000e+00,5.000000000000000000e+00,5.000000000000000000e+00,5.000000000000000000e+00,5.000000000000000000e+00,5.000000000000000000e+00,5.000000000000000000e+00,5.000000000000000000e+00,5.000000000000000000e+00,5.000000000000000000e+00,5.000000000000000000e+00,5.000000000000000000e+00,5.000000000000000000e+00,5.000000000000000000e+00,5.000000000000000000e+00,5.000000000000000000e+00,5.000000000000000000e+00,5.000000000000000000e+00,5.000000000000000000e+00,5.000000000000000000e+00,5.000000000000000000e+00,5.000000000000000000e+00,5.000000000000000000e+00,5.000000000000000000e+00,5.000000000000000000e+00,5.000000000000000000e+00,5.000000000000000000e+00,5.000000000000000000e+00,5.000000000000000000e+00,5.000000000000000000e+00,5.000000000000000000e+00,5.000000000000000000e+00,5.000000000000000000e+00,4.864696025848388672e+00,4.673528194427490234e+00,4.496817111968994141e+00,4.332982540130615234e+00,4.180666446685791016e+00,4.038694858551025391e+00,1.506473422050476074e+00,1.479051947593688965e+00,1.458186984062194824e+00,1.450018763542175293e+00,1.483870029449462891e+00,1.624668836593627930e+00,3.263030290603637695e+00,3.175893545150756836e+00,3.093289613723754883e+00,3.014873981475830078e+00,2.940335512161254883e+00,2.869394063949584961e+00,2.801794767379760742e+00,2.737307548522949219e+00,2.675722360610961914e+00,2.616846799850463867e+00,2.560506820678710938e+00,2.506541252136230469e+00,2.454803943634033203e+00,2.405158996582031250e+00,2.357482433319091797e+00,2.311659097671508789e+00,2.267583131790161133e+00,2.225156545639038086e+00,2.184288740158081055e+00,2.144894599914550781e+00,2.106896400451660156e+00,2.070220947265625000e+00,2.034800767898559570e+00,2.000572204589843750e+00,1.967475891113281250e+00,1.935456991195678711e+00,1.904463529586791992e+00,1.874446868896484375e+00,1.845361828804016113e+00
5.000000000000000000e+00,5.000000000000000000e+00,5.000000000000000000e+00,5.000000000000000000e+00,5.000000000000000000e+00,5.000000000000000000e+00,5.000000000000000000e+00,5.000000000000000000e+00,5.000000000000000000e+00,5.000000000000000000e+00,5.000000000000000000e+00,5.000000000000000000e+00,5.000000000000000000e+00,5.000000000000000000e+00,5.000000000000000000e+00,5.000000000000000000e+00,5.000000000000000000e+00,5.000000000000000000e+00,5.000000000000000000e+00,5.000000000000000000e+00,5.000000000000000000e+00,5.000000000000000000e+00,5.000000000000000000e+00,5.000000000000000000e+00,5.000000000000000000e+00,5.000000000000000000e+00,5.000000000000000000e+00,5.000000000000000000e+00,5.000000000000000000e+00,5.000000000000000000e+00,5.000000000000000000e+00,5.000000000000000000e+00,5.000000000000000000e+00,5.000000000000000000e+00,5.000000000000000000e+00,5.000000000000000000e+00,5.000000000000000000e+00,5.000000000000000000e+00,5.000000000000000000e+00,4.864832878112792969e+00,4.673656940460205078e+00,4.496936321258544922e+00,4.333092689514160156e+00,4.180768966674804688e+00,4.038790702819824219e+00,1.517019391059875488e+00,1.489623427391052246e+00,1.469794392585754395e+00,1.465509891510009766e+00,1.507568955421447754e+00,1.639307856559753418e+00,3.263092756271362305e+00,3.175952911376953125e+00,3.093345880508422852e+00,3.014927387237548828e+00,2.940386533737182617e+00,2.869442224502563477e+00,2.801841259002685547e+00,2.737351655960083008e+00,2.675764322280883789e+00,2.616887092590332031e+00,2.560545206069946289e+00,2.506578445434570312e+00,2.454839229583740234e+00,2.405193090438842773e+00,2.357515096664428711e+00,2.311690568923950195e+00,2.267613410949707031e+00,2.225185632705688477e+00,2.184316635131835938e+00,2.144921541213989258e+00,2.106922626495361328e+00,2.070246219635009766e+00,2.034825086593627930e+00,2.000595569610595703e+00,1.967498779296875000e+00,1.935478925704956055e+00,1.904484868049621582e+00,1.874467611312866211e+00,1.845381975173950195e+00
5.000000000000000000e+00,5.000000000000000000e+00,5.000000000000000000e+00,5.000000000000000000e+00,5.000000000000000000e+00,5.000000000000000000e+00,5.000000000000000000e+00,5.000000000000000000e+00,5.000000000000000000e+00,5.000000000000000000e+00,5.000000000000000000e+00,5.000000000000000000e+00,5.000000000000000000e+00,5.000000000000000000e+00,5.000000000000000000e+00,5.000000000000000000e+00,5.000000000000000000e+00,5.000000000000000000e+00,5.000000000000000000e+00,5.000000000000000000e+00,5.000000000000000000e+00,5.000000000000000000e+00,5.000000000000000000e+00,5.000000000000000000e+00,5.000000000000000000e+00,5.000000000000000000e+00,5.000000000000000000e+00,5.000000000000000000e+00,5.000000000000000000e+00,5.000000000000000000e+00,5.000000000000000000e+00,5.000000000000000000e+00,5.000000000000000000e+00,5.000000000000000000e+00,5.000000000000000000e+00,5.000000000000000000e+00,5.000000000000000000e+00,5.000000000000000000e+00,5.000000000000000000e+00,4.864971637725830078e+00,4.673783779144287109e+00,4.497055053710937500e+00,4.333203315734863281e+00,4.180871486663818359e+00,4.038886547088623047e+00,1.527930140495300293e+00,1.500347137451171875e+00,1.481699943542480469e+00,1.491074562072753906e+00,1.647905588150024414e+00,1.653307557106018066e+00,3.263155221939086914e+00,3.176012277603149414e+00,3.093402385711669922e+00,3.014980792999267578e+00,2.940437316894531250e+00,2.869490623474121094e+00,2.801887273788452148e+00,2.737395763397216797e+00,2.675806283950805664e+00,2.616927385330200195e+00,2.560583829879760742e+00,2.506615400314331055e+00,2.454874753952026367e+00,2.405226945877075195e+00,2.357547760009765625e+00,2.311721801757812500e+00,2.267643690109252930e+00,2.225214958190917969e+00,2.184344768524169922e+00,2.144948720932006836e+00,2.106948614120483398e+00,2.070271492004394531e+00,2.034849405288696289e+00,2.000619173049926758e+00,1.967521667480468750e+00,1.935500979423522949e+00,1.904506087303161621e+00,1.874488234519958496e+00,1.845402121543884277e+00
5.000000000000000000e+00,5.000000000000000000e+00,5.000000000000000000e+00,5.000000000000000000e+00,5.000000000000000000e+00,5.000000000000000000e+00,5.000000000000000000e+00,5.000000000000000000e+00,5.000000000000000000e+00,5.000000000000000000e+00,5.000000000000000000e+00,5.000000000000000000e+00,5.000000000000000000e+00,5.000000000000000000e+00,5.000000000000000000e+00,5.000000000000000000e+00,5.000000000000000000e+00,5.000000000000000000e+00,5.000000000000000000e+00,5.000000000000000000e+00,5.000000000000000000e+00,5.000000000000000000e+00,5.000000000000000000e+00,5.000000000000000000e+00,5.000000000000000000e+00,5.000000000000000000e+00,5.000000000000000000e+00,5.000000000000000000e+00,5.000000000000000000e+00,5.000000000000000000e+00,5.000000000000000000e+00,5.000000000000000000e+00,5.000000000000000000e+00,5.000000000000000000e+00,5.000000000000000000e+00,5.000000000000000000e+00,5.000000000000000000e+00,5.000000000000000000e+00,5.000000000000000000e+00,4.865109920501708984e+00,4.673911094665527344e+00,4.497173786163330078e+00,4.333313465118408203e+00,4.180974483489990234e+00,4.038982391357421875e+00,1.539901852607727051e+00,1.511476755142211914e+00,1.493800044059753418e+00,1.515484571456909180e+00,1.655177354812622070e+00,3.355281829833984375e+00,3.263218164443969727e+00,3.176071405410766602e+00,3.093458414077758789e+00,3.015033960342407227e+00,2.940488100051879883e+00,2.869539260864257812e+00,2.801933288574218750e+00,2.737439870834350586e+00,2.675848484039306641e+00,2.616967678070068359e+00,2.560622453689575195e+00,2.506652116775512695e+00,2.454910278320312500e+00,2.405261039733886719e+00,2.357580423355102539e+00,2.311753273010253906e+00,2.267673730850219727e+00,2.225244045257568359e+00,2.184372663497924805e+00,2.144975662231445312e+00,2.106974840164184570e+00,2.070296525955200195e+00,2.034873723983764648e+00,2.000642776489257812e+00,1.967544198036193848e+00,1.935523152351379395e+00,1.904527544975280762e+00,1.874508857727050781e+00,1.845421910285949707e+00
5.000000000000000000e+00,5.000000000000000000e+00,5.000000000000000000e+00,5.000000000000000000e+00,5.000000000000000000e+00,5.000000000000000000e+00,5.000000000000000000e+00,5.000000000000000000e+00,5.000000000000000000e+00,5.000000000000000000e+00,5.000000000000000000e+00,5.000000000000000000e+00,5.000000000000000000e+00,5.000000000000000000e+00,5.000000000000000000e+00,5.000000000000000000e+00,5.000000000000000000e+00,5.000000000000000000e+00,5.000000000000000000e+00,5.000000000000000000e+00,5.000000000000000000e+00,5.000000000000000000e+00,5.000000000000000000e+00,5.000000000000000000e+00,5.000000000000000000e+00,5.000000000000000000e+00,5.000000000000000000e+00,5.000000000000000000e+00,5.000000000000000000e+00,5.000000000000000000e+00,5.000000000000000000e+00,5.000000000000000000e+00,5.000000000000000000e+00,5.000000000000000000e+00,5.000000000000000000e+00,5.000000000000000000e+00,5.000000000000000000e+00,5.000000000000000000e+00,5.000000000000000000e+00,4.865248203277587891e+00,4.674038887023925781e+00,4.497291088104248047e+00,4.333424091339111328e+00,4.181077003479003906e+00,4.039078235626220703e+00,1.552689552307128906e+00,1.524071455001831055e+00,1.510828018188476562e+00,1.543161630630493164e+00,1.662513732910156250e+00,3.355347871780395508e+00,3.263280630111694336e+00,3.176131010055541992e+00,3.093514680862426758e+00,3.015087604522705078e+00,2.940538883209228516e+00,2.869587659835815430e+00,2.801979780197143555e+00,2.737483739852905273e+00,2.675890684127807617e+00,2.617007970809936523e+00,2.560660839080810547e+00,2.506689310073852539e+00,2.454945564270019531e+00,2.405295133590698242e+00,2.357613086700439453e+00,2.311784744262695312e+00,2.267704010009765625e+00,2.225273132324218750e+00,2.184400796890258789e+00,2.145002841949462891e+00,2.107000827789306641e+00,2.070321798324584961e+00,2.034898042678833008e+00,2.000666379928588867e+00,1.967567086219787598e+00,1.935544967651367188e+00,1.904548645019531250e+00,1.874529600143432617e+00,1.845442056655883789e+00
5.000000000000000000e+00,5.000000000000000000e+00,5.000000000000000000e+00,5.000000000000000000e+00,5.000000000000000000e+00,5.000000000000000000e+00,5.000000000000000000e+00,5.000000000000000000e+00,5.000000000000000000e+00,5.000000000000000000e+00,5.000000000000000000e+00,5.000000000000000000e+00,5.000000000000000000e+00,5.000000000000000000e+00,5.000000000000000000e+00,5.000000000000000000e+00,5.000000000000000000e+00,5.000000000000000000e+00,5.000000000000000000e+00,5.000000000000000000e+00,5.000000000000000000e+00,5.000000000000000000e+00,5.000000000000000000e+00,5.000000000000000000e+00,5.000000000000000000e+00,5.000000000000000000e+00,5.000000000000000000e+00,5.000000000000000000e+00,5.000000000000000000e+00,5.000000000000000000e+00,5.000000000000000000e+00,5.000000000000000000e+00,5.000000000000000000e+00,5.000000000000000000e+00,5.000000000000000000e+00,5.000000000000000000e+00,5.000000000000000000e+00,5.000000000000000000e+00,5.000000000000000000e+00,4.865386486053466797e+00,4.674166679382324219e+00,4.497408866882324219e+00,4.333532810211181641e+00,4.181180000305175781e+00,1.626071214675903320e+00,1.565746307373046875e+00,1.537953376770019531e+00,1.529134750366210938e+00,1.669300198554992676e+00,1.669569134712219238e+00,3.355414390563964844e+00,3.263343095779418945e+00,3.176190137863159180e+00,3.093570947647094727e+00,3.015141010284423828e+00,2.940589904785156250e+00,2.869636058807373047e+00,2.802025794982910156e+00,2.737527847290039062e+00,2.675932645797729492e+00,2.617048263549804688e+00,2.560699462890625000e+00,2.506726264953613281e+00,2.454981088638305664e+00,2.405328989028930664e+00,2.357645750045776367e+00,2.311816215515136719e+00,2.267734289169311523e+00,2.225302219390869141e+00,2.184428930282592773e+00,2.145029783248901367e+00,2.107026815414428711e+00,2.070347070693969727e+00,2.034922361373901367e+00,2.000689744949340820e+00,1.967589735984802246e+00,1.935567140579223633e+00,1.904570102691650391e+00,1.874550223350524902e+00,1.845462203025817871e+00
5.000000000000000000e+00,5.000000000000000000e+00,5.000000000000000000e+00,5.000000000000000000e+00,5.000000000000000000e+00,5.000000000000000000e+00,5.000000000000000000e+00,5.000000000000000000e+00,5.000000000000000000e+00,5.000000000000000000e+00,5.000000000000000000e+00,5.000000000000000000e+00,5.000000000000000000e+00,5.000000000000000000e+00,5.000000000000000000e+00,5.000000000000000000e+00,5.000000000000000000e+00,5.000000000000000000e+00,5.000000000000000000e+00,5.000000000000000000e+00,5.000000000000000000e+00,5.000000000000000000e+00,5.000000000000000000e+00,5.000000000000000000e+00,5.000000000000000000e+00,5.000000000000000000e+00,5.000000000000000000e+00,5.000000000000000000e+00,5.000000000000000000e+00,5.000000000000000000e+00,5.000000000000000000e+00,5.000000000000000000e+00,5.000000000000000000e+00,5.000000000000000000e+00,5.000000000000000000e+00,5.000000000000000000e+00,5.000000000000000000e+00,5.000000000000000000e+00,5.000000000000000000e+00,4.865524768829345703e+00,4.674294471740722656e+00,4.497527122497558594e+00,4.333642959594726562e+00,4.181281566619873047e+00,1.623391509056091309e+00,1.579380750656127930e+00,1.555163979530334473e+00,1.555111408233642578e+00,1.677277565002441406e+00,3.452901363372802734e+00,3.355480432510375977e+00,3.263406038284301758e+00,3.176249504089355469e+00,3.093627452850341797e+00,3.015194416046142578e+00,2.940640687942504883e+00,2.869684457778930664e+00,2.802071809768676758e+00,2.737571954727172852e+00,2.675974845886230469e+00,2.617088556289672852e+00,2.560737848281860352e+00,2.506762981414794922e+00,2.455016613006591797e+00,2.405363082885742188e+00,2.357678413391113281e+00,2.311847448348999023e+00,2.267764568328857422e+00,2.225331306457519531e+00,2.184456825256347656e+00,2.145056962966918945e+00,2.107052803039550781e+00,2.070372104644775391e+00,2.034946918487548828e+00,2.000713348388671875e+00,1.967612504959106445e+00,1.935588955879211426e+00,1.904591560363769531e+00,1.874570965766906738e+00,1.845481991767883301e+00
4.875144958496093750e+00,4.873933792114257812e+00,4.872723102569580078e+00,4.871513366699218750e+00,4.870303630828857422e+00,4.869095325469970703e+00,4.867887020111083984e+00,4.866679191589355469e+00,4.865472316741943359e+00,4.864265918731689453e+00,4.863059997558593750e+00,4.861855030059814453e+00,4.860650539398193359e+00,4.859446525573730469e+00,4.858242988586425781e+00,4.857040405273437500e+00,4.855838298797607422e+00,4.854636669158935547e+00,4.853435993194580078e+00,4.852235317230224609e+00,4.851035594940185547e+00,4.849836349487304688e+00,4.848637580871582031e+00,4.847439765930175781e+00,4.846241950988769531e+00,4.845045566558837891e+00,4.843849182128906250e+00,4.842653274536132812e+00,4.841458797454833984e+00,4.840263843536376953e+00,4.839069843292236328e+00,4.837876796722412109e+00,4.836684226989746094e+00,4.835491657257080078e+00,4.834300041198730469e+00,4.833109378814697266e+00,4.831918716430664062e+00,4.830729007720947266e+00,4.829540252685546875e+00,4.828351497650146484e+00,4.674421787261962891e+00,4.497645378112792969e+00,4.333752632141113281e+00,4.181383609771728516e+00,4.039366245269775391e+00,1.605673313140869141e+00,1.572764277458190918e+00,1.592106223106384277e+00,1.685331702232360840e+00,3.452971696853637695e+00,3.355546474456787109e+00,3.263468503952026367e+00,3.176308631896972656e+00,3.093683481216430664e+00,3.015248060226440430e+00,2.940691471099853516e+00,2.869732856750488281e+00,2.802118062973022461e+00,2.737616062164306641e+00,2.676017045974731445e+00,2.617128849029541016e+00,2.560776710510253906e+00,2.506799936294555664e+00,2.455051898956298828e+00,2.405397176742553711e+00,2.357711076736450195e+00,2.311879158020019531e+00,2.267794847488403320e+00,2.225360393524169922e+00,2.184484958648681641e+00,2.145083904266357422e+00,2.107079029083251953e+00,2.070397377014160156e+00,2.034971237182617188e+00,2.000736713409423828e+00,1.967635393142700195e+00,1.935611128807067871e+00,1.904612660408020020e+00,1.874591708183288574e+00,1.845502138137817383e+00
3.777936220169067383e+00,3.777209043502807617e+00,3.776481628417968750e+00,3.775754928588867188e+00,3.775028467178344727e+00,3.774302005767822266e+00,3.773576021194458008e+00,3.772850513458251953e+00,3.772124767303466797e+00,3.771399974822998047e+00,3.770674705505371094e+00,3.769950389862060547e+00,3.769226074218750000e+00,3.768501758575439453e+00,3.767778158187866211e+00,3.767055034637451172e+00,3.766331434249877930e+00,3.765608787536621094e+00,3.764886140823364258e+00,3.764163494110107422e+00,3.763441562652587891e+00,3.762719869613647461e+00,3.761998176574707031e+00,3.761276960372924805e+00,3.760556221008300781e+00,3.759835243225097656e+00,3.759114980697631836e+00,3.758394956588745117e+00,3.757674932479858398e+00,3.756955385208129883e+00,3.756236314773559570e+00,3.755517005920410156e+00,3.754798173904418945e+00,3.754079580307006836e+00,3.753361463546752930e+00,3.752643585205078125e+00,3.751925706863403320e+00,3.751208305358886719e+00,3.750491380691528320e+00,3.749774217605590820e+00,3.749057769775390625e+00,3.748341798782348633e+00,3.747625350952148438e+00,3.746909856796264648e+00,3.746194362640380859e+00,1.614329934120178223e+00,1.600950360298156738e+00,1.693858027458190918e+00,1.713071942329406738e+00,3.453041791915893555e+00,3.355612754821777344e+00,3.263530969619750977e+00,3.176368236541748047e+00,3.093739748001098633e+00,3.015301465988159180e+00,2.940742254257202148e+00,2.869781255722045898e+00,2.802164316177368164e+00,2.737659931182861328e+00,2.676059007644653320e+00,2.617168903350830078e+00,2.560815095901489258e+00,2.506837129592895508e+00,2.455087423324584961e+00,2.405431270599365234e+00,2.357743740081787109e+00,2.311910390853881836e+00,2.267825126647949219e+00,2.225389480590820312e+00,2.184513092041015625e+00,2.145110845565795898e+00,2.107105255126953125e+00,2.070422649383544922e+00,2.034995555877685547e+00,2.000760316848754883e+00,1.967658042907714844e+00,1.935633182525634766e+00,1.904634118080139160e+00,1.874612212181091309e+00,1.845522284507751465e+00
3.083874225616455078e+00,3.083389282226562500e+00,3.082904815673828125e+00,3.082420587539672852e+00,3.081936120986938477e+00,3.081452131271362305e+00,3.080968141555786133e+00,3.080484390258789062e+00,3.080000877380371094e+00,3.079517364501953125e+00,3.079034090042114258e+00,3.078551054000854492e+00,3.078067779541015625e+00,3.077584981918334961e+00,3.077102422714233398e+00,3.076619625091552734e+00,3.076137304306030273e+00,3.075655221939086914e+00,3.075172901153564453e+00,3.074691057205200195e+00,3.074209213256835938e+00,3.073727369308471680e+00,3.073246002197265625e+00,3.072764873504638672e+00,3.072283506393432617e+00,3.071802377700805664e+00,3.071321725845336914e+00,3.070840835571289062e+00,3.070360183715820312e+00,3.069879531860351562e+00,3.069399356842041016e+00,3.068919420242309570e+00,3.068439245223999023e+00,3.067959547042846680e+00,3.067479848861694336e+00,3.067000150680541992e+00,3.066520690917968750e+00,3.066041707992553711e+00,3.065562486648559570e+00,3.065083503723144531e+00,3.064604997634887695e+00,3.064126014709472656e+00,3.063647747039794922e+00,3.063169479370117188e+00,1.656414031982421875e+00,1.601032376289367676e+00,1.587408661842346191e+00,1.701775193214416504e+00,3.060779809951782227e+00,3.060302495956420898e+00,3.059824943542480469e+00,3.059347867965698242e+00,3.058870792388916016e+00,3.058393955230712891e+00,3.015354871749877930e+00,2.940793275833129883e+00,2.869829654693603516e+00,2.802210330963134766e+00,2.737704277038574219e+00,2.676101207733154297e+00,2.617209434509277344e+00,2.560853481292724609e+00,2.506873846054077148e+00,2.455122709274291992e+00,2.405465126037597656e+00,2.357776641845703125e+00,2.311941862106323242e+00,2.267855405807495117e+00,2.225418567657470703e+00,2.184540987014770508e+00,2.145138025283813477e+00,2.107131242752075195e+00,2.070447921752929688e+00,2.035019874572753906e+00,2.000783920288085938e+00,1.967680811882019043e+00,1.935655117034912109e+00,1.904655456542968750e+00,1.874632954597473145e+00,1.845542192459106445e+00
2.605251312255859375e+00,2.604905366897583008e+00,2.604559659957885742e+00,2.604213714599609375e+00,2.603868246078491211e+00,2.603522539138793945e+00,2.603177070617675781e+00,2.602831840515136719e+00,2.602486371994018555e+00,2.602141380310058594e+00,2.601796150207519531e+00,2.601451158523559570e+00,2.601106166839599609e+00,2.600761413574218750e+00,2.600416660308837891e+00,2.600072145462036133e+00,2.599727630615234375e+00,2.599383115768432617e+00,2.599038839340209961e+00,2.598694562911987305e+00,2.598350286483764648e+00,2.598006248474121094e+00,2.597662210464477539e+00,2.597318172454833984e+00,2.596974372863769531e+00,2.596630811691284180e+00,2.596287012100219727e+00,2.595943450927734375e+00,2.595599889755249023e+00,2.595256567001342773e+00,2.594913482666015625e+00,2.594570159912109375e+00,2.594227075576782227e+00,2.593884229660034180e+00,2.593541145324707031e+00,2.593198537826538086e+00,2.592855691909790039e+00,2.592513084411621094e+00,2.592170476913452148e+00,2.591828107833862305e+00,2.591485738754272461e+00,2.591143369674682617e+00,2.590801239013671875e+00,2.590459108352661133e+00,2.590117216110229492e+00,1.585882067680358887e+00,1.572846412658691406e+00,1.575356245040893555e+00,2.588749885559082031e+00,2.588408470153808594e+00,2.588067054748535156e+00,2.587725639343261719e+00,2.587384462356567383e+00,2.587043285369873047e+00,2.586702108383178711e+00,2.586361169815063477e+00,2.586020231246948242e+00,2.585679292678833008e+00,2.585338592529296875e+00,2.584998130798339844e+00,2.584657430648803711e+00,2.560892343521118164e+00,2.506910800933837891e+00,2.455158233642578125e+00,2.405498981475830078e+00,2.357809305191040039e+00,2.311973333358764648e+00,2.267885446548461914e+00,2.225447893142700195e+00,2.184569120407104492e+00,2.145165205001831055e+00,2.107157468795776367e+00,2.070472955703735352e+00,2.035044193267822266e+00,2.000807285308837891e+00,1.967703700065612793e+00,1.935677170753479004e+00,1.904676675796508789e+00,1.874653697013854980e+00,1.845562219619750977e+00
2.255264520645141602e+00,2.255003929138183594e+00,2.254743576049804688e+00,2.254482984542846680e+00,2.254222631454467773e+00,2.253962516784667969e+00,2.253702163696289062e+00,2.253442049026489258e+00,2.253181934356689453e+00,2.252921819686889648e+00,2.252661943435668945e+00,2.252401828765869141e+00,2.252141952514648438e+00,2.251882076263427734e+00,2.251622438430786133e+00,2.251362562179565430e+00,2.251102924346923828e+00,2.250843524932861328e+00,2.250583887100219727e+00,2.250324487686157227e+00,2.250065088272094727e+00,2.249805688858032227e+00,2.249546527862548828e+00,2.249287843704223633e+00,2.249029874801635742e+00,2.248772144317626953e+00,2.248514413833618164e+00,2.248256683349609375e+00,2.247999191284179688e+00,2.247741699218750000e+00,2.247483968734741211e+00,2.247226715087890625e+00,2.246969223022460938e+00,2.246711969375610352e+00,2.246454715728759766e+00,2.246197462081909180e+00,2.245940208435058594e+00,2.245683193206787109e+00,2.245426177978515625e+00,2.245169162750244141e+00,2.244912385940551758e+00,2.244655609130859375e+00,2.244398593902587891e+00,2.244141817092895508e+00,2.243885278701782227e+00,1.561883211135864258e+00,1.555788755416870117e+00,1.555275678634643555e+00,2.242859125137329102e+00,2.242602825164794922e+00,2.242346286773681641e+00,2.242090225219726562e+00,2.241833925247192383e+00,2.241577625274658203e+00,2.241321802139282227e+00,2.241065740585327148e+00,2.240809679031372070e+00,2.240553855895996094e+00,2.240298032760620117e+00,2.240041971206665039e+00,2.239786386489868164e+00,2.239530801773071289e+00,2.239274978637695312e+00,2.239019632339477539e+00,2.238764047622680664e+00,2.238508462905883789e+00,2.238253116607666016e+00,2.237998008728027344e+00,2.225476980209350586e+00,2.184597253799438477e+00,2.145192146301269531e+00,2.107183456420898438e+00,2.070498228073120117e+00,2.035068511962890625e+00,2.000831127166748047e+00,1.967726349830627441e+00,1.935699343681335449e+00,1.904698133468627930e+00,1.874674201011657715e+00,1.845582365989685059e+00
1.988233566284179688e+00,1.988031148910522461e+00,1.987828612327575684e+00,1.987626314163208008e+00,1.987423777580261230e+00,1.987221598625183105e+00,1.987019181251525879e+00,1.986816883087158203e+00,1.986614704132080078e+00,1.986412525177001953e+00,1.986210465431213379e+00,1.986008286476135254e+00,1.985806345939636230e+00,1.985604286193847656e+00,1.985402345657348633e+00,1.985200405120849609e+00,1.984998583793640137e+00,1.984796643257141113e+00,1.984594941139221191e+00,1.984393119812011719e+00,1.984191298484802246e+00,1.983989715576171875e+00,1.983787894248962402e+00,1.983586430549621582e+00,1.983384847640991211e+00,1.983183383941650391e+00,1.982981801033020020e+00,1.982780575752258301e+00,1.982578992843627930e+00,1.982377767562866211e+00,1.982176423072814941e+00,1.981975197792053223e+00,1.981773853302001953e+00,1.981572866439819336e+00,1.981371641159057617e+00,1.981170415878295898e+00,1.980969429016113281e+00,1.980768322944641113e+00,1.980567455291748047e+00,1.980366349220275879e+00,1.980165600776672363e+00,1.979964613914489746e+00,1.979763865470886230e+00,1.979562997817993164e+00,1.979362368583679199e+00,1.544031500816345215e+00,1.530694961547851562e+00,1.526243686676025391e+00,1.527013778686523438e+00,1.978359222412109375e+00,1.978158593177795410e+00,1.977958321571350098e+00,1.977757692337036133e+00,1.977557420730590820e+00,1.977357029914855957e+00,1.977156877517700195e+00,1.976956486701965332e+00,1.976756453514099121e+00,1.976556181907653809e+00,1.976356148719787598e+00,1.976155877113342285e+00,1.975955724716186523e+00,1.975755810737609863e+00,1.975555777549743652e+00,1.975355982780456543e+00,1.975155949592590332e+00,1.974956274032592773e+00,1.974756360054016113e+00,1.974556684494018555e+00,1.974356889724731445e+00,1.974157214164733887e+00,1.973957538604736328e+00,1.973757982254028320e+00,1.973558306694030762e+00,1.973358750343322754e+00,1.967749118804931641e+00,1.935721158981323242e+00,1.904719471931457520e+00,1.874694943428039551e+00,1.845602273941040039e+00
1.777742862701416016e+00,1.777580976486206055e+00,1.777418971061706543e+00,1.777257204055786133e+00,1.777095317840576172e+00,1.776933670043945312e+00,1.776771783828735352e+00,1.776610255241394043e+00,1.776448488235473633e+00,1.776286840438842773e+00,1.776125192642211914e+00,1.775963664054870605e+00,1.775802016258239746e+00,1.775640606880187988e+00,1.775478959083557129e+00,1.775317549705505371e+00,1.775156021118164062e+00,1.774994492530822754e+00,1.774833202362060547e+00,1.774671792984008789e+00,1.774510502815246582e+00,1.774349093437194824e+00,1.774187922477722168e+00,1.774026632308959961e+00,1.773865461349487305e+00,1.773704171180725098e+00,1.773543119430541992e+00,1.773381948471069336e+00,1.773220896720886230e+00,1.773059725761413574e+00,1.772898554801940918e+00,1.772737741470336914e+00,1.772576570510864258e+00,1.772415757179260254e+00,1.772254705429077148e+00,1.772093892097473145e+00,1.771932959556579590e+00,1.771772265434265137e+00,1.771611332893371582e+00,1.771450638771057129e+00,1.771289825439453125e+00,1.771129131317138672e+00,1.770968437194824219e+00,1.770807623863220215e+00,1.770647048950195312e+00,1.770486354827880859e+00,1.653286814689636230e+00,1.609448671340942383e+00,1.509624361991882324e+00,1.658840537071228027e+00,1.769683957099914551e+00,1.769523382186889648e+00,1.769363045692443848e+00,1.769202589988708496e+00,1.769042372703552246e+00,1.768881916999816895e+00,1.768721580505371094e+00,1.768561363220214844e+00,1.768401145935058594e+00,1.768241047859191895e+00,1.768080711364746094e+00,1.767920732498168945e+00,1.767760515213012695e+00,1.767600536346435547e+00,1.767440319061279297e+00,1.767280459403991699e+00,1.767120361328125000e+00,1.766960501670837402e+00,1.766800403594970703e+00,1.766640424728393555e+00,1.766480684280395508e+00,1.766320705413818359e+00,1.766160964965820312e+00,1.766001105308532715e+00,1.765841484069824219e+00,1.765681624412536621e+00,1.765522003173828125e+00,1.765362262725830078e+00,1.765202760696411133e+00,1.765043020248413086e+00
1.607553958892822266e+00,1.607421517372131348e+00,1.607289195060729980e+00,1.607156872749328613e+00,1.607024550437927246e+00,1.606892228126525879e+00,1.606760025024414062e+00,1.606627702713012695e+00,1.606495499610900879e+00,1.606363296508789062e+00,1.606231212615966797e+00,1.606098890304565430e+00,1.605966687202453613e+00,1.605834722518920898e+00,1.605702519416809082e+00,1.605570554733276367e+00,1.605438351631164551e+00,1.605306386947631836e+00,1.605174303054809570e+00,1.605042457580566406e+00,1.604910373687744141e+00,1.604778528213500977e+00,1.604646563529968262e+00,1.604514718055725098e+00,1.604382753372192383e+00,1.604250788688659668e+00,1.604119062423706055e+00,1.603987097740173340e+00,1.603855371475219727e+00,1.603723526000976562e+00,1.603591918945312500e+00,1.603460073471069336e+00,1.603328466415405273e+00,1.603196740150451660e+00,1.603065133094787598e+00,1.602933406829833984e+00,1.602801799774169922e+00,1.602670192718505859e+00,1.602538585662841797e+00,1.602407097816467285e+00,1.602275490760803223e+00,1.602144002914428711e+00,1.602012395858764648e+00,1.601881027221679688e+00,1.601749539375305176e+00,1.601618170738220215e+00,1.601486682891845703e+00,1.601355433464050293e+00,1.601223945617675781e+00,1.601092696189880371e+00,1.600961327552795410e+00,1.600829958915710449e+00,1.600698709487915039e+00,1.600567460060119629e+00,1.600436210632324219e+00,1.600304961204528809e+00,1.600173830986022949e+00,1.600042581558227539e+00,1.599911451339721680e+00,1.599780321121215820e+00,1.599649310111999512e+00,1.599518179893493652e+00,1.599387168884277344e+00,1.599256038665771484e+00,1.599124908447265625e+00,1.598994016647338867e+00,1.598863005638122559e+00,1.598732113838195801e+00,1.598601102828979492e+00,1.598470211029052734e+00,1.598339319229125977e+00,1.598208546638488770e+00,1.598077535629272461e+00,1.597946882247924805e+00,1.597815990447998047e+00,1.597685217857360840e+00,1.597554445266723633e+00,1.597423672676086426e+00,1.597293019294738770e+00,1.597162246704101562e+00
1.467103481292724609e+00,1.466993331909179688e+00,1.466883063316345215e+00,1.466772794723510742e+00,1.466662526130676270e+00,1.466552495956420898e+00,1.466442227363586426e+00,1.466331958770751953e+00,1.466221928596496582e+00,1.466111660003662109e+00,1.466001629829406738e+00,1.465891480445861816e+00,1.465781450271606445e+00,1.465671300888061523e+00,1.465561389923095703e+00,1.465451240539550781e+00,1.465341329574584961e+00,1.465231299400329590e+00,1.465121388435363770e+00,1.465011358261108398e+00,1.464901328086853027e+00,1.464791417121887207e+00,1.464681506156921387e+00,1.464571595191955566e+00,1.464461684226989746e+00,1.464351892471313477e+00,1.464241981506347656e+00,1.464132189750671387e+00,1.464022397994995117e+00,1.463912606239318848e+00,1.463802814483642578e+00,1.463693022727966309e+00,1.463583230972290039e+00,1.463473439216613770e+00,1.463363766670227051e+00,1.463254094123840332e+00,1.463144421577453613e+00,1.463034749031066895e+00,1.462925076484680176e+00,1.462815403938293457e+00,1.462705850601196289e+00,1.462596178054809570e+00,1.462486743927001953e+00,1.462377071380615234e+00,1.462267637252807617e+00,1.462157964706420898e+00,1.462048411369323730e+00,1.461938977241516113e+00,1.461829423904418945e+00,1.461719989776611328e+00,1.461610555648803711e+00,1.461501121520996094e+00,1.461391687393188477e+00,1.461282372474670410e+00,1.461172819137573242e+00,1.461063623428344727e+00,1.460954189300537109e+00,1.460844874382019043e+00,1.460735559463500977e+00,1.460626125335693359e+00,1.460516929626464844e+00,1.460407614707946777e+00,1.460298418998718262e+00,1.460189104080200195e+00,1.460079908370971680e+00,1.459970712661743164e+00,1.459861516952514648e+00,1.459752321243286133e+00,1.459643244743347168e+00,1.459534049034118652e+00,1.459424972534179688e+00,1.459315776824951172e+00,1.459206581115722656e+00,1.459097623825073242e+00,1.458988428115844727e+00,1.458879470825195312e+00,1.458770394325256348e+00,1.458661437034606934e+00,1.458552360534667969e+00,1.458443522453308105e+00
1.349223256111145020e+00,1.349129915237426758e+00,1.349036693572998047e+00,1.348943471908569336e+00,1.348850250244140625e+00,1.348757028579711914e+00,1.348663806915283203e+00,1.348570704460144043e+00,1.348477482795715332e+00,1.348384380340576172e+00,1.348291158676147461e+00,1.348198056221008301e+00,1.348104953765869141e+00,1.348011851310729980e+00,1.347918748855590820e+00,1.347825646400451660e+00,1.347732663154602051e+00,1.347639560699462891e+00,1.347546577453613281e+00,1.347453474998474121e+00,1.347360610961914062e+00,1.347267508506774902e+00,1.347174525260925293e+00,1.347081542015075684e+00,1.346988677978515625e+00,1.346895694732666016e+00,1.346802830696105957e+00,1.346709847450256348e+00,1.346616864204406738e+00,1.346524000167846680e+00,1.346431016921997070e+00,1.346338272094726562e+00,1.346245408058166504e+00,1.346152544021606445e+00,1.346059679985046387e+00,1.345966935157775879e+00,1.345874071121215820e+00,1.345781326293945312e+00,1.345688462257385254e+00,1.345595836639404297e+00,1.345502972602844238e+00,1.345410227775573730e+00,1.345317482948303223e+00,1.345224738121032715e+00,1.345132112503051758e+00,1.345039367675781250e+00,1.344946742057800293e+00,1.344853997230529785e+00,1.344761371612548828e+00,1.344668745994567871e+00,1.344576120376586914e+00,1.344483494758605957e+00,1.344390988349914551e+00,1.344298243522644043e+00,1.344205617904663086e+00,1.344113111495971680e+00,1.344020605087280273e+00,1.343928098678588867e+00,1.343835473060607910e+00,1.343743085861206055e+00,1.343650460243225098e+00,1.343558073043823242e+00,1.343465566635131836e+00,1.343373179435729980e+00,1.343280673027038574e+00,1.343188285827636719e+00,1.343095779418945312e+00,1.343003273010253906e+00,1.342911005020141602e+00,1.342818498611450195e+00,1.342726230621337891e+00,1.342633843421936035e+00,1.342541456222534180e+00,1.342449069023132324e+00,1.342356801033020020e+00,1.342264533042907715e+00,1.342172265052795410e+00,1.342079877853393555e+00,1.341987729072570801e+00,1.341895341873168945e+00
1.248877167701721191e+00,1.248797178268432617e+00,1.248717427253723145e+00,1.248637437820434570e+00,1.248557686805725098e+00,1.248477697372436523e+00,1.248397946357727051e+00,1.248318076133728027e+00,1.248238325119018555e+00,1.248158454895019531e+00,1.248078584671020508e+00,1.247998833656311035e+00,1.247918963432312012e+00,1.247839212417602539e+00,1.247759461402893066e+00,1.247679710388183594e+00,1.247599959373474121e+00,1.247520208358764648e+00,1.247440457344055176e+00,1.247360825538635254e+00,1.247281074523925781e+00,1.247201442718505859e+00,1.247121691703796387e+00,1.247041940689086914e+00,1.246962308883666992e+00,1.246882677078247070e+00,1.246803045272827148e+00,1.246723413467407227e+00,1.246643781661987305e+00,1.246564149856567383e+00,1.246484518051147461e+00,1.246404886245727539e+00,1.246325373649597168e+00,1.246245741844177246e+00,1.246166229248046875e+00,1.246086597442626953e+00,1.246007084846496582e+00,1.245927572250366211e+00,1.245848059654235840e+00,1.245768547058105469e+00,1.245689034461975098e+00,1.245609521865844727e+00,1.245530009269714355e+00,1.245450615882873535e+00,1.245371103286743164e+00,1.245291709899902344e+00,1.245212197303771973e+00,1.245132803916931152e+00,1.245053291320800781e+00,1.244973897933959961e+00,1.244894504547119141e+00,1.244815111160278320e+00,1.244735717773437500e+00,1.244656324386596680e+00,1.244577050209045410e+00,1.244497656822204590e+00,1.244418382644653320e+00,1.244338989257812500e+00,1.244259715080261230e+00,1.244180321693420410e+00,1.244101047515869141e+00,1.244021773338317871e+00,1.243942499160766602e+00,1.243863224983215332e+00,1.243783950805664062e+00,1.243704676628112793e+00,1.243625402450561523e+00,1.243546247482299805e+00,1.243466973304748535e+00,1.243387818336486816e+00,1.243308544158935547e+00,1.243229508399963379e+00,1.243150234222412109e+00,1.243071079254150391e+00,1.242991924285888672e+00,1.242912769317626953e+00,1.242833614349365234e+00,1.242754459381103516e+00,1.242675423622131348e+00,1.242596268653869629e+00
1.162423968315124512e+00,1.162354826927185059e+00,1.162285566329956055e+00,1.162216424942016602e+00,1.162147164344787598e+00,1.162077903747558594e+00,1.162008762359619141e+00,1.161939620971679688e+00,1.161870479583740234e+00,1.161801218986511230e+00,1.161732196807861328e+00,1.161662936210632324e+00,1.161593914031982422e+00,1.161524772644042969e+00,1.161455631256103516e+00,1.161386489868164062e+00,1.161317467689514160e+00,1.161248326301574707e+00,1.161179184913635254e+00,1.161110162734985352e+00,1.161041021347045898e+00,1.160971999168395996e+00,1.160902976989746094e+00,1.160833954811096191e+00,1.160764932632446289e+00,1.160695910453796387e+00,1.160626888275146484e+00,1.160557866096496582e+00,1.160488843917846680e+00,1.160419940948486328e+00,1.160350918769836426e+00,1.160281896591186523e+00,1.160212874412536621e+00,1.160143971443176270e+00,1.160075068473815918e+00,1.160006046295166016e+00,1.159937143325805664e+00,1.159868240356445312e+00,1.159799337387084961e+00,1.159730315208435059e+00,1.159661531448364258e+00,1.159592509269714355e+00,1.159523725509643555e+00,1.159454822540283203e+00,1.159385919570922852e+00,1.159317016601562500e+00,1.159248232841491699e+00,1.159179329872131348e+00,1.159110546112060547e+00,1.159041762351989746e+00,1.158972859382629395e+00,1.158904075622558594e+00,1.158835291862487793e+00,1.158766508102416992e+00,1.158697605133056641e+00,1.158628940582275391e+00,1.158560156822204590e+00,1.158491253852844238e+00,1.158422589302062988e+00,1.158353805541992188e+00,1.158285140991210938e+00,1.158216357231140137e+00,1.158147692680358887e+00,1.158078908920288086e+00,1.158010244369506836e+00,1.157941579818725586e+00,1.157872915267944336e+00,1.157804250717163086e+00,1.157735586166381836e+00,1.157666802406311035e+00,1.157598137855529785e+00,1.157529592514038086e+00,1.157460927963256836e+00,1.157392263412475586e+00,1.157323598861694336e+00,1.157255053520202637e+00,1.157186388969421387e+00,1.157117843627929688e+00,1.157049179077148438e+00,1.156980633735656738e+00
1.087165236473083496e+00,1.087104678153991699e+00,1.087044119834899902e+00,1.086983561515808105e+00,1.086923003196716309e+00,1.086862564086914062e+00,1.086802005767822266e+00,1.086741566658020020e+00,1.086681008338928223e+00,1.086620569229125977e+00,1.086560010910034180e+00,1.086499571800231934e+00,1.086439132690429688e+00,1.086378574371337891e+00,1.086318135261535645e+00,1.086257696151733398e+00,1.086197257041931152e+00,1.086136817932128906e+00,1.086076378822326660e+00,1.086015939712524414e+00,1.085955500602722168e+00,1.085895061492919922e+00,1.085834741592407227e+00,1.085774302482604980e+00,1.085713982582092285e+00,1.085653543472290039e+00,1.085593104362487793e+00,1.085532784461975098e+00,1.085472345352172852e+00,1.085412025451660156e+00,1.085351705551147461e+00,1.085291385650634766e+00,1.085230946540832520e+00,1.085170745849609375e+00,1.085110306739807129e+00,1.085050106048583984e+00,1.084989666938781738e+00,1.084929466247558594e+00,1.084869146347045898e+00,1.084808826446533203e+00,1.084748506546020508e+00,1.084688186645507812e+00,1.084627985954284668e+00,1.084567666053771973e+00,1.084507465362548828e+00,1.084447145462036133e+00,1.084386944770812988e+00,1.084326624870300293e+00,1.084266424179077148e+00,1.084206223487854004e+00,1.084146022796630859e+00,1.084085822105407715e+00,1.084025502204895020e+00,1.083965420722961426e+00,1.083905220031738281e+00,1.083845019340515137e+00,1.083784818649291992e+00,1.083724617958068848e+00,1.083664417266845703e+00,1.083604335784912109e+00,1.083544135093688965e+00,1.083484053611755371e+00,1.083423852920532227e+00,1.083363771438598633e+00,1.083303570747375488e+00,1.083243489265441895e+00,1.083183407783508301e+00,1.083123207092285156e+00,1.083063244819641113e+00,1.083003044128417969e+00,1.082942962646484375e+00,1.082882881164550781e+00,1.082822918891906738e+00,1.082762718200683594e+00,1.082702755928039551e+00,1.082642674446105957e+00,1.082582592964172363e+00,1.082522630691528320e+00,1.082462549209594727e+00,1.082402467727661133e+00
1.021058917045593262e+00,1.021005511283874512e+00,1.020952105522155762e+00,1.020898699760437012e+00,1.020845293998718262e+00,1.020791888236999512e+00,1.020738601684570312e+00,1.020685195922851562e+00,1.020631790161132812e+00,1.020578384399414062e+00,1.020524978637695312e+00,1.020471692085266113e+00,1.020418286323547363e+00,1.020364999771118164e+00,1.020311594009399414e+00,1.020258307456970215e+00,1.020205020904541016e+00,1.020151734352111816e+00,1.020098328590393066e+00,1.020045042037963867e+00,1.019991755485534668e+00,1.019938468933105469e+00,1.019885182380676270e+00,1.019831895828247070e+00,1.019778609275817871e+00,1.019725322723388672e+00,1.019672036170959473e+00,1.019618749618530273e+00,1.019565582275390625e+00,1.019512295722961426e+00,1.019459009170532227e+00,1.019405722618103027e+00,1.019352555274963379e+00,1.019299268722534180e+00,1.019246101379394531e+00,1.019192934036254883e+00,1.019139647483825684e+00,1.019086480140686035e+00,1.019033193588256836e+00,1.018980026245117188e+00,1.018926858901977539e+00,1.018873691558837891e+00,1.018820524215698242e+00,1.018767356872558594e+00,1.018714189529418945e+00,1.018661022186279297e+00,1.018607854843139648e+00,1.018554687500000000e+00,1.018501520156860352e+00,1.018448352813720703e+00,1.018395185470581055e+00,1.018342137336730957e+00,1.018288969993591309e+00,1.018235802650451660e+00,1.018182754516601562e+00,1.018129587173461914e+00,1.018076539039611816e+00,1.018023371696472168e+00,1.017970323562622070e+00,1.017917275428771973e+00,1.017864108085632324e+00,1.017811059951782227e+00,1.017758011817932129e+00,1.017704963684082031e+00,1.017651915550231934e+00,1.017598867416381836e+00,1.017545819282531738e+00,1.017492771148681641e+00,1.017439723014831543e+00,1.017386674880981445e+00,1.017333626747131348e+00,1.017280697822570801e+00,1.017227649688720703e+00,1.017174601554870605e+00,1.017121553421020508e+00,1.017068624496459961e+00,1.017015576362609863e+00,1.016962647438049316e+00,1.016909599304199219e+00,1.016856670379638672e+00
9.625311493873596191e-01,9.624836444854736328e-01,9.624361991882324219e-01,9.623886942863464355e-01,9.623413085937500000e-01,9.622938632965087891e-01,9.622463583946228027e-01,9.621989130973815918e-01,9.621515870094299316e-01,9.621041417121887207e-01,9.620566964149475098e-01,9.620092511177062988e-01,9.619619250297546387e-01,9.619144797325134277e-01,9.618670344352722168e-01,9.618196487426757812e-01,9.617722034454345703e-01,9.617249369621276855e-01,9.616774916648864746e-01,9.616301059722900391e-01,9.615827202796936035e-01,9.615354537963867188e-01,9.614880681037902832e-01,9.614406824111938477e-01,9.613932967185974121e-01,9.613460302352905273e-01,9.612986445426940918e-01,9.612512588500976562e-01,9.612039327621459961e-01,9.611565470695495605e-01,9.611092805862426758e-01,9.610619544982910156e-01,9.610146284103393555e-01,9.609673023223876953e-01,9.609200358390808105e-01,9.608727097511291504e-01,9.608253836631774902e-01,9.607780575752258301e-01,9.607308506965637207e-01,9.606835842132568359e-01,9.606362581253051758e-01,9.605889916419982910e-01,9.605416655540466309e-01,9.604944586753845215e-01,9.604471921920776367e-01,9.603999257087707520e-01,9.603526592254638672e-01,9.603054523468017578e-01,9.602581858634948730e-01,9.602109193801879883e-01,9.601636528968811035e-01,9.601165056228637695e-01,9.600692987442016602e-01,9.600220322608947754e-01,9.599747657775878906e-01,9.599275588989257812e-01,9.598804116249084473e-01,9.598332047462463379e-01,9.597859978675842285e-01,9.597387909889221191e-01,9.596916437149047852e-01,9.596444368362426758e-01,9.595972299575805664e-01,9.595500230789184570e-01,9.595029354095458984e-01,9.594557881355285645e-01,9.594085812568664551e-01,9.593613743782043457e-01,9.593142271041870117e-01,9.592671394348144531e-01,9.592199921607971191e-01,9.591728448867797852e-01,9.591256976127624512e-01,9.590786099433898926e-01,9.590314626693725586e-01,9.589843153953552246e-01,9.589372277259826660e-01,9.588901996612548828e-01,9.588430523872375488e-01,9.587959051132202148e-01
9.103492498397827148e-01,9.103067517280578613e-01,9.102643132209777832e-01,9.102219343185424805e-01,9.101794362068176270e-01,9.101369976997375488e-01,9.100945591926574707e-01,9.100521802902221680e-01,9.100097417831420898e-01,9.099673032760620117e-01,9.099248647689819336e-01,9.098824262619018555e-01,9.098400473594665527e-01,9.097976088523864746e-01,9.097552299499511719e-01,9.097127914428710938e-01,9.096704721450805664e-01,9.096280336380004883e-01,9.095856547355651855e-01,9.095432162284851074e-01,9.095008969306945801e-01,9.094585180282592773e-01,9.094161391258239746e-01,9.093737006187438965e-01,9.093313217163085938e-01,9.092890620231628418e-01,9.092466831207275391e-01,9.092043042182922363e-01,9.091619253158569336e-01,9.091196656227111816e-01,9.090772867202758789e-01,9.090349078178405762e-01,9.089925885200500488e-01,9.089503288269042969e-01,9.089079499244689941e-01,9.088656306266784668e-01,9.088233113288879395e-01,9.087809324264526367e-01,9.087387323379516602e-01,9.086964130401611328e-01,9.086540937423706055e-01,9.086117148399353027e-01,9.085695147514343262e-01,9.085271954536437988e-01,9.084849357604980469e-01,9.084426164627075195e-01,9.084004163742065430e-01,9.083580970764160156e-01,9.083157777786254883e-01,9.082735180854797363e-01,9.082312583923339844e-01,9.081890583038330078e-01,9.081467986106872559e-01,9.081044793128967285e-01,9.080622196197509766e-01,9.080200791358947754e-01,9.079778194427490234e-01,9.079355597496032715e-01,9.078933000564575195e-01,9.078511595726013184e-01,9.078088998794555664e-01,9.077666401863098145e-01,9.077243804931640625e-01,9.076821804046630859e-01,9.076400399208068848e-01,9.075978398323059082e-01,9.075555801391601562e-01,9.075133800506591797e-01,9.074712395668029785e-01,9.074290394783020020e-01,9.073868393898010254e-01,9.073446393013000488e-01,9.073025584220886230e-01,9.072603583335876465e-01,9.072181582450866699e-01,9.071759581565856934e-01,9.071338176727294922e-01,9.070917367935180664e-01,9.070495367050170898e-01,9.070073366165161133e-01
8.635343313217163086e-01,8.634960651397705078e-01,8.634579777717590332e-01,8.634197115898132324e-01,8.633815050125122070e-01,8.633432984352111816e-01,8.633050918579101562e-01,8.632670044898986816e-01,8.632287979125976562e-01,8.631905913352966309e-01,8.631523847579956055e-01,8.631142973899841309e-01,8.630761504173278809e-01,8.630379438400268555e-01,8.629997372627258301e-01,8.629616498947143555e-01,8.629235029220581055e-01,8.628853559494018555e-01,8.628471493721008301e-01,8.628090023994445801e-01,8.627709150314331055e-01,8.627327680587768555e-01,8.626946210861206055e-01,8.626564741134643555e-01,8.626184463500976562e-01,8.625802993774414062e-01,8.625421524047851562e-01,8.625040054321289062e-01,8.624659776687622070e-01,8.624278306961059570e-01,8.623897433280944824e-01,8.623515963554382324e-01,8.623135089874267578e-01,8.622754812240600586e-01,8.622373342514038086e-01,8.621992468833923340e-01,8.621611595153808594e-01,8.621231317520141602e-01,8.620850443840026855e-01,8.620468974113464355e-01,8.620088100433349609e-01,8.619708418846130371e-01,8.619327545166015625e-01,8.618946671485900879e-01,8.618565797805786133e-01,8.618184924125671387e-01,8.617805242538452148e-01,8.617424964904785156e-01,8.617044091224670410e-01,8.616663217544555664e-01,8.616283535957336426e-01,8.615903258323669434e-01,8.615522980690002441e-01,8.615142107009887695e-01,8.614762425422668457e-01,8.614382147789001465e-01,8.614001870155334473e-01,8.613621592521667480e-01,8.613241314888000488e-01,8.612861633300781250e-01,8.612481355667114258e-01,8.612101674079895020e-01,8.611721396446228027e-01,8.611342310905456543e-01,8.610962033271789551e-01,8.610581755638122559e-01,8.610202074050903320e-01,8.609822392463684082e-01,8.609442710876464844e-01,8.609063029289245605e-01,8.608682751655578613e-01,8.608303070068359375e-01,8.607923984527587891e-01,8.607544302940368652e-01,8.607164621353149414e-01,8.606784939765930176e-01,8.606405854225158691e-01,8.606026172637939453e-01,8.605646491050720215e-01,8.605266809463500977e-01
8.212987780570983887e-01,8.212642073631286621e-01,8.212297558784484863e-01,8.211951851844787598e-01,8.211606144905090332e-01,8.211260437965393066e-01,8.210915327072143555e-01,8.210570216178894043e-01,8.210224509239196777e-01,8.209878802299499512e-01,8.209534287452697754e-01,8.209188580513000488e-01,8.208843469619750977e-01,8.208497762680053711e-01,8.208152651786804199e-01,8.207808136940002441e-01,8.207463026046752930e-01,8.207117319107055664e-01,8.206772208213806152e-01,8.206427693367004395e-01,8.206082582473754883e-01,8.205737471580505371e-01,8.205392360687255859e-01,8.205047845840454102e-01,8.204702734947204590e-01,8.204358220100402832e-01,8.204013109207153320e-01,8.203667998313903809e-01,8.203324079513549805e-01,8.202978968620300293e-01,8.202633857727050781e-01,8.202289342880249023e-01,8.201944828033447266e-01,8.201600313186645508e-01,8.201255202293395996e-01,8.200910687446594238e-01,8.200566768646240234e-01,8.200222253799438477e-01,8.199877142906188965e-01,8.199532628059387207e-01,8.199188113212585449e-01,8.198844194412231445e-01,8.198499679565429688e-01,8.198155164718627930e-01,8.197810649871826172e-01,8.197466731071472168e-01,8.197122812271118164e-01,8.196778297424316406e-01,8.196433782577514648e-01,8.196090459823608398e-01,8.195745944976806641e-01,8.195401430130004883e-01,8.195057511329650879e-01,8.194712996482849121e-01,8.194369673728942871e-01,8.194025158882141113e-01,8.193681240081787109e-01,8.193337321281433105e-01,8.192993998527526855e-01,8.192650079727172852e-01,8.192305564880371094e-01,8.191961646080017090e-01,8.191618323326110840e-01,8.191274404525756836e-01,8.190930485725402832e-01,8.190586566925048828e-01,8.190242648124694824e-01,8.189899921417236328e-01,8.189556002616882324e-01,8.189212083816528320e-01,8.188868761062622070e-01,8.188525438308715820e-01,8.188182115554809570e-01,8.187838196754455566e-01,8.187494874000549316e-01,8.187151551246643066e-01,8.186808228492736816e-01,8.186464905738830566e-01,8.186120986938476562e-01,8.185778260231018066e-01
7.830021381378173828e-01,7.829707860946655273e-01,7.829393744468688965e-01,7.829079627990722656e-01,7.828765511512756348e-01,7.828451991081237793e-01,7.828137874603271484e-01,7.827823758125305176e-01,7.827509641647338867e-01,7.827195525169372559e-01,7.826882004737854004e-01,7.826567888259887695e-01,7.826254367828369141e-01,7.825940251350402832e-01,7.825626730918884277e-01,7.825313210487365723e-01,7.824999094009399414e-01,7.824685573577880859e-01,7.824372053146362305e-01,7.824058532714843750e-01,7.823744416236877441e-01,7.823430895805358887e-01,7.823117375373840332e-01,7.822804450988769531e-01,7.822490334510803223e-01,7.822176814079284668e-01,7.821863293647766113e-01,7.821550369262695312e-01,7.821236848831176758e-01,7.820923328399658203e-01,7.820609807968139648e-01,7.820296883583068848e-01,7.819983363151550293e-01,7.819669842720031738e-01,7.819356322288513184e-01,7.819042801856994629e-01,7.818730473518371582e-01,7.818416953086853027e-01,7.818104028701782227e-01,7.817790508270263672e-01,7.817478179931640625e-01,7.817164659500122070e-01,7.816851139068603516e-01,7.816538214683532715e-01,7.816225886344909668e-01,7.815912365913391113e-01,7.815599441528320312e-01,7.815286517143249512e-01,7.814972996711730957e-01,7.814660668373107910e-01,7.814347743988037109e-01,7.814034819602966309e-01,7.813721895217895508e-01,7.813409566879272461e-01,7.813096642494201660e-01,7.812783718109130859e-01,7.812470793724060059e-01,7.812159061431884766e-01,7.811846137046813965e-01,7.811533212661743164e-01,7.811220288276672363e-01,7.810908555984497070e-01,7.810595631599426270e-01,7.810282707214355469e-01,7.809970378875732422e-01,7.809657454490661621e-01,7.809345722198486328e-01,7.809033393859863281e-01,7.808720469474792480e-01,7.808408141136169434e-01,7.808096408843994141e-01,7.807783484458923340e-01,7.807471156120300293e-01,7.807158827781677246e-01,7.806846499443054199e-01,7.806534767150878906e-01,7.806222438812255859e-01,7.805910110473632812e-01,7.805597782135009766e-01,7.805286049842834473e-01
7.481179237365722656e-01,7.480892539024353027e-01,7.480605244636535645e-01,7.480318546295166016e-01,7.480031847953796387e-01,7.479745745658874512e-01,7.479459047317504883e-01,7.479172348976135254e-01,7.478885650634765625e-01,7.478599548339843750e-01,7.478312849998474121e-01,7.478026151657104492e-01,7.477739453315734863e-01,7.477453351020812988e-01,7.477166652679443359e-01,7.476880550384521484e-01,7.476593852043151855e-01,7.476307153701782227e-01,7.476021647453308105e-01,7.475734949111938477e-01,7.475448250770568848e-01,7.475162148475646973e-01,7.474876046180725098e-01,7.474589943885803223e-01,7.474303245544433594e-01,7.474017143249511719e-01,7.473731637001037598e-01,7.473444938659667969e-01,7.473158836364746094e-01,7.472872734069824219e-01,7.472586035728454590e-01,7.472300529479980469e-01,7.472014427185058594e-01,7.471728324890136719e-01,7.471442222595214844e-01,7.471156716346740723e-01,7.470870614051818848e-01,7.470584511756896973e-01,7.470298409461975098e-01,7.470012903213500977e-01,7.469726800918579102e-01,7.469441294670104980e-01,7.469155192375183105e-01,7.468869686126708984e-01,7.468583583831787109e-01,7.468298077583312988e-01,7.468011975288391113e-01,7.467725872993469238e-01,7.467440962791442871e-01,7.467154860496520996e-01,7.466869354248046875e-01,7.466583251953125000e-01,7.466298341751098633e-01,7.466012835502624512e-01,7.465726733207702637e-01,7.465441226959228516e-01,7.465155720710754395e-01,7.464870810508728027e-01,7.464584708213806152e-01,7.464299201965332031e-01,7.464013695716857910e-01,7.463728785514831543e-01,7.463443279266357422e-01,7.463157773017883301e-01,7.462872266769409180e-01,7.462587356567382812e-01,7.462301850318908691e-01,7.462016344070434570e-01,7.461731433868408203e-01,7.461446523666381836e-01,7.461161017417907715e-01,7.460875511169433594e-01,7.460590600967407227e-01,7.460305094718933105e-01,7.460020184516906738e-01,7.459735274314880371e-01,7.459449768066406250e-01,7.459164857864379883e-01,7.458879947662353516e-01,7.458595037460327148e-01
7.162093520164489746e-01,7.161830663681030273e-01,7.161567807197570801e-01,7.161304950714111328e-01,7.161042690277099609e-01,7.160779833793640137e-01,7.160516977310180664e-01,7.160254120826721191e-01,7.159991860389709473e-01,7.159729599952697754e-01,7.159466743469238281e-01,7.159203886985778809e-01,7.158941030502319336e-01,7.158678770065307617e-01,7.158416509628295898e-01,7.158153653144836426e-01,7.157890796661376953e-01,7.157629132270812988e-01,7.157366275787353516e-01,7.157104015350341797e-01,7.156841158866882324e-01,7.156579494476318359e-01,7.156316637992858887e-01,7.156054377555847168e-01,7.155791521072387695e-01,7.155529260635375977e-01,7.155267596244812012e-01,7.155005335807800293e-01,7.154742479324340820e-01,7.154480218887329102e-01,7.154218554496765137e-01,7.153956294059753418e-01,7.153694033622741699e-01,7.153431773185729980e-01,7.153170108795166016e-01,7.152907252311706543e-01,7.152645587921142578e-01,7.152383327484130859e-01,7.152121067047119141e-01,7.151859402656555176e-01,7.151597142219543457e-01,7.151334881782531738e-01,7.151072621345520020e-01,7.150811553001403809e-01,7.150549292564392090e-01,7.150287032127380371e-01,7.150024771690368652e-01,7.149763703346252441e-01,7.149501442909240723e-01,7.149239778518676758e-01,7.148977518081665039e-01,7.148716449737548828e-01,7.148454189300537109e-01,7.148192524909973145e-01,7.147930264472961426e-01,7.147668600082397461e-01,7.147407531738281250e-01,7.147145271301269531e-01,7.146883606910705566e-01,7.146621942520141602e-01,7.146360874176025391e-01,7.146098613739013672e-01,7.145836949348449707e-01,7.145575284957885742e-01,7.145314216613769531e-01,7.145052552223205566e-01,7.144790887832641602e-01,7.144529223442077637e-01,7.144267559051513672e-01,7.144006490707397461e-01,7.143744826316833496e-01,7.143483161926269531e-01,7.143221497535705566e-01,7.142961025238037109e-01,7.142699360847473145e-01,7.142437696456909180e-01,7.142176032066345215e-01,7.141915559768676758e-01,7.141653895378112793e-01,7.141392827033996582e-01
6.869114041328430176e-01,6.868872046470642090e-01,6.868630647659301758e-01,6.868389248847961426e-01,6.868147253990173340e-01,6.867905259132385254e-01,6.867663860321044922e-01,6.867421865463256836e-01,6.867181062698364258e-01,6.866939067840576172e-01,6.866697072982788086e-01,6.866455674171447754e-01,6.866214275360107422e-01,6.865972876548767090e-01,6.865731477737426758e-01,6.865489482879638672e-01,6.865248680114746094e-01,6.865007281303405762e-01,6.864765286445617676e-01,6.864523887634277344e-01,6.864282488822937012e-01,6.864041090011596680e-01,6.863799691200256348e-01,6.863558292388916016e-01,6.863316893577575684e-01,6.863076090812683105e-01,6.862834692001342773e-01,6.862593293190002441e-01,6.862351894378662109e-01,6.862111091613769531e-01,6.861869692802429199e-01,6.861628293991088867e-01,6.861386895179748535e-01,6.861146092414855957e-01,6.860904693603515625e-01,6.860663294792175293e-01,6.860422492027282715e-01,6.860181093215942383e-01,6.859940290451049805e-01,6.859698891639709473e-01,6.859458088874816895e-01,6.859216690063476562e-01,6.858975887298583984e-01,6.858735084533691406e-01,6.858493685722351074e-01,6.858252882957458496e-01,6.858012080192565918e-01,6.857771277427673340e-01,6.857529878616333008e-01,6.857289075851440430e-01,6.857048273086547852e-01,6.856807470321655273e-01,6.856566667556762695e-01,6.856325864791870117e-01,6.856084465980529785e-01,6.855844259262084961e-01,6.855603456497192383e-01,6.855362653732299805e-01,6.855121254920959473e-01,6.854881048202514648e-01,6.854640245437622070e-01,6.854399442672729492e-01,6.854158639907836914e-01,6.853917837142944336e-01,6.853677630424499512e-01,6.853436827659606934e-01,6.853196024894714355e-01,6.852955222129821777e-01,6.852715015411376953e-01,6.852474212646484375e-01,6.852234005928039551e-01,6.851993203163146973e-01,6.851752996444702148e-01,6.851512193679809570e-01,6.851271986961364746e-01,6.851031184196472168e-01,6.850790381431579590e-01,6.850550770759582520e-01,6.850309967994689941e-01,6.850069761276245117e-01
6.599162220954895020e-01,6.598938703536987305e-01,6.598715782165527344e-01,6.598492860794067383e-01,6.598269939422607422e-01,6.598046422004699707e-01,6.597823500633239746e-01,6.597601175308227539e-01,6.597377657890319824e-01,6.597154736518859863e-01,6.596931815147399902e-01,6.596708893775939941e-01,6.596485972404479980e-01,6.596263051033020020e-01,6.596040129661560059e-01,6.595817208290100098e-01,6.595594286918640137e-01,6.595371365547180176e-01,6.595148444175720215e-01,6.594925522804260254e-01,6.594703197479248047e-01,6.594480276107788086e-01,6.594257354736328125e-01,6.594034433364868164e-01,6.593812108039855957e-01,6.593589186668395996e-01,6.593366265296936035e-01,6.593143343925476074e-01,6.592921018600463867e-01,6.592698693275451660e-01,6.592475771903991699e-01,6.592252850532531738e-01,6.592029929161071777e-01,6.591808199882507324e-01,6.591585278511047363e-01,6.591362357139587402e-01,6.591140031814575195e-01,6.590917706489562988e-01,6.590694785118103027e-01,6.590472459793090820e-01,6.590249538421630859e-01,6.590027809143066406e-01,6.589804887771606445e-01,6.589582562446594238e-01,6.589359641075134277e-01,6.589137315750122070e-01,6.588914990425109863e-01,6.588692665100097656e-01,6.588470339775085449e-01,6.588247418403625488e-01,6.588025689125061035e-01,6.587803363800048828e-01,6.587581038475036621e-01,6.587358117103576660e-01,6.587136387825012207e-01,6.586914062500000000e-01,6.586691737174987793e-01,6.586469411849975586e-01,6.586247086524963379e-01,6.586024761199951172e-01,6.585802435874938965e-01,6.585580110549926758e-01,6.585358381271362305e-01,6.585136055946350098e-01,6.584914326667785645e-01,6.584692001342773438e-01,6.584469676017761230e-01,6.584247946739196777e-01,6.584025621414184570e-01,6.583803296089172363e-01,6.583580970764160156e-01,6.583359241485595703e-01,6.583137512207031250e-01,6.582915186882019043e-01,6.582692861557006836e-01,6.582471132278442383e-01,6.582249402999877930e-01,6.582027077674865723e-01,6.581805348396301270e-01,6.581583023071289062e-01
