5.000000000000000000e+00,5.000000000000000000e+00,5.000000000000000000e+00,5.000000000000000000e+00,5.000000000000000000e+00,5.000000000000000000e+00,5.000000000000000000e+00,5.000000000000000000e+00,5.000000000000000000e+00,5.000000000000000000e+00,5.000000000000000000e+00,5.000000000000000000e+00,5.000000000000000000e+00,5.000000000000000000e+00,5.000000000000000000e+00,5.000000000000000000e+00,5.000000000000000000e+00,5.000000000000000000e+00,5.000000000000000000e+00,5.000000000000000000e+00,5.000000000000000000e+00,5.000000000000000000e+00,5.000000000000000000e+00,5.000000000000000000e+00,5.000000000000000000e+00,5.000000000000000000e+00,5.000000000000000000e+00,5.000000000000000000e+00,5.000000000000000000e+00,5.000000000000000000e+00,5.000000000000000000e+00,5.000000000000000000e+00,5.000000000000000000e+00,5.000000000000000000e+00,5.000000000000000000e+00,5.000000000000000000e+00,5.000000000000000000e+00,5.000000000000000000e+00,5.000000000000000000e+00,5.000000000000000000e+00,4.673887252807617188e+00,4.497128486633300781e+00,4.333252429962158203e+00,4.180899620056152344e+00,4.038896083831787109e+00,3.906222105026245117e+00,3.781987190246582031e+00,3.665411233901977539e+00,3.555806875228881836e+00,3.452567100524902344e+00,3.355152845382690430e+00,3.263085603713989258e+00,3.175935506820678711e+00,3.093319654464721680e+00,3.014892816543579102e+00,2.940345048904418945e+00,2.869394540786743164e+00,2.801787376403808594e+00,2.737292766571044922e+00,2.675700664520263672e+00,2.616819381713867188e+00,2.560473442077636719e+00,2.506503343582153320e+00,2.454761266708374023e+00,2.405112028121948242e+00,2.357431650161743164e+00,2.311604738235473633e+00,2.267525672912597656e+00,2.225096225738525391e+00,2.184225559234619141e+00,2.144829034805297852e+00,2.106828689575195312e+00,2.070151090621948242e+00,2.034729003906250000e+00,2.000498771667480469e+00,1.967400908470153809e+00,1.935380816459655762e+00,1.904386043548583984e+00,1.874368190765380859e+00,1.845282077789306641e+00
5.000000000000000000e+00,5.000000000000000000e+00,5.000000000000000000e+00,5.000000000000000000e+00,5.000000000000000000e+00,5.000000000000000000e+00,5.000000000000000000e+00,5.000000000000000000e+00,5.000000000000000000e+00,5.000000000000000000e+00,5.000000000000000000e+00,5.000000000000000000e+00,5.000000000000000000e+00,5.000000000000000000e+00,5.000000000000000000e+00,5.000000000000000000e+00,5.000000000000000000e+00,5.000000000000000000e+00,5.000000000000000000e+00,5.000000000000000000e+00,5.000000000000000000e+00,5.000000000000000000e+00,5.000000000000000000e+00,5.000000000000000000e+00,5.000000000000000000e+00,5.000000000000000000e+00,5.000000000000000000e+00,5.000000000000000000e+00,5.000000000000000000e+00,5.000000000000000000e+00,5.000000000000000000e+00,5.000000000000000000e+00,5.000000000000000000e+00,5.000000000000000000e+00,5.000000000000000000e+00,5.000000000000000000e+00,5.000000000000000000e+00,5.000000000000000000e+00,5.000000000000000000e+00,4.865248680114746094e+00,4.674016475677490234e+00,4.497248172760009766e+00,4.333363533020019531e+00,4.181003093719482422e+00,4.038992404937744141e+00,3.906312465667724609e+00,3.782071828842163086e+00,3.665490627288818359e+00,3.555881500244140625e+00,3.452637672424316406e+00,3.355219841003417969e+00,3.263148307800292969e+00,3.175995349884033203e+00,3.093376398086547852e+00,3.014946937561035156e+00,2.940396070480346680e+00,2.869443416595458984e+00,2.801833868026733398e+00,2.737337112426757812e+00,2.675743103027343750e+00,2.616859912872314453e+00,2.560512304306030273e+00,2.506540298461914062e+00,2.454796791076660156e+00,2.405146360397338867e+00,2.357464551925659180e+00,2.311636209487915039e+00,2.267556190490722656e+00,2.225125551223754883e+00,2.184253692626953125e+00,2.144856214523315430e+00,2.106854915618896484e+00,2.070176601409912109e+00,2.034753561019897461e+00,2.000522375106811523e+00,1.967424035072326660e+00,1.935402870178222656e+00,1.904407382011413574e+00,1.874389052391052246e+00,1.845302343368530273e+00
5.000000000000000000e+00,5.000000000000000000e+00,5.000000000000000000e+00,5.000000000000000000e+00,5.000000000000000000e+00,5.000000000000000000e+00,5.000000000000000000e+00,5.000000000000000000e+00,5.000000000000000000e+00,5.000000000000000000e+00,5.000000000000000000e+00,5.000000000000000000e+00,5.000000000000000000e+00,5.000000000000000000e+00,5.000000000000000000e+00,5.000000000000000000e+00,5.000000000000000000e+00,5.000000000000000000e+00,5.000000000000000000e+00,5.000000000000000000e+00,5.000000000000000000e+00,5.000000000000000000e+00,5.000000000000000000e+00,5.000000000000000000e+00,5.000000000000000000e+00,5.000000000000000000e+00,5.000000000000000000e+00,5.000000000000000000e+00,5.000000000000000000e+00,5.000000000000000000e+00,5.000000000000000000e+00,5.000000000000000000e+00,5.000000000000000000e+00,5.000000000000000000e+00,5.000000000000000000e+00,5.000000000000000000e+00,5.000000000000000000e+00,5.000000000000000000e+00,5.000000000000000000e+00,4.865388870239257812e+00,4.674145698547363281e+00,4.497367858886718750e+00,4.333474636077880859e+00,4.181106567382812500e+00,4.039089202880859375e+00,3.906402587890625000e+00,3.782156229019165039e+00,3.665570259094238281e+00,3.555956602096557617e+00,3.452708005905151367e+00,3.355286598205566406e+00,3.263211488723754883e+00,3.176054954528808594e+00,3.093432903289794922e+00,3.015000820159912109e+00,2.940447330474853516e+00,2.869491815567016602e+00,2.801880121231079102e+00,2.737381458282470703e+00,2.675785541534423828e+00,2.616900444030761719e+00,2.560551404953002930e+00,2.506577730178833008e+00,2.454832553863525391e+00,2.405180454254150391e+00,2.357497453689575195e+00,2.311667919158935547e+00,2.267586469650268555e+00,2.225154876708984375e+00,2.184282064437866211e+00,2.144883394241333008e+00,2.106881141662597656e+00,2.070201873779296875e+00,2.034778118133544922e+00,2.000545978546142578e+00,1.967446923255920410e+00,1.935425043106079102e+00,1.904428839683532715e+00,1.874409794807434082e+00,1.845322608947753906e+00
5.000000000000000000e+00,5.000000000000000000e+00,5.000000000000000000e+00,5.000000000000000000e+00,5.000000000000000000e+00,5.000000000000000000e+00,5.000000000000000000e+00,5.000000000000000000e+00,5.000000000000000000e+00,5.000000000000000000e+00,5.000000000000000000e+00,5.000000000000000000e+00,5.000000000000000000e+00,5.000000000000000000e+00,5.000000000000000000e+00,5.000000000000000000e+00,5.000000000000000000e+00,5.000000000000000000e+00,5.000000000000000000e+00,5.000000000000000000e+00,5.000000000000000000e+00,5.000000000000000000e+00,5.000000000000000000e+00,5.000000000000000000e+00,5.000000000000000000e+00,5.000000000000000000e+00,5.000000000000000000e+00,5.000000000000000000e+00,5.000000000000000000e+00,5.000000000000000000e+00,5.000000000000000000e+00,5.000000000000000000e+00,5.000000000000000000e+00,5.000000000000000000e+00,5.000000000000000000e+00,5.000000000000000000e+00,5.000000000000000000e+00,5.000000000000000000e+00,5.000000000000000000e+00,4.865529537200927734e+00,4.674274921417236328e+00,4.497488021850585938e+00,4.333585739135742188e+00,4.181210041046142578e+00,4.039185523986816406e+00,3.906493186950683594e+00,3.782241106033325195e+00,3.665649414062500000e+00,3.556031465530395508e+00,3.452778816223144531e+00,3.355352878570556641e+00,3.263274192810058594e+00,3.176114797592163086e+00,3.093489646911621094e+00,3.015054464340209961e+00,2.940498590469360352e+00,2.869540691375732422e+00,2.801926851272583008e+00,2.737425804138183594e+00,2.675827980041503906e+00,2.616940975189208984e+00,2.560590028762817383e+00,2.506614685058593750e+00,2.454868078231811523e+00,2.405214786529541016e+00,2.357530355453491211e+00,2.311699628829956055e+00,2.267616987228393555e+00,2.225183963775634766e+00,2.184310197830200195e+00,2.144910812377929688e+00,2.106907367706298828e+00,2.070227146148681641e+00,2.034802675247192383e+00,2.000569820404052734e+00,1.967469692230224609e+00,1.935447096824645996e+00,1.904450416564941406e+00,1.874430656433105469e+00,1.845342755317687988e+00
5.000000000000000000e+00,5.000000000000000000e+00,5.000000000000000000e+00,5.000000000000000000e+00,5.000000000000000000e+00,5.000000000000000000e+00,5.000000000000000000e+00,5.000000000000000000e+00,5.000000000000000000e+00,5.000000000000000000e+00,5.000000000000000000e+00,5.000000000000000000e+00,5.000000000000000000e+00,5.000000000000000000e+00,5.000000000000000000e+00,5.000000000000000000e+00,5.000000000000000000e+00,5.000000000000000000e+00,5.000000000000000000e+00,5.000000000000000000e+00,5.000000000000000000e+00,5.000000000000000000e+00,5.000000000000000000e+00,5.000000000000000000e+00,5.000000000000000000e+00,5.000000000000000000e+00,5.000000000000000000e+00,5.000000000000000000e+00,5.000000000000000000e+00,5.000000000000000000e+00,5.000000000000000000e+00,5.000000000000000000e+00,5.000000000000000000e+00,5.000000000000000000e+00,5.000000000000000000e+00,5.000000000000000000e+00,5.000000000000000000e+00,5.000000000000000000e+00,5.000000000000000000e+00,4.865669250488281250e+00,4.674404144287109375e+00,4.497607707977294922e+00,4.333696842193603516e+00,4.181313514709472656e+00,4.039282321929931641e+00,3.906583070755004883e+00,3.782325983047485352e+00,3.665729284286499023e+00,3.556106090545654297e+00,3.452849149703979492e+00,3.355419635772705078e+00,3.263337373733520508e+00,3.176174163818359375e+00,3.093546390533447266e+00,3.015108346939086914e+00,2.940549612045288086e+00,2.869589328765869141e+00,2.801973342895507812e+00,2.737470149993896484e+00,2.675870180130004883e+00,2.616981267929077148e+00,2.560628890991210938e+00,2.506652116775512695e+00,2.454903841018676758e+00,2.405249118804931641e+00,2.357563257217407227e+00,2.311731338500976562e+00,2.267647266387939453e+00,2.225213527679443359e+00,2.184338331222534180e+00,2.144937992095947266e+00,2.106933832168579102e+00,2.070252656936645508e+00,2.034826993942260742e+00,2.000593423843383789e+00,1.967492818832397461e+00,1.935469388961791992e+00,1.904471874237060547e+00,1.874451398849487305e+00,1.845362782478332520e+00
5.000000000000000000e+00,5.000000000000000000e+00,5.000000000000000000e+00,5.000000000000000000e+00,5.000000000000000000e+00,5.000000000000000000e+00,5.000000000000000000e+00,5.000000000000000000e+00,5.000000000000000000e+00,5.000000000000000000e+00,5.000000000000000000e+00,5.000000000000000000e+00,5.000000000000000000e+00,5.000000000000000000e+00,5.000000000000000000e+00,5.000000000000000000e+00,5.000000000000000000e+00,5.000000000000000000e+00,5.000000000000000000e+00,5.000000000000000000e+00,5.000000000000000000e+00,5.000000000000000000e+00,5.000000000000000000e+00,5.000000000000000000e+00,5.000000000000000000e+00,5.000000000000000000e+00,5.000000000000000000e+00,5.000000000000000000e+00,5.000000000000000000e+00,5.000000000000000000e+00,5.000000000000000000e+00,5.000000000000000000e+00,5.000000000000000000e+00,5.000000000000000000e+00,5.000000000000000000e+00,5.000000000000000000e+00,5.000000000000000000e+00,5.000000000000000000e+00,5.000000000000000000e+00,4.865809440612792969e+00,4.674533367156982422e+00,4.497727394104003906e+00,4.333808422088623047e+00,4.181416988372802734e+00,4.039379119873046875e+00,3.906673669815063477e+00,3.782410383224487305e+00,3.665808439254760742e+00,3.556181192398071289e+00,3.452919721603393555e+00,3.355486154556274414e+00,3.263400554656982422e+00,3.176234006881713867e+00,3.093602895736694336e+00,3.015161991119384766e+00,2.940600872039794922e+00,2.869638204574584961e+00,2.802019596099853516e+00,2.737514734268188477e+00,2.675912618637084961e+00,2.617022037506103516e+00,2.560667514801025391e+00,2.506689310073852539e+00,2.454939603805541992e+00,2.405283212661743164e+00,2.357595920562744141e+00,2.311762809753417969e+00,2.267677783966064453e+00,2.225242614746093750e+00,2.184366703033447266e+00,2.144965171813964844e+00,2.106960058212280273e+00,2.070277929306030273e+00,2.034851551055908203e+00,2.000617027282714844e+00,1.967515587806701660e+00,1.935491561889648438e+00,1.904493212699890137e+00,1.874472141265869141e+00,1.845382928848266602e+00
5.000000000000000000e+00,5.000000000000000000e+00,5.000000000000000000e+00,5.000000000000000000e+00,5.000000000000000000e+00,5.000000000000000000e+00,5.000000000000000000e+00,5.000000000000000000e+00,5.000000000000000000e+00,5.000000000000000000e+00,5.000000000000000000e+00,5.000000000000000000e+00,5.000000000000000000e+00,5.000000000000000000e+00,5.000000000000000000e+00,5.000000000000000000e+00,5.000000000000000000e+00,5.000000000000000000e+00,5.000000000000000000e+00,5.000000000000000000e+00,5.000000000000000000e+00,5.000000000000000000e+00,5.000000000000000000e+00,5.000000000000000000e+00,5.000000000000000000e+00,5.000000000000000000e+00,5.000000000000000000e+00,5.000000000000000000e+00,5.000000000000000000e+00,5.000000000000000000e+00,5.000000000000000000e+00,5.000000000000000000e+00,5.000000000000000000e+00,5.000000000000000000e+00,5.000000000000000000e+00,5.000000000000000000e+00,5.000000000000000000e+00,5.000000000000000000e+00,5.000000000000000000e+00,4.865949630737304688e+00,4.674663066864013672e+00,4.497847080230712891e+00,4.333919525146484375e+00,4.181520462036132812e+00,4.039475440979003906e+00,3.906763792037963867e+00,3.782495260238647461e+00,3.665888309478759766e+00,3.556255817413330078e+00,3.452990531921386719e+00,3.355552911758422852e+00,3.263463497161865234e+00,3.176293611526489258e+00,3.093659639358520508e+00,3.015215873718261719e+00,2.940651893615722656e+00,2.869687080383300781e+00,2.802066326141357422e+00,2.737558841705322266e+00,2.675954818725585938e+00,2.617062568664550781e+00,2.560706377029418945e+00,2.506726264953613281e+00,2.454975128173828125e+00,2.405317544937133789e+00,2.357629060745239258e+00,2.311794519424438477e+00,2.267708301544189453e+00,2.225271940231323242e+00,2.184394836425781250e+00,2.144992351531982422e+00,2.106986284255981445e+00,2.070303440093994141e+00,2.034876108169555664e+00,2.000640869140625000e+00,1.967538475990295410e+00,1.935513615608215332e+00,1.904514670372009277e+00,1.874493122100830078e+00,1.845403194427490234e+00
5.000000000000000000e+00,5.000000000000000000e+00,5.000000000000000000e+00,5.000000000000000000e+00,5.000000000000000000e+00,5.000000000000000000e+00,5.000000000000000000e+00,5.000000000000000000e+00,5.000000000000000000e+00,5.000000000000000000e+00,5.000000000000000000e+00,5.000000000000000000e+00,5.000000000000000000e+00,5.000000000000000000e+00,5.000000000000000000e+00,5.000000000000000000e+00,5.000000000000000000e+00,5.000000000000000000e+00,5.000000000000000000e+00,5.000000000000000000e+00,5.000000000000000000e+00,5.000000000000000000e+00,5.000000000000000000e+00,5.000000000000000000e+00,5.000000000000000000e+00,5.000000000000000000e+00,5.000000000000000000e+00,5.000000000000000000e+00,5.000000000000000000e+00,5.000000000000000000e+00,5.000000000000000000e+00,5.000000000000000000e+00,5.000000000000000000e+00,5.000000000000000000e+00,5.000000000000000000e+00,5.000000000000000000e+00,5.000000000000000000e+00,5.000000000000000000e+00,5.000000000000000000e+00,4.866089344024658203e+00,4.674792289733886719e+00,4.497966766357421875e+00,4.334030628204345703e+00,4.181623935699462891e+00,4.039571762084960938e+00,3.906854152679443359e+00,3.782579660415649414e+00,3.665967941284179688e+00,3.556330680847167969e+00,3.453060865402221680e+00,3.355619430541992188e+00,3.263526678085327148e+00,3.176353454589843750e+00,3.093716144561767578e+00,3.015269756317138672e+00,2.940703153610229492e+00,2.869735479354858398e+00,2.802112579345703125e+00,2.737603187561035156e+00,2.675997257232666016e+00,2.617103099822998047e+00,2.560745239257812500e+00,2.506763696670532227e+00,2.455010890960693359e+00,2.405351638793945312e+00,2.357661962509155273e+00,2.311826229095458984e+00,2.267738580703735352e+00,2.225301265716552734e+00,2.184423208236694336e+00,2.145019531250000000e+00,2.107012510299682617e+00,2.070328712463378906e+00,2.034900665283203125e+00,2.000664472579956055e+00,1.967561364173889160e+00,1.935535907745361328e+00,1.904536247253417969e+00,1.874513864517211914e+00,1.845423340797424316e+00
5.000000000000000000e+00,5.000000000000000000e+00,5.000000000000000000e+00,5.000000000000000000e+00,5.000000000000000000e+00,5.000000000000000000e+00,5.000000000000000000e+00,5.000000000000000000e+00,5.000000000000000000e+00,5.000000000000000000e+00,5.000000000000000000e+00,5.000000000000000000e+00,5.000000000000000000e+00,5.000000000000000000e+00,5.000000000000000000e+00,5.000000000000000000e+00,5.000000000000000000e+00,5.000000000000000000e+00,5.000000000000000000e+00,5.000000000000000000e+00,5.000000000000000000e+00,5.000000000000000000e+00,5.000000000000000000e+00,5.000000000000000000e+00,5.000000000000000000e+00,5.000000000000000000e+00,5.000000000000000000e+00,5.000000000000000000e+00,5.000000000000000000e+00,5.000000000000000000e+00,5.000000000000000000e+00,5.000000000000000000e+00,5.000000000000000000e+00,5.000000000000000000e+00,5.000000000000000000e+00,5.000000000000000000e+00,5.000000000000000000e+00,5.000000000000000000e+00,5.000000000000000000e+00,4.866229534149169922e+00,4.674921512603759766e+00,4.498086452484130859e+00,4.334141731262207031e+00,4.181727409362792969e+00,4.039668560028076172e+00,3.906944751739501953e+00,3.782664537429809570e+00,3.666047096252441406e+00,3.556405305862426758e+00,3.453131675720214844e+00,3.355686187744140625e+00,3.263589382171630859e+00,3.176413297653198242e+00,3.093772888183593750e+00,3.015323400497436523e+00,2.940754175186157227e+00,2.869784355163574219e+00,2.802159070968627930e+00,2.737647533416748047e+00,2.676039934158325195e+00,2.617143630981445312e+00,2.560784101486206055e+00,2.506800651550292969e+00,2.455046653747558594e+00,2.405385971069335938e+00,2.357694625854492188e+00,2.311857700347900391e+00,2.267769098281860352e+00,2.225330591201782227e+00,2.184451341629028320e+00,2.145046949386596680e+00,2.107038736343383789e+00,2.070353984832763672e+00,2.034924983978271484e+00,2.000688314437866211e+00,1.967584371566772461e+00,1.935558080673217773e+00,1.904557704925537109e+00,1.874534606933593750e+00,1.845443367958068848e+00
5.000000000000000000e+00,5.000000000000000000e+00,5.000000000000000000e+00,5.000000000000000000e+00,5.000000000000000000e+00,5.000000000000000000e+00,5.000000000000000000e+00,5.000000000000000000e+00,5.000000000000000000e+00,5.000000000000000000e+00,5.000000000000000000e+00,5.000000000000000000e+00,5.000000000000000000e+00,5.000000000000000000e+00,5.000000000000000000e+00,5.000000000000000000e+00,5.000000000000000000e+00,5.000000000000000000e+00,5.000000000000000000e+00,5.000000000000000000e+00,5.000000000000000000e+00,5.000000000000000000e+00,5.000000000000000000e+00,5.000000000000000000e+00,5.000000000000000000e+00,4.307275295257568359e+00,5.000000000000000000e+00,5.000000000000000000e+00,5.000000000000000000e+00,5.000000000000000000e+00,5.000000000000000000e+00,5.000000000000000000e+00,5.000000000000000000e+00,5.000000000000000000e+00,5.000000000000000000e+00,5.000000000000000000e+00,5.000000000000000000e+00,5.000000000000000000e+00,5.000000000000000000e+00,4.866369724273681641e+00,4.675050735473632812e+00,4.498206138610839844e+00,4.334252834320068359e+00,4.181830883026123047e+00,4.039764881134033203e+00,3.907034873962402344e+00,3.782748937606811523e+00,3.666126966476440430e+00,3.556480407714843750e+00,3.453202009201049805e+00,3.355752944946289062e+00,3.263652563095092773e+00,3.176472902297973633e+00,3.093829393386840820e+00,3.015377283096313477e+00,2.940805435180664062e+00,2.869832992553710938e+00,2.802205801010131836e+00,2.737691879272460938e+00,2.676082134246826172e+00,2.617184162139892578e+00,2.560822963714599609e+00,2.506838083267211914e+00,2.455082178115844727e+00,2.405420303344726562e+00,2.357727766036987305e+00,2.311889410018920898e+00,2.267799615859985352e+00,2.225359916687011719e+00,2.184479713439941406e+00,2.145074129104614258e+00,2.107064962387084961e+00,2.070379495620727539e+00,2.034949541091918945e+00,2.000711917877197266e+00,1.967607259750366211e+00,1.935580134391784668e+00,1.904579043388366699e+00,1.874555349349975586e+00,1.845463633537292480e+00
5.000000000000000000e+00,5.000000000000000000e+00,5.000000000000000000e+00,5.000000000000000000e+00,5.000000000000000000e+00,5.000000000000000000e+00,5.000000000000000000e+00,5.000000000000000000e+00,5.000000000000000000e+00,5.000000000000000000e+00,5.000000000000000000e+00,5.000000000000000000e+00,5.000000000000000000e+00,5.000000000000000000e+00,5.000000000000000000e+00,5.000000000000000000e+00,5.000000000000000000e+00,5.000000000000000000e+00,5.000000000000000000e+00,5.000000000000000000e+00,5.000000000000000000e+00,5.000000000000000000e+00,5.000000000000000000e+00,5.000000000000000000e+00,4.397102355957031250e+00,4.304921150207519531e+00,4.396205902099609375e+00,5.000000000000000000e+00,5.000000000000000000e+00,5.000000000000000000e+00,5.000000000000000000e+00,5.000000000000000000e+00,5.000000000000000000e+00,5.000000000000000000e+00,5.000000000000000000e+00,5.000000000000000000e+00,5.000000000000000000e+00,5.000000000000000000e+00,5.000000000000000000e+00,4.866510391235351562e+00,4.675180435180664062e+00,4.498325824737548828e+00,4.334363937377929688e+00,4.181934356689453125e+00,4.039861679077148438e+00,3.907125473022460938e+00,3.782833814620971680e+00,3.666206121444702148e+00,3.556555271148681641e+00,3.453272581100463867e+00,3.355819463729858398e+00,3.263715505599975586e+00,3.176532745361328125e+00,3.093886137008666992e+00,3.015430927276611328e+00,2.940856933593750000e+00,2.869881868362426758e+00,2.802252054214477539e+00,2.737736225128173828e+00,2.676124572753906250e+00,2.617224693298339844e+00,2.560861587524414062e+00,2.506875276565551758e+00,2.455117940902709961e+00,2.405454397201538086e+00,2.357760429382324219e+00,2.311921119689941406e+00,2.267830133438110352e+00,2.225389242172241211e+00,2.184507846832275391e+00,2.145101308822631836e+00,2.107091188430786133e+00,2.070404767990112305e+00,2.034974098205566406e+00,2.000735521316528320e+00,1.967630028724670410e+00,1.935602307319641113e+00,1.904600739479064941e+00,1.874576210975646973e+00,1.845483779907226562e+00
5.000000000000000000e+00,5.000000000000000000e+00,5.000000000000000000e+00,5.000000000000000000e+00,5.000000000000000000e+00,5.000000000000000000e+00,5.000000000000000000e+00,5.000000000000000000e+00,5.000000000000000000e+00,5.000000000000000000e+00,5.000000000000000000e+00,5.000000000000000000e+00,5.000000000000000000e+00,5.000000000000000000e+00,5.000000000000000000e+00,5.000000000000000000e+00,5.000000000000000000e+00,5.000000000000000000e+00,5.000000000000000000e+00,5.000000000000000000e+00,5.000000000000000000e+00,5.000000000000000000e+00,5.000000000000000000e+00,5.000000000000000000e+00,5.000000000000000000e+00,4.319082260131835938e+00,4.446547985076904297e+00,5.000000000000000000e+00,5.000000000000000000e+00,5.000000000000000000e+00,5.000000000000000000e+00,5.000000000000000000e+00,5.000000000000000000e+00,5.000000000000000000e+00,5.000000000000000000e+00,5.000000000000000000e+00,5.000000000000000000e+00,5.000000000000000000e+00,5.000000000000000000e+00,4.866650104522705078e+00,4.675309658050537109e+00,4.498445510864257812e+00,4.334475040435791016e+00,4.182037830352783203e+00,4.039958477020263672e+00,3.907215356826782227e+00,3.782918691635131836e+00,3.666285991668701172e+00,3.556630134582519531e+00,3.453343152999877930e+00,3.355886220932006836e+00,3.263778686523437500e+00,3.176592111587524414e+00,3.093942880630493164e+00,3.015485048294067383e+00,2.940907955169677734e+00,2.869930505752563477e+00,2.802298545837402344e+00,2.737780570983886719e+00,2.676166772842407227e+00,2.617265224456787109e+00,2.560900449752807617e+00,2.506912231445312500e+00,2.455153465270996094e+00,2.405488729476928711e+00,2.357793569564819336e+00,2.311952590942382812e+00,2.267860412597656250e+00,2.225418567657470703e+00,2.184535980224609375e+00,2.145128488540649414e+00,2.107117652893066406e+00,2.070430278778076172e+00,2.034998655319213867e+00,2.000759124755859375e+00,1.967653155326843262e+00,1.935624599456787109e+00,1.904622077941894531e+00,1.874596953392028809e+00,1.845503926277160645e+00
5.000000000000000000e+00,5.000000000000000000e+00,5.000000000000000000e+00,5.000000000000000000e+00,5.000000000000000000e+00,5.000000000000000000e+00,5.000000000000000000e+00,5.000000000000000000e+00,5.000000000000000000e+00,5.000000000000000000e+00,5.000000000000000000e+00,5.000000000000000000e+00,5.000000000000000000e+00,5.000000000000000000e+00,5.000000000000000000e+00,5.000000000000000000e+00,5.000000000000000000e+00,5.000000000000000000e+00,5.000000000000000000e+00,5.000000000000000000e+00,5.000000000000000000e+00,5.000000000000000000e+00,5.000000000000000000e+00,5.000000000000000000e+00,4.372600078582763672e+00,4.400439739227294922e+00,4.377980232238769531e+00,4.441770076751708984e+00,5.000000000000000000e+00,5.000000000000000000e+00,5.000000000000000000e+00,5.000000000000000000e+00,5.000000000000000000e+00,5.000000000000000000e+00,5.000000000000000000e+00,5.000000000000000000e+00,5.000000000000000000e+00,5.000000000000000000e+00,5.000000000000000000e+00,4.866790294647216797e+00,4.675439357757568359e+00,4.498565673828125000e+00,4.334586620330810547e+00,4.182141304016113281e+00,4.040054798126220703e+00,3.907305955886840820e+00,3.783003091812133789e+00,3.666365146636962891e+00,3.556704998016357422e+00,3.453413724899291992e+00,3.355952739715576172e+00,3.263841867446899414e+00,3.176651954650878906e+00,3.093999385833740234e+00,3.015538692474365234e+00,2.940959215164184570e+00,2.869979381561279297e+00,2.802345037460327148e+00,2.737825155258178711e+00,2.676209211349487305e+00,2.617305755615234375e+00,2.560939311981201172e+00,2.506949663162231445e+00,2.455189228057861328e+00,2.405522823333740234e+00,2.357826471328735352e+00,2.311984300613403320e+00,2.267890930175781250e+00,2.225447893142700195e+00,2.184564352035522461e+00,2.145155668258666992e+00,2.107143878936767578e+00,2.070455551147460938e+00,2.035023212432861328e+00,2.000782966613769531e+00,1.967676043510437012e+00,1.935646772384643555e+00,1.904643535614013672e+00,1.874617695808410645e+00,1.845523953437805176e+00
5.000000000000000000e+00,5.000000000000000000e+00,5.000000000000000000e+00,5.000000000000000000e+00,5.000000000000000000e+00,5.000000000000000000e+00,5.000000000000000000e+00,5.000000000000000000e+00,5.000000000000000000e+00,5.000000000000000000e+00,5.000000000000000000e+00,5.000000000000000000e+00,5.000000000000000000e+00,5.000000000000000000e+00,5.000000000000000000e+00,5.000000000000000000e+00,5.000000000000000000e+00,5.000000000000000000e+00,5.000000000000000000e+00,5.000000000000000000e+00,5.000000000000000000e+00,5.000000000000000000e+00,4.335881233215332031e+00,4.328451633453369141e+00,4.318402290344238281e+00,4.324461936950683594e+00,4.340031147003173828e+00,4.374904632568359375e+00,4.410337448120117188e+00,5.000000000000000000e+00,5.000000000000000000e+00,5.000000000000000000e+00,5.000000000000000000e+00,5.000000000000000000e+00,5.000000000000000000e+00,5.000000000000000000e+00,5.000000000000000000e+00,5.000000000000000000e+00,5.000000000000000000e+00,4.866930484771728516e+00,4.675568580627441406e+00,4.498685359954833984e+00,4.334697723388671875e+00,4.182244777679443359e+00,4.040151596069335938e+00,3.907396078109741211e+00,3.783087968826293945e+00,3.666445016860961914e+00,3.556779623031616211e+00,3.453484535217285156e+00,3.356019496917724609e+00,3.263904809951782227e+00,3.176711559295654297e+00,3.094056129455566406e+00,3.015592575073242188e+00,2.941010236740112305e+00,2.870028257369995117e+00,2.802391529083251953e+00,2.737869262695312500e+00,2.676251649856567383e+00,2.617346286773681641e+00,2.560978174209594727e+00,2.506986618041992188e+00,2.455224990844726562e+00,2.405557155609130859e+00,2.357859134674072266e+00,2.312015771865844727e+00,2.267921447753906250e+00,2.225477218627929688e+00,2.184592485427856445e+00,2.145183086395263672e+00,2.107170104980468750e+00,2.070480823516845703e+00,2.035047531127929688e+00,2.000806570053100586e+00,1.967698812484741211e+00,1.935668826103210449e+00,1.904664874076843262e+00,1.874638676643371582e+00,1.845544338226318359e+00
5.000000000000000000e+00,5.000000000000000000e+00,5.000000000000000000e+00,5.000000000000000000e+00,5.000000000000000000e+00,5.000000000000000000e+00,5.000000000000000000e+00,5.000000000000000000e+00,5.000000000000000000e+00,5.000000000000000000e+00,5.000000000000000000e+00,5.000000000000000000e+00,5.000000000000000000e+00,5.000000000000000000e+00,5.000000000000000000e+00,5.000000000000000000e+00,5.000000000000000000e+00,5.000000000000000000e+00,5.000000000000000000e+00,5.000000000000000000e+00,5.000000000000000000e+00,5.000000000000000000e+00,4.365499496459960938e+00,4.332802295684814453e+00,4.288728237152099609e+00,4.294940948486328125e+00,4.313264369964599609e+00,4.374179840087890625e+00,4.421419620513916016e+00,5.000000000000000000e+00,5.000000000000000000e+00,5.000000000000000000e+00,5.000000000000000000e+00,5.000000000000000000e+00,5.000000000000000000e+00,5.000000000000000000e+00,5.000000000000000000e+00,5.000000000000000000e+00,5.000000000000000000e+00,4.867070674896240234e+00,4.675697803497314453e+00,4.498805046081542969e+00,4.334808826446533203e+00,4.182348728179931641e+00,4.040247917175292969e+00,3.907486677169799805e+00,3.783172607421875000e+00,3.666524648666381836e+00,3.556854724884033203e+00,3.453554868698120117e+00,3.356085777282714844e+00,3.263967990875244141e+00,3.176771402359008789e+00,3.094112634658813477e+00,3.015646457672119141e+00,2.941061496734619141e+00,2.870076894760131836e+00,2.802437782287597656e+00,2.737913846969604492e+00,2.676294088363647461e+00,2.617386817932128906e+00,2.561017036437988281e+00,2.507024049758911133e+00,2.455260515213012695e+00,2.405591249465942383e+00,2.357892274856567383e+00,2.312047481536865234e+00,2.267951726913452148e+00,2.225506544113159180e+00,2.184620857238769531e+00,2.145210266113281250e+00,2.107196331024169922e+00,2.070506334304809570e+00,2.035072088241577148e+00,2.000830411911010742e+00,1.967721939086914062e+00,1.935691118240356445e+00,1.904686570167541504e+00,1.874659419059753418e+00,1.845564365386962891e+00
5.000000000000000000e+00,5.000000000000000000e+00,5.000000000000000000e+00,5.000000000000000000e+00,5.000000000000000000e+00,5.000000000000000000e+00,5.000000000000000000e+00,5.000000000000000000e+00,5.000000000000000000e+00,5.000000000000000000e+00,5.000000000000000000e+00,5.000000000000000000e+00,5.000000000000000000e+00,5.000000000000000000e+00,5.000000000000000000e+00,5.000000000000000000e+00,5.000000000000000000e+00,5.000000000000000000e+00,5.000000000000000000e+00,5.000000000000000000e+00,5.000000000000000000e+00,5.000000000000000000e+00,5.000000000000000000e+00,4.375059127807617188e+00,4.296069622039794922e+00,4.288969993591308594e+00,4.318047523498535156e+00,4.388108730316162109e+00,4.413785457611083984e+00,5.000000000000000000e+00,5.000000000000000000e+00,5.000000000000000000e+00,5.000000000000000000e+00,5.000000000000000000e+00,5.000000000000000000e+00,5.000000000000000000e+00,5.000000000000000000e+00,5.000000000000000000e+00,5.000000000000000000e+00,4.867210865020751953e+00,4.675827026367187500e+00,4.498924732208251953e+00,4.334919929504394531e+00,4.182452201843261719e+00,4.040344715118408203e+00,3.907577276229858398e+00,3.783257484436035156e+00,3.666604042053222656e+00,3.556929349899291992e+00,3.453625679016113281e+00,3.356152772903442383e+00,3.264030694961547852e+00,3.176831245422363281e+00,3.094169378280639648e+00,3.015700101852416992e+00,2.941112518310546875e+00,2.870125532150268555e+00,2.802484512329101562e+00,2.737957954406738281e+00,2.676336526870727539e+00,2.617427349090576172e+00,2.561055660247802734e+00,2.507061004638671875e+00,2.455296277999877930e+00,2.405625581741333008e+00,2.357924938201904297e+00,2.312079191207885742e+00,2.267982244491577148e+00,2.225535869598388672e+00,2.184648990631103516e+00,2.145237445831298828e+00,2.107222795486450195e+00,2.070531606674194336e+00,2.035096645355224609e+00,2.000854015350341797e+00,1.967744827270507812e+00,1.935713291168212891e+00,1.904707908630371094e+00,1.874680161476135254e+00,1.845584511756896973e+00
5.000000000000000000e+00,5.000000000000000000e+00,5.000000000000000000e+00,5.000000000000000000e+00,5.000000000000000000e+00,5.000000000000000000e+00,5.000000000000000000e+00,5.000000000000000000e+00,5.000000000000000000e+00,5.000000000000000000e+00,5.000000000000000000e+00,5.000000000000000000e+00,5.000000000000000000e+00,5.000000000000000000e+00,5.000000000000000000e+00,5.000000000000000000e+00,5.000000000000000000e+00,5.000000000000000000e+00,5.000000000000000000e+00,5.000000000000000000e+00,5.000000000000000000e+00,5.000000000000000000e+00,5.000000000000000000e+00,4.379662990570068359e+00,4.293327331542968750e+00,4.291550159454345703e+00,4.319360733032226562e+00,4.423694133758544922e+00,4.417870044708251953e+00,5.000000000000000000e+00,5.000000000000000000e+00,5.000000000000000000e+00,5.000000000000000000e+00,5.000000000000000000e+00,5.000000000000000000e+00,5.000000000000000000e+00,5.000000000000000000e+00,5.000000000000000000e+00,5.000000000000000000e+00,4.867351531982421875e+00,4.675956249237060547e+00,4.499044895172119141e+00,4.335031032562255859e+00,4.182555675506591797e+00,4.040441036224365234e+00,3.907667398452758789e+00,3.783342361450195312e+00,3.666683673858642578e+00,3.557004451751708984e+00,3.453696012496948242e+00,3.356219530105590820e+00,3.264093875885009766e+00,3.176890850067138672e+00,3.094225883483886719e+00,3.015753984451293945e+00,2.941163778305053711e+00,2.870174169540405273e+00,2.802531003952026367e+00,2.738002538681030273e+00,2.676378726959228516e+00,2.617467880249023438e+00,2.561094522476196289e+00,2.507098436355590820e+00,2.455331802368164062e+00,2.405659914016723633e+00,2.357958078384399414e+00,2.312110900878906250e+00,2.268012523651123047e+00,2.225565195083618164e+00,2.184677362442016602e+00,2.145264625549316406e+00,2.107249021530151367e+00,2.070557117462158203e+00,2.035121202468872070e+00,2.000877618789672852e+00,1.967767596244812012e+00,1.935735344886779785e+00,1.904729366302490234e+00,1.874701142311096191e+00,1.845604777336120605e+00
5.000000000000000000e+00,5.000000000000000000e+00,5.000000000000000000e+00,5.000000000000000000e+00,5.000000000000000000e+00,5.000000000000000000e+00,5.000000000000000000e+00,5.000000000000000000e+00,5.000000000000000000e+00,5.000000000000000000e+00,5.000000000000000000e+00,5.000000000000000000e+00,5.000000000000000000e+00,5.000000000000000000e+00,5.000000000000000000e+00,5.000000000000000000e+00,5.000000000000000000e+00,5.000000000000000000e+00,5.000000000000000000e+00,5.000000000000000000e+00,5.000000000000000000e+00,5.000000000000000000e+00,5.000000000000000000e+00,4.409687995910644531e+00,4.276248931884765625e+00,4.282344818115234375e+00,4.303994655609130859e+00,4.397076606750488281e+00,4.423717975616455078e+00,4.430783271789550781e+00,5.000000000000000000e+00,5.000000000000000000e+00,5.000000000000000000e+00,5.000000000000000000e+00,5.000000000000000000e+00,5.000000000000000000e+00,5.000000000000000000e+00,5.000000000000000000e+00,5.000000000000000000e+00,4.867491245269775391e+00,4.676085948944091797e+00,4.499164581298828125e+00,4.335142135620117188e+00,4.182659149169921875e+00,4.040537834167480469e+00,3.907757759094238281e+00,3.783426761627197266e+00,3.666763067245483398e+00,3.557079553604125977e+00,3.453766822814941406e+00,3.356286048889160156e+00,3.264157056808471680e+00,3.176950693130493164e+00,3.094282627105712891e+00,3.015807628631591797e+00,2.941215038299560547e+00,2.870223045349121094e+00,2.802577495574951172e+00,2.738046884536743164e+00,2.676421165466308594e+00,2.617508411407470703e+00,2.561133384704589844e+00,2.507135629653930664e+00,2.455367565155029297e+00,2.405694246292114258e+00,2.357990741729736328e+00,2.312142610549926758e+00,2.268043041229248047e+00,2.225594282150268555e+00,2.184705734252929688e+00,2.145292043685913086e+00,2.107275247573852539e+00,2.070582389831542969e+00,2.035145759582519531e+00,2.000901460647583008e+00,1.967790484428405762e+00,1.935757756233215332e+00,1.904750943183898926e+00,1.874721884727478027e+00,1.845624923706054688e+00
5.000000000000000000e+00,5.000000000000000000e+00,5.000000000000000000e+00,5.000000000000000000e+00,5.000000000000000000e+00,5.000000000000000000e+00,5.000000000000000000e+00,5.000000000000000000e+00,5.000000000000000000e+00,5.000000000000000000e+00,5.000000000000000000e+00,5.000000000000000000e+00,5.000000000000000000e+00,5.000000000000000000e+00,5.000000000000000000e+00,5.000000000000000000e+00,5.000000000000000000e+00,5.000000000000000000e+00,5.000000000000000000e+00,5.000000000000000000e+00,5.000000000000000000e+00,5.000000000000000000e+00,5.000000000000000000e+00,4.394233703613281250e+00,4.300763130187988281e+00,4.293582439422607422e+00,4.318007946014404297e+00,4.371606826782226562e+00,5.000000000000000000e+00,4.380433082580566406e+00,5.000000000000000000e+00,5.000000000000000000e+00,5.000000000000000000e+00,5.000000000000000000e+00,5.000000000000000000e+00,5.000000000000000000e+00,5.000000000000000000e+00,5.000000000000000000e+00,5.000000000000000000e+00,4.867631435394287109e+00,4.676215171813964844e+00,4.499284267425537109e+00,4.335253715515136719e+00,4.182762622833251953e+00,4.040634632110595703e+00,3.907847881317138672e+00,3.783511638641357422e+00,3.666842937469482422e+00,3.557154178619384766e+00,3.453837394714355469e+00,3.356352806091308594e+00,3.264219999313354492e+00,3.177010297775268555e+00,3.094339370727539062e+00,3.015861749649047852e+00,2.941266298294067383e+00,2.870271682739257812e+00,2.802623987197875977e+00,2.738091230392456055e+00,2.676463603973388672e+00,2.617549180984497070e+00,2.561172246932983398e+00,2.507172822952270508e+00,2.455403089523315430e+00,2.405728578567504883e+00,2.358023881912231445e+00,2.312174081802368164e+00,2.268073558807373047e+00,2.225623846054077148e+00,2.184733867645263672e+00,2.145319223403930664e+00,2.107301473617553711e+00,2.070607662200927734e+00,2.035170078277587891e+00,2.000925064086914062e+00,1.967813491821289062e+00,1.935779809951782227e+00,1.904772400856018066e+00,1.874742627143859863e+00,1.845644950866699219e+00
5.000000000000000000e+00,5.000000000000000000e+00,5.000000000000000000e+00,5.000000000000000000e+00,5.000000000000000000e+00,5.000000000000000000e+00,5.000000000000000000e+00,5.000000000000000000e+00,5.000000000000000000e+00,5.000000000000000000e+00,5.000000000000000000e+00,5.000000000000000000e+00,5.000000000000000000e+00,5.000000000000000000e+00,5.000000000000000000e+00,5.000000000000000000e+00,5.000000000000000000e+00,5.000000000000000000e+00,5.000000000000000000e+00,5.000000000000000000e+00,5.000000000000000000e+00,5.000000000000000000e+00,5.000000000000000000e+00,4.257533073425292969e+00,4.225183010101318359e+00,4.304506301879882812e+00,4.335636138916015625e+00,4.363138675689697266e+00,5.000000000000000000e+00,4.340434551239013672e+00,5.000000000000000000e+00,5.000000000000000000e+00,5.000000000000000000e+00,5.000000000000000000e+00,5.000000000000000000e+00,5.000000000000000000e+00,5.000000000000000000e+00,5.000000000000000000e+00,5.000000000000000000e+00,4.867771625518798828e+00,4.676344871520996094e+00,4.499403953552246094e+00,4.335364818572998047e+00,4.182866096496582031e+00,4.040730953216552734e+00,3.907938480377197266e+00,3.783596038818359375e+00,3.666922569274902344e+00,3.557229042053222656e+00,3.453907966613769531e+00,3.356419324874877930e+00,3.264283180236816406e+00,3.177070140838623047e+00,3.094395875930786133e+00,3.015915632247924805e+00,2.941317558288574219e+00,2.870320558547973633e+00,2.802670240402221680e+00,2.738135814666748047e+00,2.676506042480468750e+00,2.617589473724365234e+00,2.561210870742797852e+00,2.507210016250610352e+00,2.455438852310180664e+00,2.405762672424316406e+00,2.358056783676147461e+00,2.312205791473388672e+00,2.268104076385498047e+00,2.225652933120727539e+00,2.184762001037597656e+00,2.145346403121948242e+00,2.107327699661254883e+00,2.070633172988891602e+00,2.035194635391235352e+00,2.000948667526245117e+00,1.967836380004882812e+00,1.935801982879638672e+00,1.904793858528137207e+00,1.874763369560241699e+00,1.845665335655212402e+00
5.000000000000000000e+00,5.000000000000000000e+00,5.000000000000000000e+00,5.000000000000000000e+00,5.000000000000000000e+00,5.000000000000000000e+00,5.000000000000000000e+00,5.000000000000000000e+00,5.000000000000000000e+00,5.000000000000000000e+00,5.000000000000000000e+00,5.000000000000000000e+00,5.000000000000000000e+00,5.000000000000000000e+00,5.000000000000000000e+00,5.000000000000000000e+00,5.000000000000000000e+00,5.000000000000000000e+00,5.000000000000000000e+00,5.000000000000000000e+00,5.000000000000000000e+00,5.000000000000000000e+00,5.000000000000000000e+00,4.215787887573242188e+00,4.190171718597412109e+00,4.275926113128662109e+00,4.322337627410888672e+00,4.356902599334716797e+00,5.000000000000000000e+00,4.274112224578857422e+00,5.000000000000000000e+00,5.000000000000000000e+00,5.000000000000000000e+00,5.000000000000000000e+00,5.000000000000000000e+00,5.000000000000000000e+00,5.000000000000000000e+00,5.000000000000000000e+00,5.000000000000000000e+00,4.867911815643310547e+00,4.676474094390869141e+00,4.499523639678955078e+00,4.335475921630859375e+00,4.182969570159912109e+00,4.040827751159667969e+00,3.908029079437255859e+00,3.783680915832519531e+00,3.667001962661743164e+00,3.557303905487060547e+00,3.453978538513183594e+00,3.356486082077026367e+00,3.264346122741699219e+00,3.177129983901977539e+00,3.094452619552612305e+00,3.015969276428222656e+00,2.941368579864501953e+00,2.870369434356689453e+00,2.802716970443725586e+00,2.738179922103881836e+00,2.676548242568969727e+00,2.617630243301391602e+00,2.561249732971191406e+00,2.507246971130371094e+00,2.455474615097045898e+00,2.405797004699707031e+00,2.358089685440063477e+00,2.312237262725830078e+00,2.268134593963623047e+00,2.225682258605957031e+00,2.184790372848510742e+00,2.145373821258544922e+00,2.107354164123535156e+00,2.070658445358276367e+00,2.035219192504882812e+00,2.000972509384155273e+00,1.967859268188476562e+00,1.935824036598205566e+00,1.904815435409545898e+00,1.874784231185913086e+00,1.845685362815856934e+00
5.000000000000000000e+00,5.000000000000000000e+00,5.000000000000000000e+00,5.000000000000000000e+00,5.000000000000000000e+00,5.000000000000000000e+00,5.000000000000000000e+00,5.000000000000000000e+00,5.000000000000000000e+00,5.000000000000000000e+00,5.000000000000000000e+00,5.000000000000000000e+00,5.000000000000000000e+00,5.000000000000000000e+00,5.000000000000000000e+00,5.000000000000000000e+00,5.000000000000000000e+00,5.000000000000000000e+00,5.000000000000000000e+00,5.000000000000000000e+00,5.000000000000000000e+00,5.000000000000000000e+00,5.000000000000000000e+00,4.180244445800781250e+00,4.156746387481689453e+00,4.254780292510986328e+00,4.329130649566650391e+00,4.367062568664550781e+00,5.000000000000000000e+00,5.000000000000000000e+00,5.000000000000000000e+00,5.000000000000000000e+00,5.000000000000000000e+00,5.000000000000000000e+00,5.000000000000000000e+00,5.000000000000000000e+00,5.000000000000000000e+00,5.000000000000000000e+00,5.000000000000000000e+00,4.868052005767822266e+00,4.676603317260742188e+00,4.499643802642822266e+00,4.335587501525878906e+00,4.183073043823242188e+00,4.040924549102783203e+00,3.908119201660156250e+00,3.783765554428100586e+00,3.667081594467163086e+00,3.557378768920898438e+00,3.454049110412597656e+00,3.356552839279174805e+00,3.264409303665161133e+00,3.177189588546752930e+00,3.094509363174438477e+00,3.016023159027099609e+00,2.941419839859008789e+00,2.870418071746826172e+00,2.802763462066650391e+00,2.738224506378173828e+00,2.676590681076049805e+00,2.617670536041259766e+00,2.561288833618164062e+00,2.507284402847290039e+00,2.455510139465332031e+00,2.405831098556518555e+00,2.358122587203979492e+00,2.312268972396850586e+00,2.268164873123168945e+00,2.225711822509765625e+00,2.184818506240844727e+00,2.145400762557983398e+00,2.107380390167236328e+00,2.070683956146240234e+00,2.035243749618530273e+00,2.000996112823486328e+00,1.967882394790649414e+00,1.935846447944641113e+00,1.904836893081665039e+00,1.874804973602294922e+00,1.845705509185791016e+00
5.000000000000000000e+00,5.000000000000000000e+00,5.000000000000000000e+00,5.000000000000000000e+00,5.000000000000000000e+00,5.000000000000000000e+00,5.000000000000000000e+00,5.000000000000000000e+00,5.000000000000000000e+00,5.000000000000000000e+00,5.000000000000000000e+00,5.000000000000000000e+00,5.000000000000000000e+00,5.000000000000000000e+00,5.000000000000000000e+00,5.000000000000000000e+00,5.000000000000000000e+00,5.000000000000000000e+00,5.000000000000000000e+00,5.000000000000000000e+00,5.000000000000000000e+00,5.000000000000000000e+00,5.000000000000000000e+00,5.000000000000000000e+00,4.119415760040283203e+00,5.000000000000000000e+00,4.338218688964843750e+00,4.382571697235107422e+00,5.000000000000000000e+00,5.000000000000000000e+00,5.000000000000000000e+00,5.000000000000000000e+00,5.000000000000000000e+00,5.000000000000000000e+00,5.000000000000000000e+00,5.000000000000000000e+00,5.000000000000000000e+00,5.000000000000000000e+00,5.000000000000000000e+00,4.868192672729492188e+00,4.676733016967773438e+00,4.499763488769531250e+00,4.335698604583740234e+00,4.183176994323730469e+00,4.041020870208740234e+00,3.908209800720214844e+00,3.783850431442260742e+00,3.667160987854003906e+00,3.557453870773315430e+00,3.454119682312011719e+00,3.356619358062744141e+00,3.264472246170043945e+00,3.177249431610107422e+00,3.094566106796264648e+00,3.016076803207397461e+00,2.941471099853515625e+00,2.870466947555541992e+00,2.802809953689575195e+00,2.738268613815307617e+00,2.676633358001708984e+00,2.617711305618286133e+00,2.561327457427978516e+00,2.507321357727050781e+00,2.455545902252197266e+00,2.405865430831909180e+00,2.358155250549316406e+00,2.312300682067871094e+00,2.268195390701293945e+00,2.225740909576416016e+00,2.184846639633178711e+00,2.145428180694580078e+00,2.107406616210937500e+00,2.070709228515625000e+00,2.035268306732177734e+00,2.001019954681396484e+00,1.967905163764953613e+00,1.935868501663208008e+00,1.904858231544494629e+00,1.874825716018676758e+00,1.845725655555725098e+00
5.000000000000000000e+00,5.000000000000000000e+00,5.000000000000000000e+00,5.000000000000000000e+00,5.000000000000000000e+00,5.000000000000000000e+00,5.000000000000000000e+00,5.000000000000000000e+00,5.000000000000000000e+00,5.000000000000000000e+00,5.000000000000000000e+00,5.000000000000000000e+00,5.000000000000000000e+00,5.000000000000000000e+00,5.000000000000000000e+00,5.000000000000000000e+00,5.000000000000000000e+00,5.000000000000000000e+00,5.000000000000000000e+00,5.000000000000000000e+00,5.000000000000000000e+00,5.000000000000000000e+00,5.000000000000000000e+00,5.000000000000000000e+00,4.095983505249023438e+00,5.000000000000000000e+00,4.347333431243896484e+00,5.000000000000000000e+00,5.000000000000000000e+00,5.000000000000000000e+00,5.000000000000000000e+00,5.000000000000000000e+00,5.000000000000000000e+00,5.000000000000000000e+00,5.000000000000000000e+00,5.000000000000000000e+00,5.000000000000000000e+00,5.000000000000000000e+00,5.000000000000000000e+00,4.868332862854003906e+00,4.676862239837646484e+00,4.499883174896240234e+00,4.335809707641601562e+00,4.183280467987060547e+00,4.041117668151855469e+00,3.908299922943115234e+00,3.783935308456420898e+00,3.667240858078002930e+00,3.557528495788574219e+00,3.454190254211425781e+00,3.356686115264892578e+00,3.264535427093505859e+00,3.177309036254882812e+00,3.094622850418090820e+00,3.016130924224853516e+00,2.941522121429443359e+00,2.870515584945678711e+00,2.802856445312500000e+00,2.738313198089599609e+00,2.676675558090209961e+00,2.617751836776733398e+00,2.561366319656372070e+00,2.507358789443969727e+00,2.455581665039062500e+00,2.405899763107299805e+00,2.358188390731811523e+00,2.312332391738891602e+00,2.268225669860839844e+00,2.225770235061645508e+00,2.184875011444091797e+00,2.145455360412597656e+00,2.107433080673217773e+00,2.070734739303588867e+00,2.035292863845825195e+00,2.001043558120727539e+00,1.967928051948547363e+00,1.935890674591064453e+00,1.904879689216613770e+00,1.874846696853637695e+00,1.845745921134948730e+00
5.000000000000000000e+00,5.000000000000000000e+00,5.000000000000000000e+00,5.000000000000000000e+00,5.000000000000000000e+00,5.000000000000000000e+00,5.000000000000000000e+00,5.000000000000000000e+00,5.000000000000000000e+00,5.000000000000000000e+00,5.000000000000000000e+00,5.000000000000000000e+00,5.000000000000000000e+00,5.000000000000000000e+00,5.000000000000000000e+00,5.000000000000000000e+00,5.000000000000000000e+00,5.000000000000000000e+00,5.000000000000000000e+00,5.000000000000000000e+00,5.000000000000000000e+00,5.000000000000000000e+00,5.000000000000000000e+00,5.000000000000000000e+00,4.112337112426757812e+00,5.000000000000000000e+00,4.354389190673828125e+00,5.000000000000000000e+00,5.000000000000000000e+00,5.000000000000000000e+00,5.000000000000000000e+00,5.000000000000000000e+00,5.000000000000000000e+00,5.000000000000000000e+00,5.000000000000000000e+00,5.000000000000000000e+00,5.000000000000000000e+00,5.000000000000000000e+00,5.000000000000000000e+00,4.868471145629882812e+00,4.676991939544677734e+00,4.500003337860107422e+00,4.335921287536621094e+00,4.183383941650390625e+00,4.041214466094970703e+00,3.908390522003173828e+00,3.784019708633422852e+00,3.667320251464843750e+00,3.557603597640991211e+00,3.454261064529418945e+00,3.356752634048461914e+00,3.264598608016967773e+00,3.177368879318237305e+00,3.094679355621337891e+00,3.016184568405151367e+00,2.941573619842529297e+00,2.870564460754394531e+00,2.802902698516845703e+00,2.738357543945312500e+00,2.676717996597290039e+00,2.617792367935180664e+00,2.561404943466186523e+00,2.507395982742309570e+00,2.455617427825927734e+00,2.405933856964111328e+00,2.358221054077148438e+00,2.312364101409912109e+00,2.268256187438964844e+00,2.225799560546875000e+00,2.184903383255004883e+00,2.145482540130615234e+00,2.107459306716918945e+00,2.070760011672973633e+00,2.035317420959472656e+00,2.001067161560058594e+00,1.967950940132141113e+00,1.935912966728210449e+00,1.904901266098022461e+00,1.874867439270019531e+00,1.845766067504882812e+00
5.000000000000000000e+00,5.000000000000000000e+00,5.000000000000000000e+00,5.000000000000000000e+00,5.000000000000000000e+00,5.000000000000000000e+00,5.000000000000000000e+00,5.000000000000000000e+00,5.000000000000000000e+00,5.000000000000000000e+00,5.000000000000000000e+00,5.000000000000000000e+00,5.000000000000000000e+00,5.000000000000000000e+00,5.000000000000000000e+00,5.000000000000000000e+00,5.000000000000000000e+00,5.000000000000000000e+00,5.000000000000000000e+00,5.000000000000000000e+00,5.000000000000000000e+00,5.000000000000000000e+00,5.000000000000000000e+00,5.000000000000000000e+00,4.130917549133300781e+00,5.000000000000000000e+00,4.403500080108642578e+00,5.000000000000000000e+00,5.000000000000000000e+00,5.000000000000000000e+00,5.000000000000000000e+00,5.000000000000000000e+00,5.000000000000000000e+00,5.000000000000000000e+00,5.000000000000000000e+00,5.000000000000000000e+00,5.000000000000000000e+00,5.000000000000000000e+00,5.000000000000000000e+00,4.868610382080078125e+00,4.677119731903076172e+00,4.500123023986816406e+00,4.336032390594482422e+00,4.183487415313720703e+00,4.041311264038085938e+00,3.908480644226074219e+00,3.784104824066162109e+00,3.667399883270263672e+00,3.557678461074829102e+00,3.454331636428833008e+00,3.356819391250610352e+00,3.264661550521850586e+00,3.177428483963012695e+00,3.094736099243164062e+00,3.016238451004028320e+00,2.941624641418457031e+00,2.870613336563110352e+00,2.802949428558349609e+00,2.738401889801025391e+00,2.676760435104370117e+00,2.617832899093627930e+00,2.561444044113159180e+00,2.507433176040649414e+00,2.455653190612792969e+00,2.405968189239501953e+00,2.358254194259643555e+00,2.312395572662353516e+00,2.268286705017089844e+00,2.225828886032104492e+00,2.184931516647338867e+00,2.145509719848632812e+00,2.107485532760620117e+00,2.070785284042358398e+00,2.035341739654541016e+00,2.001091003417968750e+00,1.967973947525024414e+00,1.935935139656066895e+00,1.904922723770141602e+00,1.874888181686401367e+00,1.845786094665527344e+00
5.000000000000000000e+00,5.000000000000000000e+00,5.000000000000000000e+00,5.000000000000000000e+00,5.000000000000000000e+00,5.000000000000000000e+00,5.000000000000000000e+00,5.000000000000000000e+00,5.000000000000000000e+00,5.000000000000000000e+00,5.000000000000000000e+00,5.000000000000000000e+00,5.000000000000000000e+00,5.000000000000000000e+00,5.000000000000000000e+00,5.000000000000000000e+00,5.000000000000000000e+00,5.000000000000000000e+00,5.000000000000000000e+00,5.000000000000000000e+00,5.000000000000000000e+00,5.000000000000000000e+00,5.000000000000000000e+00,5.000000000000000000e+00,4.128470897674560547e+00,5.000000000000000000e+00,4.453697681427001953e+00,5.000000000000000000e+00,5.000000000000000000e+00,5.000000000000000000e+00,5.000000000000000000e+00,5.000000000000000000e+00,5.000000000000000000e+00,5.000000000000000000e+00,5.000000000000000000e+00,5.000000000000000000e+00,5.000000000000000000e+00,5.000000000000000000e+00,5.000000000000000000e+00,4.868749618530273438e+00,4.677248477935791016e+00,4.500242710113525391e+00,4.336143493652343750e+00,4.183590888977050781e+00,4.041407585144042969e+00,3.908571243286132812e+00,3.784189224243164062e+00,3.667479753494262695e+00,3.557753324508666992e+00,3.454402208328247070e+00,3.356885910034179688e+00,3.264724731445312500e+00,3.177488327026367188e+00,3.094792604446411133e+00,3.016292333602905273e+00,2.941675901412963867e+00,2.870661973953247070e+00,2.802995681762695312e+00,2.738446474075317383e+00,2.676802873611450195e+00,2.617873430252075195e+00,2.561482906341552734e+00,2.507470369338989258e+00,2.455688714981079102e+00,2.406002521514892578e+00,2.358287096023559570e+00,2.312427282333374023e+00,2.268316984176635742e+00,2.225858449935913086e+00,2.184959888458251953e+00,2.145537137985229492e+00,2.107511758804321289e+00,2.070810794830322266e+00,2.035366296768188477e+00,2.001114606857299805e+00,1.967996835708618164e+00,1.935957193374633789e+00,1.904944181442260742e+00,1.874908924102783203e+00,1.845806479454040527e+00
5.000000000000000000e+00,5.000000000000000000e+00,5.000000000000000000e+00,5.000000000000000000e+00,5.000000000000000000e+00,5.000000000000000000e+00,5.000000000000000000e+00,5.000000000000000000e+00,5.000000000000000000e+00,5.000000000000000000e+00,5.000000000000000000e+00,5.000000000000000000e+00,5.000000000000000000e+00,5.000000000000000000e+00,5.000000000000000000e+00,5.000000000000000000e+00,5.000000000000000000e+00,5.000000000000000000e+00,5.000000000000000000e+00,5.000000000000000000e+00,5.000000000000000000e+00,5.000000000000000000e+00,5.000000000000000000e+00,5.000000000000000000e+00,4.125816822052001953e+00,5.000000000000000000e+00,4.485357284545898438e+00,5.000000000000000000e+00,5.000000000000000000e+00,5.000000000000000000e+00,5.000000000000000000e+00,5.000000000000000000e+00,5.000000000000000000e+00,5.000000000000000000e+00,5.000000000000000000e+00,5.000000000000000000e+00,5.000000000000000000e+00,5.000000000000000000e+00,5.000000000000000000e+00,4.868888854980468750e+00,4.677377223968505859e+00,4.500360488891601562e+00,4.336255073547363281e+00,4.183694839477539062e+00,4.041504383087158203e+00,3.908661842346191406e+00,3.784274101257324219e+00,3.667559146881103516e+00,3.557828187942504883e+00,3.454473018646240234e+00,3.356952905654907227e+00,3.264787435531616211e+00,3.177548170089721680e+00,3.094849348068237305e+00,3.016346216201782227e+00,2.941726922988891602e+00,2.870710849761962891e+00,2.803042411804199219e+00,2.738490581512451172e+00,2.676845312118530273e+00,2.617913961410522461e+00,2.561521530151367188e+00,2.507507562637329102e+00,2.455724477767944336e+00,2.406036853790283203e+00,2.358319997787475586e+00,2.312458992004394531e+00,2.268347501754760742e+00,2.225887537002563477e+00,2.184988021850585938e+00,2.145564317703247070e+00,2.107537984848022461e+00,2.070836067199707031e+00,2.035390853881835938e+00,2.001138448715209961e+00,1.968019723892211914e+00,1.935979366302490234e+00,1.904965758323669434e+00,1.874929904937744141e+00,1.845826506614685059e+00
5.000000000000000000e+00,5.000000000000000000e+00,5.000000000000000000e+00,5.000000000000000000e+00,5.000000000000000000e+00,5.000000000000000000e+00,5.000000000000000000e+00,5.000000000000000000e+00,5.000000000000000000e+00,5.000000000000000000e+00,5.000000000000000000e+00,5.000000000000000000e+00,5.000000000000000000e+00,5.000000000000000000e+00,5.000000000000000000e+00,5.000000000000000000e+00,5.000000000000000000e+00,5.000000000000000000e+00,5.000000000000000000e+00,5.000000000000000000e+00,5.000000000000000000e+00,5.000000000000000000e+00,5.000000000000000000e+00,5.000000000000000000e+00,4.135494232177734375e+00,5.000000000000000000e+00,4.537717819213867188e+00,5.000000000000000000e+00,5.000000000000000000e+00,5.000000000000000000e+00,5.000000000000000000e+00,5.000000000000000000e+00,5.000000000000000000e+00,5.000000000000000000e+00,5.000000000000000000e+00,5.000000000000000000e+00,5.000000000000000000e+00,5.000000000000000000e+00,5.000000000000000000e+00,4.869028091430664062e+00,4.677505493164062500e+00,4.500479698181152344e+00,4.336364746093750000e+00,4.183798313140869141e+00,4.041600704193115234e+00,3.908751964569091797e+00,3.784358739852905273e+00,3.667638778686523438e+00,3.557903051376342773e+00,3.454543352127075195e+00,3.357019662857055664e+00,3.264850854873657227e+00,3.177607774734497070e+00,3.094906091690063477e+00,3.016400098800659180e+00,2.941778182983398438e+00,2.870759487152099609e+00,2.803088903427124023e+00,2.738535165786743164e+00,2.676887512207031250e+00,2.617954492568969727e+00,2.561560392379760742e+00,2.507544755935668945e+00,2.455760002136230469e+00,2.406071186065673828e+00,2.358352899551391602e+00,2.312490463256835938e+00,2.268378019332885742e+00,2.225916862487792969e+00,2.185016393661499023e+00,2.145591497421264648e+00,2.107564449310302734e+00,2.070861577987670898e+00,2.035415410995483398e+00,2.001162052154541016e+00,1.968042731285095215e+00,1.936001658439636230e+00,1.904987215995788574e+00,1.874950647354125977e+00,1.845846652984619141e+00
5.000000000000000000e+00,5.000000000000000000e+00,5.000000000000000000e+00,5.000000000000000000e+00,5.000000000000000000e+00,5.000000000000000000e+00,5.000000000000000000e+00,5.000000000000000000e+00,5.000000000000000000e+00,5.000000000000000000e+00,5.000000000000000000e+00,5.000000000000000000e+00,5.000000000000000000e+00,5.000000000000000000e+00,5.000000000000000000e+00,5.000000000000000000e+00,5.000000000000000000e+00,5.000000000000000000e+00,5.000000000000000000e+00,5.000000000000000000e+00,5.000000000000000000e+00,5.000000000000000000e+00,5.000000000000000000e+00,5.000000000000000000e+00,4.150819301605224609e+00,5.000000000000000000e+00,5.000000000000000000e+00,5.000000000000000000e+00,5.000000000000000000e+00,5.000000000000000000e+00,5.000000000000000000e+00,5.000000000000000000e+00,5.000000000000000000e+00,5.000000000000000000e+00,5.000000000000000000e+00,5.000000000000000000e+00,5.000000000000000000e+00,5.000000000000000000e+00,5.000000000000000000e+00,4.869167327880859375e+00,4.677633762359619141e+00,4.500598907470703125e+00,4.336475372314453125e+00,4.183900833129882812e+00,4.041697502136230469e+00,3.908842563629150391e+00,3.784443616867065430e+00,3.667718172073364258e+00,3.557978153228759766e+00,3.454614162445068359e+00,3.357086181640625000e+00,3.264913558959960938e+00,3.177667617797851562e+00,3.094962835311889648e+00,3.016453742980957031e+00,2.941829681396484375e+00,2.870808362960815430e+00,2.803135395050048828e+00,2.738579273223876953e+00,2.676930189132690430e+00,2.617995023727416992e+00,2.561599254608154297e+00,2.507582187652587891e+00,2.455795764923095703e+00,2.406105279922485352e+00,2.358385801315307617e+00,2.312522172927856445e+00,2.268408536911010742e+00,2.225946187973022461e+00,2.185044765472412109e+00,2.145618915557861328e+00,2.107590675354003906e+00,2.070886850357055664e+00,2.035439968109130859e+00,2.001185655593872070e+00,1.968065619468688965e+00,1.936023712158203125e+00,1.905008554458618164e+00,1.874971389770507812e+00,1.845866799354553223e+00
4.871795177459716797e+00,4.870573520660400391e+00,4.869352340698242188e+00,4.868132114410400391e+00,4.866911888122558594e+00,4.865692615509033203e+00,4.864474296569824219e+00,4.863255977630615234e+00,4.862038612365722656e+00,4.860821247100830078e+00,4.859605312347412109e+00,4.858389854431152344e+00,4.857174396514892578e+00,4.855960369110107422e+00,4.854746341705322266e+00,4.853533267974853516e+00,4.852320194244384766e+00,4.851108551025390625e+00,4.849897384643554688e+00,4.848686218261718750e+00,4.847476005554199219e+00,4.846266269683837891e+00,4.845057487487792969e+00,4.843848705291748047e+00,3.994968414306640625e+00,4.440801620483398438e+00,4.521370887756347656e+00,4.839021682739257812e+00,4.837815761566162109e+00,4.836611270904541016e+00,4.835407257080078125e+00,4.834203243255615234e+00,4.833000659942626953e+00,4.831797599792480469e+00,4.830595970153808594e+00,4.829394817352294922e+00,4.828194141387939453e+00,4.826994419097900391e+00,4.825794696807861328e+00,4.824596405029296875e+00,4.677762508392333984e+00,4.500717639923095703e+00,4.336585521697998047e+00,4.184003353118896484e+00,4.041794300079345703e+00,3.908932924270629883e+00,3.784528493881225586e+00,3.667798042297363281e+00,3.558053016662597656e+00,3.454684495925903320e+00,3.357152938842773438e+00,3.264976978302001953e+00,3.177727222442626953e+00,3.095019578933715820e+00,3.016507863998413086e+00,2.941880702972412109e+00,2.870857000350952148e+00,2.803181886672973633e+00,2.738623857498168945e+00,2.676972389221191406e+00,2.618035793304443359e+00,2.561638116836547852e+00,2.507619142532348633e+00,2.455831289291381836e+00,2.406139612197875977e+00,2.358418703079223633e+00,2.312553882598876953e+00,2.268439054489135742e+00,2.225975513458251953e+00,2.185072898864746094e+00,2.145646095275878906e+00,2.107616901397705078e+00,2.070912361145019531e+00,2.035464286804199219e+00,2.001209497451782227e+00,1.968088507652282715e+00,1.936045885086059570e+00,1.905030012130737305e+00,1.874992370605468750e+00,1.845887064933776855e+00
3.776630878448486328e+00,3.775896310806274414e+00,3.775162220001220703e+00,3.774428844451904297e+00,3.773695468902587891e+00,3.772962093353271484e+00,3.772229671478271484e+00,3.771497011184692383e+00,3.770764589309692383e+00,3.770032882690429688e+00,3.769301176071166992e+00,3.768569469451904297e+00,3.767838239669799805e+00,3.767107725143432617e+00,3.766377210617065430e+00,3.765646696090698242e+00,3.764917135238647461e+00,3.764187097549438477e+00,3.763457536697387695e+00,3.762728452682495117e+00,3.761999845504760742e+00,3.761271238327026367e+00,3.760542869567871094e+00,3.759814977645874023e+00,3.759087324142456055e+00,3.758359670639038086e+00,3.757632255554199219e+00,3.756905794143676758e+00,3.756179094314575195e+00,3.755452632904052734e+00,3.754726886749267578e+00,3.754000902175903320e+00,3.753275394439697266e+00,3.752550363540649414e+00,3.751825332641601562e+00,3.751100540161132812e+00,3.750376224517822266e+00,3.749652385711669922e+00,3.748928546905517578e+00,3.748204708099365234e+00,3.747481822967529297e+00,3.746758699417114258e+00,3.746036052703857422e+00,3.745313405990600586e+00,3.744591712951660156e+00,3.743869543075561523e+00,3.743147850036621094e+00,3.667877435684204102e+00,3.558128118515014648e+00,3.454755306243896484e+00,3.357219457626342773e+00,3.265040159225463867e+00,3.177787065505981445e+00,3.095076084136962891e+00,3.016561508178710938e+00,2.941931962966918945e+00,2.870905876159667969e+00,2.803228378295898438e+00,2.738668203353881836e+00,2.677014827728271484e+00,2.618076324462890625e+00,2.561676979064941406e+00,2.507656574249267578e+00,2.455867052078247070e+00,2.406173706054687500e+00,2.358451604843139648e+00,2.312585592269897461e+00,2.268469333648681641e+00,2.226004838943481445e+00,2.185101032257080078e+00,2.145673274993896484e+00,2.107643127441406250e+00,2.070937633514404297e+00,2.035488843917846680e+00,2.001233100891113281e+00,1.968111276626586914e+00,1.936068177223205566e+00,1.905051589012145996e+00,1.875013113021850586e+00,1.845907092094421387e+00
3.083475112915039062e+00,3.082985639572143555e+00,3.082496166229248047e+00,3.082006931304931641e+00,3.081518173217773438e+00,3.081029176712036133e+00,3.080540418624877930e+00,3.080052137374877930e+00,3.079563617706298828e+00,3.079075336456298828e+00,3.078587055206298828e+00,3.078099489212036133e+00,3.077611446380615234e+00,3.077123880386352539e+00,3.076636552810668945e+00,3.076149225234985352e+00,3.075661897659301758e+00,3.075175046920776367e+00,3.074688196182250977e+00,3.074201345443725586e+00,3.073714733123779297e+00,3.073228597640991211e+00,3.072742223739624023e+00,3.072256088256835938e+00,3.071770429611206055e+00,3.071284532546997070e+00,3.070798873901367188e+00,3.070313215255737305e+00,3.069828271865844727e+00,3.069342851638793945e+00,3.068857908248901367e+00,3.068373203277587891e+00,3.067888498306274414e+00,3.067403793334960938e+00,3.066919326782226562e+00,3.066435337066650391e+00,3.065951108932495117e+00,3.065467357635498047e+00,3.064983606338500977e+00,3.064499855041503906e+00,3.064016342163085938e+00,3.063533067703247070e+00,3.063050031661987305e+00,3.062566995620727539e+00,3.062083959579467773e+00,3.061601400375366211e+00,3.061118841171264648e+00,3.060636281967163086e+00,3.060153961181640625e+00,3.059672117233276367e+00,3.059190034866333008e+00,3.058708190917968750e+00,3.058226823806762695e+00,3.057745218276977539e+00,3.016615390777587891e+00,2.941982984542846680e+00,2.870954751968383789e+00,2.803274869918823242e+00,2.738712549209594727e+00,2.677057266235351562e+00,2.618116855621337891e+00,2.561715841293334961e+00,2.507693529129028320e+00,2.455903053283691406e+00,2.406208038330078125e+00,2.358484506607055664e+00,2.312617063522338867e+00,2.268499851226806641e+00,2.226034164428710938e+00,2.185129404067993164e+00,2.145700693130493164e+00,2.107669591903686523e+00,2.070963144302368164e+00,2.035513401031494141e+00,2.001256942749023438e+00,1.968134403228759766e+00,1.936090350151062012e+00,1.905073046684265137e+00,1.875033855438232422e+00,1.845927238464355469e+00
2.605302572250366211e+00,2.604953050613403320e+00,2.604604005813598633e+00,2.604254484176635742e+00,2.603905439376831055e+00,2.603556394577026367e+00,2.603207349777221680e+00,2.602858543395996094e+00,2.602509498596191406e+00,2.602160930633544922e+00,2.601812362670898438e+00,2.601463794708251953e+00,2.601115465164184570e+00,2.600767135620117188e+00,2.600418806076049805e+00,2.600070953369140625e+00,2.599722862243652344e+00,2.599374771118164062e+00,2.599026918411254883e+00,2.598679065704345703e+00,2.598331451416015625e+00,2.597983837127685547e+00,2.597636461257934570e+00,2.597289085388183594e+00,2.596941709518432617e+00,2.596594333648681641e+00,2.596247434616088867e+00,2.595900297164916992e+00,2.595553398132324219e+00,2.595206737518310547e+00,2.594859838485717773e+00,2.594513177871704102e+00,2.594166517257690430e+00,2.593820333480834961e+00,2.593473911285400391e+00,2.593127489089965820e+00,2.592781543731689453e+00,2.592435359954833984e+00,2.592089176177978516e+00,2.591743469238281250e+00,2.591397523880004883e+00,2.591051816940307617e+00,2.590706110000610352e+00,2.590360641479492188e+00,2.590015172958374023e+00,2.589669704437255859e+00,2.589324712753295898e+00,2.588979482650756836e+00,2.588634252548217773e+00,2.588289260864257812e+00,2.587944507598876953e+00,2.587599515914916992e+00,2.587254762649536133e+00,2.586910486221313477e+00,2.586565732955932617e+00,2.586221218109130859e+00,2.585876941680908203e+00,2.585532903671264648e+00,2.585188627243041992e+00,2.584844589233398438e+00,2.584500551223754883e+00,2.561754703521728516e+00,2.507730960845947266e+00,2.455938577651977539e+00,2.406242132186889648e+00,2.358517646789550781e+00,2.312648773193359375e+00,2.268530368804931641e+00,2.226063489913940430e+00,2.185157537460327148e+00,2.145727872848510742e+00,2.107695817947387695e+00,2.070988416671752930e+00,2.035537958145141602e+00,2.001280546188354492e+00,1.968157291412353516e+00,1.936112523078918457e+00,1.905094504356384277e+00,1.875054597854614258e+00,1.845947623252868652e+00
2.255483150482177734e+00,2.255223035812377930e+00,2.254963159561157227e+00,2.254703283309936523e+00,2.254443645477294922e+00,2.254183769226074219e+00,2.253923892974853516e+00,2.253664255142211914e+00,2.253404855728149414e+00,2.253145217895507812e+00,2.252885818481445312e+00,2.252626419067382812e+00,2.252367019653320312e+00,2.252107858657836914e+00,2.251848459243774414e+00,2.251589298248291016e+00,2.251330375671386719e+00,2.251071214675903320e+00,2.250812292098999023e+00,2.250553369522094727e+00,2.250294446945190430e+00,2.250035762786865234e+00,2.249776840209960938e+00,2.249516487121582031e+00,2.249256134033203125e+00,2.248995542526245117e+00,2.248735189437866211e+00,2.248474836349487305e+00,2.248214483261108398e+00,2.247954368591308594e+00,2.247694253921508789e+00,2.247434139251708984e+00,2.247174024581909180e+00,2.246913909912109375e+00,2.246654033660888672e+00,2.246394157409667969e+00,2.246134281158447266e+00,2.245874643325805664e+00,2.245615005493164062e+00,2.245355367660522461e+00,2.245095729827880859e+00,2.244836330413818359e+00,2.244576930999755859e+00,2.244317293167114258e+00,2.244058132171630859e+00,2.243798971176147461e+00,2.243539571762084961e+00,2.243280410766601562e+00,2.243021488189697266e+00,2.242762327194213867e+00,2.242503404617309570e+00,2.242244720458984375e+00,2.241985797882080078e+00,2.241726875305175781e+00,2.241468191146850586e+00,2.241209506988525391e+00,2.240950822830200195e+00,2.240692377090454102e+00,2.240433931350708008e+00,2.240175485610961914e+00,2.239917039871215820e+00,2.239658832550048828e+00,2.239400625228881836e+00,2.239142417907714844e+00,2.238884210586547852e+00,2.238626241683959961e+00,2.238368272781372070e+00,2.238110065460205078e+00,2.226093053817749023e+00,2.185185909271240234e+00,2.145755052566528320e+00,2.107722043991088867e+00,2.071013689041137695e+00,2.035562515258789062e+00,2.001304388046264648e+00,1.968180179595947266e+00,1.936134576797485352e+00,1.905116081237792969e+00,1.875075578689575195e+00,1.845967650413513184e+00
1.988400578498840332e+00,1.988198637962341309e+00,1.987996578216552734e+00,1.987794637680053711e+00,1.987592577934265137e+00,1.987390637397766113e+00,1.987188935279846191e+00,1.986986994743347168e+00,1.986785292625427246e+00,1.986583471298217773e+00,1.986381649971008301e+00,1.986180186271667480e+00,1.985978364944458008e+00,1.985777020454406738e+00,1.985575318336486816e+00,1.985373973846435547e+00,1.985172390937805176e+00,1.984970927238464355e+00,1.984769701957702637e+00,1.984568238258361816e+00,1.984367012977600098e+00,1.984165668487548828e+00,1.983964562416076660e+00,1.983763337135314941e+00,1.983562111854553223e+00,1.983361124992370605e+00,1.983160018920898438e+00,1.982959151268005371e+00,1.982758045196533203e+00,1.982557058334350586e+00,1.982356309890747070e+00,1.982155323028564453e+00,1.981954693794250488e+00,1.981753826141357422e+00,1.981553196907043457e+00,1.981352448463439941e+00,1.981151700019836426e+00,1.980951189994812012e+00,1.980750560760498047e+00,1.980550169944763184e+00,1.980349540710449219e+00,1.980149030685424805e+00,1.979948759078979492e+00,1.979748249053955078e+00,1.979548096656799316e+00,1.979347705841064453e+00,1.979147553443908691e+00,1.978947281837463379e+00,1.978747010231018066e+00,1.978546977043151855e+00,1.978346824645996094e+00,1.978146910667419434e+00,1.977946877479553223e+00,1.977746963500976562e+00,1.977547049522399902e+00,1.977347016334533691e+00,1.977147340774536133e+00,1.976947426795959473e+00,1.976747751235961914e+00,1.976547956466674805e+00,1.976348161697387695e+00,1.976148724555969238e+00,1.975949048995971680e+00,1.975749611854553223e+00,1.975549936294555664e+00,1.975350618362426758e+00,1.975151062011718750e+00,1.974951624870300293e+00,1.974752426147460938e+00,1.974552989006042480e+00,1.974353790283203125e+00,1.974154472351074219e+00,1.973955154418945312e+00,1.973756194114685059e+00,1.973556995391845703e+00,1.968203186988830566e+00,1.936156868934631348e+00,1.905137538909912109e+00,1.875096321105957031e+00,1.845987796783447266e+00
1.777874231338500977e+00,1.777712583541870117e+00,1.777551174163818359e+00,1.777389645576477051e+00,1.777228116989135742e+00,1.777066707611083984e+00,1.776905298233032227e+00,1.776744008064270020e+00,1.776582598686218262e+00,1.776421308517456055e+00,1.776260018348693848e+00,1.776098608970642090e+00,1.775937557220458984e+00,1.775776267051696777e+00,1.775615215301513672e+00,1.775453925132751465e+00,1.775292754173278809e+00,1.775131821632385254e+00,1.774970650672912598e+00,1.774809718132019043e+00,1.774648666381835938e+00,1.774487853050231934e+00,1.774326801300048828e+00,1.774165868759155273e+00,1.774005055427551270e+00,1.773844122886657715e+00,1.773683428764343262e+00,1.773522496223449707e+00,1.773361682891845703e+00,1.773200988769531250e+00,1.773040294647216797e+00,1.772879719734191895e+00,1.772718906402587891e+00,1.772558450698852539e+00,1.772397756576538086e+00,1.772237181663513184e+00,1.772076725959777832e+00,1.771916151046752930e+00,1.771755814552307129e+00,1.771595239639282227e+00,1.771434903144836426e+00,1.771274447441101074e+00,1.771113991737365723e+00,1.770953774452209473e+00,1.770793437957763672e+00,1.770633220672607422e+00,1.770472884178161621e+00,1.770312666893005371e+00,1.770152568817138672e+00,1.769992351531982422e+00,1.769832372665405273e+00,1.769672155380249023e+00,1.769512176513671875e+00,1.769352078437805176e+00,1.769191980361938477e+00,1.769032120704650879e+00,1.768872022628784180e+00,1.768712282180786133e+00,1.768552303314208984e+00,1.768392324447631836e+00,1.768232583999633789e+00,1.768072724342346191e+00,1.767913103103637695e+00,1.767753243446350098e+00,1.767593622207641602e+00,1.767433881759643555e+00,1.767274141311645508e+00,1.767114520072937012e+00,1.766954898834228516e+00,1.766795396804809570e+00,1.766635775566101074e+00,1.766476392745971680e+00,1.766316771507263184e+00,1.766157269477844238e+00,1.765998005867004395e+00,1.765838503837585449e+00,1.765679240226745605e+00,1.765519857406616211e+00,1.765360474586486816e+00,1.765201330184936523e+00
1.607659459114074707e+00,1.607527494430541992e+00,1.607395291328430176e+00,1.607263207435607910e+00,1.607131242752075195e+00,1.606999158859252930e+00,1.606867313385009766e+00,1.606735229492187500e+00,1.606603384017944336e+00,1.606471419334411621e+00,1.606339454650878906e+00,1.606207609176635742e+00,1.606075763702392578e+00,1.605943918228149414e+00,1.605812072753906250e+00,1.605680227279663086e+00,1.605548501014709473e+00,1.605416655540466309e+00,1.605285048484802246e+00,1.605153322219848633e+00,1.605021715164184570e+00,1.604889988899230957e+00,1.604758262634277344e+00,1.604626655578613281e+00,1.604495048522949219e+00,1.604363560676574707e+00,1.604231953620910645e+00,1.604100465774536133e+00,1.603968858718872070e+00,1.603837370872497559e+00,1.603706002235412598e+00,1.603574395179748535e+00,1.603443145751953125e+00,1.603311657905578613e+00,1.603180170059204102e+00,1.603048920631408691e+00,1.602917432785034180e+00,1.602786183357238770e+00,1.602654814720153809e+00,1.602523684501647949e+00,1.602392315864562988e+00,1.602261066436767578e+00,1.602129936218261719e+00,1.601998686790466309e+00,1.601867556571960449e+00,1.601736426353454590e+00,1.601605176925659180e+00,1.601474165916442871e+00,1.601343035697937012e+00,1.601212024688720703e+00,1.601080894470214844e+00,1.600950002670288086e+00,1.600818991661071777e+00,1.600687861442565918e+00,1.600556969642639160e+00,1.600426077842712402e+00,1.600295186042785645e+00,1.600164294242858887e+00,1.600033283233642578e+00,1.599902510643005371e+00,1.599771618843078613e+00,1.599640846252441406e+00,1.599510073661804199e+00,1.599379420280456543e+00,1.599248528480529785e+00,1.599117755889892578e+00,1.598987221717834473e+00,1.598856449127197266e+00,1.598725914955139160e+00,1.598595142364501953e+00,1.598464608192443848e+00,1.598333954811096191e+00,1.598203301429748535e+00,1.598072886466979980e+00,1.597942233085632324e+00,1.597811818122863770e+00,1.597681283950805664e+00,1.597550749778747559e+00,1.597420454025268555e+00,1.597289919853210449e+00
1.467190027236938477e+00,1.467079877853393555e+00,1.466969847679138184e+00,1.466859936714172363e+00,1.466749906539916992e+00,1.466639995574951172e+00,1.466529965400695801e+00,1.466420173645019531e+00,1.466310143470764160e+00,1.466200232505798340e+00,1.466090440750122070e+00,1.465980529785156250e+00,1.465870738029479980e+00,1.465760827064514160e+00,1.465651035308837891e+00,1.465541243553161621e+00,1.465431451797485352e+00,1.465321779251098633e+00,1.465211987495422363e+00,1.465102314949035645e+00,1.464992523193359375e+00,1.464882731437683105e+00,1.464773178100585938e+00,1.464663505554199219e+00,1.464553833007812500e+00,1.464444160461425781e+00,1.464334607124328613e+00,1.464225053787231445e+00,1.464115381240844727e+00,1.464005827903747559e+00,1.463896274566650391e+00,1.463786840438842773e+00,1.463677287101745605e+00,1.463567733764648438e+00,1.463458299636840820e+00,1.463348746299743652e+00,1.463239431381225586e+00,1.463129878044128418e+00,1.463020563125610352e+00,1.462911128997802734e+00,1.462801694869995117e+00,1.462692379951477051e+00,1.462582945823669434e+00,1.462473750114440918e+00,1.462364315986633301e+00,1.462255001068115234e+00,1.462145805358886719e+00,1.462036490440368652e+00,1.461927294731140137e+00,1.461817979812622070e+00,1.461708784103393555e+00,1.461599588394165039e+00,1.461490273475646973e+00,1.461381196975708008e+00,1.461272001266479492e+00,1.461162924766540527e+00,1.461053729057312012e+00,1.460944771766662598e+00,1.460835576057434082e+00,1.460726499557495117e+00,1.460617542266845703e+00,1.460508346557617188e+00,1.460399389266967773e+00,1.460290431976318359e+00,1.460181355476379395e+00,1.460072398185729980e+00,1.459963440895080566e+00,1.459854602813720703e+00,1.459745526313781738e+00,1.459636688232421875e+00,1.459527730941772461e+00,1.459418892860412598e+00,1.459310054779052734e+00,1.459201097488403320e+00,1.459092378616333008e+00,1.458983540534973145e+00,1.458874702453613281e+00,1.458765983581542969e+00,1.458657145500183105e+00,1.458548426628112793e+00
1.349295020103454590e+00,1.349201917648315430e+00,1.349108934402465820e+00,1.349015831947326660e+00,1.348922848701477051e+00,1.348829746246337891e+00,1.348736882209777832e+00,1.348643898963928223e+00,1.348550796508789062e+00,1.348457932472229004e+00,1.348364949226379395e+00,1.348272085189819336e+00,1.348179101943969727e+00,1.348086357116699219e+00,1.347993373870849609e+00,1.347900509834289551e+00,1.347807645797729492e+00,1.347714781761169434e+00,1.347622036933898926e+00,1.347529172897338867e+00,1.347436308860778809e+00,1.347343564033508301e+00,1.347250699996948242e+00,1.347158074378967285e+00,1.347065210342407227e+00,1.346972584724426270e+00,1.346879720687866211e+00,1.346786975860595703e+00,1.346694350242614746e+00,1.346601605415344238e+00,1.346508979797363281e+00,1.346416234970092773e+00,1.346323609352111816e+00,1.346230983734130859e+00,1.346138358116149902e+00,1.346045732498168945e+00,1.345953106880187988e+00,1.345860600471496582e+00,1.345767974853515625e+00,1.345675349235534668e+00,1.345582842826843262e+00,1.345490217208862305e+00,1.345397830009460449e+00,1.345305204391479492e+00,1.345212817192077637e+00,1.345120191574096680e+00,1.345027685165405273e+00,1.344935297966003418e+00,1.344842791557312012e+00,1.344750404357910156e+00,1.344657897949218750e+00,1.344565510749816895e+00,1.344473123550415039e+00,1.344380736351013184e+00,1.344288349151611328e+00,1.344195961952209473e+00,1.344103693962097168e+00,1.344011306762695312e+00,1.343918919563293457e+00,1.343826651573181152e+00,1.343734264373779297e+00,1.343642115592956543e+00,1.343549728393554688e+00,1.343457460403442383e+00,1.343365311622619629e+00,1.343273043632507324e+00,1.343180775642395020e+00,1.343088507652282715e+00,1.342996358871459961e+00,1.342904210090637207e+00,1.342811942100524902e+00,1.342719912528991699e+00,1.342627644538879395e+00,1.342535614967346191e+00,1.342443466186523438e+00,1.342351317405700684e+00,1.342259168624877930e+00,1.342167139053344727e+00,1.342075109481811523e+00,1.341982960700988770e+00
1.248937487602233887e+00,1.248857855796813965e+00,1.248778104782104492e+00,1.248698472976684570e+00,1.248618721961975098e+00,1.248539090156555176e+00,1.248459339141845703e+00,1.248379588127136230e+00,1.248300075531005859e+00,1.248220324516296387e+00,1.248140811920166016e+00,1.248061060905456543e+00,1.247981548309326172e+00,1.247901916503906250e+00,1.247822284698486328e+00,1.247742772102355957e+00,1.247663140296936035e+00,1.247583627700805664e+00,1.247503995895385742e+00,1.247424364089965820e+00,1.247344970703125000e+00,1.247265338897705078e+00,1.247185945510864258e+00,1.247106313705444336e+00,1.247026920318603516e+00,1.246947407722473145e+00,1.246867895126342773e+00,1.246788501739501953e+00,1.246708989143371582e+00,1.246629595756530762e+00,1.246550083160400391e+00,1.246470689773559570e+00,1.246391296386718750e+00,1.246311902999877930e+00,1.246232509613037109e+00,1.246153116226196289e+00,1.246073842048645020e+00,1.245994329452514648e+00,1.245914936065673828e+00,1.245835661888122559e+00,1.245756387710571289e+00,1.245677113533020020e+00,1.245597720146179199e+00,1.245518445968627930e+00,1.245439171791076660e+00,1.245359778404235840e+00,1.245280623435974121e+00,1.245201349258422852e+00,1.245122075080871582e+00,1.245042800903320312e+00,1.244963526725769043e+00,1.244884371757507324e+00,1.244805097579956055e+00,1.244725942611694336e+00,1.244646787643432617e+00,1.244567632675170898e+00,1.244488358497619629e+00,1.244409203529357910e+00,1.244330167770385742e+00,1.244250893592834473e+00,1.244171857833862305e+00,1.244092702865600586e+00,1.244013547897338867e+00,1.243934512138366699e+00,1.243855357170104980e+00,1.243776321411132812e+00,1.243697285652160645e+00,1.243618249893188477e+00,1.243539214134216309e+00,1.243460059165954590e+00,1.243381142616271973e+00,1.243301987648010254e+00,1.243223071098327637e+00,1.243144035339355469e+00,1.243065118789672852e+00,1.242986083030700684e+00,1.242907047271728516e+00,1.242828249931335449e+00,1.242749214172363281e+00,1.242670297622680664e+00
1.162475347518920898e+00,1.162406206130981445e+00,1.162337183952331543e+00,1.162268161773681641e+00,1.162199139595031738e+00,1.162130117416381836e+00,1.162060976028442383e+00,1.161992073059082031e+00,1.161923050880432129e+00,1.161854028701782227e+00,1.161785006523132324e+00,1.161716103553771973e+00,1.161647081375122070e+00,1.161578059196472168e+00,1.161509156227111816e+00,1.161440134048461914e+00,1.161371231079101562e+00,1.161302208900451660e+00,1.161233305931091309e+00,1.161164402961730957e+00,1.161095499992370605e+00,1.161026597023010254e+00,1.160957694053649902e+00,1.160888791084289551e+00,1.160819888114929199e+00,1.160750985145568848e+00,1.160682201385498047e+00,1.160613298416137695e+00,1.160544514656066895e+00,1.160475611686706543e+00,1.160406827926635742e+00,1.160337924957275391e+00,1.160269141197204590e+00,1.160200357437133789e+00,1.160131454467773438e+00,1.160062789916992188e+00,1.159993886947631836e+00,1.159925103187561035e+00,1.159856438636779785e+00,1.159787654876708984e+00,1.159718871116638184e+00,1.159650087356567383e+00,1.159581422805786133e+00,1.159512639045715332e+00,1.159443855285644531e+00,1.159375190734863281e+00,1.159306526184082031e+00,1.159237861633300781e+00,1.159169077873229980e+00,1.159100413322448730e+00,1.159031748771667480e+00,1.158963084220886230e+00,1.158894419670104980e+00,1.158825755119323730e+00,1.158757209777832031e+00,1.158688545227050781e+00,1.158619880676269531e+00,1.158551335334777832e+00,1.158482670783996582e+00,1.158414125442504883e+00,1.158345580101013184e+00,1.158277034759521484e+00,1.158208370208740234e+00,1.158139824867248535e+00,1.158071279525756836e+00,1.158002734184265137e+00,1.157934188842773438e+00,1.157865643501281738e+00,1.157797098159790039e+00,1.157728552818298340e+00,1.157660126686096191e+00,1.157591581344604492e+00,1.157523036003112793e+00,1.157454609870910645e+00,1.157386183738708496e+00,1.157317638397216797e+00,1.157249212265014648e+00,1.157180786132812500e+00,1.157112360000610352e+00,1.157043933868408203e+00
1.087209343910217285e+00,1.087148904800415039e+00,1.087088465690612793e+00,1.087028145790100098e+00,1.086967706680297852e+00,1.086907267570495605e+00,1.086846947669982910e+00,1.086786508560180664e+00,1.086726188659667969e+00,1.086665868759155273e+00,1.086605548858642578e+00,1.086545109748840332e+00,1.086484789848327637e+00,1.086424469947814941e+00,1.086364150047302246e+00,1.086303830146789551e+00,1.086243510246276855e+00,1.086183071136474609e+00,1.086122870445251465e+00,1.086062550544738770e+00,1.086002349853515625e+00,1.085942029953002930e+00,1.085881710052490234e+00,1.085821509361267090e+00,1.085761189460754395e+00,1.085700988769531250e+00,1.085640668869018555e+00,1.085580468177795410e+00,1.085520148277282715e+00,1.085460066795349121e+00,1.085399746894836426e+00,1.085339546203613281e+00,1.085279345512390137e+00,1.085219144821166992e+00,1.085158944129943848e+00,1.085098743438720703e+00,1.085038542747497559e+00,1.084978461265563965e+00,1.084918260574340820e+00,1.084858059883117676e+00,1.084797859191894531e+00,1.084737777709960938e+00,1.084677577018737793e+00,1.084617495536804199e+00,1.084557414054870605e+00,1.084497213363647461e+00,1.084437131881713867e+00,1.084377050399780273e+00,1.084316849708557129e+00,1.084256768226623535e+00,1.084196686744689941e+00,1.084136605262756348e+00,1.084076523780822754e+00,1.084016561508178711e+00,1.083956480026245117e+00,1.083896398544311523e+00,1.083836317062377930e+00,1.083776235580444336e+00,1.083716273307800293e+00,1.083656191825866699e+00,1.083596229553222656e+00,1.083536148071289062e+00,1.083476185798645020e+00,1.083416223526000977e+00,1.083356142044067383e+00,1.083296179771423340e+00,1.083236217498779297e+00,1.083176136016845703e+00,1.083116292953491211e+00,1.083056330680847168e+00,1.082996368408203125e+00,1.082936406135559082e+00,1.082876443862915039e+00,1.082816481590270996e+00,1.082756519317626953e+00,1.082696676254272461e+00,1.082636713981628418e+00,1.082576870918273926e+00,1.082516908645629883e+00,1.082456946372985840e+00
1.021097064018249512e+00,1.021043777465820312e+00,1.020990490913391113e+00,1.020937204360961914e+00,1.020883917808532715e+00,1.020830631256103516e+00,1.020777344703674316e+00,1.020724177360534668e+00,1.020670890808105469e+00,1.020617604255676270e+00,1.020564436912536621e+00,1.020511150360107422e+00,1.020457863807678223e+00,1.020404696464538574e+00,1.020351529121398926e+00,1.020298242568969727e+00,1.020245075225830078e+00,1.020191788673400879e+00,1.020138621330261230e+00,1.020085453987121582e+00,1.020032286643981934e+00,1.019979119300842285e+00,1.019925951957702637e+00,1.019872665405273438e+00,1.019819617271423340e+00,1.019766449928283691e+00,1.019713282585144043e+00,1.019660115242004395e+00,1.019606947898864746e+00,1.019553780555725098e+00,1.019500732421875000e+00,1.019447565078735352e+00,1.019394397735595703e+00,1.019341349601745605e+00,1.019288182258605957e+00,1.019235134124755859e+00,1.019182085990905762e+00,1.019128918647766113e+00,1.019075870513916016e+00,1.019022822380065918e+00,1.018969774246215820e+00,1.018916606903076172e+00,1.018863558769226074e+00,1.018810510635375977e+00,1.018757462501525879e+00,1.018704414367675781e+00,1.018651366233825684e+00,1.018598318099975586e+00,1.018545269966125488e+00,1.018492221832275391e+00,1.018439292907714844e+00,1.018386244773864746e+00,1.018333196640014648e+00,1.018280267715454102e+00,1.018227219581604004e+00,1.018174171447753906e+00,1.018121242523193359e+00,1.018068313598632812e+00,1.018015265464782715e+00,1.017962336540222168e+00,1.017909288406372070e+00,1.017856359481811523e+00,1.017803430557250977e+00,1.017750501632690430e+00,1.017697572708129883e+00,1.017644643783569336e+00,1.017591595649719238e+00,1.017538785934448242e+00,1.017485737800598145e+00,1.017432928085327148e+00,1.017379999160766602e+00,1.017327070236206055e+00,1.017274141311645508e+00,1.017221212387084961e+00,1.017168402671813965e+00,1.017115473747253418e+00,1.017062664031982422e+00,1.017009735107421875e+00,1.016956925392150879e+00,1.016903996467590332e+00
9.625644087791442871e-01,9.625170230865478516e-01,9.624696373939514160e-01,9.624223709106445312e-01,9.623749852180480957e-01,9.623275995254516602e-01,9.622802734375000000e-01,9.622329473495483398e-01,9.621856808662414551e-01,9.621383547782897949e-01,9.620910286903381348e-01,9.620436429977416992e-01,9.619963169097900391e-01,9.619491100311279297e-01,9.619017839431762695e-01,9.618545174598693848e-01,9.618071913719177246e-01,9.617598652839660645e-01,9.617126584053039551e-01,9.616653919219970703e-01,9.616180658340454102e-01,9.615707993507385254e-01,9.615235328674316406e-01,9.614763855934143066e-01,9.614290595054626465e-01,9.613817930221557617e-01,9.613345265388488770e-01,9.612873792648315430e-01,9.612401723861694336e-01,9.611929059028625488e-01,9.611456394195556641e-01,9.610984325408935547e-01,9.610512852668762207e-01,9.610040783882141113e-01,9.609568119049072266e-01,9.609096050262451172e-01,9.608623981475830078e-01,9.608152508735656738e-01,9.607680439949035645e-01,9.607208371162414551e-01,9.606736898422241211e-01,9.606264829635620117e-01,9.605793952941894531e-01,9.605321884155273438e-01,9.604850411415100098e-01,9.604378342628479004e-01,9.603908061981201172e-01,9.603435993194580078e-01,9.602964520454406738e-01,9.602493047714233398e-01,9.602021574974060059e-01,9.601550698280334473e-01,9.601079821586608887e-01,9.600608348846435547e-01,9.600136876106262207e-01,9.599665403366088867e-01,9.599195122718811035e-01,9.598724246025085449e-01,9.598252773284912109e-01,9.597781896591186523e-01,9.597311019897460938e-01,9.596840739250183105e-01,9.596369862556457520e-01,9.595898985862731934e-01,9.595428109169006348e-01,9.594957232475280762e-01,9.594487547874450684e-01,9.594016671180725098e-01,9.593545794486999512e-01,9.593075513839721680e-01,9.592605829238891602e-01,9.592135548591613770e-01,9.591664671897888184e-01,9.591194391250610352e-01,9.590724110603332520e-01,9.590254426002502441e-01,9.589784145355224609e-01,9.589313864707946777e-01,9.588843584060668945e-01,9.588373303413391113e-01
9.103783965110778809e-01,9.103360176086425781e-01,9.102937579154968262e-01,9.102513790130615234e-01,9.102090001106262207e-01,9.101666212081909180e-01,9.101242423057556152e-01,9.100819826126098633e-01,9.100396633148193359e-01,9.099972844123840332e-01,9.099549651145935059e-01,9.099125862121582031e-01,9.098703265190124512e-01,9.098280072212219238e-01,9.097856879234313965e-01,9.097433686256408691e-01,9.097010493278503418e-01,9.096587896347045898e-01,9.096164703369140625e-01,9.095742106437683105e-01,9.095318913459777832e-01,9.094895720481872559e-01,9.094473719596862793e-01,9.094050526618957520e-01,9.093627929687500000e-01,9.093204736709594727e-01,9.092783331871032715e-01,9.092360138893127441e-01,9.091937541961669922e-01,9.091514945030212402e-01,9.091092348098754883e-01,9.090670347213745117e-01,9.090247750282287598e-01,9.089825153350830078e-01,9.089402556419372559e-01,9.088980555534362793e-01,9.088558554649353027e-01,9.088136553764343262e-01,9.087713956832885742e-01,9.087291955947875977e-01,9.086869359016418457e-01,9.086447954177856445e-01,9.086025953292846680e-01,9.085603952407836914e-01,9.085181355476379395e-01,9.084760546684265137e-01,9.084338545799255371e-01,9.083916544914245605e-01,9.083494544029235840e-01,9.083072543144226074e-01,9.082651734352111816e-01,9.082229733467102051e-01,9.081807732582092285e-01,9.081386327743530273e-01,9.080964326858520508e-01,9.080543518066406250e-01,9.080122113227844238e-01,9.079700708389282227e-01,9.079278707504272461e-01,9.078857302665710449e-01,9.078436493873596191e-01,9.078015089035034180e-01,9.077593684196472168e-01,9.077172279357910156e-01,9.076752066612243652e-01,9.076330661773681641e-01,9.075909256935119629e-01,9.075488448143005371e-01,9.075067043304443359e-01,9.074646830558776855e-01,9.074226021766662598e-01,9.073804616928100586e-01,9.073383808135986328e-01,9.072962403297424316e-01,9.072542786598205566e-01,9.072121977806091309e-01,9.071700572967529297e-01,9.071279764175415039e-01,9.070858955383300781e-01,9.070439338684082031e-01
8.635600209236145020e-01,8.635219335556030273e-01,8.634837865829467773e-01,8.634456992149353027e-01,8.634075522422790527e-01,8.633694648742675781e-01,8.633314371109008789e-01,8.632932901382446289e-01,8.632552027702331543e-01,8.632170557975769043e-01,8.631789684295654297e-01,8.631409406661987305e-01,8.631028532981872559e-01,8.630647659301757812e-01,8.630266785621643066e-01,8.629885911941528320e-01,8.629505634307861328e-01,8.629124760627746582e-01,8.628744482994079590e-01,8.628363609313964844e-01,8.627983331680297852e-01,8.627603054046630859e-01,8.627222180366516113e-01,8.626841902732849121e-01,8.626461029052734375e-01,8.626081347465515137e-01,8.625701069831848145e-01,8.625320196151733398e-01,8.624939918518066406e-01,8.624559640884399414e-01,8.624179959297180176e-01,8.623799681663513184e-01,8.623419404029846191e-01,8.623039126396179199e-01,8.622658848762512207e-01,8.622279763221740723e-01,8.621899485588073730e-01,8.621519207954406738e-01,8.621138930320739746e-01,8.620759248733520508e-01,8.620379567146301270e-01,8.619999885559082031e-01,8.619619607925415039e-01,8.619239926338195801e-01,8.618860840797424316e-01,8.618481159210205078e-01,8.618100881576538086e-01,8.617721199989318848e-01,8.617341518402099609e-01,8.616962432861328125e-01,8.616582751274108887e-01,8.616203069686889648e-01,8.615823388099670410e-01,8.615443706512451172e-01,8.615065217018127441e-01,8.614685535430908203e-01,8.614306449890136719e-01,8.613926768302917480e-01,8.613547086715698242e-01,8.613168597221374512e-01,8.612789511680603027e-01,8.612409830093383789e-01,8.612030744552612305e-01,8.611652255058288574e-01,8.611273169517517090e-01,8.610894083976745605e-01,8.610514402389526367e-01,8.610135316848754883e-01,8.609757423400878906e-01,8.609378337860107422e-01,8.608999252319335938e-01,8.608620166778564453e-01,8.608241081237792969e-01,8.607863187789916992e-01,8.607484102249145508e-01,8.607105016708374023e-01,8.606726527214050293e-01,8.606347441673278809e-01,8.605969548225402832e-01,8.605591058731079102e-01
