5.000000000000000000e+00,5.000000000000000000e+00,5.000000000000000000e+00,5.000000000000000000e+00,5.000000000000000000e+00,5.000000000000000000e+00,5.000000000000000000e+00,5.000000000000000000e+00,5.000000000000000000e+00,5.000000000000000000e+00,5.000000000000000000e+00,5.000000000000000000e+00,5.000000000000000000e+00,5.000000000000000000e+00,5.000000000000000000e+00,5.000000000000000000e+00,5.000000000000000000e+00,5.000000000000000000e+00,5.000000000000000000e+00,5.000000000000000000e+00,5.000000000000000000e+00,5.000000000000000000e+00,5.000000000000000000e+00,5.000000000000000000e+00,5.000000000000000000e+00,5.000000000000000000e+00,5.000000000000000000e+00,5.000000000000000000e+00,5.000000000000000000e+00,5.000000000000000000e+00,5.000000000000000000e+00,5.000000000000000000e+00,5.000000000000000000e+00,5.000000000000000000e+00,5.000000000000000000e+00,5.000000000000000000e+00,5.000000000000000000e+00,5.000000000000000000e+00,5.000000000000000000e+00,5.000000000000000000e+00,5.000000000000000000e+00,9.866231679916381836e-01,9.533870816230773926e-01,9.380785822868347168e-01,9.225424528121948242e-01,9.583497643470764160e-01,9.366973638534545898e-01,1.122824907302856445e+00,1.118941545486450195e+00,1.131171584129333496e+00,1.152578830718994141e+00,1.161053419113159180e+00,1.139884829521179199e+00,1.105412125587463379e+00,1.089620590209960938e+00,1.080452203750610352e+00,1.071437120437622070e+00,1.063025236129760742e+00,1.064304590225219727e+00,1.100869059562683105e+00,2.614464521408081055e+00,2.558238267898559570e+00,2.504379034042358398e+00,2.452741146087646484e+00,2.403189659118652344e+00,2.355600833892822266e+00,2.309859752655029297e+00,2.265861511230468750e+00,2.223508119583129883e+00,2.182708978652954102e+00,2.143379926681518555e+00,2.105443239212036133e+00,2.068825960159301758e+00,2.033460855484008789e+00,1.999284267425537109e+00,1.966237783432006836e+00,1.934265851974487305e+00,1.903316974639892578e+00,1.873342990875244141e+00,1.844298243522644043e+00
5.000000000000000000e+00,5.000000000000000000e+00,5.000000000000000000e+00,5.000000000000000000e+00,5.000000000000000000e+00,5.000000000000000000e+00,5.000000000000000000e+00,5.000000000000000000e+00,5.000000000000000000e+00,5.000000000000000000e+00,5.000000000000000000e+00,5.000000000000000000e+00,5.000000000000000000e+00,5.000000000000000000e+00,5.000000000000000000e+00,5.000000000000000000e+00,5.000000000000000000e+00,5.000000000000000000e+00,5.000000000000000000e+00,5.000000000000000000e+00,5.000000000000000000e+00,5.000000000000000000e+00,5.000000000000000000e+00,5.000000000000000000e+00,5.000000000000000000e+00,5.000000000000000000e+00,5.000000000000000000e+00,5.000000000000000000e+00,5.000000000000000000e+00,5.000000000000000000e+00,5.000000000000000000e+00,5.000000000000000000e+00,5.000000000000000000e+00,5.000000000000000000e+00,5.000000000000000000e+00,5.000000000000000000e+00,5.000000000000000000e+00,5.000000000000000000e+00,5.000000000000000000e+00,5.000000000000000000e+00,4.665247440338134766e+00,9.738482236862182617e-01,9.414893388748168945e-01,9.386571645736694336e-01,9.071101546287536621e-01,9.075984954833984375e-01,9.255881309509277344e-01,1.124821901321411133e+00,1.120950937271118164e+00,1.131114721298217773e+00,1.153011322021484375e+00,1.171644091606140137e+00,1.136322021484375000e+00,1.103638410568237305e+00,1.081018686294555664e+00,1.071994066238403320e+00,1.064182639122009277e+00,1.056525111198425293e+00,1.048977017402648926e+00,1.074112176895141602e+00,1.109801292419433594e+00,2.558276891708374023e+00,2.504416227340698242e+00,2.452776670455932617e+00,2.403223991394042969e+00,2.355633735656738281e+00,2.309891462326049805e+00,2.265892028808593750e+00,2.223537445068359375e+00,2.182737112045288086e+00,2.143407106399536133e+00,2.105469465255737305e+00,2.068851232528686523e+00,2.033485412597656250e+00,1.999308109283447266e+00,1.966260790824890137e+00,1.934287905693054199e+00,1.903338432312011719e+00,1.873363733291625977e+00,1.844318509101867676e+00
5.000000000000000000e+00,5.000000000000000000e+00,5.000000000000000000e+00,5.000000000000000000e+00,5.000000000000000000e+00,5.000000000000000000e+00,5.000000000000000000e+00,5.000000000000000000e+00,5.000000000000000000e+00,5.000000000000000000e+00,5.000000000000000000e+00,5.000000000000000000e+00,5.000000000000000000e+00,5.000000000000000000e+00,5.000000000000000000e+00,5.000000000000000000e+00,5.000000000000000000e+00,5.000000000000000000e+00,5.000000000000000000e+00,5.000000000000000000e+00,5.000000000000000000e+00,5.000000000000000000e+00,5.000000000000000000e+00,5.000000000000000000e+00,5.000000000000000000e+00,5.000000000000000000e+00,5.000000000000000000e+00,5.000000000000000000e+00,5.000000000000000000e+00,5.000000000000000000e+00,5.000000000000000000e+00,5.000000000000000000e+00,5.000000000000000000e+00,5.000000000000000000e+00,5.000000000000000000e+00,5.000000000000000000e+00,5.000000000000000000e+00,5.000000000000000000e+00,5.000000000000000000e+00,4.855820178985595703e+00,4.665376186370849609e+00,9.637568593025207520e-01,9.531953930854797363e-01,9.192863106727600098e-01,1.149275064468383789e+00,8.826336264610290527e-01,1.127118110656738281e+00,1.125269174575805664e+00,1.122967600822448730e+00,1.130305409431457520e+00,1.152451753616333008e+00,1.162335753440856934e+00,1.132234096527099609e+00,1.104163050651550293e+00,1.078170299530029297e+00,1.065342545509338379e+00,1.057668328285217285e+00,1.050104022026062012e+00,1.042647123336791992e+00,1.050021409988403320e+00,1.084102153778076172e+00,2.558315515518188477e+00,2.504453420639038086e+00,2.452812433242797852e+00,2.403258085250854492e+00,2.355666399002075195e+00,2.309922933578491211e+00,2.265922307968139648e+00,2.223566532135009766e+00,2.182765483856201172e+00,2.143434524536132812e+00,2.105495929718017578e+00,2.068876743316650391e+00,2.033509969711303711e+00,1.999331712722778320e+00,1.966283559799194336e+00,1.934310197830200195e+00,1.903360009193420410e+00,1.873384356498718262e+00,1.844338536262512207e+00
5.000000000000000000e+00,5.000000000000000000e+00,5.000000000000000000e+00,5.000000000000000000e+00,5.000000000000000000e+00,5.000000000000000000e+00,5.000000000000000000e+00,5.000000000000000000e+00,5.000000000000000000e+00,5.000000000000000000e+00,5.000000000000000000e+00,5.000000000000000000e+00,5.000000000000000000e+00,5.000000000000000000e+00,5.000000000000000000e+00,5.000000000000000000e+00,5.000000000000000000e+00,5.000000000000000000e+00,5.000000000000000000e+00,5.000000000000000000e+00,5.000000000000000000e+00,5.000000000000000000e+00,5.000000000000000000e+00,5.000000000000000000e+00,5.000000000000000000e+00,5.000000000000000000e+00,5.000000000000000000e+00,5.000000000000000000e+00,5.000000000000000000e+00,5.000000000000000000e+00,5.000000000000000000e+00,5.000000000000000000e+00,5.000000000000000000e+00,5.000000000000000000e+00,5.000000000000000000e+00,5.000000000000000000e+00,5.000000000000000000e+00,5.000000000000000000e+00,5.000000000000000000e+00,4.855959892272949219e+00,4.665505409240722656e+00,9.739834666252136230e-01,9.418241977691650391e-01,9.033840298652648926e-01,1.152223467826843262e+00,1.133694410324096680e+00,1.130320429801940918e+00,1.127153158187866211e+00,1.124003767967224121e+00,1.129598021507263184e+00,1.153525948524475098e+00,1.159495472908020020e+00,1.131026506423950195e+00,1.104627370834350586e+00,1.077983021736145020e+00,1.056632637977600098e+00,1.050195455551147461e+00,1.043760538101196289e+00,1.036393165588378906e+00,1.029129028320312500e+00,1.060222387313842773e+00,2.558354377746582031e+00,2.504490613937377930e+00,2.452848196029663086e+00,2.403292417526245117e+00,2.355699300765991211e+00,2.309954643249511719e+00,2.265952587127685547e+00,2.223595857620239258e+00,2.182793617248535156e+00,2.143461704254150391e+00,2.105522155761718750e+00,2.068902015686035156e+00,2.033534526824951172e+00,1.999355435371398926e+00,1.966306686401367188e+00,1.934332251548767090e+00,1.903381347656250000e+00,1.873405337333679199e+00,1.844358801841735840e+00
5.000000000000000000e+00,5.000000000000000000e+00,5.000000000000000000e+00,5.000000000000000000e+00,5.000000000000000000e+00,5.000000000000000000e+00,5.000000000000000000e+00,5.000000000000000000e+00,5.000000000000000000e+00,5.000000000000000000e+00,5.000000000000000000e+00,5.000000000000000000e+00,5.000000000000000000e+00,5.000000000000000000e+00,5.000000000000000000e+00,5.000000000000000000e+00,5.000000000000000000e+00,5.000000000000000000e+00,5.000000000000000000e+00,5.000000000000000000e+00,5.000000000000000000e+00,5.000000000000000000e+00,5.000000000000000000e+00,5.000000000000000000e+00,5.000000000000000000e+00,5.000000000000000000e+00,5.000000000000000000e+00,5.000000000000000000e+00,5.000000000000000000e+00,5.000000000000000000e+00,5.000000000000000000e+00,5.000000000000000000e+00,5.000000000000000000e+00,5.000000000000000000e+00,5.000000000000000000e+00,5.000000000000000000e+00,5.000000000000000000e+00,5.000000000000000000e+00,5.000000000000000000e+00,4.856099128723144531e+00,4.665634155273437500e+00,9.701066017150878906e-01,9.261768460273742676e-01,8.912612795829772949e-01,1.149995088577270508e+00,1.138380408287048340e+00,1.134941816329956055e+00,1.131564736366271973e+00,1.128390669822692871e+00,1.133002996444702148e+00,1.155010461807250977e+00,1.177672028541564941e+00,1.131809830665588379e+00,1.104631066322326660e+00,1.077793240547180176e+00,1.051834821701049805e+00,1.041675090789794922e+00,1.035418272018432617e+00,1.029236316680908203e+00,1.023035645484924316e+00,1.037873268127441406e+00,1.077491283416748047e+00,2.504527807235717773e+00,2.452883720397949219e+00,2.403326749801635742e+00,2.355732202529907227e+00,2.309986352920532227e+00,2.265983104705810547e+00,2.223625183105468750e+00,2.182821750640869141e+00,2.143488883972167969e+00,2.105548381805419922e+00,2.068927526473999023e+00,2.033558845520019531e+00,1.999379038810729980e+00,1.966329455375671387e+00,1.934354543685913086e+00,1.903402924537658691e+00,1.873426079750061035e+00,1.844378948211669922e+00
5.000000000000000000e+00,5.000000000000000000e+00,5.000000000000000000e+00,5.000000000000000000e+00,5.000000000000000000e+00,5.000000000000000000e+00,5.000000000000000000e+00,5.000000000000000000e+00,5.000000000000000000e+00,5.000000000000000000e+00,5.000000000000000000e+00,5.000000000000000000e+00,5.000000000000000000e+00,5.000000000000000000e+00,5.000000000000000000e+00,5.000000000000000000e+00,5.000000000000000000e+00,5.000000000000000000e+00,5.000000000000000000e+00,5.000000000000000000e+00,5.000000000000000000e+00,5.000000000000000000e+00,5.000000000000000000e+00,5.000000000000000000e+00,5.000000000000000000e+00,5.000000000000000000e+00,5.000000000000000000e+00,5.000000000000000000e+00,5.000000000000000000e+00,5.000000000000000000e+00,5.000000000000000000e+00,5.000000000000000000e+00,5.000000000000000000e+00,5.000000000000000000e+00,5.000000000000000000e+00,5.000000000000000000e+00,5.000000000000000000e+00,5.000000000000000000e+00,5.000000000000000000e+00,4.856239318847656250e+00,4.665763378143310547e+00,9.588979482650756836e-01,9.136147499084472656e-01,1.184917092323303223e+00,1.147267818450927734e+00,1.143105268478393555e+00,1.139638185501098633e+00,1.136191844940185547e+00,1.132812023162841797e+00,1.137749433517456055e+00,1.159756898880004883e+00,1.193782687187194824e+00,1.144318461418151855e+00,1.104434490203857422e+00,1.077582836151123047e+00,1.051634430885314941e+00,1.033291816711425781e+00,1.027135252952575684e+00,1.021051406860351562e+00,1.015353202819824219e+00,1.010779976844787598e+00,1.054416060447692871e+00,2.504565000534057617e+00,2.452919483184814453e+00,2.403360843658447266e+00,2.355765104293823242e+00,2.310018062591552734e+00,2.266013622283935547e+00,2.223654508590698242e+00,2.182850122451782227e+00,2.143516063690185547e+00,2.105574607849121094e+00,2.068952798843383789e+00,2.033583402633666992e+00,1.999402880668640137e+00,1.966352224349975586e+00,1.934376597404479980e+00,1.903424382209777832e+00,1.873446941375732422e+00,1.844399213790893555e+00
5.000000000000000000e+00,5.000000000000000000e+00,5.000000000000000000e+00,5.000000000000000000e+00,5.000000000000000000e+00,5.000000000000000000e+00,5.000000000000000000e+00,5.000000000000000000e+00,5.000000000000000000e+00,5.000000000000000000e+00,5.000000000000000000e+00,5.000000000000000000e+00,5.000000000000000000e+00,5.000000000000000000e+00,5.000000000000000000e+00,5.000000000000000000e+00,5.000000000000000000e+00,5.000000000000000000e+00,5.000000000000000000e+00,5.000000000000000000e+00,5.000000000000000000e+00,5.000000000000000000e+00,5.000000000000000000e+00,5.000000000000000000e+00,5.000000000000000000e+00,5.000000000000000000e+00,5.000000000000000000e+00,5.000000000000000000e+00,5.000000000000000000e+00,5.000000000000000000e+00,5.000000000000000000e+00,5.000000000000000000e+00,5.000000000000000000e+00,5.000000000000000000e+00,5.000000000000000000e+00,5.000000000000000000e+00,5.000000000000000000e+00,5.000000000000000000e+00,5.000000000000000000e+00,4.856379032135009766e+00,4.665892601013183594e+00,4.489785194396972656e+00,4.326488018035888672e+00,1.190941929817199707e+00,1.156436204910278320e+00,1.148908019065856934e+00,1.145163536071777344e+00,1.141443610191345215e+00,1.137747645378112793e+00,1.143294930458068848e+00,1.166983366012573242e+00,1.210021257400512695e+00,1.153088808059692383e+00,1.104237914085388184e+00,1.077372550964355469e+00,1.051434159278869629e+00,1.026526331901550293e+00,1.019450664520263672e+00,1.013797640800476074e+00,1.008206963539123535e+00,1.002677559852600098e+00,1.021426439285278320e+00,2.504602193832397461e+00,2.452955245971679688e+00,2.403394937515258789e+00,2.355798006057739258e+00,2.310049533843994141e+00,2.266044139862060547e+00,2.223683834075927734e+00,2.182878255844116211e+00,2.143543481826782227e+00,2.105600833892822266e+00,2.068978309631347656e+00,2.033607959747314453e+00,1.999426484107971191e+00,1.966375350952148438e+00,1.934398889541625977e+00,1.903445720672607422e+00,1.873467683792114258e+00,1.844419240951538086e+00
5.000000000000000000e+00,5.000000000000000000e+00,5.000000000000000000e+00,5.000000000000000000e+00,5.000000000000000000e+00,5.000000000000000000e+00,5.000000000000000000e+00,5.000000000000000000e+00,5.000000000000000000e+00,5.000000000000000000e+00,5.000000000000000000e+00,5.000000000000000000e+00,5.000000000000000000e+00,5.000000000000000000e+00,5.000000000000000000e+00,5.000000000000000000e+00,5.000000000000000000e+00,5.000000000000000000e+00,5.000000000000000000e+00,5.000000000000000000e+00,5.000000000000000000e+00,5.000000000000000000e+00,5.000000000000000000e+00,5.000000000000000000e+00,5.000000000000000000e+00,5.000000000000000000e+00,5.000000000000000000e+00,5.000000000000000000e+00,5.000000000000000000e+00,5.000000000000000000e+00,5.000000000000000000e+00,5.000000000000000000e+00,5.000000000000000000e+00,5.000000000000000000e+00,5.000000000000000000e+00,5.000000000000000000e+00,5.000000000000000000e+00,5.000000000000000000e+00,5.000000000000000000e+00,4.856518745422363281e+00,4.666021347045898438e+00,4.489904880523681641e+00,4.326599121093750000e+00,1.201228022575378418e+00,1.165708780288696289e+00,1.155064225196838379e+00,1.151170134544372559e+00,1.147410988807678223e+00,1.143676400184631348e+00,1.152215957641601562e+00,1.175140500068664551e+00,3.259588241577148438e+00,1.162106871604919434e+00,1.107454895973205566e+00,1.077162265777587891e+00,1.051233887672424316e+00,1.025031566619873047e+00,1.010236859321594238e+00,1.006673097610473633e+00,1.001160621643066406e+00,9.957081079483032227e-01,9.903147220611572266e-01,2.504639387130737305e+00,2.452990770339965820e+00,2.403429269790649414e+00,2.355830907821655273e+00,2.310081005096435547e+00,2.266074419021606445e+00,2.223713159561157227e+00,2.182906627655029297e+00,2.143570661544799805e+00,2.105627298355102539e+00,2.069003582000732422e+00,2.033632516860961914e+00,1.999450325965881348e+00,1.966398119926452637e+00,1.934421062469482422e+00,1.903467297554016113e+00,1.873488545417785645e+00,1.844439387321472168e+00
5.000000000000000000e+00,5.000000000000000000e+00,5.000000000000000000e+00,5.000000000000000000e+00,5.000000000000000000e+00,5.000000000000000000e+00,5.000000000000000000e+00,5.000000000000000000e+00,5.000000000000000000e+00,5.000000000000000000e+00,5.000000000000000000e+00,5.000000000000000000e+00,5.000000000000000000e+00,5.000000000000000000e+00,5.000000000000000000e+00,5.000000000000000000e+00,5.000000000000000000e+00,5.000000000000000000e+00,5.000000000000000000e+00,5.000000000000000000e+00,5.000000000000000000e+00,5.000000000000000000e+00,5.000000000000000000e+00,5.000000000000000000e+00,5.000000000000000000e+00,5.000000000000000000e+00,5.000000000000000000e+00,5.000000000000000000e+00,5.000000000000000000e+00,5.000000000000000000e+00,5.000000000000000000e+00,5.000000000000000000e+00,5.000000000000000000e+00,5.000000000000000000e+00,5.000000000000000000e+00,5.000000000000000000e+00,5.000000000000000000e+00,5.000000000000000000e+00,5.000000000000000000e+00,4.856658458709716797e+00,4.666150569915771484e+00,4.490024566650390625e+00,4.326710224151611328e+00,1.211693525314331055e+00,1.175131201744079590e+00,1.161733627319335938e+00,1.157240033149719238e+00,1.153441190719604492e+00,1.149667263031005859e+00,1.161423087120056152e+00,1.184719204902648926e+00,3.259651184082031250e+00,1.173754811286926270e+00,1.115770697593688965e+00,1.076952099800109863e+00,1.049665927886962891e+00,1.023647308349609375e+00,1.004604101181030273e+00,9.963062405586242676e-01,9.928678274154663086e-01,9.888347983360290527e-01,9.835153818130493164e-01,9.970679879188537598e-01,2.453026533126831055e+00,2.403463602066040039e+00,2.355863809585571289e+00,2.310112714767456055e+00,2.266104936599731445e+00,2.223742485046386719e+00,2.182934761047363281e+00,2.143597841262817383e+00,2.105653524398803711e+00,2.069028854370117188e+00,2.033657073974609375e+00,1.999473929405212402e+00,1.966421127319335938e+00,1.934443354606628418e+00,1.903488636016845703e+00,1.873509287834167480e+00,1.844459652900695801e+00
5.000000000000000000e+00,5.000000000000000000e+00,5.000000000000000000e+00,5.000000000000000000e+00,5.000000000000000000e+00,5.000000000000000000e+00,5.000000000000000000e+00,5.000000000000000000e+00,5.000000000000000000e+00,5.000000000000000000e+00,5.000000000000000000e+00,5.000000000000000000e+00,5.000000000000000000e+00,5.000000000000000000e+00,5.000000000000000000e+00,5.000000000000000000e+00,5.000000000000000000e+00,5.000000000000000000e+00,5.000000000000000000e+00,5.000000000000000000e+00,5.000000000000000000e+00,5.000000000000000000e+00,5.000000000000000000e+00,5.000000000000000000e+00,5.000000000000000000e+00,5.000000000000000000e+00,5.000000000000000000e+00,5.000000000000000000e+00,5.000000000000000000e+00,5.000000000000000000e+00,5.000000000000000000e+00,5.000000000000000000e+00,5.000000000000000000e+00,5.000000000000000000e+00,5.000000000000000000e+00,5.000000000000000000e+00,5.000000000000000000e+00,5.000000000000000000e+00,5.000000000000000000e+00,4.856798171997070312e+00,4.666279315948486328e+00,4.490143775939941406e+00,4.326820850372314453e+00,1.224044799804687500e+00,1.184707283973693848e+00,1.168480515480041504e+00,1.163555145263671875e+00,1.159535169601440430e+00,1.155721306800842285e+00,1.170778512954711914e+00,1.192622303962707520e+00,3.259714126586914062e+00,3.172771215438842773e+00,1.128884673118591309e+00,1.075712680816650391e+00,1.047913908958435059e+00,1.022266626358032227e+00,1.003274321556091309e+00,9.861233234405517578e-01,9.827547073364257812e-01,9.794088006019592285e-01,9.760857820510864258e-01,9.716175794601440430e-01,2.453062295913696289e+00,2.403497695922851562e+00,2.355896949768066406e+00,2.310144424438476562e+00,2.266135454177856445e+00,2.223771810531616211e+00,2.182963132858276367e+00,2.143625020980834961e+00,2.105679750442504883e+00,2.069054365158081055e+00,2.033681392669677734e+00,1.999497532844543457e+00,1.966444015502929688e+00,1.934465408325195312e+00,1.903510332107543945e+00,1.873530149459838867e+00,1.844479680061340332e+00
5.000000000000000000e+00,5.000000000000000000e+00,5.000000000000000000e+00,5.000000000000000000e+00,5.000000000000000000e+00,5.000000000000000000e+00,5.000000000000000000e+00,5.000000000000000000e+00,5.000000000000000000e+00,5.000000000000000000e+00,5.000000000000000000e+00,5.000000000000000000e+00,5.000000000000000000e+00,5.000000000000000000e+00,5.000000000000000000e+00,5.000000000000000000e+00,5.000000000000000000e+00,5.000000000000000000e+00,5.000000000000000000e+00,5.000000000000000000e+00,5.000000000000000000e+00,5.000000000000000000e+00,5.000000000000000000e+00,5.000000000000000000e+00,5.000000000000000000e+00,5.000000000000000000e+00,5.000000000000000000e+00,5.000000000000000000e+00,5.000000000000000000e+00,5.000000000000000000e+00,5.000000000000000000e+00,5.000000000000000000e+00,5.000000000000000000e+00,5.000000000000000000e+00,5.000000000000000000e+00,5.000000000000000000e+00,5.000000000000000000e+00,5.000000000000000000e+00,5.000000000000000000e+00,4.856938362121582031e+00,4.666408538818359375e+00,4.490262985229492188e+00,4.326931953430175781e+00,1.240129709243774414e+00,1.194440603256225586e+00,1.175306200981140137e+00,1.170323252677917480e+00,1.165693759918212891e+00,1.161839485168457031e+00,1.180285811424255371e+00,1.200588464736938477e+00,3.259777307510375977e+00,3.172830820083618164e+00,1.143946409225463867e+00,1.085109353065490723e+00,1.046167731285095215e+00,1.020889759063720703e+00,1.001948118209838867e+00,9.836965799331665039e-01,9.728453159332275391e-01,9.695665836334228516e-01,9.663099050521850586e-01,9.638203978538513184e-01,2.453097820281982422e+00,2.403532028198242188e+00,2.355929851531982422e+00,2.310176134109497070e+00,2.266165971755981445e+00,2.223801136016845703e+00,2.182991266250610352e+00,2.143652200698852539e+00,2.105706214904785156e+00,2.069079637527465820e+00,2.033705949783325195e+00,1.999521374702453613e+00,1.966467022895812988e+00,1.934487462043762207e+00,1.903531670570373535e+00,1.873550891876220703e+00,1.844499945640563965e+00
5.000000000000000000e+00,5.000000000000000000e+00,5.000000000000000000e+00,5.000000000000000000e+00,5.000000000000000000e+00,5.000000000000000000e+00,5.000000000000000000e+00,5.000000000000000000e+00,5.000000000000000000e+00,5.000000000000000000e+00,5.000000000000000000e+00,5.000000000000000000e+00,5.000000000000000000e+00,5.000000000000000000e+00,5.000000000000000000e+00,5.000000000000000000e+00,5.000000000000000000e+00,5.000000000000000000e+00,5.000000000000000000e+00,5.000000000000000000e+00,5.000000000000000000e+00,5.000000000000000000e+00,5.000000000000000000e+00,5.000000000000000000e+00,5.000000000000000000e+00,5.000000000000000000e+00,5.000000000000000000e+00,5.000000000000000000e+00,5.000000000000000000e+00,5.000000000000000000e+00,5.000000000000000000e+00,5.000000000000000000e+00,5.000000000000000000e+00,5.000000000000000000e+00,5.000000000000000000e+00,5.000000000000000000e+00,5.000000000000000000e+00,5.000000000000000000e+00,5.000000000000000000e+00,4.857078075408935547e+00,4.666537761688232422e+00,4.490382671356201172e+00,4.327043056488037109e+00,1.254937529563903809e+00,1.204335331916809082e+00,1.182212114334106445e+00,1.177170634269714355e+00,1.172171950340270996e+00,1.168022632598876953e+00,1.188182592391967773e+00,1.208661913871765137e+00,3.259840250015258789e+00,3.172890663146972656e+00,3.090458631515502930e+00,1.098467111587524414e+00,1.044427394866943359e+00,1.019516587257385254e+00,1.000625371932983398e+00,9.824215769767761230e-01,9.650791287422180176e-01,9.622542262077331543e-01,9.602580666542053223e-01,9.579129815101623535e-01,9.555695652961730957e-01,2.403566360473632812e+00,2.355962514877319336e+00,2.310207843780517578e+00,2.266196250915527344e+00,2.223830461502075195e+00,2.183019638061523438e+00,2.143679618835449219e+00,2.105732440948486328e+00,2.069105148315429688e+00,2.033730506896972656e+00,1.999544858932495117e+00,1.966489911079406738e+00,1.934509754180908203e+00,1.903553247451782227e+00,1.873571634292602539e+00,1.844520092010498047e+00
5.000000000000000000e+00,5.000000000000000000e+00,5.000000000000000000e+00,5.000000000000000000e+00,5.000000000000000000e+00,5.000000000000000000e+00,5.000000000000000000e+00,5.000000000000000000e+00,5.000000000000000000e+00,5.000000000000000000e+00,5.000000000000000000e+00,5.000000000000000000e+00,5.000000000000000000e+00,5.000000000000000000e+00,5.000000000000000000e+00,5.000000000000000000e+00,5.000000000000000000e+00,5.000000000000000000e+00,5.000000000000000000e+00,5.000000000000000000e+00,5.000000000000000000e+00,5.000000000000000000e+00,5.000000000000000000e+00,5.000000000000000000e+00,5.000000000000000000e+00,5.000000000000000000e+00,5.000000000000000000e+00,5.000000000000000000e+00,5.000000000000000000e+00,5.000000000000000000e+00,5.000000000000000000e+00,5.000000000000000000e+00,5.000000000000000000e+00,5.000000000000000000e+00,5.000000000000000000e+00,5.000000000000000000e+00,5.000000000000000000e+00,5.000000000000000000e+00,5.000000000000000000e+00,4.857218265533447266e+00,4.666666984558105469e+00,4.490502357482910156e+00,4.327154159545898438e+00,1.270070195198059082e+00,1.214740872383117676e+00,1.188772439956665039e+00,1.184005975723266602e+00,1.179041028022766113e+00,1.175885677337646484e+00,1.196089267730712891e+00,3.351756334304809570e+00,3.259903192520141602e+00,3.172950029373168945e+00,3.090515136718750000e+00,3.012255191802978516e+00,1.053255081176757812e+00,1.018147110939025879e+00,9.990499615669250488e-01,9.806611537933349609e-01,9.640116691589355469e-01,9.546796083450317383e-01,9.539157748222351074e-01,9.531532526016235352e-01,9.523918032646179199e-01,2.403600454330444336e+00,2.355995416641235352e+00,2.310239315032958984e+00,2.266226530075073242e+00,2.223859786987304688e+00,2.183047771453857422e+00,2.143706798553466797e+00,2.105758666992187500e+00,2.069130420684814453e+00,2.033755064010620117e+00,1.999568700790405273e+00,1.966512918472290039e+00,1.934531927108764648e+00,1.903574585914611816e+00,1.873592615127563477e+00,1.844540357589721680e+00
5.000000000000000000e+00,5.000000000000000000e+00,5.000000000000000000e+00,5.000000000000000000e+00,5.000000000000000000e+00,5.000000000000000000e+00,5.000000000000000000e+00,5.000000000000000000e+00,5.000000000000000000e+00,5.000000000000000000e+00,5.000000000000000000e+00,5.000000000000000000e+00,5.000000000000000000e+00,5.000000000000000000e+00,5.000000000000000000e+00,5.000000000000000000e+00,5.000000000000000000e+00,5.000000000000000000e+00,5.000000000000000000e+00,5.000000000000000000e+00,5.000000000000000000e+00,5.000000000000000000e+00,5.000000000000000000e+00,5.000000000000000000e+00,5.000000000000000000e+00,5.000000000000000000e+00,5.000000000000000000e+00,5.000000000000000000e+00,5.000000000000000000e+00,5.000000000000000000e+00,5.000000000000000000e+00,5.000000000000000000e+00,5.000000000000000000e+00,5.000000000000000000e+00,5.000000000000000000e+00,5.000000000000000000e+00,5.000000000000000000e+00,5.000000000000000000e+00,5.000000000000000000e+00,4.857357501983642578e+00,4.666795730590820312e+00,4.490621566772460938e+00,4.327265262603759766e+00,1.288316011428833008e+00,1.226177692413330078e+00,1.194084048271179199e+00,1.188929915428161621e+00,1.184162259101867676e+00,1.184031963348388672e+00,1.204317212104797363e+00,3.351822853088378906e+00,3.259966373443603516e+00,3.173009634017944336e+00,3.090571880340576172e+00,3.012309074401855469e+00,1.079813838005065918e+00,1.016106367111206055e+00,9.967545866966247559e-01,9.800900220870971680e-01,9.648244976997375488e-01,9.554911255836486816e-01,9.542208909988403320e-01,9.529539942741394043e-01,9.521252512931823730e-01,2.403634786605834961e+00,2.356028318405151367e+00,2.310271024703979492e+00,2.266257047653198242e+00,2.223889112472534180e+00,2.183076143264770508e+00,2.143733978271484375e+00,2.105784893035888672e+00,2.069155931472778320e+00,2.033779382705688477e+00,1.999592304229736328e+00,1.966535687446594238e+00,1.934554219245910645e+00,1.903596282005310059e+00,1.873613238334655762e+00,1.844560384750366211e+00
5.000000000000000000e+00,5.000000000000000000e+00,5.000000000000000000e+00,5.000000000000000000e+00,5.000000000000000000e+00,5.000000000000000000e+00,5.000000000000000000e+00,5.000000000000000000e+00,5.000000000000000000e+00,5.000000000000000000e+00,5.000000000000000000e+00,5.000000000000000000e+00,5.000000000000000000e+00,5.000000000000000000e+00,5.000000000000000000e+00,5.000000000000000000e+00,5.000000000000000000e+00,5.000000000000000000e+00,5.000000000000000000e+00,5.000000000000000000e+00,5.000000000000000000e+00,5.000000000000000000e+00,5.000000000000000000e+00,5.000000000000000000e+00,5.000000000000000000e+00,5.000000000000000000e+00,5.000000000000000000e+00,5.000000000000000000e+00,5.000000000000000000e+00,5.000000000000000000e+00,5.000000000000000000e+00,5.000000000000000000e+00,5.000000000000000000e+00,5.000000000000000000e+00,5.000000000000000000e+00,5.000000000000000000e+00,5.000000000000000000e+00,5.000000000000000000e+00,5.000000000000000000e+00,4.857497692108154297e+00,4.666924953460693359e+00,4.490741252899169922e+00,4.327375888824462891e+00,1.300146102905273438e+00,1.237831711769104004e+00,1.201693773269653320e+00,1.193894982337951660e+00,1.189087510108947754e+00,1.192241430282592773e+00,1.212811470031738281e+00,3.351889371871948242e+00,3.260029315948486328e+00,3.173069477081298828e+00,3.090628623962402344e+00,3.012362718582153320e+00,2.937963485717773438e+00,1.037444829940795898e+00,9.980480670928955078e-01,9.822642207145690918e-01,9.661263823509216309e-01,9.569813013076782227e-01,9.558410048484802246e-01,9.547035098075866699e-01,9.535686373710632324e-01,2.403669118881225586e+00,2.356061220169067383e+00,2.310302734375000000e+00,2.266287565231323242e+00,2.223918437957763672e+00,2.183104276657104492e+00,2.143761396408081055e+00,2.105811119079589844e+00,2.069181203842163086e+00,2.033803939819335938e+00,1.999616146087646484e+00,1.966558575630187988e+00,1.934576272964477539e+00,1.903617620468139648e+00,1.873634219169616699e+00,1.844580650329589844e+00
5.000000000000000000e+00,5.000000000000000000e+00,5.000000000000000000e+00,5.000000000000000000e+00,5.000000000000000000e+00,5.000000000000000000e+00,5.000000000000000000e+00,5.000000000000000000e+00,5.000000000000000000e+00,5.000000000000000000e+00,5.000000000000000000e+00,5.000000000000000000e+00,5.000000000000000000e+00,5.000000000000000000e+00,5.000000000000000000e+00,5.000000000000000000e+00,5.000000000000000000e+00,5.000000000000000000e+00,5.000000000000000000e+00,5.000000000000000000e+00,5.000000000000000000e+00,5.000000000000000000e+00,5.000000000000000000e+00,5.000000000000000000e+00,5.000000000000000000e+00,5.000000000000000000e+00,5.000000000000000000e+00,5.000000000000000000e+00,5.000000000000000000e+00,5.000000000000000000e+00,5.000000000000000000e+00,5.000000000000000000e+00,5.000000000000000000e+00,5.000000000000000000e+00,5.000000000000000000e+00,5.000000000000000000e+00,5.000000000000000000e+00,5.000000000000000000e+00,5.000000000000000000e+00,4.857637405395507812e+00,4.667054176330566406e+00,4.490860939025878906e+00,4.327486991882324219e+00,4.175582885742187500e+00,1.249709486961364746e+00,1.209401130676269531e+00,1.198901653289794922e+00,1.194053888320922852e+00,1.200565695762634277e+00,1.219961524009704590e+00,3.351956129074096680e+00,3.260092258453369141e+00,3.173129081726074219e+00,3.090685129165649414e+00,3.012416601181030273e+00,2.938014507293701172e+00,1.069569587707519531e+00,1.000345945358276367e+00,9.850016236305236816e-01,9.701779484748840332e-01,9.598214626312255859e-01,9.582976698875427246e-01,9.571542143821716309e-01,9.560135602951049805e-01,2.403703212738037109e+00,2.356094121932983398e+00,2.310334444046020508e+00,2.266318082809448242e+00,2.223947763442993164e+00,2.183132648468017578e+00,2.143788576126098633e+00,2.105837345123291016e+00,2.069206714630126953e+00,2.033828496932983398e+00,1.999639749526977539e+00,1.966581583023071289e+00,1.934598565101623535e+00,1.903638958930969238e+00,1.873654961585998535e+00,1.844600796699523926e+00
5.000000000000000000e+00,5.000000000000000000e+00,5.000000000000000000e+00,5.000000000000000000e+00,5.000000000000000000e+00,5.000000000000000000e+00,5.000000000000000000e+00,5.000000000000000000e+00,5.000000000000000000e+00,5.000000000000000000e+00,5.000000000000000000e+00,5.000000000000000000e+00,5.000000000000000000e+00,5.000000000000000000e+00,5.000000000000000000e+00,5.000000000000000000e+00,5.000000000000000000e+00,5.000000000000000000e+00,5.000000000000000000e+00,5.000000000000000000e+00,5.000000000000000000e+00,5.000000000000000000e+00,5.000000000000000000e+00,5.000000000000000000e+00,5.000000000000000000e+00,5.000000000000000000e+00,5.000000000000000000e+00,5.000000000000000000e+00,5.000000000000000000e+00,5.000000000000000000e+00,5.000000000000000000e+00,5.000000000000000000e+00,5.000000000000000000e+00,5.000000000000000000e+00,5.000000000000000000e+00,5.000000000000000000e+00,5.000000000000000000e+00,5.000000000000000000e+00,5.000000000000000000e+00,4.857777595520019531e+00,4.667183399200439453e+00,4.490980625152587891e+00,4.327598094940185547e+00,4.175686359405517578e+00,1.261817455291748047e+00,1.217207908630371094e+00,1.205503344535827637e+00,1.199061870574951172e+00,1.209006786346435547e+00,1.226047158241271973e+00,3.352022647857666016e+00,3.260155200958251953e+00,3.173188924789428711e+00,3.090741872787475586e+00,3.012470483779907227e+00,2.938065767288208008e+00,2.867247581481933594e+00,1.004799485206604004e+00,9.893786311149597168e-01,9.731823205947875977e-01,9.642470479011535645e-01,9.607669711112976074e-01,9.596176743507385254e-01,9.797832369804382324e-01,2.403737545013427734e+00,2.356127023696899414e+00,2.310365915298461914e+00,2.266348600387573242e+00,2.223976850509643555e+00,2.183160781860351562e+00,2.143815755844116211e+00,2.105863809585571289e+00,2.069231986999511719e+00,2.033853054046630859e+00,1.999663591384887695e+00,1.966604471206665039e+00,1.934620618820190430e+00,1.903660655021667480e+00,1.873675823211669922e+00,1.844620823860168457e+00
5.000000000000000000e+00,5.000000000000000000e+00,5.000000000000000000e+00,5.000000000000000000e+00,5.000000000000000000e+00,5.000000000000000000e+00,5.000000000000000000e+00,5.000000000000000000e+00,5.000000000000000000e+00,5.000000000000000000e+00,5.000000000000000000e+00,5.000000000000000000e+00,5.000000000000000000e+00,5.000000000000000000e+00,5.000000000000000000e+00,5.000000000000000000e+00,5.000000000000000000e+00,5.000000000000000000e+00,5.000000000000000000e+00,5.000000000000000000e+00,5.000000000000000000e+00,5.000000000000000000e+00,5.000000000000000000e+00,5.000000000000000000e+00,5.000000000000000000e+00,5.000000000000000000e+00,5.000000000000000000e+00,5.000000000000000000e+00,5.000000000000000000e+00,5.000000000000000000e+00,5.000000000000000000e+00,5.000000000000000000e+00,5.000000000000000000e+00,5.000000000000000000e+00,5.000000000000000000e+00,5.000000000000000000e+00,5.000000000000000000e+00,5.000000000000000000e+00,5.000000000000000000e+00,4.857916831970214844e+00,4.667312622070312500e+00,4.491100311279296875e+00,4.327709197998046875e+00,4.175789356231689453e+00,1.278589010238647461e+00,1.226125955581665039e+00,1.213259816169738770e+00,1.204112052917480469e+00,1.216198205947875977e+00,1.232193708419799805e+00,3.352089405059814453e+00,3.260218143463134766e+00,3.173248529434204102e+00,3.090798139572143555e+00,3.012524127960205078e+00,2.938116788864135742e+00,2.867296457290649414e+00,1.009354710578918457e+00,9.937947988510131836e-01,9.756819605827331543e-01,9.687136411666870117e-01,9.632490873336791992e-01,9.620937705039978027e-01,9.843281507492065430e-01,2.403771638870239258e+00,2.356159925460815430e+00,2.310397386550903320e+00,2.266378879547119141e+00,2.224006175994873047e+00,2.183189153671264648e+00,2.143842935562133789e+00,2.105890035629272461e+00,2.069257497787475586e+00,2.033877611160278320e+00,1.999687194824218750e+00,1.966627478599548340e+00,1.934642910957336426e+00,1.903681993484497070e+00,1.873696565628051758e+00,1.844641089439392090e+00
5.000000000000000000e+00,5.000000000000000000e+00,5.000000000000000000e+00,5.000000000000000000e+00,5.000000000000000000e+00,5.000000000000000000e+00,5.000000000000000000e+00,5.000000000000000000e+00,5.000000000000000000e+00,5.000000000000000000e+00,5.000000000000000000e+00,5.000000000000000000e+00,5.000000000000000000e+00,5.000000000000000000e+00,5.000000000000000000e+00,5.000000000000000000e+00,5.000000000000000000e+00,5.000000000000000000e+00,5.000000000000000000e+00,5.000000000000000000e+00,5.000000000000000000e+00,5.000000000000000000e+00,5.000000000000000000e+00,5.000000000000000000e+00,5.000000000000000000e+00,5.000000000000000000e+00,5.000000000000000000e+00,5.000000000000000000e+00,5.000000000000000000e+00,5.000000000000000000e+00,5.000000000000000000e+00,5.000000000000000000e+00,5.000000000000000000e+00,5.000000000000000000e+00,5.000000000000000000e+00,5.000000000000000000e+00,5.000000000000000000e+00,5.000000000000000000e+00,5.000000000000000000e+00,4.858057022094726562e+00,4.667441368103027344e+00,4.491219520568847656e+00,4.327819824218750000e+00,4.175892829895019531e+00,1.290165901184082031e+00,1.237517476081848145e+00,1.221116662025451660e+00,1.209337353706359863e+00,1.222246170043945312e+00,1.238402247428894043e+00,3.352155923843383789e+00,3.260281085968017578e+00,3.173308372497558594e+00,3.090854883193969727e+00,3.012578010559082031e+00,2.938167810440063477e+00,2.867345094680786133e+00,1.013951301574707031e+00,9.981936812400817871e-01,9.791328310966491699e-01,9.732218384742736816e-01,9.673818349838256836e-01,9.645828008651733398e-01,9.856088757514953613e-01,2.403805971145629883e+00,2.356193065643310547e+00,2.310429096221923828e+00,2.266409397125244141e+00,2.224035501480102539e+00,2.183217287063598633e+00,2.143870115280151367e+00,2.105916261672973633e+00,2.069282770156860352e+00,2.033902168273925781e+00,1.999710798263549805e+00,1.966650247573852539e+00,1.934665083885192871e+00,1.903703570365905762e+00,1.873717427253723145e+00,1.844661235809326172e+00
5.000000000000000000e+00,5.000000000000000000e+00,5.000000000000000000e+00,5.000000000000000000e+00,5.000000000000000000e+00,5.000000000000000000e+00,5.000000000000000000e+00,5.000000000000000000e+00,5.000000000000000000e+00,5.000000000000000000e+00,5.000000000000000000e+00,5.000000000000000000e+00,5.000000000000000000e+00,5.000000000000000000e+00,5.000000000000000000e+00,5.000000000000000000e+00,5.000000000000000000e+00,5.000000000000000000e+00,5.000000000000000000e+00,5.000000000000000000e+00,5.000000000000000000e+00,5.000000000000000000e+00,5.000000000000000000e+00,5.000000000000000000e+00,5.000000000000000000e+00,5.000000000000000000e+00,5.000000000000000000e+00,5.000000000000000000e+00,5.000000000000000000e+00,5.000000000000000000e+00,5.000000000000000000e+00,5.000000000000000000e+00,5.000000000000000000e+00,5.000000000000000000e+00,5.000000000000000000e+00,5.000000000000000000e+00,5.000000000000000000e+00,5.000000000000000000e+00,5.000000000000000000e+00,4.858196735382080078e+00,4.667570590972900391e+00,4.491339206695556641e+00,4.327930927276611328e+00,4.175996303558349609e+00,1.304588675498962402e+00,1.250824093818664551e+00,1.227926254272460938e+00,1.215584874153137207e+00,1.231523871421813965e+00,1.246215462684631348e+00,3.352222681045532227e+00,3.260344266891479492e+00,3.173367977142333984e+00,3.090911626815795898e+00,3.012631893157958984e+00,2.938219070434570312e+00,2.867393970489501953e+00,1.018589973449707031e+00,1.000823497772216797e+00,9.837387800216674805e-01,9.777721762657165527e-01,9.718775749206542969e-01,9.670846462249755859e-01,9.868929386138916016e-01,2.403840303421020508e+00,2.356225967407226562e+00,2.310460805892944336e+00,2.266439914703369141e+00,2.224064826965332031e+00,2.183245658874511719e+00,2.143897533416748047e+00,2.105942726135253906e+00,2.069308042526245117e+00,2.033926725387573242e+00,1.999734640121459961e+00,1.966673374176025391e+00,1.934687137603759766e+00,1.903725028038024902e+00,1.873738169670104980e+00,1.844681501388549805e+00
5.000000000000000000e+00,5.000000000000000000e+00,5.000000000000000000e+00,5.000000000000000000e+00,5.000000000000000000e+00,5.000000000000000000e+00,5.000000000000000000e+00,5.000000000000000000e+00,5.000000000000000000e+00,5.000000000000000000e+00,5.000000000000000000e+00,5.000000000000000000e+00,5.000000000000000000e+00,5.000000000000000000e+00,5.000000000000000000e+00,5.000000000000000000e+00,5.000000000000000000e+00,5.000000000000000000e+00,5.000000000000000000e+00,5.000000000000000000e+00,5.000000000000000000e+00,5.000000000000000000e+00,5.000000000000000000e+00,5.000000000000000000e+00,5.000000000000000000e+00,5.000000000000000000e+00,5.000000000000000000e+00,5.000000000000000000e+00,5.000000000000000000e+00,5.000000000000000000e+00,5.000000000000000000e+00,5.000000000000000000e+00,5.000000000000000000e+00,5.000000000000000000e+00,5.000000000000000000e+00,5.000000000000000000e+00,5.000000000000000000e+00,5.000000000000000000e+00,5.000000000000000000e+00,4.858336925506591797e+00,4.667699813842773438e+00,4.491458892822265625e+00,4.328042030334472656e+00,4.176099777221679688e+00,1.300563931465148926e+00,1.260539412498474121e+00,1.239141345024108887e+00,1.228299021720886230e+00,1.244907379150390625e+00,3.449500083923339844e+00,3.352288961410522461e+00,3.260407209396362305e+00,3.173427820205688477e+00,3.090968132019042969e+00,3.012685775756835938e+00,2.938270330429077148e+00,2.867442607879638672e+00,1.023271322250366211e+00,1.003467202186584473e+00,9.883882403373718262e-01,9.823653101921081543e-01,9.764153361320495605e-01,9.705371856689453125e-01,9.881803989410400391e-01,2.403874397277832031e+00,2.356258630752563477e+00,2.310492515563964844e+00,2.266470432281494141e+00,2.224094390869140625e+00,2.183273792266845703e+00,2.143924713134765625e+00,2.105968952178955078e+00,2.069333553314208984e+00,2.033951282501220703e+00,1.999758243560791016e+00,1.966696143150329590e+00,1.934709429740905762e+00,1.903746604919433594e+00,1.873758912086486816e+00,1.844701528549194336e+00
5.000000000000000000e+00,5.000000000000000000e+00,5.000000000000000000e+00,5.000000000000000000e+00,5.000000000000000000e+00,5.000000000000000000e+00,5.000000000000000000e+00,5.000000000000000000e+00,5.000000000000000000e+00,5.000000000000000000e+00,5.000000000000000000e+00,5.000000000000000000e+00,5.000000000000000000e+00,5.000000000000000000e+00,5.000000000000000000e+00,5.000000000000000000e+00,5.000000000000000000e+00,5.000000000000000000e+00,5.000000000000000000e+00,5.000000000000000000e+00,5.000000000000000000e+00,5.000000000000000000e+00,5.000000000000000000e+00,5.000000000000000000e+00,5.000000000000000000e+00,5.000000000000000000e+00,5.000000000000000000e+00,5.000000000000000000e+00,5.000000000000000000e+00,5.000000000000000000e+00,5.000000000000000000e+00,5.000000000000000000e+00,5.000000000000000000e+00,5.000000000000000000e+00,5.000000000000000000e+00,5.000000000000000000e+00,5.000000000000000000e+00,5.000000000000000000e+00,5.000000000000000000e+00,4.858477115631103516e+00,4.667829036712646484e+00,4.491578578948974609e+00,4.328153133392333984e+00,1.354053497314453125e+00,1.302935957908630371e+00,1.273237943649291992e+00,1.253911852836608887e+00,1.250794649124145508e+00,1.269668579101562500e+00,3.449570655822753906e+00,3.352355718612670898e+00,3.260470390319824219e+00,3.173487186431884766e+00,3.091024875640869141e+00,3.012739658355712891e+00,2.938321590423583984e+00,2.867491483688354492e+00,1.027295112609863281e+00,1.005623221397399902e+00,9.893792867660522461e-01,9.829509854316711426e-01,9.766054749488830566e-01,9.703414440155029297e-01,9.843184351921081543e-01,2.403908729553222656e+00,2.356291532516479492e+00,2.310524225234985352e+00,2.266500711441040039e+00,2.224123716354370117e+00,2.183301925659179688e+00,2.143951892852783203e+00,2.105995178222656250e+00,2.069358825683593750e+00,2.033975839614868164e+00,1.999782085418701172e+00,1.966719269752502441e+00,1.934731483459472656e+00,1.903767943382263184e+00,1.873779892921447754e+00,1.844721794128417969e+00
5.000000000000000000e+00,5.000000000000000000e+00,5.000000000000000000e+00,5.000000000000000000e+00,5.000000000000000000e+00,5.000000000000000000e+00,5.000000000000000000e+00,5.000000000000000000e+00,5.000000000000000000e+00,5.000000000000000000e+00,5.000000000000000000e+00,5.000000000000000000e+00,5.000000000000000000e+00,5.000000000000000000e+00,5.000000000000000000e+00,5.000000000000000000e+00,5.000000000000000000e+00,5.000000000000000000e+00,5.000000000000000000e+00,5.000000000000000000e+00,5.000000000000000000e+00,5.000000000000000000e+00,5.000000000000000000e+00,5.000000000000000000e+00,5.000000000000000000e+00,5.000000000000000000e+00,5.000000000000000000e+00,5.000000000000000000e+00,5.000000000000000000e+00,5.000000000000000000e+00,5.000000000000000000e+00,5.000000000000000000e+00,5.000000000000000000e+00,5.000000000000000000e+00,5.000000000000000000e+00,5.000000000000000000e+00,5.000000000000000000e+00,5.000000000000000000e+00,5.000000000000000000e+00,4.858616352081298828e+00,4.667957782745361328e+00,4.491697788238525391e+00,4.328264236450195312e+00,1.350002408027648926e+00,1.308503866195678711e+00,1.288831830024719238e+00,1.272286891937255859e+00,1.275471925735473633e+00,1.306284189224243164e+00,3.449641227722167969e+00,3.352422237396240234e+00,3.260533332824707031e+00,3.173547029495239258e+00,3.091081619262695312e+00,3.012793064117431641e+00,2.938372611999511719e+00,2.867539882659912109e+00,1.028427124023437500e+00,1.005441784858703613e+00,9.867959618568420410e-01,9.809508919715881348e-01,9.746312499046325684e-01,9.683924317359924316e-01,9.747850894927978516e-01,2.403943061828613281e+00,2.356324434280395508e+00,2.310555696487426758e+00,2.266531229019165039e+00,2.224153041839599609e+00,2.183330297470092773e+00,2.143979310989379883e+00,2.106021404266357422e+00,2.069384336471557617e+00,2.034000158309936523e+00,1.999805688858032227e+00,1.966742038726806641e+00,1.934753894805908203e+00,1.903789520263671875e+00,1.873800516128540039e+00,1.844741940498352051e+00
5.000000000000000000e+00,5.000000000000000000e+00,5.000000000000000000e+00,5.000000000000000000e+00,5.000000000000000000e+00,5.000000000000000000e+00,5.000000000000000000e+00,5.000000000000000000e+00,5.000000000000000000e+00,5.000000000000000000e+00,5.000000000000000000e+00,5.000000000000000000e+00,5.000000000000000000e+00,5.000000000000000000e+00,5.000000000000000000e+00,5.000000000000000000e+00,5.000000000000000000e+00,5.000000000000000000e+00,5.000000000000000000e+00,5.000000000000000000e+00,5.000000000000000000e+00,5.000000000000000000e+00,5.000000000000000000e+00,5.000000000000000000e+00,5.000000000000000000e+00,5.000000000000000000e+00,5.000000000000000000e+00,5.000000000000000000e+00,5.000000000000000000e+00,5.000000000000000000e+00,5.000000000000000000e+00,5.000000000000000000e+00,5.000000000000000000e+00,5.000000000000000000e+00,5.000000000000000000e+00,5.000000000000000000e+00,5.000000000000000000e+00,5.000000000000000000e+00,5.000000000000000000e+00,4.858756542205810547e+00,4.668087005615234375e+00,4.491817474365234375e+00,4.328375339508056641e+00,1.348891973495483398e+00,1.320554971694946289e+00,1.304812192916870117e+00,1.291208386421203613e+00,1.301142573356628418e+00,3.552741527557373047e+00,3.449711799621582031e+00,3.352488994598388672e+00,3.260596275329589844e+00,3.173606634140014648e+00,3.091138124465942383e+00,3.012846946716308594e+00,2.938423871994018555e+00,2.867588758468627930e+00,1.028237342834472656e+00,1.005260467529296875e+00,9.844486117362976074e-01,9.786656498908996582e-01,9.726650118827819824e-01,9.664512872695922852e-01,9.654346108436584473e-01,2.403977394104003906e+00,2.356357336044311523e+00,2.310587406158447266e+00,2.266561508178710938e+00,2.224182367324829102e+00,2.183358669281005859e+00,2.144006490707397461e+00,2.106047630310058594e+00,2.069409608840942383e+00,2.034024715423583984e+00,1.999829530715942383e+00,1.966764926910400391e+00,1.934775948524475098e+00,1.903810977935791016e+00,1.873821496963500977e+00,1.844762206077575684e+00
5.000000000000000000e+00,5.000000000000000000e+00,5.000000000000000000e+00,5.000000000000000000e+00,5.000000000000000000e+00,5.000000000000000000e+00,5.000000000000000000e+00,5.000000000000000000e+00,5.000000000000000000e+00,5.000000000000000000e+00,5.000000000000000000e+00,5.000000000000000000e+00,5.000000000000000000e+00,5.000000000000000000e+00,5.000000000000000000e+00,5.000000000000000000e+00,5.000000000000000000e+00,5.000000000000000000e+00,5.000000000000000000e+00,5.000000000000000000e+00,5.000000000000000000e+00,5.000000000000000000e+00,5.000000000000000000e+00,5.000000000000000000e+00,5.000000000000000000e+00,5.000000000000000000e+00,5.000000000000000000e+00,5.000000000000000000e+00,5.000000000000000000e+00,5.000000000000000000e+00,5.000000000000000000e+00,5.000000000000000000e+00,5.000000000000000000e+00,5.000000000000000000e+00,5.000000000000000000e+00,5.000000000000000000e+00,5.000000000000000000e+00,5.000000000000000000e+00,5.000000000000000000e+00,4.858896732330322266e+00,4.668216228485107422e+00,4.491937160491943359e+00,4.328486442565917969e+00,1.360235929489135742e+00,1.332830190658569336e+00,1.321193814277648926e+00,1.310701251029968262e+00,1.347429037094116211e+00,3.552816390991210938e+00,3.449782371520996094e+00,3.352555513381958008e+00,3.260659456253051758e+00,3.173666477203369141e+00,3.091194868087768555e+00,3.012900829315185547e+00,2.938475131988525391e+00,2.867637395858764648e+00,1.038742542266845703e+00,1.005079269409179688e+00,9.844123125076293945e-01,9.760760664939880371e-01,9.706682562828063965e-01,9.645178318023681641e-01,9.584074020385742188e-01,2.404011487960815430e+00,2.356390476226806641e+00,2.310619115829467773e+00,2.266592025756835938e+00,2.224211692810058594e+00,2.183386802673339844e+00,2.144033670425415039e+00,2.106074094772338867e+00,2.069435119628906250e+00,2.034049272537231445e+00,1.999853134155273438e+00,1.966787934303283691e+00,1.934798240661621094e+00,1.903832316398620605e+00,1.873842239379882812e+00,1.844782233238220215e+00
5.000000000000000000e+00,5.000000000000000000e+00,5.000000000000000000e+00,5.000000000000000000e+00,5.000000000000000000e+00,5.000000000000000000e+00,5.000000000000000000e+00,5.000000000000000000e+00,5.000000000000000000e+00,5.000000000000000000e+00,5.000000000000000000e+00,5.000000000000000000e+00,5.000000000000000000e+00,5.000000000000000000e+00,5.000000000000000000e+00,5.000000000000000000e+00,5.000000000000000000e+00,5.000000000000000000e+00,5.000000000000000000e+00,5.000000000000000000e+00,5.000000000000000000e+00,5.000000000000000000e+00,5.000000000000000000e+00,5.000000000000000000e+00,5.000000000000000000e+00,5.000000000000000000e+00,5.000000000000000000e+00,5.000000000000000000e+00,5.000000000000000000e+00,5.000000000000000000e+00,5.000000000000000000e+00,5.000000000000000000e+00,5.000000000000000000e+00,5.000000000000000000e+00,5.000000000000000000e+00,5.000000000000000000e+00,5.000000000000000000e+00,5.000000000000000000e+00,5.000000000000000000e+00,4.859035491943359375e+00,4.668345451354980469e+00,4.492056846618652344e+00,4.328597545623779297e+00,1.372160196304321289e+00,1.344645500183105469e+00,1.333502650260925293e+00,1.327541351318359375e+00,1.361647725105285645e+00,3.552891254425048828e+00,3.449852466583251953e+00,3.352622270584106445e+00,3.260722160339355469e+00,3.173726081848144531e+00,3.091251611709594727e+00,3.012954711914062500e+00,2.938526391983032227e+00,2.867686271667480469e+00,1.064738631248474121e+00,1.004898190498352051e+00,9.843760728836059570e-01,9.735000729560852051e-01,9.681207537651062012e-01,9.625921845436096191e-01,9.565060138702392578e-01,2.404045581817626953e+00,2.356423377990722656e+00,2.310650587081909180e+00,2.266622543334960938e+00,2.224241018295288086e+00,2.183415174484252930e+00,2.144061088562011719e+00,2.106100320816040039e+00,2.069460391998291016e+00,2.034073829650878906e+00,1.999876976013183594e+00,1.966810822486877441e+00,1.934820294380187988e+00,1.903854012489318848e+00,1.873863101005554199e+00,1.844802379608154297e+00
5.000000000000000000e+00,5.000000000000000000e+00,5.000000000000000000e+00,5.000000000000000000e+00,5.000000000000000000e+00,5.000000000000000000e+00,5.000000000000000000e+00,5.000000000000000000e+00,5.000000000000000000e+00,5.000000000000000000e+00,5.000000000000000000e+00,5.000000000000000000e+00,5.000000000000000000e+00,5.000000000000000000e+00,5.000000000000000000e+00,5.000000000000000000e+00,5.000000000000000000e+00,5.000000000000000000e+00,5.000000000000000000e+00,5.000000000000000000e+00,5.000000000000000000e+00,5.000000000000000000e+00,5.000000000000000000e+00,5.000000000000000000e+00,5.000000000000000000e+00,5.000000000000000000e+00,5.000000000000000000e+00,5.000000000000000000e+00,5.000000000000000000e+00,5.000000000000000000e+00,5.000000000000000000e+00,5.000000000000000000e+00,5.000000000000000000e+00,5.000000000000000000e+00,5.000000000000000000e+00,5.000000000000000000e+00,5.000000000000000000e+00,5.000000000000000000e+00,5.000000000000000000e+00,4.859173774719238281e+00,4.668474197387695312e+00,4.492176532745361328e+00,4.328708648681640625e+00,1.384295463562011719e+00,1.356558799743652344e+00,1.343220233917236328e+00,1.341341257095336914e+00,1.374765038490295410e+00,3.552966117858886719e+00,3.449923038482666016e+00,3.352689027786254883e+00,3.260785341262817383e+00,3.173785924911499023e+00,3.091307878494262695e+00,3.013008356094360352e+00,2.938577175140380859e+00,2.867734909057617188e+00,2.800228118896484375e+00,1.004716992378234863e+00,9.843397736549377441e-01,9.709376096725463867e-01,9.655864834785461426e-01,9.602941274642944336e-01,9.546120762825012207e-01,2.404079914093017578e+00,2.356456279754638672e+00,2.310682296752929688e+00,2.266653060913085938e+00,2.224270105361938477e+00,2.183443307876586914e+00,2.144088029861450195e+00,2.106126546859741211e+00,2.069485902786254883e+00,2.034098386764526367e+00,1.999900579452514648e+00,1.966833829879760742e+00,1.934842705726623535e+00,1.903875350952148438e+00,1.873883843421936035e+00,1.844822645187377930e+00
5.000000000000000000e+00,5.000000000000000000e+00,5.000000000000000000e+00,5.000000000000000000e+00,5.000000000000000000e+00,5.000000000000000000e+00,5.000000000000000000e+00,5.000000000000000000e+00,5.000000000000000000e+00,5.000000000000000000e+00,5.000000000000000000e+00,5.000000000000000000e+00,5.000000000000000000e+00,5.000000000000000000e+00,5.000000000000000000e+00,5.000000000000000000e+00,5.000000000000000000e+00,5.000000000000000000e+00,5.000000000000000000e+00,5.000000000000000000e+00,5.000000000000000000e+00,5.000000000000000000e+00,5.000000000000000000e+00,5.000000000000000000e+00,5.000000000000000000e+00,5.000000000000000000e+00,5.000000000000000000e+00,5.000000000000000000e+00,5.000000000000000000e+00,5.000000000000000000e+00,5.000000000000000000e+00,5.000000000000000000e+00,5.000000000000000000e+00,5.000000000000000000e+00,5.000000000000000000e+00,5.000000000000000000e+00,5.000000000000000000e+00,5.000000000000000000e+00,5.000000000000000000e+00,4.859312057495117188e+00,4.668601989746093750e+00,4.492295742034912109e+00,4.328819274902343750e+00,1.396647334098815918e+00,1.368684887886047363e+00,1.353080511093139648e+00,1.355431199073791504e+00,1.388071060180664062e+00,3.553040981292724609e+00,3.449993610382080078e+00,3.352755546569824219e+00,3.260848283767700195e+00,3.173845529556274414e+00,3.091364622116088867e+00,3.013062238693237305e+00,2.938628435134887695e+00,2.867783784866333008e+00,2.800274372100830078e+00,1.004536032676696777e+00,9.843035340309143066e-01,9.683886766433715820e-01,9.630656242370605469e-01,9.578006863594055176e-01,9.525929689407348633e-01,9.694914817810058594e-01,2.356489181518554688e+00,2.310714006423950195e+00,2.266683578491210938e+00,2.224299430847167969e+00,2.183471679687500000e+00,2.144115447998046875e+00,2.106153011322021484e+00,2.069511175155639648e+00,2.034122943878173828e+00,1.999924182891845703e+00,1.966856598854064941e+00,1.934864759445190430e+00,1.903896927833557129e+00,1.873904824256896973e+00,1.844842672348022461e+00
5.000000000000000000e+00,5.000000000000000000e+00,5.000000000000000000e+00,5.000000000000000000e+00,5.000000000000000000e+00,5.000000000000000000e+00,5.000000000000000000e+00,5.000000000000000000e+00,5.000000000000000000e+00,5.000000000000000000e+00,5.000000000000000000e+00,5.000000000000000000e+00,5.000000000000000000e+00,5.000000000000000000e+00,5.000000000000000000e+00,5.000000000000000000e+00,5.000000000000000000e+00,5.000000000000000000e+00,5.000000000000000000e+00,5.000000000000000000e+00,5.000000000000000000e+00,5.000000000000000000e+00,5.000000000000000000e+00,5.000000000000000000e+00,5.000000000000000000e+00,5.000000000000000000e+00,5.000000000000000000e+00,5.000000000000000000e+00,5.000000000000000000e+00,5.000000000000000000e+00,5.000000000000000000e+00,5.000000000000000000e+00,5.000000000000000000e+00,5.000000000000000000e+00,5.000000000000000000e+00,5.000000000000000000e+00,5.000000000000000000e+00,5.000000000000000000e+00,5.000000000000000000e+00,4.859450340270996094e+00,4.668729305267333984e+00,4.492414474487304688e+00,4.328930377960205078e+00,1.409282326698303223e+00,1.381029844284057617e+00,1.363396883010864258e+00,1.369820356369018555e+00,1.401637196540832520e+00,3.553115844726562500e+00,3.450064420700073242e+00,3.352822303771972656e+00,3.260911226272583008e+00,3.173905372619628906e+00,3.091421365737915039e+00,3.013116121292114258e+00,2.938679695129394531e+00,2.867832422256469727e+00,2.800320863723754883e+00,1.004358530044555664e+00,9.842672348022460938e-01,9.658866524696350098e-01,9.605838060379028320e-01,9.553387165069580078e-01,9.501507878303527832e-01,9.572336673736572266e-01,2.356522083282470703e+00,2.310745716094970703e+00,2.266713857650756836e+00,2.224328756332397461e+00,2.183499813079833984e+00,2.144142627716064453e+00,2.106179237365722656e+00,2.069536447525024414e+00,2.034147500991821289e+00,1.999948024749755859e+00,1.966879725456237793e+00,1.934886813163757324e+00,1.903918385505676270e+00,1.873925566673278809e+00,1.844863057136535645e+00
5.000000000000000000e+00,5.000000000000000000e+00,5.000000000000000000e+00,5.000000000000000000e+00,5.000000000000000000e+00,5.000000000000000000e+00,5.000000000000000000e+00,5.000000000000000000e+00,5.000000000000000000e+00,5.000000000000000000e+00,5.000000000000000000e+00,5.000000000000000000e+00,5.000000000000000000e+00,5.000000000000000000e+00,5.000000000000000000e+00,5.000000000000000000e+00,5.000000000000000000e+00,5.000000000000000000e+00,5.000000000000000000e+00,5.000000000000000000e+00,5.000000000000000000e+00,5.000000000000000000e+00,5.000000000000000000e+00,5.000000000000000000e+00,5.000000000000000000e+00,5.000000000000000000e+00,5.000000000000000000e+00,5.000000000000000000e+00,5.000000000000000000e+00,5.000000000000000000e+00,5.000000000000000000e+00,5.000000000000000000e+00,5.000000000000000000e+00,5.000000000000000000e+00,5.000000000000000000e+00,5.000000000000000000e+00,5.000000000000000000e+00,5.000000000000000000e+00,5.000000000000000000e+00,4.859588623046875000e+00,4.668857097625732422e+00,4.492532730102539062e+00,4.329041004180908203e+00,1.422374010086059570e+00,1.393599390983581543e+00,1.374952554702758789e+00,1.383171796798706055e+00,3.662592172622680664e+00,3.553190469741821289e+00,3.450134992599487305e+00,3.352889060974121094e+00,3.260974407196044922e+00,3.173964977264404297e+00,3.091477870941162109e+00,3.013170003890991211e+00,2.938730955123901367e+00,2.867881298065185547e+00,2.800367355346679688e+00,1.019612789154052734e+00,9.855607748031616211e-01,9.664241671562194824e-01,9.585666060447692871e-01,9.533436298370361328e-01,9.481772184371948242e-01,9.595583081245422363e-01,2.356554746627807617e+00,2.310777187347412109e+00,2.266744375228881836e+00,2.224358081817626953e+00,2.183528184890747070e+00,2.144169807434082031e+00,2.106205701828002930e+00,2.069561958312988281e+00,2.034171819686889648e+00,1.999971628189086914e+00,1.966902494430541992e+00,1.934909105300903320e+00,1.903939962387084961e+00,1.873946189880371094e+00,1.844883084297180176e+00
5.000000000000000000e+00,5.000000000000000000e+00,5.000000000000000000e+00,5.000000000000000000e+00,5.000000000000000000e+00,5.000000000000000000e+00,5.000000000000000000e+00,5.000000000000000000e+00,5.000000000000000000e+00,5.000000000000000000e+00,5.000000000000000000e+00,5.000000000000000000e+00,5.000000000000000000e+00,5.000000000000000000e+00,5.000000000000000000e+00,5.000000000000000000e+00,5.000000000000000000e+00,5.000000000000000000e+00,5.000000000000000000e+00,5.000000000000000000e+00,5.000000000000000000e+00,5.000000000000000000e+00,5.000000000000000000e+00,5.000000000000000000e+00,5.000000000000000000e+00,5.000000000000000000e+00,5.000000000000000000e+00,5.000000000000000000e+00,5.000000000000000000e+00,5.000000000000000000e+00,5.000000000000000000e+00,5.000000000000000000e+00,5.000000000000000000e+00,5.000000000000000000e+00,5.000000000000000000e+00,5.000000000000000000e+00,5.000000000000000000e+00,5.000000000000000000e+00,5.000000000000000000e+00,4.859726905822753906e+00,4.668985366821289062e+00,4.492650508880615234e+00,4.329150676727294922e+00,1.437023758888244629e+00,1.407356023788452148e+00,1.389307737350463867e+00,1.397997856140136719e+00,3.662671804428100586e+00,3.553265333175659180e+00,3.450205564498901367e+00,3.352955341339111328e+00,3.261037588119506836e+00,3.174024581909179688e+00,3.091534614562988281e+00,3.013223886489868164e+00,2.938782215118408203e+00,2.867930173873901367e+00,2.800413846969604492e+00,1.045900702476501465e+00,9.870060086250305176e-01,9.678070545196533203e-01,9.565578699111938477e-01,9.513567090034484863e-01,9.462117552757263184e-01,9.609943628311157227e-01,2.356587886810302734e+00,2.310808897018432617e+00,2.266774654388427734e+00,2.224387645721435547e+00,2.183556318283081055e+00,2.144197225570678711e+00,2.106231927871704102e+00,2.069587230682373047e+00,2.034196376800537109e+00,1.999995470046997070e+00,1.966925621032714844e+00,1.934931278228759766e+00,1.903961300849914551e+00,1.873967170715332031e+00,1.844903349876403809e+00
4.874626636505126953e+00,4.873415946960449219e+00,4.872205734252929688e+00,4.870995998382568359e+00,4.869787216186523438e+00,4.868578433990478516e+00,4.867370605468750000e+00,4.866163253784179688e+00,4.864956378936767578e+00,4.863750457763671875e+00,4.862545013427734375e+00,4.861340045928955078e+00,4.860135555267333984e+00,4.858932018280029297e+00,4.857728958129882812e+00,4.856526374816894531e+00,4.855324268341064453e+00,4.854123115539550781e+00,4.852922439575195312e+00,4.851722240447998047e+00,4.850522994995117188e+00,4.849323749542236328e+00,4.848125457763671875e+00,4.846927642822265625e+00,4.845730304718017578e+00,4.844533920288085938e+00,4.843338012695312500e+00,4.842142581939697266e+00,4.840947628021240234e+00,4.839753150939941406e+00,4.838559627532958984e+00,4.837366580963134766e+00,4.836174011230468750e+00,4.834982395172119141e+00,4.833790779113769531e+00,4.832600116729736328e+00,4.831410408020019531e+00,4.830220699310302734e+00,4.829031467437744141e+00,4.827843666076660156e+00,4.669112682342529297e+00,4.492768764495849609e+00,4.329260349273681641e+00,1.452093839645385742e+00,1.421994686126708984e+00,1.407061457633972168e+00,1.413748621940612793e+00,3.662751197814941406e+00,3.553340196609497070e+00,3.450276136398315430e+00,3.353021860122680664e+00,3.261100530624389648e+00,3.174084186553955078e+00,3.091591358184814453e+00,3.013277292251586914e+00,2.938833475112915039e+00,2.867978572845458984e+00,2.800460338592529297e+00,2.736047983169555664e+00,9.884553551673889160e-01,9.691939949989318848e-01,9.548473358154296875e-01,9.493780732154846191e-01,9.442543983459472656e-01,9.574523568153381348e-01,2.356620788574218750e+00,2.310840606689453125e+00,2.266805171966552734e+00,2.224416971206665039e+00,2.183584690093994141e+00,2.144224405288696289e+00,2.106258153915405273e+00,2.069612741470336914e+00,2.034220933914184570e+00,2.000019073486328125e+00,1.966948390007019043e+00,1.934953570365905762e+00,1.903982996940612793e+00,1.873987913131713867e+00,1.844923496246337891e+00
3.777402400970458984e+00,3.776675462722778320e+00,3.775948286056518555e+00,3.775221824645996094e+00,3.774495601654052734e+00,3.773769140243530273e+00,3.773043632507324219e+00,3.772318363189697266e+00,3.771592855453491211e+00,3.770868062973022461e+00,3.770143508911132812e+00,3.769418716430664062e+00,3.768694877624511719e+00,3.767971277236938477e+00,3.767247438430786133e+00,3.766524314880371094e+00,3.765800952911376953e+00,3.765078544616699219e+00,3.764356136322021484e+00,3.763633728027343750e+00,3.762912034988403320e+00,3.762190580368041992e+00,3.761468887329101562e+00,3.760747909545898438e+00,3.760027408599853516e+00,3.759306669235229492e+00,3.758586645126342773e+00,3.757866621017456055e+00,3.757146835327148438e+00,3.756427526473999023e+00,3.755708694458007812e+00,3.754989385604858398e+00,3.754271030426025391e+00,3.753552913665771484e+00,3.752834558486938477e+00,3.752116918563842773e+00,3.751399517059326172e+00,3.750682115554809570e+00,3.749965429306030273e+00,3.749248981475830078e+00,3.748532295227050781e+00,3.747816324234008789e+00,3.747100591659545898e+00,1.467483282089233398e+00,1.437034130096435547e+00,1.424033284187316895e+00,1.429858326911926270e+00,3.662830829620361328e+00,3.553415060043334961e+00,3.450346708297729492e+00,3.353088617324829102e+00,3.261163711547851562e+00,3.174144029617309570e+00,3.091648101806640625e+00,3.013331174850463867e+00,2.938884496688842773e+00,2.868027448654174805e+00,2.800506830215454102e+00,2.736092090606689453e+00,9.899089932441711426e-01,9.705848693847656250e-01,9.539225697517395020e-01,9.474076628684997559e-01,9.423051476478576660e-01,9.539363384246826172e-01,2.356653690338134766e+00,2.310872316360473633e+00,2.266835689544677734e+00,2.224446296691894531e+00,2.183612823486328125e+00,2.144251823425292969e+00,2.106284379959106445e+00,2.069638252258300781e+00,2.034245491027832031e+00,2.000042915344238281e+00,1.966971278190612793e+00,1.934975624084472656e+00,1.904004335403442383e+00,1.874008774757385254e+00,1.844943761825561523e+00
3.083369970321655273e+00,3.082885742187500000e+00,3.082401037216186523e+00,3.081917047500610352e+00,3.081433057785034180e+00,3.080948829650878906e+00,3.080465316772460938e+00,3.079981803894042969e+00,3.079498052597045898e+00,3.079014778137207031e+00,3.078531742095947266e+00,3.078048706054687500e+00,3.077565908432006836e+00,3.077083110809326172e+00,3.076600551605224609e+00,3.076118230819702148e+00,3.075635671615600586e+00,3.075153827667236328e+00,3.074671983718872070e+00,3.074189901351928711e+00,3.073708295822143555e+00,3.073226928710937500e+00,3.072745323181152344e+00,3.072264194488525391e+00,3.071783304214477539e+00,3.071302175521850586e+00,3.070821523666381836e+00,3.070341110229492188e+00,3.069860458374023438e+00,3.069380283355712891e+00,3.068900346755981445e+00,3.068420171737670898e+00,3.067940473556518555e+00,3.067460775375366211e+00,3.066981077194213867e+00,3.066501855850219727e+00,3.066022634506225586e+00,3.065543413162231445e+00,3.065064668655395508e+00,3.064585924148559570e+00,3.064107179641723633e+00,3.063628673553466797e+00,3.063150405883789062e+00,1.483202457427978516e+00,1.452395319938659668e+00,1.437737226486206055e+00,1.446917176246643066e+00,3.060760974884033203e+00,3.060283184051513672e+00,3.059806108474731445e+00,3.059329032897949219e+00,3.058851718902587891e+00,3.058375120162963867e+00,3.057898521423339844e+00,3.013385057449340820e+00,2.938935756683349609e+00,2.868076086044311523e+00,2.800553321838378906e+00,2.736136436462402344e+00,9.913668632507324219e-01,9.719797372817993164e-01,9.529995918273925781e-01,9.454454183578491211e-01,9.403639435768127441e-01,9.504461288452148438e-01,2.356686592102050781e+00,2.310904026031494141e+00,2.266866207122802734e+00,2.224475622177124023e+00,2.183641195297241211e+00,2.144279003143310547e+00,2.106310606002807617e+00,2.069663524627685547e+00,2.034270048141479492e+00,2.000066518783569336e+00,1.966994285583496094e+00,1.934998035430908203e+00,1.904025793075561523e+00,1.874029517173767090e+00,1.844963908195495605e+00
2.604785680770874023e+00,2.604439973831176758e+00,2.604094028472900391e+00,2.603748559951782227e+00,2.603403091430664062e+00,2.603057622909545898e+00,2.602712154388427734e+00,2.602367162704467773e+00,2.602021694183349609e+00,2.601676702499389648e+00,2.601331949234008789e+00,2.600986957550048828e+00,2.600642204284667969e+00,2.600297451019287109e+00,2.599952697753906250e+00,2.599608421325683594e+00,2.599263906478881836e+00,2.598919391632080078e+00,2.598575353622436523e+00,2.598231077194213867e+00,2.597887039184570312e+00,2.597543239593505859e+00,2.597199201583862305e+00,2.596855401992797852e+00,2.596511840820312500e+00,2.596168041229248047e+00,2.595824718475341797e+00,2.595481395721435547e+00,2.595137834548950195e+00,2.594794750213623047e+00,2.594451665878295898e+00,2.594108343124389648e+00,2.593765497207641602e+00,2.593422651290893555e+00,2.593079805374145508e+00,2.592737197875976562e+00,2.592394590377807617e+00,2.592051982879638672e+00,2.591709613800048828e+00,2.591367244720458984e+00,2.591024875640869141e+00,2.590682983398437500e+00,2.590340852737426758e+00,2.589998722076416016e+00,1.482786297798156738e+00,1.451707601547241211e+00,2.588973522186279297e+00,2.588631868362426758e+00,2.588290214538574219e+00,2.587948799133300781e+00,2.587607622146606445e+00,2.587266206741333008e+00,2.586925268173217773e+00,2.586584091186523438e+00,2.586243152618408203e+00,2.585902214050292969e+00,2.585561513900756836e+00,2.585220575332641602e+00,2.584880113601684570e+00,1.014291286468505859e+00,9.733787178993225098e-01,9.542677402496337891e-01,9.441963434219360352e-01,9.384307265281677246e-01,9.469813704490661621e-01,2.356719493865966797e+00,2.310935497283935547e+00,2.266896724700927734e+00,2.224504947662353516e+00,2.183669567108154297e+00,2.144306182861328125e+00,2.106337070465087891e+00,2.069689035415649414e+00,2.034294605255126953e+00,2.000090360641479492e+00,1.967017173767089844e+00,1.935020089149475098e+00,1.904047369956970215e+00,1.874050498008728027e+00,1.844983935356140137e+00
2.254859924316406250e+00,2.254598617553710938e+00,2.254337072372436523e+00,2.254075765609741211e+00,2.253814458847045898e+00,2.253553152084350586e+00,2.253292322158813477e+00,2.253031015396118164e+00,2.252769947052001953e+00,2.252509117126464844e+00,2.252248287200927734e+00,2.251987457275390625e+00,2.251726627349853516e+00,2.251466035842895508e+00,2.251205205917358398e+00,2.250944614410400391e+00,2.250684261322021484e+00,2.250423669815063477e+00,2.250163316726684570e+00,2.249902963638305664e+00,2.249642610549926758e+00,2.249382495880126953e+00,2.249122142791748047e+00,2.248862028121948242e+00,2.248604059219360352e+00,2.248346328735351562e+00,2.248088836669921875e+00,2.247831106185913086e+00,2.247573614120483398e+00,2.247316122055053711e+00,2.247058868408203125e+00,2.246801376342773438e+00,2.246544122695922852e+00,2.246287107467651367e+00,2.246029853820800781e+00,2.245772600173950195e+00,2.245515584945678711e+00,2.245258569717407227e+00,2.245001554489135742e+00,2.244744777679443359e+00,2.244488000869750977e+00,2.244231224060058594e+00,2.243974685668945312e+00,2.243717908859252930e+00,1.491902589797973633e+00,1.477546453475952148e+00,2.242948293685913086e+00,2.242691993713378906e+00,2.242435455322265625e+00,2.242179393768310547e+00,2.241923093795776367e+00,2.241666793823242188e+00,2.241410732269287109e+00,2.241154670715332031e+00,2.240898609161376953e+00,2.240642786026000977e+00,2.240386962890625000e+00,2.240131139755249023e+00,2.239875316619873047e+00,2.239619731903076172e+00,9.747816324234008789e-01,9.556160569190979004e-01,9.432921409606933594e-01,9.365054965019226074e-01,9.435417652130126953e-01,2.238086700439453125e+00,2.237831354141235352e+00,2.237576246261596680e+00,2.224534034729003906e+00,2.183697700500488281e+00,2.144333362579345703e+00,2.106363296508789062e+00,2.069714307785034180e+00,2.034319162368774414e+00,2.000113964080810547e+00,1.967040181159973145e+00,1.935042381286621094e+00,1.904068708419799805e+00,1.874071240425109863e+00,1.845004200935363770e+00
1.987918376922607422e+00,1.987715363502502441e+00,1.987512111663818359e+00,1.987308979034423828e+00,1.987105846405029297e+00,1.986902713775634766e+00,1.986699938774108887e+00,1.986496925354003906e+00,1.986293911933898926e+00,1.986091017723083496e+00,1.985888123512268066e+00,1.985685586929321289e+00,1.985482692718505859e+00,1.985280036926269531e+00,1.985077261924743652e+00,1.984874844551086426e+00,1.984672188758850098e+00,1.984469652175903320e+00,1.984266996383666992e+00,1.984064579010009766e+00,1.983862280845642090e+00,1.983659863471984863e+00,1.983457565307617188e+00,1.983255147933959961e+00,1.983052849769592285e+00,1.982850790023803711e+00,1.982648611068725586e+00,1.982446432113647461e+00,1.982244253158569336e+00,1.982042193412780762e+00,1.981840372085571289e+00,1.981638431549072266e+00,1.981436371803283691e+00,1.981234431266784668e+00,1.981032848358154297e+00,1.980830907821655273e+00,1.980629205703735352e+00,1.980427384376525879e+00,1.980225682258605957e+00,1.980024218559265137e+00,1.979822516441345215e+00,1.979620933532714844e+00,1.979419350624084473e+00,1.979217886924743652e+00,1.481427431106567383e+00,1.457506179809570312e+00,1.455783963203430176e+00,1.978412389755249023e+00,1.978211045265197754e+00,1.978010058403015137e+00,1.977808833122253418e+00,1.977607607841491699e+00,1.977406382560729980e+00,1.977205514907836914e+00,1.977004528045654297e+00,1.976803421974182129e+00,1.976602435111999512e+00,1.976401567459106445e+00,1.976200819015502930e+00,1.975999951362609863e+00,9.761885404586791992e-01,9.569681882858276367e-01,9.423896074295043945e-01,9.346666336059570312e-01,9.401270747184753418e-01,1.974795818328857422e+00,1.974595308303833008e+00,1.974394679069519043e+00,1.974194407463073730e+00,1.973994016647338867e+00,1.973793506622314453e+00,1.973593235015869141e+00,1.973392844200134277e+00,1.973192811012268066e+00,1.972992539405822754e+00,1.967063069343566895e+00,1.935064435005187988e+00,1.904090404510498047e+00,1.874092102050781250e+00,1.845024347305297852e+00
1.777490377426147461e+00,1.777327895164489746e+00,1.777165412902832031e+00,1.777003169059753418e+00,1.776840686798095703e+00,1.776678323745727539e+00,1.776515960693359375e+00,1.776353597640991211e+00,1.776191592216491699e+00,1.776029229164123535e+00,1.775866985321044922e+00,1.775704860687255859e+00,1.775542616844177246e+00,1.775380730628967285e+00,1.775218605995178223e+00,1.775056481361389160e+00,1.774894475936889648e+00,1.774732589721679688e+00,1.774570584297180176e+00,1.774408578872680664e+00,1.774246692657470703e+00,1.774084806442260742e+00,1.773923039436340332e+00,1.773761153221130371e+00,1.773599386215209961e+00,1.773437619209289551e+00,1.773275852203369141e+00,1.773114323616027832e+00,1.772952556610107422e+00,1.772790908813476562e+00,1.772629261016845703e+00,1.772467613220214844e+00,1.772306203842163086e+00,1.772144675254821777e+00,1.771983146667480469e+00,1.771821618080139160e+00,1.771660208702087402e+00,1.771498918533325195e+00,1.771337509155273438e+00,1.771176099777221680e+00,1.771014809608459473e+00,1.770853638648986816e+00,1.770692348480224609e+00,1.770531058311462402e+00,1.464547872543334961e+00,1.443263292312622070e+00,1.433957219123840332e+00,1.443793892860412598e+00,1.769725322723388672e+00,1.769564270973205566e+00,1.769403219223022461e+00,1.769242405891418457e+00,1.769081354141235352e+00,1.768920421600341797e+00,1.768759369850158691e+00,1.768598556518554688e+00,1.768437862396240234e+00,1.768276929855346680e+00,1.768116116523742676e+00,1.767955303192138672e+00,9.775995612144470215e-01,9.702609181404113770e-01,9.567433595657348633e-01,9.445404410362243652e-01,1.767151951789855957e+00,1.766991615295410156e+00,1.766830921173095703e+00,1.766670346260070801e+00,1.766509890556335449e+00,1.766349434852600098e+00,1.766189098358154297e+00,1.766028642654418945e+00,1.765868186950683594e+00,1.765707850456237793e+00,1.765547513961791992e+00,1.765387415885925293e+00,1.765227079391479492e+00,1.765066862106323242e+00,1.764906644821166992e+00,1.764746546745300293e+00
1.607347130775451660e+00,1.607214212417602539e+00,1.607081413269042969e+00,1.606948614120483398e+00,1.606815695762634277e+00,1.606683135032653809e+00,1.606550335884094238e+00,1.606417536735534668e+00,1.606284856796264648e+00,1.606152176856994629e+00,1.606019616127014160e+00,1.605886936187744141e+00,1.605754256248474121e+00,1.605621695518493652e+00,1.605489015579223633e+00,1.605356693267822266e+00,1.605224132537841797e+00,1.605091571807861328e+00,1.604959011077880859e+00,1.604826569557189941e+00,1.604694247245788574e+00,1.604561805725097656e+00,1.604429364204406738e+00,1.604296922683715820e+00,1.604164719581604004e+00,1.604032397270202637e+00,1.603900074958801270e+00,1.603767752647399902e+00,1.603635430335998535e+00,1.603503346443176270e+00,1.603371024131774902e+00,1.603238821029663086e+00,1.603106617927551270e+00,1.602974414825439453e+00,1.602842450141906738e+00,1.602710247039794922e+00,1.602578163146972656e+00,1.602446079254150391e+00,1.602313995361328125e+00,1.602182149887084961e+00,1.602050065994262695e+00,1.601918101310729980e+00,1.601786136627197266e+00,1.601654291152954102e+00,1.437464475631713867e+00,1.422559738159179688e+00,1.413924336433410645e+00,1.412393093109130859e+00,1.600994944572448730e+00,1.600863099098205566e+00,1.600731253623962402e+00,1.600599527359008789e+00,1.600467681884765625e+00,1.600336074829101562e+00,1.600204348564147949e+00,1.600072741508483887e+00,1.599940896034240723e+00,1.599809288978576660e+00,1.599677801132202148e+00,1.599546194076538086e+00,1.599414587020874023e+00,9.673690199851989746e-01,9.518527984619140625e-01,9.408499598503112793e-01,9.568847417831420898e-01,1.598757028579711914e+00,1.598625659942626953e+00,1.598494291305541992e+00,1.598362922668457031e+00,1.598231554031372070e+00,1.598100066184997559e+00,1.597968816757202148e+00,1.597837567329406738e+00,1.597706317901611328e+00,1.597574949264526367e+00,1.597443699836730957e+00,1.597312450408935547e+00,1.597181320190429688e+00,1.597050189971923828e+00,1.596918940544128418e+00
1.466930866241455078e+00,1.466820120811462402e+00,1.466709494590759277e+00,1.466598987579345703e+00,1.466488361358642578e+00,1.466377735137939453e+00,1.466267108917236328e+00,1.466156721115112305e+00,1.466046094894409180e+00,1.465935587882995605e+00,1.465825080871582031e+00,1.465714454650878906e+00,1.465604186058044434e+00,1.465493679046630859e+00,1.465383172035217285e+00,1.465272784233093262e+00,1.465162277221679688e+00,1.465052008628845215e+00,1.464941620826721191e+00,1.464831233024597168e+00,1.464720845222473145e+00,1.464610576629638672e+00,1.464500308036804199e+00,1.464390039443969727e+00,1.464279651641845703e+00,1.464169383049011230e+00,1.464059233665466309e+00,1.463948965072631836e+00,1.463838815689086914e+00,1.463728547096252441e+00,1.463618397712707520e+00,1.463508367538452148e+00,1.463398098945617676e+00,1.463287949562072754e+00,1.463177919387817383e+00,1.463067770004272461e+00,1.462957739830017090e+00,1.462847709655761719e+00,1.462737679481506348e+00,1.462627530097961426e+00,1.462517499923706055e+00,1.462407708168029785e+00,1.462297677993774414e+00,1.462187647819519043e+00,1.462077736854553223e+00,1.400622248649597168e+00,1.384032487869262695e+00,1.375464439392089844e+00,1.363681793212890625e+00,1.461528301239013672e+00,1.461418509483337402e+00,1.461308717727661133e+00,1.461198806762695312e+00,1.461089015007019043e+00,1.460979223251342773e+00,1.460869550704956055e+00,1.460759758949279785e+00,1.460650086402893066e+00,1.460540294647216797e+00,1.460430622100830078e+00,1.460321068763732910e+00,9.618524909019470215e-01,9.454622268676757812e-01,9.295970797538757324e-01,9.204664826393127441e-01,9.276574850082397461e-01,1.459663271903991699e+00,1.459553718566894531e+00,1.459444165229797363e+00,1.459334731101989746e+00,1.459225177764892578e+00,1.459115624427795410e+00,1.459006071090698242e+00,1.458896636962890625e+00,1.458787322044372559e+00,1.458677768707275391e+00,1.458568334579467773e+00,1.458458900451660156e+00,1.458349585533142090e+00,1.458240270614624023e+00
1.349076867103576660e+00,1.348983287811279297e+00,1.348889708518981934e+00,1.348796129226684570e+00,1.348702549934387207e+00,1.348609089851379395e+00,1.348515510559082031e+00,1.348421931266784668e+00,1.348328471183776855e+00,1.348235011100769043e+00,1.348141551017761230e+00,1.348048090934753418e+00,1.347954630851745605e+00,1.347861170768737793e+00,1.347767829895019531e+00,1.347674369812011719e+00,1.347581028938293457e+00,1.347487568855285645e+00,1.347394227981567383e+00,1.347300887107849121e+00,1.347207546234130859e+00,1.347114205360412598e+00,1.347020864486694336e+00,1.346927523612976074e+00,1.346834301948547363e+00,1.346741080284118652e+00,1.346647739410400391e+00,1.346554517745971680e+00,1.346461296081542969e+00,1.346368074417114258e+00,1.346274852752685547e+00,1.346181631088256836e+00,1.346088409423828125e+00,1.345995306968688965e+00,1.345902085304260254e+00,1.345808982849121094e+00,1.345715761184692383e+00,1.345622658729553223e+00,1.345529675483703613e+00,1.345436453819274902e+00,1.345343351364135742e+00,1.345250248908996582e+00,1.345157265663146973e+00,1.345064282417297363e+00,1.344971179962158203e+00,1.344878196716308594e+00,1.344785094261169434e+00,1.344692111015319824e+00,1.344599246978759766e+00,1.344506263732910156e+00,1.344413280487060547e+00,1.344320297241210938e+00,1.344227433204650879e+00,1.344134449958801270e+00,1.344041585922241211e+00,1.343948602676391602e+00,1.343855738639831543e+00,1.343762993812561035e+00,1.343670129776000977e+00,1.343577265739440918e+00,1.003057122230529785e+00,9.607324004173278809e-01,9.383149743080139160e-01,9.195798635482788086e-01,9.006106257438659668e-01,8.870021104812622070e-01,8.807859420776367188e-01,1.342834949493408203e+00,1.342742204666137695e+00,1.342649459838867188e+00,1.342556715011596680e+00,1.342464089393615723e+00,1.342371463775634766e+00,1.342278718948364258e+00,1.342186093330383301e+00,1.342093467712402344e+00,1.342000842094421387e+00,1.341908216476440430e+00,1.341815590858459473e+00,1.341723084449768066e+00
1.248751521110534668e+00,1.248671293258666992e+00,1.248591184616088867e+00,1.248510956764221191e+00,1.248430848121643066e+00,1.248350620269775391e+00,1.248270511627197266e+00,1.248190402984619141e+00,1.248110294342041016e+00,1.248030185699462891e+00,1.247950077056884766e+00,1.247870087623596191e+00,1.247789978981018066e+00,1.247709870338439941e+00,1.247629761695861816e+00,1.247549772262573242e+00,1.247469782829284668e+00,1.247389793395996094e+00,1.247309684753417969e+00,1.247229695320129395e+00,1.247149705886840820e+00,1.247069716453552246e+00,1.246989727020263672e+00,1.246909737586975098e+00,1.246829867362976074e+00,1.246749877929687500e+00,1.246670007705688477e+00,1.246590018272399902e+00,1.246510148048400879e+00,1.246430158615112305e+00,1.246350288391113281e+00,1.246270537376403809e+00,1.246190547943115234e+00,1.246110677719116211e+00,1.246030807495117188e+00,1.245951056480407715e+00,1.245871186256408691e+00,1.245791435241699219e+00,1.245711565017700195e+00,1.245631694793701172e+00,1.245552062988281250e+00,1.245472192764282227e+00,1.245392441749572754e+00,1.245312690734863281e+00,1.245232939720153809e+00,1.245153188705444336e+00,1.245073437690734863e+00,1.244993805885314941e+00,1.244914054870605469e+00,1.244834303855895996e+00,1.244754672050476074e+00,1.244675040245056152e+00,1.244595289230346680e+00,1.244515657424926758e+00,1.244436025619506836e+00,1.244356393814086914e+00,1.244276762008666992e+00,1.244197130203247070e+00,1.244117498397827148e+00,1.244037985801696777e+00,1.002352356910705566e+00,9.627782702445983887e-01,9.351934790611267090e-01,9.139057993888854980e-01,8.903118371963500977e-01,8.702417612075805664e-01,8.517519831657409668e-01,8.383711576461791992e-01,8.194708228111267090e-01,8.061362504959106445e-01,7.850776314735412598e-01,1.243083596229553223e+00,1.243004202842712402e+00,1.242924809455871582e+00,1.242845296859741211e+00,1.242765903472900391e+00,1.242686390876770020e+00,1.242606997489929199e+00,1.242527723312377930e+00,1.242448210716247559e+00
1.162314891815185547e+00,1.162245392799377441e+00,1.162176012992858887e+00,1.162106513977050781e+00,1.162037134170532227e+00,1.161967635154724121e+00,1.161898255348205566e+00,1.161828756332397461e+00,1.161759376525878906e+00,1.161689996719360352e+00,1.161620616912841797e+00,1.161551117897033691e+00,1.161481738090515137e+00,1.161412358283996582e+00,1.161343097686767578e+00,1.161273717880249023e+00,1.161204338073730469e+00,1.161134958267211914e+00,1.161065697669982910e+00,1.160996437072753906e+00,1.160927057266235352e+00,1.160857677459716797e+00,1.160788416862487793e+00,1.160719156265258789e+00,1.160649895668029785e+00,1.160580635070800781e+00,1.160511374473571777e+00,1.160441994667053223e+00,1.160372853279113770e+00,1.160303592681884766e+00,1.160234332084655762e+00,1.160165071487426758e+00,1.160095930099487305e+00,1.160026788711547852e+00,1.159957528114318848e+00,1.159888267517089844e+00,1.159819126129150391e+00,1.159749984741210938e+00,1.159680843353271484e+00,1.159611582756042480e+00,1.159542441368103027e+00,1.159473299980163574e+00,1.159404277801513672e+00,1.159335136413574219e+00,1.159265995025634766e+00,1.159196853637695312e+00,1.159127712249755859e+00,1.159058690071105957e+00,1.158989548683166504e+00,1.158920526504516602e+00,1.158851385116577148e+00,1.158782362937927246e+00,1.158713340759277344e+00,1.158644318580627441e+00,1.158575177192687988e+00,1.158506155014038086e+00,1.158437132835388184e+00,1.158368229866027832e+00,1.158299207687377930e+00,1.158230185508728027e+00,9.967249035835266113e-01,9.657196998596191406e-01,9.428500533103942871e-01,9.199188947677612305e-01,8.970530629158020020e-01,8.598834276199340820e-01,8.408884406089782715e-01,8.248303532600402832e-01,8.047042489051818848e-01,7.890397906303405762e-01,7.790913581848144531e-01,7.825128436088562012e-01,7.924875020980834961e-01,1.157265186309814453e+00,1.157196283340454102e+00,1.157127380371093750e+00,1.157058596611022949e+00,1.156989812850952148e+00,1.156920909881591797e+00,1.156852126121520996e+00
1.087069630622863770e+00,1.087008953094482422e+00,1.086948156356811523e+00,1.086887359619140625e+00,1.086826562881469727e+00,1.086765885353088379e+00,1.086705207824707031e+00,1.086644411087036133e+00,1.086583733558654785e+00,1.086522936820983887e+00,1.086462259292602539e+00,1.086401581764221191e+00,1.086340904235839844e+00,1.086280226707458496e+00,1.086219429969787598e+00,1.086158752441406250e+00,1.086098194122314453e+00,1.086037516593933105e+00,1.085976839065551758e+00,1.085916161537170410e+00,1.085855603218078613e+00,1.085794925689697266e+00,1.085734367370605469e+00,1.085673689842224121e+00,1.085613012313842773e+00,1.085552573204040527e+00,1.085491895675659180e+00,1.085431337356567383e+00,1.085370659828186035e+00,1.085310101509094238e+00,1.085249543190002441e+00,1.085188984870910645e+00,1.085128426551818848e+00,1.085067868232727051e+00,1.085007309913635254e+00,1.084946870803833008e+00,1.084886312484741211e+00,1.084825754165649414e+00,1.084765195846557617e+00,1.084704756736755371e+00,1.084644198417663574e+00,1.084583759307861328e+00,1.084523200988769531e+00,1.084462761878967285e+00,1.084402322769165039e+00,1.084341764450073242e+00,1.084281325340270996e+00,1.084220886230468750e+00,1.084160447120666504e+00,1.084100008010864258e+00,1.084039568901062012e+00,1.083979129791259766e+00,1.083918690681457520e+00,1.083858251571655273e+00,1.083797931671142578e+00,1.083737492561340332e+00,1.083677053451538086e+00,1.083616614341735840e+00,1.083556294441223145e+00,1.083495974540710449e+00,1.083435535430908203e+00,9.669759273529052734e-01,9.462302327156066895e-01,9.298790097236633301e-01,9.174658060073852539e-01,9.076800942420959473e-01,8.380163908004760742e-01,8.235650062561035156e-01,8.099153041839599609e-01,7.945278286933898926e-01,7.912511825561523438e-01,8.524298071861267090e-01,8.295887708663940430e-01,1.082651376724243164e+00,1.082591056823730469e+00,1.082530856132507324e+00,1.082470536231994629e+00,1.082410216331481934e+00,1.082350134849548340e+00,1.082289814949035645e+00
1.020974397659301758e+00,1.020920753479003906e+00,1.020867228507995605e+00,1.020813584327697754e+00,1.020760059356689453e+00,1.020706415176391602e+00,1.020652890205383301e+00,1.020599246025085449e+00,1.020545721054077148e+00,1.020492196083068848e+00,1.020438671112060547e+00,1.020385026931762695e+00,1.020331501960754395e+00,1.020277976989746094e+00,1.020224452018737793e+00,1.020170927047729492e+00,1.020117402076721191e+00,1.020063877105712891e+00,1.020010471343994141e+00,1.019956946372985840e+00,1.019903421401977539e+00,1.019849896430969238e+00,1.019796371459960938e+00,1.019742965698242188e+00,1.019689440727233887e+00,1.019636034965515137e+00,1.019582509994506836e+00,1.019529104232788086e+00,1.019475698471069336e+00,1.019422173500061035e+00,1.019368767738342285e+00,1.019315242767333984e+00,1.019261956214904785e+00,1.019208431243896484e+00,1.019155025482177734e+00,1.019101619720458984e+00,1.019048213958740234e+00,1.018994808197021484e+00,1.018941402435302734e+00,1.018887996673583984e+00,1.018834590911865234e+00,1.018781304359436035e+00,1.018727898597717285e+00,1.018674492835998535e+00,1.018621206283569336e+00,1.018567800521850586e+00,1.018514513969421387e+00,1.018461108207702637e+00,1.018407821655273438e+00,1.018354415893554688e+00,1.018301129341125488e+00,1.018247842788696289e+00,1.018194556236267090e+00,1.018141150474548340e+00,1.018087863922119141e+00,1.018034577369689941e+00,1.017981290817260742e+00,1.017928004264831543e+00,1.017874717712402344e+00,1.017821431159973145e+00,1.017768144607543945e+00,1.017714858055114746e+00,1.017661571502685547e+00,1.017608404159545898e+00,1.017555117607116699e+00,1.017501950263977051e+00,1.017448663711547852e+00,1.017395377159118652e+00,1.017342209815979004e+00,1.017288923263549805e+00,1.017235755920410156e+00,1.017182469367980957e+00,1.017129302024841309e+00,1.017076134681701660e+00,1.017022848129272461e+00,1.016969799995422363e+00,1.016916513442993164e+00,1.016863346099853516e+00,1.016810178756713867e+00,1.016757011413574219e+00
9.624558091163635254e-01,9.624082446098327637e-01,9.623606204986572266e-01,9.623129367828369141e-01,9.622653722763061523e-01,9.622178077697753906e-01,9.621701240539550781e-01,9.621225595474243164e-01,9.620748758316040039e-01,9.620273113250732422e-01,9.619798064231872559e-01,9.619321227073669434e-01,9.618846178054809570e-01,9.618369340896606445e-01,9.617894291877746582e-01,9.617419242858886719e-01,9.616943001747131348e-01,9.616467356681823730e-01,9.615991115570068359e-01,9.615516066551208496e-01,9.615041017532348633e-01,9.614565372467041016e-01,9.614090323448181152e-01,9.613614082336425781e-01,9.613139629364013672e-01,9.612664580345153809e-01,9.612188935279846191e-01,9.611713886260986328e-01,9.611238241195678711e-01,9.610763788223266602e-01,9.610289335250854492e-01,9.609813690185546875e-01,9.609339237213134766e-01,9.608863592147827148e-01,9.608389139175415039e-01,9.607915282249450684e-01,9.607439637184143066e-01,9.606965780258178711e-01,9.606490135192871094e-01,9.606016278266906738e-01,9.605541825294494629e-01,9.605066776275634766e-01,9.604592919349670410e-01,9.604117870330810547e-01,9.603644013404846191e-01,9.603170156478881836e-01,9.602695107460021973e-01,9.602221250534057617e-01,9.601747989654541016e-01,9.601272940635681152e-01,9.600799083709716797e-01,9.600324630737304688e-01,9.599851369857788086e-01,9.599377512931823730e-01,9.598903059959411621e-01,9.598429799079895020e-01,9.597955346107482910e-01,9.597482085227966309e-01,9.597008824348449707e-01,9.596534371376037598e-01,9.596061110496520996e-01,9.595587253570556641e-01,9.595113992691040039e-01,9.594641327857971191e-01,9.594166874885559082e-01,9.593694210052490234e-01,9.593220353126525879e-01,9.592747092247009277e-01,9.592274427413940430e-01,9.591800570487976074e-01,9.591327905654907227e-01,9.590854048728942871e-01,9.590381979942321777e-01,9.589909315109252930e-01,9.589435458183288574e-01,9.588963389396667480e-01,9.588489532470703125e-01,9.588017463684082031e-01,9.587544798851013184e-01,9.587071537971496582e-01
9.102817773818969727e-01,9.102392196655273438e-01,9.101965427398681641e-01,9.101539850234985352e-01,9.101114273071289062e-01,9.100687503814697266e-01,9.100261926651000977e-01,9.099835753440856934e-01,9.099410176277160645e-01,9.098984599113464355e-01,9.098558425903320312e-01,9.098133444786071777e-01,9.097707867622375488e-01,9.097281694412231445e-01,9.096856713294982910e-01,9.096430540084838867e-01,9.096004962921142578e-01,9.095579981803894043e-01,9.095153808593750000e-01,9.094728827476501465e-01,9.094303250312805176e-01,9.093878269195556641e-01,9.093453288078308105e-01,9.093027710914611816e-01,9.092602729797363281e-01,9.092177152633666992e-01,9.091752171516418457e-01,9.091327786445617676e-01,9.090902209281921387e-01,9.090477228164672852e-01,9.090051651000976562e-01,9.089627265930175781e-01,9.089202880859375000e-01,9.088777303695678711e-01,9.088352918624877930e-01,9.087927937507629395e-01,9.087503552436828613e-01,9.087079167366027832e-01,9.086653590202331543e-01,9.086229801177978516e-01,9.085804224014282227e-01,9.085380434989929199e-01,9.084956049919128418e-01,9.084531068801879883e-01,9.084107279777526855e-01,9.083682298660278320e-01,9.083258509635925293e-01,9.082834720611572266e-01,9.082409739494323730e-01,9.081985950469970703e-01,9.081560969352722168e-01,9.081137180328369141e-01,9.080713987350463867e-01,9.080289006233215332e-01,9.079865813255310059e-01,9.079442024230957031e-01,9.079017639160156250e-01,9.078593850135803223e-01,9.078169465065002441e-01,9.077746272087097168e-01,9.077322483062744141e-01,9.076898097991943359e-01,9.076474905014038086e-01,9.076051115989685059e-01,9.075627923011779785e-01,9.075204730033874512e-01,9.074780344963073730e-01,9.074357151985168457e-01,9.073933362960815430e-01,9.073510169982910156e-01,9.073086977005004883e-01,9.072663187980651855e-01,9.072240591049194336e-01,9.071816802024841309e-01,9.071393609046936035e-01,9.070971012115478516e-01,9.070547223091125488e-01,9.070124626159667969e-01,9.069700837135314941e-01,9.069278240203857422e-01
