5.000000000000000000e+00,5.000000000000000000e+00,5.000000000000000000e+00,5.000000000000000000e+00,5.000000000000000000e+00,5.000000000000000000e+00,5.000000000000000000e+00,5.000000000000000000e+00,5.000000000000000000e+00,5.000000000000000000e+00,5.000000000000000000e+00,5.000000000000000000e+00,5.000000000000000000e+00,5.000000000000000000e+00,2.816708087921142578e+00,5.000000000000000000e+00,5.000000000000000000e+00,5.000000000000000000e+00,5.000000000000000000e+00,5.000000000000000000e+00,5.000000000000000000e+00,5.000000000000000000e+00,5.000000000000000000e+00,5.000000000000000000e+00,5.000000000000000000e+00,5.000000000000000000e+00,5.000000000000000000e+00,5.000000000000000000e+00,5.000000000000000000e+00,5.000000000000000000e+00,5.000000000000000000e+00,5.000000000000000000e+00,5.000000000000000000e+00,5.000000000000000000e+00,5.000000000000000000e+00,5.000000000000000000e+00,5.000000000000000000e+00,5.000000000000000000e+00,5.000000000000000000e+00,5.000000000000000000e+00,5.000000000000000000e+00,5.000000000000000000e+00,4.500451087951660156e+00,4.335162639617919922e+00,4.181585788726806641e+00,4.038517475128173828e+00,3.904915094375610352e+00,3.779869556427001953e+00,3.662583827972412109e+00,3.552357912063598633e+00,3.448572158813476562e+00,3.350679159164428711e+00,3.258190393447875977e+00,3.170670270919799805e+00,3.087728977203369141e+00,3.009016275405883789e+00,2.934217214584350586e+00,2.863046407699584961e+00,2.795246601104736328e+00,2.730583429336547852e+00,2.668844699859619141e+00,2.609836101531982422e+00,2.553380012512207031e+00,2.499315023422241211e+00,2.447492122650146484e+00,2.397774457931518555e+00,2.350036382675170898e+00,2.304162502288818359e+00,2.260045051574707031e+00,2.217585325241088867e+00,2.176691532135009766e+00,2.137278556823730469e+00,2.099267482757568359e+00,2.062584877014160156e+00,2.027162313461303711e+00,1.992935895919799805e+00,1.959845900535583496e+00,1.927837014198303223e+00,1.896856665611267090e+00,1.866856217384338379e+00
5.000000000000000000e+00,5.000000000000000000e+00,5.000000000000000000e+00,5.000000000000000000e+00,5.000000000000000000e+00,5.000000000000000000e+00,5.000000000000000000e+00,5.000000000000000000e+00,5.000000000000000000e+00,5.000000000000000000e+00,5.000000000000000000e+00,5.000000000000000000e+00,5.000000000000000000e+00,2.782864570617675781e+00,2.787603378295898438e+00,2.821580886840820312e+00,5.000000000000000000e+00,5.000000000000000000e+00,5.000000000000000000e+00,5.000000000000000000e+00,5.000000000000000000e+00,5.000000000000000000e+00,5.000000000000000000e+00,5.000000000000000000e+00,5.000000000000000000e+00,5.000000000000000000e+00,5.000000000000000000e+00,5.000000000000000000e+00,5.000000000000000000e+00,5.000000000000000000e+00,5.000000000000000000e+00,5.000000000000000000e+00,5.000000000000000000e+00,5.000000000000000000e+00,5.000000000000000000e+00,5.000000000000000000e+00,5.000000000000000000e+00,5.000000000000000000e+00,5.000000000000000000e+00,5.000000000000000000e+00,5.000000000000000000e+00,4.678974151611328125e+00,4.500572681427001953e+00,4.335276126861572266e+00,4.181690692901611328e+00,4.038615226745605469e+00,3.905006885528564453e+00,3.779955148696899414e+00,3.662664651870727539e+00,3.552433967590332031e+00,3.448643922805786133e+00,3.350746870040893555e+00,3.258254051208496094e+00,3.170730590820312500e+00,3.087786197662353516e+00,3.009070873260498047e+00,2.934268951416015625e+00,2.863095760345458984e+00,2.795293807983398438e+00,2.730628490447998047e+00,2.668887615203857422e+00,2.609876871109008789e+00,2.553419351577758789e+00,2.499352455139160156e+00,2.447528123855590820e+00,2.397809028625488281e+00,2.350069761276245117e+00,2.304194450378417969e+00,2.260075807571411133e+00,2.217614889144897461e+00,2.176719903945922852e+00,2.137305974960327148e+00,2.099293947219848633e+00,2.062610387802124023e+00,2.027187108993530273e+00,1.992959737777709961e+00,1.959869027137756348e+00,1.927859187126159668e+00,1.896878242492675781e+00,1.866877198219299316e+00
5.000000000000000000e+00,5.000000000000000000e+00,5.000000000000000000e+00,5.000000000000000000e+00,5.000000000000000000e+00,5.000000000000000000e+00,5.000000000000000000e+00,5.000000000000000000e+00,5.000000000000000000e+00,5.000000000000000000e+00,5.000000000000000000e+00,5.000000000000000000e+00,5.000000000000000000e+00,2.790161609649658203e+00,2.788853645324707031e+00,2.820236921310424805e+00,2.851610422134399414e+00,5.000000000000000000e+00,5.000000000000000000e+00,5.000000000000000000e+00,5.000000000000000000e+00,5.000000000000000000e+00,5.000000000000000000e+00,5.000000000000000000e+00,5.000000000000000000e+00,5.000000000000000000e+00,5.000000000000000000e+00,5.000000000000000000e+00,5.000000000000000000e+00,5.000000000000000000e+00,5.000000000000000000e+00,5.000000000000000000e+00,5.000000000000000000e+00,5.000000000000000000e+00,5.000000000000000000e+00,5.000000000000000000e+00,5.000000000000000000e+00,5.000000000000000000e+00,5.000000000000000000e+00,5.000000000000000000e+00,4.872245788574218750e+00,4.679105758666992188e+00,4.500694751739501953e+00,4.335388660430908203e+00,4.181795597076416016e+00,4.038713455200195312e+00,3.905098676681518555e+00,3.780041217803955078e+00,3.662745237350463867e+00,3.552509546279907227e+00,3.448715448379516602e+00,3.350814104080200195e+00,3.258317947387695312e+00,3.170790910720825195e+00,3.087843418121337891e+00,3.009125471115112305e+00,2.934320688247680664e+00,2.863145112991333008e+00,2.795340538024902344e+00,2.730673313140869141e+00,2.668930292129516602e+00,2.609917879104614258e+00,2.553458690643310547e+00,2.499390125274658203e+00,2.447564125061035156e+00,2.397843599319458008e+00,2.350102901458740234e+00,2.304226160049438477e+00,2.260106325149536133e+00,2.217644214630126953e+00,2.176748275756835938e+00,2.137333631515502930e+00,2.099320411682128906e+00,2.062636137008666992e+00,2.027211666107177734e+00,1.992983698844909668e+00,1.959892153739929199e+00,1.927881598472595215e+00,1.896900057792663574e+00,1.866898298263549805e+00
5.000000000000000000e+00,5.000000000000000000e+00,5.000000000000000000e+00,5.000000000000000000e+00,5.000000000000000000e+00,5.000000000000000000e+00,5.000000000000000000e+00,5.000000000000000000e+00,5.000000000000000000e+00,5.000000000000000000e+00,5.000000000000000000e+00,5.000000000000000000e+00,5.000000000000000000e+00,2.798490762710571289e+00,2.798098802566528320e+00,2.823682069778442383e+00,2.879236221313476562e+00,5.000000000000000000e+00,5.000000000000000000e+00,5.000000000000000000e+00,5.000000000000000000e+00,5.000000000000000000e+00,5.000000000000000000e+00,5.000000000000000000e+00,5.000000000000000000e+00,5.000000000000000000e+00,5.000000000000000000e+00,5.000000000000000000e+00,5.000000000000000000e+00,5.000000000000000000e+00,5.000000000000000000e+00,5.000000000000000000e+00,5.000000000000000000e+00,5.000000000000000000e+00,5.000000000000000000e+00,5.000000000000000000e+00,5.000000000000000000e+00,5.000000000000000000e+00,5.000000000000000000e+00,5.000000000000000000e+00,4.872388362884521484e+00,4.679237365722656250e+00,4.500816345214843750e+00,4.335502147674560547e+00,4.181900978088378906e+00,4.038811683654785156e+00,3.905189990997314453e+00,3.780127286911010742e+00,3.662825584411621094e+00,3.552585363388061523e+00,3.448786735534667969e+00,3.350881576538085938e+00,3.258381843566894531e+00,3.170851469039916992e+00,3.087900876998901367e+00,3.009179592132568359e+00,2.934372425079345703e+00,2.863194227218627930e+00,2.795387506484985352e+00,2.730718135833740234e+00,2.668973207473754883e+00,2.609958887100219727e+00,2.553497552871704102e+00,2.499427556991577148e+00,2.447600126266479492e+00,2.397878170013427734e+00,2.350136041641235352e+00,2.304258108139038086e+00,2.260137081146240234e+00,2.217673778533935547e+00,2.176776885986328125e+00,2.137360811233520508e+00,2.099347114562988281e+00,2.062661647796630859e+00,2.027236461639404297e+00,1.993007659912109375e+00,1.959915280342102051e+00,1.927904009819030762e+00,1.896921515464782715e+00,1.866919279098510742e+00
5.000000000000000000e+00,5.000000000000000000e+00,5.000000000000000000e+00,5.000000000000000000e+00,5.000000000000000000e+00,5.000000000000000000e+00,5.000000000000000000e+00,5.000000000000000000e+00,5.000000000000000000e+00,5.000000000000000000e+00,5.000000000000000000e+00,5.000000000000000000e+00,5.000000000000000000e+00,5.000000000000000000e+00,2.811382055282592773e+00,2.850749969482421875e+00,2.880336523056030273e+00,5.000000000000000000e+00,5.000000000000000000e+00,5.000000000000000000e+00,5.000000000000000000e+00,5.000000000000000000e+00,5.000000000000000000e+00,5.000000000000000000e+00,5.000000000000000000e+00,5.000000000000000000e+00,5.000000000000000000e+00,5.000000000000000000e+00,5.000000000000000000e+00,5.000000000000000000e+00,5.000000000000000000e+00,5.000000000000000000e+00,5.000000000000000000e+00,5.000000000000000000e+00,5.000000000000000000e+00,5.000000000000000000e+00,5.000000000000000000e+00,5.000000000000000000e+00,5.000000000000000000e+00,5.000000000000000000e+00,4.872531414031982422e+00,4.679368972778320312e+00,4.500937938690185547e+00,4.335614681243896484e+00,4.182005882263183594e+00,4.038909435272216797e+00,3.905282020568847656e+00,3.780212879180908203e+00,3.662906408309936523e+00,3.552661418914794922e+00,3.448858261108398438e+00,3.350949287414550781e+00,3.258445501327514648e+00,3.170912027359008789e+00,3.087958097457885742e+00,3.009234189987182617e+00,2.934424400329589844e+00,2.863243579864501953e+00,2.795434474945068359e+00,2.730762958526611328e+00,2.669016122817993164e+00,2.609999656677246094e+00,2.553536891937255859e+00,2.499464988708496094e+00,2.447636127471923828e+00,2.397912740707397461e+00,2.350169420242309570e+00,2.304290056228637695e+00,2.260167837142944336e+00,2.217703580856323242e+00,2.176805257797241211e+00,2.137388467788696289e+00,2.099373579025268555e+00,2.062687158584594727e+00,2.027261257171630859e+00,1.993031263351440430e+00,1.959938406944274902e+00,1.927926301956176758e+00,1.896943211555480957e+00,1.866940140724182129e+00
5.000000000000000000e+00,5.000000000000000000e+00,5.000000000000000000e+00,5.000000000000000000e+00,5.000000000000000000e+00,5.000000000000000000e+00,5.000000000000000000e+00,5.000000000000000000e+00,5.000000000000000000e+00,5.000000000000000000e+00,5.000000000000000000e+00,5.000000000000000000e+00,5.000000000000000000e+00,5.000000000000000000e+00,5.000000000000000000e+00,2.803133010864257812e+00,2.825471162796020508e+00,2.774812459945678711e+00,2.781770944595336914e+00,5.000000000000000000e+00,5.000000000000000000e+00,5.000000000000000000e+00,5.000000000000000000e+00,5.000000000000000000e+00,5.000000000000000000e+00,5.000000000000000000e+00,5.000000000000000000e+00,5.000000000000000000e+00,5.000000000000000000e+00,5.000000000000000000e+00,5.000000000000000000e+00,5.000000000000000000e+00,5.000000000000000000e+00,5.000000000000000000e+00,5.000000000000000000e+00,5.000000000000000000e+00,5.000000000000000000e+00,5.000000000000000000e+00,5.000000000000000000e+00,5.000000000000000000e+00,4.872673988342285156e+00,4.679500579833984375e+00,4.501060009002685547e+00,4.335727691650390625e+00,4.182111263275146484e+00,4.039007663726806641e+00,3.905373811721801758e+00,3.780298948287963867e+00,3.662987232208251953e+00,3.552736997604370117e+00,3.448929786682128906e+00,3.351016521453857422e+00,3.258509397506713867e+00,3.170972585678100586e+00,3.088015556335449219e+00,3.009288787841796875e+00,2.934475898742675781e+00,2.863292932510375977e+00,2.795481443405151367e+00,2.730807781219482422e+00,2.669058799743652344e+00,2.610040664672851562e+00,2.553576231002807617e+00,2.499502658843994141e+00,2.447672128677368164e+00,2.397947072982788086e+00,2.350202560424804688e+00,2.304322004318237305e+00,2.260198593139648438e+00,2.217733144760131836e+00,2.176833868026733398e+00,2.137415885925292969e+00,2.099400043487548828e+00,2.062712907791137695e+00,2.027285814285278320e+00,1.993055224418640137e+00,1.959961295127868652e+00,1.927948713302612305e+00,1.896964788436889648e+00,1.866961121559143066e+00
5.000000000000000000e+00,5.000000000000000000e+00,5.000000000000000000e+00,5.000000000000000000e+00,5.000000000000000000e+00,5.000000000000000000e+00,5.000000000000000000e+00,5.000000000000000000e+00,5.000000000000000000e+00,5.000000000000000000e+00,5.000000000000000000e+00,5.000000000000000000e+00,5.000000000000000000e+00,2.847719669342041016e+00,2.798693656921386719e+00,2.773221254348754883e+00,2.767052173614501953e+00,2.774316310882568359e+00,2.763669252395629883e+00,2.802837371826171875e+00,5.000000000000000000e+00,5.000000000000000000e+00,5.000000000000000000e+00,5.000000000000000000e+00,5.000000000000000000e+00,5.000000000000000000e+00,5.000000000000000000e+00,5.000000000000000000e+00,5.000000000000000000e+00,5.000000000000000000e+00,5.000000000000000000e+00,5.000000000000000000e+00,5.000000000000000000e+00,5.000000000000000000e+00,5.000000000000000000e+00,5.000000000000000000e+00,5.000000000000000000e+00,5.000000000000000000e+00,5.000000000000000000e+00,5.000000000000000000e+00,4.872816562652587891e+00,4.679632186889648438e+00,4.501181602478027344e+00,4.335840702056884766e+00,4.182216644287109375e+00,4.039105415344238281e+00,3.905465126037597656e+00,3.780385017395019531e+00,3.663067579269409180e+00,3.552813053131103516e+00,3.449001550674438477e+00,3.351083993911743164e+00,3.258573293685913086e+00,3.171032667160034180e+00,3.088072776794433594e+00,3.009342908859252930e+00,2.934527873992919922e+00,2.863342046737670898e+00,2.795528411865234375e+00,2.730852603912353516e+00,2.669101715087890625e+00,2.610081672668457031e+00,2.553615331649780273e+00,2.499540328979492188e+00,2.447708129882812500e+00,2.397981882095336914e+00,2.350235700607299805e+00,2.304353952407836914e+00,2.260229349136352539e+00,2.217762470245361328e+00,2.176862239837646484e+00,2.137443304061889648e+00,2.099426507949829102e+00,2.062738418579101562e+00,2.027310609817504883e+00,1.993079066276550293e+00,1.959984421730041504e+00,1.927971124649047852e+00,1.896986484527587891e+00,1.866982102394104004e+00
5.000000000000000000e+00,5.000000000000000000e+00,5.000000000000000000e+00,5.000000000000000000e+00,5.000000000000000000e+00,5.000000000000000000e+00,5.000000000000000000e+00,5.000000000000000000e+00,5.000000000000000000e+00,5.000000000000000000e+00,5.000000000000000000e+00,2.936691522598266602e+00,2.843534469604492188e+00,2.784270524978637695e+00,2.750867605209350586e+00,2.753401756286621094e+00,2.769975185394287109e+00,2.790523052215576172e+00,2.770058393478393555e+00,2.796768903732299805e+00,5.000000000000000000e+00,5.000000000000000000e+00,5.000000000000000000e+00,5.000000000000000000e+00,5.000000000000000000e+00,5.000000000000000000e+00,5.000000000000000000e+00,5.000000000000000000e+00,5.000000000000000000e+00,5.000000000000000000e+00,5.000000000000000000e+00,5.000000000000000000e+00,5.000000000000000000e+00,5.000000000000000000e+00,5.000000000000000000e+00,5.000000000000000000e+00,5.000000000000000000e+00,5.000000000000000000e+00,5.000000000000000000e+00,5.000000000000000000e+00,4.872959613800048828e+00,4.679763793945312500e+00,4.501303195953369141e+00,4.335953712463378906e+00,4.182321548461914062e+00,4.039203643798828125e+00,3.905556917190551758e+00,3.780471086502075195e+00,3.663148403167724609e+00,3.552888870239257812e+00,3.449072837829589844e+00,3.351151704788208008e+00,3.258636951446533203e+00,3.171093225479125977e+00,3.088129997253417969e+00,3.009397506713867188e+00,2.934579610824584961e+00,2.863391399383544922e+00,2.795575380325317383e+00,2.730897426605224609e+00,2.669144630432128906e+00,2.610122442245483398e+00,2.553654432296752930e+00,2.499577999114990234e+00,2.447744131088256836e+00,2.398016452789306641e+00,2.350268840789794922e+00,2.304385900497436523e+00,2.260259866714477539e+00,2.217792272567749023e+00,2.176890611648559570e+00,2.137470722198486328e+00,2.099452972412109375e+00,2.062763929367065430e+00,2.027335166931152344e+00,1.993103027343750000e+00,1.960007548332214355e+00,1.927993178367614746e+00,1.897008180618286133e+00,1.867003083229064941e+00
5.000000000000000000e+00,5.000000000000000000e+00,5.000000000000000000e+00,5.000000000000000000e+00,5.000000000000000000e+00,5.000000000000000000e+00,5.000000000000000000e+00,5.000000000000000000e+00,5.000000000000000000e+00,5.000000000000000000e+00,5.000000000000000000e+00,2.934871196746826172e+00,2.797901630401611328e+00,2.774147510528564453e+00,2.752090215682983398e+00,2.751729488372802734e+00,2.773240566253662109e+00,2.805522203445434570e+00,2.780163764953613281e+00,2.801661014556884766e+00,5.000000000000000000e+00,5.000000000000000000e+00,5.000000000000000000e+00,5.000000000000000000e+00,5.000000000000000000e+00,5.000000000000000000e+00,5.000000000000000000e+00,5.000000000000000000e+00,5.000000000000000000e+00,5.000000000000000000e+00,5.000000000000000000e+00,5.000000000000000000e+00,5.000000000000000000e+00,5.000000000000000000e+00,5.000000000000000000e+00,5.000000000000000000e+00,5.000000000000000000e+00,5.000000000000000000e+00,5.000000000000000000e+00,5.000000000000000000e+00,4.873102188110351562e+00,4.679895401000976562e+00,4.501425266265869141e+00,4.336066722869873047e+00,4.182426929473876953e+00,4.039301872253417969e+00,3.905648708343505859e+00,3.780556678771972656e+00,3.663229227066040039e+00,3.552964687347412109e+00,3.449144363403320312e+00,3.351218938827514648e+00,3.258700847625732422e+00,3.171153783798217773e+00,3.088187456130981445e+00,3.009451866149902344e+00,2.934631347656250000e+00,2.863440752029418945e+00,2.795622348785400391e+00,2.730942249298095703e+00,2.669187307357788086e+00,2.610163450241088867e+00,2.553693771362304688e+00,2.499615430831909180e+00,2.447780132293701172e+00,2.398050785064697266e+00,2.350302219390869141e+00,2.304417610168457031e+00,2.260290622711181641e+00,2.217821836471557617e+00,2.176919221878051758e+00,2.137498378753662109e+00,2.099479436874389648e+00,2.062789440155029297e+00,2.027359962463378906e+00,1.993126988410949707e+00,1.960030674934387207e+00,1.928015589714050293e+00,1.897029876708984375e+00,1.867024064064025879e+00
5.000000000000000000e+00,5.000000000000000000e+00,5.000000000000000000e+00,5.000000000000000000e+00,5.000000000000000000e+00,5.000000000000000000e+00,5.000000000000000000e+00,5.000000000000000000e+00,5.000000000000000000e+00,5.000000000000000000e+00,5.000000000000000000e+00,5.000000000000000000e+00,2.791541814804077148e+00,2.763149023056030273e+00,2.757720708847045898e+00,2.767123222351074219e+00,2.781146287918090820e+00,2.817934989929199219e+00,2.783957719802856445e+00,2.801416158676147461e+00,5.000000000000000000e+00,5.000000000000000000e+00,5.000000000000000000e+00,5.000000000000000000e+00,5.000000000000000000e+00,5.000000000000000000e+00,5.000000000000000000e+00,5.000000000000000000e+00,5.000000000000000000e+00,5.000000000000000000e+00,5.000000000000000000e+00,5.000000000000000000e+00,5.000000000000000000e+00,5.000000000000000000e+00,5.000000000000000000e+00,5.000000000000000000e+00,5.000000000000000000e+00,5.000000000000000000e+00,5.000000000000000000e+00,5.000000000000000000e+00,4.873244762420654297e+00,4.680027484893798828e+00,4.501546859741210938e+00,4.336179733276367188e+00,4.182531833648681641e+00,4.039399623870849609e+00,3.905740022659301758e+00,3.780642509460449219e+00,3.663309574127197266e+00,3.553040504455566406e+00,3.449215888977050781e+00,3.351286649703979492e+00,3.258764743804931641e+00,3.171214103698730469e+00,3.088244915008544922e+00,3.009506225585937500e+00,2.934683084487915039e+00,2.863490104675292969e+00,2.795669317245483398e+00,2.730987071990966797e+00,2.669229984283447266e+00,2.610204458236694336e+00,2.553732872009277344e+00,2.499652862548828125e+00,2.447816133499145508e+00,2.398085355758666992e+00,2.350335359573364258e+00,2.304449558258056641e+00,2.260321378707885742e+00,2.217851161956787109e+00,2.176947832107543945e+00,2.137525558471679688e+00,2.099505901336669922e+00,2.062815189361572266e+00,2.027384757995605469e+00,1.993150830268859863e+00,1.960053801536560059e+00,1.928038001060485840e+00,1.897051215171813965e+00,1.867045044898986816e+00
5.000000000000000000e+00,5.000000000000000000e+00,5.000000000000000000e+00,5.000000000000000000e+00,5.000000000000000000e+00,5.000000000000000000e+00,5.000000000000000000e+00,5.000000000000000000e+00,5.000000000000000000e+00,5.000000000000000000e+00,5.000000000000000000e+00,5.000000000000000000e+00,2.804931163787841797e+00,2.761587619781494141e+00,2.753853321075439453e+00,2.761530160903930664e+00,2.785589694976806641e+00,2.826206922531127930e+00,2.788817882537841797e+00,2.802136182785034180e+00,5.000000000000000000e+00,5.000000000000000000e+00,5.000000000000000000e+00,5.000000000000000000e+00,5.000000000000000000e+00,5.000000000000000000e+00,5.000000000000000000e+00,5.000000000000000000e+00,5.000000000000000000e+00,5.000000000000000000e+00,5.000000000000000000e+00,5.000000000000000000e+00,5.000000000000000000e+00,5.000000000000000000e+00,5.000000000000000000e+00,5.000000000000000000e+00,5.000000000000000000e+00,5.000000000000000000e+00,5.000000000000000000e+00,5.000000000000000000e+00,4.873387813568115234e+00,4.680159091949462891e+00,4.501668930053710938e+00,4.336292743682861328e+00,4.182636737823486328e+00,4.039497852325439453e+00,3.905832052230834961e+00,3.780728578567504883e+00,3.663390398025512695e+00,3.553116559982299805e+00,3.449287176132202148e+00,3.351354122161865234e+00,3.258828401565551758e+00,3.171274662017822266e+00,3.088302135467529297e+00,3.009560823440551758e+00,2.934734821319580078e+00,2.863539218902587891e+00,2.795716285705566406e+00,2.731031894683837891e+00,2.669272899627685547e+00,2.610245227813720703e+00,2.553771972656250000e+00,2.499690532684326172e+00,2.447852134704589844e+00,2.398120164871215820e+00,2.350368499755859375e+00,2.304481506347656250e+00,2.260352134704589844e+00,2.217880964279174805e+00,2.176976203918457031e+00,2.137553215026855469e+00,2.099532365798950195e+00,2.062840700149536133e+00,2.027409315109252930e+00,1.993174552917480469e+00,1.960076928138732910e+00,1.928060412406921387e+00,1.897072911262512207e+00,1.867066025733947754e+00
5.000000000000000000e+00,5.000000000000000000e+00,5.000000000000000000e+00,5.000000000000000000e+00,5.000000000000000000e+00,5.000000000000000000e+00,5.000000000000000000e+00,5.000000000000000000e+00,5.000000000000000000e+00,5.000000000000000000e+00,5.000000000000000000e+00,5.000000000000000000e+00,2.807285070419311523e+00,2.767185449600219727e+00,2.758318662643432617e+00,2.767824888229370117e+00,2.792364120483398438e+00,2.833268165588378906e+00,2.797422647476196289e+00,2.804734945297241211e+00,5.000000000000000000e+00,5.000000000000000000e+00,5.000000000000000000e+00,5.000000000000000000e+00,5.000000000000000000e+00,5.000000000000000000e+00,5.000000000000000000e+00,5.000000000000000000e+00,5.000000000000000000e+00,5.000000000000000000e+00,5.000000000000000000e+00,5.000000000000000000e+00,5.000000000000000000e+00,5.000000000000000000e+00,5.000000000000000000e+00,5.000000000000000000e+00,5.000000000000000000e+00,5.000000000000000000e+00,5.000000000000000000e+00,5.000000000000000000e+00,4.873530387878417969e+00,4.680290222167968750e+00,4.501790523529052734e+00,4.336405754089355469e+00,4.182742118835449219e+00,4.039596080780029297e+00,3.905923843383789062e+00,3.780814409255981445e+00,3.663471221923828125e+00,3.553192138671875000e+00,3.449358940124511719e+00,3.351421833038330078e+00,3.258892297744750977e+00,3.171335220336914062e+00,3.088359355926513672e+00,3.009615182876586914e+00,2.934786558151245117e+00,2.863588571548461914e+00,2.795763254165649414e+00,2.731076717376708984e+00,2.669315814971923828e+00,2.610286474227905273e+00,2.553811311721801758e+00,2.499727964401245117e+00,2.447888135910034180e+00,2.398154497146606445e+00,2.350401878356933594e+00,2.304513454437255859e+00,2.260382890701293945e+00,2.217910528182983398e+00,2.177004575729370117e+00,2.137580633163452148e+00,2.099558830261230469e+00,2.062866210937500000e+00,2.027434110641479492e+00,1.993198394775390625e+00,1.960100054740905762e+00,1.928082704544067383e+00,1.897094607353210449e+00,1.867086768150329590e+00
5.000000000000000000e+00,5.000000000000000000e+00,5.000000000000000000e+00,5.000000000000000000e+00,5.000000000000000000e+00,5.000000000000000000e+00,5.000000000000000000e+00,5.000000000000000000e+00,5.000000000000000000e+00,5.000000000000000000e+00,5.000000000000000000e+00,5.000000000000000000e+00,2.794508218765258789e+00,2.761673212051391602e+00,2.748509883880615234e+00,2.760259866714477539e+00,2.785208702087402344e+00,2.831430196762084961e+00,2.816778182983398438e+00,2.811597824096679688e+00,5.000000000000000000e+00,5.000000000000000000e+00,5.000000000000000000e+00,5.000000000000000000e+00,5.000000000000000000e+00,5.000000000000000000e+00,5.000000000000000000e+00,5.000000000000000000e+00,5.000000000000000000e+00,5.000000000000000000e+00,5.000000000000000000e+00,5.000000000000000000e+00,5.000000000000000000e+00,5.000000000000000000e+00,5.000000000000000000e+00,5.000000000000000000e+00,5.000000000000000000e+00,5.000000000000000000e+00,5.000000000000000000e+00,5.000000000000000000e+00,4.873673439025878906e+00,4.680422306060791016e+00,4.501912593841552734e+00,4.336518764495849609e+00,4.182847023010253906e+00,4.039693832397460938e+00,3.906015157699584961e+00,3.780900478363037109e+00,3.663552045822143555e+00,3.553268194198608398e+00,3.449430465698242188e+00,3.351489067077636719e+00,3.258956193923950195e+00,3.171395301818847656e+00,3.088416814804077148e+00,3.009669542312622070e+00,2.934838294982910156e+00,2.863637924194335938e+00,2.795810222625732422e+00,2.731121540069580078e+00,2.669358491897583008e+00,2.610327482223510742e+00,2.553850412368774414e+00,2.499765634536743164e+00,2.447924375534057617e+00,2.398189067840576172e+00,2.350435018539428711e+00,2.304545402526855469e+00,2.260413646697998047e+00,2.217939853668212891e+00,2.177033185958862305e+00,2.137608051300048828e+00,2.099585533142089844e+00,2.062891960144042969e+00,2.027458667755126953e+00,1.993222355842590332e+00,1.960122942924499512e+00,1.928105115890502930e+00,1.897116303443908691e+00,1.867107748985290527e+00
5.000000000000000000e+00,5.000000000000000000e+00,5.000000000000000000e+00,5.000000000000000000e+00,5.000000000000000000e+00,5.000000000000000000e+00,5.000000000000000000e+00,5.000000000000000000e+00,5.000000000000000000e+00,5.000000000000000000e+00,5.000000000000000000e+00,5.000000000000000000e+00,2.786108732223510742e+00,2.754498720169067383e+00,2.764839887619018555e+00,2.759659767150878906e+00,2.785967111587524414e+00,2.821054458618164062e+00,2.799010992050170898e+00,2.800693511962890625e+00,5.000000000000000000e+00,5.000000000000000000e+00,5.000000000000000000e+00,5.000000000000000000e+00,5.000000000000000000e+00,5.000000000000000000e+00,5.000000000000000000e+00,5.000000000000000000e+00,5.000000000000000000e+00,5.000000000000000000e+00,5.000000000000000000e+00,5.000000000000000000e+00,5.000000000000000000e+00,5.000000000000000000e+00,5.000000000000000000e+00,5.000000000000000000e+00,5.000000000000000000e+00,5.000000000000000000e+00,5.000000000000000000e+00,5.000000000000000000e+00,4.873816013336181641e+00,4.680553913116455078e+00,4.502034187316894531e+00,4.336631774902343750e+00,4.182952404022216797e+00,4.039792060852050781e+00,3.906106948852539062e+00,3.780986309051513672e+00,3.663632392883300781e+00,3.553344249725341797e+00,3.449501752853393555e+00,3.351556777954101562e+00,3.259019851684570312e+00,3.171455860137939453e+00,3.088474273681640625e+00,3.009724140167236328e+00,2.934890270233154297e+00,2.863687038421630859e+00,2.795857429504394531e+00,2.731166362762451172e+00,2.669401407241821289e+00,2.610368490219116211e+00,2.553889751434326172e+00,2.499803304672241211e+00,2.447960138320922852e+00,2.398223876953125000e+00,2.350468158721923828e+00,2.304577350616455078e+00,2.260444164276123047e+00,2.217969655990600586e+00,2.177061796188354492e+00,2.137635469436645508e+00,2.099611997604370117e+00,2.062917470932006836e+00,2.027483463287353516e+00,1.993246316909790039e+00,1.960146069526672363e+00,1.928127527236938477e+00,1.897137880325317383e+00,1.867128729820251465e+00
5.000000000000000000e+00,5.000000000000000000e+00,5.000000000000000000e+00,5.000000000000000000e+00,5.000000000000000000e+00,5.000000000000000000e+00,5.000000000000000000e+00,5.000000000000000000e+00,5.000000000000000000e+00,5.000000000000000000e+00,5.000000000000000000e+00,5.000000000000000000e+00,2.811295986175537109e+00,2.774318695068359375e+00,2.763728618621826172e+00,2.774041891098022461e+00,2.792687177658081055e+00,2.835336685180664062e+00,2.780516862869262695e+00,2.795286655426025391e+00,5.000000000000000000e+00,5.000000000000000000e+00,5.000000000000000000e+00,5.000000000000000000e+00,5.000000000000000000e+00,5.000000000000000000e+00,5.000000000000000000e+00,5.000000000000000000e+00,5.000000000000000000e+00,5.000000000000000000e+00,5.000000000000000000e+00,5.000000000000000000e+00,5.000000000000000000e+00,5.000000000000000000e+00,5.000000000000000000e+00,5.000000000000000000e+00,5.000000000000000000e+00,5.000000000000000000e+00,5.000000000000000000e+00,5.000000000000000000e+00,4.873958587646484375e+00,4.680685520172119141e+00,4.502156257629394531e+00,4.336744785308837891e+00,4.183057785034179688e+00,4.039890289306640625e+00,3.906198978424072266e+00,3.781072139739990234e+00,3.663713216781616211e+00,3.553419828414916992e+00,3.449573516845703125e+00,3.351624250411987305e+00,3.259083986282348633e+00,3.171516418457031250e+00,3.088531255722045898e+00,3.009778499603271484e+00,2.934941768646240234e+00,2.863736391067504883e+00,2.795904397964477539e+00,2.731211185455322266e+00,2.669444322586059570e+00,2.610409259796142578e+00,2.553928852081298828e+00,2.499840736389160156e+00,2.447996377944946289e+00,2.398258209228515625e+00,2.350501298904418945e+00,2.304609298706054688e+00,2.260474920272827148e+00,2.217999219894409180e+00,2.177090167999267578e+00,2.137663125991821289e+00,2.099638462066650391e+00,2.062942981719970703e+00,2.027508258819580078e+00,1.993270158767700195e+00,1.960169196128845215e+00,1.928149700164794922e+00,1.897159576416015625e+00,1.867149710655212402e+00
5.000000000000000000e+00,5.000000000000000000e+00,5.000000000000000000e+00,5.000000000000000000e+00,5.000000000000000000e+00,5.000000000000000000e+00,5.000000000000000000e+00,5.000000000000000000e+00,5.000000000000000000e+00,5.000000000000000000e+00,5.000000000000000000e+00,2.908233642578125000e+00,2.834193706512451172e+00,2.795490264892578125e+00,2.731700420379638672e+00,2.733711481094360352e+00,2.780737876892089844e+00,2.830279350280761719e+00,2.763712406158447266e+00,2.799792766571044922e+00,5.000000000000000000e+00,5.000000000000000000e+00,5.000000000000000000e+00,5.000000000000000000e+00,5.000000000000000000e+00,5.000000000000000000e+00,5.000000000000000000e+00,5.000000000000000000e+00,5.000000000000000000e+00,5.000000000000000000e+00,5.000000000000000000e+00,5.000000000000000000e+00,5.000000000000000000e+00,5.000000000000000000e+00,5.000000000000000000e+00,5.000000000000000000e+00,5.000000000000000000e+00,5.000000000000000000e+00,5.000000000000000000e+00,5.000000000000000000e+00,4.874101638793945312e+00,4.680817127227783203e+00,4.502277851104736328e+00,4.336857795715332031e+00,4.183162689208984375e+00,4.039988517761230469e+00,3.906290292739868164e+00,3.781158208847045898e+00,3.663794040679931641e+00,3.553495883941650391e+00,3.449645042419433594e+00,3.351691722869873047e+00,3.259147882461547852e+00,3.171576738357543945e+00,3.088588714599609375e+00,3.009833097457885742e+00,2.934993743896484375e+00,2.863785982131958008e+00,2.795951128005981445e+00,2.731256008148193359e+00,2.669486999511718750e+00,2.610450267791748047e+00,2.553967952728271484e+00,2.499878406524658203e+00,2.448032379150390625e+00,2.398292779922485352e+00,2.350534677505493164e+00,2.304641246795654297e+00,2.260505676269531250e+00,2.218028545379638672e+00,2.177118778228759766e+00,2.137690544128417969e+00,2.099664926528930664e+00,2.062968730926513672e+00,2.027532815933227539e+00,1.993294119834899902e+00,1.960192322731018066e+00,1.928171992301940918e+00,1.897181034088134766e+00,1.867170691490173340e+00
5.000000000000000000e+00,5.000000000000000000e+00,5.000000000000000000e+00,5.000000000000000000e+00,5.000000000000000000e+00,5.000000000000000000e+00,5.000000000000000000e+00,5.000000000000000000e+00,5.000000000000000000e+00,5.000000000000000000e+00,5.000000000000000000e+00,2.893995523452758789e+00,2.830664396286010742e+00,2.686952590942382812e+00,2.693441629409790039e+00,2.708227396011352539e+00,2.757452487945556641e+00,2.826428890228271484e+00,2.754598617553710938e+00,2.791451215744018555e+00,5.000000000000000000e+00,5.000000000000000000e+00,5.000000000000000000e+00,5.000000000000000000e+00,5.000000000000000000e+00,5.000000000000000000e+00,5.000000000000000000e+00,5.000000000000000000e+00,5.000000000000000000e+00,5.000000000000000000e+00,5.000000000000000000e+00,5.000000000000000000e+00,5.000000000000000000e+00,5.000000000000000000e+00,5.000000000000000000e+00,5.000000000000000000e+00,5.000000000000000000e+00,5.000000000000000000e+00,5.000000000000000000e+00,5.000000000000000000e+00,4.874244213104248047e+00,4.680948734283447266e+00,4.502399444580078125e+00,4.336970806121826172e+00,4.183268070220947266e+00,4.040086746215820312e+00,3.906382083892822266e+00,3.781244277954101562e+00,3.663874387741088867e+00,3.553571939468383789e+00,3.449716329574584961e+00,3.351759195327758789e+00,3.259211778640747070e+00,3.171637296676635742e+00,3.088646173477172852e+00,3.009887456893920898e+00,2.935045480728149414e+00,2.863835096359252930e+00,2.795998334884643555e+00,2.731300830841064453e+00,2.669529914855957031e+00,2.610491275787353516e+00,2.554007291793823242e+00,2.499915838241577148e+00,2.448068141937255859e+00,2.398327589035034180e+00,2.350567817687988281e+00,2.304673194885253906e+00,2.260536432266235352e+00,2.218058347702026367e+00,2.177147150039672852e+00,2.137717962265014648e+00,2.099691390991210938e+00,2.062994003295898438e+00,2.027557611465454102e+00,1.993317842483520508e+00,1.960215449333190918e+00,1.928194403648376465e+00,1.897202730178833008e+00,1.867191672325134277e+00
5.000000000000000000e+00,5.000000000000000000e+00,5.000000000000000000e+00,5.000000000000000000e+00,5.000000000000000000e+00,5.000000000000000000e+00,5.000000000000000000e+00,5.000000000000000000e+00,5.000000000000000000e+00,5.000000000000000000e+00,2.881111145019531250e+00,2.898707628250122070e+00,2.816141128540039062e+00,2.666043281555175781e+00,2.673130035400390625e+00,2.704107046127319336e+00,2.754554748535156250e+00,2.826488971710205078e+00,2.750131845474243164e+00,5.000000000000000000e+00,5.000000000000000000e+00,5.000000000000000000e+00,5.000000000000000000e+00,5.000000000000000000e+00,5.000000000000000000e+00,5.000000000000000000e+00,5.000000000000000000e+00,5.000000000000000000e+00,5.000000000000000000e+00,5.000000000000000000e+00,5.000000000000000000e+00,5.000000000000000000e+00,5.000000000000000000e+00,5.000000000000000000e+00,5.000000000000000000e+00,5.000000000000000000e+00,5.000000000000000000e+00,5.000000000000000000e+00,5.000000000000000000e+00,5.000000000000000000e+00,4.874387264251708984e+00,4.681080818176269531e+00,4.502521514892578125e+00,4.337084293365478516e+00,4.183372974395751953e+00,4.040184497833251953e+00,3.906474113464355469e+00,3.781329870223999023e+00,3.663955211639404297e+00,3.553647994995117188e+00,3.449788093566894531e+00,3.351826906204223633e+00,3.259275436401367188e+00,3.171697854995727539e+00,3.088703393936157227e+00,3.009941816329956055e+00,2.935097217559814453e+00,2.863884449005126953e+00,2.796045303344726562e+00,2.731345653533935547e+00,2.669572830200195312e+00,2.610532045364379883e+00,2.554046630859375000e+00,2.499953269958496094e+00,2.448104381561279297e+00,2.398362159729003906e+00,2.350600957870483398e+00,2.304705142974853516e+00,2.260566949844360352e+00,2.218087911605834961e+00,2.177175521850585938e+00,2.137745380401611328e+00,2.099717855453491211e+00,2.063019752502441406e+00,2.027582406997680664e+00,1.993341684341430664e+00,1.960238695144653320e+00,1.928216814994812012e+00,1.897224426269531250e+00,1.867212533950805664e+00
5.000000000000000000e+00,5.000000000000000000e+00,5.000000000000000000e+00,5.000000000000000000e+00,5.000000000000000000e+00,5.000000000000000000e+00,5.000000000000000000e+00,5.000000000000000000e+00,5.000000000000000000e+00,5.000000000000000000e+00,2.839991331100463867e+00,5.000000000000000000e+00,2.650399446487426758e+00,2.647529125213623047e+00,2.662026882171630859e+00,2.705701112747192383e+00,2.761864423751831055e+00,2.724265098571777344e+00,2.736484527587890625e+00,5.000000000000000000e+00,5.000000000000000000e+00,5.000000000000000000e+00,5.000000000000000000e+00,5.000000000000000000e+00,5.000000000000000000e+00,5.000000000000000000e+00,5.000000000000000000e+00,5.000000000000000000e+00,5.000000000000000000e+00,5.000000000000000000e+00,5.000000000000000000e+00,5.000000000000000000e+00,5.000000000000000000e+00,5.000000000000000000e+00,5.000000000000000000e+00,5.000000000000000000e+00,5.000000000000000000e+00,5.000000000000000000e+00,5.000000000000000000e+00,5.000000000000000000e+00,4.874530315399169922e+00,4.681212425231933594e+00,4.502643585205078125e+00,4.337197303771972656e+00,4.183478355407714844e+00,4.040282726287841797e+00,3.906565904617309570e+00,3.781415939331054688e+00,3.664036035537719727e+00,3.553723573684692383e+00,3.449859619140625000e+00,3.351894140243530273e+00,3.259339332580566406e+00,3.171758174896240234e+00,3.088760852813720703e+00,3.009996414184570312e+00,2.935148954391479492e+00,2.863933801651000977e+00,2.796092271804809570e+00,2.731390714645385742e+00,2.669615507125854492e+00,2.610573053359985352e+00,2.554085731506347656e+00,2.499990940093994141e+00,2.448140382766723633e+00,2.398396492004394531e+00,2.350634336471557617e+00,2.304736852645874023e+00,2.260597705841064453e+00,2.218117475509643555e+00,2.177204132080078125e+00,2.137773036956787109e+00,2.099744319915771484e+00,2.063045263290405273e+00,2.027606964111328125e+00,1.993365645408630371e+00,1.960261583328247070e+00,1.928239226341247559e+00,1.897246003150939941e+00,1.867233514785766602e+00
5.000000000000000000e+00,5.000000000000000000e+00,5.000000000000000000e+00,5.000000000000000000e+00,5.000000000000000000e+00,5.000000000000000000e+00,5.000000000000000000e+00,5.000000000000000000e+00,5.000000000000000000e+00,2.800457715988159180e+00,2.899429559707641602e+00,5.000000000000000000e+00,2.618518114089965820e+00,2.627697467803955078e+00,2.664106845855712891e+00,2.712847948074340820e+00,5.000000000000000000e+00,2.708080768585205078e+00,2.742539644241333008e+00,5.000000000000000000e+00,5.000000000000000000e+00,5.000000000000000000e+00,5.000000000000000000e+00,5.000000000000000000e+00,5.000000000000000000e+00,5.000000000000000000e+00,5.000000000000000000e+00,5.000000000000000000e+00,5.000000000000000000e+00,5.000000000000000000e+00,5.000000000000000000e+00,5.000000000000000000e+00,5.000000000000000000e+00,5.000000000000000000e+00,5.000000000000000000e+00,5.000000000000000000e+00,5.000000000000000000e+00,5.000000000000000000e+00,5.000000000000000000e+00,5.000000000000000000e+00,4.874672889709472656e+00,4.681344032287597656e+00,4.502765178680419922e+00,4.337310314178466797e+00,4.183583736419677734e+00,4.040380954742431641e+00,3.906657218933105469e+00,3.781502008438110352e+00,3.664116382598876953e+00,3.553799629211425781e+00,3.449930906295776367e+00,3.351961851119995117e+00,3.259403228759765625e+00,3.171818733215332031e+00,3.088818311691284180e+00,3.010050773620605469e+00,2.935200929641723633e+00,2.863982915878295898e+00,2.796139240264892578e+00,2.731435537338256836e+00,2.669658422470092773e+00,2.610614061355590820e+00,2.554124832153320312e+00,2.500028610229492188e+00,2.448176383972167969e+00,2.398431301116943359e+00,2.350667476654052734e+00,2.304768800735473633e+00,2.260628461837768555e+00,2.218147039413452148e+00,2.177232742309570312e+00,2.137800216674804688e+00,2.099771022796630859e+00,2.063070774078369141e+00,2.027631759643554688e+00,1.993389606475830078e+00,1.960284709930419922e+00,1.928261637687683105e+00,1.897267699241638184e+00,1.867254495620727539e+00
5.000000000000000000e+00,5.000000000000000000e+00,5.000000000000000000e+00,5.000000000000000000e+00,5.000000000000000000e+00,5.000000000000000000e+00,5.000000000000000000e+00,5.000000000000000000e+00,2.791534423828125000e+00,2.864866256713867188e+00,5.000000000000000000e+00,2.632640838623046875e+00,2.597386837005615234e+00,2.623010873794555664e+00,2.667583703994750977e+00,2.721302986145019531e+00,5.000000000000000000e+00,5.000000000000000000e+00,2.723943471908569336e+00,5.000000000000000000e+00,5.000000000000000000e+00,5.000000000000000000e+00,5.000000000000000000e+00,5.000000000000000000e+00,5.000000000000000000e+00,5.000000000000000000e+00,5.000000000000000000e+00,5.000000000000000000e+00,5.000000000000000000e+00,5.000000000000000000e+00,5.000000000000000000e+00,5.000000000000000000e+00,5.000000000000000000e+00,5.000000000000000000e+00,5.000000000000000000e+00,5.000000000000000000e+00,5.000000000000000000e+00,5.000000000000000000e+00,5.000000000000000000e+00,5.000000000000000000e+00,4.874815940856933594e+00,4.681476116180419922e+00,4.502887248992919922e+00,4.337423324584960938e+00,4.183688640594482422e+00,4.040478706359863281e+00,3.906749248504638672e+00,3.781587600708007812e+00,3.664197206497192383e+00,3.553875684738159180e+00,3.450002670288085938e+00,3.352029561996459961e+00,3.259466886520385742e+00,3.171879291534423828e+00,3.088875293731689453e+00,3.010105371475219727e+00,2.935252666473388672e+00,2.864032268524169922e+00,2.796186208724975586e+00,2.731480121612548828e+00,2.669701337814331055e+00,2.610655069351196289e+00,2.554164171218872070e+00,2.500066041946411133e+00,2.448212385177612305e+00,2.398465871810913086e+00,2.350700616836547852e+00,2.304800987243652344e+00,2.260659217834472656e+00,2.218176603317260742e+00,2.177261114120483398e+00,2.137827873229980469e+00,2.099797487258911133e+00,2.063096523284912109e+00,2.027656555175781250e+00,1.993413448333740234e+00,1.960307836532592773e+00,1.928283691406250000e+00,1.897289395332336426e+00,1.867275476455688477e+00
5.000000000000000000e+00,5.000000000000000000e+00,5.000000000000000000e+00,5.000000000000000000e+00,5.000000000000000000e+00,5.000000000000000000e+00,5.000000000000000000e+00,5.000000000000000000e+00,5.000000000000000000e+00,5.000000000000000000e+00,5.000000000000000000e+00,2.576211690902709961e+00,2.586166381835937500e+00,2.627035140991210938e+00,2.674746274948120117e+00,2.895467519760131836e+00,5.000000000000000000e+00,5.000000000000000000e+00,5.000000000000000000e+00,5.000000000000000000e+00,5.000000000000000000e+00,5.000000000000000000e+00,5.000000000000000000e+00,5.000000000000000000e+00,5.000000000000000000e+00,5.000000000000000000e+00,5.000000000000000000e+00,5.000000000000000000e+00,5.000000000000000000e+00,5.000000000000000000e+00,5.000000000000000000e+00,5.000000000000000000e+00,5.000000000000000000e+00,5.000000000000000000e+00,5.000000000000000000e+00,5.000000000000000000e+00,5.000000000000000000e+00,5.000000000000000000e+00,5.000000000000000000e+00,5.000000000000000000e+00,4.874958515167236328e+00,4.681607723236083984e+00,4.503008842468261719e+00,4.337536334991455078e+00,4.183794021606445312e+00,4.040577411651611328e+00,3.906841039657592773e+00,3.781673669815063477e+00,3.664278030395507812e+00,3.553951263427734375e+00,3.450074195861816406e+00,3.352096796035766602e+00,3.259530782699584961e+00,3.171939849853515625e+00,3.088932752609252930e+00,3.010159730911254883e+00,2.935304403305053711e+00,2.864081621170043945e+00,2.796233177185058594e+00,2.731525182723999023e+00,2.669744014739990234e+00,2.610696077346801758e+00,2.554203510284423828e+00,2.500103712081909180e+00,2.448248386383056641e+00,2.398500204086303711e+00,2.350733995437622070e+00,2.304832696914672852e+00,2.260689973831176758e+00,2.218206167221069336e+00,2.177289485931396484e+00,2.137855291366577148e+00,2.099823951721191406e+00,2.063122034072875977e+00,2.027681112289428711e+00,1.993437409400939941e+00,1.960330963134765625e+00,1.928306102752685547e+00,1.897311091423034668e+00,1.867296457290649414e+00
5.000000000000000000e+00,5.000000000000000000e+00,5.000000000000000000e+00,5.000000000000000000e+00,5.000000000000000000e+00,5.000000000000000000e+00,5.000000000000000000e+00,5.000000000000000000e+00,5.000000000000000000e+00,5.000000000000000000e+00,5.000000000000000000e+00,2.564532995223999023e+00,2.585067033767700195e+00,2.630767345428466797e+00,2.844618082046508789e+00,2.891808509826660156e+00,5.000000000000000000e+00,5.000000000000000000e+00,5.000000000000000000e+00,5.000000000000000000e+00,5.000000000000000000e+00,5.000000000000000000e+00,5.000000000000000000e+00,5.000000000000000000e+00,5.000000000000000000e+00,5.000000000000000000e+00,5.000000000000000000e+00,5.000000000000000000e+00,5.000000000000000000e+00,5.000000000000000000e+00,5.000000000000000000e+00,5.000000000000000000e+00,5.000000000000000000e+00,5.000000000000000000e+00,5.000000000000000000e+00,5.000000000000000000e+00,5.000000000000000000e+00,5.000000000000000000e+00,5.000000000000000000e+00,5.000000000000000000e+00,4.875101089477539062e+00,4.681739330291748047e+00,4.503130912780761719e+00,4.337649345397949219e+00,4.183899402618408203e+00,4.040675163269042969e+00,3.906932592391967773e+00,3.781759977340698242e+00,3.664358377456665039e+00,3.554027318954467773e+00,3.450145959854125977e+00,3.352164506912231445e+00,3.259594917297363281e+00,3.172000169754028320e+00,3.088990211486816406e+00,3.010214090347290039e+00,2.935356140136718750e+00,2.864130735397338867e+00,2.796280145645141602e+00,2.731570005416870117e+00,2.669786930084228516e+00,2.610737085342407227e+00,2.554242610931396484e+00,2.500141382217407227e+00,2.448284387588500977e+00,2.398535013198852539e+00,2.350767135620117188e+00,2.304864645004272461e+00,2.260720729827880859e+00,2.218235731124877930e+00,2.177318096160888672e+00,2.137882709503173828e+00,2.099850416183471680e+00,2.063147544860839844e+00,2.027705907821655273e+00,1.993461370468139648e+00,1.960354089736938477e+00,1.928328514099121094e+00,1.897332549095153809e+00,1.867317438125610352e+00
5.000000000000000000e+00,5.000000000000000000e+00,5.000000000000000000e+00,5.000000000000000000e+00,5.000000000000000000e+00,5.000000000000000000e+00,5.000000000000000000e+00,5.000000000000000000e+00,5.000000000000000000e+00,5.000000000000000000e+00,5.000000000000000000e+00,2.591130018234252930e+00,2.594657897949218750e+00,2.624462127685546875e+00,2.680674076080322266e+00,2.897881269454956055e+00,5.000000000000000000e+00,5.000000000000000000e+00,5.000000000000000000e+00,5.000000000000000000e+00,5.000000000000000000e+00,5.000000000000000000e+00,5.000000000000000000e+00,5.000000000000000000e+00,5.000000000000000000e+00,5.000000000000000000e+00,5.000000000000000000e+00,5.000000000000000000e+00,5.000000000000000000e+00,5.000000000000000000e+00,5.000000000000000000e+00,5.000000000000000000e+00,5.000000000000000000e+00,5.000000000000000000e+00,5.000000000000000000e+00,5.000000000000000000e+00,5.000000000000000000e+00,5.000000000000000000e+00,5.000000000000000000e+00,5.000000000000000000e+00,4.875244617462158203e+00,4.681870937347412109e+00,4.503252983093261719e+00,4.337762355804443359e+00,4.184004306793212891e+00,4.040773391723632812e+00,3.907024383544921875e+00,3.781846046447753906e+00,3.664439439773559570e+00,3.554103374481201172e+00,3.450217247009277344e+00,3.352231979370117188e+00,3.259658575057983398e+00,3.172060728073120117e+00,3.089047431945800781e+00,3.010268688201904297e+00,2.935408115386962891e+00,2.864180088043212891e+00,2.796327352523803711e+00,2.731614828109741211e+00,2.669829845428466797e+00,2.610777854919433594e+00,2.554281711578369141e+00,2.500179052352905273e+00,2.448320388793945312e+00,2.398569583892822266e+00,2.350800275802612305e+00,2.304896593093872070e+00,2.260751247406005859e+00,2.218265295028686523e+00,2.177346467971801758e+00,2.137910366058349609e+00,2.099876880645751953e+00,2.063173294067382812e+00,2.027730703353881836e+00,1.993484973907470703e+00,1.960377216339111328e+00,1.928350925445556641e+00,1.897354245185852051e+00,1.867338418960571289e+00
5.000000000000000000e+00,5.000000000000000000e+00,5.000000000000000000e+00,5.000000000000000000e+00,5.000000000000000000e+00,5.000000000000000000e+00,5.000000000000000000e+00,5.000000000000000000e+00,5.000000000000000000e+00,5.000000000000000000e+00,5.000000000000000000e+00,5.000000000000000000e+00,2.610466480255126953e+00,2.627043247222900391e+00,2.663369417190551758e+00,2.885612010955810547e+00,5.000000000000000000e+00,5.000000000000000000e+00,5.000000000000000000e+00,5.000000000000000000e+00,5.000000000000000000e+00,5.000000000000000000e+00,5.000000000000000000e+00,5.000000000000000000e+00,5.000000000000000000e+00,5.000000000000000000e+00,5.000000000000000000e+00,5.000000000000000000e+00,5.000000000000000000e+00,5.000000000000000000e+00,5.000000000000000000e+00,5.000000000000000000e+00,5.000000000000000000e+00,5.000000000000000000e+00,5.000000000000000000e+00,5.000000000000000000e+00,5.000000000000000000e+00,5.000000000000000000e+00,5.000000000000000000e+00,5.000000000000000000e+00,4.875387191772460938e+00,4.682002544403076172e+00,4.503374576568603516e+00,4.337875366210937500e+00,4.184109687805175781e+00,4.040871620178222656e+00,3.907116174697875977e+00,3.781931638717651367e+00,3.664520263671875000e+00,3.554178953170776367e+00,3.450288772583007812e+00,3.352299451828002930e+00,3.259722471237182617e+00,3.172121286392211914e+00,3.089104890823364258e+00,3.010323286056518555e+00,2.935459613800048828e+00,2.864229679107666016e+00,2.796374082565307617e+00,2.731659650802612305e+00,2.669872760772705078e+00,2.610818862915039062e+00,2.554321050643920898e+00,2.500216484069824219e+00,2.448356628417968750e+00,2.398603916168212891e+00,2.350833654403686523e+00,2.304928541183471680e+00,2.260782003402709961e+00,2.218294858932495117e+00,2.177375078201293945e+00,2.137937784194946289e+00,2.099903345108032227e+00,2.063198804855346680e+00,2.027755260467529297e+00,1.993508934974670410e+00,1.960400342941284180e+00,1.928373336791992188e+00,1.897375822067260742e+00,1.867359161376953125e+00
5.000000000000000000e+00,5.000000000000000000e+00,5.000000000000000000e+00,5.000000000000000000e+00,5.000000000000000000e+00,5.000000000000000000e+00,5.000000000000000000e+00,5.000000000000000000e+00,5.000000000000000000e+00,5.000000000000000000e+00,5.000000000000000000e+00,5.000000000000000000e+00,2.666252374649047852e+00,2.638362646102905273e+00,2.664581298828125000e+00,2.898288726806640625e+00,2.950183868408203125e+00,5.000000000000000000e+00,5.000000000000000000e+00,5.000000000000000000e+00,5.000000000000000000e+00,5.000000000000000000e+00,5.000000000000000000e+00,5.000000000000000000e+00,5.000000000000000000e+00,5.000000000000000000e+00,5.000000000000000000e+00,5.000000000000000000e+00,5.000000000000000000e+00,5.000000000000000000e+00,5.000000000000000000e+00,5.000000000000000000e+00,5.000000000000000000e+00,5.000000000000000000e+00,5.000000000000000000e+00,5.000000000000000000e+00,5.000000000000000000e+00,5.000000000000000000e+00,5.000000000000000000e+00,5.000000000000000000e+00,4.875528335571289062e+00,4.682134628295898438e+00,4.503496646881103516e+00,4.337988853454589844e+00,4.184215068817138672e+00,4.040969848632812500e+00,3.907207727432250977e+00,3.782017707824707031e+00,3.664600610733032227e+00,3.554255008697509766e+00,3.450360536575317383e+00,3.352366924285888672e+00,3.259786367416381836e+00,3.172181606292724609e+00,3.089162349700927734e+00,3.010377407073974609e+00,2.935511589050292969e+00,2.864279031753540039e+00,2.796421289443969727e+00,2.731704711914062500e+00,2.669915437698364258e+00,2.610859870910644531e+00,2.554360151290893555e+00,2.500253915786743164e+00,2.448392391204833984e+00,2.398638725280761719e+00,2.350866794586181641e+00,2.304960489273071289e+00,2.260812759399414062e+00,2.218324422836303711e+00,2.177403688430786133e+00,2.137965202331542969e+00,2.099930047988891602e+00,2.063224554061889648e+00,2.027780055999755859e+00,1.993532896041870117e+00,1.960423231124877930e+00,1.928395628929138184e+00,1.897397518157958984e+00,1.867380261421203613e+00
5.000000000000000000e+00,5.000000000000000000e+00,5.000000000000000000e+00,5.000000000000000000e+00,5.000000000000000000e+00,5.000000000000000000e+00,5.000000000000000000e+00,5.000000000000000000e+00,5.000000000000000000e+00,5.000000000000000000e+00,5.000000000000000000e+00,5.000000000000000000e+00,5.000000000000000000e+00,2.645384311676025391e+00,2.670875549316406250e+00,2.727146863937377930e+00,2.942666769027709961e+00,5.000000000000000000e+00,5.000000000000000000e+00,5.000000000000000000e+00,5.000000000000000000e+00,5.000000000000000000e+00,5.000000000000000000e+00,5.000000000000000000e+00,5.000000000000000000e+00,5.000000000000000000e+00,5.000000000000000000e+00,5.000000000000000000e+00,5.000000000000000000e+00,5.000000000000000000e+00,5.000000000000000000e+00,5.000000000000000000e+00,5.000000000000000000e+00,5.000000000000000000e+00,5.000000000000000000e+00,5.000000000000000000e+00,5.000000000000000000e+00,5.000000000000000000e+00,5.000000000000000000e+00,5.000000000000000000e+00,4.875668525695800781e+00,4.682265758514404297e+00,4.503618717193603516e+00,4.338101863861083984e+00,4.184319972991943359e+00,4.041067600250244141e+00,3.907299757003784180e+00,3.782103776931762695e+00,3.664681434631347656e+00,3.554331064224243164e+00,3.450431823730468750e+00,3.352434635162353516e+00,3.259850025177001953e+00,3.172242164611816406e+00,3.089219808578491211e+00,3.010432004928588867e+00,2.935563564300537109e+00,2.864328145980834961e+00,2.796468257904052734e+00,2.731749296188354492e+00,2.669958353042602539e+00,2.610900878906250000e+00,2.554399490356445312e+00,2.500291585922241211e+00,2.448428630828857422e+00,2.398673295974731445e+00,2.350899934768676758e+00,2.304992437362670898e+00,2.260843515396118164e+00,2.218353986740112305e+00,2.177432060241699219e+00,2.137992620468139648e+00,2.099956512451171875e+00,2.063250064849853516e+00,2.027804851531982422e+00,1.993556857109069824e+00,1.960446357727050781e+00,1.928417801856994629e+00,1.897419214248657227e+00,1.867401242256164551e+00
5.000000000000000000e+00,5.000000000000000000e+00,5.000000000000000000e+00,5.000000000000000000e+00,5.000000000000000000e+00,5.000000000000000000e+00,5.000000000000000000e+00,5.000000000000000000e+00,5.000000000000000000e+00,5.000000000000000000e+00,5.000000000000000000e+00,5.000000000000000000e+00,5.000000000000000000e+00,2.652520418167114258e+00,2.677625656127929688e+00,2.721337318420410156e+00,2.941539764404296875e+00,5.000000000000000000e+00,5.000000000000000000e+00,5.000000000000000000e+00,5.000000000000000000e+00,5.000000000000000000e+00,5.000000000000000000e+00,5.000000000000000000e+00,5.000000000000000000e+00,5.000000000000000000e+00,5.000000000000000000e+00,5.000000000000000000e+00,5.000000000000000000e+00,5.000000000000000000e+00,5.000000000000000000e+00,5.000000000000000000e+00,5.000000000000000000e+00,5.000000000000000000e+00,5.000000000000000000e+00,5.000000000000000000e+00,5.000000000000000000e+00,5.000000000000000000e+00,5.000000000000000000e+00,5.000000000000000000e+00,4.875809192657470703e+00,4.682394981384277344e+00,4.503740310668945312e+00,4.338215351104736328e+00,4.184425354003906250e+00,4.041165828704833984e+00,3.907391548156738281e+00,3.782189607620239258e+00,3.664762258529663086e+00,3.554406881332397461e+00,3.450503587722778320e+00,3.352502346038818359e+00,3.259914159774780273e+00,3.172302722930908203e+00,3.089277029037475586e+00,3.010486602783203125e+00,2.935615062713623047e+00,2.864377498626708984e+00,2.796515226364135742e+00,2.731794118881225586e+00,2.670001268386840820e+00,2.610941886901855469e+00,2.554438591003417969e+00,2.500329017639160156e+00,2.448464632034301758e+00,2.398707866668701172e+00,2.350933074951171875e+00,2.305024385452270508e+00,2.260874271392822266e+00,2.218383550643920898e+00,2.177460670471191406e+00,2.138020277023315430e+00,2.099982976913452148e+00,2.063275575637817383e+00,2.027829408645629883e+00,1.993580698966979980e+00,1.960469484329223633e+00,1.928440213203430176e+00,1.897440910339355469e+00,1.867422223091125488e+00
5.000000000000000000e+00,5.000000000000000000e+00,5.000000000000000000e+00,5.000000000000000000e+00,5.000000000000000000e+00,5.000000000000000000e+00,5.000000000000000000e+00,5.000000000000000000e+00,5.000000000000000000e+00,5.000000000000000000e+00,5.000000000000000000e+00,5.000000000000000000e+00,5.000000000000000000e+00,2.662250757217407227e+00,2.684876918792724609e+00,2.718286991119384766e+00,2.942486763000488281e+00,3.000638484954833984e+00,5.000000000000000000e+00,5.000000000000000000e+00,5.000000000000000000e+00,5.000000000000000000e+00,5.000000000000000000e+00,5.000000000000000000e+00,5.000000000000000000e+00,5.000000000000000000e+00,5.000000000000000000e+00,5.000000000000000000e+00,5.000000000000000000e+00,5.000000000000000000e+00,5.000000000000000000e+00,5.000000000000000000e+00,5.000000000000000000e+00,5.000000000000000000e+00,5.000000000000000000e+00,5.000000000000000000e+00,5.000000000000000000e+00,5.000000000000000000e+00,5.000000000000000000e+00,5.000000000000000000e+00,4.875948905944824219e+00,4.682524681091308594e+00,4.503860473632812500e+00,4.338328361511230469e+00,4.184530735015869141e+00,4.041264057159423828e+00,3.907483100891113281e+00,3.782275676727294922e+00,3.664843082427978516e+00,3.554482936859130859e+00,3.450575113296508789e+00,3.352569580078125000e+00,3.259978055953979492e+00,3.172363042831420898e+00,3.089334487915039062e+00,3.010540962219238281e+00,2.935667037963867188e+00,2.864426851272583008e+00,2.796562194824218750e+00,2.731839179992675781e+00,2.670043945312500000e+00,2.610982894897460938e+00,2.554477691650390625e+00,2.500366687774658203e+00,2.448500633239746094e+00,2.398742437362670898e+00,2.350966453552246094e+00,2.305056333541870117e+00,2.260905027389526367e+00,2.218413114547729492e+00,2.177489042282104492e+00,2.138047456741333008e+00,2.100009441375732422e+00,2.063301324844360352e+00,2.027854204177856445e+00,1.993604660034179688e+00,1.960492730140686035e+00,1.928462624549865723e+00,1.897462368011474609e+00,1.867443203926086426e+00
5.000000000000000000e+00,5.000000000000000000e+00,5.000000000000000000e+00,5.000000000000000000e+00,5.000000000000000000e+00,5.000000000000000000e+00,5.000000000000000000e+00,5.000000000000000000e+00,5.000000000000000000e+00,5.000000000000000000e+00,5.000000000000000000e+00,5.000000000000000000e+00,5.000000000000000000e+00,2.705570936203002930e+00,2.693132638931274414e+00,2.724457979202270508e+00,2.949757337570190430e+00,2.986440420150756836e+00,5.000000000000000000e+00,5.000000000000000000e+00,5.000000000000000000e+00,5.000000000000000000e+00,5.000000000000000000e+00,5.000000000000000000e+00,5.000000000000000000e+00,5.000000000000000000e+00,5.000000000000000000e+00,5.000000000000000000e+00,5.000000000000000000e+00,5.000000000000000000e+00,5.000000000000000000e+00,5.000000000000000000e+00,5.000000000000000000e+00,5.000000000000000000e+00,5.000000000000000000e+00,5.000000000000000000e+00,5.000000000000000000e+00,5.000000000000000000e+00,5.000000000000000000e+00,5.000000000000000000e+00,4.876089096069335938e+00,4.682653427124023438e+00,4.503980159759521484e+00,4.338439941406250000e+00,4.184635639190673828e+00,4.041362285614013672e+00,3.907574892044067383e+00,3.782361745834350586e+00,3.664923667907714844e+00,3.554558992385864258e+00,3.450646638870239258e+00,3.352637290954589844e+00,3.260041713714599609e+00,3.172423601150512695e+00,3.089391946792602539e+00,3.010595560073852539e+00,2.935718774795532227e+00,2.864475965499877930e+00,2.796609401702880859e+00,2.731883764266967773e+00,2.670086860656738281e+00,2.611023902893066406e+00,2.554517030715942383e+00,2.500404357910156250e+00,2.448536634445190430e+00,2.398777008056640625e+00,2.350999593734741211e+00,2.305088281631469727e+00,2.260935544967651367e+00,2.218442678451538086e+00,2.177517652511596680e+00,2.138075113296508789e+00,2.100035905838012695e+00,2.063326835632324219e+00,2.027878999710083008e+00,1.993628382682800293e+00,1.960515856742858887e+00,1.928485035896301270e+00,1.897484064102172852e+00,1.867464184761047363e+00
5.000000000000000000e+00,5.000000000000000000e+00,5.000000000000000000e+00,5.000000000000000000e+00,5.000000000000000000e+00,5.000000000000000000e+00,5.000000000000000000e+00,5.000000000000000000e+00,5.000000000000000000e+00,5.000000000000000000e+00,5.000000000000000000e+00,5.000000000000000000e+00,5.000000000000000000e+00,5.000000000000000000e+00,2.701554059982299805e+00,2.732774019241333008e+00,2.961892366409301758e+00,2.990572929382324219e+00,5.000000000000000000e+00,5.000000000000000000e+00,5.000000000000000000e+00,5.000000000000000000e+00,5.000000000000000000e+00,5.000000000000000000e+00,5.000000000000000000e+00,5.000000000000000000e+00,5.000000000000000000e+00,5.000000000000000000e+00,5.000000000000000000e+00,5.000000000000000000e+00,5.000000000000000000e+00,5.000000000000000000e+00,5.000000000000000000e+00,5.000000000000000000e+00,5.000000000000000000e+00,5.000000000000000000e+00,5.000000000000000000e+00,5.000000000000000000e+00,5.000000000000000000e+00,5.000000000000000000e+00,4.876229286193847656e+00,4.682783126831054688e+00,4.504099845886230469e+00,4.338551044464111328e+00,4.184740543365478516e+00,4.041460514068603516e+00,3.907666921615600586e+00,3.782447576522827148e+00,3.665004491806030273e+00,3.554635047912597656e+00,3.450718164443969727e+00,3.352705001831054688e+00,3.260105609893798828e+00,3.172484159469604492e+00,3.089448928833007812e+00,3.010650157928466797e+00,2.935770511627197266e+00,2.864525318145751953e+00,2.796656370162963867e+00,2.731928825378417969e+00,2.670129776000976562e+00,2.611064672470092773e+00,2.554556369781494141e+00,2.500441789627075195e+00,2.448572635650634766e+00,2.398811578750610352e+00,2.351032733917236328e+00,2.305120229721069336e+00,2.260966539382934570e+00,2.218472480773925781e+00,2.177546024322509766e+00,2.138102531433105469e+00,2.100062370300292969e+00,2.063352346420288086e+00,2.027903556823730469e+00,1.993652224540710449e+00,1.960538983345031738e+00,1.928507447242736816e+00,1.897505640983581543e+00,1.867484927177429199e+00
4.872189521789550781e+00,4.870970249176025391e+00,4.869751930236816406e+00,4.868534088134765625e+00,4.867317199707031250e+00,4.866100311279296875e+00,4.864884376525878906e+00,4.863669395446777344e+00,4.862454414367675781e+00,4.861240386962890625e+00,4.860026836395263672e+00,4.858813762664794922e+00,4.857601642608642578e+00,4.856389999389648438e+00,2.724162101745605469e+00,2.748730421066284180e+00,4.852758407592773438e+00,3.002260684967041016e+00,4.850340366363525391e+00,4.849132537841796875e+00,4.847925186157226562e+00,4.846718311309814453e+00,4.845511913299560547e+00,4.844305992126464844e+00,4.843101024627685547e+00,4.841896533966064453e+00,4.840692520141601562e+00,4.839489459991455078e+00,4.838286876678466797e+00,4.837084770202636719e+00,4.835883617401123047e+00,4.834682464599609375e+00,4.833482265472412109e+00,4.832282543182373047e+00,4.831083297729492188e+00,4.829885005950927734e+00,4.828686714172363281e+00,4.827489852905273438e+00,4.826292991638183594e+00,4.825096607208251953e+00,4.823901176452636719e+00,4.682912349700927734e+00,4.504219055175781250e+00,4.338662147521972656e+00,4.184844017028808594e+00,4.041558742523193359e+00,3.907758712768554688e+00,3.782533645629882812e+00,3.665085315704345703e+00,3.554710626602172852e+00,3.450789928436279297e+00,3.352772235870361328e+00,3.260169744491577148e+00,3.172544479370117188e+00,3.089506387710571289e+00,3.010704517364501953e+00,2.935822486877441406e+00,2.864574909210205078e+00,2.796703338623046875e+00,2.731973648071289062e+00,2.670172452926635742e+00,2.611105680465698242e+00,2.554595708847045898e+00,2.500479459762573242e+00,2.448608875274658203e+00,2.398846149444580078e+00,2.351066112518310547e+00,2.305152177810668945e+00,2.260997295379638672e+00,2.218501806259155273e+00,2.177574634552001953e+00,2.138130187988281250e+00,2.100089073181152344e+00,2.063378095626831055e+00,2.027928352355957031e+00,1.993676185607910156e+00,1.960561871528625488e+00,1.928529739379882812e+00,1.897527337074279785e+00,1.867505908012390137e+00
3.776699542999267578e+00,3.775967359542846680e+00,3.775234937667846680e+00,3.774503231048583984e+00,3.773771286010742188e+00,3.773040294647216797e+00,3.772308826446533203e+00,3.771578311920166016e+00,3.770847558975219727e+00,3.770117521286010742e+00,3.769387483596801758e+00,3.768657922744750977e+00,3.767928361892700195e+00,2.687629938125610352e+00,2.690335035324096680e+00,2.731399297714233398e+00,2.966779708862304688e+00,2.981831789016723633e+00,3.046957254409790039e+00,3.762830972671508789e+00,3.762103557586669922e+00,3.761377096176147461e+00,3.760650157928466797e+00,3.759924173355102539e+00,3.759197950363159180e+00,3.758472442626953125e+00,3.757746934890747070e+00,3.757021903991699219e+00,3.756296873092651367e+00,3.755572319030761719e+00,3.754848241806030273e+00,3.754123926162719727e+00,3.753400564193725586e+00,3.752676725387573242e+00,3.751953840255737305e+00,3.751230716705322266e+00,3.750508308410644531e+00,3.749785661697387695e+00,3.749063730239868164e+00,3.748341798782348633e+00,3.747620344161987305e+00,3.746898889541625977e+00,3.746178150177001953e+00,3.745457172393798828e+00,3.744736909866333008e+00,3.744016647338867188e+00,3.743297100067138672e+00,3.742577314376831055e+00,3.665165901184082031e+00,3.554786682128906250e+00,3.450861215591430664e+00,3.352839946746826172e+00,3.260233640670776367e+00,3.172605037689208984e+00,3.089563846588134766e+00,3.010758876800537109e+00,2.935874223709106445e+00,2.864624023437500000e+00,2.796750307083129883e+00,2.732018709182739258e+00,2.670215368270874023e+00,2.611146688461303711e+00,2.554634809494018555e+00,2.500517129898071289e+00,2.448644638061523438e+00,2.398880720138549805e+00,2.351099252700805664e+00,2.305184125900268555e+00,2.261028051376342773e+00,2.218531608581542969e+00,2.177603244781494141e+00,2.138157606124877930e+00,2.100115537643432617e+00,2.063403606414794922e+00,2.027953147888183594e+00,1.993700146675109863e+00,1.960584998130798340e+00,1.928552150726318359e+00,1.897549033164978027e+00,1.867527008056640625e+00
3.083409070968627930e+00,3.082921028137207031e+00,3.082432746887207031e+00,3.081944942474365234e+00,3.081457138061523438e+00,3.080969572067260742e+00,3.080482006072998047e+00,3.079994678497314453e+00,3.079507350921630859e+00,3.079020500183105469e+00,3.078533411026000977e+00,3.078046798706054688e+00,2.611920118331909180e+00,2.617446184158325195e+00,2.649662971496582031e+00,2.888802766799926758e+00,2.903151988983154297e+00,3.075129747390747070e+00,3.074644088745117188e+00,3.074158668518066406e+00,3.073673248291015625e+00,3.073188066482543945e+00,3.072702884674072266e+00,3.072218179702758789e+00,3.071733236312866211e+00,3.071248769760131836e+00,3.070764303207397461e+00,3.070280075073242188e+00,3.069795846939086914e+00,3.069312095642089844e+00,3.068828344345092773e+00,3.068344593048095703e+00,3.067861318588256836e+00,3.067377805709838867e+00,3.066894769668579102e+00,3.066411495208740234e+00,3.065928697586059570e+00,3.065445899963378906e+00,3.064963579177856445e+00,3.064481019973754883e+00,3.063998699188232422e+00,3.063516616821289062e+00,3.063034772872924805e+00,3.062552690505981445e+00,3.062071084976196289e+00,3.061589479446411133e+00,3.061108350753784180e+00,3.060626983642578125e+00,3.060145854949951172e+00,3.059664964675903320e+00,3.059184312820434570e+00,3.058703422546386719e+00,3.058223009109497070e+00,3.057742595672607422e+00,3.057262659072875977e+00,3.010813474655151367e+00,2.935926198959350586e+00,2.864673376083374023e+00,2.796797513961791992e+00,2.732063293457031250e+00,2.670258522033691406e+00,2.611187696456909180e+00,2.554674148559570312e+00,2.500554561614990234e+00,2.448680877685546875e+00,2.398915529251098633e+00,2.351132631301879883e+00,2.305216073989868164e+00,2.261058568954467773e+00,2.218561172485351562e+00,2.177631616592407227e+00,2.138185024261474609e+00,2.100142002105712891e+00,2.063429117202758789e+00,2.027977705001831055e+00,1.993724107742309570e+00,1.960608124732971191e+00,1.928574323654174805e+00,1.897570729255676270e+00,1.867547988891601562e+00
2.605175733566284180e+00,2.604827404022216797e+00,2.604478836059570312e+00,2.604130506515502930e+00,2.603782176971435547e+00,2.603434085845947266e+00,2.603085756301879883e+00,2.602737903594970703e+00,2.602389812469482422e+00,2.602042198181152344e+00,2.601694345474243164e+00,2.601346731185913086e+00,2.600999116897583008e+00,2.600651741027832031e+00,2.600304365158081055e+00,2.599957227706909180e+00,2.599610090255737305e+00,2.599262952804565430e+00,2.598915815353393555e+00,2.598569154739379883e+00,2.598222255706787109e+00,2.597875595092773438e+00,2.597528934478759766e+00,2.597182512283325195e+00,2.596835851669311523e+00,2.596489667892456055e+00,2.596143484115600586e+00,2.595797300338745117e+00,2.595451116561889648e+00,2.595105409622192383e+00,2.594759464263916016e+00,2.594413757324218750e+00,2.594068050384521484e+00,2.593722343444824219e+00,2.593377113342285156e+00,2.593031406402587891e+00,2.592686176300048828e+00,2.592340946197509766e+00,2.591995954513549805e+00,2.591650724411010742e+00,2.591305971145629883e+00,2.590960979461669922e+00,2.590616226196289062e+00,2.590271472930908203e+00,2.589926958084106445e+00,2.589582443237304688e+00,2.589238166809082031e+00,2.588893651962280273e+00,2.588549613952636719e+00,2.588205337524414062e+00,2.587861537933349609e+00,2.587517499923706055e+00,2.587173700332641602e+00,2.586829900741577148e+00,2.586486339569091797e+00,2.586142539978027344e+00,2.585799217224121094e+00,2.585455656051635742e+00,2.585112571716308594e+00,2.584769487380981445e+00,2.584426164627075195e+00,2.584083318710327148e+00,2.554713249206542969e+00,2.500592231750488281e+00,2.448716878890991211e+00,2.398949861526489258e+00,2.351165771484375000e+00,2.305247783660888672e+00,2.261089324951171875e+00,2.218590736389160156e+00,2.177659988403320312e+00,2.138212442398071289e+00,2.100168466567993164e+00,2.063454866409301758e+00,2.028002500534057617e+00,1.993747949600219727e+00,1.960631251335144043e+00,1.928596735000610352e+00,1.897592425346374512e+00,1.867568969726562500e+00
2.255360364913940430e+00,2.255100250244140625e+00,2.254840373992919922e+00,2.254580259323120117e+00,2.254320621490478516e+00,2.254060745239257812e+00,2.253800868988037109e+00,2.253541231155395508e+00,2.253281593322753906e+00,2.253021478652954102e+00,2.252760648727416992e+00,2.252500057220458984e+00,2.252239465713500977e+00,2.251978874206542969e+00,2.251718521118164062e+00,2.251458168029785156e+00,2.251197814941406250e+00,2.250937461853027344e+00,2.250677108764648438e+00,2.250417232513427734e+00,2.250156879425048828e+00,2.249897003173828125e+00,2.249636888504028320e+00,2.249377012252807617e+00,2.249117136001586914e+00,2.248857498168945312e+00,2.248597621917724609e+00,2.248337984085083008e+00,2.248078346252441406e+00,2.247818946838378906e+00,2.247559547424316406e+00,2.247299909591674805e+00,2.247040748596191406e+00,2.246781349182128906e+00,2.246521949768066406e+00,2.246262788772583008e+00,2.246003627777099609e+00,2.245744466781616211e+00,2.245485544204711914e+00,2.245226621627807617e+00,2.244967699050903320e+00,2.244708776473999023e+00,2.244450092315673828e+00,2.244191408157348633e+00,2.243932723999023438e+00,2.243674039840698242e+00,2.243415594100952148e+00,2.243156909942626953e+00,2.242898702621459961e+00,2.242640256881713867e+00,2.242382049560546875e+00,2.242123603820800781e+00,2.241865634918212891e+00,2.241607427597045898e+00,2.241349458694458008e+00,2.241091251373291016e+00,2.240833520889282227e+00,2.240575551986694336e+00,2.240317821502685547e+00,2.240060091018676758e+00,2.239802122116088867e+00,2.239544630050659180e+00,2.239286899566650391e+00,2.239029645919799805e+00,2.238771915435791016e+00,2.238514661788940430e+00,2.238257169723510742e+00,2.237999916076660156e+00,2.237742662429809570e+00,2.218620300292968750e+00,2.177688598632812500e+00,2.138239860534667969e+00,2.100195169448852539e+00,2.063480377197265625e+00,2.028027296066284180e+00,1.993771910667419434e+00,1.960654377937316895e+00,1.928619146347045898e+00,1.897613883018493652e+00,1.867589950561523438e+00
1.988305926322937012e+00,1.988103747367858887e+00,1.987901568412780762e+00,1.987699508666992188e+00,1.987497448921203613e+00,1.987295746803283691e+00,1.987093806266784668e+00,1.986891865730285645e+00,1.986690044403076172e+00,1.986488223075866699e+00,1.986286640167236328e+00,1.986084938049316406e+00,1.985883235931396484e+00,1.985681533813476562e+00,1.985479950904846191e+00,1.985278367996215820e+00,1.985077023506164551e+00,1.984875559806823730e+00,1.984674096107482910e+00,1.984472632408142090e+00,1.984271287918090820e+00,1.984070181846618652e+00,1.983868837356567383e+00,1.983667612075805664e+00,1.983466386795043945e+00,1.983265280723571777e+00,1.983064293861389160e+00,1.982863306999206543e+00,1.982662200927734375e+00,1.982461214065551758e+00,1.982260227203369141e+00,1.982059597969055176e+00,1.981858611106872559e+00,1.981657743453979492e+00,1.981456995010375977e+00,1.981256246566772461e+00,1.981055498123168945e+00,1.980854988098144531e+00,1.980654358863830566e+00,1.980453848838806152e+00,1.980253219604492188e+00,1.980052709579467773e+00,1.979852437973022461e+00,1.979652047157287598e+00,1.979451656341552734e+00,1.979251265525817871e+00,1.979050874710083008e+00,1.978850841522216797e+00,1.978650689125061035e+00,1.978450417518615723e+00,1.978250265121459961e+00,1.978050112724304199e+00,1.977850317955017090e+00,1.977650284767150879e+00,1.977450251579284668e+00,1.977250337600708008e+00,1.977050423622131348e+00,1.976850748062133789e+00,1.976650953292846680e+00,1.976451158523559570e+00,1.976251363754272461e+00,1.976051688194274902e+00,1.975852012634277344e+00,1.975652575492858887e+00,1.975452899932861328e+00,1.975253462791442871e+00,1.975053906440734863e+00,1.974854469299316406e+00,1.974655270576477051e+00,1.974455833435058594e+00,1.974256515502929688e+00,1.974057197570800781e+00,1.973857879638671875e+00,1.973658919334411621e+00,1.973459720611572266e+00,1.973260521888732910e+00,1.960677623748779297e+00,1.928641557693481445e+00,1.897635579109191895e+00,1.867610931396484375e+00
1.777798652648925781e+00,1.777637243270874023e+00,1.777475714683532715e+00,1.777314066886901855e+00,1.777152538299560547e+00,1.776991128921508789e+00,1.776829838752746582e+00,1.776668310165405273e+00,1.776506900787353516e+00,1.776345610618591309e+00,1.776184201240539551e+00,1.776023030281066895e+00,1.775861740112304688e+00,1.775700569152832031e+00,1.775539278984069824e+00,1.775378108024597168e+00,1.775216937065124512e+00,1.775055885314941406e+00,1.774894833564758301e+00,1.774733662605285645e+00,1.774572610855102539e+00,1.774411559104919434e+00,1.774250745773315430e+00,1.774089813232421875e+00,1.773928880691528320e+00,1.773767948150634766e+00,1.773607134819030762e+00,1.773446440696716309e+00,1.773285627365112305e+00,1.773124814033508301e+00,1.772964000701904297e+00,1.772803306579589844e+00,1.772642731666564941e+00,1.772482037544250488e+00,1.772321343421936035e+00,1.772160768508911133e+00,1.772000193595886230e+00,1.771839737892150879e+00,1.771679282188415527e+00,1.771518707275390625e+00,1.771358251571655273e+00,1.771197795867919922e+00,1.771037340164184570e+00,1.770877122879028320e+00,1.770716786384582520e+00,1.770556449890136719e+00,1.770396113395690918e+00,1.770235896110534668e+00,1.770075798034667969e+00,1.769915580749511719e+00,1.769755363464355469e+00,1.769595265388488770e+00,1.769435048103332520e+00,1.769275188446044922e+00,1.769115090370178223e+00,1.768955111503601074e+00,1.768795013427734375e+00,1.768635034561157227e+00,1.768475294113159180e+00,1.768315315246582031e+00,1.768155455589294434e+00,1.767995595932006836e+00,1.767835736274719238e+00,1.767675876617431641e+00,1.767516374588012695e+00,1.767356634140014648e+00,1.767196893692016602e+00,1.767037153244018555e+00,1.766877532005310059e+00,1.766718029975891113e+00,1.766558408737182617e+00,1.766398787498474121e+00,1.766239285469055176e+00,1.766079783439636230e+00,1.765920400619506836e+00,1.765761017799377441e+00,1.765601515769958496e+00,1.765442132949829102e+00,1.765282869338989258e+00,1.765123605728149414e+00
1.607598185539245605e+00,1.607465982437133789e+00,1.607334017753601074e+00,1.607201933860778809e+00,1.607069849967956543e+00,1.606937766075134277e+00,1.606805682182312012e+00,1.606673836708068848e+00,1.606541872024536133e+00,1.606409907341003418e+00,1.606277942657470703e+00,1.606145977973937988e+00,1.606014251708984375e+00,1.605882287025451660e+00,1.605750441551208496e+00,1.605618596076965332e+00,1.605486750602722168e+00,1.605355143547058105e+00,1.605223298072814941e+00,1.605091571807861328e+00,1.604959845542907715e+00,1.604828119277954102e+00,1.604696393013000488e+00,1.604564905166625977e+00,1.604433178901672363e+00,1.604301571846008301e+00,1.604169964790344238e+00,1.604038357734680176e+00,1.603906989097595215e+00,1.603775382041931152e+00,1.603643894195556641e+00,1.603512406349182129e+00,1.603380918502807617e+00,1.603249549865722656e+00,1.603118062019348145e+00,1.602986693382263184e+00,1.602855324745178223e+00,1.602723956108093262e+00,1.602592587471008301e+00,1.602461338043212891e+00,1.602330088615417480e+00,1.602198839187622070e+00,1.602067470550537109e+00,1.601936221122741699e+00,1.601805210113525391e+00,1.601673960685729980e+00,1.601542830467224121e+00,1.601411700248718262e+00,1.601280450820922852e+00,1.601149559020996094e+00,1.601018428802490234e+00,1.600887417793273926e+00,1.600756287574768066e+00,1.600625276565551758e+00,1.600494384765625000e+00,1.600363492965698242e+00,1.600232481956481934e+00,1.600101470947265625e+00,1.599970579147338867e+00,1.599839806556701660e+00,1.599708914756774902e+00,1.599578022956848145e+00,1.599447250366210938e+00,1.599316358566284180e+00,1.599185585975646973e+00,1.599054932594299316e+00,1.598924279212951660e+00,1.598793506622314453e+00,1.598662734031677246e+00,1.598532080650329590e+00,1.598401546478271484e+00,1.598270893096923828e+00,1.598140358924865723e+00,1.598009705543518066e+00,1.597879171371459961e+00,1.597748756408691406e+00,1.597618222236633301e+00,1.597487688064575195e+00,1.597357153892517090e+00,1.597226619720458984e+00
1.467139124870300293e+00,1.467029094696044922e+00,1.466919064521789551e+00,1.466809153556823730e+00,1.466699123382568359e+00,1.466589093208312988e+00,1.466479063034057617e+00,1.466369152069091797e+00,1.466259360313415527e+00,1.466149330139160156e+00,1.466039419174194336e+00,1.465929508209228516e+00,1.465819597244262695e+00,1.465709924697875977e+00,1.465600013732910156e+00,1.465490221977233887e+00,1.465380430221557617e+00,1.465270519256591797e+00,1.465160727500915527e+00,1.465051174163818359e+00,1.464941382408142090e+00,1.464831590652465820e+00,1.464721918106079102e+00,1.464612126350402832e+00,1.464502573013305664e+00,1.464392900466918945e+00,1.464283227920532227e+00,1.464173674583435059e+00,1.464064002037048340e+00,1.463954567909240723e+00,1.463844895362854004e+00,1.463735342025756836e+00,1.463625788688659668e+00,1.463516235351562500e+00,1.463406801223754883e+00,1.463297367095947266e+00,1.463187813758850098e+00,1.463078379631042480e+00,1.462968826293945312e+00,1.462859511375427246e+00,1.462750077247619629e+00,1.462640762329101562e+00,1.462531328201293945e+00,1.462421894073486328e+00,1.462312579154968262e+00,1.462203383445739746e+00,1.462094068527221680e+00,1.461984753608703613e+00,1.461875438690185547e+00,1.461766123771667480e+00,1.461657047271728516e+00,1.461547732353210449e+00,1.461438536643981934e+00,1.461329340934753418e+00,1.461220145225524902e+00,1.461111068725585938e+00,1.461001873016357422e+00,1.460892677307128906e+00,1.460783600807189941e+00,1.460674405097961426e+00,1.460565447807312012e+00,1.460456371307373047e+00,1.460347294807434082e+00,1.460238218307495117e+00,1.460129261016845703e+00,1.460020184516906738e+00,1.459911346435546875e+00,1.459802389144897461e+00,1.459693312644958496e+00,1.459584355354309082e+00,1.459475517272949219e+00,1.459366679191589355e+00,1.459257721900939941e+00,1.459148883819580078e+00,1.459040045738220215e+00,1.458931088447570801e+00,1.458822369575500488e+00,1.458713531494140625e+00,1.458604812622070312e+00,1.458495974540710449e+00
1.349252343177795410e+00,1.349159240722656250e+00,1.349066138267517090e+00,1.348973035812377930e+00,1.348880171775817871e+00,1.348787069320678711e+00,1.348694086074829102e+00,1.348600983619689941e+00,1.348508000373840332e+00,1.348415136337280273e+00,1.348322153091430664e+00,1.348229169845581055e+00,1.348136305809020996e+00,1.348043322563171387e+00,1.347950458526611328e+00,1.347857594490051270e+00,1.347764730453491211e+00,1.347671747207641602e+00,1.347578883171081543e+00,1.347486138343811035e+00,1.347393274307250977e+00,1.347300529479980469e+00,1.347207665443420410e+00,1.347114920616149902e+00,1.347022056579589844e+00,1.346929430961608887e+00,1.346836566925048828e+00,1.346743822097778320e+00,1.346651077270507812e+00,1.346558332443237305e+00,1.346465706825256348e+00,1.346373081207275391e+00,1.346280336380004883e+00,1.346187710762023926e+00,1.346094965934753418e+00,1.346002459526062012e+00,1.345909833908081055e+00,1.345817208290100098e+00,1.345724582672119141e+00,1.345631957054138184e+00,1.345539450645446777e+00,1.345446825027465820e+00,1.345354318618774414e+00,1.345261693000793457e+00,1.345169186592102051e+00,1.345076680183410645e+00,1.344984292984008789e+00,1.344891786575317383e+00,1.344799280166625977e+00,1.344706773757934570e+00,1.344614267349243164e+00,1.344521999359130859e+00,1.344429492950439453e+00,1.344337105751037598e+00,1.344244599342346191e+00,1.344152212142944336e+00,1.344059944152832031e+00,1.343967556953430176e+00,1.343875169754028320e+00,1.343782901763916016e+00,1.343690514564514160e+00,1.343598246574401855e+00,1.343505978584289551e+00,1.343413710594177246e+00,1.343321442604064941e+00,1.343229055404663086e+00,1.343136787414550781e+00,1.343044638633728027e+00,1.342952489852905273e+00,1.342860221862792969e+00,1.342767953872680664e+00,1.342675805091857910e+00,1.342583775520324707e+00,1.342491507530212402e+00,1.342399358749389648e+00,1.342307209968566895e+00,1.342215061187744141e+00,1.342123031616210938e+00,1.342031002044677734e+00,1.341938853263854980e+00
1.248901247978210449e+00,1.248821496963500977e+00,1.248741745948791504e+00,1.248661994934082031e+00,1.248582243919372559e+00,1.248502612113952637e+00,1.248422980308532715e+00,1.248343229293823242e+00,1.248263478279113770e+00,1.248183846473693848e+00,1.248104214668273926e+00,1.248024582862854004e+00,1.247944951057434082e+00,1.247865319252014160e+00,1.247785687446594238e+00,1.247706174850463867e+00,1.247626543045043945e+00,1.247546911239624023e+00,1.247467398643493652e+00,1.247387766838073730e+00,1.247308254241943359e+00,1.247228741645812988e+00,1.247149229049682617e+00,1.247069716453552246e+00,1.246990084648132324e+00,1.246910572052001953e+00,1.246831178665161133e+00,1.246751666069030762e+00,1.246672272682189941e+00,1.246592760086059570e+00,1.246513247489929199e+00,1.246433854103088379e+00,1.246354460716247559e+00,1.246275067329406738e+00,1.246195554733276367e+00,1.246116161346435547e+00,1.246036887168884277e+00,1.245957493782043457e+00,1.245878100395202637e+00,1.245798707008361816e+00,1.245719313621520996e+00,1.245640039443969727e+00,1.245560765266418457e+00,1.245481371879577637e+00,1.245402097702026367e+00,1.245322704315185547e+00,1.245243430137634277e+00,1.245164275169372559e+00,1.245085000991821289e+00,1.245005726814270020e+00,1.244926452636718750e+00,1.244847178459167480e+00,1.244768023490905762e+00,1.244688749313354492e+00,1.244609594345092773e+00,1.244530320167541504e+00,1.244451165199279785e+00,1.244372010231018066e+00,1.244292855262756348e+00,1.244213700294494629e+00,1.244134545326232910e+00,1.244055390357971191e+00,1.243976354598999023e+00,1.243897199630737305e+00,1.243818044662475586e+00,1.243738889694213867e+00,1.243659853935241699e+00,1.243580698966979980e+00,1.243501782417297363e+00,1.243422627449035645e+00,1.243343591690063477e+00,1.243264555931091309e+00,1.243185520172119141e+00,1.243106603622436523e+00,1.243027567863464355e+00,1.242948532104492188e+00,1.242869496345520020e+00,1.242790579795837402e+00,1.242711663246154785e+00,1.242632627487182617e+00
1.162443995475769043e+00,1.162374973297119141e+00,1.162305951118469238e+00,1.162236809730529785e+00,1.162167787551879883e+00,1.162098646163940430e+00,1.162029743194580078e+00,1.161960601806640625e+00,1.161891579627990723e+00,1.161822557449340820e+00,1.161753535270690918e+00,1.161684632301330566e+00,1.161615610122680664e+00,1.161546587944030762e+00,1.161477565765380859e+00,1.161408662796020508e+00,1.161339759826660156e+00,1.161270737648010254e+00,1.161201834678649902e+00,1.161132812500000000e+00,1.161063909530639648e+00,1.160995006561279297e+00,1.160926103591918945e+00,1.160857200622558594e+00,1.160788297653198242e+00,1.160719394683837891e+00,1.160650491714477539e+00,1.160581588745117188e+00,1.160512804985046387e+00,1.160443902015686035e+00,1.160374999046325684e+00,1.160306215286254883e+00,1.160237431526184082e+00,1.160168528556823730e+00,1.160099744796752930e+00,1.160030961036682129e+00,1.159962058067321777e+00,1.159893393516540527e+00,1.159824609756469727e+00,1.159755825996398926e+00,1.159687042236328125e+00,1.159618258476257324e+00,1.159549474716186523e+00,1.159480810165405273e+00,1.159412026405334473e+00,1.159343242645263672e+00,1.159274578094482422e+00,1.159205794334411621e+00,1.159137129783630371e+00,1.159068465232849121e+00,1.158999800682067871e+00,1.158931016921997070e+00,1.158862352371215820e+00,1.158793807029724121e+00,1.158725142478942871e+00,1.158656477928161621e+00,1.158587813377380371e+00,1.158519148826599121e+00,1.158450603485107422e+00,1.158381938934326172e+00,1.158313393592834473e+00,1.158244729042053223e+00,1.158176183700561523e+00,1.158107638359069824e+00,1.158039093017578125e+00,1.157970547676086426e+00,1.157901883125305176e+00,1.157833337783813477e+00,1.157764792442321777e+00,1.157696366310119629e+00,1.157627820968627930e+00,1.157559275627136230e+00,1.157490730285644531e+00,1.157422184944152832e+00,1.157353758811950684e+00,1.157285332679748535e+00,1.157216787338256836e+00,1.157148361206054688e+00,1.157079815864562988e+00,1.157011508941650391e+00
1.087182164192199707e+00,1.087121725082397461e+00,1.087061285972595215e+00,1.087000846862792969e+00,1.086940407752990723e+00,1.086880087852478027e+00,1.086819648742675781e+00,1.086759328842163086e+00,1.086698889732360840e+00,1.086638450622558594e+00,1.086578130722045898e+00,1.086517691612243652e+00,1.086457490921020508e+00,1.086397051811218262e+00,1.086336731910705566e+00,1.086276412010192871e+00,1.086216092109680176e+00,1.086155772209167480e+00,1.086095452308654785e+00,1.086035132408142090e+00,1.085974812507629395e+00,1.085914492607116699e+00,1.085854291915893555e+00,1.085793972015380859e+00,1.085733652114868164e+00,1.085673451423645020e+00,1.085613131523132324e+00,1.085552811622619629e+00,1.085492730140686035e+00,1.085432410240173340e+00,1.085372209548950195e+00,1.085311889648437500e+00,1.085251688957214355e+00,1.085191488265991211e+00,1.085131287574768066e+00,1.085071086883544922e+00,1.085010886192321777e+00,1.084950685501098633e+00,1.084890604019165039e+00,1.084830403327941895e+00,1.084770202636718750e+00,1.084710001945495605e+00,1.084649801254272461e+00,1.084589719772338867e+00,1.084529638290405273e+00,1.084469437599182129e+00,1.084409356117248535e+00,1.084349155426025391e+00,1.084289073944091797e+00,1.084228992462158203e+00,1.084168910980224609e+00,1.084108829498291016e+00,1.084048628807067871e+00,1.083988547325134277e+00,1.083928585052490234e+00,1.083868503570556641e+00,1.083808422088623047e+00,1.083748340606689453e+00,1.083688259124755859e+00,1.083628296852111816e+00,1.083568215370178223e+00,1.083508253097534180e+00,1.083448171615600586e+00,1.083388090133666992e+00,1.083328127861022949e+00,1.083268165588378906e+00,1.083208203315734863e+00,1.083148121833801270e+00,1.083088159561157227e+00,1.083028197288513184e+00,1.082968235015869141e+00,1.082908272743225098e+00,1.082848310470581055e+00,1.082788348197937012e+00,1.082728385925292969e+00,1.082668542861938477e+00,1.082608580589294434e+00,1.082548618316650391e+00,1.082488656044006348e+00,1.082428812980651855e+00
1.021073222160339355e+00,1.021019935607910156e+00,1.020966649055480957e+00,1.020913362503051758e+00,1.020860075950622559e+00,1.020806789398193359e+00,1.020753502845764160e+00,1.020700216293334961e+00,1.020646929740905762e+00,1.020593643188476562e+00,1.020540356636047363e+00,1.020487189292907715e+00,1.020433902740478516e+00,1.020380735397338867e+00,1.020327448844909668e+00,1.020274281501770020e+00,1.020220994949340820e+00,1.020167827606201172e+00,1.020114660263061523e+00,1.020061373710632324e+00,1.020008206367492676e+00,1.019955039024353027e+00,1.019901752471923828e+00,1.019848704338073730e+00,1.019795417785644531e+00,1.019742250442504883e+00,1.019689083099365234e+00,1.019635915756225586e+00,1.019582748413085938e+00,1.019529700279235840e+00,1.019476532936096191e+00,1.019423365592956543e+00,1.019370198249816895e+00,1.019317150115966797e+00,1.019263982772827148e+00,1.019210934638977051e+00,1.019157767295837402e+00,1.019104599952697754e+00,1.019051551818847656e+00,1.018998503684997559e+00,1.018945455551147461e+00,1.018892288208007812e+00,1.018839240074157715e+00,1.018786191940307617e+00,1.018733143806457520e+00,1.018680095672607422e+00,1.018626928329467773e+00,1.018573880195617676e+00,1.018520832061767578e+00,1.018467783927917480e+00,1.018414855003356934e+00,1.018361806869506836e+00,1.018308758735656738e+00,1.018255710601806641e+00,1.018202662467956543e+00,1.018149733543395996e+00,1.018096804618835449e+00,1.018043756484985352e+00,1.017990708351135254e+00,1.017937779426574707e+00,1.017884850502014160e+00,1.017831802368164062e+00,1.017778873443603516e+00,1.017725944519042969e+00,1.017672896385192871e+00,1.017619967460632324e+00,1.017567038536071777e+00,1.017514109611511230e+00,1.017461180686950684e+00,1.017408251762390137e+00,1.017355322837829590e+00,1.017302393913269043e+00,1.017249464988708496e+00,1.017196536064147949e+00,1.017143726348876953e+00,1.017090797424316406e+00,1.017037987709045410e+00,1.016985058784484863e+00,1.016932129859924316e+00,1.016879320144653320e+00
9.625433087348937988e-01,9.624959230422973633e-01,9.624485373497009277e-01,9.624012708663940430e-01,9.623538851737976074e-01,9.623065590858459473e-01,9.622591733932495117e-01,9.622118473052978516e-01,9.621645212173461914e-01,9.621171355247497559e-01,9.620698094367980957e-01,9.620224833488464355e-01,9.619751572608947754e-01,9.619278311729431152e-01,9.618806242942810059e-01,9.618332982063293457e-01,9.617860317230224609e-01,9.617387056350708008e-01,9.616913795471191406e-01,9.616441130638122559e-01,9.615968465805053711e-01,9.615495204925537109e-01,9.615022540092468262e-01,9.614549875259399414e-01,9.614078402519226074e-01,9.613605737686157227e-01,9.613133072853088379e-01,9.612660408020019531e-01,9.612187743186950684e-01,9.611715078353881836e-01,9.611243009567260742e-01,9.610770344734191895e-01,9.610298275947570801e-01,9.609825611114501953e-01,9.609353542327880859e-01,9.608882665634155273e-01,9.608410000801086426e-01,9.607937932014465332e-01,9.607465863227844238e-01,9.606993794441223145e-01,9.606522321701049805e-01,9.606050252914428711e-01,9.605578184127807617e-01,9.605106711387634277e-01,9.604634642601013184e-01,9.604163765907287598e-01,9.603692293167114258e-01,9.603220820426940918e-01,9.602749347686767578e-01,9.602277278900146484e-01,9.601805806159973145e-01,9.601334333419799805e-01,9.600862860679626465e-01,9.600391983985900879e-01,9.599920511245727539e-01,9.599449038505554199e-01,9.598978757858276367e-01,9.598507881164550781e-01,9.598036408424377441e-01,9.597565531730651855e-01,9.597094655036926270e-01,9.596623182296752930e-01,9.596152305603027344e-01,9.595681428909301758e-01,9.595210552215576172e-01,9.594739675521850586e-01,9.594269990921020508e-01,9.593799710273742676e-01,9.593328833580017090e-01,9.592857956886291504e-01,9.592387676239013672e-01,9.591916799545288086e-01,9.591446518898010254e-01,9.590976238250732422e-01,9.590505361557006836e-01,9.590035080909729004e-01,9.589564800262451172e-01,9.589095711708068848e-01,9.588625431060791016e-01,9.588155150413513184e-01
9.103597402572631836e-01,9.103173613548278809e-01,9.102749824523925781e-01,9.102326035499572754e-01,9.101902246475219727e-01,9.101478457450866699e-01,9.101055264472961426e-01,9.100631475448608398e-01,9.100207686424255371e-01,9.099784493446350098e-01,9.099361896514892578e-01,9.098938703536987305e-01,9.098514914512634277e-01,9.098091721534729004e-01,9.097668528556823730e-01,9.097245335578918457e-01,9.096822142601013184e-01,9.096398949623107910e-01,9.095975756645202637e-01,9.095552563667297363e-01,9.095130562782287598e-01,9.094707369804382324e-01,9.094284176826477051e-01,9.093861579895019531e-01,9.093438386917114258e-01,9.093015789985656738e-01,9.092593193054199219e-01,9.092170000076293945e-01,9.091747403144836426e-01,9.091324806213378906e-01,9.090902209281921387e-01,9.090480208396911621e-01,9.090057611465454102e-01,9.089635014533996582e-01,9.089212417602539062e-01,9.088790416717529297e-01,9.088367819786071777e-01,9.087945222854614258e-01,9.087523221969604492e-01,9.087100625038146973e-01,9.086678624153137207e-01,9.086257219314575195e-01,9.085835218429565430e-01,9.085412621498107910e-01,9.084990620613098145e-01,9.084568619728088379e-01,9.084146618843078613e-01,9.083724617958068848e-01,9.083302617073059082e-01,9.082880616188049316e-01,9.082458615303039551e-01,9.082037210464477539e-01,9.081616401672363281e-01,9.081194400787353516e-01,9.080772995948791504e-01,9.080350995063781738e-01,9.079929590225219727e-01,9.079507589340209961e-01,9.079086184501647949e-01,9.078664779663085938e-01,9.078243374824523926e-01,9.077821969985961914e-01,9.077401161193847656e-01,9.076979756355285645e-01,9.076558351516723633e-01,9.076137542724609375e-01,9.075716137886047363e-01,9.075294733047485352e-01,9.074873328208923340e-01,9.074452519416809082e-01,9.074031114578247070e-01,9.073610305786132812e-01,9.073189496994018555e-01,9.072769284248352051e-01,9.072348475456237793e-01,9.071927666664123535e-01,9.071506857872009277e-01,9.071086049079895020e-01,9.070665240287780762e-01,9.070244431495666504e-01
