5.000000000000000000e+00,5.000000000000000000e+00,5.000000000000000000e+00,5.000000000000000000e+00,5.000000000000000000e+00,5.000000000000000000e+00,5.000000000000000000e+00,5.000000000000000000e+00,5.000000000000000000e+00,5.000000000000000000e+00,5.000000000000000000e+00,5.000000000000000000e+00,5.000000000000000000e+00,5.000000000000000000e+00,5.000000000000000000e+00,5.000000000000000000e+00,5.000000000000000000e+00,5.000000000000000000e+00,5.000000000000000000e+00,5.000000000000000000e+00,5.000000000000000000e+00,5.000000000000000000e+00,5.000000000000000000e+00,5.000000000000000000e+00,5.000000000000000000e+00,5.000000000000000000e+00,5.000000000000000000e+00,5.000000000000000000e+00,5.000000000000000000e+00,5.000000000000000000e+00,5.000000000000000000e+00,5.000000000000000000e+00,5.000000000000000000e+00,5.000000000000000000e+00,5.000000000000000000e+00,5.000000000000000000e+00,5.000000000000000000e+00,1.588358044624328613e+00,1.560942769050598145e+00,1.554179430007934570e+00,1.497726321220397949e+00,1.468892693519592285e+00,1.442214846611022949e+00,1.447034001350402832e+00,1.443578004837036133e+00,1.429407477378845215e+00,1.433737516403198242e+00,1.440607786178588867e+00,1.449633359909057617e+00,1.462676167488098145e+00,1.497361660003662109e+00,1.614232540130615234e+00,1.598087668418884277e+00,1.594885826110839844e+00,1.606931328773498535e+00,2.939749002456665039e+00,2.868829488754272461e+00,2.801250934600830078e+00,2.736783266067504883e+00,2.675215959548950195e+00,2.616358041763305664e+00,2.560034036636352539e+00,2.506083965301513672e+00,2.454360961914062500e+00,2.404729604721069336e+00,2.357065916061401367e+00,2.311254739761352539e+00,2.267190456390380859e+00,2.224775075912475586e+00,2.183917522430419922e+00,2.144533395767211914e+00,2.106544971466064453e+00,2.069878578186035156e+00,2.034466981887817383e+00,2.000246763229370117e+00,1.967158555984497070e+00,1.935147047042846680e+00,1.904160857200622559e+00,1.874151229858398438e+00,1.845073103904724121e+00
5.000000000000000000e+00,5.000000000000000000e+00,5.000000000000000000e+00,5.000000000000000000e+00,5.000000000000000000e+00,5.000000000000000000e+00,5.000000000000000000e+00,5.000000000000000000e+00,5.000000000000000000e+00,5.000000000000000000e+00,5.000000000000000000e+00,5.000000000000000000e+00,5.000000000000000000e+00,5.000000000000000000e+00,5.000000000000000000e+00,5.000000000000000000e+00,5.000000000000000000e+00,5.000000000000000000e+00,5.000000000000000000e+00,5.000000000000000000e+00,5.000000000000000000e+00,5.000000000000000000e+00,5.000000000000000000e+00,5.000000000000000000e+00,5.000000000000000000e+00,5.000000000000000000e+00,5.000000000000000000e+00,5.000000000000000000e+00,5.000000000000000000e+00,5.000000000000000000e+00,5.000000000000000000e+00,5.000000000000000000e+00,5.000000000000000000e+00,5.000000000000000000e+00,5.000000000000000000e+00,5.000000000000000000e+00,5.000000000000000000e+00,1.597456097602844238e+00,1.567320108413696289e+00,1.563727855682373047e+00,1.494999051094055176e+00,1.466473221778869629e+00,1.456063508987426758e+00,1.445945620536804199e+00,1.438879489898681641e+00,1.440026998519897461e+00,1.441530346870422363e+00,1.448376059532165527e+00,1.462654232978820801e+00,1.489926338195800781e+00,1.491020441055297852e+00,1.621575474739074707e+00,1.605160355567932129e+00,1.589902281761169434e+00,1.585073828697204590e+00,2.939799785614013672e+00,2.868877887725830078e+00,2.801297187805175781e+00,2.736827135086059570e+00,2.675258159637451172e+00,2.616398096084594727e+00,2.560072422027587891e+00,2.506120920181274414e+00,2.454396247863769531e+00,2.404763460159301758e+00,2.357098579406738281e+00,2.311286211013793945e+00,2.267220735549926758e+00,2.224804162979125977e+00,2.183945655822753906e+00,2.144560575485229492e+00,2.106570959091186523e+00,2.069903612136840820e+00,2.034491300582885742e+00,2.000270128250122070e+00,1.967181324958801270e+00,1.935169219970703125e+00,1.904182195663452148e+00,1.874171972274780273e+00,1.845093011856079102e+00
5.000000000000000000e+00,5.000000000000000000e+00,5.000000000000000000e+00,5.000000000000000000e+00,5.000000000000000000e+00,5.000000000000000000e+00,5.000000000000000000e+00,5.000000000000000000e+00,5.000000000000000000e+00,5.000000000000000000e+00,5.000000000000000000e+00,5.000000000000000000e+00,5.000000000000000000e+00,5.000000000000000000e+00,5.000000000000000000e+00,5.000000000000000000e+00,5.000000000000000000e+00,5.000000000000000000e+00,5.000000000000000000e+00,5.000000000000000000e+00,5.000000000000000000e+00,5.000000000000000000e+00,5.000000000000000000e+00,5.000000000000000000e+00,5.000000000000000000e+00,5.000000000000000000e+00,5.000000000000000000e+00,5.000000000000000000e+00,5.000000000000000000e+00,5.000000000000000000e+00,5.000000000000000000e+00,5.000000000000000000e+00,5.000000000000000000e+00,5.000000000000000000e+00,5.000000000000000000e+00,5.000000000000000000e+00,5.000000000000000000e+00,1.606658816337585449e+00,1.576274752616882324e+00,1.572174668312072754e+00,1.502611756324768066e+00,1.465551376342773438e+00,1.455565929412841797e+00,1.445950388908386230e+00,1.443264842033386230e+00,1.443936944007873535e+00,1.442385315895080566e+00,1.449981331825256348e+00,1.463836669921875000e+00,1.477982044219970703e+00,1.523164749145507812e+00,1.621908783912658691e+00,1.591948628425598145e+00,1.569236874580383301e+00,1.567425608634948730e+00,2.939850330352783203e+00,2.868926048278808594e+00,2.801343441009521484e+00,2.736871242523193359e+00,2.675300121307373047e+00,2.616438388824462891e+00,2.560111045837402344e+00,2.506157636642456055e+00,2.454431772232055664e+00,2.404797315597534180e+00,2.357131004333496094e+00,2.311317443847656250e+00,2.267251014709472656e+00,2.224833250045776367e+00,2.183973550796508789e+00,2.144587516784667969e+00,2.106596946716308594e+00,2.069928884506225586e+00,2.034515619277954102e+00,2.000293731689453125e+00,1.967203974723815918e+00,1.935191273689270020e+00,1.904203653335571289e+00,1.874192476272583008e+00,1.845113039016723633e+00
5.000000000000000000e+00,5.000000000000000000e+00,5.000000000000000000e+00,5.000000000000000000e+00,5.000000000000000000e+00,5.000000000000000000e+00,5.000000000000000000e+00,5.000000000000000000e+00,5.000000000000000000e+00,5.000000000000000000e+00,5.000000000000000000e+00,5.000000000000000000e+00,5.000000000000000000e+00,5.000000000000000000e+00,5.000000000000000000e+00,5.000000000000000000e+00,5.000000000000000000e+00,5.000000000000000000e+00,5.000000000000000000e+00,5.000000000000000000e+00,5.000000000000000000e+00,5.000000000000000000e+00,5.000000000000000000e+00,5.000000000000000000e+00,5.000000000000000000e+00,5.000000000000000000e+00,5.000000000000000000e+00,5.000000000000000000e+00,5.000000000000000000e+00,5.000000000000000000e+00,5.000000000000000000e+00,5.000000000000000000e+00,5.000000000000000000e+00,5.000000000000000000e+00,5.000000000000000000e+00,5.000000000000000000e+00,5.000000000000000000e+00,5.000000000000000000e+00,1.572510480880737305e+00,1.567959785461425781e+00,1.492067933082580566e+00,1.461453318595886230e+00,1.453607201576232910e+00,1.445901393890380859e+00,1.448204398155212402e+00,1.449533700942993164e+00,1.450865626335144043e+00,1.455027580261230469e+00,1.467329978942871094e+00,1.480521202087402344e+00,1.516833186149597168e+00,1.642791390419006348e+00,1.584459185600280762e+00,1.562645554542541504e+00,1.553517699241638184e+00,1.564723730087280273e+00,2.868974447250366211e+00,2.801389455795288086e+00,2.736915111541748047e+00,2.675342082977294922e+00,2.616478443145751953e+00,2.560149431228637695e+00,2.506194591522216797e+00,2.454467058181762695e+00,2.404831409454345703e+00,2.357163667678833008e+00,2.311348915100097656e+00,2.267281055450439453e+00,2.224862337112426758e+00,2.184001684188842773e+00,2.144614696502685547e+00,2.106622934341430664e+00,2.069953918457031250e+00,2.034539937973022461e+00,2.000317096710205078e+00,1.967226743698120117e+00,1.935213088989257812e+00,1.904224753379821777e+00,1.874213337898254395e+00,1.845133066177368164e+00
5.000000000000000000e+00,5.000000000000000000e+00,5.000000000000000000e+00,5.000000000000000000e+00,5.000000000000000000e+00,5.000000000000000000e+00,5.000000000000000000e+00,5.000000000000000000e+00,5.000000000000000000e+00,5.000000000000000000e+00,5.000000000000000000e+00,5.000000000000000000e+00,5.000000000000000000e+00,5.000000000000000000e+00,5.000000000000000000e+00,5.000000000000000000e+00,5.000000000000000000e+00,5.000000000000000000e+00,5.000000000000000000e+00,5.000000000000000000e+00,5.000000000000000000e+00,5.000000000000000000e+00,5.000000000000000000e+00,5.000000000000000000e+00,5.000000000000000000e+00,5.000000000000000000e+00,5.000000000000000000e+00,5.000000000000000000e+00,5.000000000000000000e+00,5.000000000000000000e+00,5.000000000000000000e+00,5.000000000000000000e+00,5.000000000000000000e+00,5.000000000000000000e+00,5.000000000000000000e+00,5.000000000000000000e+00,5.000000000000000000e+00,1.600539922714233398e+00,1.563562512397766113e+00,1.558169484138488770e+00,1.481594800949096680e+00,1.450906634330749512e+00,1.444839715957641602e+00,1.437206506729125977e+00,1.461103439331054688e+00,1.462456464767456055e+00,1.456865310668945312e+00,1.468749046325683594e+00,1.474736452102661133e+00,1.484245061874389648e+00,1.516487360000610352e+00,3.262588024139404297e+00,1.590995430946350098e+00,1.558866858482360840e+00,1.537883162498474121e+00,1.533816933631896973e+00,2.869022846221923828e+00,2.801435470581054688e+00,2.736958980560302734e+00,2.675384044647216797e+00,2.616518735885620117e+00,2.560187816619873047e+00,2.506231546401977539e+00,2.454502344131469727e+00,2.404865503311157227e+00,2.357196331024169922e+00,2.311380147933959961e+00,2.267311334609985352e+00,2.224891424179077148e+00,2.184029579162597656e+00,2.144641637802124023e+00,2.106649160385131836e+00,2.069979190826416016e+00,2.034564256668090820e+00,2.000340700149536133e+00,1.967249393463134766e+00,1.935235261917114258e+00,1.904246211051940918e+00,1.874233841896057129e+00,1.845153212547302246e+00
5.000000000000000000e+00,5.000000000000000000e+00,5.000000000000000000e+00,5.000000000000000000e+00,5.000000000000000000e+00,5.000000000000000000e+00,5.000000000000000000e+00,5.000000000000000000e+00,5.000000000000000000e+00,5.000000000000000000e+00,5.000000000000000000e+00,5.000000000000000000e+00,5.000000000000000000e+00,5.000000000000000000e+00,5.000000000000000000e+00,5.000000000000000000e+00,5.000000000000000000e+00,5.000000000000000000e+00,5.000000000000000000e+00,5.000000000000000000e+00,5.000000000000000000e+00,5.000000000000000000e+00,5.000000000000000000e+00,5.000000000000000000e+00,5.000000000000000000e+00,5.000000000000000000e+00,5.000000000000000000e+00,5.000000000000000000e+00,5.000000000000000000e+00,5.000000000000000000e+00,5.000000000000000000e+00,5.000000000000000000e+00,5.000000000000000000e+00,5.000000000000000000e+00,5.000000000000000000e+00,5.000000000000000000e+00,5.000000000000000000e+00,1.589489579200744629e+00,1.558093428611755371e+00,1.554221153259277344e+00,1.471863269805908203e+00,1.429380416870117188e+00,1.421863913536071777e+00,1.414426088333129883e+00,1.432073473930358887e+00,1.475611805915832520e+00,1.469153404235839844e+00,1.482731819152832031e+00,1.488834023475646973e+00,1.487255454063415527e+00,1.512556195259094238e+00,3.262650489807128906e+00,1.614052057266235352e+00,1.558130860328674316e+00,1.529406666755676270e+00,1.516430377960205078e+00,1.551658034324645996e+00,2.801481723785400391e+00,2.737003326416015625e+00,2.675426244735717773e+00,2.616559028625488281e+00,2.560226440429687500e+00,2.506268501281738281e+00,2.454537868499755859e+00,2.404899358749389648e+00,2.357228994369506836e+00,2.311411619186401367e+00,2.267341375350952148e+00,2.224920511245727539e+00,2.184057712554931641e+00,2.144668579101562500e+00,2.106675148010253906e+00,2.070004224777221680e+00,2.034588575363159180e+00,2.000364065170288086e+00,1.967272281646728516e+00,1.935257077217102051e+00,1.904267549514770508e+00,1.874254584312438965e+00,1.845173001289367676e+00
5.000000000000000000e+00,5.000000000000000000e+00,5.000000000000000000e+00,5.000000000000000000e+00,5.000000000000000000e+00,5.000000000000000000e+00,5.000000000000000000e+00,5.000000000000000000e+00,5.000000000000000000e+00,5.000000000000000000e+00,5.000000000000000000e+00,5.000000000000000000e+00,5.000000000000000000e+00,5.000000000000000000e+00,5.000000000000000000e+00,5.000000000000000000e+00,5.000000000000000000e+00,5.000000000000000000e+00,5.000000000000000000e+00,5.000000000000000000e+00,5.000000000000000000e+00,5.000000000000000000e+00,5.000000000000000000e+00,5.000000000000000000e+00,5.000000000000000000e+00,5.000000000000000000e+00,5.000000000000000000e+00,5.000000000000000000e+00,5.000000000000000000e+00,5.000000000000000000e+00,5.000000000000000000e+00,5.000000000000000000e+00,5.000000000000000000e+00,5.000000000000000000e+00,5.000000000000000000e+00,5.000000000000000000e+00,5.000000000000000000e+00,1.585096478462219238e+00,1.553559303283691406e+00,1.551414728164672852e+00,1.457603812217712402e+00,1.417295336723327637e+00,1.409639120101928711e+00,1.402280807495117188e+00,1.394999027252197266e+00,1.432830572128295898e+00,1.492462635040283203e+00,1.496983528137207031e+00,1.489810705184936523e+00,1.484497189521789551e+00,1.509133815765380859e+00,3.262712955474853516e+00,3.175585746765136719e+00,1.572389483451843262e+00,1.528516411781311035e+00,1.520251989364624023e+00,1.519200086593627930e+00,2.801527738571166992e+00,2.737047195434570312e+00,2.675468206405639648e+00,2.616599082946777344e+00,2.560264825820922852e+00,2.506305217742919922e+00,2.454573154449462891e+00,2.404933452606201172e+00,2.357261657714843750e+00,2.311443090438842773e+00,2.267371654510498047e+00,2.224949598312377930e+00,2.184085607528686523e+00,2.144695520401000977e+00,2.106701374053955078e+00,2.070029497146606445e+00,2.034612894058227539e+00,2.000387668609619141e+00,1.967294812202453613e+00,1.935279250144958496e+00,1.904288768768310547e+00,1.874275088310241699e+00,1.845193147659301758e+00
5.000000000000000000e+00,5.000000000000000000e+00,5.000000000000000000e+00,5.000000000000000000e+00,5.000000000000000000e+00,5.000000000000000000e+00,5.000000000000000000e+00,5.000000000000000000e+00,5.000000000000000000e+00,5.000000000000000000e+00,5.000000000000000000e+00,5.000000000000000000e+00,5.000000000000000000e+00,5.000000000000000000e+00,5.000000000000000000e+00,5.000000000000000000e+00,5.000000000000000000e+00,5.000000000000000000e+00,5.000000000000000000e+00,5.000000000000000000e+00,5.000000000000000000e+00,5.000000000000000000e+00,5.000000000000000000e+00,5.000000000000000000e+00,5.000000000000000000e+00,5.000000000000000000e+00,5.000000000000000000e+00,5.000000000000000000e+00,5.000000000000000000e+00,5.000000000000000000e+00,5.000000000000000000e+00,5.000000000000000000e+00,5.000000000000000000e+00,5.000000000000000000e+00,5.000000000000000000e+00,5.000000000000000000e+00,5.000000000000000000e+00,1.580727696418762207e+00,1.548372387886047363e+00,1.549695491790771484e+00,1.451050519943237305e+00,1.410699129104614258e+00,1.403103590011596680e+00,1.395589351654052734e+00,1.388155221939086914e+00,1.409025311470031738e+00,1.438623666763305664e+00,1.492374777793884277e+00,1.486237287521362305e+00,1.479674577713012695e+00,1.500636458396911621e+00,3.262775421142578125e+00,3.175645112991333008e+00,3.093047142028808594e+00,1.545342206954956055e+00,1.501396179199218750e+00,1.499994874000549316e+00,2.801573753356933594e+00,2.737091302871704102e+00,2.675510168075561523e+00,2.616639375686645508e+00,2.560303449630737305e+00,2.506342172622680664e+00,2.454608440399169922e+00,2.404967308044433594e+00,2.357294321060180664e+00,2.311474323272705078e+00,2.267401933670043945e+00,2.224978446960449219e+00,2.184113740921020508e+00,2.144722700119018555e+00,2.106727361679077148e+00,2.070054531097412109e+00,2.034637212753295898e+00,2.000411272048950195e+00,1.967317700386047363e+00,1.935301065444946289e+00,1.904310107231140137e+00,1.874295830726623535e+00,1.845213055610656738e+00
5.000000000000000000e+00,5.000000000000000000e+00,5.000000000000000000e+00,5.000000000000000000e+00,5.000000000000000000e+00,5.000000000000000000e+00,5.000000000000000000e+00,5.000000000000000000e+00,5.000000000000000000e+00,5.000000000000000000e+00,5.000000000000000000e+00,5.000000000000000000e+00,5.000000000000000000e+00,5.000000000000000000e+00,5.000000000000000000e+00,5.000000000000000000e+00,5.000000000000000000e+00,5.000000000000000000e+00,5.000000000000000000e+00,5.000000000000000000e+00,5.000000000000000000e+00,5.000000000000000000e+00,5.000000000000000000e+00,5.000000000000000000e+00,5.000000000000000000e+00,5.000000000000000000e+00,5.000000000000000000e+00,5.000000000000000000e+00,5.000000000000000000e+00,5.000000000000000000e+00,5.000000000000000000e+00,5.000000000000000000e+00,5.000000000000000000e+00,5.000000000000000000e+00,5.000000000000000000e+00,5.000000000000000000e+00,5.000000000000000000e+00,1.569597721099853516e+00,1.538588166236877441e+00,1.544633030891418457e+00,1.445158243179321289e+00,1.405443787574768066e+00,1.398117303848266602e+00,1.390866637229919434e+00,1.383690953254699707e+00,1.399284958839416504e+00,1.427532196044921875e+00,1.487316131591796875e+00,1.479845404624938965e+00,1.473232507705688477e+00,1.490378737449645996e+00,1.515660762786865234e+00,3.175704479217529297e+00,3.093103170394897461e+00,3.014690399169921875e+00,1.463110327720642090e+00,1.468844652175903320e+00,2.801619768142700195e+00,2.737135171890258789e+00,2.675552368164062500e+00,2.616679430007934570e+00,2.560341835021972656e+00,2.506379127502441406e+00,2.454643964767456055e+00,2.405001401901245117e+00,2.357326984405517578e+00,2.311505794525146484e+00,2.267431974411010742e+00,2.225007534027099609e+00,2.184141635894775391e+00,2.144749641418457031e+00,2.106753349304199219e+00,2.070079803466796875e+00,2.034661531448364258e+00,2.000434637069702148e+00,1.967340230941772461e+00,1.935323238372802734e+00,1.904331326484680176e+00,1.874316334724426270e+00,1.845233082771301270e+00
5.000000000000000000e+00,5.000000000000000000e+00,5.000000000000000000e+00,5.000000000000000000e+00,5.000000000000000000e+00,5.000000000000000000e+00,5.000000000000000000e+00,5.000000000000000000e+00,5.000000000000000000e+00,5.000000000000000000e+00,5.000000000000000000e+00,5.000000000000000000e+00,5.000000000000000000e+00,5.000000000000000000e+00,5.000000000000000000e+00,5.000000000000000000e+00,5.000000000000000000e+00,5.000000000000000000e+00,5.000000000000000000e+00,5.000000000000000000e+00,5.000000000000000000e+00,5.000000000000000000e+00,5.000000000000000000e+00,5.000000000000000000e+00,5.000000000000000000e+00,5.000000000000000000e+00,5.000000000000000000e+00,5.000000000000000000e+00,5.000000000000000000e+00,5.000000000000000000e+00,5.000000000000000000e+00,5.000000000000000000e+00,5.000000000000000000e+00,5.000000000000000000e+00,5.000000000000000000e+00,5.000000000000000000e+00,5.000000000000000000e+00,1.563398838043212891e+00,1.531311392784118652e+00,1.544215440750122070e+00,1.445788741111755371e+00,1.402250051498413086e+00,1.393848299980163574e+00,1.386641860008239746e+00,1.379509449005126953e+00,1.392111897468566895e+00,1.418612837791442871e+00,1.483468413352966309e+00,1.476627707481384277e+00,1.470467329025268555e+00,1.487384557723999023e+00,1.515141725540161133e+00,3.175763607025146484e+00,3.093159437179565430e+00,3.014743566513061523e+00,1.448125720024108887e+00,1.467464923858642578e+00,1.448769330978393555e+00,2.737179279327392578e+00,2.675594568252563477e+00,2.616719722747802734e+00,2.560380220413208008e+00,2.506415843963623047e+00,2.454679250717163086e+00,2.405035257339477539e+00,2.357359647750854492e+00,2.311537027359008789e+00,2.267462253570556641e+00,2.225036621093750000e+00,2.184169530868530273e+00,2.144776582717895508e+00,2.106779575347900391e+00,2.070105075836181641e+00,2.034685850143432617e+00,2.000458240509033203e+00,1.967363119125366211e+00,1.935345053672790527e+00,1.904352784156799316e+00,1.874337077140808105e+00,1.845252990722656250e+00
5.000000000000000000e+00,4.193599700927734375e+00,5.000000000000000000e+00,5.000000000000000000e+00,5.000000000000000000e+00,5.000000000000000000e+00,5.000000000000000000e+00,5.000000000000000000e+00,5.000000000000000000e+00,5.000000000000000000e+00,5.000000000000000000e+00,5.000000000000000000e+00,5.000000000000000000e+00,5.000000000000000000e+00,5.000000000000000000e+00,5.000000000000000000e+00,5.000000000000000000e+00,5.000000000000000000e+00,5.000000000000000000e+00,5.000000000000000000e+00,5.000000000000000000e+00,5.000000000000000000e+00,5.000000000000000000e+00,5.000000000000000000e+00,5.000000000000000000e+00,5.000000000000000000e+00,5.000000000000000000e+00,5.000000000000000000e+00,5.000000000000000000e+00,5.000000000000000000e+00,5.000000000000000000e+00,5.000000000000000000e+00,5.000000000000000000e+00,5.000000000000000000e+00,5.000000000000000000e+00,5.000000000000000000e+00,5.000000000000000000e+00,1.561090946197509766e+00,1.543488740921020508e+00,1.553320765495300293e+00,1.454547643661499023e+00,1.406077861785888672e+00,1.390665292739868164e+00,1.382442593574523926e+00,1.375353217124938965e+00,1.385012030601501465e+00,1.409568786621093750e+00,1.483458280563354492e+00,1.476636052131652832e+00,1.470222353935241699e+00,1.487409234046936035e+00,1.515595912933349609e+00,3.175822734832763672e+00,3.093215465545654297e+00,3.014796972274780273e+00,2.940256357192993164e+00,1.533246755599975586e+00,1.428840160369873047e+00,2.737223148345947266e+00,2.675636529922485352e+00,2.616760015487670898e+00,2.560418844223022461e+00,2.506452798843383789e+00,2.454714536666870117e+00,2.405069351196289062e+00,2.357392311096191406e+00,2.311568498611450195e+00,2.267492294311523438e+00,2.225065708160400391e+00,2.184197664260864258e+00,2.144803762435913086e+00,2.106805562973022461e+00,2.070130348205566406e+00,2.034710168838500977e+00,2.000481605529785156e+00,1.967385768890380859e+00,1.935367226600646973e+00,1.904373884201049805e+00,1.874357819557189941e+00,1.845273137092590332e+00
5.000000000000000000e+00,4.150722980499267578e+00,4.190570354461669922e+00,5.000000000000000000e+00,5.000000000000000000e+00,5.000000000000000000e+00,5.000000000000000000e+00,5.000000000000000000e+00,5.000000000000000000e+00,5.000000000000000000e+00,5.000000000000000000e+00,5.000000000000000000e+00,5.000000000000000000e+00,5.000000000000000000e+00,5.000000000000000000e+00,5.000000000000000000e+00,5.000000000000000000e+00,5.000000000000000000e+00,5.000000000000000000e+00,5.000000000000000000e+00,5.000000000000000000e+00,5.000000000000000000e+00,5.000000000000000000e+00,5.000000000000000000e+00,5.000000000000000000e+00,5.000000000000000000e+00,5.000000000000000000e+00,5.000000000000000000e+00,5.000000000000000000e+00,5.000000000000000000e+00,5.000000000000000000e+00,5.000000000000000000e+00,5.000000000000000000e+00,5.000000000000000000e+00,5.000000000000000000e+00,5.000000000000000000e+00,5.000000000000000000e+00,1.569373726844787598e+00,1.535300135612487793e+00,1.537557482719421387e+00,1.478849172592163086e+00,1.414948463439941406e+00,1.387578606605529785e+00,1.379270434379577637e+00,1.371222019195556641e+00,1.377984285354614258e+00,1.400616526603698730e+00,1.485056877136230469e+00,1.478719472885131836e+00,1.472465515136718750e+00,1.489774942398071289e+00,1.518095970153808594e+00,3.175882101058959961e+00,3.093271970748901367e+00,3.014850378036499023e+00,2.940307140350341797e+00,2.869361162185668945e+00,1.516430735588073730e+00,1.447715282440185547e+00,2.675678491592407227e+00,2.616800069808959961e+00,2.560457229614257812e+00,2.506489753723144531e+00,2.454750061035156250e+00,2.405103206634521484e+00,2.357424974441528320e+00,2.311599731445312500e+00,2.267522573471069336e+00,2.225094795227050781e+00,2.184225559234619141e+00,2.144830703735351562e+00,2.106831550598144531e+00,2.070155382156372070e+00,2.034734487533569336e+00,2.000505208969116211e+00,1.967408537864685059e+00,1.935389041900634766e+00,1.904395341873168945e+00,1.874378323554992676e+00,1.845293045043945312e+00
5.000000000000000000e+00,4.165119647979736328e+00,4.199922084808349609e+00,5.000000000000000000e+00,5.000000000000000000e+00,5.000000000000000000e+00,5.000000000000000000e+00,5.000000000000000000e+00,5.000000000000000000e+00,5.000000000000000000e+00,5.000000000000000000e+00,5.000000000000000000e+00,5.000000000000000000e+00,5.000000000000000000e+00,5.000000000000000000e+00,5.000000000000000000e+00,5.000000000000000000e+00,5.000000000000000000e+00,5.000000000000000000e+00,5.000000000000000000e+00,5.000000000000000000e+00,5.000000000000000000e+00,5.000000000000000000e+00,5.000000000000000000e+00,5.000000000000000000e+00,5.000000000000000000e+00,5.000000000000000000e+00,5.000000000000000000e+00,5.000000000000000000e+00,5.000000000000000000e+00,5.000000000000000000e+00,5.000000000000000000e+00,5.000000000000000000e+00,5.000000000000000000e+00,5.000000000000000000e+00,5.000000000000000000e+00,5.000000000000000000e+00,1.552489161491394043e+00,1.518609285354614258e+00,1.512352108955383301e+00,1.503858685493469238e+00,1.423931598663330078e+00,1.384505748748779297e+00,1.376234292984008789e+00,1.367776870727539062e+00,1.369562268257141113e+00,1.391777157783508301e+00,1.487883448600769043e+00,1.481981992721557617e+00,1.475700259208679199e+00,1.492894172668457031e+00,1.522547602653503418e+00,3.175941228866577148e+00,3.093328237533569336e+00,3.014903783798217773e+00,2.940357923507690430e+00,2.869409561157226562e+00,2.801804304122924805e+00,1.435587644577026367e+00,2.675720691680908203e+00,2.616840362548828125e+00,2.560495853424072266e+00,2.506526470184326172e+00,2.454785346984863281e+00,2.405137062072753906e+00,2.357457637786865234e+00,2.311631441116333008e+00,2.267552852630615234e+00,2.225123882293701172e+00,2.184253692626953125e+00,2.144857645034790039e+00,2.106857776641845703e+00,2.070180654525756836e+00,2.034758806228637695e+00,2.000528573989868164e+00,1.967431187629699707e+00,1.935411095619201660e+00,1.904416561126708984e+00,1.874399065971374512e+00,1.845313072204589844e+00
5.000000000000000000e+00,4.231818675994873047e+00,4.260800361633300781e+00,5.000000000000000000e+00,5.000000000000000000e+00,5.000000000000000000e+00,5.000000000000000000e+00,5.000000000000000000e+00,5.000000000000000000e+00,5.000000000000000000e+00,5.000000000000000000e+00,5.000000000000000000e+00,5.000000000000000000e+00,5.000000000000000000e+00,5.000000000000000000e+00,5.000000000000000000e+00,5.000000000000000000e+00,5.000000000000000000e+00,5.000000000000000000e+00,5.000000000000000000e+00,5.000000000000000000e+00,5.000000000000000000e+00,5.000000000000000000e+00,5.000000000000000000e+00,5.000000000000000000e+00,5.000000000000000000e+00,5.000000000000000000e+00,5.000000000000000000e+00,5.000000000000000000e+00,5.000000000000000000e+00,5.000000000000000000e+00,5.000000000000000000e+00,5.000000000000000000e+00,5.000000000000000000e+00,5.000000000000000000e+00,5.000000000000000000e+00,5.000000000000000000e+00,1.536079168319702148e+00,1.512932300567626953e+00,1.503153085708618164e+00,4.673944950103759766e+00,1.433029532432556152e+00,1.382050156593322754e+00,1.370262145996093750e+00,1.361698746681213379e+00,1.361336112022399902e+00,1.383195877075195312e+00,1.489750742912292480e+00,1.485258936882019043e+00,1.478949427604675293e+00,1.496026396751403809e+00,1.527898669242858887e+00,3.176000356674194336e+00,3.093384265899658203e+00,3.014957189559936523e+00,2.940408706665039062e+00,2.869457721710205078e+00,2.801850318908691406e+00,2.737355232238769531e+00,2.675762653350830078e+00,2.616880655288696289e+00,2.560534238815307617e+00,2.506563425064086914e+00,2.454820871353149414e+00,2.405171155929565430e+00,2.357490062713623047e+00,2.311662673950195312e+00,2.267582893371582031e+00,2.225152969360351562e+00,2.184281587600708008e+00,2.144884586334228516e+00,2.106883764266967773e+00,2.070205688476562500e+00,2.034783124923706055e+00,2.000552177429199219e+00,1.967454075813293457e+00,1.935433030128479004e+00,1.904437899589538574e+00,1.874419569969177246e+00,1.845333218574523926e+00
4.149258613586425781e+00,4.187416076660156250e+00,4.198256492614746094e+00,4.281073570251464844e+00,4.319783687591552734e+00,5.000000000000000000e+00,5.000000000000000000e+00,5.000000000000000000e+00,5.000000000000000000e+00,5.000000000000000000e+00,5.000000000000000000e+00,5.000000000000000000e+00,5.000000000000000000e+00,5.000000000000000000e+00,5.000000000000000000e+00,5.000000000000000000e+00,5.000000000000000000e+00,5.000000000000000000e+00,5.000000000000000000e+00,5.000000000000000000e+00,5.000000000000000000e+00,5.000000000000000000e+00,5.000000000000000000e+00,5.000000000000000000e+00,5.000000000000000000e+00,5.000000000000000000e+00,5.000000000000000000e+00,5.000000000000000000e+00,5.000000000000000000e+00,5.000000000000000000e+00,5.000000000000000000e+00,5.000000000000000000e+00,5.000000000000000000e+00,5.000000000000000000e+00,5.000000000000000000e+00,5.000000000000000000e+00,5.000000000000000000e+00,1.531304597854614258e+00,1.506822466850280762e+00,1.499542236328125000e+00,4.674073219299316406e+00,1.449529051780700684e+00,1.392506837844848633e+00,1.364518284797668457e+00,1.355674386024475098e+00,1.353208065032958984e+00,1.374805450439453125e+00,1.491622805595397949e+00,1.487391710281372070e+00,1.482212781906127930e+00,1.499867320060729980e+00,1.533287525177001953e+00,3.176059722900390625e+00,3.093440532684326172e+00,3.015010595321655273e+00,2.940459489822387695e+00,2.869506120681762695e+00,2.801896333694458008e+00,2.737399101257324219e+00,2.675804615020751953e+00,2.616920948028564453e+00,2.560572862625122070e+00,2.506600379943847656e+00,2.454856157302856445e+00,2.405205011367797852e+00,2.357522726058959961e+00,2.311694145202636719e+00,2.267613172531127930e+00,2.225182056427001953e+00,2.184309720993041992e+00,2.144911766052246094e+00,2.106909751892089844e+00,2.070230960845947266e+00,2.034807443618774414e+00,2.000575542449951172e+00,1.967476606369018555e+00,1.935455083847045898e+00,1.904459118843078613e+00,1.874440312385559082e+00,1.845353126525878906e+00
4.113576889038085938e+00,4.137294292449951172e+00,4.176297664642333984e+00,4.226589202880859375e+00,4.305721282958984375e+00,4.351147651672363281e+00,5.000000000000000000e+00,5.000000000000000000e+00,5.000000000000000000e+00,5.000000000000000000e+00,5.000000000000000000e+00,5.000000000000000000e+00,5.000000000000000000e+00,5.000000000000000000e+00,5.000000000000000000e+00,5.000000000000000000e+00,5.000000000000000000e+00,5.000000000000000000e+00,5.000000000000000000e+00,5.000000000000000000e+00,5.000000000000000000e+00,5.000000000000000000e+00,5.000000000000000000e+00,5.000000000000000000e+00,5.000000000000000000e+00,5.000000000000000000e+00,5.000000000000000000e+00,5.000000000000000000e+00,5.000000000000000000e+00,5.000000000000000000e+00,5.000000000000000000e+00,5.000000000000000000e+00,5.000000000000000000e+00,5.000000000000000000e+00,5.000000000000000000e+00,5.000000000000000000e+00,5.000000000000000000e+00,1.523685932159423828e+00,1.497209072113037109e+00,4.865442276000976562e+00,4.674201488494873047e+00,1.472682356834411621e+00,1.402286767959594727e+00,1.363341569900512695e+00,1.349702954292297363e+00,1.345176696777343750e+00,1.365038752555847168e+00,1.493499636650085449e+00,1.489257812500000000e+00,1.485039949417114258e+00,1.505060076713562012e+00,3.263275623321533203e+00,3.176118850708007812e+00,3.093496799468994141e+00,3.015064239501953125e+00,2.940510272979736328e+00,2.869554519653320312e+00,2.801942348480224609e+00,2.737443208694458008e+00,2.675846815109252930e+00,2.616961240768432617e+00,2.560611248016357422e+00,2.506637334823608398e+00,2.454891443252563477e+00,2.405239105224609375e+00,2.357555389404296875e+00,2.311725616455078125e+00,2.267643451690673828e+00,2.225211143493652344e+00,2.184337615966796875e+00,2.144938707351684570e+00,2.106935977935791016e+00,2.070255994796752930e+00,2.034831762313842773e+00,2.000599145889282227e+00,1.967499494552612305e+00,1.935477018356323242e+00,1.904480457305908203e+00,1.874460816383361816e+00,1.845373153686523438e+00
4.123350620269775391e+00,4.140469074249267578e+00,4.173444271087646484e+00,4.224945545196533203e+00,4.330861091613769531e+00,4.368988513946533203e+00,5.000000000000000000e+00,5.000000000000000000e+00,5.000000000000000000e+00,5.000000000000000000e+00,5.000000000000000000e+00,5.000000000000000000e+00,5.000000000000000000e+00,5.000000000000000000e+00,5.000000000000000000e+00,5.000000000000000000e+00,5.000000000000000000e+00,5.000000000000000000e+00,5.000000000000000000e+00,5.000000000000000000e+00,5.000000000000000000e+00,5.000000000000000000e+00,5.000000000000000000e+00,5.000000000000000000e+00,5.000000000000000000e+00,5.000000000000000000e+00,5.000000000000000000e+00,5.000000000000000000e+00,5.000000000000000000e+00,5.000000000000000000e+00,5.000000000000000000e+00,5.000000000000000000e+00,5.000000000000000000e+00,5.000000000000000000e+00,5.000000000000000000e+00,5.000000000000000000e+00,5.000000000000000000e+00,1.517878532409667969e+00,5.000000000000000000e+00,4.865581035614013672e+00,4.674329757690429688e+00,4.497545242309570312e+00,1.412205219268798828e+00,1.362166881561279297e+00,1.346991300582885742e+00,1.337239861488342285e+00,1.354803323745727539e+00,1.402085185050964355e+00,1.491895437240600586e+00,1.487806439399719238e+00,1.506842374801635742e+00,3.263338088989257812e+00,3.176178216934204102e+00,3.093552827835083008e+00,3.015117406845092773e+00,2.940561056137084961e+00,2.869602918624877930e+00,2.801988601684570312e+00,2.737487077713012695e+00,2.675888776779174805e+00,2.617001295089721680e+00,2.560649871826171875e+00,2.506674051284790039e+00,2.454926967620849609e+00,2.405272960662841797e+00,2.357588052749633789e+00,2.311756849288940430e+00,2.267673730850219727e+00,2.225240230560302734e+00,2.184365749359130859e+00,2.144965648651123047e+00,2.106961965560913086e+00,2.070281267166137695e+00,2.034856081008911133e+00,2.000622510910034180e+00,1.967522144317626953e+00,1.935499072074890137e+00,1.904501676559448242e+00,1.874481558799743652e+00,1.845393061637878418e+00
4.123413562774658203e+00,4.137964248657226562e+00,4.171017646789550781e+00,4.230726242065429688e+00,4.345805168151855469e+00,4.380196094512939453e+00,5.000000000000000000e+00,5.000000000000000000e+00,5.000000000000000000e+00,5.000000000000000000e+00,5.000000000000000000e+00,5.000000000000000000e+00,5.000000000000000000e+00,5.000000000000000000e+00,5.000000000000000000e+00,5.000000000000000000e+00,5.000000000000000000e+00,5.000000000000000000e+00,5.000000000000000000e+00,5.000000000000000000e+00,5.000000000000000000e+00,5.000000000000000000e+00,5.000000000000000000e+00,5.000000000000000000e+00,5.000000000000000000e+00,5.000000000000000000e+00,5.000000000000000000e+00,5.000000000000000000e+00,5.000000000000000000e+00,5.000000000000000000e+00,5.000000000000000000e+00,5.000000000000000000e+00,5.000000000000000000e+00,5.000000000000000000e+00,5.000000000000000000e+00,5.000000000000000000e+00,5.000000000000000000e+00,1.513440370559692383e+00,5.000000000000000000e+00,4.865720272064208984e+00,4.674458503723144531e+00,4.497663974761962891e+00,1.431155204772949219e+00,1.369139194488525391e+00,1.345844626426696777e+00,1.330610156059265137e+00,1.345541238784790039e+00,1.361033201217651367e+00,1.494928836822509766e+00,1.490823030471801758e+00,1.507907509803771973e+00,3.263400554656982422e+00,3.176237344741821289e+00,3.093609094619750977e+00,3.015170812606811523e+00,2.940611839294433594e+00,2.869651079177856445e+00,2.802034616470336914e+00,2.737531185150146484e+00,2.675930738449096680e+00,2.617041587829589844e+00,2.560688495635986328e+00,2.506711006164550781e+00,2.454962253570556641e+00,2.405307054519653320e+00,2.357620716094970703e+00,2.311788320541381836e+00,2.267703771591186523e+00,2.225269317626953125e+00,2.184393644332885742e+00,2.144992828369140625e+00,2.106987953186035156e+00,2.070306301116943359e+00,2.034880399703979492e+00,2.000646114349365234e+00,1.967544913291931152e+00,1.935521006584167480e+00,1.904523134231567383e+00,1.874502062797546387e+00,1.845413208007812500e+00
4.118370056152343750e+00,4.142421722412109375e+00,4.173717498779296875e+00,4.229679584503173828e+00,4.366062641143798828e+00,4.390892982482910156e+00,5.000000000000000000e+00,5.000000000000000000e+00,5.000000000000000000e+00,5.000000000000000000e+00,5.000000000000000000e+00,5.000000000000000000e+00,5.000000000000000000e+00,5.000000000000000000e+00,5.000000000000000000e+00,5.000000000000000000e+00,5.000000000000000000e+00,5.000000000000000000e+00,5.000000000000000000e+00,5.000000000000000000e+00,5.000000000000000000e+00,5.000000000000000000e+00,5.000000000000000000e+00,5.000000000000000000e+00,5.000000000000000000e+00,5.000000000000000000e+00,5.000000000000000000e+00,5.000000000000000000e+00,5.000000000000000000e+00,5.000000000000000000e+00,5.000000000000000000e+00,5.000000000000000000e+00,5.000000000000000000e+00,5.000000000000000000e+00,5.000000000000000000e+00,5.000000000000000000e+00,5.000000000000000000e+00,5.000000000000000000e+00,5.000000000000000000e+00,4.865859508514404297e+00,4.674586772918701172e+00,4.497782707214355469e+00,1.442934155464172363e+00,1.380359411239624023e+00,1.345472097396850586e+00,1.328041076660156250e+00,1.340573668479919434e+00,1.354405045509338379e+00,1.497311830520629883e+00,1.493852138519287109e+00,1.508974075317382812e+00,3.263463258743286133e+00,3.176296710968017578e+00,3.093665361404418945e+00,3.015224218368530273e+00,2.940662860870361328e+00,2.869699478149414062e+00,2.802080869674682617e+00,2.737575054168701172e+00,2.675972938537597656e+00,2.617081880569458008e+00,2.560726881027221680e+00,2.506747961044311523e+00,2.454997777938842773e+00,2.405340909957885742e+00,2.357653379440307617e+00,2.311819553375244141e+00,2.267734050750732422e+00,2.225298404693603516e+00,2.184421777725219727e+00,2.145019769668579102e+00,2.107013940811157227e+00,2.070331573486328125e+00,2.034904718399047852e+00,2.000669717788696289e+00,1.967567563056945801e+00,1.935543060302734375e+00,1.904544234275817871e+00,1.874522805213928223e+00,1.845432996749877930e+00
4.123413085937500000e+00,4.141286373138427734e+00,4.167425155639648438e+00,4.221027851104736328e+00,4.380407333374023438e+00,4.395539283752441406e+00,5.000000000000000000e+00,5.000000000000000000e+00,5.000000000000000000e+00,5.000000000000000000e+00,5.000000000000000000e+00,5.000000000000000000e+00,5.000000000000000000e+00,5.000000000000000000e+00,5.000000000000000000e+00,5.000000000000000000e+00,5.000000000000000000e+00,5.000000000000000000e+00,5.000000000000000000e+00,5.000000000000000000e+00,5.000000000000000000e+00,5.000000000000000000e+00,5.000000000000000000e+00,5.000000000000000000e+00,5.000000000000000000e+00,5.000000000000000000e+00,5.000000000000000000e+00,5.000000000000000000e+00,5.000000000000000000e+00,5.000000000000000000e+00,5.000000000000000000e+00,5.000000000000000000e+00,5.000000000000000000e+00,5.000000000000000000e+00,5.000000000000000000e+00,5.000000000000000000e+00,5.000000000000000000e+00,5.000000000000000000e+00,5.000000000000000000e+00,4.865998744964599609e+00,4.674715042114257812e+00,4.497901439666748047e+00,4.333975791931152344e+00,1.392537236213684082e+00,1.349327683448791504e+00,1.331048369407653809e+00,1.343407392501831055e+00,1.357703089714050293e+00,1.498308062553405762e+00,1.496893405914306641e+00,1.510961890220642090e+00,3.263525724411010742e+00,3.176355838775634766e+00,3.093721389770507812e+00,3.015277624130249023e+00,2.940713644027709961e+00,2.869747877120971680e+00,2.802126884460449219e+00,2.737619161605834961e+00,2.676014900207519531e+00,2.617121934890747070e+00,2.560765504837036133e+00,2.506784677505493164e+00,2.455033063888549805e+00,2.405375003814697266e+00,2.357686042785644531e+00,2.311851024627685547e+00,2.267764329910278320e+00,2.225327491760253906e+00,2.184449672698974609e+00,2.145046710968017578e+00,2.107040166854858398e+00,2.070356607437133789e+00,2.034929037094116211e+00,2.000693321228027344e+00,1.967590332031250000e+00,1.935564994812011719e+00,1.904565691947937012e+00,1.874543428421020508e+00,1.845453143119812012e+00
4.129219532012939453e+00,4.155929565429687500e+00,4.193351268768310547e+00,4.242621421813964844e+00,5.000000000000000000e+00,4.379441261291503906e+00,5.000000000000000000e+00,5.000000000000000000e+00,5.000000000000000000e+00,5.000000000000000000e+00,5.000000000000000000e+00,5.000000000000000000e+00,5.000000000000000000e+00,5.000000000000000000e+00,5.000000000000000000e+00,5.000000000000000000e+00,5.000000000000000000e+00,5.000000000000000000e+00,5.000000000000000000e+00,5.000000000000000000e+00,5.000000000000000000e+00,5.000000000000000000e+00,5.000000000000000000e+00,5.000000000000000000e+00,5.000000000000000000e+00,5.000000000000000000e+00,5.000000000000000000e+00,5.000000000000000000e+00,5.000000000000000000e+00,5.000000000000000000e+00,5.000000000000000000e+00,5.000000000000000000e+00,5.000000000000000000e+00,5.000000000000000000e+00,5.000000000000000000e+00,5.000000000000000000e+00,5.000000000000000000e+00,5.000000000000000000e+00,5.000000000000000000e+00,4.866137504577636719e+00,4.674843311309814453e+00,4.498020172119140625e+00,4.334086418151855469e+00,1.390858173370361328e+00,1.357506155967712402e+00,1.338071942329406738e+00,1.351806640625000000e+00,1.367557406425476074e+00,1.499305486679077148e+00,1.498828053474426270e+00,1.519913554191589355e+00,3.263588190078735352e+00,3.176414966583251953e+00,3.093777656555175781e+00,3.015331029891967773e+00,2.940764188766479492e+00,2.869796276092529297e+00,2.802172899246215820e+00,2.737663269042968750e+00,2.676056861877441406e+00,2.617162227630615234e+00,2.560803890228271484e+00,2.506821632385253906e+00,2.455068349838256836e+00,2.405408859252929688e+00,2.357718706130981445e+00,2.311882495880126953e+00,2.267794370651245117e+00,2.225356578826904297e+00,2.184477806091308594e+00,2.145073652267456055e+00,2.107066154479980469e+00,2.070381879806518555e+00,2.034953355789184570e+00,2.000716686248779297e+00,1.967612981796264648e+00,1.935587048530578613e+00,1.904586911201477051e+00,1.874564170837402344e+00,1.845473051071166992e+00
4.126265048980712891e+00,4.185876369476318359e+00,4.144129753112792969e+00,4.172972679138183594e+00,5.000000000000000000e+00,4.361345767974853516e+00,5.000000000000000000e+00,5.000000000000000000e+00,5.000000000000000000e+00,5.000000000000000000e+00,5.000000000000000000e+00,5.000000000000000000e+00,5.000000000000000000e+00,5.000000000000000000e+00,5.000000000000000000e+00,5.000000000000000000e+00,5.000000000000000000e+00,5.000000000000000000e+00,5.000000000000000000e+00,5.000000000000000000e+00,5.000000000000000000e+00,5.000000000000000000e+00,5.000000000000000000e+00,5.000000000000000000e+00,5.000000000000000000e+00,5.000000000000000000e+00,5.000000000000000000e+00,5.000000000000000000e+00,5.000000000000000000e+00,5.000000000000000000e+00,5.000000000000000000e+00,5.000000000000000000e+00,5.000000000000000000e+00,5.000000000000000000e+00,5.000000000000000000e+00,5.000000000000000000e+00,5.000000000000000000e+00,5.000000000000000000e+00,5.000000000000000000e+00,4.866276741027832031e+00,4.674971580505371094e+00,4.498138904571533203e+00,4.334196567535400391e+00,1.392058968544006348e+00,1.368090867996215820e+00,1.349168777465820312e+00,1.361774921417236328e+00,1.429733157157897949e+00,1.503716945648193359e+00,1.503152012825012207e+00,1.538703083992004395e+00,3.263650655746459961e+00,3.176474332809448242e+00,3.093833923339843750e+00,3.015384435653686523e+00,2.940814971923828125e+00,2.869844675064086914e+00,2.802219152450561523e+00,2.737707138061523438e+00,2.676099061965942383e+00,2.617202520370483398e+00,2.560842514038085938e+00,2.506858825683593750e+00,2.455103874206542969e+00,2.405442953109741211e+00,2.357751131057739258e+00,2.311913728713989258e+00,2.267824649810791016e+00,2.225385665893554688e+00,2.184505701065063477e+00,2.145100831985473633e+00,2.107092142105102539e+00,2.070407152175903320e+00,2.034977674484252930e+00,2.000740289688110352e+00,1.967635869979858398e+00,1.935608983039855957e+00,1.904608249664306641e+00,1.874584674835205078e+00,1.845493078231811523e+00
4.127969264984130859e+00,4.179478645324707031e+00,4.115445613861083984e+00,4.138132095336914062e+00,4.254998683929443359e+00,4.350963592529296875e+00,5.000000000000000000e+00,5.000000000000000000e+00,5.000000000000000000e+00,5.000000000000000000e+00,5.000000000000000000e+00,5.000000000000000000e+00,5.000000000000000000e+00,5.000000000000000000e+00,5.000000000000000000e+00,5.000000000000000000e+00,5.000000000000000000e+00,5.000000000000000000e+00,5.000000000000000000e+00,5.000000000000000000e+00,5.000000000000000000e+00,5.000000000000000000e+00,5.000000000000000000e+00,5.000000000000000000e+00,5.000000000000000000e+00,5.000000000000000000e+00,5.000000000000000000e+00,5.000000000000000000e+00,5.000000000000000000e+00,5.000000000000000000e+00,5.000000000000000000e+00,5.000000000000000000e+00,5.000000000000000000e+00,5.000000000000000000e+00,5.000000000000000000e+00,5.000000000000000000e+00,5.000000000000000000e+00,5.000000000000000000e+00,5.000000000000000000e+00,4.866415500640869141e+00,4.675100326538085938e+00,4.498257637023925781e+00,4.334306716918945312e+00,1.393817782402038574e+00,1.375481247901916504e+00,1.360451221466064453e+00,1.371891140937805176e+00,1.515900611877441406e+00,1.511078119277954102e+00,1.511486768722534180e+00,3.355813264846801758e+00,3.263713359832763672e+00,3.176533460617065430e+00,3.093890190124511719e+00,3.015437841415405273e+00,2.940865755081176758e+00,2.869893074035644531e+00,2.802265167236328125e+00,2.737751245498657227e+00,2.676141023635864258e+00,2.617242574691772461e+00,2.560880899429321289e+00,2.506895780563354492e+00,2.455139160156250000e+00,2.405476808547973633e+00,2.357783794403076172e+00,2.311945199966430664e+00,2.267854928970336914e+00,2.225414752960205078e+00,2.184533834457397461e+00,2.145127773284912109e+00,2.107118368148803711e+00,2.070432186126708984e+00,2.035001993179321289e+00,2.000763654708862305e+00,1.967658758163452148e+00,1.935631155967712402e+00,1.904629468917846680e+00,1.874605417251586914e+00,1.845512986183166504e+00
4.140559196472167969e+00,4.188261032104492188e+00,4.085668087005615234e+00,4.103750228881835938e+00,5.000000000000000000e+00,4.323646545410156250e+00,5.000000000000000000e+00,5.000000000000000000e+00,5.000000000000000000e+00,5.000000000000000000e+00,5.000000000000000000e+00,5.000000000000000000e+00,5.000000000000000000e+00,5.000000000000000000e+00,5.000000000000000000e+00,5.000000000000000000e+00,5.000000000000000000e+00,5.000000000000000000e+00,5.000000000000000000e+00,5.000000000000000000e+00,5.000000000000000000e+00,5.000000000000000000e+00,5.000000000000000000e+00,5.000000000000000000e+00,5.000000000000000000e+00,5.000000000000000000e+00,5.000000000000000000e+00,5.000000000000000000e+00,5.000000000000000000e+00,5.000000000000000000e+00,5.000000000000000000e+00,5.000000000000000000e+00,5.000000000000000000e+00,5.000000000000000000e+00,5.000000000000000000e+00,5.000000000000000000e+00,5.000000000000000000e+00,5.000000000000000000e+00,5.000000000000000000e+00,4.866554737091064453e+00,4.675228595733642578e+00,4.498376846313476562e+00,4.334417343139648438e+00,1.400265574455261230e+00,1.382951974868774414e+00,1.371923804283142090e+00,1.387891769409179688e+00,1.531543493270874023e+00,1.529370665550231934e+00,1.528303861618041992e+00,3.355879545211791992e+00,3.263775825500488281e+00,3.176592826843261719e+00,3.093946218490600586e+00,3.015491247177124023e+00,2.940916538238525391e+00,2.869941473007202148e+00,2.802311182022094727e+00,2.737795114517211914e+00,2.676182985305786133e+00,2.617282867431640625e+00,2.560919523239135742e+00,2.506932497024536133e+00,2.455174684524536133e+00,2.405510902404785156e+00,2.357816457748413086e+00,2.311976432800292969e+00,2.267884969711303711e+00,2.225443840026855469e+00,2.184561967849731445e+00,2.145154714584350586e+00,2.107144355773925781e+00,2.070457458496093750e+00,2.035026311874389648e+00,2.000787258148193359e+00,1.967681288719177246e+00,1.935652971267700195e+00,1.904650926589965820e+00,1.874625921249389648e+00,1.845533132553100586e+00
4.154557228088378906e+00,4.196553230285644531e+00,4.052385330200195312e+00,4.067025661468505859e+00,5.000000000000000000e+00,5.000000000000000000e+00,5.000000000000000000e+00,5.000000000000000000e+00,5.000000000000000000e+00,5.000000000000000000e+00,5.000000000000000000e+00,5.000000000000000000e+00,5.000000000000000000e+00,5.000000000000000000e+00,5.000000000000000000e+00,5.000000000000000000e+00,5.000000000000000000e+00,5.000000000000000000e+00,5.000000000000000000e+00,5.000000000000000000e+00,5.000000000000000000e+00,5.000000000000000000e+00,5.000000000000000000e+00,5.000000000000000000e+00,5.000000000000000000e+00,5.000000000000000000e+00,5.000000000000000000e+00,5.000000000000000000e+00,5.000000000000000000e+00,5.000000000000000000e+00,5.000000000000000000e+00,5.000000000000000000e+00,5.000000000000000000e+00,5.000000000000000000e+00,5.000000000000000000e+00,5.000000000000000000e+00,5.000000000000000000e+00,5.000000000000000000e+00,5.000000000000000000e+00,4.866693496704101562e+00,4.675356864929199219e+00,4.498495578765869141e+00,4.334527492523193359e+00,1.406773090362548828e+00,1.390504121780395508e+00,1.382055878639221191e+00,1.404428005218505859e+00,1.570586562156677246e+00,1.564719200134277344e+00,3.453402757644653320e+00,3.355945825576782227e+00,3.263838291168212891e+00,3.176651954650878906e+00,3.094002485275268555e+00,3.015544652938842773e+00,2.940967321395874023e+00,2.869989871978759766e+00,2.802357435226440430e+00,2.737839221954345703e+00,2.676225185394287109e+00,2.617323160171508789e+00,2.560957908630371094e+00,2.506969451904296875e+00,2.455209970474243164e+00,2.405544757843017578e+00,2.357849121093750000e+00,2.312007904052734375e+00,2.267915248870849609e+00,2.225472927093505859e+00,2.184590101242065430e+00,2.145181894302368164e+00,2.107170343399047852e+00,2.070482492446899414e+00,2.035050630569458008e+00,2.000810623168945312e+00,1.967704176902770996e+00,1.935675144195556641e+00,1.904672026634216309e+00,1.874646663665771484e+00,1.845553040504455566e+00
4.163293361663818359e+00,4.202980518341064453e+00,4.044934749603271484e+00,4.051809310913085938e+00,5.000000000000000000e+00,5.000000000000000000e+00,5.000000000000000000e+00,5.000000000000000000e+00,5.000000000000000000e+00,5.000000000000000000e+00,5.000000000000000000e+00,5.000000000000000000e+00,5.000000000000000000e+00,5.000000000000000000e+00,5.000000000000000000e+00,5.000000000000000000e+00,5.000000000000000000e+00,5.000000000000000000e+00,5.000000000000000000e+00,5.000000000000000000e+00,5.000000000000000000e+00,5.000000000000000000e+00,5.000000000000000000e+00,5.000000000000000000e+00,5.000000000000000000e+00,5.000000000000000000e+00,5.000000000000000000e+00,5.000000000000000000e+00,5.000000000000000000e+00,5.000000000000000000e+00,5.000000000000000000e+00,5.000000000000000000e+00,5.000000000000000000e+00,5.000000000000000000e+00,5.000000000000000000e+00,5.000000000000000000e+00,5.000000000000000000e+00,5.000000000000000000e+00,5.000000000000000000e+00,4.866832733154296875e+00,4.675485134124755859e+00,4.498614311218261719e+00,4.334637641906738281e+00,1.412853598594665527e+00,1.393705725669860840e+00,1.384697556495666504e+00,1.404587149620056152e+00,1.617023706436157227e+00,1.661714315414428711e+00,3.453472852706909180e+00,3.356012105941772461e+00,3.263900995254516602e+00,3.176711320877075195e+00,3.094058752059936523e+00,3.015598058700561523e+00,2.941018104553222656e+00,2.870038270950317383e+00,2.802403450012207031e+00,2.737883090972900391e+00,2.676267147064208984e+00,2.617363214492797852e+00,2.560996532440185547e+00,2.507006406784057617e+00,2.455245494842529297e+00,2.405578851699829102e+00,2.357881784439086914e+00,2.312039375305175781e+00,2.267945528030395508e+00,2.225502014160156250e+00,2.184617996215820312e+00,2.145208835601806641e+00,2.107196569442749023e+00,2.070507764816284180e+00,2.035074949264526367e+00,2.000834226608276367e+00,1.967726826667785645e+00,1.935697197914123535e+00,1.904693484306335449e+00,1.874667167663574219e+00,1.845573067665100098e+00
4.186231613159179688e+00,4.210161209106445312e+00,4.079886436462402344e+00,4.069995880126953125e+00,5.000000000000000000e+00,5.000000000000000000e+00,5.000000000000000000e+00,5.000000000000000000e+00,5.000000000000000000e+00,5.000000000000000000e+00,5.000000000000000000e+00,5.000000000000000000e+00,5.000000000000000000e+00,5.000000000000000000e+00,5.000000000000000000e+00,5.000000000000000000e+00,5.000000000000000000e+00,5.000000000000000000e+00,5.000000000000000000e+00,5.000000000000000000e+00,5.000000000000000000e+00,5.000000000000000000e+00,5.000000000000000000e+00,5.000000000000000000e+00,5.000000000000000000e+00,5.000000000000000000e+00,5.000000000000000000e+00,5.000000000000000000e+00,5.000000000000000000e+00,5.000000000000000000e+00,5.000000000000000000e+00,5.000000000000000000e+00,5.000000000000000000e+00,5.000000000000000000e+00,5.000000000000000000e+00,5.000000000000000000e+00,5.000000000000000000e+00,5.000000000000000000e+00,5.000000000000000000e+00,4.866971015930175781e+00,4.675613403320312500e+00,4.498733520507812500e+00,4.334748268127441406e+00,1.418666243553161621e+00,1.395546793937683105e+00,1.386385083198547363e+00,1.404746413230895996e+00,1.655692577362060547e+00,3.556837797164916992e+00,3.453542709350585938e+00,3.356078147888183594e+00,3.263963460922241211e+00,3.176770448684692383e+00,3.094114780426025391e+00,3.015651226043701172e+00,2.941068887710571289e+00,2.870086669921875000e+00,2.802449703216552734e+00,2.737927198410034180e+00,2.676309108734130859e+00,2.617403507232666016e+00,2.561034917831420898e+00,2.507043361663818359e+00,2.455281019210815430e+00,2.405612707138061523e+00,2.357914447784423828e+00,2.312070608139038086e+00,2.267975568771362305e+00,2.225531101226806641e+00,2.184646129608154297e+00,2.145235776901245117e+00,2.107222557067871094e+00,2.070532798767089844e+00,2.035099267959594727e+00,2.000857830047607422e+00,1.967749595642089844e+00,1.935719132423400879e+00,1.904714703559875488e+00,1.874687910079956055e+00,1.845592975616455078e+00
4.237914562225341797e+00,4.256877422332763672e+00,4.110826015472412109e+00,4.090030193328857422e+00,5.000000000000000000e+00,5.000000000000000000e+00,5.000000000000000000e+00,5.000000000000000000e+00,5.000000000000000000e+00,5.000000000000000000e+00,5.000000000000000000e+00,5.000000000000000000e+00,5.000000000000000000e+00,5.000000000000000000e+00,5.000000000000000000e+00,5.000000000000000000e+00,5.000000000000000000e+00,5.000000000000000000e+00,5.000000000000000000e+00,5.000000000000000000e+00,5.000000000000000000e+00,5.000000000000000000e+00,5.000000000000000000e+00,5.000000000000000000e+00,5.000000000000000000e+00,5.000000000000000000e+00,5.000000000000000000e+00,5.000000000000000000e+00,5.000000000000000000e+00,5.000000000000000000e+00,5.000000000000000000e+00,5.000000000000000000e+00,5.000000000000000000e+00,5.000000000000000000e+00,5.000000000000000000e+00,5.000000000000000000e+00,5.000000000000000000e+00,5.000000000000000000e+00,5.000000000000000000e+00,4.867109775543212891e+00,4.675741672515869141e+00,4.498852252960205078e+00,4.334858417510986328e+00,1.424526810646057129e+00,1.399102091789245605e+00,1.388076782226562500e+00,1.404798984527587891e+00,1.707097291946411133e+00,3.556911945343017578e+00,3.453612804412841797e+00,3.356144189834594727e+00,3.264025926589965820e+00,3.176829814910888672e+00,3.094171047210693359e+00,3.015704631805419922e+00,2.941119670867919922e+00,2.870135068893432617e+00,2.802495956420898438e+00,2.737971305847167969e+00,2.676351308822631836e+00,2.617443799972534180e+00,2.561073541641235352e+00,2.507080078125000000e+00,2.455316305160522461e+00,2.405646800994873047e+00,2.357947111129760742e+00,2.312102079391479492e+00,2.268005847930908203e+00,2.225560188293457031e+00,2.184674024581909180e+00,2.145262956619262695e+00,2.107248544692993164e+00,2.070558071136474609e+00,2.035123586654663086e+00,2.000881195068359375e+00,1.967772245407104492e+00,1.935741186141967773e+00,1.904736042022705078e+00,1.874708414077758789e+00,1.845613121986389160e+00
4.289866447448730469e+00,4.293175697326660156e+00,4.119881153106689453e+00,4.095650672912597656e+00,5.000000000000000000e+00,5.000000000000000000e+00,5.000000000000000000e+00,5.000000000000000000e+00,5.000000000000000000e+00,5.000000000000000000e+00,5.000000000000000000e+00,5.000000000000000000e+00,5.000000000000000000e+00,5.000000000000000000e+00,5.000000000000000000e+00,5.000000000000000000e+00,5.000000000000000000e+00,5.000000000000000000e+00,5.000000000000000000e+00,5.000000000000000000e+00,5.000000000000000000e+00,5.000000000000000000e+00,5.000000000000000000e+00,5.000000000000000000e+00,5.000000000000000000e+00,5.000000000000000000e+00,5.000000000000000000e+00,5.000000000000000000e+00,5.000000000000000000e+00,5.000000000000000000e+00,5.000000000000000000e+00,5.000000000000000000e+00,5.000000000000000000e+00,5.000000000000000000e+00,5.000000000000000000e+00,5.000000000000000000e+00,5.000000000000000000e+00,5.000000000000000000e+00,5.000000000000000000e+00,4.867248058319091797e+00,4.675868988037109375e+00,4.498970985412597656e+00,4.334968566894531250e+00,1.430470108985900879e+00,1.402946472167968750e+00,1.389772534370422363e+00,1.404310584068298340e+00,3.666660070419311523e+00,3.556986331939697266e+00,3.453682899475097656e+00,3.356210470199584961e+00,3.264088869094848633e+00,3.176888942718505859e+00,3.094227313995361328e+00,3.015758037567138672e+00,2.941170454025268555e+00,2.870183229446411133e+00,2.802541971206665039e+00,2.738015413284301758e+00,2.676393270492553711e+00,2.617483854293823242e+00,2.561111927032470703e+00,2.507117033004760742e+00,2.455351829528808594e+00,2.405680894851684570e+00,2.357979774475097656e+00,2.312133550643920898e+00,2.268036127090454102e+00,2.225589275360107422e+00,2.184702157974243164e+00,2.145290136337280273e+00,2.107274770736694336e+00,2.070583343505859375e+00,2.035147905349731445e+00,2.000904798507690430e+00,1.967795133590698242e+00,1.935763120651245117e+00,1.904757261276245117e+00,1.874729156494140625e+00,1.845633029937744141e+00
5.000000000000000000e+00,4.310257911682128906e+00,5.000000000000000000e+00,4.100687503814697266e+00,5.000000000000000000e+00,5.000000000000000000e+00,5.000000000000000000e+00,5.000000000000000000e+00,5.000000000000000000e+00,5.000000000000000000e+00,5.000000000000000000e+00,5.000000000000000000e+00,5.000000000000000000e+00,5.000000000000000000e+00,5.000000000000000000e+00,5.000000000000000000e+00,5.000000000000000000e+00,5.000000000000000000e+00,5.000000000000000000e+00,5.000000000000000000e+00,5.000000000000000000e+00,5.000000000000000000e+00,5.000000000000000000e+00,5.000000000000000000e+00,5.000000000000000000e+00,5.000000000000000000e+00,5.000000000000000000e+00,5.000000000000000000e+00,5.000000000000000000e+00,5.000000000000000000e+00,5.000000000000000000e+00,5.000000000000000000e+00,5.000000000000000000e+00,5.000000000000000000e+00,5.000000000000000000e+00,5.000000000000000000e+00,5.000000000000000000e+00,5.000000000000000000e+00,5.000000000000000000e+00,4.867386817932128906e+00,4.675997257232666016e+00,4.499088764190673828e+00,4.335079193115234375e+00,1.436547636985778809e+00,1.408791780471801758e+00,1.392288923263549805e+00,1.403822541236877441e+00,3.666738986968994141e+00,3.557060480117797852e+00,3.453752994537353516e+00,3.356276512145996094e+00,3.264151334762573242e+00,3.176948308944702148e+00,3.094283580780029297e+00,3.015811443328857422e+00,2.941221237182617188e+00,2.870231628417968750e+00,2.802588224411010742e+00,2.738059282302856445e+00,2.676435470581054688e+00,2.617524147033691406e+00,2.561150550842285156e+00,2.507153987884521484e+00,2.455387115478515625e+00,2.405714750289916992e+00,2.358012437820434570e+00,2.312164783477783203e+00,2.268066167831420898e+00,2.225618362426757812e+00,2.184730052947998047e+00,2.145317077636718750e+00,2.107300758361816406e+00,2.070608377456665039e+00,2.035172224044799805e+00,2.000928163528442383e+00,1.967817664146423340e+00,1.935785174369812012e+00,1.904778718948364258e+00,1.874749660491943359e+00,1.845653176307678223e+00
5.000000000000000000e+00,4.337859153747558594e+00,5.000000000000000000e+00,4.112410545349121094e+00,5.000000000000000000e+00,5.000000000000000000e+00,5.000000000000000000e+00,5.000000000000000000e+00,5.000000000000000000e+00,5.000000000000000000e+00,5.000000000000000000e+00,5.000000000000000000e+00,5.000000000000000000e+00,5.000000000000000000e+00,5.000000000000000000e+00,5.000000000000000000e+00,5.000000000000000000e+00,5.000000000000000000e+00,5.000000000000000000e+00,5.000000000000000000e+00,5.000000000000000000e+00,5.000000000000000000e+00,5.000000000000000000e+00,5.000000000000000000e+00,5.000000000000000000e+00,5.000000000000000000e+00,5.000000000000000000e+00,5.000000000000000000e+00,5.000000000000000000e+00,5.000000000000000000e+00,5.000000000000000000e+00,5.000000000000000000e+00,5.000000000000000000e+00,5.000000000000000000e+00,5.000000000000000000e+00,5.000000000000000000e+00,5.000000000000000000e+00,5.000000000000000000e+00,5.000000000000000000e+00,4.867525577545166016e+00,4.676125049591064453e+00,4.499207496643066406e+00,4.335188865661621094e+00,1.442677140235900879e+00,1.414943695068359375e+00,1.397350668907165527e+00,1.404104351997375488e+00,3.666817903518676758e+00,3.557134866714477539e+00,3.453822851181030273e+00,3.356342792510986328e+00,3.264214038848876953e+00,3.177007675170898438e+00,3.094339847564697266e+00,3.015864849090576172e+00,2.941272020339965820e+00,2.870280027389526367e+00,2.802634239196777344e+00,2.738103628158569336e+00,2.676477432250976562e+00,2.617564439773559570e+00,2.561188936233520508e+00,2.507190942764282227e+00,2.455422639846801758e+00,2.405748844146728516e+00,2.358045101165771484e+00,2.312196254730224609e+00,2.268096446990966797e+00,2.225647449493408203e+00,2.184758186340332031e+00,2.145344018936157227e+00,2.107326745986938477e+00,2.070633649826049805e+00,2.035196542739868164e+00,2.000951766967773438e+00,1.967840552330017090e+00,1.935807108879089355e+00,1.904800057411193848e+00,1.874770402908325195e+00,1.845672965049743652e+00
5.000000000000000000e+00,4.388216972351074219e+00,5.000000000000000000e+00,4.124848365783691406e+00,5.000000000000000000e+00,5.000000000000000000e+00,5.000000000000000000e+00,5.000000000000000000e+00,5.000000000000000000e+00,5.000000000000000000e+00,5.000000000000000000e+00,5.000000000000000000e+00,5.000000000000000000e+00,5.000000000000000000e+00,5.000000000000000000e+00,5.000000000000000000e+00,5.000000000000000000e+00,5.000000000000000000e+00,5.000000000000000000e+00,5.000000000000000000e+00,5.000000000000000000e+00,5.000000000000000000e+00,5.000000000000000000e+00,5.000000000000000000e+00,5.000000000000000000e+00,5.000000000000000000e+00,5.000000000000000000e+00,5.000000000000000000e+00,5.000000000000000000e+00,5.000000000000000000e+00,5.000000000000000000e+00,5.000000000000000000e+00,5.000000000000000000e+00,5.000000000000000000e+00,5.000000000000000000e+00,5.000000000000000000e+00,5.000000000000000000e+00,5.000000000000000000e+00,5.000000000000000000e+00,4.867664337158203125e+00,4.676252841949462891e+00,4.499326229095458984e+00,4.335299015045166016e+00,1.449908733367919922e+00,1.421930670738220215e+00,1.405208826065063477e+00,1.404897689819335938e+00,3.666897058486938477e+00,3.557209253311157227e+00,3.453892946243286133e+00,3.356408834457397461e+00,3.264276504516601562e+00,3.177067041397094727e+00,3.094395875930786133e+00,3.015918254852294922e+00,2.941322803497314453e+00,2.870328426361083984e+00,2.802680492401123047e+00,2.738147497177124023e+00,2.676519393920898438e+00,2.617604732513427734e+00,2.561227560043334961e+00,2.507227897644042969e+00,2.455457925796508789e+00,2.405782699584960938e+00,2.358077526092529297e+00,2.312227725982666016e+00,2.268126726150512695e+00,2.225676536560058594e+00,2.184786081314086914e+00,2.145371198654174805e+00,2.107352972030639648e+00,2.070658683776855469e+00,2.035220861434936523e+00,2.000975370407104492e+00,1.967863202095031738e+00,1.935829162597656250e+00,1.904821276664733887e+00,1.874791026115417480e+00,1.845693111419677734e+00
4.875436305999755859e+00,4.336878776550292969e+00,4.349934101104736328e+00,3.997263908386230469e+00,4.083038330078125000e+00,4.869386196136474609e+00,4.868177890777587891e+00,4.866970062255859375e+00,4.865763187408447266e+00,4.864556789398193359e+00,4.863350868225097656e+00,4.862145423889160156e+00,4.860940933227539062e+00,4.859736919403076172e+00,4.858533382415771484e+00,4.857330322265625000e+00,4.856128215789794922e+00,4.854926586151123047e+00,4.853725433349609375e+00,4.852525234222412109e+00,4.851325035095214844e+00,4.850126266479492188e+00,4.848927021026611328e+00,4.847729206085205078e+00,4.846531391143798828e+00,4.845335006713867188e+00,4.844138145446777344e+00,4.842942714691162109e+00,4.841747283935546875e+00,4.840552806854248047e+00,4.839358806610107422e+00,4.838165760040283203e+00,4.836972713470458984e+00,4.835780620574951172e+00,4.834589004516601562e+00,4.833397865295410156e+00,4.832207202911376953e+00,4.831017494201660156e+00,4.829828262329101562e+00,4.828639507293701172e+00,4.676380634307861328e+00,4.499444484710693359e+00,4.335408687591552734e+00,1.492603540420532227e+00,1.428997159004211426e+00,1.410441279411315918e+00,1.405691862106323242e+00,3.666975975036621094e+00,3.557283401489257812e+00,3.453963041305541992e+00,3.356474876403808594e+00,3.264338970184326172e+00,3.177126407623291016e+00,3.094452142715454102e+00,3.015971660614013672e+00,2.941373586654663086e+00,2.870376825332641602e+00,2.802726507186889648e+00,2.738191604614257812e+00,2.676561594009399414e+00,2.617644786834716797e+00,2.561265945434570312e+00,2.507264614105224609e+00,2.455493450164794922e+00,2.405816793441772461e+00,2.358110427856445312e+00,2.312258958816528320e+00,2.268156766891479492e+00,2.225705623626708984e+00,2.184814214706420898e+00,2.145398139953613281e+00,2.107379198074340820e+00,2.070683956146240234e+00,2.035245180130004883e+00,2.000998735427856445e+00,1.967885971069335938e+00,1.935851097106933594e+00,1.904842734336853027e+00,1.874811768531799316e+00,1.845713019371032715e+00
3.778242588043212891e+00,3.777515172958374023e+00,3.776787996292114258e+00,3.776061296463012695e+00,3.775334358215332031e+00,3.774608135223388672e+00,3.773882150650024414e+00,3.773156404495239258e+00,3.772430658340454102e+00,3.771705627441406250e+00,3.770980596542358398e+00,3.770256042480468750e+00,3.769531488418579102e+00,3.768807411193847656e+00,3.768083810806274414e+00,3.767359972000122070e+00,3.766636848449707031e+00,3.765913963317871094e+00,3.765191316604614258e+00,3.764468431472778320e+00,3.763746500015258789e+00,3.763024568557739258e+00,3.762303113937377930e+00,3.761581420898437500e+00,3.760860443115234375e+00,3.760139942169189453e+00,3.759419441223144531e+00,3.758698940277099609e+00,3.757979154586791992e+00,3.757259607315063477e+00,3.756540298461914062e+00,3.755820751190185547e+00,3.755102157592773438e+00,3.754383563995361328e+00,3.753665447235107422e+00,3.752947092056274414e+00,3.752229452133178711e+00,3.751512050628662109e+00,3.750794887542724609e+00,3.750077724456787109e+00,3.749361038208007812e+00,3.748644828796386719e+00,3.747928857803344727e+00,1.888756155967712402e+00,1.436240792274475098e+00,1.413073897361755371e+00,1.407056212425231934e+00,3.667054891586303711e+00,3.557357788085937500e+00,3.454033136367797852e+00,3.356541156768798828e+00,3.264401674270629883e+00,3.177185535430908203e+00,3.094508409500122070e+00,3.016025066375732422e+00,2.941424608230590820e+00,2.870425224304199219e+00,2.802772521972656250e+00,2.738235712051391602e+00,2.676603555679321289e+00,2.617685079574584961e+00,2.561304569244384766e+00,2.507301568984985352e+00,2.455528736114501953e+00,2.405850887298583984e+00,2.358143091201782227e+00,2.312290430068969727e+00,2.268187046051025391e+00,2.225734710693359375e+00,2.184842109680175781e+00,2.145425081253051758e+00,2.107405185699462891e+00,2.070708990097045898e+00,2.035269498825073242e+00,2.001022338867187500e+00,1.967908620834350586e+00,1.935873150825500488e+00,1.904863834381103516e+00,1.874832510948181152e+00,1.845733165740966797e+00
3.084165811538696289e+00,3.083681106567382812e+00,3.083196640014648438e+00,3.082711935043334961e+00,3.082227706909179688e+00,3.081743717193603516e+00,3.081259727478027344e+00,3.080775737762451172e+00,3.080292224884033203e+00,3.079808712005615234e+00,3.079325437545776367e+00,3.078841924667358398e+00,3.078358888626098633e+00,3.077876091003417969e+00,3.077393054962158203e+00,3.076910495758056641e+00,3.076428174972534180e+00,3.075945854187011719e+00,3.075463533401489258e+00,3.074981451034545898e+00,3.074499845504760742e+00,3.074018001556396484e+00,3.073536396026611328e+00,3.073055028915405273e+00,3.072573661804199219e+00,3.072092771530151367e+00,3.071611642837524414e+00,3.071130752563476562e+00,3.070650100708007812e+00,3.070169687271118164e+00,3.069689273834228516e+00,3.069209098815917969e+00,3.068729162216186523e+00,3.068249225616455078e+00,3.067769289016723633e+00,3.067289829254150391e+00,3.066810369491577148e+00,3.066331148147583008e+00,3.065851688385009766e+00,3.065372943878173828e+00,3.064893960952758789e+00,3.064415454864501953e+00,1.903573989868164062e+00,1.888580203056335449e+00,1.443558573722839355e+00,1.416651725769042969e+00,1.415024280548095703e+00,3.061546087265014648e+00,3.061068534851074219e+00,3.060590744018554688e+00,3.060113668441772461e+00,3.059636354446411133e+00,3.059159278869628906e+00,3.058682203292846680e+00,3.016078472137451172e+00,2.941475391387939453e+00,2.870473623275756836e+00,2.802818775177001953e+00,2.738279581069946289e+00,2.676645755767822266e+00,2.617725372314453125e+00,2.561343193054199219e+00,2.507338523864746094e+00,2.455564260482788086e+00,2.405884742736816406e+00,2.358175754547119141e+00,2.312321901321411133e+00,2.268217325210571289e+00,2.225763797760009766e+00,2.184870243072509766e+00,2.145452260971069336e+00,2.107431173324584961e+00,2.070734500885009766e+00,2.035293817520141602e+00,2.001045703887939453e+00,1.967931509017944336e+00,1.935895085334777832e+00,1.904885292053222656e+00,1.874853014945983887e+00,1.845753073692321777e+00
2.605522155761718750e+00,2.605176210403442383e+00,2.604830265045166016e+00,2.604484319686889648e+00,2.604138851165771484e+00,2.603793144226074219e+00,2.603447437286376953e+00,2.603102207183837891e+00,2.602756977081298828e+00,2.602411746978759766e+00,2.602066516876220703e+00,2.601721286773681641e+00,2.601376533508300781e+00,2.601031541824340820e+00,2.600686788558959961e+00,2.600342035293579102e+00,2.599997520446777344e+00,2.599653005599975586e+00,2.599308490753173828e+00,2.598964214324951172e+00,2.598619937896728516e+00,2.598275661468505859e+00,2.597931623458862305e+00,2.597587823867797852e+00,2.597244024276733398e+00,2.596899986267089844e+00,2.596556425094604492e+00,2.596212863922119141e+00,2.595869541168212891e+00,2.595525979995727539e+00,2.595182657241821289e+00,2.594839334487915039e+00,2.594496250152587891e+00,2.594153165817260742e+00,2.593810319900512695e+00,2.593467473983764648e+00,2.593124628067016602e+00,2.592781782150268555e+00,2.592439174652099609e+00,2.592096805572509766e+00,2.591754436492919922e+00,2.591412067413330078e+00,1.888391256332397461e+00,1.889141440391540527e+00,1.450950980186462402e+00,1.423770546913146973e+00,1.418406009674072266e+00,2.589359998703002930e+00,2.589018106460571289e+00,2.588676691055297852e+00,2.588335275650024414e+00,2.587993860244750977e+00,2.587652206420898438e+00,2.587311029434204102e+00,2.586970090866088867e+00,2.586628913879394531e+00,2.586287975311279297e+00,2.585947036743164062e+00,2.585606336593627930e+00,2.585265636444091797e+00,2.584924936294555664e+00,2.561381578445434570e+00,2.507375478744506836e+00,2.455599546432495117e+00,2.405918836593627930e+00,2.358208417892456055e+00,2.312353134155273438e+00,2.268247365951538086e+00,2.225792884826660156e+00,2.184898138046264648e+00,2.145479202270507812e+00,2.107457399368286133e+00,2.070759534835815430e+00,2.035318136215209961e+00,2.001069307327270508e+00,1.967954158782958984e+00,1.935917258262634277e+00,1.904906511306762695e+00,1.874873757362365723e+00,1.845773100852966309e+00
2.255499601364135742e+00,2.255239725112915039e+00,2.254979610443115234e+00,2.254719972610473633e+00,2.254460096359252930e+00,2.254200696945190430e+00,2.253940820693969727e+00,2.253681421279907227e+00,2.253422021865844727e+00,2.253162384033203125e+00,2.252902984619140625e+00,2.252643823623657227e+00,2.252384424209594727e+00,2.252125024795532227e+00,2.251866102218627930e+00,2.251606941223144531e+00,2.251347780227661133e+00,2.251088857650756836e+00,2.250829935073852539e+00,2.250571250915527344e+00,2.250312328338623047e+00,2.250053644180297852e+00,2.249794960021972656e+00,2.249536752700805664e+00,2.249278545379638672e+00,2.249020814895629883e+00,2.248763084411621094e+00,2.248505353927612305e+00,2.248247623443603516e+00,2.247990131378173828e+00,2.247732639312744141e+00,2.247475147247314453e+00,2.247217655181884766e+00,2.246960401535034180e+00,2.246702909469604492e+00,2.246445894241333008e+00,2.246188402175903320e+00,2.245931386947631836e+00,2.245674371719360352e+00,2.245417356491088867e+00,2.245160341262817383e+00,2.244903326034545898e+00,1.873294830322265625e+00,1.880493760108947754e+00,2.244132995605468750e+00,1.442320942878723145e+00,1.430482029914855957e+00,2.243363142013549805e+00,2.243106842041015625e+00,2.242850303649902344e+00,2.242594003677368164e+00,2.242337703704833984e+00,2.242081403732299805e+00,2.241825342178344727e+00,2.241569280624389648e+00,2.241312980651855469e+00,2.241056919097900391e+00,2.240801095962524414e+00,2.240545272827148438e+00,2.240289211273193359e+00,2.240033626556396484e+00,2.239777803421020508e+00,2.239522218704223633e+00,2.239266633987426758e+00,2.239011049270629883e+00,2.238755464553833008e+00,2.238500118255615234e+00,2.238244771957397461e+00,2.225821971893310547e+00,2.184926271438598633e+00,2.145506143569946289e+00,2.107483386993408203e+00,2.070784807205200195e+00,2.035342454910278320e+00,2.001092910766601562e+00,1.967976927757263184e+00,1.935939073562622070e+00,1.904927849769592285e+00,1.874894261360168457e+00,1.845793008804321289e+00
1.988412141799926758e+00,1.988210201263427734e+00,1.988008022308349609e+00,1.987806200981140137e+00,1.987604379653930664e+00,1.987402439117431641e+00,1.987200617790222168e+00,1.986998915672302246e+00,1.986797094345092773e+00,1.986595511436462402e+00,1.986393928527832031e+00,1.986192107200622559e+00,1.985990643501281738e+00,1.985789179801940918e+00,1.985587596893310547e+00,1.985386252403259277e+00,1.985184907913208008e+00,1.984983563423156738e+00,1.984782099723815918e+00,1.984580874443054199e+00,1.984379649162292480e+00,1.984178304672241211e+00,1.983977317810058594e+00,1.983776211738586426e+00,1.983574986457824707e+00,1.983373999595642090e+00,1.983173131942749023e+00,1.982972025871276855e+00,1.982771158218383789e+00,1.982570409774780273e+00,1.982369422912597656e+00,1.982168674468994141e+00,1.981968045234680176e+00,1.981767058372497559e+00,1.981566548347473145e+00,1.981365919113159180e+00,1.981165170669555664e+00,1.980964779853820801e+00,1.980764269828796387e+00,1.980563640594482422e+00,1.980363368988037109e+00,1.980162978172302246e+00,1.979962468147277832e+00,1.979762315750122070e+00,1.979562044143676758e+00,1.439019083976745605e+00,1.417827963829040527e+00,1.426498889923095703e+00,1.978761196136474609e+00,1.978561282157897949e+00,1.978361368179321289e+00,1.978161454200744629e+00,1.977961301803588867e+00,1.977761507034301758e+00,1.977561712265014648e+00,1.977361679077148438e+00,1.977162003517150879e+00,1.976962327957153320e+00,1.976762413978576660e+00,1.976562857627868652e+00,1.976363301277160645e+00,1.976163625717163086e+00,1.975964069366455078e+00,1.975764751434326172e+00,1.975565075874328613e+00,1.975365757942199707e+00,1.975166440010070801e+00,1.974966883659362793e+00,1.974767684936523438e+00,1.974568486213684082e+00,1.974369168281555176e+00,1.974170088768005371e+00,1.973971009254455566e+00,1.973771691322326660e+00,1.973572731018066406e+00,1.967999577522277832e+00,1.935961246490478516e+00,1.904949069023132324e+00,1.874915003776550293e+00,1.845813155174255371e+00
1.777882337570190430e+00,1.777720928192138672e+00,1.777559280395507812e+00,1.777397871017456055e+00,1.777236580848693848e+00,1.777075052261352539e+00,1.776913762092590332e+00,1.776752471923828125e+00,1.776591062545776367e+00,1.776429772377014160e+00,1.776268601417541504e+00,1.776107311248779297e+00,1.775946140289306641e+00,1.775785088539123535e+00,1.775623798370361328e+00,1.775462865829467773e+00,1.775301814079284668e+00,1.775140643119812012e+00,1.774979710578918457e+00,1.774818778038024902e+00,1.774657726287841797e+00,1.774496793746948242e+00,1.774335980415344238e+00,1.774175047874450684e+00,1.774014234542846680e+00,1.773853421211242676e+00,1.773692607879638672e+00,1.773531913757324219e+00,1.773371219635009766e+00,1.773210644721984863e+00,1.773049831390380859e+00,1.772889256477355957e+00,1.772728681564331055e+00,1.772567987442016602e+00,1.772407531738281250e+00,1.772247076034545898e+00,1.772086501121520996e+00,1.771926045417785645e+00,1.771765708923339844e+00,1.771605134010314941e+00,1.771444797515869141e+00,1.771284580230712891e+00,1.771124124526977539e+00,1.770963907241821289e+00,1.770803689956665039e+00,1.426321268081665039e+00,1.400286912918090820e+00,1.391440749168395996e+00,1.770162820816040039e+00,1.770002841949462891e+00,1.769842743873596191e+00,1.769682645797729492e+00,1.769522666931152344e+00,1.769362688064575195e+00,1.769202589988708496e+00,1.769042730331420898e+00,1.768882870674133301e+00,1.768722891807556152e+00,1.768563151359558105e+00,1.768403291702270508e+00,1.768243432044982910e+00,1.768083691596984863e+00,1.767924070358276367e+00,1.767764449119567871e+00,1.767604589462280273e+00,1.767444968223571777e+00,1.767285466194152832e+00,1.767125725746154785e+00,1.766966223716735840e+00,1.766806840896606445e+00,1.766647100448608398e+00,1.766487717628479004e+00,1.766328334808349609e+00,1.766168832778930664e+00,1.766009449958801270e+00,1.765850186347961426e+00,1.765690803527832031e+00,1.765531539916992188e+00,1.765372395515441895e+00,1.765213012695312500e+00
1.607665300369262695e+00,1.607533216476440430e+00,1.607401251792907715e+00,1.607269287109375000e+00,1.607137084007263184e+00,1.607005238533020020e+00,1.606873273849487305e+00,1.606741428375244141e+00,1.606609344482421875e+00,1.606477618217468262e+00,1.606345772743225098e+00,1.606213808059692383e+00,1.606081962585449219e+00,1.605950236320495605e+00,1.605818390846252441e+00,1.605686664581298828e+00,1.605554938316345215e+00,1.605423212051391602e+00,1.605291485786437988e+00,1.605159878730773926e+00,1.605028152465820312e+00,1.604896545410156250e+00,1.604764938354492188e+00,1.604633331298828125e+00,1.604501843452453613e+00,1.604370355606079102e+00,1.604238629341125488e+00,1.604107260704040527e+00,1.603975772857666016e+00,1.603844285011291504e+00,1.603712797164916992e+00,1.603581428527832031e+00,1.603449940681457520e+00,1.603318691253662109e+00,1.603187322616577148e+00,1.603055953979492188e+00,1.602924704551696777e+00,1.602793455123901367e+00,1.602662086486816406e+00,1.602530837059020996e+00,1.602399706840515137e+00,1.602268576622009277e+00,1.602137327194213867e+00,1.602006196975708008e+00,1.601875066757202148e+00,1.406014561653137207e+00,1.381187200546264648e+00,1.367735147476196289e+00,1.363682985305786133e+00,1.601219654083251953e+00,1.601088762283325195e+00,1.600957632064819336e+00,1.600826740264892578e+00,1.600695848464965820e+00,1.600564837455749512e+00,1.600433945655822754e+00,1.600303173065185547e+00,1.600172162055969238e+00,1.600041389465332031e+00,1.599910616874694824e+00,1.599779725074768066e+00,1.599648952484130859e+00,1.599518299102783203e+00,1.599387407302856445e+00,1.599256753921508789e+00,1.599126219749450684e+00,1.598995447158813477e+00,1.598864793777465820e+00,1.598734259605407715e+00,1.598603487014770508e+00,1.598472952842712402e+00,1.598342537879943848e+00,1.598211884498596191e+00,1.598081350326538086e+00,1.597950935363769531e+00,1.597820520401000977e+00,1.597689986228942871e+00,1.597559571266174316e+00,1.597429275512695312e+00,1.597298741340637207e+00
1.467194080352783203e+00,1.467084050178527832e+00,1.466974139213562012e+00,1.466864109039306641e+00,1.466754078865051270e+00,1.466644287109375000e+00,1.466534376144409180e+00,1.466424345970153809e+00,1.466314554214477539e+00,1.466204762458801270e+00,1.466094851493835449e+00,1.465985059738159180e+00,1.465875267982482910e+00,1.465765357017517090e+00,1.465655565261840820e+00,1.465545892715454102e+00,1.465436100959777832e+00,1.465326309204101562e+00,1.465216636657714844e+00,1.465107083320617676e+00,1.464997291564941406e+00,1.464887619018554688e+00,1.464778065681457520e+00,1.464668273925781250e+00,1.464558720588684082e+00,1.464449167251586914e+00,1.464339494705200195e+00,1.464229941368103027e+00,1.464120507240295410e+00,1.464010834693908691e+00,1.463901400566101074e+00,1.463791966438293457e+00,1.463682293891906738e+00,1.463572859764099121e+00,1.463463544845581055e+00,1.463353991508483887e+00,1.463244557380676270e+00,1.463135242462158203e+00,1.463025808334350586e+00,1.462916493415832520e+00,1.462807178497314453e+00,1.462697744369506836e+00,1.462588429450988770e+00,1.462479233741760254e+00,1.462369799613952637e+00,1.385115146636962891e+00,1.346132636070251465e+00,1.334984779357910156e+00,1.331487417221069336e+00,1.328196167945861816e+00,1.461714386940002441e+00,1.461605310440063477e+00,1.461496233940124512e+00,1.461386919021606445e+00,1.461277842521667480e+00,1.461168766021728516e+00,1.461059808731079102e+00,1.460950613021850586e+00,1.460841536521911621e+00,1.460732579231262207e+00,1.460623502731323242e+00,1.460514545440673828e+00,1.460405588150024414e+00,1.460296511650085449e+00,1.460187554359436035e+00,1.460078597068786621e+00,1.459969639778137207e+00,1.459860801696777344e+00,1.459751963615417480e+00,1.459642887115478516e+00,1.459534168243408203e+00,1.459425330162048340e+00,1.459316372871398926e+00,1.459207653999328613e+00,1.459098815917968750e+00,1.458989977836608887e+00,1.458881258964538574e+00,1.458772540092468262e+00,1.458663702011108398e+00,1.458555102348327637e+00
1.349297881126403809e+00,1.349204778671264648e+00,1.349111795425415039e+00,1.349018812179565430e+00,1.348925828933715820e+00,1.348832845687866211e+00,1.348739862442016602e+00,1.348646879196166992e+00,1.348554015159606934e+00,1.348461151123046875e+00,1.348368167877197266e+00,1.348275303840637207e+00,1.348182439804077148e+00,1.348089456558227539e+00,1.347996592521667480e+00,1.347903847694396973e+00,1.347810864448547363e+00,1.347718119621276855e+00,1.347625374794006348e+00,1.347532510757446289e+00,1.347439765930175781e+00,1.347347021102905273e+00,1.347254157066345215e+00,1.347161531448364258e+00,1.347068786621093750e+00,1.346976041793823242e+00,1.346883296966552734e+00,1.346790671348571777e+00,1.346697926521301270e+00,1.346605300903320312e+00,1.346512675285339355e+00,1.346419930458068848e+00,1.346327304840087891e+00,1.346234798431396484e+00,1.346142172813415527e+00,1.346049547195434570e+00,1.345957040786743164e+00,1.345864415168762207e+00,1.345771789550781250e+00,1.345679283142089844e+00,1.345586776733398438e+00,1.345494270324707031e+00,1.345401763916015625e+00,1.345309257507324219e+00,1.345216751098632812e+00,1.345124363899230957e+00,1.345031857490539551e+00,1.322812438011169434e+00,1.310923337936401367e+00,1.312151908874511719e+00,1.307254433631896973e+00,1.344569802284240723e+00,1.344477415084838867e+00,1.344385027885437012e+00,1.344292640686035156e+00,1.344200372695922852e+00,1.344107985496520996e+00,1.344015717506408691e+00,1.343923449516296387e+00,1.343831062316894531e+00,1.343738794326782227e+00,1.343646645545959473e+00,1.343554258346557617e+00,1.343462109565734863e+00,1.343369841575622559e+00,1.343277573585510254e+00,1.343185424804687500e+00,1.343093276023864746e+00,1.343001127243041992e+00,1.342908859252929688e+00,1.342816829681396484e+00,1.342724680900573730e+00,1.342632532119750977e+00,1.342540383338928223e+00,1.342448353767395020e+00,1.342356204986572266e+00,1.342264175415039062e+00,1.342172145843505859e+00,1.342079997062683105e+00,1.341987967491149902e+00
1.248939394950866699e+00,1.248859763145446777e+00,1.248780131340026855e+00,1.248700380325317383e+00,1.248620748519897461e+00,1.248541116714477539e+00,1.248461365699768066e+00,1.248381733894348145e+00,1.248302221298217773e+00,1.248222470283508301e+00,1.248142957687377930e+00,1.248063325881958008e+00,1.247983813285827637e+00,1.247904062271118164e+00,1.247824549674987793e+00,1.247745037078857422e+00,1.247665405273437500e+00,1.247585892677307129e+00,1.247506380081176758e+00,1.247426867485046387e+00,1.247347354888916016e+00,1.247267842292785645e+00,1.247188329696655273e+00,1.247108936309814453e+00,1.247029423713684082e+00,1.246949911117553711e+00,1.246870517730712891e+00,1.246791124343872070e+00,1.246711611747741699e+00,1.246632218360900879e+00,1.246552824974060059e+00,1.246473312377929688e+00,1.246394038200378418e+00,1.246314644813537598e+00,1.246235251426696777e+00,1.246155858039855957e+00,1.246076583862304688e+00,1.245997190475463867e+00,1.245917916297912598e+00,1.245838522911071777e+00,1.245759248733520508e+00,1.245679974555969238e+00,1.245600700378417969e+00,1.245521306991577148e+00,1.245442152023315430e+00,1.245362877845764160e+00,1.245283603668212891e+00,1.245204329490661621e+00,1.245125174522399902e+00,1.245045900344848633e+00,1.244966745376586914e+00,1.244887471199035645e+00,1.244808316230773926e+00,1.244729161262512207e+00,1.244650006294250488e+00,1.244570851325988770e+00,1.244491696357727051e+00,1.244412541389465332e+00,1.244333386421203613e+00,1.244254231452941895e+00,1.244175195693969727e+00,1.244096159934997559e+00,1.244017004966735840e+00,1.243937969207763672e+00,1.243858933448791504e+00,1.243779778480529785e+00,1.243700742721557617e+00,1.243621706962585449e+00,1.243542671203613281e+00,1.243463635444641113e+00,1.243384718894958496e+00,1.243305683135986328e+00,1.243226647377014160e+00,1.243147730827331543e+00,1.243068695068359375e+00,1.242989778518676758e+00,1.242910861968994141e+00,1.242831826210021973e+00,1.242753028869628906e+00,1.242674112319946289e+00
1.162476539611816406e+00,1.162407517433166504e+00,1.162338495254516602e+00,1.162269473075866699e+00,1.162200450897216797e+00,1.162131428718566895e+00,1.162062406539916992e+00,1.161993384361267090e+00,1.161924481391906738e+00,1.161855459213256836e+00,1.161786437034606934e+00,1.161717534065246582e+00,1.161648511886596680e+00,1.161579608917236328e+00,1.161510705947875977e+00,1.161441683769226074e+00,1.161372780799865723e+00,1.161303877830505371e+00,1.161234855651855469e+00,1.161166071891784668e+00,1.161097168922424316e+00,1.161028146743774414e+00,1.160959362983703613e+00,1.160890460014343262e+00,1.160821676254272461e+00,1.160752773284912109e+00,1.160683989524841309e+00,1.160615086555480957e+00,1.160546183586120605e+00,1.160477399826049805e+00,1.160408616065979004e+00,1.160339832305908203e+00,1.160271048545837402e+00,1.160202264785766602e+00,1.160133481025695801e+00,1.160064697265625000e+00,1.159995913505554199e+00,1.159927129745483398e+00,1.159858345985412598e+00,1.159789681434631348e+00,1.159720897674560547e+00,1.159652233123779297e+00,1.159583449363708496e+00,1.159514784812927246e+00,1.159446120262145996e+00,1.159377455711364746e+00,1.159308671951293945e+00,1.159240007400512695e+00,1.159171342849731445e+00,1.159102678298950195e+00,1.159034013748168945e+00,1.158965468406677246e+00,1.158896684646606445e+00,1.158828139305114746e+00,1.158759474754333496e+00,1.158690810203552246e+00,1.158622264862060547e+00,1.158553719520568848e+00,1.158485054969787598e+00,1.158416509628295898e+00,1.158347964286804199e+00,1.158279418945312500e+00,1.158210873603820801e+00,1.158142328262329102e+00,1.158073782920837402e+00,1.158005237579345703e+00,1.157936811447143555e+00,1.157868266105651855e+00,1.157799720764160156e+00,1.157731294631958008e+00,1.157662749290466309e+00,1.157594203948974609e+00,1.157525777816772461e+00,1.157457351684570312e+00,1.157388806343078613e+00,1.157320499420166016e+00,1.157252073287963867e+00,1.157183527946472168e+00,1.157115101814270020e+00,1.157046794891357422e+00
1.087210059165954590e+00,1.087149620056152344e+00,1.087089180946350098e+00,1.087028861045837402e+00,1.086968421936035156e+00,1.086908102035522461e+00,1.086847662925720215e+00,1.086787343025207520e+00,1.086727023124694824e+00,1.086666703224182129e+00,1.086606383323669434e+00,1.086546063423156738e+00,1.086485624313354492e+00,1.086425423622131348e+00,1.086365103721618652e+00,1.086304783821105957e+00,1.086244463920593262e+00,1.086184144020080566e+00,1.086123824119567871e+00,1.086063623428344727e+00,1.086003303527832031e+00,1.085942983627319336e+00,1.085882782936096191e+00,1.085822582244873047e+00,1.085762262344360352e+00,1.085702061653137207e+00,1.085641860961914062e+00,1.085581541061401367e+00,1.085521340370178223e+00,1.085461258888244629e+00,1.085400938987731934e+00,1.085340738296508789e+00,1.085280656814575195e+00,1.085220336914062500e+00,1.085160255432128906e+00,1.085100054740905762e+00,1.085039854049682617e+00,1.084979772567749023e+00,1.084919571876525879e+00,1.084859490394592285e+00,1.084799289703369141e+00,1.084739208221435547e+00,1.084679126739501953e+00,1.084618926048278809e+00,1.084558844566345215e+00,1.084498763084411621e+00,1.084438562393188477e+00,1.084378480911254883e+00,1.084318518638610840e+00,1.084258317947387695e+00,1.084198355674743652e+00,1.084138274192810059e+00,1.084078192710876465e+00,1.084018111228942871e+00,1.083958148956298828e+00,1.083898067474365234e+00,1.083837985992431641e+00,1.083778023719787598e+00,1.083717942237854004e+00,1.083657979965209961e+00,1.083598017692565918e+00,1.083537936210632324e+00,1.083477973937988281e+00,1.083418011665344238e+00,1.083357930183410645e+00,1.083298087120056152e+00,1.083238124847412109e+00,1.083178043365478516e+00,1.083118200302124023e+00,1.083058238029479980e+00,1.082998275756835938e+00,1.082938313484191895e+00,1.082878470420837402e+00,1.082818508148193359e+00,1.082758545875549316e+00,1.082698702812194824e+00,1.082638859748840332e+00,1.082578897476196289e+00,1.082519054412841797e+00,1.082459211349487305e+00
1.021097302436828613e+00,1.021044015884399414e+00,1.020990729331970215e+00,1.020937442779541016e+00,1.020884275436401367e+00,1.020830988883972168e+00,1.020777702331542969e+00,1.020724534988403320e+00,1.020671248435974121e+00,1.020617961883544922e+00,1.020564794540405273e+00,1.020511507987976074e+00,1.020458340644836426e+00,1.020405173301696777e+00,1.020351886749267578e+00,1.020298719406127930e+00,1.020245552062988281e+00,1.020192384719848633e+00,1.020139217376708984e+00,1.020086050033569336e+00,1.020032882690429688e+00,1.019979715347290039e+00,1.019926548004150391e+00,1.019873380661010742e+00,1.019820213317871094e+00,1.019767045974731445e+00,1.019713997840881348e+00,1.019660830497741699e+00,1.019607663154602051e+00,1.019554615020751953e+00,1.019501447677612305e+00,1.019448280334472656e+00,1.019395232200622559e+00,1.019342064857482910e+00,1.019289016723632812e+00,1.019235968589782715e+00,1.019182801246643066e+00,1.019129753112792969e+00,1.019076704978942871e+00,1.019023656845092773e+00,1.018970608711242676e+00,1.018917560577392578e+00,1.018864512443542480e+00,1.018811464309692383e+00,1.018758416175842285e+00,1.018705368041992188e+00,1.018652319908142090e+00,1.018599390983581543e+00,1.018546223640441895e+00,1.018493294715881348e+00,1.018440365791320801e+00,1.018387317657470703e+00,1.018334269523620605e+00,1.018281340599060059e+00,1.018228411674499512e+00,1.018175363540649414e+00,1.018122434616088867e+00,1.018069386482238770e+00,1.018016457557678223e+00,1.017963528633117676e+00,1.017910599708557129e+00,1.017857551574707031e+00,1.017804622650146484e+00,1.017751812934875488e+00,1.017698764801025391e+00,1.017645835876464844e+00,1.017593026161193848e+00,1.017539978027343750e+00,1.017487168312072754e+00,1.017434239387512207e+00,1.017381310462951660e+00,1.017328500747680664e+00,1.017275571823120117e+00,1.017222642898559570e+00,1.017169833183288574e+00,1.017117023468017578e+00,1.017064094543457031e+00,1.017011284828186035e+00,1.016958355903625488e+00,1.016905546188354492e+00
9.625642895698547363e-01,9.625170230865478516e-01,9.624696373939514160e-01,9.624222517013549805e-01,9.623749852180480957e-01,9.623275995254516602e-01,9.622802734375000000e-01,9.622330069541931152e-01,9.621856808662414551e-01,9.621383547782897949e-01,9.620910882949829102e-01,9.620437622070312500e-01,9.619964361190795898e-01,9.619492292404174805e-01,9.619019031524658203e-01,9.618545770645141602e-01,9.618074297904968262e-01,9.617601037025451660e-01,9.617127776145935059e-01,9.616656303405761719e-01,9.616183042526245117e-01,9.615710377693176270e-01,9.615238308906555176e-01,9.614765644073486328e-01,9.614292979240417480e-01,9.613821506500244141e-01,9.613348841667175293e-01,9.612876176834106445e-01,9.612404704093933105e-01,9.611932039260864258e-01,9.611459970474243164e-01,9.610988497734069824e-01,9.610515832901000977e-01,9.610043764114379883e-01,9.609572887420654297e-01,9.609100222587585449e-01,9.608628153800964355e-01,9.608157277107238770e-01,9.607685208320617676e-01,9.607213139533996582e-01,9.606742262840270996e-01,9.606270194053649902e-01,9.605798125267028809e-01,9.605327248573303223e-01,9.604855775833129883e-01,9.604383707046508789e-01,9.603913426399230957e-01,9.603441357612609863e-01,9.602969884872436523e-01,9.602499604225158691e-01,9.602028131484985352e-01,9.601556658744812012e-01,9.601086378097534180e-01,9.600614905357360840e-01,9.600143432617187500e-01,9.599673151969909668e-01,9.599201679229736328e-01,9.598730802536010742e-01,9.598260521888732910e-01,9.597789645195007324e-01,9.597318172454833984e-01,9.596848487854003906e-01,9.596377611160278320e-01,9.595907926559448242e-01,9.595437049865722656e-01,9.594966173171997070e-01,9.594496488571166992e-01,9.594025611877441406e-01,9.593554735183715820e-01,9.593085050582885742e-01,9.592614769935607910e-01,9.592143893241882324e-01,9.591674804687500000e-01,9.591203927993774414e-01,9.590733647346496582e-01,9.590264558792114258e-01,9.589794278144836426e-01,9.589323997497558594e-01,9.588854908943176270e-01,9.588384628295898438e-01
