5.000000000000000000e+00,5.000000000000000000e+00,5.000000000000000000e+00,5.000000000000000000e+00,5.000000000000000000e+00,5.000000000000000000e+00,5.000000000000000000e+00,5.000000000000000000e+00,5.000000000000000000e+00,5.000000000000000000e+00,5.000000000000000000e+00,5.000000000000000000e+00,5.000000000000000000e+00,5.000000000000000000e+00,5.000000000000000000e+00,5.000000000000000000e+00,5.000000000000000000e+00,5.000000000000000000e+00,5.000000000000000000e+00,5.000000000000000000e+00,5.000000000000000000e+00,5.000000000000000000e+00,5.000000000000000000e+00,5.000000000000000000e+00,5.000000000000000000e+00,5.000000000000000000e+00,5.000000000000000000e+00,5.000000000000000000e+00,5.000000000000000000e+00,5.000000000000000000e+00,5.000000000000000000e+00,5.000000000000000000e+00,5.000000000000000000e+00,5.000000000000000000e+00,5.000000000000000000e+00,5.000000000000000000e+00,1.727151870727539062e+00,1.668641090393066406e+00,1.661825180053710938e+00,1.715052008628845215e+00,1.705738186836242676e+00,1.696263432502746582e+00,1.690744042396545410e+00,1.691634774208068848e+00,1.697540044784545898e+00,1.698348522186279297e+00,1.716186523437500000e+00,1.740337371826171875e+00,3.547720432281494141e+00,3.445003509521484375e+00,3.348067760467529297e+00,3.256437540054321289e+00,3.169688940048217773e+00,3.087442398071289062e+00,3.009356260299682617e+00,2.935122489929199219e+00,2.864462852478027344e+00,2.797125101089477539e+00,2.732880830764770508e+00,2.671521425247192383e+00,2.612857103347778320e+00,2.556713342666625977e+00,2.502931833267211914e+00,2.451366424560546875e+00,2.401882648468017578e+00,2.354357242584228516e+00,2.308676004409790039e+00,2.264733791351318359e+00,2.222433090209960938e+00,2.181683540344238281e+00,2.142401456832885742e+00,2.104509115219116211e+00,2.067933559417724609e+00,2.032607793807983398e+00,1.998468637466430664e+00,1.965457320213317871e+00,1.933518767356872559e+00,1.902601718902587891e+00,1.872657775878906250e+00,1.843641757965087891e+00
5.000000000000000000e+00,5.000000000000000000e+00,5.000000000000000000e+00,5.000000000000000000e+00,5.000000000000000000e+00,5.000000000000000000e+00,5.000000000000000000e+00,5.000000000000000000e+00,5.000000000000000000e+00,5.000000000000000000e+00,5.000000000000000000e+00,5.000000000000000000e+00,5.000000000000000000e+00,5.000000000000000000e+00,5.000000000000000000e+00,5.000000000000000000e+00,5.000000000000000000e+00,5.000000000000000000e+00,5.000000000000000000e+00,5.000000000000000000e+00,5.000000000000000000e+00,5.000000000000000000e+00,5.000000000000000000e+00,5.000000000000000000e+00,5.000000000000000000e+00,5.000000000000000000e+00,5.000000000000000000e+00,5.000000000000000000e+00,5.000000000000000000e+00,5.000000000000000000e+00,5.000000000000000000e+00,5.000000000000000000e+00,5.000000000000000000e+00,5.000000000000000000e+00,5.000000000000000000e+00,5.000000000000000000e+00,5.000000000000000000e+00,1.651724338531494141e+00,1.636340856552124023e+00,1.653690338134765625e+00,1.697706818580627441e+00,1.691989660263061523e+00,1.687704682350158691e+00,1.690160036087036133e+00,1.697143912315368652e+00,1.706843018531799316e+00,1.730320453643798828e+00,1.783572077751159668e+00,3.547794342041015625e+00,3.445073366165161133e+00,3.348133563995361328e+00,3.256499767303466797e+00,3.169747829437255859e+00,3.087498426437377930e+00,3.009409427642822266e+00,2.935173034667968750e+00,2.864511013031005859e+00,2.797171115875244141e+00,2.732924699783325195e+00,2.671563386917114258e+00,2.612896919250488281e+00,2.556751728057861328e+00,2.502968549728393555e+00,2.451401710510253906e+00,2.401916503906250000e+00,2.354389667510986328e+00,2.308707237243652344e+00,2.264764070510864258e+00,2.222462177276611328e+00,2.181711435317993164e+00,2.142428398132324219e+00,2.104535102844238281e+00,2.067958593368530273e+00,2.032632112503051758e+00,1.998491883277893066e+00,1.965479850769042969e+00,1.933540582656860352e+00,1.902623057365417480e+00,1.872678399085998535e+00,1.843661785125732422e+00
5.000000000000000000e+00,5.000000000000000000e+00,5.000000000000000000e+00,5.000000000000000000e+00,5.000000000000000000e+00,5.000000000000000000e+00,5.000000000000000000e+00,5.000000000000000000e+00,5.000000000000000000e+00,5.000000000000000000e+00,5.000000000000000000e+00,5.000000000000000000e+00,5.000000000000000000e+00,5.000000000000000000e+00,5.000000000000000000e+00,5.000000000000000000e+00,5.000000000000000000e+00,5.000000000000000000e+00,5.000000000000000000e+00,5.000000000000000000e+00,5.000000000000000000e+00,5.000000000000000000e+00,5.000000000000000000e+00,5.000000000000000000e+00,5.000000000000000000e+00,5.000000000000000000e+00,5.000000000000000000e+00,5.000000000000000000e+00,5.000000000000000000e+00,5.000000000000000000e+00,5.000000000000000000e+00,5.000000000000000000e+00,5.000000000000000000e+00,5.000000000000000000e+00,5.000000000000000000e+00,5.000000000000000000e+00,5.000000000000000000e+00,1.638123512268066406e+00,1.620557188987731934e+00,1.627685308456420898e+00,1.694326877593994141e+00,1.691639423370361328e+00,1.688788771629333496e+00,1.693617701530456543e+00,1.697887063026428223e+00,1.711395621299743652e+00,1.740439772605895996e+00,1.780910372734069824e+00,3.547868251800537109e+00,3.445142984390258789e+00,3.348199367523193359e+00,3.256561994552612305e+00,3.169806957244873047e+00,3.087554216384887695e+00,3.009462594985961914e+00,2.935223579406738281e+00,2.864559173583984375e+00,2.797217130661010742e+00,2.732968568801879883e+00,2.671605348587036133e+00,2.612936973571777344e+00,2.556790113449096680e+00,2.503005504608154297e+00,2.451436996459960938e+00,2.401950359344482422e+00,2.354422330856323242e+00,2.308738708496093750e+00,2.264794111251831055e+00,2.222491025924682617e+00,2.181739568710327148e+00,2.142455339431762695e+00,2.104560852050781250e+00,2.067983627319335938e+00,2.032656192779541016e+00,1.998515486717224121e+00,1.965502738952636719e+00,1.933562636375427246e+00,1.902644157409667969e+00,1.872698903083801270e+00,1.843681693077087402e+00
5.000000000000000000e+00,5.000000000000000000e+00,5.000000000000000000e+00,5.000000000000000000e+00,5.000000000000000000e+00,5.000000000000000000e+00,5.000000000000000000e+00,5.000000000000000000e+00,5.000000000000000000e+00,5.000000000000000000e+00,5.000000000000000000e+00,5.000000000000000000e+00,5.000000000000000000e+00,5.000000000000000000e+00,5.000000000000000000e+00,5.000000000000000000e+00,5.000000000000000000e+00,5.000000000000000000e+00,5.000000000000000000e+00,5.000000000000000000e+00,5.000000000000000000e+00,5.000000000000000000e+00,5.000000000000000000e+00,5.000000000000000000e+00,5.000000000000000000e+00,5.000000000000000000e+00,5.000000000000000000e+00,5.000000000000000000e+00,5.000000000000000000e+00,5.000000000000000000e+00,5.000000000000000000e+00,5.000000000000000000e+00,5.000000000000000000e+00,5.000000000000000000e+00,5.000000000000000000e+00,5.000000000000000000e+00,5.000000000000000000e+00,1.644451379776000977e+00,1.601625800132751465e+00,1.595553159713745117e+00,1.693445205688476562e+00,1.691578984260559082e+00,1.689959168434143066e+00,1.703530788421630859e+00,1.715890288352966309e+00,1.731686592102050781e+00,1.753145217895507812e+00,1.784994602203369141e+00,3.547942161560058594e+00,3.445212602615356445e+00,3.348264694213867188e+00,3.256624221801757812e+00,3.169865846633911133e+00,3.087610244750976562e+00,3.009515762329101562e+00,2.935274124145507812e+00,2.864607334136962891e+00,2.797262907028198242e+00,2.733012437820434570e+00,2.671647071838378906e+00,2.612977027893066406e+00,2.556828498840332031e+00,2.503042221069335938e+00,2.451472282409667969e+00,2.401984214782714844e+00,2.354454755783081055e+00,2.308769702911376953e+00,2.264824151992797852e+00,2.222520112991333008e+00,2.181767463684082031e+00,2.142482280731201172e+00,2.104586839675903320e+00,2.068008899688720703e+00,2.032680511474609375e+00,1.998538851737976074e+00,1.965525269508361816e+00,1.933584570884704590e+00,1.902665376663208008e+00,1.872719645500183105e+00,1.843701720237731934e+00
5.000000000000000000e+00,5.000000000000000000e+00,5.000000000000000000e+00,5.000000000000000000e+00,5.000000000000000000e+00,5.000000000000000000e+00,5.000000000000000000e+00,5.000000000000000000e+00,5.000000000000000000e+00,5.000000000000000000e+00,5.000000000000000000e+00,5.000000000000000000e+00,5.000000000000000000e+00,5.000000000000000000e+00,5.000000000000000000e+00,5.000000000000000000e+00,5.000000000000000000e+00,5.000000000000000000e+00,5.000000000000000000e+00,5.000000000000000000e+00,5.000000000000000000e+00,5.000000000000000000e+00,5.000000000000000000e+00,5.000000000000000000e+00,5.000000000000000000e+00,5.000000000000000000e+00,5.000000000000000000e+00,5.000000000000000000e+00,5.000000000000000000e+00,5.000000000000000000e+00,5.000000000000000000e+00,5.000000000000000000e+00,5.000000000000000000e+00,5.000000000000000000e+00,5.000000000000000000e+00,5.000000000000000000e+00,5.000000000000000000e+00,5.000000000000000000e+00,1.587240934371948242e+00,1.592155098915100098e+00,1.693066835403442383e+00,1.692828059196472168e+00,1.691743373870849609e+00,1.722364425659179688e+00,1.726046085357666016e+00,1.752464413642883301e+00,1.745087504386901855e+00,1.736588716506958008e+00,3.548016071319580078e+00,3.445282459259033203e+00,3.348330736160278320e+00,3.256686449050903320e+00,3.169924974441528320e+00,3.087666273117065430e+00,3.009568929672241211e+00,2.935324668884277344e+00,2.864655256271362305e+00,2.797308921813964844e+00,2.733056306838989258e+00,2.671689033508300781e+00,2.613017082214355469e+00,2.556866884231567383e+00,2.503078937530517578e+00,2.451507568359375000e+00,2.402018070220947266e+00,2.354487419128417969e+00,2.308801174163818359e+00,2.264854431152343750e+00,2.222548961639404297e+00,2.181795358657836914e+00,2.142509222030639648e+00,2.104612827301025391e+00,2.068033695220947266e+00,2.032704830169677734e+00,1.998562335968017578e+00,1.965548038482666016e+00,1.933606624603271484e+00,1.902686715126037598e+00,1.872740149497985840e+00,1.843721628189086914e+00
5.000000000000000000e+00,5.000000000000000000e+00,5.000000000000000000e+00,5.000000000000000000e+00,5.000000000000000000e+00,5.000000000000000000e+00,5.000000000000000000e+00,5.000000000000000000e+00,5.000000000000000000e+00,5.000000000000000000e+00,5.000000000000000000e+00,5.000000000000000000e+00,5.000000000000000000e+00,5.000000000000000000e+00,5.000000000000000000e+00,5.000000000000000000e+00,5.000000000000000000e+00,5.000000000000000000e+00,5.000000000000000000e+00,5.000000000000000000e+00,5.000000000000000000e+00,5.000000000000000000e+00,5.000000000000000000e+00,5.000000000000000000e+00,5.000000000000000000e+00,5.000000000000000000e+00,5.000000000000000000e+00,5.000000000000000000e+00,5.000000000000000000e+00,5.000000000000000000e+00,5.000000000000000000e+00,5.000000000000000000e+00,5.000000000000000000e+00,5.000000000000000000e+00,5.000000000000000000e+00,5.000000000000000000e+00,5.000000000000000000e+00,5.000000000000000000e+00,1.579184770584106445e+00,1.559105992317199707e+00,1.562782049179077148e+00,1.693003416061401367e+00,1.693182110786437988e+00,1.731609344482421875e+00,1.764995217323303223e+00,1.721245169639587402e+00,1.705834627151489258e+00,1.701154112815856934e+00,1.705878853797912598e+00,3.445352077484130859e+00,3.348396539688110352e+00,3.256748437881469727e+00,3.169983863830566406e+00,3.087722301483154297e+00,3.009622097015380859e+00,2.935375213623046875e+00,2.864703416824340820e+00,2.797354936599731445e+00,2.733100175857543945e+00,2.671730995178222656e+00,2.613057136535644531e+00,2.556905269622802734e+00,2.503115653991699219e+00,2.451542854309082031e+00,2.402051925659179688e+00,2.354519844055175781e+00,2.308832406997680664e+00,2.264884233474731445e+00,2.222578048706054688e+00,2.181823253631591797e+00,2.142536163330078125e+00,2.104638814926147461e+00,2.068058967590332031e+00,2.032729148864746094e+00,1.998585700988769531e+00,1.965570569038391113e+00,1.933628439903259277e+00,1.902707815170288086e+00,1.872760772705078125e+00,1.843741655349731445e+00
5.000000000000000000e+00,5.000000000000000000e+00,5.000000000000000000e+00,5.000000000000000000e+00,5.000000000000000000e+00,5.000000000000000000e+00,5.000000000000000000e+00,5.000000000000000000e+00,5.000000000000000000e+00,5.000000000000000000e+00,5.000000000000000000e+00,5.000000000000000000e+00,5.000000000000000000e+00,5.000000000000000000e+00,5.000000000000000000e+00,5.000000000000000000e+00,5.000000000000000000e+00,5.000000000000000000e+00,5.000000000000000000e+00,5.000000000000000000e+00,5.000000000000000000e+00,5.000000000000000000e+00,5.000000000000000000e+00,5.000000000000000000e+00,5.000000000000000000e+00,5.000000000000000000e+00,5.000000000000000000e+00,5.000000000000000000e+00,5.000000000000000000e+00,5.000000000000000000e+00,5.000000000000000000e+00,5.000000000000000000e+00,5.000000000000000000e+00,5.000000000000000000e+00,5.000000000000000000e+00,5.000000000000000000e+00,5.000000000000000000e+00,5.000000000000000000e+00,1.565043926239013672e+00,1.531398415565490723e+00,1.542787790298461914e+00,1.535937786102294922e+00,1.692763090133666992e+00,1.730398416519165039e+00,1.748777627944946289e+00,1.713163733482360840e+00,1.690465331077575684e+00,1.687425494194030762e+00,1.685254216194152832e+00,1.748664975166320801e+00,3.348462343215942383e+00,3.256810665130615234e+00,3.170042991638183594e+00,3.087778091430664062e+00,3.009675264358520508e+00,2.935425758361816406e+00,2.864751577377319336e+00,2.797400712966918945e+00,2.733144044876098633e+00,2.671772956848144531e+00,2.613097429275512695e+00,2.556943655014038086e+00,2.503152370452880859e+00,2.451578140258789062e+00,2.402085781097412109e+00,2.354552507400512695e+00,2.308863639831542969e+00,2.264914512634277344e+00,2.222607135772705078e+00,2.181851148605346680e+00,2.142563104629516602e+00,2.104664802551269531e+00,2.068084001541137695e+00,2.032753229141235352e+00,1.998609304428100586e+00,1.965593457221984863e+00,1.933650493621826172e+00,1.902729272842407227e+00,1.872781276702880859e+00,1.843761563301086426e+00
5.000000000000000000e+00,5.000000000000000000e+00,5.000000000000000000e+00,5.000000000000000000e+00,5.000000000000000000e+00,5.000000000000000000e+00,5.000000000000000000e+00,5.000000000000000000e+00,5.000000000000000000e+00,5.000000000000000000e+00,5.000000000000000000e+00,5.000000000000000000e+00,5.000000000000000000e+00,5.000000000000000000e+00,5.000000000000000000e+00,5.000000000000000000e+00,5.000000000000000000e+00,5.000000000000000000e+00,5.000000000000000000e+00,5.000000000000000000e+00,5.000000000000000000e+00,5.000000000000000000e+00,5.000000000000000000e+00,5.000000000000000000e+00,5.000000000000000000e+00,5.000000000000000000e+00,5.000000000000000000e+00,5.000000000000000000e+00,5.000000000000000000e+00,5.000000000000000000e+00,5.000000000000000000e+00,5.000000000000000000e+00,5.000000000000000000e+00,5.000000000000000000e+00,5.000000000000000000e+00,5.000000000000000000e+00,5.000000000000000000e+00,5.000000000000000000e+00,1.551296353340148926e+00,1.525394201278686523e+00,1.498029470443725586e+00,1.518588185310363770e+00,1.692592382431030273e+00,1.729385852813720703e+00,1.742868781089782715e+00,1.711768746376037598e+00,1.681565642356872559e+00,1.677813768386840820e+00,1.675883531570434570e+00,1.713663458824157715e+00,3.348528146743774414e+00,3.256873130798339844e+00,3.170101642608642578e+00,3.087834119796752930e+00,3.009728431701660156e+00,2.935476303100585938e+00,2.864799737930297852e+00,2.797446489334106445e+00,2.733187913894653320e+00,2.671814918518066406e+00,2.613137483596801758e+00,2.556982040405273438e+00,2.503189086914062500e+00,2.451613426208496094e+00,2.402119636535644531e+00,2.354584932327270508e+00,2.308894872665405273e+00,2.264944553375244141e+00,2.222635984420776367e+00,2.181879281997680664e+00,2.142590045928955078e+00,2.104691028594970703e+00,2.068109035491943359e+00,2.032777309417724609e+00,1.998632669448852539e+00,1.965615987777709961e+00,1.933672308921813965e+00,1.902750372886657715e+00,1.872801780700683594e+00,1.843781590461730957e+00
5.000000000000000000e+00,5.000000000000000000e+00,5.000000000000000000e+00,5.000000000000000000e+00,5.000000000000000000e+00,5.000000000000000000e+00,5.000000000000000000e+00,5.000000000000000000e+00,5.000000000000000000e+00,5.000000000000000000e+00,5.000000000000000000e+00,5.000000000000000000e+00,5.000000000000000000e+00,5.000000000000000000e+00,5.000000000000000000e+00,5.000000000000000000e+00,5.000000000000000000e+00,5.000000000000000000e+00,5.000000000000000000e+00,5.000000000000000000e+00,5.000000000000000000e+00,5.000000000000000000e+00,5.000000000000000000e+00,5.000000000000000000e+00,5.000000000000000000e+00,5.000000000000000000e+00,5.000000000000000000e+00,5.000000000000000000e+00,5.000000000000000000e+00,5.000000000000000000e+00,5.000000000000000000e+00,5.000000000000000000e+00,5.000000000000000000e+00,5.000000000000000000e+00,5.000000000000000000e+00,5.000000000000000000e+00,5.000000000000000000e+00,5.000000000000000000e+00,1.559141159057617188e+00,1.507237553596496582e+00,1.486851811408996582e+00,1.697381854057312012e+00,1.696975946426391602e+00,1.732357978820800781e+00,1.755347967147827148e+00,1.709476351737976074e+00,1.678859114646911621e+00,1.666776418685913086e+00,1.666616559028625488e+00,1.681858181953430176e+00,3.348593950271606445e+00,3.256935358047485352e+00,3.170160531997680664e+00,3.087890148162841797e+00,3.009781599044799805e+00,2.935527086257934570e+00,2.864848136901855469e+00,2.797492504119873047e+00,2.733231782913208008e+00,2.671856641769409180e+00,2.613177537918090820e+00,2.557020425796508789e+00,2.503226041793823242e+00,2.451648473739624023e+00,2.402153491973876953e+00,2.354617595672607422e+00,2.308926343917846680e+00,2.264974594116210938e+00,2.222664833068847656e+00,2.181907176971435547e+00,2.142616987228393555e+00,2.104717016220092773e+00,2.068134307861328125e+00,2.032801628112792969e+00,1.998656153678894043e+00,1.965638756752014160e+00,1.933694362640380859e+00,1.902771711349487305e+00,1.872822523117065430e+00,1.843801379203796387e+00
5.000000000000000000e+00,5.000000000000000000e+00,5.000000000000000000e+00,5.000000000000000000e+00,5.000000000000000000e+00,5.000000000000000000e+00,5.000000000000000000e+00,5.000000000000000000e+00,5.000000000000000000e+00,5.000000000000000000e+00,5.000000000000000000e+00,5.000000000000000000e+00,5.000000000000000000e+00,5.000000000000000000e+00,5.000000000000000000e+00,5.000000000000000000e+00,5.000000000000000000e+00,5.000000000000000000e+00,5.000000000000000000e+00,5.000000000000000000e+00,5.000000000000000000e+00,5.000000000000000000e+00,5.000000000000000000e+00,5.000000000000000000e+00,5.000000000000000000e+00,5.000000000000000000e+00,5.000000000000000000e+00,5.000000000000000000e+00,5.000000000000000000e+00,5.000000000000000000e+00,5.000000000000000000e+00,5.000000000000000000e+00,5.000000000000000000e+00,5.000000000000000000e+00,5.000000000000000000e+00,5.000000000000000000e+00,5.000000000000000000e+00,5.000000000000000000e+00,1.554943561553955078e+00,1.711383104324340820e+00,1.704473614692687988e+00,1.703347921371459961e+00,1.702223777770996094e+00,1.742090582847595215e+00,1.761451125144958496e+00,1.706772923469543457e+00,1.676161170005798340e+00,1.654625296592712402e+00,1.655256986618041992e+00,1.655567765235900879e+00,3.348659753799438477e+00,3.256997585296630859e+00,3.170219659805297852e+00,3.087946176528930664e+00,3.009834766387939453e+00,2.935577630996704102e+00,2.864896297454833984e+00,2.797538518905639648e+00,2.733275413513183594e+00,2.671898603439331055e+00,2.613217592239379883e+00,2.557058811187744141e+00,2.503262758255004883e+00,2.451683759689331055e+00,2.402187347412109375e+00,2.354650020599365234e+00,2.308957576751708984e+00,2.265004873275756836e+00,2.222693920135498047e+00,2.181935071945190430e+00,2.142643928527832031e+00,2.104743003845214844e+00,2.068159341812133789e+00,2.032825946807861328e+00,1.998679518699645996e+00,1.965661287307739258e+00,1.933716297149658203e+00,1.902792930603027344e+00,1.872843027114868164e+00,1.843821287155151367e+00
5.000000000000000000e+00,5.000000000000000000e+00,5.000000000000000000e+00,5.000000000000000000e+00,5.000000000000000000e+00,5.000000000000000000e+00,5.000000000000000000e+00,5.000000000000000000e+00,5.000000000000000000e+00,5.000000000000000000e+00,5.000000000000000000e+00,5.000000000000000000e+00,5.000000000000000000e+00,5.000000000000000000e+00,5.000000000000000000e+00,5.000000000000000000e+00,5.000000000000000000e+00,5.000000000000000000e+00,5.000000000000000000e+00,5.000000000000000000e+00,5.000000000000000000e+00,5.000000000000000000e+00,5.000000000000000000e+00,5.000000000000000000e+00,5.000000000000000000e+00,5.000000000000000000e+00,5.000000000000000000e+00,5.000000000000000000e+00,5.000000000000000000e+00,5.000000000000000000e+00,5.000000000000000000e+00,5.000000000000000000e+00,5.000000000000000000e+00,5.000000000000000000e+00,5.000000000000000000e+00,5.000000000000000000e+00,5.000000000000000000e+00,5.000000000000000000e+00,1.771114230155944824e+00,1.720608234405517578e+00,1.711409211158752441e+00,1.710073232650756836e+00,1.711294293403625488e+00,1.755064606666564941e+00,1.767681956291198730e+00,1.704078078269958496e+00,1.673472285270690918e+00,1.643786191940307617e+00,1.643928885459899902e+00,1.644836425781250000e+00,1.709409594535827637e+00,3.257059812545776367e+00,3.170278549194335938e+00,3.088001728057861328e+00,3.009887933731079102e+00,2.935628175735473633e+00,2.864944458007812500e+00,2.797584295272827148e+00,2.733319282531738281e+00,2.671940565109252930e+00,2.613257646560668945e+00,2.557097196578979492e+00,2.503299474716186523e+00,2.451719045639038086e+00,2.402221202850341797e+00,2.354682683944702148e+00,2.308988809585571289e+00,2.265034914016723633e+00,2.222723007202148438e+00,2.181962966918945312e+00,2.142670869827270508e+00,2.104768991470336914e+00,2.068184375762939453e+00,2.032850265502929688e+00,1.998702883720397949e+00,1.965684175491333008e+00,1.933738350868225098e+00,1.902814269065856934e+00,1.872863650321960449e+00,1.843841314315795898e+00
5.000000000000000000e+00,5.000000000000000000e+00,5.000000000000000000e+00,5.000000000000000000e+00,5.000000000000000000e+00,5.000000000000000000e+00,5.000000000000000000e+00,5.000000000000000000e+00,5.000000000000000000e+00,5.000000000000000000e+00,5.000000000000000000e+00,5.000000000000000000e+00,5.000000000000000000e+00,5.000000000000000000e+00,5.000000000000000000e+00,5.000000000000000000e+00,5.000000000000000000e+00,5.000000000000000000e+00,5.000000000000000000e+00,5.000000000000000000e+00,5.000000000000000000e+00,5.000000000000000000e+00,5.000000000000000000e+00,5.000000000000000000e+00,5.000000000000000000e+00,5.000000000000000000e+00,5.000000000000000000e+00,5.000000000000000000e+00,5.000000000000000000e+00,5.000000000000000000e+00,5.000000000000000000e+00,5.000000000000000000e+00,5.000000000000000000e+00,5.000000000000000000e+00,5.000000000000000000e+00,5.000000000000000000e+00,5.000000000000000000e+00,5.000000000000000000e+00,1.784885048866271973e+00,1.729933500289916992e+00,1.719003319740295410e+00,1.716851949691772461e+00,1.724792003631591797e+00,1.765868186950683594e+00,4.029181957244873047e+00,1.709224224090576172e+00,1.669348359107971191e+00,1.640024900436401367e+00,1.631852865219116211e+00,1.634207367897033691e+00,1.659055352210998535e+00,3.257122039794921875e+00,3.170337677001953125e+00,3.088057756423950195e+00,3.009941101074218750e+00,2.935678720474243164e+00,2.864992618560791016e+00,2.797630310058593750e+00,2.733363151550292969e+00,2.671982288360595703e+00,2.613297700881958008e+00,2.557135581970214844e+00,2.503336191177368164e+00,2.451754331588745117e+00,2.402255058288574219e+00,2.354715347290039062e+00,2.309020280838012695e+00,2.265064954757690430e+00,2.222751855850219727e+00,2.181990861892700195e+00,2.142697811126708984e+00,2.104794979095458984e+00,2.068209648132324219e+00,2.032874584197998047e+00,1.998726487159729004e+00,1.965706706047058105e+00,1.933760166168212891e+00,1.902835369110107422e+00,1.872884154319763184e+00,1.843861222267150879e+00
5.000000000000000000e+00,5.000000000000000000e+00,5.000000000000000000e+00,5.000000000000000000e+00,5.000000000000000000e+00,5.000000000000000000e+00,5.000000000000000000e+00,5.000000000000000000e+00,5.000000000000000000e+00,5.000000000000000000e+00,5.000000000000000000e+00,5.000000000000000000e+00,5.000000000000000000e+00,5.000000000000000000e+00,5.000000000000000000e+00,5.000000000000000000e+00,5.000000000000000000e+00,5.000000000000000000e+00,5.000000000000000000e+00,5.000000000000000000e+00,5.000000000000000000e+00,5.000000000000000000e+00,5.000000000000000000e+00,5.000000000000000000e+00,5.000000000000000000e+00,5.000000000000000000e+00,5.000000000000000000e+00,5.000000000000000000e+00,5.000000000000000000e+00,5.000000000000000000e+00,5.000000000000000000e+00,5.000000000000000000e+00,5.000000000000000000e+00,5.000000000000000000e+00,5.000000000000000000e+00,5.000000000000000000e+00,5.000000000000000000e+00,5.000000000000000000e+00,1.796968102455139160e+00,1.739360213279724121e+00,1.726665139198303223e+00,1.723849892616271973e+00,1.738215684890747070e+00,4.170504093170166016e+00,4.029276847839355469e+00,1.720227003097534180e+00,1.664215803146362305e+00,1.636280775070190430e+00,1.616727471351623535e+00,1.621965289115905762e+00,1.624599933624267578e+00,3.257184505462646484e+00,3.170396566390991211e+00,3.088113784790039062e+00,3.009994029998779297e+00,2.935729503631591797e+00,2.865040779113769531e+00,2.797676324844360352e+00,2.733407020568847656e+00,2.672024250030517578e+00,2.613337993621826172e+00,2.557173967361450195e+00,2.503373146057128906e+00,2.451789617538452148e+00,2.402288913726806641e+00,2.354747772216796875e+00,2.309051513671875000e+00,2.265095233917236328e+00,2.222780942916870117e+00,2.182018756866455078e+00,2.142724752426147461e+00,2.104820966720581055e+00,2.068234682083129883e+00,2.032898664474487305e+00,1.998749732971191406e+00,1.965729236602783203e+00,1.933782219886779785e+00,1.902856826782226562e+00,1.872904896736145020e+00,1.843881249427795410e+00
5.000000000000000000e+00,5.000000000000000000e+00,5.000000000000000000e+00,5.000000000000000000e+00,5.000000000000000000e+00,5.000000000000000000e+00,5.000000000000000000e+00,5.000000000000000000e+00,5.000000000000000000e+00,5.000000000000000000e+00,5.000000000000000000e+00,5.000000000000000000e+00,5.000000000000000000e+00,5.000000000000000000e+00,5.000000000000000000e+00,5.000000000000000000e+00,5.000000000000000000e+00,5.000000000000000000e+00,5.000000000000000000e+00,5.000000000000000000e+00,5.000000000000000000e+00,5.000000000000000000e+00,5.000000000000000000e+00,5.000000000000000000e+00,5.000000000000000000e+00,5.000000000000000000e+00,5.000000000000000000e+00,5.000000000000000000e+00,5.000000000000000000e+00,5.000000000000000000e+00,5.000000000000000000e+00,5.000000000000000000e+00,5.000000000000000000e+00,5.000000000000000000e+00,5.000000000000000000e+00,5.000000000000000000e+00,5.000000000000000000e+00,5.000000000000000000e+00,1.811453819274902344e+00,1.749732613563537598e+00,1.732970833778381348e+00,1.730782389640808105e+00,1.748824834823608398e+00,4.170606136322021484e+00,4.029372215270996094e+00,3.897391080856323242e+00,1.659115076065063477e+00,1.632553815841674805e+00,1.610976815223693848e+00,1.607021570205688477e+00,1.612196683883666992e+00,3.257246732711791992e+00,3.170455694198608398e+00,3.088169813156127930e+00,3.010047197341918945e+00,2.935780048370361328e+00,2.865088939666748047e+00,2.797722339630126953e+00,2.733450889587402344e+00,2.672066211700439453e+00,2.613377809524536133e+00,2.557212352752685547e+00,2.503409862518310547e+00,2.451824903488159180e+00,2.402322769165039062e+00,2.354780197143554688e+00,2.309082746505737305e+00,2.265125274658203125e+00,2.222810029983520508e+00,2.182046890258789062e+00,2.142751693725585938e+00,2.104846954345703125e+00,2.068259716033935547e+00,2.032922983169555664e+00,1.998773336410522461e+00,1.965752124786376953e+00,1.933804035186767578e+00,1.902877926826477051e+00,1.872925400733947754e+00,1.843901157379150391e+00
5.000000000000000000e+00,5.000000000000000000e+00,5.000000000000000000e+00,5.000000000000000000e+00,5.000000000000000000e+00,5.000000000000000000e+00,5.000000000000000000e+00,5.000000000000000000e+00,5.000000000000000000e+00,5.000000000000000000e+00,5.000000000000000000e+00,5.000000000000000000e+00,5.000000000000000000e+00,5.000000000000000000e+00,5.000000000000000000e+00,5.000000000000000000e+00,5.000000000000000000e+00,5.000000000000000000e+00,5.000000000000000000e+00,5.000000000000000000e+00,5.000000000000000000e+00,5.000000000000000000e+00,5.000000000000000000e+00,5.000000000000000000e+00,5.000000000000000000e+00,5.000000000000000000e+00,5.000000000000000000e+00,5.000000000000000000e+00,5.000000000000000000e+00,5.000000000000000000e+00,5.000000000000000000e+00,5.000000000000000000e+00,5.000000000000000000e+00,5.000000000000000000e+00,5.000000000000000000e+00,5.000000000000000000e+00,5.000000000000000000e+00,5.000000000000000000e+00,1.825397968292236328e+00,1.760662078857421875e+00,1.737774014472961426e+00,1.735573649406433105e+00,1.759919404983520508e+00,4.170708179473876953e+00,4.029467582702636719e+00,3.897480249404907227e+00,1.675515174865722656e+00,1.628397107124328613e+00,1.607362747192382812e+00,1.596643209457397461e+00,1.603450298309326172e+00,3.257308959960937500e+00,3.170514583587646484e+00,3.088225841522216797e+00,3.010100364685058594e+00,2.935830354690551758e+00,2.865137100219726562e+00,2.797768115997314453e+00,2.733494758605957031e+00,2.672107934951782227e+00,2.613417863845825195e+00,2.557250738143920898e+00,2.503446578979492188e+00,2.451860189437866211e+00,2.402356624603271484e+00,2.354812622070312500e+00,2.309113979339599609e+00,2.265155315399169922e+00,2.222838878631591797e+00,2.182074785232543945e+00,2.142778635025024414e+00,2.104872941970825195e+00,2.068284988403320312e+00,2.032947301864624023e+00,1.998796701431274414e+00,1.965774655342102051e+00,1.933825969696044922e+00,1.902899265289306641e+00,1.872946023941040039e+00,1.843921184539794922e+00
5.000000000000000000e+00,5.000000000000000000e+00,5.000000000000000000e+00,5.000000000000000000e+00,5.000000000000000000e+00,5.000000000000000000e+00,5.000000000000000000e+00,5.000000000000000000e+00,5.000000000000000000e+00,5.000000000000000000e+00,5.000000000000000000e+00,5.000000000000000000e+00,5.000000000000000000e+00,5.000000000000000000e+00,5.000000000000000000e+00,5.000000000000000000e+00,5.000000000000000000e+00,5.000000000000000000e+00,5.000000000000000000e+00,5.000000000000000000e+00,5.000000000000000000e+00,5.000000000000000000e+00,5.000000000000000000e+00,5.000000000000000000e+00,5.000000000000000000e+00,5.000000000000000000e+00,5.000000000000000000e+00,5.000000000000000000e+00,5.000000000000000000e+00,5.000000000000000000e+00,5.000000000000000000e+00,5.000000000000000000e+00,5.000000000000000000e+00,5.000000000000000000e+00,5.000000000000000000e+00,5.000000000000000000e+00,5.000000000000000000e+00,5.000000000000000000e+00,1.835759997367858887e+00,1.771681070327758789e+00,1.743447780609130859e+00,1.740391373634338379e+00,1.770371317863464355e+00,4.170810222625732422e+00,4.029562950134277344e+00,3.897569417953491211e+00,1.705602407455444336e+00,1.626647114753723145e+00,1.607525944709777832e+00,1.595767855644226074e+00,1.601663112640380859e+00,3.257371425628662109e+00,3.170573711395263672e+00,3.088281869888305664e+00,3.010153532028198242e+00,2.935880899429321289e+00,2.865185260772705078e+00,2.797814130783081055e+00,2.733538627624511719e+00,2.672149896621704102e+00,2.613457918167114258e+00,2.557289123535156250e+00,2.503483533859252930e+00,2.451895475387573242e+00,2.402390480041503906e+00,2.354845285415649414e+00,2.309145212173461914e+00,2.265185594558715820e+00,2.222867965698242188e+00,2.182102680206298828e+00,2.142805576324462891e+00,2.104898929595947266e+00,2.068310022354125977e+00,2.032971620559692383e+00,1.998820304870605469e+00,1.965797424316406250e+00,1.933848023414611816e+00,1.902920484542846680e+00,1.872966527938842773e+00,1.843941092491149902e+00
5.000000000000000000e+00,5.000000000000000000e+00,5.000000000000000000e+00,5.000000000000000000e+00,5.000000000000000000e+00,5.000000000000000000e+00,5.000000000000000000e+00,5.000000000000000000e+00,5.000000000000000000e+00,5.000000000000000000e+00,5.000000000000000000e+00,5.000000000000000000e+00,5.000000000000000000e+00,5.000000000000000000e+00,5.000000000000000000e+00,5.000000000000000000e+00,5.000000000000000000e+00,5.000000000000000000e+00,5.000000000000000000e+00,5.000000000000000000e+00,5.000000000000000000e+00,5.000000000000000000e+00,5.000000000000000000e+00,5.000000000000000000e+00,5.000000000000000000e+00,5.000000000000000000e+00,5.000000000000000000e+00,5.000000000000000000e+00,5.000000000000000000e+00,5.000000000000000000e+00,5.000000000000000000e+00,5.000000000000000000e+00,5.000000000000000000e+00,5.000000000000000000e+00,5.000000000000000000e+00,5.000000000000000000e+00,5.000000000000000000e+00,5.000000000000000000e+00,5.000000000000000000e+00,1.782045364379882812e+00,1.751203656196594238e+00,1.745236039161682129e+00,1.777467131614685059e+00,4.170912265777587891e+00,4.029658317565917969e+00,3.897658109664916992e+00,3.774031877517700195e+00,1.631314158439636230e+00,1.611893177032470703e+00,1.602446556091308594e+00,1.607902407646179199e+00,3.257433652877807617e+00,3.170632600784301758e+00,3.088337898254394531e+00,3.010206937789916992e+00,2.935931444168090820e+00,2.865233421325683594e+00,2.797860145568847656e+00,2.733582496643066406e+00,2.672191858291625977e+00,2.613497972488403320e+00,2.557327270507812500e+00,2.503520250320434570e+00,2.451930761337280273e+00,2.402424335479736328e+00,2.354877948760986328e+00,2.309176445007324219e+00,2.265215635299682617e+00,2.222897052764892578e+00,2.182130575180053711e+00,2.142832517623901367e+00,2.104924917221069336e+00,2.068335056304931641e+00,2.032995700836181641e+00,1.998843550682067871e+00,1.965820074081420898e+00,1.933869838714599609e+00,1.902941584587097168e+00,1.872987270355224609e+00,1.843961119651794434e+00
5.000000000000000000e+00,5.000000000000000000e+00,5.000000000000000000e+00,5.000000000000000000e+00,5.000000000000000000e+00,5.000000000000000000e+00,5.000000000000000000e+00,5.000000000000000000e+00,5.000000000000000000e+00,5.000000000000000000e+00,5.000000000000000000e+00,5.000000000000000000e+00,5.000000000000000000e+00,5.000000000000000000e+00,5.000000000000000000e+00,5.000000000000000000e+00,5.000000000000000000e+00,5.000000000000000000e+00,5.000000000000000000e+00,5.000000000000000000e+00,5.000000000000000000e+00,5.000000000000000000e+00,5.000000000000000000e+00,5.000000000000000000e+00,5.000000000000000000e+00,5.000000000000000000e+00,5.000000000000000000e+00,5.000000000000000000e+00,5.000000000000000000e+00,5.000000000000000000e+00,5.000000000000000000e+00,5.000000000000000000e+00,5.000000000000000000e+00,5.000000000000000000e+00,5.000000000000000000e+00,5.000000000000000000e+00,5.000000000000000000e+00,5.000000000000000000e+00,5.000000000000000000e+00,1.792644381523132324e+00,1.759028673171997070e+00,1.754596233367919922e+00,1.784620404243469238e+00,4.171014308929443359e+00,4.029753208160400391e+00,3.897747278213500977e+00,3.774115562438964844e+00,1.639028787612915039e+00,1.616751790046691895e+00,1.610933899879455566e+00,1.616447806358337402e+00,3.257495641708374023e+00,3.170691728591918945e+00,3.088393688201904297e+00,3.010260105133056641e+00,2.935982227325439453e+00,2.865281581878662109e+00,2.797906160354614258e+00,2.733626365661621094e+00,2.672233819961547852e+00,2.613538265228271484e+00,2.557365655899047852e+00,2.503556966781616211e+00,2.451966047286987305e+00,2.402458429336547852e+00,2.354910373687744141e+00,2.309207916259765625e+00,2.265245676040649414e+00,2.222925901412963867e+00,2.182158708572387695e+00,2.142859458923339844e+00,2.104950904846191406e+00,2.068360090255737305e+00,2.033020019531250000e+00,1.998867154121398926e+00,1.965842843055725098e+00,1.933891892433166504e+00,1.902962923049926758e+00,1.873007774353027344e+00,1.843981027603149414e+00
5.000000000000000000e+00,5.000000000000000000e+00,5.000000000000000000e+00,5.000000000000000000e+00,5.000000000000000000e+00,5.000000000000000000e+00,5.000000000000000000e+00,5.000000000000000000e+00,5.000000000000000000e+00,5.000000000000000000e+00,5.000000000000000000e+00,5.000000000000000000e+00,5.000000000000000000e+00,5.000000000000000000e+00,5.000000000000000000e+00,5.000000000000000000e+00,5.000000000000000000e+00,5.000000000000000000e+00,5.000000000000000000e+00,5.000000000000000000e+00,5.000000000000000000e+00,5.000000000000000000e+00,5.000000000000000000e+00,5.000000000000000000e+00,5.000000000000000000e+00,5.000000000000000000e+00,5.000000000000000000e+00,5.000000000000000000e+00,5.000000000000000000e+00,5.000000000000000000e+00,5.000000000000000000e+00,5.000000000000000000e+00,5.000000000000000000e+00,5.000000000000000000e+00,5.000000000000000000e+00,5.000000000000000000e+00,5.000000000000000000e+00,5.000000000000000000e+00,1.853492140769958496e+00,1.802880883216857910e+00,1.768485784530639648e+00,1.769132494926452637e+00,1.797604799270629883e+00,4.171116352081298828e+00,4.029848575592041016e+00,3.897836446762084961e+00,1.714718580245971680e+00,1.646689176559448242e+00,1.625404715538024902e+00,1.621165990829467773e+00,1.647444725036621094e+00,3.257557868957519531e+00,3.170750856399536133e+00,3.088449716567993164e+00,3.010313272476196289e+00,2.936032772064208984e+00,2.865329742431640625e+00,2.797952175140380859e+00,2.733670234680175781e+00,2.672275781631469727e+00,2.613578319549560547e+00,2.557404041290283203e+00,2.503593683242797852e+00,2.452001333236694336e+00,2.402492284774780273e+00,2.354943037033081055e+00,2.309239149093627930e+00,2.265275716781616211e+00,2.222954988479614258e+00,2.182186603546142578e+00,2.142886400222778320e+00,2.104976892471313477e+00,2.068385124206542969e+00,2.033044338226318359e+00,1.998890519142150879e+00,1.965865373611450195e+00,1.933913707733154297e+00,1.902984142303466797e+00,1.873028159141540527e+00,1.844001054763793945e+00
5.000000000000000000e+00,5.000000000000000000e+00,5.000000000000000000e+00,5.000000000000000000e+00,5.000000000000000000e+00,5.000000000000000000e+00,5.000000000000000000e+00,5.000000000000000000e+00,5.000000000000000000e+00,5.000000000000000000e+00,5.000000000000000000e+00,5.000000000000000000e+00,5.000000000000000000e+00,5.000000000000000000e+00,5.000000000000000000e+00,5.000000000000000000e+00,5.000000000000000000e+00,5.000000000000000000e+00,5.000000000000000000e+00,5.000000000000000000e+00,5.000000000000000000e+00,5.000000000000000000e+00,5.000000000000000000e+00,5.000000000000000000e+00,5.000000000000000000e+00,5.000000000000000000e+00,5.000000000000000000e+00,5.000000000000000000e+00,5.000000000000000000e+00,5.000000000000000000e+00,5.000000000000000000e+00,5.000000000000000000e+00,5.000000000000000000e+00,5.000000000000000000e+00,5.000000000000000000e+00,5.000000000000000000e+00,5.000000000000000000e+00,1.906208634376525879e+00,1.849591016769409180e+00,1.810146093368530273e+00,1.783711075782775879e+00,1.796314120292663574e+00,4.322758197784423828e+00,4.171218872070312500e+00,4.029943943023681641e+00,3.897925615310668945e+00,1.692726373672485352e+00,1.649899125099182129e+00,1.636197686195373535e+00,1.631902456283569336e+00,1.665346264839172363e+00,3.257620096206665039e+00,3.170809507369995117e+00,3.088505744934082031e+00,3.010366439819335938e+00,2.936083316802978516e+00,2.865377902984619141e+00,2.797997951507568359e+00,2.733714103698730469e+00,2.672317743301391602e+00,2.613618373870849609e+00,2.557442426681518555e+00,2.503630399703979492e+00,2.452036619186401367e+00,2.402526140213012695e+00,2.354975461959838867e+00,2.309270381927490234e+00,2.265305757522583008e+00,2.222983837127685547e+00,2.182214498519897461e+00,2.142913341522216797e+00,2.105002880096435547e+00,2.068410396575927734e+00,2.033068418502807617e+00,1.998914122581481934e+00,1.965888261795043945e+00,1.933935761451721191e+00,1.903005480766296387e+00,1.873048901557922363e+00,1.844020962715148926e+00
5.000000000000000000e+00,5.000000000000000000e+00,5.000000000000000000e+00,5.000000000000000000e+00,5.000000000000000000e+00,5.000000000000000000e+00,5.000000000000000000e+00,5.000000000000000000e+00,5.000000000000000000e+00,5.000000000000000000e+00,5.000000000000000000e+00,5.000000000000000000e+00,5.000000000000000000e+00,5.000000000000000000e+00,5.000000000000000000e+00,5.000000000000000000e+00,5.000000000000000000e+00,5.000000000000000000e+00,5.000000000000000000e+00,5.000000000000000000e+00,5.000000000000000000e+00,5.000000000000000000e+00,5.000000000000000000e+00,5.000000000000000000e+00,5.000000000000000000e+00,5.000000000000000000e+00,5.000000000000000000e+00,5.000000000000000000e+00,5.000000000000000000e+00,5.000000000000000000e+00,5.000000000000000000e+00,5.000000000000000000e+00,5.000000000000000000e+00,5.000000000000000000e+00,5.000000000000000000e+00,5.000000000000000000e+00,5.000000000000000000e+00,1.902273416519165039e+00,1.864934802055358887e+00,1.844187140464782715e+00,1.825386643409729004e+00,4.485841751098632812e+00,4.322867870330810547e+00,4.171320915222167969e+00,4.030039310455322266e+00,3.898015022277832031e+00,1.683940768241882324e+00,1.649762272834777832e+00,1.638618826866149902e+00,1.635797739028930664e+00,3.349383831024169922e+00,3.257682561874389648e+00,3.170868396759033203e+00,3.088561773300170898e+00,3.010419607162475586e+00,2.936134099960327148e+00,2.865426063537597656e+00,2.798043727874755859e+00,2.733757972717285156e+00,2.672359466552734375e+00,2.613658428192138672e+00,2.557480812072753906e+00,2.503667354583740234e+00,2.452071666717529297e+00,2.402559995651245117e+00,2.355008125305175781e+00,2.309301853179931641e+00,2.265336036682128906e+00,2.223012924194335938e+00,2.182242393493652344e+00,2.142940282821655273e+00,2.105028867721557617e+00,2.068435430526733398e+00,2.033092737197875977e+00,1.998937368392944336e+00,1.965910792350769043e+00,1.933957695960998535e+00,1.903026580810546875e+00,1.873069405555725098e+00,1.844040751457214355e+00
5.000000000000000000e+00,5.000000000000000000e+00,5.000000000000000000e+00,5.000000000000000000e+00,5.000000000000000000e+00,5.000000000000000000e+00,5.000000000000000000e+00,5.000000000000000000e+00,5.000000000000000000e+00,5.000000000000000000e+00,5.000000000000000000e+00,5.000000000000000000e+00,5.000000000000000000e+00,5.000000000000000000e+00,5.000000000000000000e+00,5.000000000000000000e+00,5.000000000000000000e+00,5.000000000000000000e+00,5.000000000000000000e+00,5.000000000000000000e+00,5.000000000000000000e+00,5.000000000000000000e+00,5.000000000000000000e+00,5.000000000000000000e+00,5.000000000000000000e+00,5.000000000000000000e+00,5.000000000000000000e+00,5.000000000000000000e+00,5.000000000000000000e+00,5.000000000000000000e+00,5.000000000000000000e+00,5.000000000000000000e+00,5.000000000000000000e+00,5.000000000000000000e+00,5.000000000000000000e+00,5.000000000000000000e+00,5.000000000000000000e+00,1.922265291213989258e+00,1.893005132675170898e+00,1.880214452743530273e+00,4.661713123321533203e+00,4.485960006713867188e+00,4.322977542877197266e+00,4.171422958374023438e+00,4.030134677886962891e+00,3.898104190826416016e+00,1.689406156539916992e+00,1.648666620254516602e+00,1.637800216674804688e+00,1.635296821594238281e+00,3.349449634552001953e+00,3.257744789123535156e+00,3.170927524566650391e+00,3.088617801666259766e+00,3.010472774505615234e+00,2.936184644699096680e+00,2.865474224090576172e+00,2.798089742660522461e+00,2.733801603317260742e+00,2.672401428222656250e+00,2.613698720932006836e+00,2.557519197463989258e+00,2.503704071044921875e+00,2.452107191085815430e+00,2.402593851089477539e+00,2.355040550231933594e+00,2.309333086013793945e+00,2.265366077423095703e+00,2.223042011260986328e+00,2.182270526885986328e+00,2.142967462539672852e+00,2.105054855346679688e+00,2.068460464477539062e+00,2.033117055892944336e+00,1.998960733413696289e+00,1.965933561325073242e+00,1.933979749679565430e+00,1.903048038482666016e+00,1.873090147972106934e+00,1.844060778617858887e+00
5.000000000000000000e+00,5.000000000000000000e+00,5.000000000000000000e+00,5.000000000000000000e+00,5.000000000000000000e+00,5.000000000000000000e+00,5.000000000000000000e+00,5.000000000000000000e+00,5.000000000000000000e+00,5.000000000000000000e+00,5.000000000000000000e+00,5.000000000000000000e+00,5.000000000000000000e+00,5.000000000000000000e+00,5.000000000000000000e+00,5.000000000000000000e+00,5.000000000000000000e+00,5.000000000000000000e+00,5.000000000000000000e+00,5.000000000000000000e+00,5.000000000000000000e+00,5.000000000000000000e+00,5.000000000000000000e+00,5.000000000000000000e+00,5.000000000000000000e+00,5.000000000000000000e+00,5.000000000000000000e+00,5.000000000000000000e+00,5.000000000000000000e+00,5.000000000000000000e+00,5.000000000000000000e+00,5.000000000000000000e+00,5.000000000000000000e+00,5.000000000000000000e+00,5.000000000000000000e+00,5.000000000000000000e+00,1.998981118202209473e+00,1.942918300628662109e+00,1.917720079421997070e+00,1.935398817062377930e+00,4.661840438842773438e+00,4.486078262329101562e+00,4.323087215423583984e+00,4.171525001525878906e+00,4.030230045318603516e+00,3.898193359375000000e+00,1.694925785064697266e+00,1.648002862930297852e+00,1.636508941650390625e+00,1.634796142578125000e+00,3.349515438079833984e+00,3.257807016372680664e+00,3.170986652374267578e+00,3.088673591613769531e+00,3.010525941848754883e+00,2.936235189437866211e+00,2.865522623062133789e+00,2.798135757446289062e+00,2.733845472335815430e+00,2.672443389892578125e+00,2.613738775253295898e+00,2.557557582855224609e+00,2.503740787506103516e+00,2.452142477035522461e+00,2.402627706527709961e+00,2.355073213577270508e+00,2.309364318847656250e+00,2.265396356582641602e+00,2.223070859909057617e+00,2.182298183441162109e+00,2.142994403839111328e+00,2.105081081390380859e+00,2.068485736846923828e+00,2.033141374588012695e+00,1.998984336853027344e+00,1.965956211090087891e+00,1.934001564979553223e+00,1.903069138526916504e+00,1.873110651969909668e+00,1.844080686569213867e+00
5.000000000000000000e+00,5.000000000000000000e+00,5.000000000000000000e+00,5.000000000000000000e+00,5.000000000000000000e+00,5.000000000000000000e+00,5.000000000000000000e+00,5.000000000000000000e+00,5.000000000000000000e+00,5.000000000000000000e+00,5.000000000000000000e+00,5.000000000000000000e+00,5.000000000000000000e+00,5.000000000000000000e+00,5.000000000000000000e+00,5.000000000000000000e+00,5.000000000000000000e+00,5.000000000000000000e+00,5.000000000000000000e+00,5.000000000000000000e+00,5.000000000000000000e+00,5.000000000000000000e+00,5.000000000000000000e+00,5.000000000000000000e+00,5.000000000000000000e+00,5.000000000000000000e+00,5.000000000000000000e+00,5.000000000000000000e+00,5.000000000000000000e+00,5.000000000000000000e+00,5.000000000000000000e+00,5.000000000000000000e+00,5.000000000000000000e+00,5.000000000000000000e+00,5.000000000000000000e+00,5.000000000000000000e+00,2.004259109497070312e+00,1.964483618736267090e+00,1.943088531494140625e+00,1.996065735816955566e+00,4.661966800689697266e+00,4.486196041107177734e+00,4.323196887969970703e+00,4.171627044677734375e+00,4.030325412750244141e+00,3.898282527923583984e+00,1.700591564178466797e+00,1.647339582443237305e+00,1.635219454765319824e+00,1.634140849113464355e+00,3.349581480026245117e+00,3.257869482040405273e+00,3.171045541763305664e+00,3.088729619979858398e+00,3.010579347610473633e+00,2.936285734176635742e+00,2.865570783615112305e+00,2.798181772232055664e+00,2.733889341354370117e+00,2.672485113143920898e+00,2.613778829574584961e+00,2.557595968246459961e+00,2.503777742385864258e+00,2.452177762985229492e+00,2.402661561965942383e+00,2.355105876922607422e+00,2.309395790100097656e+00,2.265426397323608398e+00,2.223099946975708008e+00,2.182326316833496094e+00,2.143021345138549805e+00,2.105107069015502930e+00,2.068510770797729492e+00,2.033165454864501953e+00,1.999007701873779297e+00,1.965978741645812988e+00,1.934023618698120117e+00,1.903090596199035645e+00,1.873131275177001953e+00,1.844100713729858398e+00
5.000000000000000000e+00,5.000000000000000000e+00,5.000000000000000000e+00,5.000000000000000000e+00,5.000000000000000000e+00,5.000000000000000000e+00,5.000000000000000000e+00,5.000000000000000000e+00,5.000000000000000000e+00,5.000000000000000000e+00,5.000000000000000000e+00,5.000000000000000000e+00,5.000000000000000000e+00,5.000000000000000000e+00,5.000000000000000000e+00,5.000000000000000000e+00,5.000000000000000000e+00,5.000000000000000000e+00,5.000000000000000000e+00,5.000000000000000000e+00,5.000000000000000000e+00,5.000000000000000000e+00,5.000000000000000000e+00,5.000000000000000000e+00,5.000000000000000000e+00,5.000000000000000000e+00,5.000000000000000000e+00,5.000000000000000000e+00,5.000000000000000000e+00,5.000000000000000000e+00,5.000000000000000000e+00,5.000000000000000000e+00,5.000000000000000000e+00,5.000000000000000000e+00,5.000000000000000000e+00,5.000000000000000000e+00,2.029419422149658203e+00,1.989513993263244629e+00,1.984529733657836914e+00,4.852211952209472656e+00,4.662094116210937500e+00,4.486313343048095703e+00,4.323306560516357422e+00,4.171729087829589844e+00,4.030420780181884766e+00,3.898371696472167969e+00,1.706295490264892578e+00,1.647235751152038574e+00,1.634034872055053711e+00,1.632855296134948730e+00,3.349647283554077148e+00,3.257931709289550781e+00,3.171104669570922852e+00,3.088785648345947266e+00,3.010632276535034180e+00,2.936336517333984375e+00,2.865618944168090820e+00,2.798227787017822266e+00,2.733933210372924805e+00,2.672527074813842773e+00,2.613818883895874023e+00,2.557634353637695312e+00,2.503814458847045898e+00,2.452213048934936523e+00,2.402695417404174805e+00,2.355138301849365234e+00,2.309427022933959961e+00,2.265456438064575195e+00,2.223129034042358398e+00,2.182354211807250977e+00,2.143048048019409180e+00,2.105133056640625000e+00,2.068536043167114258e+00,2.033189773559570312e+00,1.999031305313110352e+00,1.966001510620117188e+00,1.934045433998107910e+00,1.903111696243286133e+00,1.873151779174804688e+00,1.844120621681213379e+00
5.000000000000000000e+00,5.000000000000000000e+00,5.000000000000000000e+00,5.000000000000000000e+00,5.000000000000000000e+00,5.000000000000000000e+00,5.000000000000000000e+00,5.000000000000000000e+00,5.000000000000000000e+00,5.000000000000000000e+00,5.000000000000000000e+00,5.000000000000000000e+00,5.000000000000000000e+00,5.000000000000000000e+00,5.000000000000000000e+00,5.000000000000000000e+00,5.000000000000000000e+00,5.000000000000000000e+00,5.000000000000000000e+00,5.000000000000000000e+00,5.000000000000000000e+00,5.000000000000000000e+00,5.000000000000000000e+00,5.000000000000000000e+00,5.000000000000000000e+00,5.000000000000000000e+00,5.000000000000000000e+00,5.000000000000000000e+00,5.000000000000000000e+00,5.000000000000000000e+00,5.000000000000000000e+00,5.000000000000000000e+00,5.000000000000000000e+00,5.000000000000000000e+00,5.000000000000000000e+00,5.000000000000000000e+00,2.055575609207153320e+00,2.027343034744262695e+00,2.062803983688354492e+00,4.852350234985351562e+00,4.662221908569335938e+00,4.486431121826171875e+00,4.323415279388427734e+00,4.171831607818603516e+00,4.030516147613525391e+00,3.898461103439331055e+00,1.717445373535156250e+00,1.649006485939025879e+00,1.633592724800109863e+00,1.632380485534667969e+00,3.349713087081909180e+00,3.257993936538696289e+00,3.171163797378540039e+00,3.088841438293457031e+00,3.010685443878173828e+00,2.936387062072753906e+00,2.865667104721069336e+00,2.798273563385009766e+00,2.733977079391479492e+00,2.672569036483764648e+00,2.613858938217163086e+00,2.557672977447509766e+00,2.503851413726806641e+00,2.452248334884643555e+00,2.402729272842407227e+00,2.355170726776123047e+00,2.309458255767822266e+00,2.265486717224121094e+00,2.223157882690429688e+00,2.182382106781005859e+00,2.143074989318847656e+00,2.105159044265747070e+00,2.068561077117919922e+00,2.033214092254638672e+00,1.999054551124572754e+00,1.966024160385131836e+00,1.934067606925964355e+00,1.903133034706115723e+00,1.873172521591186523e+00,1.844140648841857910e+00
5.000000000000000000e+00,5.000000000000000000e+00,5.000000000000000000e+00,5.000000000000000000e+00,5.000000000000000000e+00,5.000000000000000000e+00,5.000000000000000000e+00,5.000000000000000000e+00,5.000000000000000000e+00,5.000000000000000000e+00,5.000000000000000000e+00,5.000000000000000000e+00,5.000000000000000000e+00,5.000000000000000000e+00,5.000000000000000000e+00,5.000000000000000000e+00,5.000000000000000000e+00,5.000000000000000000e+00,5.000000000000000000e+00,5.000000000000000000e+00,5.000000000000000000e+00,5.000000000000000000e+00,5.000000000000000000e+00,5.000000000000000000e+00,5.000000000000000000e+00,5.000000000000000000e+00,5.000000000000000000e+00,5.000000000000000000e+00,5.000000000000000000e+00,5.000000000000000000e+00,5.000000000000000000e+00,5.000000000000000000e+00,5.000000000000000000e+00,5.000000000000000000e+00,5.000000000000000000e+00,2.179944276809692383e+00,2.098661422729492188e+00,2.066638708114624023e+00,5.000000000000000000e+00,4.852488040924072266e+00,4.662349224090576172e+00,4.486549377441406250e+00,4.323524951934814453e+00,4.171933650970458984e+00,4.030611038208007812e+00,3.898550271987915039e+00,3.774868011474609375e+00,1.650780797004699707e+00,1.633150696754455566e+00,1.631939053535461426e+00,3.349779129028320312e+00,3.258056402206420898e+00,3.171222686767578125e+00,3.088897466659545898e+00,3.010738611221313477e+00,2.936437368392944336e+00,2.865715265274047852e+00,2.798319578170776367e+00,2.734020948410034180e+00,2.672610998153686523e+00,2.613898992538452148e+00,2.557711362838745117e+00,2.503888130187988281e+00,2.452283620834350586e+00,2.402763128280639648e+00,2.355203390121459961e+00,2.309489727020263672e+00,2.265516757965087891e+00,2.223186969757080078e+00,2.182410001754760742e+00,2.143101930618286133e+00,2.105185031890869141e+00,2.068586111068725586e+00,2.033238410949707031e+00,1.999078154563903809e+00,1.966046929359436035e+00,1.934089422225952148e+00,1.903154253959655762e+00,1.873193025588989258e+00,1.844160556793212891e+00
4.875570774078369141e+00,4.874360084533691406e+00,4.873150348663330078e+00,4.871941089630126953e+00,4.870732307434082031e+00,4.869524478912353516e+00,4.868317127227783203e+00,4.867109775543212891e+00,4.865903854370117188e+00,4.864697933197021484e+00,4.863492965698242188e+00,4.862288475036621094e+00,4.861084461212158203e+00,4.859881401062011719e+00,4.858678817749023438e+00,4.857476234436035156e+00,4.856275081634521484e+00,4.855073928833007812e+00,4.853873729705810547e+00,4.852674484252929688e+00,4.851475238800048828e+00,4.850276947021484375e+00,4.849079132080078125e+00,4.847881317138671875e+00,4.846684455871582031e+00,4.845488548278808594e+00,4.844293117523193359e+00,4.843098163604736328e+00,4.841903686523437500e+00,4.840709686279296875e+00,4.839516639709472656e+00,4.838323593139648438e+00,4.837131500244140625e+00,4.835940361022949219e+00,4.834749221801757812e+00,2.157048225402832031e+00,2.111798048019409180e+00,2.118954896926879883e+00,4.829991340637207031e+00,4.828803539276123047e+00,4.662476539611816406e+00,4.486667156219482422e+00,4.323634147644042969e+00,4.172034740447998047e+00,4.030706405639648438e+00,3.898639440536499023e+00,3.774951696395874023e+00,1.652464032173156738e+00,1.633396863937377930e+00,1.635019898414611816e+00,3.349844455718994141e+00,3.258118629455566406e+00,3.171281814575195312e+00,3.088953495025634766e+00,3.010791778564453125e+00,2.936488151550292969e+00,2.865763664245605469e+00,2.798365592956542969e+00,2.734064817428588867e+00,2.672652959823608398e+00,2.613939046859741211e+00,2.557749748229980469e+00,2.503924846649169922e+00,2.452318906784057617e+00,2.402796983718872070e+00,2.355235815048217773e+00,2.309520721435546875e+00,2.265546798706054688e+00,2.223216056823730469e+00,2.182438135147094727e+00,2.143129110336303711e+00,2.105211019515991211e+00,2.068611383438110352e+00,2.033262729644775391e+00,1.999101519584655762e+00,1.966069579124450684e+00,1.934111237525939941e+00,1.903175592422485352e+00,1.873213768005371094e+00,1.844180583953857422e+00
3.778408765792846680e+00,3.777681827545166016e+00,3.776955127716064453e+00,3.776228666305541992e+00,3.775502204895019531e+00,3.774776220321655273e+00,3.774050712585449219e+00,3.773325443267822266e+00,3.772600412368774414e+00,3.771875619888305664e+00,3.771151065826416016e+00,3.770426988601684570e+00,3.769702911376953125e+00,3.768979310989379883e+00,3.768255949020385742e+00,3.767532825469970703e+00,3.766810178756713867e+00,3.766087532043457031e+00,3.765365362167358398e+00,3.764642953872680664e+00,3.763921260833740234e+00,3.763199806213378906e+00,3.762478590011596680e+00,3.761757850646972656e+00,3.761037111282348633e+00,3.760316848754882812e+00,3.759596824645996094e+00,3.758877038955688477e+00,3.758157491683959961e+00,3.757438421249389648e+00,3.756719350814819336e+00,3.756000757217407227e+00,3.755282402038574219e+00,3.754564285278320312e+00,3.753845930099487305e+00,3.753128290176391602e+00,2.108632087707519531e+00,2.109710454940795898e+00,3.750977277755737305e+00,3.750260829925537109e+00,3.749544620513916016e+00,3.748828649520874023e+00,3.748113155364990234e+00,3.747397661209106445e+00,3.746682643890380859e+00,3.745967864990234375e+00,3.745253324508666992e+00,1.654092907905578613e+00,1.634074926376342773e+00,1.642997860908508301e+00,3.349910497665405273e+00,3.258181095123291016e+00,3.171340942382812500e+00,3.089009523391723633e+00,3.010845184326171875e+00,2.936538696289062500e+00,2.865811824798583984e+00,2.798411607742309570e+00,2.734108686447143555e+00,2.672694921493530273e+00,2.613979101181030273e+00,2.557787895202636719e+00,2.503961801528930664e+00,2.452354192733764648e+00,2.402831077575683594e+00,2.355268478393554688e+00,2.309552192687988281e+00,2.265576839447021484e+00,2.223245143890380859e+00,2.182466030120849609e+00,2.143156051635742188e+00,2.105237007141113281e+00,2.068636417388916016e+00,2.033286809921264648e+00,1.999125123023986816e+00,1.966092348098754883e+00,1.934133291244506836e+00,1.903196811676025391e+00,1.873234152793884277e+00,1.844200491905212402e+00
3.084333419799804688e+00,3.083848953247070312e+00,3.083364725112915039e+00,3.082880496978759766e+00,3.082396507263183594e+00,3.081912755966186523e+00,3.081429004669189453e+00,3.080945253372192383e+00,3.080461740493774414e+00,3.079978704452514648e+00,3.079495429992675781e+00,3.079012632369995117e+00,3.078529834747314453e+00,3.078047275543212891e+00,3.077564716339111328e+00,3.077082395553588867e+00,3.076600074768066406e+00,3.076118230819702148e+00,3.075636386871337891e+00,3.075154542922973633e+00,3.074672937393188477e+00,3.074191570281982422e+00,3.073710203170776367e+00,3.073228836059570312e+00,3.072747945785522461e+00,3.072267055511474609e+00,3.071786403656005859e+00,3.071305990219116211e+00,3.070825576782226562e+00,3.070345401763916016e+00,3.069865226745605469e+00,3.069385290145874023e+00,3.068905591964721680e+00,3.068425893783569336e+00,3.067946434020996094e+00,3.067467212677001953e+00,2.101461172103881836e+00,2.103502750396728516e+00,3.066029787063598633e+00,3.065551280975341797e+00,3.065072774887084961e+00,3.064594268798828125e+00,3.064116001129150391e+00,3.063637971878051758e+00,3.063159942626953125e+00,3.062682151794433594e+00,3.062204360961914062e+00,1.668265342712402344e+00,1.650392413139343262e+00,3.060772418975830078e+00,3.060295343399047852e+00,3.059818267822265625e+00,3.059341430664062500e+00,3.058864831924438477e+00,3.010898351669311523e+00,2.936589241027832031e+00,2.865859746932983398e+00,2.798457622528076172e+00,2.734152555465698242e+00,2.672736644744873047e+00,2.614019393920898438e+00,2.557826280593872070e+00,2.503998517990112305e+00,2.452389478683471680e+00,2.402864933013916016e+00,2.355300903320312500e+00,2.309583425521850586e+00,2.265606880187988281e+00,2.223273992538452148e+00,2.182493925094604492e+00,2.143182992935180664e+00,2.105262994766235352e+00,2.068661451339721680e+00,2.033311128616333008e+00,1.999148488044738770e+00,1.966114878654479980e+00,1.934155225753784180e+00,1.903217911720275879e+00,1.873254895210266113e+00,1.844220519065856934e+00
2.605682134628295898e+00,2.605336427688598633e+00,2.604990720748901367e+00,2.604645252227783203e+00,2.604299545288085938e+00,2.603954315185546875e+00,2.603608846664428711e+00,2.603263616561889648e+00,2.602918624877929688e+00,2.602573633193969727e+00,2.602228641510009766e+00,2.601883649826049805e+00,2.601538896560668945e+00,2.601194143295288086e+00,2.600849628448486328e+00,2.600505113601684570e+00,2.600160837173461914e+00,2.599816322326660156e+00,2.599472284317016602e+00,2.599128007888793945e+00,2.598783969879150391e+00,2.598440170288085938e+00,2.598096370697021484e+00,2.597752571105957031e+00,2.597408771514892578e+00,2.597065210342407227e+00,2.596721887588500977e+00,2.596378326416015625e+00,2.596035003662109375e+00,2.595691680908203125e+00,2.595348596572875977e+00,2.595005512237548828e+00,2.594662666320800781e+00,2.594319820404052734e+00,2.593976974487304688e+00,2.593634366989135742e+00,2.097685337066650391e+00,2.092331409454345703e+00,2.592607021331787109e+00,2.592264652252197266e+00,2.591922521591186523e+00,2.591580390930175781e+00,2.591238021850585938e+00,2.590896129608154297e+00,2.590554237365722656e+00,2.590212583541870117e+00,2.589870929718017578e+00,1.661572933197021484e+00,1.639338493347167969e+00,2.588846445083618164e+00,2.588505029678344727e+00,2.588163852691650391e+00,2.587822675704956055e+00,2.587481737136840820e+00,2.587140798568725586e+00,2.586799860000610352e+00,2.586459159851074219e+00,2.586118221282958984e+00,2.585777759552001953e+00,2.585437297821044922e+00,2.585096836090087891e+00,2.557864665985107422e+00,2.504035234451293945e+00,2.452424764633178711e+00,2.402898788452148438e+00,2.355333566665649414e+00,2.309614658355712891e+00,2.265637159347534180e+00,2.223303079605102539e+00,2.182522058486938477e+00,2.143209934234619141e+00,2.105288982391357422e+00,2.068686485290527344e+00,2.033335447311401367e+00,1.999172091484069824e+00,1.966137766838073730e+00,1.934177279472351074e+00,1.903239250183105469e+00,1.873275399208068848e+00,1.844240427017211914e+00
2.255641937255859375e+00,2.255382537841796875e+00,2.255123138427734375e+00,2.254863977432250977e+00,2.254604816436767578e+00,2.254345655441284180e+00,2.254086494445800781e+00,2.253827333450317383e+00,2.253568410873413086e+00,2.253309488296508789e+00,2.253050327301025391e+00,2.252791643142700195e+00,2.252532958984375000e+00,2.252274274826049805e+00,2.252015590667724609e+00,2.251756906509399414e+00,2.251498460769653320e+00,2.251240015029907227e+00,2.250981569290161133e+00,2.250723361968994141e+00,2.250464916229248047e+00,2.250206708908081055e+00,2.249948501586914062e+00,2.249690532684326172e+00,2.249432563781738281e+00,2.249174833297729492e+00,2.248917341232299805e+00,2.248659610748291016e+00,2.248402118682861328e+00,2.248144865036010742e+00,2.247887372970581055e+00,2.247629880905151367e+00,2.247372627258300781e+00,2.247115373611450195e+00,2.246858358383178711e+00,2.246601104736328125e+00,2.246344089508056641e+00,2.246087074279785156e+00,2.080240964889526367e+00,2.245573282241821289e+00,2.245316505432128906e+00,2.245059728622436523e+00,2.244803190231323242e+00,2.244546413421630859e+00,2.244289875030517578e+00,2.244033336639404297e+00,2.243776798248291016e+00,1.653015732765197754e+00,1.617533206939697266e+00,1.612675189971923828e+00,2.242751598358154297e+00,2.242495536804199219e+00,2.242239475250244141e+00,2.241983413696289062e+00,2.241727352142333984e+00,2.241471529006958008e+00,2.241215467453002930e+00,2.240959644317626953e+00,2.240704059600830078e+00,2.240448236465454102e+00,2.240192651748657227e+00,2.239937067031860352e+00,2.239681482315063477e+00,2.239425897598266602e+00,2.239170551300048828e+00,2.238915205001831055e+00,2.238659858703613281e+00,2.238404750823974609e+00,2.223332166671752930e+00,2.182549953460693359e+00,2.143236875534057617e+00,2.105314970016479492e+00,2.068711757659912109e+00,2.033359527587890625e+00,1.999195337295532227e+00,1.966160297393798828e+00,1.934199094772338867e+00,1.903260469436645508e+00,1.873295903205871582e+00,1.844260454177856445e+00
1.988523840904235840e+00,1.988322377204895020e+00,1.988120675086975098e+00,1.987919330596923828e+00,1.987717628479003906e+00,1.987516283988952637e+00,1.987314820289611816e+00,1.987113595008850098e+00,1.986912131309509277e+00,1.986710906028747559e+00,1.986509561538696289e+00,1.986308574676513672e+00,1.986107230186462402e+00,1.985906243324279785e+00,1.985705018043518066e+00,1.985504150390625000e+00,1.985303044319152832e+00,1.985101938247680664e+00,1.984901189804077148e+00,1.984700202941894531e+00,1.984499454498291016e+00,1.984298467636108398e+00,1.984097838401794434e+00,1.983896970748901367e+00,1.983696460723876953e+00,1.983495712280273438e+00,1.983295202255249023e+00,1.983094573020935059e+00,1.982894182205200195e+00,1.982693552970886230e+00,1.982493281364440918e+00,1.982292771339416504e+00,1.982092499732971191e+00,1.981892108917236328e+00,1.981691956520080566e+00,1.981491684913635254e+00,1.981291532516479492e+00,1.981091260910034180e+00,1.980891346931457520e+00,1.980691075325012207e+00,1.980491161346435547e+00,1.980291128158569336e+00,1.980090975761413574e+00,1.979891300201416016e+00,1.979691267013549805e+00,1.979491591453552246e+00,1.979291677474975586e+00,1.661816596984863281e+00,1.595969796180725098e+00,1.567140817642211914e+00,1.598803400993347168e+00,1.978293418884277344e+00,1.978093743324279785e+00,1.977894425392150879e+00,1.977694749832153320e+00,1.977495431900024414e+00,1.977295994758605957e+00,1.977096796035766602e+00,1.976897358894348145e+00,1.976698160171508789e+00,1.976498842239379883e+00,1.976299762725830078e+00,1.976100564002990723e+00,1.975901484489440918e+00,1.975702285766601562e+00,1.975503444671630859e+00,1.975304365158081055e+00,1.975105285644531250e+00,1.974906444549560547e+00,1.974707484245300293e+00,1.974508762359619141e+00,1.974309921264648438e+00,1.974111318588256836e+00,1.973912477493286133e+00,1.973713874816894531e+00,1.966183066368103027e+00,1.934221148490905762e+00,1.903281807899475098e+00,1.873316645622253418e+00,1.844280362129211426e+00
1.777972579002380371e+00,1.777811288833618164e+00,1.777650237083435059e+00,1.777489066123962402e+00,1.777328014373779297e+00,1.777166843414306641e+00,1.777005910873413086e+00,1.776844859123229980e+00,1.776683926582336426e+00,1.776522994041442871e+00,1.776362061500549316e+00,1.776201128959655762e+00,1.776040434837341309e+00,1.775879502296447754e+00,1.775718688964843750e+00,1.775557875633239746e+00,1.775397181510925293e+00,1.775236368179321289e+00,1.775075793266296387e+00,1.774915099143981934e+00,1.774754524230957031e+00,1.774593830108642578e+00,1.774433255195617676e+00,1.774272799491882324e+00,1.774112105369567871e+00,1.773951768875122070e+00,1.773791193962097168e+00,1.773630857467651367e+00,1.773470401763916016e+00,1.773310184478759766e+00,1.773149728775024414e+00,1.772989511489868164e+00,1.772829055786132812e+00,1.772668957710266113e+00,1.772508621215820312e+00,1.772348523139953613e+00,1.772188305854797363e+00,1.772028207778930664e+00,1.771867990493774414e+00,1.771708011627197266e+00,1.771547913551330566e+00,1.771387934684753418e+00,1.771227955818176270e+00,1.771067976951599121e+00,1.770907998085021973e+00,1.770748257637023926e+00,1.770588278770446777e+00,1.770428419113159180e+00,1.770268559455871582e+00,1.536353111267089844e+00,1.499919056892395020e+00,1.531929612159729004e+00,1.769629597663879395e+00,1.769469857215881348e+00,1.769310235977172852e+00,1.769150614738464355e+00,1.768991112709045410e+00,1.768831372261047363e+00,1.768671989440917969e+00,1.768512368202209473e+00,1.768352985382080078e+00,1.768193483352661133e+00,1.768034100532531738e+00,1.767874717712402344e+00,1.767715454101562500e+00,1.767555952072143555e+00,1.767396807670593262e+00,1.767237424850463867e+00,1.767078280448913574e+00,1.766919016838073730e+00,1.766759872436523438e+00,1.766600608825683594e+00,1.766441583633422852e+00,1.766282439231872559e+00,1.766123294830322266e+00,1.765964269638061523e+00,1.765805244445800781e+00,1.765646338462829590e+00,1.765487313270568848e+00,1.765328526496887207e+00
1.607739925384521484e+00,1.607608079910278320e+00,1.607476353645324707e+00,1.607344508171081543e+00,1.607212662696838379e+00,1.607081055641174316e+00,1.606949329376220703e+00,1.606817722320556641e+00,1.606685996055603027e+00,1.606554508209228516e+00,1.606422781944274902e+00,1.606291294097900391e+00,1.606159687042236328e+00,1.606028199195861816e+00,1.605896592140197754e+00,1.605765223503112793e+00,1.605633616447448730e+00,1.605502247810363770e+00,1.605370759963989258e+00,1.605239391326904297e+00,1.605108022689819336e+00,1.604976654052734375e+00,1.604845285415649414e+00,1.604714035987854004e+00,1.604582667350769043e+00,1.604451417922973633e+00,1.604320168495178223e+00,1.604188919067382812e+00,1.604057669639587402e+00,1.603926420211791992e+00,1.603795289993286133e+00,1.603664040565490723e+00,1.603533029556274414e+00,1.603401899337768555e+00,1.603270888328552246e+00,1.603139758110046387e+00,1.603008747100830078e+00,1.602877616882324219e+00,1.602746725082397461e+00,1.602615714073181152e+00,1.602484822273254395e+00,1.602353811264038086e+00,1.602222919464111328e+00,1.602092027664184570e+00,1.601961135864257812e+00,1.601830244064331055e+00,1.601699471473693848e+00,1.601568698883056641e+00,1.601437926292419434e+00,1.601307153701782227e+00,1.601176381111145020e+00,1.601045608520507812e+00,1.600915074348449707e+00,1.600784301757812500e+00,1.600653529167175293e+00,1.600522994995117188e+00,1.600392341613769531e+00,1.600261807441711426e+00,1.600131154060363770e+00,1.600000619888305664e+00,1.599869966506958008e+00,1.599739551544189453e+00,1.599609017372131348e+00,1.599478602409362793e+00,1.599348068237304688e+00,1.599217772483825684e+00,1.599087238311767578e+00,1.598956942558288574e+00,1.598826527595520020e+00,1.598696351051330566e+00,1.598565936088562012e+00,1.598435640335083008e+00,1.598305344581604004e+00,1.598175168037414551e+00,1.598044872283935547e+00,1.597914695739746094e+00,1.597784519195556641e+00,1.597654342651367188e+00,1.597524166107177734e+00,1.597394108772277832e+00
1.467256665229797363e+00,1.467146992683410645e+00,1.467037200927734375e+00,1.466927528381347656e+00,1.466817736625671387e+00,1.466708064079284668e+00,1.466598391532897949e+00,1.466488718986511230e+00,1.466379046440124512e+00,1.466269493103027344e+00,1.466159701347351074e+00,1.466050028800964355e+00,1.465940594673156738e+00,1.465830922126770020e+00,1.465721368789672852e+00,1.465611815452575684e+00,1.465502381324768066e+00,1.465392827987670898e+00,1.465283393859863281e+00,1.465173840522766113e+00,1.465064406394958496e+00,1.464954972267150879e+00,1.464845538139343262e+00,1.464736104011535645e+00,1.464626789093017578e+00,1.464517354965209961e+00,1.464408040046691895e+00,1.464298605918884277e+00,1.464189291000366211e+00,1.464079976081848145e+00,1.463970780372619629e+00,1.463861346244812012e+00,1.463752150535583496e+00,1.463642835617065430e+00,1.463533759117126465e+00,1.463424444198608398e+00,1.463315129280090332e+00,1.463206052780151367e+00,1.463096857070922852e+00,1.462987780570983887e+00,1.462878584861755371e+00,1.462769508361816406e+00,1.462660312652587891e+00,1.462551355361938477e+00,1.462442159652709961e+00,1.462333202362060547e+00,1.462224125862121582e+00,1.462115168571472168e+00,1.462006092071533203e+00,1.461897253990173340e+00,1.461788177490234375e+00,1.461679339408874512e+00,1.461570262908935547e+00,1.461461424827575684e+00,1.461352467536926270e+00,1.461243629455566406e+00,1.461134672164916992e+00,1.461025953292846680e+00,1.460916996002197266e+00,1.460808277130126953e+00,1.460699439048767090e+00,1.460590481758117676e+00,1.460481762886047363e+00,1.460373044013977051e+00,1.460264325141906738e+00,1.460155487060546875e+00,1.460046887397766113e+00,1.459938168525695801e+00,1.459829568862915039e+00,1.459720849990844727e+00,1.459612250328063965e+00,1.459503531455993652e+00,1.459394931793212891e+00,1.459286332130432129e+00,1.459177851676940918e+00,1.459069132804870605e+00,1.458960652351379395e+00,1.458852052688598633e+00,1.458743691444396973e+00,1.458635091781616211e+00
1.349351406097412109e+00,1.349258542060852051e+00,1.349165678024291992e+00,1.349072813987731934e+00,1.348980069160461426e+00,1.348887324333190918e+00,1.348794579505920410e+00,1.348701715469360352e+00,1.348609089851379395e+00,1.348516225814819336e+00,1.348423600196838379e+00,1.348330855369567871e+00,1.348238229751586914e+00,1.348145484924316406e+00,1.348052859306335449e+00,1.347960114479064941e+00,1.347867488861083984e+00,1.347774863243103027e+00,1.347682237625122070e+00,1.347589612007141113e+00,1.347496986389160156e+00,1.347404479980468750e+00,1.347311854362487793e+00,1.347219347953796387e+00,1.347126722335815430e+00,1.347034335136413574e+00,1.346941709518432617e+00,1.346849322319030762e+00,1.346756696701049805e+00,1.346664309501647949e+00,1.346571803092956543e+00,1.346479415893554688e+00,1.346386909484863281e+00,1.346294522285461426e+00,1.346202015876770020e+00,1.346109628677368164e+00,1.346017241477966309e+00,1.345924973487854004e+00,1.345832467079162598e+00,1.345740199089050293e+00,1.345647811889648438e+00,1.345555543899536133e+00,1.345463156700134277e+00,1.345370769500732422e+00,1.345278620719909668e+00,1.345186233520507812e+00,1.345093965530395508e+00,1.345001697540283203e+00,1.344909548759460449e+00,1.344817280769348145e+00,1.344725131988525391e+00,1.344632863998413086e+00,1.344540715217590332e+00,1.344448447227478027e+00,1.344356298446655273e+00,1.344264149665832520e+00,1.344172120094299316e+00,1.344079852104187012e+00,1.343987822532653809e+00,1.343895673751831055e+00,1.343803644180297852e+00,1.343711495399475098e+00,1.343619465827941895e+00,1.343527436256408691e+00,1.343435406684875488e+00,1.343343377113342285e+00,1.343251347541809082e+00,1.343159317970275879e+00,1.343067288398742676e+00,1.342975378036499023e+00,1.342883348464965820e+00,1.342791438102722168e+00,1.342699408531188965e+00,1.342607617378234863e+00,1.342515587806701660e+00,1.342423796653747559e+00,1.342331767082214355e+00,1.342239975929260254e+00,1.342148065567016602e+00,1.342056274414062500e+00
1.248985767364501953e+00,1.248906254768371582e+00,1.248826622962951660e+00,1.248747229576110840e+00,1.248667716979980469e+00,1.248588204383850098e+00,1.248508691787719727e+00,1.248429298400878906e+00,1.248349666595458984e+00,1.248270273208618164e+00,1.248190760612487793e+00,1.248111367225646973e+00,1.248031973838806152e+00,1.247952580451965332e+00,1.247873067855834961e+00,1.247793793678283691e+00,1.247714281082153320e+00,1.247635006904602051e+00,1.247555613517761230e+00,1.247476220130920410e+00,1.247396826744079590e+00,1.247317552566528320e+00,1.247238159179687500e+00,1.247158885002136230e+00,1.247079610824584961e+00,1.247000217437744141e+00,1.246920943260192871e+00,1.246841669082641602e+00,1.246762394905090332e+00,1.246683120727539062e+00,1.246603965759277344e+00,1.246524691581726074e+00,1.246445536613464355e+00,1.246366262435913086e+00,1.246287107467651367e+00,1.246207833290100098e+00,1.246128678321838379e+00,1.246049404144287109e+00,1.245970368385314941e+00,1.245891094207763672e+00,1.245812058448791504e+00,1.245732784271240234e+00,1.245653748512268066e+00,1.245574593544006348e+00,1.245495557785034180e+00,1.245416402816772461e+00,1.245337367057800293e+00,1.245258212089538574e+00,1.245179057121276855e+00,1.245100140571594238e+00,1.245020985603332520e+00,1.244942069053649902e+00,1.244862914085388184e+00,1.244783997535705566e+00,1.244704961776733398e+00,1.244625926017761230e+00,1.244546890258789062e+00,1.244467973709106445e+00,1.244389057159423828e+00,1.244310140609741211e+00,1.244231104850769043e+00,1.244152188301086426e+00,1.244073271751403809e+00,1.243994355201721191e+00,1.243915438652038574e+00,1.243836522102355957e+00,1.243757605552673340e+00,1.243678808212280273e+00,1.243599891662597656e+00,1.243521094322204590e+00,1.243442177772521973e+00,1.243363380432128906e+00,1.243284583091735840e+00,1.243205666542053223e+00,1.243126869201660156e+00,1.243048071861267090e+00,1.242969393730163574e+00,1.242890477180480957e+00,1.242811799049377441e+00,1.242733001708984375e+00
1.162517070770263672e+00,1.162448167800903320e+00,1.162379264831542969e+00,1.162310361862182617e+00,1.162241458892822266e+00,1.162172555923461914e+00,1.162103772163391113e+00,1.162034869194030762e+00,1.161966085433959961e+00,1.161897182464599609e+00,1.161828398704528809e+00,1.161759495735168457e+00,1.161690711975097656e+00,1.161621928215026855e+00,1.161553144454956055e+00,1.161484241485595703e+00,1.161415576934814453e+00,1.161346673965454102e+00,1.161278009414672852e+00,1.161209225654602051e+00,1.161140441894531250e+00,1.161071658134460449e+00,1.161002993583679199e+00,1.160934209823608398e+00,1.160865545272827148e+00,1.160796761512756348e+00,1.160728096961975098e+00,1.160659313201904297e+00,1.160590767860412598e+00,1.160521984100341797e+00,1.160453319549560547e+00,1.160384654998779297e+00,1.160315990447998047e+00,1.160247325897216797e+00,1.160178661346435547e+00,1.160110116004943848e+00,1.160041451454162598e+00,1.159972786903381348e+00,1.159904241561889648e+00,1.159835577011108398e+00,1.159767031669616699e+00,1.159698486328125000e+00,1.159629821777343750e+00,1.159561276435852051e+00,1.159492731094360352e+00,1.159424185752868652e+00,1.159355640411376953e+00,1.159287095069885254e+00,1.159218549728393555e+00,1.159150123596191406e+00,1.159081459045410156e+00,1.159013032913208008e+00,1.158944487571716309e+00,1.158876061439514160e+00,1.158807516098022461e+00,1.158739089965820312e+00,1.158670663833618164e+00,1.158602118492126465e+00,1.158533692359924316e+00,1.158465266227722168e+00,1.158396840095520020e+00,1.158328413963317871e+00,1.158259987831115723e+00,1.158191561698913574e+00,1.158123254776000977e+00,1.158054828643798828e+00,1.157986521720886230e+00,1.157918095588684082e+00,1.157849788665771484e+00,1.157781362533569336e+00,1.157713055610656738e+00,1.157644629478454590e+00,1.157576322555541992e+00,1.157508015632629395e+00,1.157439708709716797e+00,1.157371401786804199e+00,1.157303094863891602e+00,1.157234787940979004e+00,1.157166600227355957e+00,1.157098174095153809e+00
1.087245821952819824e+00,1.087185502052307129e+00,1.087125301361083984e+00,1.087064981460571289e+00,1.087004780769348145e+00,1.086944460868835449e+00,1.086884260177612305e+00,1.086823940277099609e+00,1.086763739585876465e+00,1.086703538894653320e+00,1.086643338203430176e+00,1.086583137512207031e+00,1.086522936820983887e+00,1.086462736129760742e+00,1.086402535438537598e+00,1.086342334747314453e+00,1.086282134056091309e+00,1.086222052574157715e+00,1.086161851882934570e+00,1.086101651191711426e+00,1.086041569709777832e+00,1.085981369018554688e+00,1.085921287536621094e+00,1.085861206054687500e+00,1.085801005363464355e+00,1.085740923881530762e+00,1.085680842399597168e+00,1.085620760917663574e+00,1.085560560226440430e+00,1.085500597953796387e+00,1.085440397262573242e+00,1.085380434989929199e+00,1.085320234298706055e+00,1.085260272026062012e+00,1.085200190544128418e+00,1.085140109062194824e+00,1.085080146789550781e+00,1.085020065307617188e+00,1.084959983825683594e+00,1.084900021553039551e+00,1.084839940071105957e+00,1.084779977798461914e+00,1.084720015525817871e+00,1.084659934043884277e+00,1.084599971771240234e+00,1.084540009498596191e+00,1.084480047225952148e+00,1.084420084953308105e+00,1.084360122680664062e+00,1.084300160408020020e+00,1.084240198135375977e+00,1.084180235862731934e+00,1.084120273590087891e+00,1.084060311317443848e+00,1.084000468254089355e+00,1.083940505981445312e+00,1.083880662918090820e+00,1.083820700645446777e+00,1.083760857582092285e+00,1.083700895309448242e+00,1.083641052246093750e+00,1.083581209182739258e+00,1.083521246910095215e+00,1.083461403846740723e+00,1.083401560783386230e+00,1.083341717720031738e+00,1.083281874656677246e+00,1.083222031593322754e+00,1.083162188529968262e+00,1.083102464675903320e+00,1.083042621612548828e+00,1.082982778549194336e+00,1.082922935485839844e+00,1.082863211631774902e+00,1.082803368568420410e+00,1.082743644714355469e+00,1.082683801651000977e+00,1.082624077796936035e+00,1.082564234733581543e+00,1.082504510879516602e+00
1.021129131317138672e+00,1.021075963973999023e+00,1.021022796630859375e+00,1.020969629287719727e+00,1.020916461944580078e+00,1.020863413810729980e+00,1.020810246467590332e+00,1.020757079124450684e+00,1.020703911781311035e+00,1.020650863647460938e+00,1.020597696304321289e+00,1.020544648170471191e+00,1.020491480827331543e+00,1.020438432693481445e+00,1.020385265350341797e+00,1.020332217216491699e+00,1.020279169082641602e+00,1.020226001739501953e+00,1.020172953605651855e+00,1.020119905471801758e+00,1.020066857337951660e+00,1.020013809204101562e+00,1.019960761070251465e+00,1.019907712936401367e+00,1.019854664802551270e+00,1.019801616668701172e+00,1.019748568534851074e+00,1.019695520401000977e+00,1.019642591476440430e+00,1.019589543342590332e+00,1.019536495208740234e+00,1.019483566284179688e+00,1.019430518150329590e+00,1.019377589225769043e+00,1.019324541091918945e+00,1.019271612167358398e+00,1.019218683242797852e+00,1.019165635108947754e+00,1.019112706184387207e+00,1.019059658050537109e+00,1.019006848335266113e+00,1.018953800201416016e+00,1.018900871276855469e+00,1.018847942352294922e+00,1.018795013427734375e+00,1.018742084503173828e+00,1.018689155578613281e+00,1.018636226654052734e+00,1.018583297729492188e+00,1.018530488014221191e+00,1.018477559089660645e+00,1.018424630165100098e+00,1.018371701240539551e+00,1.018318891525268555e+00,1.018265962600708008e+00,1.018213152885437012e+00,1.018160223960876465e+00,1.018107414245605469e+00,1.018054604530334473e+00,1.018001794815063477e+00,1.017948865890502930e+00,1.017896056175231934e+00,1.017843246459960938e+00,1.017790436744689941e+00,1.017737507820129395e+00,1.017684817314147949e+00,1.017631888389587402e+00,1.017579078674316406e+00,1.017526388168334961e+00,1.017473459243774414e+00,1.017420768737792969e+00,1.017367959022521973e+00,1.017315149307250977e+00,1.017262339591979980e+00,1.017209649085998535e+00,1.017156839370727539e+00,1.017104148864746094e+00,1.017051339149475098e+00,1.016998648643493652e+00,1.016945838928222656e+00
9.625928997993469238e-01,9.625456333160400391e-01,9.624983668327331543e-01,9.624511003494262695e-01,9.624038934707641602e-01,9.623566865921020508e-01,9.623094201087951660e-01,9.622621536254882812e-01,9.622150659561157227e-01,9.621677994728088379e-01,9.621205925941467285e-01,9.620733261108398438e-01,9.620262384414672852e-01,9.619790315628051758e-01,9.619318246841430664e-01,9.618846178054809570e-01,9.618375301361083984e-01,9.617903232574462891e-01,9.617431163787841797e-01,9.616959095001220703e-01,9.616488218307495117e-01,9.616016745567321777e-01,9.615544676780700684e-01,9.615073204040527344e-01,9.614601731300354004e-01,9.614130854606628418e-01,9.613659381866455078e-01,9.613187909126281738e-01,9.612716436386108398e-01,9.612246155738830566e-01,9.611774682998657227e-01,9.611303210258483887e-01,9.610832333564758301e-01,9.610362052917480469e-01,9.609890580177307129e-01,9.609419703483581543e-01,9.608948230743408203e-01,9.608478546142578125e-01,9.608007669448852539e-01,9.607536792755126953e-01,9.607065320014953613e-01,9.606595635414123535e-01,9.606124758720397949e-01,9.605654478073120117e-01,9.605183601379394531e-01,9.604713916778564453e-01,9.604243040084838867e-01,9.603772759437561035e-01,9.603301882743835449e-01,9.602831602096557617e-01,9.602361917495727539e-01,9.601891636848449707e-01,9.601421356201171875e-01,9.600951075553894043e-01,9.600481986999511719e-01,9.600011706352233887e-01,9.599541425704956055e-01,9.599071145057678223e-01,9.598602056503295898e-01,9.598132371902465820e-01,9.597662091255187988e-01,9.597192406654357910e-01,9.596723318099975586e-01,9.596253633499145508e-01,9.595783948898315430e-01,9.595313668251037598e-01,9.594845175743103027e-01,9.594375491142272949e-01,9.593905806541442871e-01,9.593436121940612793e-01,9.592967629432678223e-01,9.592498540878295898e-01,9.592028856277465820e-01,9.591559171676635742e-01,9.591090083122253418e-01,9.590621590614318848e-01,9.590152502059936523e-01,9.589683413505554199e-01,9.589214324951171875e-01,9.588745832443237305e-01
9.104039072990417480e-01,9.103615880012512207e-01,9.103193283081054688e-01,9.102770686149597168e-01,9.102347493171691895e-01,9.101926088333129883e-01,9.101503491401672363e-01,9.101080894470214844e-01,9.100658297538757324e-01,9.100236296653747559e-01,9.099813699722290039e-01,9.099391698837280273e-01,9.098969101905822754e-01,9.098547697067260742e-01,9.098125100135803223e-01,9.097703099250793457e-01,9.097280502319335938e-01,9.096859693527221680e-01,9.096437096595764160e-01,9.096015095710754395e-01,9.095593094825744629e-01,9.095171689987182617e-01,9.094749689102172852e-01,9.094327688217163086e-01,9.093905687332153320e-01,9.093484878540039062e-01,9.093062877655029297e-01,9.092640876770019531e-01,9.092219471931457520e-01,9.091797471046447754e-01,9.091376662254333496e-01,9.090955257415771484e-01,9.090533256530761719e-01,9.090111851692199707e-01,9.089691042900085449e-01,9.089269638061523438e-01,9.088848233222961426e-01,9.088426828384399414e-01,9.088006615638732910e-01,9.087585210800170898e-01,9.087163805961608887e-01,9.086742401123046875e-01,9.086322188377380371e-01,9.085900783538818359e-01,9.085479974746704102e-01,9.085058569908142090e-01,9.084638357162475586e-01,9.084217548370361328e-01,9.083796143531799316e-01,9.083375334739685059e-01,9.082955718040466309e-01,9.082534313201904297e-01,9.082113504409790039e-01,9.081692695617675781e-01,9.081271886825561523e-01,9.080852270126342773e-01,9.080431461334228516e-01,9.080011248588562012e-01,9.079590439796447754e-01,9.079170823097229004e-01,9.078750014305114746e-01,9.078329801559448242e-01,9.077908992767333984e-01,9.077489376068115234e-01,9.077069163322448730e-01,9.076648950576782227e-01,9.076228737831115723e-01,9.075809121131896973e-01,9.075388908386230469e-01,9.074968695640563965e-01,9.074548482894897461e-01,9.074129462242126465e-01,9.073709249496459961e-01,9.073289632797241211e-01,9.072869420051574707e-01,9.072450399398803711e-01,9.072030186653137207e-01,9.071610569953918457e-01,9.071190953254699707e-01,9.070771932601928711e-01
8.635828495025634766e-01,8.635448813438415527e-01,8.635068535804748535e-01,8.634687662124633789e-01,8.634307384490966797e-01,8.633928298950195312e-01,8.633548021316528320e-01,8.633167743682861328e-01,8.632787466049194336e-01,8.632407784461975098e-01,8.632027506828308105e-01,8.631647825241088867e-01,8.631267547607421875e-01,8.630887269973754883e-01,8.630508184432983398e-01,8.630127906799316406e-01,8.629748225212097168e-01,8.629367947578430176e-01,8.628989458084106445e-01,8.628609180450439453e-01,8.628229498863220215e-01,8.627849817276000977e-01,8.627470731735229492e-01,8.627091050148010254e-01,8.626711368560791016e-01,8.626331686973571777e-01,8.625952601432800293e-01,8.625572919845581055e-01,8.625193834304809570e-01,8.624814152717590332e-01,8.624435663223266602e-01,8.624055981636047363e-01,8.623676300048828125e-01,8.623297214508056641e-01,8.622918725013732910e-01,8.622539043426513672e-01,8.622159957885742188e-01,8.621780872344970703e-01,8.621401190757751465e-01,8.621022701263427734e-01,8.620643615722656250e-01,8.620264530181884766e-01,8.619885444641113281e-01,8.619507551193237305e-01,8.619128465652465820e-01,8.618749380111694336e-01,8.618370294570922852e-01,8.617992401123046875e-01,8.617613315582275391e-01,8.617234230041503906e-01,8.616855740547180176e-01,8.616477847099304199e-01,8.616098761558532715e-01,8.615720272064208984e-01,8.615341186523437500e-01,8.614963293075561523e-01,8.614584803581237793e-01,8.614206314086914062e-01,8.613827824592590332e-01,8.613449931144714355e-01,8.613071441650390625e-01,8.612692952156066895e-01,8.612314462661743164e-01,8.611935973167419434e-01,8.611558675765991211e-01,8.611180186271667480e-01,8.610801696777343750e-01,8.610423803329467773e-01,8.610046505928039551e-01,8.609668016433715820e-01,8.609290122985839844e-01,8.608911633491516113e-01,8.608534336090087891e-01,8.608156442642211914e-01,8.607778549194335938e-01,8.607400059700012207e-01,8.607023358345031738e-01,8.606645464897155762e-01,8.606267571449279785e-01,8.605889678001403809e-01
8.213422298431396484e-01,8.213077783584594727e-01,8.212734460830688477e-01,8.212390542030334473e-01,8.212046623229980469e-01,8.211702704429626465e-01,8.211359381675720215e-01,8.211015462875366211e-01,8.210670948028564453e-01,8.210327029228210449e-01,8.209984302520751953e-01,8.209640383720397949e-01,8.209296464920043945e-01,8.208952546119689941e-01,8.208609819412231445e-01,8.208265900611877441e-01,8.207921981811523438e-01,8.207578659057617188e-01,8.207234740257263184e-01,8.206892013549804688e-01,8.206548094749450684e-01,8.206204771995544434e-01,8.205860853195190430e-01,8.205518126487731934e-01,8.205174803733825684e-01,8.204831480979919434e-01,8.204488158226013184e-01,8.204145431518554688e-01,8.203802108764648438e-01,8.203458786010742188e-01,8.203115463256835938e-01,8.202772736549377441e-01,8.202429413795471191e-01,8.202086091041564941e-01,8.201742768287658691e-01,8.201400637626647949e-01,8.201057314872741699e-01,8.200713992118835449e-01,8.200371265411376953e-01,8.200028538703918457e-01,8.199685811996459961e-01,8.199342489242553711e-01,8.198999762535095215e-01,8.198657035827636719e-01,8.198314905166625977e-01,8.197971582412719727e-01,8.197628855705261230e-01,8.197286128997802734e-01,8.196943998336791992e-01,8.196601271629333496e-01,8.196258544921875000e-01,8.195915818214416504e-01,8.195573687553405762e-01,8.195230960845947266e-01,8.194888234138488770e-01,8.194545507431030273e-01,8.194203972816467285e-01,8.193861246109008789e-01,8.193519115447998047e-01,8.193176388740539551e-01,8.192834854125976562e-01,8.192492127418518066e-01,8.192149996757507324e-01,8.191807270050048828e-01,8.191465735435485840e-01,8.191123604774475098e-01,8.190780878067016602e-01,8.190438747406005859e-01,8.190096616744995117e-01,8.189755082130432129e-01,8.189412951469421387e-01,8.189070820808410645e-01,8.188728690147399902e-01,8.188387155532836914e-01,8.188045024871826172e-01,8.187702894210815430e-01,8.187361359596252441e-01,8.187019824981689453e-01,8.186677694320678711e-01,8.186336159706115723e-01
7.830411791801452637e-01,7.830098867416381836e-01,7.829785943031311035e-01,7.829474210739135742e-01,7.829161286354064941e-01,7.828848361968994141e-01,7.828536033630371094e-01,7.828223705291748047e-01,7.827911376953125000e-01,7.827598452568054199e-01,7.827286124229431152e-01,7.826974391937255859e-01,7.826661467552185059e-01,7.826349139213562012e-01,7.826036810874938965e-01,7.825725078582763672e-01,7.825412154197692871e-01,7.825099825859069824e-01,7.824787497520446777e-01,7.824475765228271484e-01,7.824163436889648438e-01,7.823851108551025391e-01,7.823538780212402344e-01,7.823226451873779297e-01,7.822915315628051758e-01,7.822602987289428711e-01,7.822290658950805664e-01,7.821978330612182617e-01,7.821667194366455078e-01,7.821354866027832031e-01,7.821042537689208984e-01,7.820730805397033691e-01,7.820419073104858398e-01,7.820107340812683105e-01,7.819795012474060059e-01,7.819483280181884766e-01,7.819172143936157227e-01,7.818860411643981934e-01,7.818548083305358887e-01,7.818236351013183594e-01,7.817925214767456055e-01,7.817613482475280762e-01,7.817301750183105469e-01,7.816990017890930176e-01,7.816678881645202637e-01,7.816367149353027344e-01,7.816055417060852051e-01,7.815743684768676758e-01,7.815431952476501465e-01,7.815120816230773926e-01,7.814809679985046387e-01,7.814497947692871094e-01,7.814186215400695801e-01,7.813875675201416016e-01,7.813563942909240723e-01,7.813252806663513184e-01,7.812941074371337891e-01,7.812630534172058105e-01,7.812318801879882812e-01,7.812007665634155273e-01,7.811695933341979980e-01,7.811385393142700195e-01,7.811074256896972656e-01,7.810763120651245117e-01,7.810451984405517578e-01,7.810141444206237793e-01,7.809829711914062500e-01,7.809518575668334961e-01,7.809207439422607422e-01,7.808897495269775391e-01,7.808586359024047852e-01,7.808275222778320312e-01,7.807964086532592773e-01,7.807652950286865234e-01,7.807342410087585449e-01,7.807031869888305664e-01,7.806720733642578125e-01,7.806409597396850586e-01,7.806099653244018555e-01,7.805788516998291016e-01
7.481530904769897461e-01,7.481245398521423340e-01,7.480959892272949219e-01,7.480674386024475098e-01,7.480389475822448730e-01,7.480103969573974609e-01,7.479818463325500488e-01,7.479532957077026367e-01,7.479248046875000000e-01,7.478962540626525879e-01,7.478677630424499512e-01,7.478392124176025391e-01,7.478107213973999023e-01,7.477822303771972656e-01,7.477536797523498535e-01,7.477251291275024414e-01,7.476966977119445801e-01,7.476681470870971680e-01,7.476396560668945312e-01,7.476111054420471191e-01,7.475826740264892578e-01,7.475541830062866211e-01,7.475256323814392090e-01,7.474971413612365723e-01,7.474687099456787109e-01,7.474402189254760742e-01,7.474117279052734375e-01,7.473831772804260254e-01,7.473547458648681641e-01,7.473262548446655273e-01,7.472977638244628906e-01,7.472692728042602539e-01,7.472407817840576172e-01,7.472123503684997559e-01,7.471838593482971191e-01,7.471554279327392578e-01,7.471269369125366211e-01,7.470985054969787598e-01,7.470700144767761230e-01,7.470415830612182617e-01,7.470130920410156250e-01,7.469846606254577637e-01,7.469562292098999023e-01,7.469277381896972656e-01,7.468993067741394043e-01,7.468708753585815430e-01,7.468424439430236816e-01,7.468139529228210449e-01,7.467855215072631836e-01,7.467571496963500977e-01,7.467286586761474609e-01,7.467002272605895996e-01,7.466717958450317383e-01,7.466434240341186523e-01,7.466149330139160156e-01,7.465865015983581543e-01,7.465580701828002930e-01,7.465296387672424316e-01,7.465012669563293457e-01,7.464728355407714844e-01,7.464444041252136230e-01,7.464159727096557617e-01,7.463876008987426758e-01,7.463592290878295898e-01,7.463307976722717285e-01,7.463023662567138672e-01,7.462739944458007812e-01,7.462456226348876953e-01,7.462171912193298340e-01,7.461887598037719727e-01,7.461604475975036621e-01,7.461320161819458008e-01,7.461036443710327148e-01,7.460752129554748535e-01,7.460469007492065430e-01,7.460184693336486816e-01,7.459900975227355957e-01,7.459617257118225098e-01,7.459333539009094238e-01,7.459049820899963379e-01
