5.000000000000000000e+00,5.000000000000000000e+00,5.000000000000000000e+00,5.000000000000000000e+00,5.000000000000000000e+00,5.000000000000000000e+00,5.000000000000000000e+00,5.000000000000000000e+00,5.000000000000000000e+00,5.000000000000000000e+00,5.000000000000000000e+00,5.000000000000000000e+00,5.000000000000000000e+00,5.000000000000000000e+00,5.000000000000000000e+00,5.000000000000000000e+00,5.000000000000000000e+00,5.000000000000000000e+00,5.000000000000000000e+00,5.000000000000000000e+00,5.000000000000000000e+00,5.000000000000000000e+00,5.000000000000000000e+00,5.000000000000000000e+00,5.000000000000000000e+00,5.000000000000000000e+00,5.000000000000000000e+00,5.000000000000000000e+00,5.000000000000000000e+00,5.000000000000000000e+00,5.000000000000000000e+00,5.000000000000000000e+00,5.000000000000000000e+00,5.000000000000000000e+00,5.000000000000000000e+00,5.000000000000000000e+00,5.000000000000000000e+00,5.000000000000000000e+00,5.000000000000000000e+00,4.849342346191406250e+00,4.659439086914062500e+00,4.483849525451660156e+00,4.321012973785400391e+00,4.169589042663574219e+00,4.028419017791748047e+00,3.896495342254638672e+00,3.772938013076782227e+00,3.656975746154785156e+00,3.547929048538208008e+00,3.445197343826293945e+00,3.348247766494750977e+00,3.256605386734008789e+00,3.169845581054687500e+00,3.087588787078857422e+00,3.009492635726928711e+00,2.935250282287597656e+00,2.864582300186157227e+00,2.797237396240234375e+00,2.732986211776733398e+00,2.671620130538940430e+00,2.612949609756469727e+00,2.556800603866577148e+00,2.503013849258422852e+00,2.451443433761596680e+00,2.401955127716064453e+00,2.354425668716430664e+00,2.308740377426147461e+00,2.264794588088989258e+00,2.222490310668945312e+00,2.181737661361694336e+00,2.142452239990234375e+00,2.104557037353515625e+00,2.067978620529174805e+00,2.032650470733642578e+00,1.998508810997009277e+00,1.965495347976684570e+00,1.933554649353027344e+00,1.902635574340820312e+00,1.872689723968505859e+00,1.843671917915344238e+00
5.000000000000000000e+00,5.000000000000000000e+00,5.000000000000000000e+00,5.000000000000000000e+00,5.000000000000000000e+00,5.000000000000000000e+00,5.000000000000000000e+00,5.000000000000000000e+00,5.000000000000000000e+00,5.000000000000000000e+00,5.000000000000000000e+00,5.000000000000000000e+00,5.000000000000000000e+00,5.000000000000000000e+00,5.000000000000000000e+00,5.000000000000000000e+00,5.000000000000000000e+00,5.000000000000000000e+00,5.000000000000000000e+00,5.000000000000000000e+00,5.000000000000000000e+00,5.000000000000000000e+00,5.000000000000000000e+00,5.000000000000000000e+00,5.000000000000000000e+00,5.000000000000000000e+00,5.000000000000000000e+00,5.000000000000000000e+00,5.000000000000000000e+00,5.000000000000000000e+00,5.000000000000000000e+00,5.000000000000000000e+00,5.000000000000000000e+00,5.000000000000000000e+00,5.000000000000000000e+00,5.000000000000000000e+00,5.000000000000000000e+00,5.000000000000000000e+00,5.000000000000000000e+00,4.849480628967285156e+00,4.659566879272460938e+00,4.483967304229736328e+00,4.321122169494628906e+00,4.169691562652587891e+00,4.028514385223388672e+00,3.896584510803222656e+00,3.773021459579467773e+00,3.657054424285888672e+00,3.548002958297729492e+00,3.445267200469970703e+00,3.348313570022583008e+00,3.256667613983154297e+00,3.169904470443725586e+00,3.087644338607788086e+00,3.009545803070068359e+00,2.935300827026367188e+00,2.864630699157714844e+00,2.797283411026000977e+00,2.733029842376708984e+00,2.671662092208862305e+00,2.612989664077758789e+00,2.556838989257812500e+00,2.503050565719604492e+00,2.451478719711303711e+00,2.401988983154296875e+00,2.354458093643188477e+00,2.308771610260009766e+00,2.264824628829956055e+00,2.222519397735595703e+00,2.181765317916870117e+00,2.142479181289672852e+00,2.104583024978637695e+00,2.068003892898559570e+00,2.032674789428710938e+00,1.998532176017761230e+00,1.965517878532409668e+00,1.933576464653015137e+00,1.902656674385070801e+00,1.872710227966308594e+00,1.843691825866699219e+00
5.000000000000000000e+00,5.000000000000000000e+00,5.000000000000000000e+00,5.000000000000000000e+00,5.000000000000000000e+00,5.000000000000000000e+00,5.000000000000000000e+00,5.000000000000000000e+00,5.000000000000000000e+00,5.000000000000000000e+00,5.000000000000000000e+00,5.000000000000000000e+00,5.000000000000000000e+00,5.000000000000000000e+00,5.000000000000000000e+00,5.000000000000000000e+00,5.000000000000000000e+00,5.000000000000000000e+00,5.000000000000000000e+00,5.000000000000000000e+00,5.000000000000000000e+00,5.000000000000000000e+00,5.000000000000000000e+00,5.000000000000000000e+00,5.000000000000000000e+00,5.000000000000000000e+00,5.000000000000000000e+00,5.000000000000000000e+00,5.000000000000000000e+00,5.000000000000000000e+00,5.000000000000000000e+00,5.000000000000000000e+00,5.000000000000000000e+00,5.000000000000000000e+00,5.000000000000000000e+00,5.000000000000000000e+00,5.000000000000000000e+00,5.000000000000000000e+00,5.000000000000000000e+00,4.849617958068847656e+00,4.659694194793701172e+00,4.484085083007812500e+00,4.321231842041015625e+00,4.169793605804443359e+00,4.028609275817871094e+00,3.896673679351806641e+00,3.773105144500732422e+00,3.657132387161254883e+00,3.548076868057250977e+00,3.445336818695068359e+00,3.348379373550415039e+00,3.256729841232299805e+00,3.169963121414184570e+00,3.087700366973876953e+00,3.009598970413208008e+00,2.935351371765136719e+00,2.864678859710693359e+00,2.797328948974609375e+00,2.733073711395263672e+00,2.671704053878784180e+00,2.613029718399047852e+00,2.556877374649047852e+00,2.503087282180786133e+00,2.451514005661010742e+00,2.402022838592529297e+00,2.354490756988525391e+00,2.308803081512451172e+00,2.264854907989501953e+00,2.222548246383666992e+00,2.181793451309204102e+00,2.142506361007690430e+00,2.104609012603759766e+00,2.068028926849365234e+00,2.032698869705200195e+00,1.998555660247802734e+00,1.965540647506713867e+00,1.933598518371582031e+00,1.902678132057189941e+00,1.872730970382690430e+00,1.843711614608764648e+00
5.000000000000000000e+00,5.000000000000000000e+00,5.000000000000000000e+00,5.000000000000000000e+00,5.000000000000000000e+00,5.000000000000000000e+00,5.000000000000000000e+00,5.000000000000000000e+00,5.000000000000000000e+00,5.000000000000000000e+00,5.000000000000000000e+00,5.000000000000000000e+00,5.000000000000000000e+00,5.000000000000000000e+00,5.000000000000000000e+00,5.000000000000000000e+00,5.000000000000000000e+00,5.000000000000000000e+00,5.000000000000000000e+00,5.000000000000000000e+00,5.000000000000000000e+00,5.000000000000000000e+00,5.000000000000000000e+00,5.000000000000000000e+00,5.000000000000000000e+00,5.000000000000000000e+00,5.000000000000000000e+00,5.000000000000000000e+00,5.000000000000000000e+00,5.000000000000000000e+00,5.000000000000000000e+00,5.000000000000000000e+00,5.000000000000000000e+00,5.000000000000000000e+00,5.000000000000000000e+00,5.000000000000000000e+00,5.000000000000000000e+00,5.000000000000000000e+00,5.000000000000000000e+00,4.849756240844726562e+00,4.659821510314941406e+00,4.484203338623046875e+00,4.321341514587402344e+00,4.169895172119140625e+00,4.028704643249511719e+00,3.896762847900390625e+00,3.773188352584838867e+00,3.657211065292358398e+00,3.548150777816772461e+00,3.445406436920166016e+00,3.348445177078247070e+00,3.256791830062866211e+00,3.170022249221801758e+00,3.087756395339965820e+00,3.009652137756347656e+00,2.935401916503906250e+00,2.864727020263671875e+00,2.797374963760375977e+00,2.733117580413818359e+00,2.671745777130126953e+00,2.613069772720336914e+00,2.556915760040283203e+00,2.503123998641967773e+00,2.451549291610717773e+00,2.402056694030761719e+00,2.354523181915283203e+00,2.308834314346313477e+00,2.264884710311889648e+00,2.222577095031738281e+00,2.181821346282958984e+00,2.142533302307128906e+00,2.104635000228881836e+00,2.068053960800170898e+00,2.032723188400268555e+00,1.998579025268554688e+00,1.965563297271728516e+00,1.933620452880859375e+00,1.902699232101440430e+00,1.872751355171203613e+00,1.843731760978698730e+00
5.000000000000000000e+00,5.000000000000000000e+00,5.000000000000000000e+00,5.000000000000000000e+00,5.000000000000000000e+00,5.000000000000000000e+00,5.000000000000000000e+00,5.000000000000000000e+00,5.000000000000000000e+00,5.000000000000000000e+00,5.000000000000000000e+00,5.000000000000000000e+00,5.000000000000000000e+00,5.000000000000000000e+00,5.000000000000000000e+00,5.000000000000000000e+00,5.000000000000000000e+00,5.000000000000000000e+00,5.000000000000000000e+00,5.000000000000000000e+00,5.000000000000000000e+00,5.000000000000000000e+00,5.000000000000000000e+00,5.000000000000000000e+00,5.000000000000000000e+00,5.000000000000000000e+00,5.000000000000000000e+00,5.000000000000000000e+00,5.000000000000000000e+00,5.000000000000000000e+00,5.000000000000000000e+00,5.000000000000000000e+00,5.000000000000000000e+00,5.000000000000000000e+00,5.000000000000000000e+00,5.000000000000000000e+00,5.000000000000000000e+00,5.000000000000000000e+00,5.000000000000000000e+00,4.849894523620605469e+00,4.659948825836181641e+00,4.484321594238281250e+00,4.321450710296630859e+00,4.169997215270996094e+00,4.028800010681152344e+00,3.896851539611816406e+00,3.773271799087524414e+00,3.657289743423461914e+00,3.548224687576293945e+00,3.445476293563842773e+00,3.348510742187500000e+00,3.256854057312011719e+00,3.170081138610839844e+00,3.087812185287475586e+00,3.009705543518066406e+00,2.935452461242675781e+00,2.864774942398071289e+00,2.797420978546142578e+00,2.733161449432373047e+00,2.671787738800048828e+00,2.613110065460205078e+00,2.556953907012939453e+00,2.503160715103149414e+00,2.451584577560424805e+00,2.402090549468994141e+00,2.354555845260620117e+00,2.308865308761596680e+00,2.264914989471435547e+00,2.222606182098388672e+00,2.181849241256713867e+00,2.142560243606567383e+00,2.104660987854003906e+00,2.068078994750976562e+00,2.032747268676757812e+00,1.998602628707885742e+00,1.965586066246032715e+00,1.933642506599426270e+00,1.902720332145690918e+00,1.872771859169006348e+00,1.843751549720764160e+00
5.000000000000000000e+00,5.000000000000000000e+00,5.000000000000000000e+00,5.000000000000000000e+00,5.000000000000000000e+00,5.000000000000000000e+00,5.000000000000000000e+00,5.000000000000000000e+00,5.000000000000000000e+00,5.000000000000000000e+00,5.000000000000000000e+00,5.000000000000000000e+00,5.000000000000000000e+00,5.000000000000000000e+00,5.000000000000000000e+00,5.000000000000000000e+00,5.000000000000000000e+00,5.000000000000000000e+00,5.000000000000000000e+00,5.000000000000000000e+00,5.000000000000000000e+00,5.000000000000000000e+00,5.000000000000000000e+00,5.000000000000000000e+00,5.000000000000000000e+00,5.000000000000000000e+00,5.000000000000000000e+00,5.000000000000000000e+00,5.000000000000000000e+00,5.000000000000000000e+00,5.000000000000000000e+00,5.000000000000000000e+00,5.000000000000000000e+00,5.000000000000000000e+00,5.000000000000000000e+00,5.000000000000000000e+00,5.000000000000000000e+00,5.000000000000000000e+00,5.000000000000000000e+00,4.850032329559326172e+00,4.660076141357421875e+00,4.484439373016357422e+00,4.321560382843017578e+00,4.170099258422851562e+00,4.028894901275634766e+00,3.896940708160400391e+00,3.773355484008789062e+00,3.657368183135986328e+00,3.548298597335815430e+00,3.445545911788940430e+00,3.348576545715332031e+00,3.256916284561157227e+00,3.170140266418457031e+00,3.087868213653564453e+00,3.009758710861206055e+00,2.935502767562866211e+00,2.864823102951049805e+00,2.797466754913330078e+00,2.733205318450927734e+00,2.671829700469970703e+00,2.613149881362915039e+00,2.556992292404174805e+00,2.503197431564331055e+00,2.451619863510131836e+00,2.402124404907226562e+00,2.354588270187377930e+00,2.308896780014038086e+00,2.264945030212402344e+00,2.222635269165039062e+00,2.181877136230468750e+00,2.142587184906005859e+00,2.104686737060546875e+00,2.068104028701782227e+00,2.032771587371826172e+00,1.998625993728637695e+00,1.965608596801757812e+00,1.933664321899414062e+00,1.902741789817810059e+00,1.872792601585388184e+00,1.843771696090698242e+00
5.000000000000000000e+00,5.000000000000000000e+00,5.000000000000000000e+00,5.000000000000000000e+00,5.000000000000000000e+00,5.000000000000000000e+00,5.000000000000000000e+00,5.000000000000000000e+00,5.000000000000000000e+00,5.000000000000000000e+00,5.000000000000000000e+00,5.000000000000000000e+00,5.000000000000000000e+00,5.000000000000000000e+00,5.000000000000000000e+00,5.000000000000000000e+00,5.000000000000000000e+00,5.000000000000000000e+00,5.000000000000000000e+00,5.000000000000000000e+00,5.000000000000000000e+00,5.000000000000000000e+00,5.000000000000000000e+00,5.000000000000000000e+00,5.000000000000000000e+00,5.000000000000000000e+00,3.764214277267456055e+00,3.789513587951660156e+00,5.000000000000000000e+00,5.000000000000000000e+00,5.000000000000000000e+00,5.000000000000000000e+00,5.000000000000000000e+00,5.000000000000000000e+00,5.000000000000000000e+00,5.000000000000000000e+00,5.000000000000000000e+00,5.000000000000000000e+00,5.000000000000000000e+00,4.850170135498046875e+00,4.660203933715820312e+00,4.484557151794433594e+00,4.321670055389404297e+00,4.170201301574707031e+00,4.028990268707275391e+00,3.897029876708984375e+00,3.773439168930053711e+00,3.657446622848510742e+00,3.548372507095336914e+00,3.445615291595458984e+00,3.348642349243164062e+00,3.256978511810302734e+00,3.170199155807495117e+00,3.087924242019653320e+00,3.009811639785766602e+00,2.935553550720214844e+00,2.864871263504028320e+00,2.797512769699096680e+00,2.733249187469482422e+00,2.671871423721313477e+00,2.613189935684204102e+00,2.557030677795410156e+00,2.503234386444091797e+00,2.451655149459838867e+00,2.402158498764038086e+00,2.354620695114135742e+00,2.308928012847900391e+00,2.264975070953369141e+00,2.222664117813110352e+00,2.181905269622802734e+00,2.142613887786865234e+00,2.104712724685668945e+00,2.068129301071166992e+00,2.032795906066894531e+00,1.998649477958679199e+00,1.965631127357482910e+00,1.933686137199401855e+00,1.902762889862060547e+00,1.872813105583190918e+00,1.843791484832763672e+00
5.000000000000000000e+00,5.000000000000000000e+00,5.000000000000000000e+00,5.000000000000000000e+00,5.000000000000000000e+00,5.000000000000000000e+00,5.000000000000000000e+00,5.000000000000000000e+00,5.000000000000000000e+00,5.000000000000000000e+00,5.000000000000000000e+00,5.000000000000000000e+00,5.000000000000000000e+00,5.000000000000000000e+00,5.000000000000000000e+00,5.000000000000000000e+00,5.000000000000000000e+00,5.000000000000000000e+00,5.000000000000000000e+00,5.000000000000000000e+00,5.000000000000000000e+00,5.000000000000000000e+00,5.000000000000000000e+00,5.000000000000000000e+00,5.000000000000000000e+00,3.841166019439697266e+00,3.776268720626831055e+00,3.804197788238525391e+00,5.000000000000000000e+00,5.000000000000000000e+00,5.000000000000000000e+00,5.000000000000000000e+00,5.000000000000000000e+00,5.000000000000000000e+00,5.000000000000000000e+00,5.000000000000000000e+00,5.000000000000000000e+00,5.000000000000000000e+00,5.000000000000000000e+00,4.850308418273925781e+00,4.660330772399902344e+00,4.484675407409667969e+00,4.321779727935791016e+00,4.170303344726562500e+00,4.029085636138916016e+00,3.897119045257568359e+00,3.773522615432739258e+00,3.657525300979614258e+00,3.548446178436279297e+00,3.445684909820556641e+00,3.348708152770996094e+00,3.257040977478027344e+00,3.170258283615112305e+00,3.087980031967163086e+00,3.009864807128906250e+00,2.935604095458984375e+00,2.864919424057006836e+00,2.797558784484863281e+00,2.733293056488037109e+00,2.671913385391235352e+00,2.613229990005493164e+00,2.557069063186645508e+00,2.503271102905273438e+00,2.451690435409545898e+00,2.402192115783691406e+00,2.354653358459472656e+00,2.308959245681762695e+00,2.265005350112915039e+00,2.222693204879760742e+00,2.181932926177978516e+00,2.142640829086303711e+00,2.104738950729370117e+00,2.068154335021972656e+00,2.032820224761962891e+00,1.998672842979431152e+00,1.965654015541076660e+00,1.933708190917968750e+00,1.902784228324890137e+00,1.872833728790283203e+00,1.843811511993408203e+00
5.000000000000000000e+00,5.000000000000000000e+00,5.000000000000000000e+00,5.000000000000000000e+00,5.000000000000000000e+00,5.000000000000000000e+00,5.000000000000000000e+00,5.000000000000000000e+00,5.000000000000000000e+00,5.000000000000000000e+00,5.000000000000000000e+00,5.000000000000000000e+00,5.000000000000000000e+00,5.000000000000000000e+00,5.000000000000000000e+00,5.000000000000000000e+00,5.000000000000000000e+00,5.000000000000000000e+00,5.000000000000000000e+00,5.000000000000000000e+00,5.000000000000000000e+00,5.000000000000000000e+00,5.000000000000000000e+00,5.000000000000000000e+00,5.000000000000000000e+00,5.000000000000000000e+00,3.805213212966918945e+00,3.814647436141967773e+00,5.000000000000000000e+00,5.000000000000000000e+00,5.000000000000000000e+00,5.000000000000000000e+00,5.000000000000000000e+00,5.000000000000000000e+00,5.000000000000000000e+00,5.000000000000000000e+00,5.000000000000000000e+00,5.000000000000000000e+00,5.000000000000000000e+00,4.850446224212646484e+00,4.660458564758300781e+00,4.484793186187744141e+00,4.321889400482177734e+00,4.170405387878417969e+00,4.029181003570556641e+00,3.897208213806152344e+00,3.773606300354003906e+00,3.657603263854980469e+00,3.548520088195800781e+00,3.445754766464233398e+00,3.348774194717407227e+00,3.257103204727172852e+00,3.170317173004150391e+00,3.088035821914672852e+00,3.009917974472045898e+00,2.935654640197753906e+00,2.864967584609985352e+00,2.797604560852050781e+00,2.733336687088012695e+00,2.671955347061157227e+00,2.613270044326782227e+00,2.557107448577880859e+00,2.503307819366455078e+00,2.451725482940673828e+00,2.402225971221923828e+00,2.354685783386230469e+00,2.308990716934204102e+00,2.265035390853881836e+00,2.222722291946411133e+00,2.181960821151733398e+00,2.142667770385742188e+00,2.104764938354492188e+00,2.068179368972778320e+00,2.032844305038452148e+00,1.998696208000183105e+00,1.965676546096801758e+00,1.933730006217956543e+00,1.902805447578430176e+00,1.872854232788085938e+00,1.843831419944763184e+00
5.000000000000000000e+00,5.000000000000000000e+00,5.000000000000000000e+00,5.000000000000000000e+00,5.000000000000000000e+00,5.000000000000000000e+00,5.000000000000000000e+00,5.000000000000000000e+00,5.000000000000000000e+00,5.000000000000000000e+00,5.000000000000000000e+00,5.000000000000000000e+00,5.000000000000000000e+00,5.000000000000000000e+00,5.000000000000000000e+00,5.000000000000000000e+00,5.000000000000000000e+00,5.000000000000000000e+00,5.000000000000000000e+00,5.000000000000000000e+00,5.000000000000000000e+00,5.000000000000000000e+00,5.000000000000000000e+00,5.000000000000000000e+00,5.000000000000000000e+00,3.789693117141723633e+00,3.856980562210083008e+00,3.915590763092041016e+00,5.000000000000000000e+00,5.000000000000000000e+00,5.000000000000000000e+00,5.000000000000000000e+00,5.000000000000000000e+00,5.000000000000000000e+00,5.000000000000000000e+00,5.000000000000000000e+00,5.000000000000000000e+00,5.000000000000000000e+00,5.000000000000000000e+00,4.850584030151367188e+00,4.660585880279541016e+00,4.484910964965820312e+00,4.321999073028564453e+00,4.170507431030273438e+00,4.029275894165039062e+00,3.897297382354736328e+00,3.773689508438110352e+00,3.657681941986083984e+00,3.548593997955322266e+00,3.445824384689331055e+00,3.348839998245239258e+00,3.257165431976318359e+00,3.170376062393188477e+00,3.088091850280761719e+00,3.009971141815185547e+00,2.935705184936523438e+00,2.865015745162963867e+00,2.797650337219238281e+00,2.733380556106567383e+00,2.671997070312500000e+00,2.613310337066650391e+00,2.557145833969116211e+00,2.503344535827636719e+00,2.451760768890380859e+00,2.402259826660156250e+00,2.354718446731567383e+00,2.309021949768066406e+00,2.265065431594848633e+00,2.222751140594482422e+00,2.181988954544067383e+00,2.142694711685180664e+00,2.104790925979614258e+00,2.068204641342163086e+00,2.032868623733520508e+00,1.998719811439514160e+00,1.965699315071105957e+00,1.933752179145812988e+00,1.902826786041259766e+00,1.872874736785888672e+00,1.843851327896118164e+00
5.000000000000000000e+00,5.000000000000000000e+00,5.000000000000000000e+00,5.000000000000000000e+00,5.000000000000000000e+00,5.000000000000000000e+00,5.000000000000000000e+00,5.000000000000000000e+00,5.000000000000000000e+00,5.000000000000000000e+00,5.000000000000000000e+00,5.000000000000000000e+00,5.000000000000000000e+00,5.000000000000000000e+00,5.000000000000000000e+00,5.000000000000000000e+00,5.000000000000000000e+00,5.000000000000000000e+00,5.000000000000000000e+00,5.000000000000000000e+00,5.000000000000000000e+00,5.000000000000000000e+00,5.000000000000000000e+00,3.719479084014892578e+00,3.738106012344360352e+00,3.752753257751464844e+00,3.780385732650756836e+00,3.815553665161132812e+00,3.867158412933349609e+00,3.933847188949584961e+00,5.000000000000000000e+00,5.000000000000000000e+00,5.000000000000000000e+00,5.000000000000000000e+00,5.000000000000000000e+00,5.000000000000000000e+00,5.000000000000000000e+00,5.000000000000000000e+00,5.000000000000000000e+00,4.850722312927246094e+00,4.660713195800781250e+00,4.485029220581054688e+00,4.322108745574951172e+00,4.170609474182128906e+00,4.029371261596679688e+00,3.897386550903320312e+00,3.773772954940795898e+00,3.657760381698608398e+00,3.548667907714843750e+00,3.445894002914428711e+00,3.348905801773071289e+00,3.257227420806884766e+00,3.170434951782226562e+00,3.088147878646850586e+00,3.010024309158325195e+00,2.935755729675292969e+00,2.865063667297363281e+00,2.797696352005004883e+00,2.733424425125122070e+00,2.672039031982421875e+00,2.613350391387939453e+00,2.557184219360351562e+00,2.503381252288818359e+00,2.451796054840087891e+00,2.402293682098388672e+00,2.354750871658325195e+00,2.309053182601928711e+00,2.265095472335815430e+00,2.222779989242553711e+00,2.182016849517822266e+00,2.142721652984619141e+00,2.104816913604736328e+00,2.068229436874389648e+00,2.032892942428588867e+00,1.998743057250976562e+00,1.965721964836120605e+00,1.933773994445800781e+00,1.902847886085510254e+00,1.872895479202270508e+00,1.843871355056762695e+00
5.000000000000000000e+00,5.000000000000000000e+00,5.000000000000000000e+00,5.000000000000000000e+00,5.000000000000000000e+00,5.000000000000000000e+00,5.000000000000000000e+00,5.000000000000000000e+00,5.000000000000000000e+00,5.000000000000000000e+00,5.000000000000000000e+00,5.000000000000000000e+00,5.000000000000000000e+00,5.000000000000000000e+00,5.000000000000000000e+00,5.000000000000000000e+00,5.000000000000000000e+00,5.000000000000000000e+00,5.000000000000000000e+00,5.000000000000000000e+00,5.000000000000000000e+00,5.000000000000000000e+00,5.000000000000000000e+00,3.744527816772460938e+00,3.747891187667846680e+00,3.732408285140991211e+00,3.742641925811767578e+00,3.779491186141967773e+00,3.828163623809814453e+00,3.967122077941894531e+00,5.000000000000000000e+00,5.000000000000000000e+00,5.000000000000000000e+00,5.000000000000000000e+00,5.000000000000000000e+00,5.000000000000000000e+00,5.000000000000000000e+00,5.000000000000000000e+00,5.000000000000000000e+00,4.850860118865966797e+00,4.660840511322021484e+00,4.485147476196289062e+00,4.322217941284179688e+00,4.170711517333984375e+00,4.029466629028320312e+00,3.897475242614746094e+00,3.773856639862060547e+00,3.657839059829711914e+00,3.548741817474365234e+00,3.445963859558105469e+00,3.348971366882324219e+00,3.257289648056030273e+00,3.170494079589843750e+00,3.088203907012939453e+00,3.010077476501464844e+00,2.935806274414062500e+00,2.865112066268920898e+00,2.797742366790771484e+00,2.733468294143676758e+00,2.672080993652343750e+00,2.613390445709228516e+00,2.557222366333007812e+00,2.503418207168579102e+00,2.451831340789794922e+00,2.402327537536621094e+00,2.354783535003662109e+00,2.309084415435791016e+00,2.265125513076782227e+00,2.222809076309204102e+00,2.182044744491577148e+00,2.142748594284057617e+00,2.104842662811279297e+00,2.068254709243774414e+00,2.032917022705078125e+00,1.998766660690307617e+00,1.965744733810424805e+00,1.933796048164367676e+00,1.902869105339050293e+00,1.872915983200073242e+00,1.843891143798828125e+00
5.000000000000000000e+00,5.000000000000000000e+00,5.000000000000000000e+00,5.000000000000000000e+00,5.000000000000000000e+00,5.000000000000000000e+00,5.000000000000000000e+00,5.000000000000000000e+00,5.000000000000000000e+00,5.000000000000000000e+00,5.000000000000000000e+00,5.000000000000000000e+00,5.000000000000000000e+00,5.000000000000000000e+00,5.000000000000000000e+00,5.000000000000000000e+00,5.000000000000000000e+00,5.000000000000000000e+00,5.000000000000000000e+00,5.000000000000000000e+00,5.000000000000000000e+00,5.000000000000000000e+00,5.000000000000000000e+00,3.773425579071044922e+00,3.784001350402832031e+00,3.747009038925170898e+00,3.749159574508666992e+00,3.777466297149658203e+00,3.838558197021484375e+00,3.951679468154907227e+00,4.008767127990722656e+00,5.000000000000000000e+00,5.000000000000000000e+00,5.000000000000000000e+00,5.000000000000000000e+00,5.000000000000000000e+00,5.000000000000000000e+00,5.000000000000000000e+00,5.000000000000000000e+00,4.850998401641845703e+00,4.660968303680419922e+00,4.485265254974365234e+00,4.322327613830566406e+00,4.170813560485839844e+00,4.029561996459960938e+00,3.897564411163330078e+00,3.773940324783325195e+00,3.657917499542236328e+00,3.548815727233886719e+00,3.446033239364624023e+00,3.349037170410156250e+00,3.257352113723754883e+00,3.170552968978881836e+00,3.088259935379028320e+00,3.010130643844604492e+00,2.935856819152832031e+00,2.865160226821899414e+00,2.797788143157958984e+00,2.733512163162231445e+00,2.672122955322265625e+00,2.613430261611938477e+00,2.557260751724243164e+00,2.503454923629760742e+00,2.451866626739501953e+00,2.402361392974853516e+00,2.354815959930419922e+00,2.309115648269653320e+00,2.265155792236328125e+00,2.222838163375854492e+00,2.182072639465332031e+00,2.142775535583496094e+00,2.104868650436401367e+00,2.068279743194580078e+00,2.032941341400146484e+00,1.998790025711059570e+00,1.965767264366149902e+00,1.933817863464355469e+00,1.902890443801879883e+00,1.872936606407165527e+00,1.843911290168762207e+00
5.000000000000000000e+00,5.000000000000000000e+00,5.000000000000000000e+00,5.000000000000000000e+00,5.000000000000000000e+00,5.000000000000000000e+00,5.000000000000000000e+00,5.000000000000000000e+00,5.000000000000000000e+00,5.000000000000000000e+00,5.000000000000000000e+00,5.000000000000000000e+00,5.000000000000000000e+00,5.000000000000000000e+00,5.000000000000000000e+00,5.000000000000000000e+00,5.000000000000000000e+00,5.000000000000000000e+00,5.000000000000000000e+00,5.000000000000000000e+00,5.000000000000000000e+00,5.000000000000000000e+00,5.000000000000000000e+00,3.786815881729125977e+00,3.781723737716674805e+00,3.750761508941650391e+00,3.744975566864013672e+00,3.773075819015502930e+00,3.833146572113037109e+00,3.951406002044677734e+00,3.991966724395751953e+00,5.000000000000000000e+00,5.000000000000000000e+00,5.000000000000000000e+00,5.000000000000000000e+00,5.000000000000000000e+00,5.000000000000000000e+00,5.000000000000000000e+00,5.000000000000000000e+00,4.851136684417724609e+00,4.661095619201660156e+00,4.485383510589599609e+00,4.322437286376953125e+00,4.170915603637695312e+00,4.029657363891601562e+00,3.897653579711914062e+00,3.774024009704589844e+00,3.657996177673339844e+00,3.548889398574829102e+00,3.446102857589721680e+00,3.349102973937988281e+00,3.257414340972900391e+00,3.170612096786499023e+00,3.088315963745117188e+00,3.010183572769165039e+00,2.935907363891601562e+00,2.865208387374877930e+00,2.797834396362304688e+00,2.733556032180786133e+00,2.672164678573608398e+00,2.613470315933227539e+00,2.557299137115478516e+00,2.503491640090942383e+00,2.451901912689208984e+00,2.402395248413085938e+00,2.354848384857177734e+00,2.309146881103515625e+00,2.265185832977294922e+00,2.222867012023925781e+00,2.182100772857666016e+00,2.142802476882934570e+00,2.104894876480102539e+00,2.068304777145385742e+00,2.032965660095214844e+00,1.998813629150390625e+00,1.965789914131164551e+00,1.933839678764343262e+00,1.902911543846130371e+00,1.872957110404968262e+00,1.843931078910827637e+00
5.000000000000000000e+00,5.000000000000000000e+00,5.000000000000000000e+00,5.000000000000000000e+00,5.000000000000000000e+00,5.000000000000000000e+00,5.000000000000000000e+00,5.000000000000000000e+00,5.000000000000000000e+00,5.000000000000000000e+00,5.000000000000000000e+00,5.000000000000000000e+00,5.000000000000000000e+00,5.000000000000000000e+00,5.000000000000000000e+00,5.000000000000000000e+00,5.000000000000000000e+00,5.000000000000000000e+00,5.000000000000000000e+00,5.000000000000000000e+00,5.000000000000000000e+00,5.000000000000000000e+00,5.000000000000000000e+00,3.803955078125000000e+00,3.801044225692749023e+00,3.738633394241333008e+00,3.736558675765991211e+00,3.780124664306640625e+00,3.830704450607299805e+00,3.973083257675170898e+00,3.984975576400756836e+00,5.000000000000000000e+00,5.000000000000000000e+00,5.000000000000000000e+00,5.000000000000000000e+00,5.000000000000000000e+00,5.000000000000000000e+00,5.000000000000000000e+00,5.000000000000000000e+00,4.851274490356445312e+00,4.661222934722900391e+00,4.485501289367675781e+00,4.322546958923339844e+00,4.171017646789550781e+00,4.029752254486083984e+00,3.897742748260498047e+00,3.774107456207275391e+00,3.658074617385864258e+00,3.548963308334350586e+00,3.446172714233398438e+00,3.349168777465820312e+00,3.257476568222045898e+00,3.170670986175537109e+00,3.088371515274047852e+00,3.010236740112304688e+00,2.935957908630371094e+00,2.865256547927856445e+00,2.797880172729492188e+00,2.733599662780761719e+00,2.672206640243530273e+00,2.613510608673095703e+00,2.557337522506713867e+00,2.503528594970703125e+00,2.451937198638916016e+00,2.402429103851318359e+00,2.354881048202514648e+00,2.309178352355957031e+00,2.265215873718261719e+00,2.222896099090576172e+00,2.182128429412841797e+00,2.142829418182373047e+00,2.104920864105224609e+00,2.068330049514770508e+00,2.032989978790283203e+00,1.998836874961853027e+00,1.965812683105468750e+00,1.933861851692199707e+00,1.902933001518249512e+00,1.872977852821350098e+00,1.843951225280761719e+00
5.000000000000000000e+00,5.000000000000000000e+00,5.000000000000000000e+00,5.000000000000000000e+00,5.000000000000000000e+00,5.000000000000000000e+00,5.000000000000000000e+00,5.000000000000000000e+00,5.000000000000000000e+00,5.000000000000000000e+00,5.000000000000000000e+00,5.000000000000000000e+00,5.000000000000000000e+00,5.000000000000000000e+00,5.000000000000000000e+00,5.000000000000000000e+00,5.000000000000000000e+00,5.000000000000000000e+00,5.000000000000000000e+00,5.000000000000000000e+00,5.000000000000000000e+00,5.000000000000000000e+00,5.000000000000000000e+00,3.817410230636596680e+00,3.785918951034545898e+00,3.738351345062255859e+00,3.749403715133666992e+00,3.763879776000976562e+00,3.843455791473388672e+00,3.991996049880981445e+00,3.958966016769409180e+00,5.000000000000000000e+00,5.000000000000000000e+00,5.000000000000000000e+00,5.000000000000000000e+00,5.000000000000000000e+00,5.000000000000000000e+00,5.000000000000000000e+00,5.000000000000000000e+00,4.851412296295166016e+00,4.661350727081298828e+00,4.485619068145751953e+00,4.322656631469726562e+00,4.171119689941406250e+00,4.029847621917724609e+00,3.897831916809082031e+00,3.774191141128540039e+00,3.658152818679809570e+00,3.549037218093872070e+00,3.446242332458496094e+00,3.349234580993652344e+00,3.257539033889770508e+00,3.170729875564575195e+00,3.088427543640136719e+00,3.010289907455444336e+00,2.936008691787719727e+00,2.865304708480834961e+00,2.797925949096679688e+00,2.733643531799316406e+00,2.672248363494873047e+00,2.613550662994384766e+00,2.557375907897949219e+00,2.503565311431884766e+00,2.451972246170043945e+00,2.402462959289550781e+00,2.354913473129272461e+00,2.309209585189819336e+00,2.265246152877807617e+00,2.222924947738647461e+00,2.182156562805175781e+00,2.142856359481811523e+00,2.104946851730346680e+00,2.068355083465576172e+00,2.033014059066772461e+00,1.998860239982604980e+00,1.965835213661193848e+00,1.933883666992187500e+00,1.902954101562500000e+00,1.872998356819152832e+00,1.843971014022827148e+00
5.000000000000000000e+00,5.000000000000000000e+00,5.000000000000000000e+00,5.000000000000000000e+00,5.000000000000000000e+00,5.000000000000000000e+00,5.000000000000000000e+00,5.000000000000000000e+00,5.000000000000000000e+00,5.000000000000000000e+00,5.000000000000000000e+00,5.000000000000000000e+00,5.000000000000000000e+00,5.000000000000000000e+00,5.000000000000000000e+00,5.000000000000000000e+00,5.000000000000000000e+00,5.000000000000000000e+00,5.000000000000000000e+00,5.000000000000000000e+00,5.000000000000000000e+00,5.000000000000000000e+00,5.000000000000000000e+00,3.799548864364624023e+00,3.799335479736328125e+00,3.745294094085693359e+00,3.758807659149169922e+00,3.778287887573242188e+00,3.832663536071777344e+00,5.000000000000000000e+00,3.935259342193603516e+00,5.000000000000000000e+00,5.000000000000000000e+00,5.000000000000000000e+00,5.000000000000000000e+00,5.000000000000000000e+00,5.000000000000000000e+00,5.000000000000000000e+00,5.000000000000000000e+00,4.851550579071044922e+00,4.661478042602539062e+00,4.485737323760986328e+00,4.322766304016113281e+00,4.171221733093261719e+00,4.029942989349365234e+00,3.897921085357666016e+00,3.774274349212646484e+00,3.658231496810913086e+00,3.549111127853393555e+00,3.446312189102172852e+00,3.349300622940063477e+00,3.257600784301757812e+00,3.170788764953613281e+00,3.088483572006225586e+00,3.010343313217163086e+00,2.936059236526489258e+00,2.865352869033813477e+00,2.797971963882446289e+00,2.733687400817871094e+00,2.672290325164794922e+00,2.613590717315673828e+00,2.557414293289184570e+00,2.503602027893066406e+00,2.452007532119750977e+00,2.402496814727783203e+00,2.354946136474609375e+00,2.309240818023681641e+00,2.265275955200195312e+00,2.222954034805297852e+00,2.182184457778930664e+00,2.142883300781250000e+00,2.104972839355468750e+00,2.068380355834960938e+00,2.033038377761840820e+00,1.998883843421936035e+00,1.965858101844787598e+00,1.933905720710754395e+00,1.902975440025329590e+00,1.873018860816955566e+00,1.843990921974182129e+00
5.000000000000000000e+00,5.000000000000000000e+00,5.000000000000000000e+00,5.000000000000000000e+00,5.000000000000000000e+00,5.000000000000000000e+00,5.000000000000000000e+00,5.000000000000000000e+00,5.000000000000000000e+00,5.000000000000000000e+00,5.000000000000000000e+00,5.000000000000000000e+00,5.000000000000000000e+00,5.000000000000000000e+00,5.000000000000000000e+00,5.000000000000000000e+00,5.000000000000000000e+00,5.000000000000000000e+00,5.000000000000000000e+00,5.000000000000000000e+00,5.000000000000000000e+00,5.000000000000000000e+00,5.000000000000000000e+00,5.000000000000000000e+00,3.788424491882324219e+00,3.685906648635864258e+00,3.686253547668457031e+00,3.826037883758544922e+00,3.843034029006958008e+00,5.000000000000000000e+00,5.000000000000000000e+00,3.914332628250122070e+00,5.000000000000000000e+00,5.000000000000000000e+00,5.000000000000000000e+00,5.000000000000000000e+00,5.000000000000000000e+00,5.000000000000000000e+00,5.000000000000000000e+00,4.851688861846923828e+00,4.661605358123779297e+00,4.485855579376220703e+00,4.322875976562500000e+00,4.171323776245117188e+00,4.030038356781005859e+00,3.898010015487670898e+00,3.774358034133911133e+00,3.658309936523437500e+00,3.549185037612915039e+00,3.446381807327270508e+00,3.349366426467895508e+00,3.257663249969482422e+00,3.170847892761230469e+00,3.088539600372314453e+00,3.010396480560302734e+00,2.936109781265258789e+00,2.865401029586791992e+00,2.798017978668212891e+00,2.733731269836425781e+00,2.672332286834716797e+00,2.613630771636962891e+00,2.557452678680419922e+00,2.503638744354248047e+00,2.452042818069458008e+00,2.402530670166015625e+00,2.354978561401367188e+00,2.309272289276123047e+00,2.265306234359741211e+00,2.222983121871948242e+00,2.182212352752685547e+00,2.142910242080688477e+00,2.104998826980590820e+00,2.068405151367187500e+00,2.033062458038330078e+00,1.998907208442687988e+00,1.965880632400512695e+00,1.933927536010742188e+00,1.902996659278869629e+00,1.873039484024047852e+00,1.844010949134826660e+00
5.000000000000000000e+00,5.000000000000000000e+00,5.000000000000000000e+00,5.000000000000000000e+00,5.000000000000000000e+00,5.000000000000000000e+00,5.000000000000000000e+00,5.000000000000000000e+00,5.000000000000000000e+00,5.000000000000000000e+00,5.000000000000000000e+00,5.000000000000000000e+00,5.000000000000000000e+00,5.000000000000000000e+00,5.000000000000000000e+00,5.000000000000000000e+00,5.000000000000000000e+00,5.000000000000000000e+00,5.000000000000000000e+00,5.000000000000000000e+00,5.000000000000000000e+00,5.000000000000000000e+00,5.000000000000000000e+00,5.000000000000000000e+00,3.776834249496459961e+00,3.659428119659423828e+00,3.658765077590942383e+00,3.825545787811279297e+00,3.834940195083618164e+00,5.000000000000000000e+00,5.000000000000000000e+00,3.843286752700805664e+00,5.000000000000000000e+00,5.000000000000000000e+00,5.000000000000000000e+00,5.000000000000000000e+00,5.000000000000000000e+00,5.000000000000000000e+00,5.000000000000000000e+00,4.851826667785644531e+00,4.661733150482177734e+00,4.485973834991455078e+00,4.322985172271728516e+00,4.171426296234130859e+00,4.030133247375488281e+00,3.898099184036254883e+00,3.774441719055175781e+00,3.658388614654541016e+00,3.549258947372436523e+00,3.446451663970947266e+00,3.349431991577148438e+00,3.257725477218627930e+00,3.170906782150268555e+00,3.088595628738403320e+00,3.010449647903442383e+00,2.936160087585449219e+00,2.865449190139770508e+00,2.798063993453979492e+00,2.733775138854980469e+00,2.672374248504638672e+00,2.613670825958251953e+00,2.557491064071655273e+00,2.503675460815429688e+00,2.452078342437744141e+00,2.402564764022827148e+00,2.355011224746704102e+00,2.309303283691406250e+00,2.265336275100708008e+00,2.223011970520019531e+00,2.182240247726440430e+00,2.142937183380126953e+00,2.105024814605712891e+00,2.068430423736572266e+00,2.033086776733398438e+00,1.998930811882019043e+00,1.965903401374816895e+00,1.933949351310729980e+00,1.903017759323120117e+00,1.873059988021850586e+00,1.844030857086181641e+00
5.000000000000000000e+00,5.000000000000000000e+00,5.000000000000000000e+00,5.000000000000000000e+00,5.000000000000000000e+00,5.000000000000000000e+00,5.000000000000000000e+00,5.000000000000000000e+00,5.000000000000000000e+00,5.000000000000000000e+00,5.000000000000000000e+00,5.000000000000000000e+00,5.000000000000000000e+00,5.000000000000000000e+00,5.000000000000000000e+00,5.000000000000000000e+00,5.000000000000000000e+00,5.000000000000000000e+00,5.000000000000000000e+00,5.000000000000000000e+00,5.000000000000000000e+00,5.000000000000000000e+00,5.000000000000000000e+00,5.000000000000000000e+00,3.746532917022705078e+00,3.660378456115722656e+00,3.635078191757202148e+00,3.683195114135742188e+00,3.839417219161987305e+00,5.000000000000000000e+00,5.000000000000000000e+00,5.000000000000000000e+00,3.857648611068725586e+00,5.000000000000000000e+00,5.000000000000000000e+00,5.000000000000000000e+00,5.000000000000000000e+00,5.000000000000000000e+00,5.000000000000000000e+00,4.851964950561523438e+00,4.661860466003417969e+00,4.486091613769531250e+00,4.323095321655273438e+00,4.171528339385986328e+00,4.030228614807128906e+00,3.898188352584838867e+00,3.774525403976440430e+00,3.658467054367065430e+00,3.549333095550537109e+00,3.446521043777465820e+00,3.349497795104980469e+00,3.257787704467773438e+00,3.170965909957885742e+00,3.088651657104492188e+00,3.010502576828002930e+00,2.936210870742797852e+00,2.865497350692749023e+00,2.798109769821166992e+00,2.733819007873535156e+00,2.672416210174560547e+00,2.613710880279541016e+00,2.557529449462890625e+00,2.503712415695190430e+00,2.452113628387451172e+00,2.402598619461059570e+00,2.355043649673461914e+00,2.309334754943847656e+00,2.265366315841674805e+00,2.223041057586669922e+00,2.182268381118774414e+00,2.142964124679565430e+00,2.105050802230834961e+00,2.068455457687377930e+00,2.033111095428466797e+00,1.998954057693481445e+00,1.965926051139831543e+00,1.933971524238586426e+00,1.903039216995239258e+00,1.873080730438232422e+00,1.844050884246826172e+00
5.000000000000000000e+00,5.000000000000000000e+00,5.000000000000000000e+00,5.000000000000000000e+00,5.000000000000000000e+00,5.000000000000000000e+00,5.000000000000000000e+00,5.000000000000000000e+00,5.000000000000000000e+00,5.000000000000000000e+00,5.000000000000000000e+00,5.000000000000000000e+00,5.000000000000000000e+00,5.000000000000000000e+00,5.000000000000000000e+00,5.000000000000000000e+00,5.000000000000000000e+00,5.000000000000000000e+00,5.000000000000000000e+00,5.000000000000000000e+00,5.000000000000000000e+00,5.000000000000000000e+00,5.000000000000000000e+00,3.784096956253051758e+00,5.000000000000000000e+00,3.680471897125244141e+00,3.605500459671020508e+00,3.642874717712402344e+00,3.857544898986816406e+00,5.000000000000000000e+00,5.000000000000000000e+00,5.000000000000000000e+00,5.000000000000000000e+00,5.000000000000000000e+00,5.000000000000000000e+00,5.000000000000000000e+00,5.000000000000000000e+00,5.000000000000000000e+00,5.000000000000000000e+00,4.852103233337402344e+00,4.661987781524658203e+00,4.486209869384765625e+00,4.323204994201660156e+00,4.171629905700683594e+00,4.030323982238769531e+00,3.898277521133422852e+00,3.774608850479125977e+00,3.658545732498168945e+00,3.549406528472900391e+00,3.446590662002563477e+00,3.349563598632812500e+00,3.257850170135498047e+00,3.171025037765502930e+00,3.088707447052001953e+00,3.010555744171142578e+00,2.936261415481567383e+00,2.865545511245727539e+00,2.798155784606933594e+00,2.733862876892089844e+00,2.672457933425903320e+00,2.613750934600830078e+00,2.557567834854125977e+00,2.503749132156372070e+00,2.452148914337158203e+00,2.402632236480712891e+00,2.355076074600219727e+00,2.309365987777709961e+00,2.265396595001220703e+00,2.223070144653320312e+00,2.182296037673950195e+00,2.142991065979003906e+00,2.105076789855957031e+00,2.068480491638183594e+00,2.033135414123535156e+00,1.998977661132812500e+00,1.965948581695556641e+00,1.933993339538574219e+00,1.903060317039489746e+00,1.873101234436035156e+00,1.844070792198181152e+00
5.000000000000000000e+00,5.000000000000000000e+00,5.000000000000000000e+00,5.000000000000000000e+00,5.000000000000000000e+00,5.000000000000000000e+00,5.000000000000000000e+00,5.000000000000000000e+00,5.000000000000000000e+00,5.000000000000000000e+00,5.000000000000000000e+00,5.000000000000000000e+00,5.000000000000000000e+00,5.000000000000000000e+00,5.000000000000000000e+00,5.000000000000000000e+00,5.000000000000000000e+00,5.000000000000000000e+00,5.000000000000000000e+00,5.000000000000000000e+00,5.000000000000000000e+00,5.000000000000000000e+00,5.000000000000000000e+00,5.000000000000000000e+00,5.000000000000000000e+00,5.000000000000000000e+00,3.588801383972167969e+00,3.602108478546142578e+00,3.877305507659912109e+00,5.000000000000000000e+00,5.000000000000000000e+00,5.000000000000000000e+00,5.000000000000000000e+00,5.000000000000000000e+00,5.000000000000000000e+00,5.000000000000000000e+00,5.000000000000000000e+00,5.000000000000000000e+00,5.000000000000000000e+00,4.852241039276123047e+00,4.662115573883056641e+00,4.486327648162841797e+00,4.323314189910888672e+00,4.171732425689697266e+00,4.030419349670410156e+00,3.898366928100585938e+00,3.774692535400390625e+00,3.658623933792114258e+00,3.549480676651000977e+00,3.446660518646240234e+00,3.349629640579223633e+00,3.257912397384643555e+00,3.171083927154541016e+00,3.088763475418090820e+00,3.010608911514282227e+00,2.936311960220336914e+00,2.865593671798706055e+00,2.798201799392700195e+00,2.733906507492065430e+00,2.672499895095825195e+00,2.613790988922119141e+00,2.557606220245361328e+00,2.503785848617553711e+00,2.452183961868286133e+00,2.402666091918945312e+00,2.355108737945556641e+00,2.309397220611572266e+00,2.265426635742187500e+00,2.223098993301391602e+00,2.182324171066284180e+00,2.143018007278442383e+00,2.105102777481079102e+00,2.068505764007568359e+00,2.033159732818603516e+00,1.999001026153564453e+00,1.965971350669860840e+00,1.934015393257141113e+00,1.903081655502319336e+00,1.873121857643127441e+00,1.844090580940246582e+00
5.000000000000000000e+00,5.000000000000000000e+00,5.000000000000000000e+00,5.000000000000000000e+00,5.000000000000000000e+00,5.000000000000000000e+00,5.000000000000000000e+00,5.000000000000000000e+00,5.000000000000000000e+00,5.000000000000000000e+00,5.000000000000000000e+00,5.000000000000000000e+00,5.000000000000000000e+00,5.000000000000000000e+00,5.000000000000000000e+00,5.000000000000000000e+00,5.000000000000000000e+00,5.000000000000000000e+00,5.000000000000000000e+00,5.000000000000000000e+00,5.000000000000000000e+00,5.000000000000000000e+00,5.000000000000000000e+00,5.000000000000000000e+00,5.000000000000000000e+00,5.000000000000000000e+00,3.593453168869018555e+00,3.596197128295898438e+00,3.892725706100463867e+00,5.000000000000000000e+00,5.000000000000000000e+00,5.000000000000000000e+00,5.000000000000000000e+00,5.000000000000000000e+00,5.000000000000000000e+00,5.000000000000000000e+00,5.000000000000000000e+00,5.000000000000000000e+00,5.000000000000000000e+00,4.852379322052001953e+00,4.662243366241455078e+00,4.486445903778076172e+00,4.323423862457275391e+00,4.171834468841552734e+00,4.030514717102050781e+00,3.898456096649169922e+00,3.774775743484497070e+00,3.658702373504638672e+00,3.549554586410522461e+00,3.446730136871337891e+00,3.349695444107055664e+00,3.257974863052368164e+00,3.171142816543579102e+00,3.088819265365600586e+00,3.010662078857421875e+00,2.936362743377685547e+00,2.865642070770263672e+00,2.798247575759887695e+00,2.733950376510620117e+00,2.672541856765747070e+00,2.613831043243408203e+00,2.557644605636596680e+00,2.503822565078735352e+00,2.452219247817993164e+00,2.402699947357177734e+00,2.355141401290893555e+00,2.309428691864013672e+00,2.265456914901733398e+00,2.223127841949462891e+00,2.182352066040039062e+00,2.143044948577880859e+00,2.105128765106201172e+00,2.068530797958374023e+00,2.033183813095092773e+00,1.999024391174316406e+00,1.965994000434875488e+00,1.934037208557128906e+00,1.903102874755859375e+00,1.873142361640930176e+00,1.844110727310180664e+00
5.000000000000000000e+00,5.000000000000000000e+00,5.000000000000000000e+00,5.000000000000000000e+00,5.000000000000000000e+00,5.000000000000000000e+00,5.000000000000000000e+00,5.000000000000000000e+00,5.000000000000000000e+00,5.000000000000000000e+00,5.000000000000000000e+00,5.000000000000000000e+00,5.000000000000000000e+00,5.000000000000000000e+00,5.000000000000000000e+00,5.000000000000000000e+00,5.000000000000000000e+00,5.000000000000000000e+00,5.000000000000000000e+00,5.000000000000000000e+00,5.000000000000000000e+00,5.000000000000000000e+00,5.000000000000000000e+00,5.000000000000000000e+00,5.000000000000000000e+00,5.000000000000000000e+00,3.595743417739868164e+00,3.608547449111938477e+00,5.000000000000000000e+00,5.000000000000000000e+00,5.000000000000000000e+00,5.000000000000000000e+00,5.000000000000000000e+00,5.000000000000000000e+00,5.000000000000000000e+00,5.000000000000000000e+00,5.000000000000000000e+00,5.000000000000000000e+00,5.000000000000000000e+00,4.852516174316406250e+00,4.662370204925537109e+00,4.486563682556152344e+00,4.323534011840820312e+00,4.171936511993408203e+00,4.030610084533691406e+00,3.898545265197753906e+00,3.774859428405761719e+00,3.658781051635742188e+00,3.549628496170043945e+00,3.446799993515014648e+00,3.349761247634887695e+00,3.258036851882934570e+00,3.171201705932617188e+00,3.088875293731689453e+00,3.010715484619140625e+00,2.936413288116455078e+00,2.865689992904663086e+00,2.798293590545654297e+00,2.733994245529174805e+00,2.672583580017089844e+00,2.613871335983276367e+00,2.557682991027832031e+00,2.503859281539916992e+00,2.452254533767700195e+00,2.402734041213989258e+00,2.355173826217651367e+00,2.309459924697875977e+00,2.265486717224121094e+00,2.223156929016113281e+00,2.182379961013793945e+00,2.143071889877319336e+00,2.105154752731323242e+00,2.068555831909179688e+00,2.033208131790161133e+00,1.999047875404357910e+00,1.966016769409179688e+00,1.934059262275695801e+00,1.903124213218688965e+00,1.873162865638732910e+00,1.844130516052246094e+00
5.000000000000000000e+00,5.000000000000000000e+00,5.000000000000000000e+00,5.000000000000000000e+00,5.000000000000000000e+00,5.000000000000000000e+00,5.000000000000000000e+00,5.000000000000000000e+00,5.000000000000000000e+00,5.000000000000000000e+00,5.000000000000000000e+00,5.000000000000000000e+00,5.000000000000000000e+00,5.000000000000000000e+00,5.000000000000000000e+00,5.000000000000000000e+00,5.000000000000000000e+00,5.000000000000000000e+00,5.000000000000000000e+00,5.000000000000000000e+00,5.000000000000000000e+00,5.000000000000000000e+00,5.000000000000000000e+00,5.000000000000000000e+00,5.000000000000000000e+00,5.000000000000000000e+00,3.598836421966552734e+00,3.611950159072875977e+00,5.000000000000000000e+00,5.000000000000000000e+00,5.000000000000000000e+00,5.000000000000000000e+00,5.000000000000000000e+00,5.000000000000000000e+00,5.000000000000000000e+00,5.000000000000000000e+00,5.000000000000000000e+00,5.000000000000000000e+00,5.000000000000000000e+00,4.852654457092285156e+00,4.662497997283935547e+00,4.486681938171386719e+00,4.323643207550048828e+00,4.172038555145263672e+00,4.030705451965332031e+00,3.898633956909179688e+00,3.774943113327026367e+00,3.658859729766845703e+00,3.549702405929565430e+00,3.446869611740112305e+00,3.349826812744140625e+00,3.258099079132080078e+00,3.171260833740234375e+00,3.088931322097778320e+00,3.010768651962280273e+00,2.936463832855224609e+00,2.865738153457641602e+00,2.798339366912841797e+00,2.734038114547729492e+00,2.672625541687011719e+00,2.613911390304565430e+00,2.557721138000488281e+00,2.503896236419677734e+00,2.452289819717407227e+00,2.402767896652221680e+00,2.355206489562988281e+00,2.309491157531738281e+00,2.265516757965087891e+00,2.223186016082763672e+00,2.182407855987548828e+00,2.143098831176757812e+00,2.105180740356445312e+00,2.068580865859985352e+00,2.033232212066650391e+00,1.999071240425109863e+00,1.966039299964904785e+00,1.934081196784973145e+00,1.903145313262939453e+00,1.873183608055114746e+00,1.844150662422180176e+00
5.000000000000000000e+00,5.000000000000000000e+00,5.000000000000000000e+00,5.000000000000000000e+00,5.000000000000000000e+00,5.000000000000000000e+00,5.000000000000000000e+00,5.000000000000000000e+00,5.000000000000000000e+00,5.000000000000000000e+00,5.000000000000000000e+00,5.000000000000000000e+00,5.000000000000000000e+00,5.000000000000000000e+00,5.000000000000000000e+00,5.000000000000000000e+00,5.000000000000000000e+00,5.000000000000000000e+00,5.000000000000000000e+00,5.000000000000000000e+00,5.000000000000000000e+00,5.000000000000000000e+00,5.000000000000000000e+00,5.000000000000000000e+00,5.000000000000000000e+00,5.000000000000000000e+00,3.600746154785156250e+00,3.594440460205078125e+00,5.000000000000000000e+00,5.000000000000000000e+00,5.000000000000000000e+00,5.000000000000000000e+00,5.000000000000000000e+00,5.000000000000000000e+00,5.000000000000000000e+00,5.000000000000000000e+00,5.000000000000000000e+00,5.000000000000000000e+00,5.000000000000000000e+00,4.852792263031005859e+00,4.662624835968017578e+00,4.486800193786621094e+00,4.323752880096435547e+00,4.172140598297119141e+00,4.030800342559814453e+00,3.898723363876342773e+00,3.775026798248291016e+00,3.658938169479370117e+00,3.549776554107666016e+00,3.446938991546630859e+00,3.349892616271972656e+00,3.258161306381225586e+00,3.171319961547851562e+00,3.088987350463867188e+00,3.010821819305419922e+00,2.936514377593994141e+00,2.865786314010620117e+00,2.798385381698608398e+00,2.734081983566284180e+00,2.672667503356933594e+00,2.613951206207275391e+00,2.557759523391723633e+00,2.503932952880859375e+00,2.452325105667114258e+00,2.402801752090454102e+00,2.355238914489746094e+00,2.309522390365600586e+00,2.265547037124633789e+00,2.223215103149414062e+00,2.182435989379882812e+00,2.143125772476196289e+00,2.105206727981567383e+00,2.068606138229370117e+00,2.033256530761718750e+00,1.999094843864440918e+00,1.966062188148498535e+00,1.934103012084960938e+00,1.903166532516479492e+00,1.873204112052917480e+00,1.844170451164245605e+00
5.000000000000000000e+00,5.000000000000000000e+00,5.000000000000000000e+00,5.000000000000000000e+00,5.000000000000000000e+00,5.000000000000000000e+00,5.000000000000000000e+00,5.000000000000000000e+00,5.000000000000000000e+00,5.000000000000000000e+00,5.000000000000000000e+00,5.000000000000000000e+00,5.000000000000000000e+00,5.000000000000000000e+00,5.000000000000000000e+00,5.000000000000000000e+00,5.000000000000000000e+00,5.000000000000000000e+00,5.000000000000000000e+00,5.000000000000000000e+00,5.000000000000000000e+00,5.000000000000000000e+00,5.000000000000000000e+00,5.000000000000000000e+00,5.000000000000000000e+00,5.000000000000000000e+00,3.602784872055053711e+00,3.577118635177612305e+00,5.000000000000000000e+00,5.000000000000000000e+00,5.000000000000000000e+00,5.000000000000000000e+00,5.000000000000000000e+00,5.000000000000000000e+00,5.000000000000000000e+00,5.000000000000000000e+00,5.000000000000000000e+00,5.000000000000000000e+00,5.000000000000000000e+00,4.852930068969726562e+00,4.662752151489257812e+00,4.486917495727539062e+00,4.323863029479980469e+00,4.172242641448974609e+00,4.030895709991455078e+00,3.898812532424926758e+00,3.775110483169555664e+00,3.659016847610473633e+00,3.549850463867187500e+00,3.447008848190307617e+00,3.349958658218383789e+00,3.258223772048950195e+00,3.171378850936889648e+00,3.089043378829956055e+00,3.010874748229980469e+00,2.936564922332763672e+00,2.865834474563598633e+00,2.798431396484375000e+00,2.734125852584838867e+00,2.672709226608276367e+00,2.613991498947143555e+00,2.557798147201538086e+00,2.503969669342041016e+00,2.452360391616821289e+00,2.402835607528686523e+00,2.355271339416503906e+00,2.309553623199462891e+00,2.265577077865600586e+00,2.223243951797485352e+00,2.182463884353637695e+00,2.143152713775634766e+00,2.105232715606689453e+00,2.068631172180175781e+00,2.033280849456787109e+00,1.999118208885192871e+00,1.966084718704223633e+00,1.934125065803527832e+00,1.903187870979309082e+00,1.873224854469299316e+00,1.844190597534179688e+00
5.000000000000000000e+00,5.000000000000000000e+00,5.000000000000000000e+00,5.000000000000000000e+00,5.000000000000000000e+00,5.000000000000000000e+00,5.000000000000000000e+00,5.000000000000000000e+00,5.000000000000000000e+00,5.000000000000000000e+00,5.000000000000000000e+00,5.000000000000000000e+00,5.000000000000000000e+00,5.000000000000000000e+00,5.000000000000000000e+00,5.000000000000000000e+00,5.000000000000000000e+00,5.000000000000000000e+00,5.000000000000000000e+00,5.000000000000000000e+00,5.000000000000000000e+00,5.000000000000000000e+00,5.000000000000000000e+00,5.000000000000000000e+00,5.000000000000000000e+00,5.000000000000000000e+00,3.623611927032470703e+00,3.579749107360839844e+00,5.000000000000000000e+00,5.000000000000000000e+00,5.000000000000000000e+00,5.000000000000000000e+00,5.000000000000000000e+00,5.000000000000000000e+00,5.000000000000000000e+00,5.000000000000000000e+00,5.000000000000000000e+00,5.000000000000000000e+00,5.000000000000000000e+00,4.853068351745605469e+00,4.662879467010498047e+00,4.487035274505615234e+00,4.323971748352050781e+00,4.172345161437988281e+00,4.030991077423095703e+00,3.898901700973510742e+00,3.775194168090820312e+00,3.659095525741577148e+00,3.549924135208129883e+00,3.447078704833984375e+00,3.350024461746215820e+00,3.258285999298095703e+00,3.171437978744506836e+00,3.089099168777465820e+00,3.010927915573120117e+00,2.936615467071533203e+00,2.865882873535156250e+00,2.798477411270141602e+00,2.734169483184814453e+00,2.672751188278198242e+00,2.614031553268432617e+00,2.557836532592773438e+00,2.504006624221801758e+00,2.452395677566528320e+00,2.402869462966918945e+00,2.355304002761840820e+00,2.309585094451904297e+00,2.265607118606567383e+00,2.223273038864135742e+00,2.182491779327392578e+00,2.143179655075073242e+00,2.105258703231811523e+00,2.068656206130981445e+00,2.033305168151855469e+00,1.999141573905944824e+00,1.966107368469238281e+00,1.934146881103515625e+00,1.903209090232849121e+00,1.873245239257812500e+00,1.844210386276245117e+00
5.000000000000000000e+00,5.000000000000000000e+00,5.000000000000000000e+00,5.000000000000000000e+00,5.000000000000000000e+00,5.000000000000000000e+00,5.000000000000000000e+00,5.000000000000000000e+00,5.000000000000000000e+00,5.000000000000000000e+00,5.000000000000000000e+00,5.000000000000000000e+00,5.000000000000000000e+00,5.000000000000000000e+00,5.000000000000000000e+00,5.000000000000000000e+00,5.000000000000000000e+00,5.000000000000000000e+00,5.000000000000000000e+00,5.000000000000000000e+00,5.000000000000000000e+00,5.000000000000000000e+00,5.000000000000000000e+00,5.000000000000000000e+00,5.000000000000000000e+00,4.058076381683349609e+00,5.000000000000000000e+00,3.586482286453247070e+00,5.000000000000000000e+00,5.000000000000000000e+00,5.000000000000000000e+00,5.000000000000000000e+00,5.000000000000000000e+00,5.000000000000000000e+00,5.000000000000000000e+00,5.000000000000000000e+00,5.000000000000000000e+00,5.000000000000000000e+00,5.000000000000000000e+00,4.853206157684326172e+00,4.663006782531738281e+00,4.487153053283691406e+00,4.324081420898437500e+00,4.172447204589843750e+00,4.031086444854736328e+00,3.898991107940673828e+00,3.775277853012084961e+00,3.659173727035522461e+00,3.549998044967651367e+00,3.447148323059082031e+00,3.350090265274047852e+00,3.258348464965820312e+00,3.171496629714965820e+00,3.089155197143554688e+00,3.010981321334838867e+00,2.936666250228881836e+00,2.865931034088134766e+00,2.798523426055908203e+00,2.734213352203369141e+00,2.672793149948120117e+00,2.614071607589721680e+00,2.557874917984008789e+00,2.504043340682983398e+00,2.452430963516235352e+00,2.402903318405151367e+00,2.355336666107177734e+00,2.309616327285766602e+00,2.265637397766113281e+00,2.223301887512207031e+00,2.182519674301147461e+00,2.143206596374511719e+00,2.105284690856933594e+00,2.068681478500366211e+00,2.033329486846923828e+00,1.999165177345275879e+00,1.966130137443542480e+00,1.934169054031372070e+00,1.903230428695678711e+00,1.873265981674194336e+00,1.844230294227600098e+00
4.875626564025878906e+00,4.874416351318359375e+00,4.873206615447998047e+00,4.871997356414794922e+00,4.870788574218750000e+00,4.869581222534179688e+00,4.868373394012451172e+00,4.867166519165039062e+00,4.865960597991943359e+00,4.864755153656005859e+00,4.863550186157226562e+00,4.862346172332763672e+00,4.861142158508300781e+00,4.859938621520996094e+00,4.858736038208007812e+00,4.857534408569335938e+00,4.856332778930664062e+00,4.855132102966308594e+00,4.853932380676269531e+00,4.852732658386230469e+00,4.851533412933349609e+00,4.850335121154785156e+00,4.849137306213378906e+00,4.847939968109130859e+00,4.846743583679199219e+00,4.044573307037353516e+00,4.033659934997558594e+00,3.530206918716430664e+00,3.481704711914062500e+00,4.840769290924072266e+00,4.839576244354248047e+00,4.838383674621582031e+00,4.837191581726074219e+00,4.836000442504882812e+00,4.834809780120849609e+00,4.833619594573974609e+00,4.832429885864257812e+00,4.831241130828857422e+00,4.830052375793457031e+00,4.828865051269531250e+00,4.663134098052978516e+00,4.487271308898925781e+00,4.324190616607666016e+00,4.172548294067382812e+00,4.031181812286376953e+00,3.899080276489257812e+00,3.775361061096191406e+00,3.659252166748046875e+00,3.550071954727172852e+00,3.447218179702758789e+00,3.350156307220458984e+00,3.258410453796386719e+00,3.171555757522583008e+00,3.089211225509643555e+00,3.011034488677978516e+00,2.936716794967651367e+00,2.865979194641113281e+00,2.798569202423095703e+00,2.734257459640502930e+00,2.672835111618041992e+00,2.614111661911010742e+00,2.557913303375244141e+00,2.504080057144165039e+00,2.452466249465942383e+00,2.402937173843383789e+00,2.355369091033935547e+00,2.309647560119628906e+00,2.265667438507080078e+00,2.223330974578857422e+00,2.182547569274902344e+00,2.143233537673950195e+00,2.105310678482055664e+00,2.068706512451171875e+00,2.033353567123413086e+00,1.999188423156738281e+00,1.966152667999267578e+00,1.934190869331359863e+00,1.903251647949218750e+00,1.873286485671997070e+00,1.844250321388244629e+00
3.778467893600463867e+00,3.777740955352783203e+00,3.777014255523681641e+00,3.776287794113159180e+00,3.775561571121215820e+00,3.774835824966430664e+00,3.774110555648803711e+00,3.773385047912597656e+00,3.772660017013549805e+00,3.771935224533081055e+00,3.771210908889770508e+00,3.770486593246459961e+00,3.769762992858886719e+00,3.769039392471313477e+00,3.768316030502319336e+00,3.767592906951904297e+00,3.766870021820068359e+00,3.766147613525390625e+00,3.765425682067871094e+00,3.764703750610351562e+00,3.763982057571411133e+00,3.763260602951049805e+00,3.762539386749267578e+00,3.761818408966064453e+00,3.761097908020019531e+00,3.760377883911132812e+00,3.759657859802246094e+00,3.758938074111938477e+00,3.758218526840209961e+00,3.757499456405639648e+00,3.756780385971069336e+00,3.756062030792236328e+00,3.755343675613403320e+00,3.754625558853149414e+00,3.753907680511474609e+00,3.753190040588378906e+00,3.752472877502441406e+00,3.751756191253662109e+00,3.751039505004882812e+00,3.750322818756103516e+00,3.749606609344482422e+00,3.748890638351440430e+00,3.748175144195556641e+00,3.747460126876831055e+00,3.746744871139526367e+00,3.746030092239379883e+00,3.745315551757812500e+00,3.659330844879150391e+00,3.550146102905273438e+00,3.447287797927856445e+00,3.350222110748291016e+00,3.258472681045532227e+00,3.171614885330200195e+00,3.089267253875732422e+00,3.011087656021118164e+00,2.936767339706420898e+00,2.866027116775512695e+00,2.798615217208862305e+00,2.734301328659057617e+00,2.672877073287963867e+00,2.614151954650878906e+00,2.557951450347900391e+00,2.504116773605346680e+00,2.452501535415649414e+00,2.402971029281616211e+00,2.355401754379272461e+00,2.309679031372070312e+00,2.265697479248046875e+00,2.223359823226928711e+00,2.182575702667236328e+00,2.143260478973388672e+00,2.105336904525756836e+00,2.068731546401977539e+00,2.033377885818481445e+00,1.999212026596069336e+00,1.966175556182861328e+00,1.934212923049926758e+00,1.903272747993469238e+00,1.873306989669799805e+00,1.844270229339599609e+00
3.084389686584472656e+00,3.083905458450317383e+00,3.083420991897583008e+00,3.082937002182006836e+00,3.082453250885009766e+00,3.081969261169433594e+00,3.081485509872436523e+00,3.081001996994018555e+00,3.080518722534179688e+00,3.080035448074340820e+00,3.079552650451660156e+00,3.079069614410400391e+00,3.078586816787719727e+00,3.078104257583618164e+00,3.077621698379516602e+00,3.077139377593994141e+00,3.076657533645629883e+00,3.076175451278686523e+00,3.075693607330322266e+00,3.075211763381958008e+00,3.074730157852172852e+00,3.074248790740966797e+00,3.073767662048339844e+00,3.073286533355712891e+00,3.072805643081665039e+00,3.072324752807617188e+00,3.071844100952148438e+00,3.071363449096679688e+00,3.070883512496948242e+00,3.070403337478637695e+00,3.069923162460327148e+00,3.069443225860595703e+00,3.068963527679443359e+00,3.068483829498291016e+00,3.068004369735717773e+00,3.067525386810302734e+00,3.067046165466308594e+00,3.066566944122314453e+00,3.066088199615478516e+00,3.065609455108642578e+00,3.065130949020385742e+00,3.064652681350708008e+00,3.064174413681030273e+00,3.063696384429931641e+00,3.063218355178833008e+00,3.062740564346313477e+00,3.062262773513793945e+00,3.061785697937011719e+00,3.061308145523071289e+00,3.060831069946289062e+00,3.060353755950927734e+00,3.059876918792724609e+00,3.059400081634521484e+00,3.058923721313476562e+00,3.011140823364257812e+00,2.936817884445190430e+00,2.866075515747070312e+00,2.798660993576049805e+00,2.734345197677612305e+00,2.672919034957885742e+00,2.614191770553588867e+00,2.557989835739135742e+00,2.504153728485107422e+00,2.452536821365356445e+00,2.403004884719848633e+00,2.355434179306030273e+00,2.309710025787353516e+00,2.265727519989013672e+00,2.223388910293579102e+00,2.182603597640991211e+00,2.143287420272827148e+00,2.105362653732299805e+00,2.068756580352783203e+00,2.033402204513549805e+00,1.999235391616821289e+00,1.966198086738586426e+00,1.934234857559204102e+00,1.903294086456298828e+00,1.873327732086181641e+00,1.844290256500244141e+00
2.605734586715698242e+00,2.605388879776000977e+00,2.605043411254882812e+00,2.604697704315185547e+00,2.604352235794067383e+00,2.604006767272949219e+00,2.603661537170410156e+00,2.603316307067871094e+00,2.602971315383911133e+00,2.602626323699951172e+00,2.602281332015991211e+00,2.601936340332031250e+00,2.601591587066650391e+00,2.601247072219848633e+00,2.600902557373046875e+00,2.600558042526245117e+00,2.600213766098022461e+00,2.599869489669799805e+00,2.599525213241577148e+00,2.599181175231933594e+00,2.598837137222290039e+00,2.598493337631225586e+00,2.598149299621582031e+00,2.597805738449096680e+00,2.597461938858032227e+00,2.597118377685546875e+00,2.596775054931640625e+00,2.596431732177734375e+00,2.596088409423828125e+00,2.595745086669921875e+00,2.595402002334594727e+00,2.595058917999267578e+00,2.594716310501098633e+00,2.594373464584350586e+00,2.594030618667602539e+00,2.593688011169433594e+00,2.593345403671264648e+00,2.593002796173095703e+00,2.592660665512084961e+00,2.592318296432495117e+00,2.591976165771484375e+00,2.591634035110473633e+00,2.591291904449462891e+00,2.590950012207031250e+00,2.590608358383178711e+00,2.590266466140747070e+00,2.589924812316894531e+00,2.589583158493041992e+00,2.589241743087768555e+00,2.588900327682495117e+00,2.588558912277221680e+00,2.588217973709106445e+00,2.587876796722412109e+00,2.587535858154296875e+00,2.587194919586181641e+00,2.586853981018066406e+00,2.586513280868530273e+00,2.586172580718994141e+00,2.585832118988037109e+00,2.585491657257080078e+00,2.585151195526123047e+00,2.558028221130371094e+00,2.504190444946289062e+00,2.452572107315063477e+00,2.403038740158081055e+00,2.355466604232788086e+00,2.309741497039794922e+00,2.265757799148559570e+00,2.223417997360229492e+00,2.182631492614746094e+00,2.143314361572265625e+00,2.105388641357421875e+00,2.068781852722167969e+00,2.033426284790039062e+00,1.999258995056152344e+00,1.966220855712890625e+00,1.934256672859191895e+00,1.903315305709838867e+00,1.873348236083984375e+00,1.844310164451599121e+00
2.255687236785888672e+00,2.255427837371826172e+00,2.255168676376342773e+00,2.254909515380859375e+00,2.254650354385375977e+00,2.254391431808471680e+00,2.254132509231567383e+00,2.253873586654663086e+00,2.253614664077758789e+00,2.253355979919433594e+00,2.253097295761108398e+00,2.252838611602783203e+00,2.252579927444458008e+00,2.252321481704711914e+00,2.252063035964965820e+00,2.251804590225219727e+00,2.251546144485473633e+00,2.251287937164306641e+00,2.251029729843139648e+00,2.250771522521972656e+00,2.250513315200805664e+00,2.250255107879638672e+00,2.249997138977050781e+00,2.249739170074462891e+00,2.249481678009033203e+00,2.249223947525024414e+00,2.248966217041015625e+00,2.248708724975585938e+00,2.248451232910156250e+00,2.248193740844726562e+00,2.247936487197875977e+00,2.247679233551025391e+00,2.247421741485595703e+00,2.247164726257324219e+00,2.246907472610473633e+00,2.246650457382202148e+00,2.246393442153930664e+00,2.246136426925659180e+00,2.245879650115966797e+00,2.245622634887695312e+00,2.245365858078002930e+00,2.245109081268310547e+00,2.244852542877197266e+00,2.244596004486083984e+00,2.244339227676391602e+00,2.244082689285278320e+00,2.243826389312744141e+00,2.243569850921630859e+00,2.243313789367675781e+00,2.243057489395141602e+00,2.242801189422607422e+00,2.242545127868652344e+00,2.242289066314697266e+00,2.242033004760742188e+00,2.241776943206787109e+00,2.241521120071411133e+00,2.241265296936035156e+00,2.241009473800659180e+00,2.240753650665283203e+00,2.240498065948486328e+00,2.240242242813110352e+00,2.239986896514892578e+00,2.239731311798095703e+00,2.239475965499877930e+00,2.239220380783081055e+00,2.238965034484863281e+00,2.238709926605224609e+00,2.238454818725585938e+00,2.223447084426879883e+00,2.182659626007080078e+00,2.143341302871704102e+00,2.105414867401123047e+00,2.068806886672973633e+00,2.033450603485107422e+00,1.999282360076904297e+00,1.966243505477905273e+00,1.934278726577758789e+00,1.903336644172668457e+00,1.873368859291076660e+00,1.844330191612243652e+00
1.988557815551757812e+00,1.988356351852416992e+00,1.988154888153076172e+00,1.987953424453735352e+00,1.987752079963684082e+00,1.987550735473632812e+00,1.987349390983581543e+00,1.987148165702819824e+00,1.986946940422058105e+00,1.986745834350585938e+00,1.986544609069824219e+00,1.986343622207641602e+00,1.986142516136169434e+00,1.985941529273986816e+00,1.985740542411804199e+00,1.985539674758911133e+00,1.985338687896728516e+00,1.985137939453125000e+00,1.984937071800231934e+00,1.984736561775207520e+00,1.984535813331604004e+00,1.984335064888000488e+00,1.984134435653686523e+00,1.983933806419372559e+00,1.983733296394348145e+00,1.983532786369323730e+00,1.983332276344299316e+00,1.983131885528564453e+00,1.982931494712829590e+00,1.982731103897094727e+00,1.982530832290649414e+00,1.982330441474914551e+00,1.982130289077758789e+00,1.981930017471313477e+00,1.981729865074157715e+00,1.981529831886291504e+00,1.981329679489135742e+00,1.981129646301269531e+00,1.980929613113403320e+00,1.980729699134826660e+00,1.980529785156250000e+00,1.980329871177673340e+00,1.980130076408386230e+00,1.979930281639099121e+00,1.979730725288391113e+00,1.979531049728393555e+00,1.979331374168395996e+00,1.979131698608398438e+00,1.978932142257690430e+00,1.978732585906982422e+00,1.978533029556274414e+00,1.978333592414855957e+00,1.978134155273437500e+00,1.977934718132019043e+00,1.977735400199890137e+00,1.977536082267761230e+00,1.977336764335632324e+00,1.977137565612792969e+00,1.976938366889953613e+00,1.976739168167114258e+00,1.976540088653564453e+00,1.976341009140014648e+00,1.976141929626464844e+00,1.975942969322204590e+00,1.975744009017944336e+00,1.975545048713684082e+00,1.975346207618713379e+00,1.975147366523742676e+00,1.974948525428771973e+00,1.974749803543090820e+00,1.974551320075988770e+00,1.974352598190307617e+00,1.974153995513916016e+00,1.973955392837524414e+00,1.973756909370422363e+00,1.966266036033630371e+00,1.934300541877746582e+00,1.903357863426208496e+00,1.873389363288879395e+00,1.844350099563598633e+00
1.777998566627502441e+00,1.777837514877319336e+00,1.777676463127136230e+00,1.777515411376953125e+00,1.777354359626770020e+00,1.777193427085876465e+00,1.777032494544982910e+00,1.776871562004089355e+00,1.776710748672485352e+00,1.776549816131591797e+00,1.776389002799987793e+00,1.776228189468383789e+00,1.776067495346069336e+00,1.775906920433044434e+00,1.775746226310729980e+00,1.775585532188415527e+00,1.775424838066101074e+00,1.775264263153076172e+00,1.775103688240051270e+00,1.774943113327026367e+00,1.774782538414001465e+00,1.774621963500976562e+00,1.774461507797241211e+00,1.774301052093505859e+00,1.774140715599060059e+00,1.773980259895324707e+00,1.773819923400878906e+00,1.773659586906433105e+00,1.773499250411987305e+00,1.773339033126831055e+00,1.773178696632385254e+00,1.773018479347229004e+00,1.772858381271362305e+00,1.772698163986206055e+00,1.772538065910339355e+00,1.772377967834472656e+00,1.772217869758605957e+00,1.772057771682739258e+00,1.771898031234741211e+00,1.771737933158874512e+00,1.771578073501586914e+00,1.771418094635009766e+00,1.771258234977722168e+00,1.771098375320434570e+00,1.770938515663146973e+00,1.770778656005859375e+00,1.770618915557861328e+00,1.770459175109863281e+00,1.770299434661865234e+00,1.770139694213867188e+00,1.769980072975158691e+00,1.769820332527160645e+00,1.769660711288452148e+00,1.769501209259033203e+00,1.769341588020324707e+00,1.769182085990905762e+00,1.769022583961486816e+00,1.768863081932067871e+00,1.768703699111938477e+00,1.768544316291809082e+00,1.768384933471679688e+00,1.768225550651550293e+00,1.768066167831420898e+00,1.767907142639160156e+00,1.767747879028320312e+00,1.767588615417480469e+00,1.767429351806640625e+00,1.767270207405090332e+00,1.767111063003540039e+00,1.766951918601989746e+00,1.766792774200439453e+00,1.766633749008178711e+00,1.766474723815917969e+00,1.766315698623657227e+00,1.766156792640686035e+00,1.765997767448425293e+00,1.765838861465454102e+00,1.765679955482482910e+00,1.765521049499511719e+00,1.765362262725830078e+00
1.607760310173034668e+00,1.607628583908081055e+00,1.607496857643127441e+00,1.607365131378173828e+00,1.607233524322509766e+00,1.607101917266845703e+00,1.606970429420471191e+00,1.606838822364807129e+00,1.606707215309143066e+00,1.606575727462768555e+00,1.606444120407104492e+00,1.606312632560729980e+00,1.606181144714355469e+00,1.606049776077270508e+00,1.605918288230895996e+00,1.605786919593811035e+00,1.605655431747436523e+00,1.605524063110351562e+00,1.605392694473266602e+00,1.605261445045471191e+00,1.605130076408386230e+00,1.604998826980590820e+00,1.604867577552795410e+00,1.604736328125000000e+00,1.604605078697204590e+00,1.604473829269409180e+00,1.604342699050903320e+00,1.604211568832397461e+00,1.604080319404602051e+00,1.603949308395385742e+00,1.603818178176879883e+00,1.603687047958374023e+00,1.603556156158447266e+00,1.603425145149230957e+00,1.603294134140014648e+00,1.603163123130798340e+00,1.603032231330871582e+00,1.602901220321655273e+00,1.602770328521728516e+00,1.602639436721801758e+00,1.602508544921875000e+00,1.602377653121948242e+00,1.602246880531311035e+00,1.602115988731384277e+00,1.601985216140747070e+00,1.601854443550109863e+00,1.601723670959472656e+00,1.601592898368835449e+00,1.601462244987487793e+00,1.601331591606140137e+00,1.601200938224792480e+00,1.601070284843444824e+00,1.600939631462097168e+00,1.600808978080749512e+00,1.600678443908691406e+00,1.600547909736633301e+00,1.600417375564575195e+00,1.600286960601806641e+00,1.600156426429748535e+00,1.600026011466979980e+00,1.599895477294921875e+00,1.599765062332153320e+00,1.599634647369384766e+00,1.599504232406616211e+00,1.599373936653137207e+00,1.599243521690368652e+00,1.599113225936889648e+00,1.598982930183410645e+00,1.598852634429931641e+00,1.598722338676452637e+00,1.598592162132263184e+00,1.598461866378784180e+00,1.598331689834594727e+00,1.598201513290405273e+00,1.598071336746215820e+00,1.597941160202026367e+00,1.597811102867126465e+00,1.597681045532226562e+00,1.597550988197326660e+00,1.597420930862426758e+00
1.467273116111755371e+00,1.467163443565368652e+00,1.467053771018981934e+00,1.466944098472595215e+00,1.466834425926208496e+00,1.466724753379821777e+00,1.466615080833435059e+00,1.466505527496337891e+00,1.466395974159240723e+00,1.466286301612854004e+00,1.466176748275756836e+00,1.466067194938659668e+00,1.465957760810852051e+00,1.465848207473754883e+00,1.465738654136657715e+00,1.465629220008850098e+00,1.465519785881042480e+00,1.465410351753234863e+00,1.465300917625427246e+00,1.465191483497619629e+00,1.465082049369812012e+00,1.464972734451293945e+00,1.464863300323486328e+00,1.464753985404968262e+00,1.464644670486450195e+00,1.464535474777221680e+00,1.464426159858703613e+00,1.464316844940185547e+00,1.464207649230957031e+00,1.464098334312438965e+00,1.463989138603210449e+00,1.463879942893981934e+00,1.463770747184753418e+00,1.463661551475524902e+00,1.463552355766296387e+00,1.463443160057067871e+00,1.463334083557128906e+00,1.463225007057189941e+00,1.463115811347961426e+00,1.463006734848022461e+00,1.462897658348083496e+00,1.462788701057434082e+00,1.462679624557495117e+00,1.462570548057556152e+00,1.462461590766906738e+00,1.462352633476257324e+00,1.462243676185607910e+00,1.462134718894958496e+00,1.462025761604309082e+00,1.461916804313659668e+00,1.461807966232299805e+00,1.461699128150939941e+00,1.461590290069580078e+00,1.461481451988220215e+00,1.461372613906860352e+00,1.461263775825500488e+00,1.461154937744140625e+00,1.461046099662780762e+00,1.460937380790710449e+00,1.460828661918640137e+00,1.460719823837280273e+00,1.460611104965209961e+00,1.460502386093139648e+00,1.460393667221069336e+00,1.460285067558288574e+00,1.460176348686218262e+00,1.460067749023437500e+00,1.459959149360656738e+00,1.459850430488586426e+00,1.459741830825805664e+00,1.459633350372314453e+00,1.459524750709533691e+00,1.459416151046752930e+00,1.459307670593261719e+00,1.459199070930480957e+00,1.459090590476989746e+00,1.458982229232788086e+00,1.458873748779296875e+00,1.458765387535095215e+00,1.458656907081604004e+00
1.349364638328552246e+00,1.349271893501281738e+00,1.349179029464721680e+00,1.349086284637451172e+00,1.348993539810180664e+00,1.348900794982910156e+00,1.348808169364929199e+00,1.348715424537658691e+00,1.348622679710388184e+00,1.348530054092407227e+00,1.348437309265136719e+00,1.348344683647155762e+00,1.348252058029174805e+00,1.348159432411193848e+00,1.348066806793212891e+00,1.347974181175231934e+00,1.347881674766540527e+00,1.347789049148559570e+00,1.347696423530578613e+00,1.347604036331176758e+00,1.347511529922485352e+00,1.347418904304504395e+00,1.347326517105102539e+00,1.347234010696411133e+00,1.347141504287719727e+00,1.347048997879028320e+00,1.346956491470336914e+00,1.346864104270935059e+00,1.346771597862243652e+00,1.346679210662841797e+00,1.346586823463439941e+00,1.346494436264038086e+00,1.346402049064636230e+00,1.346309661865234375e+00,1.346217274665832520e+00,1.346124887466430664e+00,1.346032619476318359e+00,1.345940232276916504e+00,1.345847964286804199e+00,1.345755577087402344e+00,1.345663309097290039e+00,1.345571041107177734e+00,1.345478773117065430e+00,1.345386505126953125e+00,1.345294475555419922e+00,1.345202207565307617e+00,1.345109939575195312e+00,1.345017790794372559e+00,1.344925642013549805e+00,1.344833374023437500e+00,1.344741225242614746e+00,1.344649076461791992e+00,1.344556927680969238e+00,1.344464898109436035e+00,1.344372749328613281e+00,1.344280600547790527e+00,1.344188570976257324e+00,1.344096422195434570e+00,1.344004392623901367e+00,1.343912363052368164e+00,1.343820333480834961e+00,1.343728303909301758e+00,1.343636274337768555e+00,1.343544244766235352e+00,1.343452334403991699e+00,1.343360304832458496e+00,1.343268394470214844e+00,1.343176364898681641e+00,1.343084454536437988e+00,1.342992544174194336e+00,1.342900753021240234e+00,1.342808842658996582e+00,1.342716932296752930e+00,1.342625141143798828e+00,1.342533230781555176e+00,1.342441320419311523e+00,1.342349529266357422e+00,1.342257738113403320e+00,1.342165946960449219e+00,1.342074155807495117e+00
1.248996615409851074e+00,1.248917102813720703e+00,1.248837590217590332e+00,1.248758196830749512e+00,1.248678684234619141e+00,1.248599290847778320e+00,1.248519778251647949e+00,1.248440384864807129e+00,1.248360991477966309e+00,1.248281598091125488e+00,1.248202204704284668e+00,1.248122692108154297e+00,1.248043417930603027e+00,1.247964143753051758e+00,1.247884750366210938e+00,1.247805356979370117e+00,1.247726082801818848e+00,1.247646689414978027e+00,1.247567415237426758e+00,1.247488021850585938e+00,1.247408747673034668e+00,1.247329473495483398e+00,1.247250199317932129e+00,1.247170925140380859e+00,1.247091650962829590e+00,1.247012376785278320e+00,1.246933102607727051e+00,1.246853947639465332e+00,1.246774673461914062e+00,1.246695518493652344e+00,1.246616244316101074e+00,1.246537089347839355e+00,1.246457934379577637e+00,1.246378660202026367e+00,1.246299505233764648e+00,1.246220350265502930e+00,1.246141314506530762e+00,1.246062159538269043e+00,1.245983123779296875e+00,1.245903968811035156e+00,1.245824933052062988e+00,1.245745778083801270e+00,1.245666742324829102e+00,1.245587587356567383e+00,1.245508551597595215e+00,1.245429515838623047e+00,1.245350480079650879e+00,1.245271444320678711e+00,1.245192408561706543e+00,1.245113372802734375e+00,1.245034456253051758e+00,1.244955420494079590e+00,1.244876384735107422e+00,1.244797468185424805e+00,1.244718551635742188e+00,1.244639515876770020e+00,1.244560599327087402e+00,1.244481682777404785e+00,1.244402766227722168e+00,1.244323849678039551e+00,1.244244933128356934e+00,1.244166016578674316e+00,1.244087219238281250e+00,1.244008421897888184e+00,1.243929505348205566e+00,1.243850708007812500e+00,1.243771791458129883e+00,1.243692994117736816e+00,1.243614196777343750e+00,1.243535399436950684e+00,1.243456602096557617e+00,1.243377804756164551e+00,1.243299007415771484e+00,1.243220210075378418e+00,1.243141531944274902e+00,1.243062734603881836e+00,1.242983937263488770e+00,1.242905259132385254e+00,1.242826581001281738e+00,1.242747783660888672e+00
1.162526011466979980e+00,1.162457108497619629e+00,1.162388324737548828e+00,1.162319421768188477e+00,1.162250638008117676e+00,1.162181735038757324e+00,1.162113070487976074e+00,1.162044167518615723e+00,1.161975383758544922e+00,1.161906599998474121e+00,1.161837816238403320e+00,1.161769032478332520e+00,1.161700248718261719e+00,1.161631464958190918e+00,1.161562681198120117e+00,1.161493897438049316e+00,1.161425232887268066e+00,1.161356449127197266e+00,1.161287665367126465e+00,1.161219000816345215e+00,1.161150217056274414e+00,1.161081552505493164e+00,1.161012887954711914e+00,1.160944223403930664e+00,1.160875439643859863e+00,1.160806775093078613e+00,1.160738110542297363e+00,1.160669445991516113e+00,1.160600781440734863e+00,1.160532236099243164e+00,1.160463571548461914e+00,1.160394906997680664e+00,1.160326361656188965e+00,1.160257816314697266e+00,1.160189151763916016e+00,1.160120606422424316e+00,1.160051941871643066e+00,1.159983396530151367e+00,1.159914851188659668e+00,1.159846305847167969e+00,1.159777760505676270e+00,1.159709215164184570e+00,1.159640669822692871e+00,1.159572124481201172e+00,1.159503579139709473e+00,1.159435033798217773e+00,1.159366607666015625e+00,1.159298062324523926e+00,1.159229636192321777e+00,1.159161090850830078e+00,1.159092664718627930e+00,1.159024238586425781e+00,1.158955693244934082e+00,1.158887267112731934e+00,1.158818840980529785e+00,1.158750414848327637e+00,1.158681988716125488e+00,1.158613681793212891e+00,1.158545255661010742e+00,1.158476829528808594e+00,1.158408403396606445e+00,1.158340096473693848e+00,1.158271670341491699e+00,1.158203363418579102e+00,1.158134937286376953e+00,1.158066630363464355e+00,1.157998323440551758e+00,1.157930016517639160e+00,1.157861590385437012e+00,1.157793283462524414e+00,1.157724976539611816e+00,1.157656669616699219e+00,1.157588481903076172e+00,1.157520174980163574e+00,1.157451868057250977e+00,1.157383561134338379e+00,1.157315373420715332e+00,1.157247066497802734e+00,1.157178878784179688e+00,1.157110571861267090e+00
1.087253212928771973e+00,1.087193012237548828e+00,1.087132811546325684e+00,1.087072610855102539e+00,1.087012410163879395e+00,1.086952090263366699e+00,1.086891889572143555e+00,1.086831688880920410e+00,1.086771488189697266e+00,1.086711406707763672e+00,1.086651206016540527e+00,1.086591005325317383e+00,1.086530804634094238e+00,1.086470723152160645e+00,1.086410522460937500e+00,1.086350321769714355e+00,1.086290240287780762e+00,1.086230158805847168e+00,1.086169958114624023e+00,1.086109876632690430e+00,1.086049795150756836e+00,1.085989594459533691e+00,1.085929512977600098e+00,1.085869431495666504e+00,1.085809350013732910e+00,1.085749387741088867e+00,1.085689306259155273e+00,1.085629224777221680e+00,1.085569143295288086e+00,1.085509061813354492e+00,1.085449099540710449e+00,1.085389018058776855e+00,1.085328936576843262e+00,1.085268974304199219e+00,1.085208892822265625e+00,1.085148930549621582e+00,1.085088968276977539e+00,1.085028886795043945e+00,1.084968924522399902e+00,1.084908962249755859e+00,1.084848999977111816e+00,1.084789037704467773e+00,1.084728956222534180e+00,1.084668993949890137e+00,1.084609150886535645e+00,1.084549188613891602e+00,1.084489226341247559e+00,1.084429264068603516e+00,1.084369301795959473e+00,1.084309458732604980e+00,1.084249496459960938e+00,1.084189653396606445e+00,1.084129810333251953e+00,1.084069848060607910e+00,1.084010004997253418e+00,1.083950161933898926e+00,1.083890199661254883e+00,1.083830356597900391e+00,1.083770513534545898e+00,1.083710670471191406e+00,1.083650827407836914e+00,1.083590984344482422e+00,1.083531141281127930e+00,1.083471298217773438e+00,1.083411455154418945e+00,1.083351731300354004e+00,1.083291888236999512e+00,1.083232045173645020e+00,1.083172321319580078e+00,1.083112478256225586e+00,1.083052754402160645e+00,1.082992911338806152e+00,1.082933187484741211e+00,1.082873344421386719e+00,1.082813620567321777e+00,1.082753896713256836e+00,1.082694172859191895e+00,1.082634449005126953e+00,1.082574725151062012e+00,1.082515001296997070e+00
1.021135449409484863e+00,1.021082282066345215e+00,1.021029114723205566e+00,1.020976066589355469e+00,1.020922899246215820e+00,1.020869731903076172e+00,1.020816683769226074e+00,1.020763516426086426e+00,1.020710468292236328e+00,1.020657420158386230e+00,1.020604252815246582e+00,1.020551204681396484e+00,1.020498156547546387e+00,1.020445108413696289e+00,1.020392060279846191e+00,1.020338892936706543e+00,1.020285844802856445e+00,1.020232796669006348e+00,1.020179867744445801e+00,1.020126819610595703e+00,1.020073771476745605e+00,1.020020723342895508e+00,1.019967794418334961e+00,1.019914746284484863e+00,1.019861698150634766e+00,1.019808769226074219e+00,1.019755721092224121e+00,1.019702792167663574e+00,1.019649744033813477e+00,1.019596815109252930e+00,1.019543766975402832e+00,1.019490838050842285e+00,1.019437909126281738e+00,1.019384860992431641e+00,1.019331932067871094e+00,1.019279003143310547e+00,1.019226074218750000e+00,1.019173145294189453e+00,1.019120216369628906e+00,1.019067287445068359e+00,1.019014358520507812e+00,1.018961429595947266e+00,1.018908500671386719e+00,1.018855571746826172e+00,1.018802762031555176e+00,1.018749833106994629e+00,1.018697023391723633e+00,1.018644094467163086e+00,1.018591284751892090e+00,1.018538355827331543e+00,1.018485546112060547e+00,1.018432617187500000e+00,1.018379807472229004e+00,1.018326878547668457e+00,1.018274068832397461e+00,1.018221259117126465e+00,1.018168449401855469e+00,1.018115639686584473e+00,1.018062710762023926e+00,1.018009901046752930e+00,1.017957091331481934e+00,1.017904281616210938e+00,1.017851591110229492e+00,1.017798781394958496e+00,1.017745971679687500e+00,1.017693161964416504e+00,1.017640352249145508e+00,1.017587661743164062e+00,1.017534852027893066e+00,1.017482042312622070e+00,1.017429351806640625e+00,1.017376661300659180e+00,1.017323851585388184e+00,1.017271161079406738e+00,1.017218470573425293e+00,1.017165660858154297e+00,1.017112970352172852e+00,1.017060279846191406e+00,1.017007589340209961e+00,1.016954779624938965e+00
9.625980854034423828e-01,9.625509381294250488e-01,9.625036716461181641e-01,9.624565243721008301e-01,9.624092578887939453e-01,9.623620510101318359e-01,9.623148441314697266e-01,9.622676968574523926e-01,9.622204303741455078e-01,9.621733427047729492e-01,9.621260762214660645e-01,9.620789885520935059e-01,9.620317220687866211e-01,9.619846343994140625e-01,9.619375467300415039e-01,9.618903398513793945e-01,9.618432521820068359e-01,9.617960453033447266e-01,9.617489576339721680e-01,9.617017507553100586e-01,9.616546630859375000e-01,9.616075158119201660e-01,9.615604281425476074e-01,9.615132808685302734e-01,9.614661931991577148e-01,9.614190459251403809e-01,9.613720178604125977e-01,9.613248705863952637e-01,9.612778425216674805e-01,9.612306952476501465e-01,9.611836671829223633e-01,9.611365199089050293e-01,9.610894918441772461e-01,9.610423445701599121e-01,9.609953761100769043e-01,9.609482288360595703e-01,9.609012603759765625e-01,9.608541131019592285e-01,9.608071446418762207e-01,9.607601165771484375e-01,9.607130289077758789e-01,9.606660604476928711e-01,9.606189727783203125e-01,9.605720043182373047e-01,9.605249166488647461e-01,9.604780077934265137e-01,9.604309201240539551e-01,9.603839516639709473e-01,9.603369235992431641e-01,9.602899551391601562e-01,9.602429270744323730e-01,9.601959586143493652e-01,9.601489305496215820e-01,9.601020216941833496e-01,9.600549936294555664e-01,9.600080847740173340e-01,9.599610567092895508e-01,9.599141478538513184e-01,9.598671197891235352e-01,9.598202705383300781e-01,9.597732424736022949e-01,9.597263336181640625e-01,9.596793651580810547e-01,9.596324563026428223e-01,9.595856070518493652e-01,9.595386385917663574e-01,9.594917893409729004e-01,9.594448208808898926e-01,9.593979716300964355e-01,9.593510031700134277e-01,9.593041539192199707e-01,9.592571854591369629e-01,9.592103362083435059e-01,9.591634273529052734e-01,9.591165781021118164e-01,9.590696692466735840e-01,9.590228199958801270e-01,9.589759111404418945e-01,9.589290618896484375e-01,9.588821530342102051e-01
9.104082584381103516e-01,9.103660583496093750e-01,9.103237390518188477e-01,9.102815985679626465e-01,9.102393388748168945e-01,9.101971387863159180e-01,9.101549983024597168e-01,9.101126790046691895e-01,9.100705385208129883e-01,9.100282788276672363e-01,9.099861383438110352e-01,9.099438786506652832e-01,9.099017381668090820e-01,9.098594784736633301e-01,9.098173379898071289e-01,9.097751379013061523e-01,9.097329974174499512e-01,9.096907973289489746e-01,9.096486568450927734e-01,9.096064567565917969e-01,9.095643162727355957e-01,9.095221161842346191e-01,9.094800353050231934e-01,9.094378352165222168e-01,9.093956947326660156e-01,9.093534946441650391e-01,9.093114137649536133e-01,9.092692136764526367e-01,9.092271327972412109e-01,9.091849923133850098e-01,9.091429114341735840e-01,9.091007113456726074e-01,9.090586900711059570e-01,9.090166091918945312e-01,9.089744687080383301e-01,9.089323878288269043e-01,9.088902473449707031e-01,9.088482260704040527e-01,9.088060855865478516e-01,9.087640047073364258e-01,9.087218642234802246e-01,9.086798429489135742e-01,9.086377024650573730e-01,9.085956811904907227e-01,9.085536003112792969e-01,9.085115790367126465e-01,9.084694385528564453e-01,9.084274768829345703e-01,9.083853363990783691e-01,9.083433747291564941e-01,9.083012342453002930e-01,9.082592725753784180e-01,9.082171916961669922e-01,9.081751704216003418e-01,9.081330895423889160e-01,9.080911278724670410e-01,9.080490469932556152e-01,9.080070853233337402e-01,9.079651236534118652e-01,9.079230427742004395e-01,9.078811407089233398e-01,9.078390598297119141e-01,9.077970981597900391e-01,9.077550768852233887e-01,9.077131152153015137e-01,9.076710939407348633e-01,9.076291322708129883e-01,9.075871109962463379e-01,9.075452089309692383e-01,9.075031876564025879e-01,9.074612259864807129e-01,9.074192643165588379e-01,9.073773026466369629e-01,9.073353409767150879e-01,9.072934389114379883e-01,9.072514176368713379e-01,9.072095155715942383e-01,9.071675539016723633e-01,9.071256518363952637e-01,9.070836901664733887e-01
8.635866641998291016e-01,8.635486364364624023e-01,8.635106682777404785e-01,8.634726405143737793e-01,8.634346723556518555e-01,8.633966445922851562e-01,8.633586764335632324e-01,8.633206486701965332e-01,8.632827401161193848e-01,8.632447123527526855e-01,8.632067441940307617e-01,8.631687760353088379e-01,8.631308078765869141e-01,8.630928397178649902e-01,8.630548715591430664e-01,8.630169034004211426e-01,8.629789948463439941e-01,8.629409670829772949e-01,8.629031181335449219e-01,8.628650903701782227e-01,8.628271818161010742e-01,8.627892136573791504e-01,8.627513051033020020e-01,8.627133369445800781e-01,8.626754879951477051e-01,8.626375794410705566e-01,8.625996112823486328e-01,8.625617623329162598e-01,8.625237941741943359e-01,8.624859452247619629e-01,8.624479770660400391e-01,8.624101281166076660e-01,8.623721599578857422e-01,8.623343110084533691e-01,8.622964024543762207e-01,8.622585535049438477e-01,8.622205853462219238e-01,8.621827363967895508e-01,8.621448278427124023e-01,8.621069788932800293e-01,8.620690703392028809e-01,8.620312213897705078e-01,8.619933128356933594e-01,8.619555234909057617e-01,8.619176149368286133e-01,8.618797659873962402e-01,8.618419170379638672e-01,8.618040680885314941e-01,8.617662191390991211e-01,8.617283701896667480e-01,8.616905212402343750e-01,8.616527318954467773e-01,8.616149425506591797e-01,8.615770339965820312e-01,8.615392446517944336e-01,8.615013957023620605e-01,8.614636063575744629e-01,8.614257574081420898e-01,8.613879680633544922e-01,8.613501191139221191e-01,8.613123893737792969e-01,8.612745404243469238e-01,8.612367510795593262e-01,8.611989021301269531e-01,8.611611723899841309e-01,8.611233234405517578e-01,8.610855937004089355e-01,8.610477447509765625e-01,8.610100150108337402e-01,8.609721660614013672e-01,8.609344363212585449e-01,8.608966469764709473e-01,8.608589172363281250e-01,8.608211278915405273e-01,8.607833981513977051e-01,8.607456088066101074e-01,8.607078790664672852e-01,8.606701493263244629e-01,8.606323599815368652e-01,8.605946898460388184e-01
8.213454484939575195e-01,8.213109970092773438e-01,8.212766647338867188e-01,8.212422728538513184e-01,8.212079405784606934e-01,8.211735486984252930e-01,8.211392164230346680e-01,8.211048245429992676e-01,8.210704922676086426e-01,8.210361003875732422e-01,8.210017681121826172e-01,8.209673762321472168e-01,8.209331035614013672e-01,8.208987116813659668e-01,8.208644390106201172e-01,8.208300471305847168e-01,8.207957744598388672e-01,8.207613825798034668e-01,8.207271099090576172e-01,8.206927776336669922e-01,8.206584453582763672e-01,8.206241726875305176e-01,8.205897808074951172e-01,8.205555081367492676e-01,8.205211758613586426e-01,8.204869031906127930e-01,8.204525709152221680e-01,8.204182982444763184e-01,8.203839659690856934e-01,8.203496932983398438e-01,8.203153610229492188e-01,8.202811479568481445e-01,8.202468156814575195e-01,8.202125430107116699e-01,8.201782107353210449e-01,8.201439976692199707e-01,8.201096653938293457e-01,8.200754523277282715e-01,8.200411200523376465e-01,8.200069069862365723e-01,8.199725747108459473e-01,8.199383616447448730e-01,8.199040889739990234e-01,8.198698163032531738e-01,8.198356032371520996e-01,8.198013305664062500e-01,8.197671175003051758e-01,8.197328448295593262e-01,8.196986317634582520e-01,8.196643590927124023e-01,8.196301460266113281e-01,8.195958733558654785e-01,8.195617198944091797e-01,8.195274472236633301e-01,8.194932341575622559e-01,8.194589614868164062e-01,8.194248080253601074e-01,8.193905353546142578e-01,8.193563818931579590e-01,8.193221092224121094e-01,8.192879557609558105e-01,8.192536830902099609e-01,8.192195296287536621e-01,8.191853165626525879e-01,8.191511631011962891e-01,8.191168904304504395e-01,8.190827369689941406e-01,8.190485239028930664e-01,8.190143704414367676e-01,8.189801573753356934e-01,8.189460039138793945e-01,8.189118504524230957e-01,8.188776373863220215e-01,8.188435435295104980e-01,8.188093304634094238e-01,8.187751770019531250e-01,8.187409639358520508e-01,8.187068700790405273e-01,8.186726570129394531e-01,8.186385631561279297e-01
