5.000000000000000000e+00,5.000000000000000000e+00,5.000000000000000000e+00,5.000000000000000000e+00,5.000000000000000000e+00,5.000000000000000000e+00,5.000000000000000000e+00,5.000000000000000000e+00,5.000000000000000000e+00,5.000000000000000000e+00,5.000000000000000000e+00,5.000000000000000000e+00,5.000000000000000000e+00,5.000000000000000000e+00,5.000000000000000000e+00,5.000000000000000000e+00,5.000000000000000000e+00,5.000000000000000000e+00,5.000000000000000000e+00,5.000000000000000000e+00,5.000000000000000000e+00,5.000000000000000000e+00,5.000000000000000000e+00,5.000000000000000000e+00,5.000000000000000000e+00,5.000000000000000000e+00,5.000000000000000000e+00,5.000000000000000000e+00,5.000000000000000000e+00,5.000000000000000000e+00,5.000000000000000000e+00,5.000000000000000000e+00,5.000000000000000000e+00,5.000000000000000000e+00,5.000000000000000000e+00,5.000000000000000000e+00,5.000000000000000000e+00,5.000000000000000000e+00,5.000000000000000000e+00,5.000000000000000000e+00,5.000000000000000000e+00,4.480605602264404297e+00,4.318023204803466797e+00,4.166826248168945312e+00,4.025859355926513672e+00,3.894119024276733398e+00,3.770726919174194336e+00,3.654914855957031250e+00,3.546004533767700195e+00,3.443396806716918945e+00,3.346560716629028320e+00,3.255022048950195312e+00,3.168357610702514648e+00,3.086188316345214844e+00,3.008173465728759766e+00,2.934005737304687500e+00,2.863406896591186523e+00,2.796125888824462891e+00,2.731934070587158203e+00,2.670623540878295898e+00,2.612004518508911133e+00,2.555903434753417969e+00,2.502161741256713867e+00,2.450633287429809570e+00,2.401184320449829102e+00,2.353691816329956055e+00,2.308041095733642578e+00,2.264127969741821289e+00,2.221854209899902344e+00,2.181130409240722656e+00,2.141872406005859375e+00,2.104002714157104492e+00,2.067448854446411133e+00,2.032143354415893555e+00,1.998023509979248047e+00,1.965030550956726074e+00,1.933109283447265625e+00,1.902208924293518066e+00,1.872280478477478027e+00,1.843279242515563965e+00
5.000000000000000000e+00,5.000000000000000000e+00,5.000000000000000000e+00,5.000000000000000000e+00,5.000000000000000000e+00,5.000000000000000000e+00,5.000000000000000000e+00,5.000000000000000000e+00,5.000000000000000000e+00,5.000000000000000000e+00,5.000000000000000000e+00,5.000000000000000000e+00,5.000000000000000000e+00,5.000000000000000000e+00,5.000000000000000000e+00,5.000000000000000000e+00,5.000000000000000000e+00,5.000000000000000000e+00,5.000000000000000000e+00,5.000000000000000000e+00,5.000000000000000000e+00,5.000000000000000000e+00,5.000000000000000000e+00,5.000000000000000000e+00,5.000000000000000000e+00,5.000000000000000000e+00,5.000000000000000000e+00,5.000000000000000000e+00,5.000000000000000000e+00,5.000000000000000000e+00,5.000000000000000000e+00,5.000000000000000000e+00,5.000000000000000000e+00,5.000000000000000000e+00,5.000000000000000000e+00,5.000000000000000000e+00,5.000000000000000000e+00,5.000000000000000000e+00,5.000000000000000000e+00,5.000000000000000000e+00,4.656036853790283203e+00,4.480722904205322266e+00,4.318131923675537109e+00,4.166927337646484375e+00,4.025953769683837891e+00,3.894207239151000977e+00,3.770809888839721680e+00,3.654992580413818359e+00,3.546077489852905273e+00,3.443466186523437500e+00,3.346625804901123047e+00,3.255083799362182617e+00,3.168416023254394531e+00,3.086243629455566406e+00,3.008226156234741211e+00,2.934055566787719727e+00,2.863454818725585938e+00,2.796171426773071289e+00,2.731977701187133789e+00,2.670665264129638672e+00,2.612044095993041992e+00,2.555941581726074219e+00,2.502198219299316406e+00,2.450668334960937500e+00,2.401218175888061523e+00,2.353724002838134766e+00,2.308072328567504883e+00,2.264157772064208984e+00,2.221883058547973633e+00,2.181158065795898438e+00,2.141899108886718750e+00,2.104028463363647461e+00,2.067473649978637695e+00,2.032167434692382812e+00,1.998046875000000000e+00,1.965053081512451172e+00,1.933131098747253418e+00,1.902229785919189453e+00,1.872300863265991211e+00,1.843299150466918945e+00
5.000000000000000000e+00,5.000000000000000000e+00,5.000000000000000000e+00,5.000000000000000000e+00,5.000000000000000000e+00,5.000000000000000000e+00,5.000000000000000000e+00,5.000000000000000000e+00,5.000000000000000000e+00,5.000000000000000000e+00,5.000000000000000000e+00,5.000000000000000000e+00,5.000000000000000000e+00,5.000000000000000000e+00,5.000000000000000000e+00,5.000000000000000000e+00,5.000000000000000000e+00,5.000000000000000000e+00,5.000000000000000000e+00,5.000000000000000000e+00,5.000000000000000000e+00,5.000000000000000000e+00,5.000000000000000000e+00,5.000000000000000000e+00,5.000000000000000000e+00,5.000000000000000000e+00,5.000000000000000000e+00,5.000000000000000000e+00,5.000000000000000000e+00,5.000000000000000000e+00,5.000000000000000000e+00,5.000000000000000000e+00,5.000000000000000000e+00,5.000000000000000000e+00,5.000000000000000000e+00,5.000000000000000000e+00,5.000000000000000000e+00,5.000000000000000000e+00,5.000000000000000000e+00,4.845765113830566406e+00,4.656163215637207031e+00,4.480839729309082031e+00,4.318240165710449219e+00,4.167028427124023438e+00,4.026048183441162109e+00,3.894295692443847656e+00,3.770892620086669922e+00,3.655070543289184570e+00,3.546150922775268555e+00,3.443535089492797852e+00,3.346691131591796875e+00,3.255145311355590820e+00,3.168474674224853516e+00,3.086299419403076172e+00,3.008278846740722656e+00,2.934105873107910156e+00,2.863502502441406250e+00,2.796216964721679688e+00,2.732021093368530273e+00,2.670706748962402344e+00,2.612084150314331055e+00,2.555979728698730469e+00,2.502234697341918945e+00,2.450703382492065430e+00,2.401251554489135742e+00,2.353756427764892578e+00,2.308103322982788086e+00,2.264187812805175781e+00,2.221911907196044922e+00,2.181185722351074219e+00,2.141925811767578125e+00,2.104054212570190430e+00,2.067498683929443359e+00,2.032191514968872070e+00,1.998069882392883301e+00,1.965075612068176270e+00,1.933153033256530762e+00,1.902250885963439941e+00,1.872321248054504395e+00,1.843319058418273926e+00
5.000000000000000000e+00,5.000000000000000000e+00,5.000000000000000000e+00,5.000000000000000000e+00,5.000000000000000000e+00,5.000000000000000000e+00,5.000000000000000000e+00,5.000000000000000000e+00,5.000000000000000000e+00,5.000000000000000000e+00,5.000000000000000000e+00,5.000000000000000000e+00,5.000000000000000000e+00,5.000000000000000000e+00,5.000000000000000000e+00,5.000000000000000000e+00,5.000000000000000000e+00,5.000000000000000000e+00,5.000000000000000000e+00,5.000000000000000000e+00,5.000000000000000000e+00,5.000000000000000000e+00,5.000000000000000000e+00,5.000000000000000000e+00,5.000000000000000000e+00,5.000000000000000000e+00,5.000000000000000000e+00,5.000000000000000000e+00,5.000000000000000000e+00,5.000000000000000000e+00,5.000000000000000000e+00,5.000000000000000000e+00,5.000000000000000000e+00,5.000000000000000000e+00,5.000000000000000000e+00,5.000000000000000000e+00,5.000000000000000000e+00,5.000000000000000000e+00,5.000000000000000000e+00,4.845901966094970703e+00,4.656289577484130859e+00,4.480956554412841797e+00,4.318348884582519531e+00,4.167129516601562500e+00,4.026142597198486328e+00,3.894383907318115234e+00,3.770975589752197266e+00,3.655148267745971680e+00,3.546224117279052734e+00,3.443604230880737305e+00,3.346756219863891602e+00,3.255207300186157227e+00,3.168533086776733398e+00,3.086354732513427734e+00,3.008331775665283203e+00,2.934155941009521484e+00,2.863550186157226562e+00,2.796262502670288086e+00,2.732064485549926758e+00,2.670748233795166016e+00,2.612123727798461914e+00,2.556017875671386719e+00,2.502271175384521484e+00,2.450738191604614258e+00,2.401285171508789062e+00,2.353788614273071289e+00,2.308134317398071289e+00,2.264217615127563477e+00,2.221940755844116211e+00,2.181213617324829102e+00,2.141952514648437500e+00,2.104080200195312500e+00,2.067523479461669922e+00,2.032215595245361328e+00,1.998093247413635254e+00,1.965097904205322266e+00,1.933174848556518555e+00,1.902272105216979980e+00,1.872341752052307129e+00,1.843338727951049805e+00
5.000000000000000000e+00,5.000000000000000000e+00,5.000000000000000000e+00,5.000000000000000000e+00,5.000000000000000000e+00,5.000000000000000000e+00,5.000000000000000000e+00,5.000000000000000000e+00,5.000000000000000000e+00,5.000000000000000000e+00,5.000000000000000000e+00,5.000000000000000000e+00,5.000000000000000000e+00,5.000000000000000000e+00,5.000000000000000000e+00,5.000000000000000000e+00,5.000000000000000000e+00,5.000000000000000000e+00,5.000000000000000000e+00,5.000000000000000000e+00,5.000000000000000000e+00,5.000000000000000000e+00,5.000000000000000000e+00,5.000000000000000000e+00,5.000000000000000000e+00,5.000000000000000000e+00,5.000000000000000000e+00,5.000000000000000000e+00,5.000000000000000000e+00,5.000000000000000000e+00,5.000000000000000000e+00,5.000000000000000000e+00,5.000000000000000000e+00,5.000000000000000000e+00,5.000000000000000000e+00,5.000000000000000000e+00,5.000000000000000000e+00,5.000000000000000000e+00,5.000000000000000000e+00,4.846038818359375000e+00,4.656415939331054688e+00,4.481073856353759766e+00,4.318457603454589844e+00,4.167230606079101562e+00,4.026237010955810547e+00,3.894472360610961914e+00,3.771058320999145508e+00,3.655225753784179688e+00,3.546297550201416016e+00,3.443673133850097656e+00,3.346821784973144531e+00,3.255268812179565430e+00,3.168591260910034180e+00,3.086410284042358398e+00,3.008384227752685547e+00,2.934206247329711914e+00,2.863597869873046875e+00,2.796308279037475586e+00,2.732108116149902344e+00,2.670789718627929688e+00,2.612163543701171875e+00,2.556055784225463867e+00,2.502307653427124023e+00,2.450773239135742188e+00,2.401318788528442383e+00,2.353821039199829102e+00,2.308165311813354492e+00,2.264247417449951172e+00,2.221969366073608398e+00,2.181241273880004883e+00,2.141979455947875977e+00,2.104105949401855469e+00,2.067548513412475586e+00,2.032239675521850586e+00,1.998116612434387207e+00,1.965120553970336914e+00,1.933196425437927246e+00,1.902293205261230469e+00,1.872362256050109863e+00,1.843358635902404785e+00
5.000000000000000000e+00,5.000000000000000000e+00,5.000000000000000000e+00,5.000000000000000000e+00,5.000000000000000000e+00,5.000000000000000000e+00,5.000000000000000000e+00,5.000000000000000000e+00,5.000000000000000000e+00,5.000000000000000000e+00,5.000000000000000000e+00,5.000000000000000000e+00,5.000000000000000000e+00,5.000000000000000000e+00,5.000000000000000000e+00,5.000000000000000000e+00,5.000000000000000000e+00,5.000000000000000000e+00,5.000000000000000000e+00,5.000000000000000000e+00,5.000000000000000000e+00,5.000000000000000000e+00,5.000000000000000000e+00,5.000000000000000000e+00,5.000000000000000000e+00,5.000000000000000000e+00,5.000000000000000000e+00,5.000000000000000000e+00,5.000000000000000000e+00,5.000000000000000000e+00,5.000000000000000000e+00,5.000000000000000000e+00,5.000000000000000000e+00,5.000000000000000000e+00,5.000000000000000000e+00,5.000000000000000000e+00,5.000000000000000000e+00,5.000000000000000000e+00,5.000000000000000000e+00,4.846175670623779297e+00,4.656542301177978516e+00,4.481190681457519531e+00,4.318566322326660156e+00,4.167332172393798828e+00,4.026331424713134766e+00,3.894560575485229492e+00,3.771140813827514648e+00,3.655303955078125000e+00,3.546370506286621094e+00,3.443742513656616211e+00,3.346886873245239258e+00,3.255330801010131836e+00,3.168649911880493164e+00,3.086465835571289062e+00,3.008437156677246094e+00,2.934256315231323242e+00,2.863645792007446289e+00,2.796353578567504883e+00,2.732151508331298828e+00,2.670831441879272461e+00,2.612203121185302734e+00,2.556093931198120117e+00,2.502344131469726562e+00,2.450808286666870117e+00,2.401352405548095703e+00,2.353853225708007812e+00,2.308196544647216797e+00,2.264277219772338867e+00,2.221997976303100586e+00,2.181268930435180664e+00,2.142005920410156250e+00,2.104131698608398438e+00,2.067573308944702148e+00,2.032263755798339844e+00,1.998139858245849609e+00,1.965143084526062012e+00,1.933218240737915039e+00,1.902314186096191406e+00,1.872382521629333496e+00,1.843378424644470215e+00
5.000000000000000000e+00,5.000000000000000000e+00,5.000000000000000000e+00,5.000000000000000000e+00,5.000000000000000000e+00,5.000000000000000000e+00,5.000000000000000000e+00,5.000000000000000000e+00,5.000000000000000000e+00,5.000000000000000000e+00,5.000000000000000000e+00,5.000000000000000000e+00,5.000000000000000000e+00,5.000000000000000000e+00,5.000000000000000000e+00,5.000000000000000000e+00,5.000000000000000000e+00,5.000000000000000000e+00,5.000000000000000000e+00,5.000000000000000000e+00,5.000000000000000000e+00,5.000000000000000000e+00,5.000000000000000000e+00,5.000000000000000000e+00,5.000000000000000000e+00,5.000000000000000000e+00,5.000000000000000000e+00,5.000000000000000000e+00,5.000000000000000000e+00,5.000000000000000000e+00,5.000000000000000000e+00,5.000000000000000000e+00,5.000000000000000000e+00,5.000000000000000000e+00,5.000000000000000000e+00,5.000000000000000000e+00,5.000000000000000000e+00,5.000000000000000000e+00,5.000000000000000000e+00,4.846312522888183594e+00,4.656668663024902344e+00,4.481307506561279297e+00,4.318675041198730469e+00,4.167433261871337891e+00,4.026426315307617188e+00,3.894649267196655273e+00,3.771224021911621094e+00,3.655381441116333008e+00,3.546444177627563477e+00,3.443811416625976562e+00,3.346952199935913086e+00,3.255392313003540039e+00,3.168708324432373047e+00,3.086521387100219727e+00,3.008489847183227539e+00,2.934306621551513672e+00,2.863693475723266602e+00,2.796399116516113281e+00,2.732195138931274414e+00,2.670872926712036133e+00,2.612243175506591797e+00,2.556131839752197266e+00,2.502380371093750000e+00,2.450843334197998047e+00,2.401386022567749023e+00,2.353885412216186523e+00,2.308227300643920898e+00,2.264307022094726562e+00,2.222026824951171875e+00,2.181296586990356445e+00,2.142032861709594727e+00,2.104157447814941406e+00,2.067598104476928711e+00,2.032287836074829102e+00,1.998162984848022461e+00,1.965165615081787109e+00,1.933240056037902832e+00,1.902335286140441895e+00,1.872403025627136230e+00,1.843398094177246094e+00
5.000000000000000000e+00,5.000000000000000000e+00,5.000000000000000000e+00,5.000000000000000000e+00,5.000000000000000000e+00,5.000000000000000000e+00,5.000000000000000000e+00,5.000000000000000000e+00,5.000000000000000000e+00,5.000000000000000000e+00,5.000000000000000000e+00,5.000000000000000000e+00,5.000000000000000000e+00,5.000000000000000000e+00,5.000000000000000000e+00,5.000000000000000000e+00,5.000000000000000000e+00,5.000000000000000000e+00,5.000000000000000000e+00,5.000000000000000000e+00,5.000000000000000000e+00,5.000000000000000000e+00,5.000000000000000000e+00,5.000000000000000000e+00,5.000000000000000000e+00,5.000000000000000000e+00,5.000000000000000000e+00,5.000000000000000000e+00,5.000000000000000000e+00,5.000000000000000000e+00,5.000000000000000000e+00,5.000000000000000000e+00,5.000000000000000000e+00,5.000000000000000000e+00,5.000000000000000000e+00,5.000000000000000000e+00,5.000000000000000000e+00,5.000000000000000000e+00,5.000000000000000000e+00,4.846449375152587891e+00,4.656794548034667969e+00,4.481424331665039062e+00,4.318783760070800781e+00,4.167534351348876953e+00,4.026520729064941406e+00,3.894737243652343750e+00,3.771306753158569336e+00,3.655459642410278320e+00,3.546517133712768555e+00,3.443880558013916016e+00,3.347017288208007812e+00,3.255454063415527344e+00,3.168766975402832031e+00,3.086576700210571289e+00,3.008542537689208984e+00,2.934356689453125000e+00,2.863741159439086914e+00,2.796444654464721680e+00,2.732238531112670898e+00,2.670914649963378906e+00,2.612282752990722656e+00,2.556169986724853516e+00,2.502417087554931641e+00,2.450878143310546875e+00,2.401419639587402344e+00,2.353917598724365234e+00,2.308258533477783203e+00,2.264337062835693359e+00,2.222055673599243164e+00,2.181324481964111328e+00,2.142059564590454102e+00,2.104183197021484375e+00,2.067623138427734375e+00,2.032311677932739258e+00,1.998186349868774414e+00,1.965187907218933105e+00,1.933261871337890625e+00,1.902356386184692383e+00,1.872423529624938965e+00,1.843417882919311523e+00
5.000000000000000000e+00,5.000000000000000000e+00,5.000000000000000000e+00,5.000000000000000000e+00,5.000000000000000000e+00,5.000000000000000000e+00,5.000000000000000000e+00,5.000000000000000000e+00,5.000000000000000000e+00,5.000000000000000000e+00,5.000000000000000000e+00,5.000000000000000000e+00,5.000000000000000000e+00,5.000000000000000000e+00,5.000000000000000000e+00,5.000000000000000000e+00,5.000000000000000000e+00,5.000000000000000000e+00,5.000000000000000000e+00,5.000000000000000000e+00,5.000000000000000000e+00,5.000000000000000000e+00,5.000000000000000000e+00,5.000000000000000000e+00,5.000000000000000000e+00,5.000000000000000000e+00,5.000000000000000000e+00,5.000000000000000000e+00,5.000000000000000000e+00,5.000000000000000000e+00,5.000000000000000000e+00,5.000000000000000000e+00,5.000000000000000000e+00,5.000000000000000000e+00,5.000000000000000000e+00,5.000000000000000000e+00,5.000000000000000000e+00,5.000000000000000000e+00,5.000000000000000000e+00,4.846586227416992188e+00,4.656920909881591797e+00,4.481541633605957031e+00,4.318892002105712891e+00,4.167635440826416016e+00,4.026615142822265625e+00,3.894825458526611328e+00,3.771389722824096680e+00,3.655537128448486328e+00,3.546590566635131836e+00,3.443949699401855469e+00,3.347082853317260742e+00,3.255515813827514648e+00,3.168825387954711914e+00,3.086632490158081055e+00,3.008595228195190430e+00,2.934406995773315430e+00,2.863789081573486328e+00,2.796490192413330078e+00,2.732282161712646484e+00,2.670956134796142578e+00,2.612322568893432617e+00,2.556207895278930664e+00,2.502453327178955078e+00,2.450913429260253906e+00,2.401453256607055664e+00,2.353950023651123047e+00,2.308289527893066406e+00,2.264366865158081055e+00,2.222084522247314453e+00,2.181352138519287109e+00,2.142086267471313477e+00,2.104208946228027344e+00,2.067647933959960938e+00,2.032335996627807617e+00,1.998209595680236816e+00,1.965210556983947754e+00,1.933283567428588867e+00,1.902377367019653320e+00,1.872443914413452148e+00,1.843437790870666504e+00
5.000000000000000000e+00,5.000000000000000000e+00,5.000000000000000000e+00,5.000000000000000000e+00,5.000000000000000000e+00,5.000000000000000000e+00,5.000000000000000000e+00,5.000000000000000000e+00,5.000000000000000000e+00,5.000000000000000000e+00,5.000000000000000000e+00,5.000000000000000000e+00,5.000000000000000000e+00,5.000000000000000000e+00,5.000000000000000000e+00,5.000000000000000000e+00,5.000000000000000000e+00,5.000000000000000000e+00,5.000000000000000000e+00,5.000000000000000000e+00,5.000000000000000000e+00,5.000000000000000000e+00,5.000000000000000000e+00,5.000000000000000000e+00,5.000000000000000000e+00,5.000000000000000000e+00,5.000000000000000000e+00,5.000000000000000000e+00,5.000000000000000000e+00,5.000000000000000000e+00,5.000000000000000000e+00,5.000000000000000000e+00,5.000000000000000000e+00,5.000000000000000000e+00,5.000000000000000000e+00,5.000000000000000000e+00,5.000000000000000000e+00,5.000000000000000000e+00,5.000000000000000000e+00,4.846723079681396484e+00,4.657047271728515625e+00,4.481658458709716797e+00,4.319000720977783203e+00,4.167736530303955078e+00,4.026709556579589844e+00,3.894914150238037109e+00,3.771472454071044922e+00,3.655615329742431641e+00,3.546663761138916016e+00,3.444018840789794922e+00,3.347147941589355469e+00,3.255577564239501953e+00,3.168884038925170898e+00,3.086687803268432617e+00,3.008648157119750977e+00,2.934457063674926758e+00,2.863836765289306641e+00,2.796535968780517578e+00,2.732325315475463867e+00,2.670997619628906250e+00,2.612362384796142578e+00,2.556246042251586914e+00,2.502490043640136719e+00,2.450948238372802734e+00,2.401486873626708984e+00,2.353982210159301758e+00,2.308320522308349609e+00,2.264396667480468750e+00,2.222113132476806641e+00,2.181379795074462891e+00,2.142112970352172852e+00,2.104234933853149414e+00,2.067672967910766602e+00,2.032359838485717773e+00,1.998232960700988770e+00,1.965233087539672852e+00,1.933305382728576660e+00,1.902398467063903809e+00,1.872464179992675781e+00,1.843457579612731934e+00
5.000000000000000000e+00,5.000000000000000000e+00,5.000000000000000000e+00,5.000000000000000000e+00,5.000000000000000000e+00,5.000000000000000000e+00,5.000000000000000000e+00,5.000000000000000000e+00,5.000000000000000000e+00,5.000000000000000000e+00,5.000000000000000000e+00,5.000000000000000000e+00,5.000000000000000000e+00,5.000000000000000000e+00,5.000000000000000000e+00,5.000000000000000000e+00,5.000000000000000000e+00,5.000000000000000000e+00,5.000000000000000000e+00,5.000000000000000000e+00,5.000000000000000000e+00,5.000000000000000000e+00,5.000000000000000000e+00,5.000000000000000000e+00,5.000000000000000000e+00,5.000000000000000000e+00,5.000000000000000000e+00,5.000000000000000000e+00,5.000000000000000000e+00,5.000000000000000000e+00,5.000000000000000000e+00,5.000000000000000000e+00,5.000000000000000000e+00,5.000000000000000000e+00,5.000000000000000000e+00,5.000000000000000000e+00,5.000000000000000000e+00,5.000000000000000000e+00,5.000000000000000000e+00,4.846859455108642578e+00,4.657173633575439453e+00,4.481775283813476562e+00,4.319109439849853516e+00,4.167838096618652344e+00,4.026803970336914062e+00,3.895002365112304688e+00,3.771555423736572266e+00,3.655693054199218750e+00,3.546737194061279297e+00,3.444087743759155273e+00,3.347213029861450195e+00,3.255639314651489258e+00,3.168942451477050781e+00,3.086743354797363281e+00,3.008700609207153320e+00,2.934507131576538086e+00,2.863884687423706055e+00,2.796581268310546875e+00,2.732368946075439453e+00,2.671039104461669922e+00,2.612402200698852539e+00,2.556284189224243164e+00,2.502526283264160156e+00,2.450983285903930664e+00,2.401520252227783203e+00,2.354014635086059570e+00,2.308351516723632812e+00,2.264426469802856445e+00,2.222141981124877930e+00,2.181407451629638672e+00,2.142139673233032227e+00,2.104260683059692383e+00,2.067697763442993164e+00,2.032384157180786133e+00,1.998256087303161621e+00,1.965255618095397949e+00,1.933327198028564453e+00,1.902419567108154297e+00,1.872484683990478516e+00,1.843477249145507812e+00
5.000000000000000000e+00,5.000000000000000000e+00,5.000000000000000000e+00,5.000000000000000000e+00,5.000000000000000000e+00,5.000000000000000000e+00,5.000000000000000000e+00,5.000000000000000000e+00,5.000000000000000000e+00,5.000000000000000000e+00,5.000000000000000000e+00,5.000000000000000000e+00,5.000000000000000000e+00,5.000000000000000000e+00,5.000000000000000000e+00,5.000000000000000000e+00,5.000000000000000000e+00,5.000000000000000000e+00,5.000000000000000000e+00,5.000000000000000000e+00,5.000000000000000000e+00,5.000000000000000000e+00,5.000000000000000000e+00,5.000000000000000000e+00,5.000000000000000000e+00,5.000000000000000000e+00,5.000000000000000000e+00,5.000000000000000000e+00,5.000000000000000000e+00,5.000000000000000000e+00,5.000000000000000000e+00,5.000000000000000000e+00,5.000000000000000000e+00,5.000000000000000000e+00,5.000000000000000000e+00,5.000000000000000000e+00,5.000000000000000000e+00,5.000000000000000000e+00,5.000000000000000000e+00,4.846996307373046875e+00,4.657299995422363281e+00,4.481892585754394531e+00,4.319218158721923828e+00,4.167939186096191406e+00,4.026898384094238281e+00,3.895090818405151367e+00,3.771638154983520508e+00,3.655771017074584961e+00,3.546810388565063477e+00,3.444157123565673828e+00,3.347278594970703125e+00,3.255701065063476562e+00,3.169001102447509766e+00,3.086798667907714844e+00,3.008753538131713867e+00,2.934557437896728516e+00,2.863932371139526367e+00,2.796627044677734375e+00,2.732412338256835938e+00,2.671080827713012695e+00,2.612441778182983398e+00,2.556322097778320312e+00,2.502562999725341797e+00,2.451018333435058594e+00,2.401554107666015625e+00,2.354046821594238281e+00,2.308382511138916016e+00,2.264456510543823242e+00,2.222170591354370117e+00,2.181435346603393555e+00,2.142166376113891602e+00,2.104286432266235352e+00,2.067722797393798828e+00,2.032407999038696289e+00,1.998279333114624023e+00,1.965278029441833496e+00,1.933348774909973145e+00,1.902440786361694336e+00,1.872505187988281250e+00,1.843497157096862793e+00
5.000000000000000000e+00,5.000000000000000000e+00,5.000000000000000000e+00,5.000000000000000000e+00,5.000000000000000000e+00,5.000000000000000000e+00,5.000000000000000000e+00,5.000000000000000000e+00,5.000000000000000000e+00,5.000000000000000000e+00,5.000000000000000000e+00,5.000000000000000000e+00,5.000000000000000000e+00,5.000000000000000000e+00,5.000000000000000000e+00,5.000000000000000000e+00,5.000000000000000000e+00,5.000000000000000000e+00,5.000000000000000000e+00,5.000000000000000000e+00,5.000000000000000000e+00,5.000000000000000000e+00,5.000000000000000000e+00,5.000000000000000000e+00,5.000000000000000000e+00,5.000000000000000000e+00,5.000000000000000000e+00,5.000000000000000000e+00,5.000000000000000000e+00,5.000000000000000000e+00,5.000000000000000000e+00,5.000000000000000000e+00,5.000000000000000000e+00,5.000000000000000000e+00,5.000000000000000000e+00,5.000000000000000000e+00,5.000000000000000000e+00,5.000000000000000000e+00,5.000000000000000000e+00,4.847133159637451172e+00,4.657426357269287109e+00,4.482009410858154297e+00,4.319326877593994141e+00,4.168040275573730469e+00,4.026992797851562500e+00,3.895179033279418945e+00,3.771721124649047852e+00,3.655848741531372070e+00,3.546883821487426758e+00,3.444226026535034180e+00,3.347343683242797852e+00,3.255762815475463867e+00,3.169059276580810547e+00,3.086854457855224609e+00,3.008806228637695312e+00,2.934607267379760742e+00,2.863980293273925781e+00,2.796672344207763672e+00,2.732455968856811523e+00,2.671122312545776367e+00,2.612481594085693359e+00,2.556360244750976562e+00,2.502599477767944336e+00,2.451053380966186523e+00,2.401587486267089844e+00,2.354079008102416992e+00,2.308413743972778320e+00,2.264486312866210938e+00,2.222199440002441406e+00,2.181463003158569336e+00,2.142193317413330078e+00,2.104312181472778320e+00,2.067747592926025391e+00,2.032432079315185547e+00,1.998302698135375977e+00,1.965300559997558594e+00,1.933370590209960938e+00,1.902461647987365723e+00,1.872525691986083984e+00,1.843516945838928223e+00
5.000000000000000000e+00,5.000000000000000000e+00,5.000000000000000000e+00,5.000000000000000000e+00,5.000000000000000000e+00,5.000000000000000000e+00,5.000000000000000000e+00,5.000000000000000000e+00,5.000000000000000000e+00,5.000000000000000000e+00,5.000000000000000000e+00,5.000000000000000000e+00,5.000000000000000000e+00,5.000000000000000000e+00,5.000000000000000000e+00,5.000000000000000000e+00,5.000000000000000000e+00,5.000000000000000000e+00,5.000000000000000000e+00,5.000000000000000000e+00,5.000000000000000000e+00,5.000000000000000000e+00,5.000000000000000000e+00,5.000000000000000000e+00,5.000000000000000000e+00,5.000000000000000000e+00,5.000000000000000000e+00,5.000000000000000000e+00,5.000000000000000000e+00,5.000000000000000000e+00,5.000000000000000000e+00,5.000000000000000000e+00,5.000000000000000000e+00,5.000000000000000000e+00,5.000000000000000000e+00,5.000000000000000000e+00,5.000000000000000000e+00,5.000000000000000000e+00,5.000000000000000000e+00,4.847270011901855469e+00,4.657552719116210938e+00,4.482126712799072266e+00,4.319435596466064453e+00,4.168141365051269531e+00,4.027087211608886719e+00,3.895267724990844727e+00,3.771803855895996094e+00,3.655926704406738281e+00,3.546957015991210938e+00,3.444294929504394531e+00,3.347409009933471680e+00,3.255824565887451172e+00,3.169117927551269531e+00,3.086909770965576172e+00,3.008858919143676758e+00,2.934657573699951172e+00,2.864027976989746094e+00,2.796718120574951172e+00,2.732499361038208008e+00,2.671163797378540039e+00,2.612521409988403320e+00,2.556398391723632812e+00,2.502635955810546875e+00,2.451088190078735352e+00,2.401621341705322266e+00,2.354111433029174805e+00,2.308444738388061523e+00,2.264516353607177734e+00,2.222228288650512695e+00,2.181490898132324219e+00,2.142220020294189453e+00,2.104337930679321289e+00,2.067772626876831055e+00,2.032456159591674805e+00,1.998326063156127930e+00,1.965323090553283691e+00,1.933392405509948730e+00,1.902482867240905762e+00,1.872545957565307617e+00,1.843536853790283203e+00
5.000000000000000000e+00,5.000000000000000000e+00,5.000000000000000000e+00,5.000000000000000000e+00,5.000000000000000000e+00,5.000000000000000000e+00,5.000000000000000000e+00,5.000000000000000000e+00,5.000000000000000000e+00,5.000000000000000000e+00,5.000000000000000000e+00,5.000000000000000000e+00,5.000000000000000000e+00,5.000000000000000000e+00,5.000000000000000000e+00,5.000000000000000000e+00,5.000000000000000000e+00,5.000000000000000000e+00,5.000000000000000000e+00,5.000000000000000000e+00,5.000000000000000000e+00,5.000000000000000000e+00,5.000000000000000000e+00,5.000000000000000000e+00,5.000000000000000000e+00,5.000000000000000000e+00,5.000000000000000000e+00,5.000000000000000000e+00,5.000000000000000000e+00,5.000000000000000000e+00,5.000000000000000000e+00,5.000000000000000000e+00,5.000000000000000000e+00,5.000000000000000000e+00,5.000000000000000000e+00,5.000000000000000000e+00,5.000000000000000000e+00,5.000000000000000000e+00,5.000000000000000000e+00,4.847407341003417969e+00,4.657679080963134766e+00,4.482243537902832031e+00,4.319544315338134766e+00,4.168242454528808594e+00,4.027181625366210938e+00,3.895355939865112305e+00,3.771887063980102539e+00,3.656004428863525391e+00,3.547029972076416016e+00,3.444364309310913086e+00,3.347474098205566406e+00,3.255886316299438477e+00,3.169176340103149414e+00,3.086965560913085938e+00,3.008911609649658203e+00,2.934707641601562500e+00,2.864075899124145508e+00,2.796763658523559570e+00,2.732542991638183594e+00,2.671205520629882812e+00,2.612560987472534180e+00,2.556436538696289062e+00,2.502672433853149414e+00,2.451123237609863281e+00,2.401654720306396484e+00,2.354143619537353516e+00,2.308475732803344727e+00,2.264546155929565430e+00,2.222257137298583984e+00,2.181518554687500000e+00,2.142246484756469727e+00,2.104363918304443359e+00,2.067797422409057617e+00,2.032480239868164062e+00,1.998349070549011230e+00,1.965345382690429688e+00,1.933414340019226074e+00,1.902503967285156250e+00,1.872566461563110352e+00,1.843556523323059082e+00
5.000000000000000000e+00,5.000000000000000000e+00,5.000000000000000000e+00,5.000000000000000000e+00,5.000000000000000000e+00,5.000000000000000000e+00,5.000000000000000000e+00,5.000000000000000000e+00,5.000000000000000000e+00,5.000000000000000000e+00,5.000000000000000000e+00,5.000000000000000000e+00,5.000000000000000000e+00,5.000000000000000000e+00,5.000000000000000000e+00,5.000000000000000000e+00,5.000000000000000000e+00,5.000000000000000000e+00,5.000000000000000000e+00,5.000000000000000000e+00,5.000000000000000000e+00,5.000000000000000000e+00,5.000000000000000000e+00,5.000000000000000000e+00,5.000000000000000000e+00,5.000000000000000000e+00,5.000000000000000000e+00,5.000000000000000000e+00,5.000000000000000000e+00,5.000000000000000000e+00,5.000000000000000000e+00,5.000000000000000000e+00,5.000000000000000000e+00,5.000000000000000000e+00,5.000000000000000000e+00,5.000000000000000000e+00,5.000000000000000000e+00,5.000000000000000000e+00,5.000000000000000000e+00,4.847544193267822266e+00,4.657805442810058594e+00,4.482360839843750000e+00,4.319653034210205078e+00,4.168344020843505859e+00,4.027276039123535156e+00,3.895444631576538086e+00,3.771969795227050781e+00,3.656082391738891602e+00,3.547103404998779297e+00,3.444433212280273438e+00,3.347539663314819336e+00,3.255948066711425781e+00,3.169234991073608398e+00,3.087020874023437500e+00,3.008964300155639648e+00,2.934757947921752930e+00,2.864123344421386719e+00,2.796809196472167969e+00,2.732586383819580078e+00,2.671247005462646484e+00,2.612600803375244141e+00,2.556474447250366211e+00,2.502708911895751953e+00,2.451158285140991211e+00,2.401688337326049805e+00,2.354176044464111328e+00,2.308506727218627930e+00,2.264575958251953125e+00,2.222285747528076172e+00,2.181546211242675781e+00,2.142273426055908203e+00,2.104389667510986328e+00,2.067822217941284180e+00,2.032504320144653320e+00,1.998372435569763184e+00,1.965368032455444336e+00,1.933435916900634766e+00,1.902525067329406738e+00,1.872586846351623535e+00,1.843576312065124512e+00
5.000000000000000000e+00,5.000000000000000000e+00,5.000000000000000000e+00,5.000000000000000000e+00,5.000000000000000000e+00,5.000000000000000000e+00,5.000000000000000000e+00,5.000000000000000000e+00,5.000000000000000000e+00,5.000000000000000000e+00,5.000000000000000000e+00,5.000000000000000000e+00,5.000000000000000000e+00,5.000000000000000000e+00,5.000000000000000000e+00,5.000000000000000000e+00,5.000000000000000000e+00,5.000000000000000000e+00,5.000000000000000000e+00,5.000000000000000000e+00,5.000000000000000000e+00,5.000000000000000000e+00,5.000000000000000000e+00,5.000000000000000000e+00,5.000000000000000000e+00,5.000000000000000000e+00,5.000000000000000000e+00,5.000000000000000000e+00,5.000000000000000000e+00,5.000000000000000000e+00,5.000000000000000000e+00,5.000000000000000000e+00,5.000000000000000000e+00,5.000000000000000000e+00,5.000000000000000000e+00,5.000000000000000000e+00,5.000000000000000000e+00,5.000000000000000000e+00,5.000000000000000000e+00,4.847681045532226562e+00,4.657931804656982422e+00,4.482477664947509766e+00,4.319761753082275391e+00,4.168445110321044922e+00,4.027370452880859375e+00,3.895532608032226562e+00,3.772052764892578125e+00,3.656160116195678711e+00,3.547176599502563477e+00,3.444502592086791992e+00,3.347604751586914062e+00,3.256009817123413086e+00,3.169293403625488281e+00,3.087076187133789062e+00,3.009017229080200195e+00,2.934808015823364258e+00,2.864171266555786133e+00,2.796854734420776367e+00,2.732629776000976562e+00,2.671288490295410156e+00,2.612640619277954102e+00,2.556512594223022461e+00,2.502745389938354492e+00,2.451193332672119141e+00,2.401721954345703125e+00,2.354208230972290039e+00,2.308537960052490234e+00,2.264605760574340820e+00,2.222314596176147461e+00,2.181573867797851562e+00,2.142300128936767578e+00,2.104415416717529297e+00,2.067847251892089844e+00,2.032528400421142578e+00,1.998395800590515137e+00,1.965390563011169434e+00,1.933457732200622559e+00,1.902546048164367676e+00,1.872607350349426270e+00,1.843596220016479492e+00
5.000000000000000000e+00,5.000000000000000000e+00,5.000000000000000000e+00,5.000000000000000000e+00,5.000000000000000000e+00,5.000000000000000000e+00,5.000000000000000000e+00,5.000000000000000000e+00,5.000000000000000000e+00,5.000000000000000000e+00,5.000000000000000000e+00,5.000000000000000000e+00,5.000000000000000000e+00,5.000000000000000000e+00,5.000000000000000000e+00,5.000000000000000000e+00,5.000000000000000000e+00,5.000000000000000000e+00,5.000000000000000000e+00,5.000000000000000000e+00,5.000000000000000000e+00,5.000000000000000000e+00,5.000000000000000000e+00,5.000000000000000000e+00,5.000000000000000000e+00,5.000000000000000000e+00,5.000000000000000000e+00,5.000000000000000000e+00,5.000000000000000000e+00,5.000000000000000000e+00,5.000000000000000000e+00,5.000000000000000000e+00,5.000000000000000000e+00,5.000000000000000000e+00,5.000000000000000000e+00,5.000000000000000000e+00,5.000000000000000000e+00,5.000000000000000000e+00,5.000000000000000000e+00,4.847817897796630859e+00,4.658058166503906250e+00,4.482594966888427734e+00,4.319870471954345703e+00,4.168546199798583984e+00,4.027465343475341797e+00,3.895621299743652344e+00,3.772135496139526367e+00,3.656237840652465820e+00,3.547250270843505859e+00,3.444571495056152344e+00,3.347670316696166992e+00,3.256071567535400391e+00,3.169352054595947266e+00,3.087131977081298828e+00,3.009069919586181641e+00,2.934858322143554688e+00,2.864218950271606445e+00,2.796900510787963867e+00,2.732673406600952148e+00,2.671329975128173828e+00,2.612680435180664062e+00,2.556550502777099609e+00,2.502781867980957031e+00,2.451228141784667969e+00,2.401755571365356445e+00,2.354240655899047852e+00,2.308568716049194336e+00,2.264635801315307617e+00,2.222343206405639648e+00,2.181601524353027344e+00,2.142326831817626953e+00,2.104441165924072266e+00,2.067872047424316406e+00,2.032552480697631836e+00,1.998418807983398438e+00,1.965413093566894531e+00,1.933479547500610352e+00,1.902567148208618164e+00,1.872627615928649902e+00,1.843615889549255371e+00
5.000000000000000000e+00,5.000000000000000000e+00,5.000000000000000000e+00,5.000000000000000000e+00,5.000000000000000000e+00,5.000000000000000000e+00,5.000000000000000000e+00,5.000000000000000000e+00,5.000000000000000000e+00,5.000000000000000000e+00,5.000000000000000000e+00,5.000000000000000000e+00,5.000000000000000000e+00,5.000000000000000000e+00,5.000000000000000000e+00,5.000000000000000000e+00,5.000000000000000000e+00,5.000000000000000000e+00,5.000000000000000000e+00,5.000000000000000000e+00,5.000000000000000000e+00,5.000000000000000000e+00,5.000000000000000000e+00,5.000000000000000000e+00,5.000000000000000000e+00,5.000000000000000000e+00,5.000000000000000000e+00,5.000000000000000000e+00,5.000000000000000000e+00,5.000000000000000000e+00,5.000000000000000000e+00,5.000000000000000000e+00,5.000000000000000000e+00,5.000000000000000000e+00,5.000000000000000000e+00,5.000000000000000000e+00,5.000000000000000000e+00,5.000000000000000000e+00,5.000000000000000000e+00,4.847954750061035156e+00,4.658184528350830078e+00,4.482711791992187500e+00,4.319979190826416016e+00,4.168647289276123047e+00,4.027559757232666016e+00,3.895709514617919922e+00,3.772218704223632812e+00,3.656316041946411133e+00,3.547323226928710938e+00,3.444640874862670898e+00,3.347735404968261719e+00,3.256133556365966797e+00,3.169410467147827148e+00,3.087187290191650391e+00,3.009122610092163086e+00,2.934908390045166016e+00,2.864266872406005859e+00,2.796945810317993164e+00,2.732716798782348633e+00,2.671371698379516602e+00,2.612720012664794922e+00,2.556588888168334961e+00,2.502818346023559570e+00,2.451263189315795898e+00,2.401789188385009766e+00,2.354272842407226562e+00,2.308599948883056641e+00,2.264665603637695312e+00,2.222372055053710938e+00,2.181629419326782227e+00,2.142353534698486328e+00,2.104467153549194336e+00,2.067897081375122070e+00,2.032576560974121094e+00,1.998442173004150391e+00,1.965435504913330078e+00,1.933501362800598145e+00,1.902588367462158203e+00,1.872648119926452637e+00,1.843635678291320801e+00
5.000000000000000000e+00,5.000000000000000000e+00,5.000000000000000000e+00,5.000000000000000000e+00,5.000000000000000000e+00,5.000000000000000000e+00,5.000000000000000000e+00,5.000000000000000000e+00,5.000000000000000000e+00,5.000000000000000000e+00,5.000000000000000000e+00,5.000000000000000000e+00,5.000000000000000000e+00,5.000000000000000000e+00,5.000000000000000000e+00,5.000000000000000000e+00,5.000000000000000000e+00,5.000000000000000000e+00,5.000000000000000000e+00,5.000000000000000000e+00,5.000000000000000000e+00,5.000000000000000000e+00,5.000000000000000000e+00,5.000000000000000000e+00,5.000000000000000000e+00,5.000000000000000000e+00,5.000000000000000000e+00,5.000000000000000000e+00,5.000000000000000000e+00,5.000000000000000000e+00,5.000000000000000000e+00,5.000000000000000000e+00,5.000000000000000000e+00,5.000000000000000000e+00,5.000000000000000000e+00,5.000000000000000000e+00,5.000000000000000000e+00,5.000000000000000000e+00,5.000000000000000000e+00,4.848091602325439453e+00,4.658310890197753906e+00,4.482828617095947266e+00,4.320087909698486328e+00,4.168748855590820312e+00,4.027654170989990234e+00,3.895798206329345703e+00,3.772301197052001953e+00,3.656393527984619141e+00,3.547396898269653320e+00,3.444709777832031250e+00,3.347800731658935547e+00,3.256195068359375000e+00,3.169468879699707031e+00,3.087242841720581055e+00,3.009175300598144531e+00,2.934958696365356445e+00,2.864314556121826172e+00,2.796991348266601562e+00,2.732760429382324219e+00,2.671413183212280273e+00,2.612760066986083984e+00,2.556626796722412109e+00,2.502854824066162109e+00,2.451298236846923828e+00,2.401822805404663086e+00,2.354305267333984375e+00,2.308630943298339844e+00,2.264695405960083008e+00,2.222400903701782227e+00,2.181657075881958008e+00,2.142380475997924805e+00,2.104492664337158203e+00,2.067921876907348633e+00,2.032600641250610352e+00,1.998465538024902344e+00,1.965458035469055176e+00,1.933523058891296387e+00,1.902609467506408691e+00,1.872668623924255371e+00,1.843655586242675781e+00
5.000000000000000000e+00,5.000000000000000000e+00,5.000000000000000000e+00,5.000000000000000000e+00,5.000000000000000000e+00,5.000000000000000000e+00,5.000000000000000000e+00,5.000000000000000000e+00,5.000000000000000000e+00,5.000000000000000000e+00,5.000000000000000000e+00,5.000000000000000000e+00,5.000000000000000000e+00,5.000000000000000000e+00,5.000000000000000000e+00,5.000000000000000000e+00,5.000000000000000000e+00,5.000000000000000000e+00,5.000000000000000000e+00,5.000000000000000000e+00,5.000000000000000000e+00,5.000000000000000000e+00,5.000000000000000000e+00,5.000000000000000000e+00,5.000000000000000000e+00,5.000000000000000000e+00,5.000000000000000000e+00,5.000000000000000000e+00,5.000000000000000000e+00,5.000000000000000000e+00,5.000000000000000000e+00,5.000000000000000000e+00,5.000000000000000000e+00,5.000000000000000000e+00,5.000000000000000000e+00,5.000000000000000000e+00,5.000000000000000000e+00,5.000000000000000000e+00,5.000000000000000000e+00,4.848228454589843750e+00,4.658437728881835938e+00,4.482945919036865234e+00,4.320196628570556641e+00,4.168849945068359375e+00,4.027748584747314453e+00,3.895886421203613281e+00,3.772383928298950195e+00,3.656471729278564453e+00,3.547469854354858398e+00,3.444778919219970703e+00,3.347865819931030273e+00,3.256257057189941406e+00,3.169527530670166016e+00,3.087298393249511719e+00,3.009228229522705078e+00,2.935008764266967773e+00,2.864362478256225586e+00,2.797037124633789062e+00,2.732803821563720703e+00,2.671454906463623047e+00,2.612799644470214844e+00,2.556664943695068359e+00,2.502891302108764648e+00,2.451333284378051758e+00,2.401856422424316406e+00,2.354337453842163086e+00,2.308662176132202148e+00,2.264725208282470703e+00,2.222429513931274414e+00,2.181684732437133789e+00,2.142407178878784180e+00,2.104518651962280273e+00,2.067946910858154297e+00,2.032624721527099609e+00,1.998488783836364746e+00,1.965480566024780273e+00,1.933544874191284180e+00,1.902630448341369629e+00,1.872688889503479004e+00,1.843675374984741211e+00
5.000000000000000000e+00,5.000000000000000000e+00,5.000000000000000000e+00,5.000000000000000000e+00,5.000000000000000000e+00,5.000000000000000000e+00,5.000000000000000000e+00,5.000000000000000000e+00,5.000000000000000000e+00,5.000000000000000000e+00,5.000000000000000000e+00,5.000000000000000000e+00,5.000000000000000000e+00,5.000000000000000000e+00,5.000000000000000000e+00,5.000000000000000000e+00,5.000000000000000000e+00,5.000000000000000000e+00,5.000000000000000000e+00,5.000000000000000000e+00,5.000000000000000000e+00,5.000000000000000000e+00,5.000000000000000000e+00,5.000000000000000000e+00,5.000000000000000000e+00,5.000000000000000000e+00,5.000000000000000000e+00,5.000000000000000000e+00,5.000000000000000000e+00,5.000000000000000000e+00,5.000000000000000000e+00,5.000000000000000000e+00,5.000000000000000000e+00,5.000000000000000000e+00,5.000000000000000000e+00,5.000000000000000000e+00,5.000000000000000000e+00,5.000000000000000000e+00,5.000000000000000000e+00,4.848365783691406250e+00,4.658563613891601562e+00,4.483062744140625000e+00,4.320305347442626953e+00,4.168951511383056641e+00,4.027842998504638672e+00,3.895975112915039062e+00,3.772467136383056641e+00,3.656549453735351562e+00,3.547543525695800781e+00,3.444848060607910156e+00,3.347931385040283203e+00,3.256318569183349609e+00,3.169585943222045898e+00,3.087353944778442383e+00,3.009280920028686523e+00,2.935059070587158203e+00,2.864410161972045898e+00,2.797082424163818359e+00,2.732847452163696289e+00,2.671496391296386719e+00,2.612839460372924805e+00,2.556702852249145508e+00,2.502927780151367188e+00,2.451368331909179688e+00,2.401890039443969727e+00,2.354369640350341797e+00,2.308692932128906250e+00,2.264755249023437500e+00,2.222458362579345703e+00,2.181712627410888672e+00,2.142433881759643555e+00,2.104544401168823242e+00,2.067971706390380859e+00,2.032648801803588867e+00,1.998511910438537598e+00,1.965503096580505371e+00,1.933566689491271973e+00,1.902651548385620117e+00,1.872709393501281738e+00,1.843695044517517090e+00
5.000000000000000000e+00,5.000000000000000000e+00,5.000000000000000000e+00,5.000000000000000000e+00,5.000000000000000000e+00,5.000000000000000000e+00,5.000000000000000000e+00,5.000000000000000000e+00,5.000000000000000000e+00,5.000000000000000000e+00,5.000000000000000000e+00,5.000000000000000000e+00,5.000000000000000000e+00,5.000000000000000000e+00,5.000000000000000000e+00,5.000000000000000000e+00,5.000000000000000000e+00,5.000000000000000000e+00,5.000000000000000000e+00,5.000000000000000000e+00,5.000000000000000000e+00,5.000000000000000000e+00,5.000000000000000000e+00,5.000000000000000000e+00,5.000000000000000000e+00,5.000000000000000000e+00,5.000000000000000000e+00,5.000000000000000000e+00,5.000000000000000000e+00,5.000000000000000000e+00,5.000000000000000000e+00,5.000000000000000000e+00,5.000000000000000000e+00,5.000000000000000000e+00,5.000000000000000000e+00,5.000000000000000000e+00,5.000000000000000000e+00,5.000000000000000000e+00,5.000000000000000000e+00,4.848502635955810547e+00,4.658689975738525391e+00,4.483180046081542969e+00,4.320414066314697266e+00,4.169052600860595703e+00,4.027937889099121094e+00,3.896063327789306641e+00,3.772549867630004883e+00,3.656627416610717773e+00,3.547616481781005859e+00,3.444917201995849609e+00,3.347996473312377930e+00,3.256380319595336914e+00,3.169644594192504883e+00,3.087409496307373047e+00,3.009333848953247070e+00,2.935109138488769531e+00,2.864457845687866211e+00,2.797128200531005859e+00,2.732890844345092773e+00,2.671538114547729492e+00,2.612879276275634766e+00,2.556740999221801758e+00,2.502964258193969727e+00,2.451403141021728516e+00,2.401923656463623047e+00,2.354402065277099609e+00,2.308724164962768555e+00,2.264785051345825195e+00,2.222487211227416992e+00,2.181740283966064453e+00,2.142460584640502930e+00,2.104570150375366211e+00,2.067996740341186523e+00,2.032672643661499023e+00,1.998535275459289551e+00,1.965525507926940918e+00,1.933588504791259766e+00,1.902672648429870605e+00,1.872729897499084473e+00,1.843714952468872070e+00
5.000000000000000000e+00,5.000000000000000000e+00,5.000000000000000000e+00,5.000000000000000000e+00,5.000000000000000000e+00,5.000000000000000000e+00,5.000000000000000000e+00,5.000000000000000000e+00,5.000000000000000000e+00,5.000000000000000000e+00,5.000000000000000000e+00,5.000000000000000000e+00,5.000000000000000000e+00,5.000000000000000000e+00,5.000000000000000000e+00,5.000000000000000000e+00,5.000000000000000000e+00,5.000000000000000000e+00,5.000000000000000000e+00,5.000000000000000000e+00,5.000000000000000000e+00,5.000000000000000000e+00,5.000000000000000000e+00,5.000000000000000000e+00,5.000000000000000000e+00,5.000000000000000000e+00,5.000000000000000000e+00,5.000000000000000000e+00,5.000000000000000000e+00,5.000000000000000000e+00,5.000000000000000000e+00,5.000000000000000000e+00,5.000000000000000000e+00,5.000000000000000000e+00,5.000000000000000000e+00,5.000000000000000000e+00,5.000000000000000000e+00,5.000000000000000000e+00,5.000000000000000000e+00,4.848639488220214844e+00,4.658816337585449219e+00,4.483297348022460938e+00,4.320522785186767578e+00,4.169153690338134766e+00,4.028032302856445312e+00,3.896151542663574219e+00,3.772633075714111328e+00,3.656705141067504883e+00,3.547690153121948242e+00,3.444986343383789062e+00,3.348061800003051758e+00,3.256442308425903320e+00,3.169703006744384766e+00,3.087465047836303711e+00,3.009386301040649414e+00,2.935159444808959961e+00,2.864505767822265625e+00,2.797173738479614258e+00,2.732934474945068359e+00,2.671579599380493164e+00,2.612919092178344727e+00,2.556779146194458008e+00,2.503000736236572266e+00,2.451438426971435547e+00,2.401957273483276367e+00,2.354434251785278320e+00,2.308755159378051758e+00,2.264814853668212891e+00,2.222516059875488281e+00,2.181767940521240234e+00,2.142487287521362305e+00,2.104595899581909180e+00,2.068021535873413086e+00,2.032696962356567383e+00,1.998558521270751953e+00,1.965548038482666016e+00,1.933610200881958008e+00,1.902693629264831543e+00,1.872750401496887207e+00,1.843734741210937500e+00
5.000000000000000000e+00,5.000000000000000000e+00,5.000000000000000000e+00,5.000000000000000000e+00,5.000000000000000000e+00,5.000000000000000000e+00,5.000000000000000000e+00,5.000000000000000000e+00,5.000000000000000000e+00,5.000000000000000000e+00,5.000000000000000000e+00,5.000000000000000000e+00,5.000000000000000000e+00,5.000000000000000000e+00,5.000000000000000000e+00,5.000000000000000000e+00,5.000000000000000000e+00,5.000000000000000000e+00,5.000000000000000000e+00,5.000000000000000000e+00,5.000000000000000000e+00,5.000000000000000000e+00,5.000000000000000000e+00,5.000000000000000000e+00,5.000000000000000000e+00,5.000000000000000000e+00,5.000000000000000000e+00,5.000000000000000000e+00,5.000000000000000000e+00,5.000000000000000000e+00,5.000000000000000000e+00,5.000000000000000000e+00,5.000000000000000000e+00,5.000000000000000000e+00,5.000000000000000000e+00,5.000000000000000000e+00,5.000000000000000000e+00,5.000000000000000000e+00,5.000000000000000000e+00,4.848776340484619141e+00,4.658943176269531250e+00,4.483414173126220703e+00,4.320631504058837891e+00,4.169255256652832031e+00,4.028126716613769531e+00,3.896240234375000000e+00,3.772715568542480469e+00,3.656783342361450195e+00,3.547763347625732422e+00,3.445055723190307617e+00,3.348127126693725586e+00,3.256503820419311523e+00,3.169761657714843750e+00,3.087520599365234375e+00,3.009439229965209961e+00,2.935209512710571289e+00,2.864553451538085938e+00,2.797219514846801758e+00,2.732977867126464844e+00,2.671621322631835938e+00,2.612958669662475586e+00,2.556817054748535156e+00,2.503037452697753906e+00,2.451473236083984375e+00,2.401990890502929688e+00,2.354466676712036133e+00,2.308786153793334961e+00,2.264844894409179688e+00,2.222544670104980469e+00,2.181795835494995117e+00,2.142513990402221680e+00,2.104621648788452148e+00,2.068046569824218750e+00,2.032720804214477539e+00,1.998581886291503906e+00,1.965570569038391113e+00,1.933632016181945801e+00,1.902714729309082031e+00,1.872770667076110840e+00,1.843754649162292480e+00
5.000000000000000000e+00,5.000000000000000000e+00,5.000000000000000000e+00,5.000000000000000000e+00,5.000000000000000000e+00,5.000000000000000000e+00,5.000000000000000000e+00,5.000000000000000000e+00,5.000000000000000000e+00,5.000000000000000000e+00,5.000000000000000000e+00,5.000000000000000000e+00,5.000000000000000000e+00,5.000000000000000000e+00,5.000000000000000000e+00,5.000000000000000000e+00,5.000000000000000000e+00,5.000000000000000000e+00,5.000000000000000000e+00,5.000000000000000000e+00,5.000000000000000000e+00,5.000000000000000000e+00,5.000000000000000000e+00,5.000000000000000000e+00,5.000000000000000000e+00,5.000000000000000000e+00,5.000000000000000000e+00,5.000000000000000000e+00,5.000000000000000000e+00,5.000000000000000000e+00,5.000000000000000000e+00,5.000000000000000000e+00,5.000000000000000000e+00,5.000000000000000000e+00,5.000000000000000000e+00,5.000000000000000000e+00,5.000000000000000000e+00,5.000000000000000000e+00,5.000000000000000000e+00,4.848903179168701172e+00,4.659069538116455078e+00,4.483531475067138672e+00,4.320740222930908203e+00,4.169356346130371094e+00,4.028221130371093750e+00,3.896328449249267578e+00,3.772798776626586914e+00,3.656861066818237305e+00,3.547836780548095703e+00,3.445124626159667969e+00,3.348192214965820312e+00,3.256565809249877930e+00,3.169820070266723633e+00,3.087576150894165039e+00,3.009491920471191406e+00,2.935259580612182617e+00,2.864601373672485352e+00,2.797264814376831055e+00,2.733021497726440430e+00,2.671662807464599609e+00,2.612998485565185547e+00,2.556855201721191406e+00,2.503073692321777344e+00,2.451508283615112305e+00,2.402024507522583008e+00,2.354498863220214844e+00,2.308817386627197266e+00,2.264874696731567383e+00,2.222573518753051758e+00,2.181823492050170898e+00,2.142540931701660156e+00,2.104647636413574219e+00,2.068071365356445312e+00,2.032745122909545898e+00,1.998605012893676758e+00,1.965593218803405762e+00,1.933653831481933594e+00,1.902735948562622070e+00,1.872791171073913574e+00,1.843774318695068359e+00
5.000000000000000000e+00,5.000000000000000000e+00,5.000000000000000000e+00,5.000000000000000000e+00,5.000000000000000000e+00,5.000000000000000000e+00,5.000000000000000000e+00,5.000000000000000000e+00,5.000000000000000000e+00,5.000000000000000000e+00,5.000000000000000000e+00,5.000000000000000000e+00,5.000000000000000000e+00,5.000000000000000000e+00,5.000000000000000000e+00,5.000000000000000000e+00,5.000000000000000000e+00,5.000000000000000000e+00,5.000000000000000000e+00,5.000000000000000000e+00,5.000000000000000000e+00,5.000000000000000000e+00,5.000000000000000000e+00,5.000000000000000000e+00,5.000000000000000000e+00,5.000000000000000000e+00,5.000000000000000000e+00,5.000000000000000000e+00,5.000000000000000000e+00,5.000000000000000000e+00,5.000000000000000000e+00,5.000000000000000000e+00,5.000000000000000000e+00,5.000000000000000000e+00,5.000000000000000000e+00,5.000000000000000000e+00,5.000000000000000000e+00,5.000000000000000000e+00,5.000000000000000000e+00,4.849006175994873047e+00,4.659195899963378906e+00,4.483648300170898438e+00,4.320848941802978516e+00,4.169457435607910156e+00,4.028315544128417969e+00,3.896417140960693359e+00,3.772881507873535156e+00,3.656939268112182617e+00,3.547909975051879883e+00,3.445193529129028320e+00,3.348257780075073242e+00,3.256627321243286133e+00,3.169878721237182617e+00,3.087631464004516602e+00,3.009544849395751953e+00,2.935309886932373047e+00,2.864649057388305664e+00,2.797310590744018555e+00,2.733064889907836914e+00,2.671704292297363281e+00,2.613038301467895508e+00,2.556893348693847656e+00,2.503110408782958984e+00,2.451543331146240234e+00,2.402058124542236328e+00,2.354531049728393555e+00,2.308848142623901367e+00,2.264904737472534180e+00,2.222602128982543945e+00,2.181851148605346680e+00,2.142567634582519531e+00,2.104673385620117188e+00,2.068096399307250977e+00,2.032768964767456055e+00,1.998628377914428711e+00,1.965615510940551758e+00,1.933675408363342285e+00,1.902757048606872559e+00,1.872811555862426758e+00,1.843794107437133789e+00
5.000000000000000000e+00,5.000000000000000000e+00,5.000000000000000000e+00,5.000000000000000000e+00,5.000000000000000000e+00,5.000000000000000000e+00,5.000000000000000000e+00,5.000000000000000000e+00,5.000000000000000000e+00,5.000000000000000000e+00,5.000000000000000000e+00,5.000000000000000000e+00,5.000000000000000000e+00,5.000000000000000000e+00,5.000000000000000000e+00,5.000000000000000000e+00,5.000000000000000000e+00,5.000000000000000000e+00,5.000000000000000000e+00,5.000000000000000000e+00,5.000000000000000000e+00,5.000000000000000000e+00,5.000000000000000000e+00,5.000000000000000000e+00,5.000000000000000000e+00,5.000000000000000000e+00,5.000000000000000000e+00,5.000000000000000000e+00,5.000000000000000000e+00,5.000000000000000000e+00,5.000000000000000000e+00,5.000000000000000000e+00,5.000000000000000000e+00,5.000000000000000000e+00,5.000000000000000000e+00,5.000000000000000000e+00,5.000000000000000000e+00,5.000000000000000000e+00,5.000000000000000000e+00,4.849109172821044922e+00,4.659292221069335938e+00,4.483765602111816406e+00,4.320957660675048828e+00,4.169559001922607422e+00,4.028409957885742188e+00,3.896505355834960938e+00,3.772964715957641602e+00,3.657016992568969727e+00,3.547983407974243164e+00,3.445262908935546875e+00,3.348322868347167969e+00,3.256689310073852539e+00,3.169937133789062500e+00,3.087687253952026367e+00,3.009597539901733398e+00,2.935360193252563477e+00,2.864697217941284180e+00,2.797356128692626953e+00,2.733108520507812500e+00,2.671745777130126953e+00,2.613078117370605469e+00,2.556931495666503906e+00,2.503146648406982422e+00,2.451578378677368164e+00,2.402091741561889648e+00,2.354563474655151367e+00,2.308879375457763672e+00,2.264934539794921875e+00,2.222630977630615234e+00,2.181878805160522461e+00,2.142594099044799805e+00,2.104699134826660156e+00,2.068121194839477539e+00,2.032793283462524414e+00,1.998651623725891113e+00,1.965638041496276855e+00,1.933697342872619629e+00,1.902778029441833496e+00,1.872832059860229492e+00,1.843814015388488770e+00
5.000000000000000000e+00,5.000000000000000000e+00,5.000000000000000000e+00,5.000000000000000000e+00,5.000000000000000000e+00,5.000000000000000000e+00,5.000000000000000000e+00,5.000000000000000000e+00,5.000000000000000000e+00,5.000000000000000000e+00,5.000000000000000000e+00,5.000000000000000000e+00,5.000000000000000000e+00,5.000000000000000000e+00,5.000000000000000000e+00,5.000000000000000000e+00,5.000000000000000000e+00,5.000000000000000000e+00,5.000000000000000000e+00,5.000000000000000000e+00,5.000000000000000000e+00,5.000000000000000000e+00,5.000000000000000000e+00,5.000000000000000000e+00,5.000000000000000000e+00,5.000000000000000000e+00,5.000000000000000000e+00,5.000000000000000000e+00,5.000000000000000000e+00,5.000000000000000000e+00,5.000000000000000000e+00,5.000000000000000000e+00,5.000000000000000000e+00,5.000000000000000000e+00,5.000000000000000000e+00,5.000000000000000000e+00,5.000000000000000000e+00,5.000000000000000000e+00,5.000000000000000000e+00,4.849212169647216797e+00,4.659387588500976562e+00,4.483864307403564453e+00,4.321066379547119141e+00,4.169660091400146484e+00,4.028504848480224609e+00,3.896594047546386719e+00,3.773047447204589844e+00,3.657094955444335938e+00,3.548056602478027344e+00,3.445331811904907227e+00,3.348388433456420898e+00,3.256751060485839844e+00,3.169995784759521484e+00,3.087742567062377930e+00,3.009649991989135742e+00,2.935410499572753906e+00,2.864744901657104492e+00,2.797401666641235352e+00,2.733151912689208984e+00,2.671787261962890625e+00,2.613117933273315430e+00,2.556969404220581055e+00,2.503183364868164062e+00,2.451613426208496094e+00,2.402125358581542969e+00,2.354595661163330078e+00,2.308910369873046875e+00,2.264964342117309570e+00,2.222659826278686523e+00,2.181906700134277344e+00,2.142621040344238281e+00,2.104724884033203125e+00,2.068146228790283203e+00,2.032817125320434570e+00,1.998674988746643066e+00,1.965660691261291504e+00,1.933719158172607422e+00,1.902799129486083984e+00,1.872852325439453125e+00,1.843833804130554199e+00
5.000000000000000000e+00,5.000000000000000000e+00,5.000000000000000000e+00,5.000000000000000000e+00,5.000000000000000000e+00,5.000000000000000000e+00,5.000000000000000000e+00,5.000000000000000000e+00,5.000000000000000000e+00,5.000000000000000000e+00,5.000000000000000000e+00,5.000000000000000000e+00,5.000000000000000000e+00,5.000000000000000000e+00,5.000000000000000000e+00,5.000000000000000000e+00,5.000000000000000000e+00,5.000000000000000000e+00,5.000000000000000000e+00,5.000000000000000000e+00,5.000000000000000000e+00,5.000000000000000000e+00,5.000000000000000000e+00,5.000000000000000000e+00,5.000000000000000000e+00,5.000000000000000000e+00,5.000000000000000000e+00,5.000000000000000000e+00,5.000000000000000000e+00,5.000000000000000000e+00,5.000000000000000000e+00,5.000000000000000000e+00,5.000000000000000000e+00,5.000000000000000000e+00,5.000000000000000000e+00,5.000000000000000000e+00,5.000000000000000000e+00,5.000000000000000000e+00,5.000000000000000000e+00,4.849315643310546875e+00,4.659482955932617188e+00,4.483952999114990234e+00,4.321167469024658203e+00,4.169761180877685547e+00,4.028599262237548828e+00,3.896682262420654297e+00,3.773130655288696289e+00,3.657172918319702148e+00,3.548129796981811523e+00,3.445401191711425781e+00,3.348453521728515625e+00,3.256813049316406250e+00,3.170054197311401367e+00,3.087798118591308594e+00,3.009702920913696289e+00,2.935460567474365234e+00,2.864792823791503906e+00,2.797447204589843750e+00,2.733195543289184570e+00,2.671828985214233398e+00,2.613157510757446289e+00,2.557007551193237305e+00,2.503219842910766602e+00,2.451648473739624023e+00,2.402158975601196289e+00,2.354628086090087891e+00,2.308941602706909180e+00,2.264994144439697266e+00,2.222688674926757812e+00,2.181934356689453125e+00,2.142647743225097656e+00,2.104750871658325195e+00,2.068171024322509766e+00,2.032841444015502930e+00,1.998698115348815918e+00,1.965682983398437500e+00,1.933740973472595215e+00,1.902820348739624023e+00,1.872872829437255859e+00,1.843853473663330078e+00
5.000000000000000000e+00,5.000000000000000000e+00,5.000000000000000000e+00,5.000000000000000000e+00,5.000000000000000000e+00,5.000000000000000000e+00,5.000000000000000000e+00,5.000000000000000000e+00,5.000000000000000000e+00,5.000000000000000000e+00,5.000000000000000000e+00,5.000000000000000000e+00,5.000000000000000000e+00,5.000000000000000000e+00,5.000000000000000000e+00,5.000000000000000000e+00,5.000000000000000000e+00,5.000000000000000000e+00,5.000000000000000000e+00,5.000000000000000000e+00,5.000000000000000000e+00,5.000000000000000000e+00,5.000000000000000000e+00,5.000000000000000000e+00,5.000000000000000000e+00,5.000000000000000000e+00,5.000000000000000000e+00,5.000000000000000000e+00,5.000000000000000000e+00,5.000000000000000000e+00,5.000000000000000000e+00,5.000000000000000000e+00,5.000000000000000000e+00,5.000000000000000000e+00,5.000000000000000000e+00,5.000000000000000000e+00,5.000000000000000000e+00,5.000000000000000000e+00,5.000000000000000000e+00,4.849418640136718750e+00,4.659577846527099609e+00,4.484040737152099609e+00,4.321249008178710938e+00,4.169862747192382812e+00,4.028693675994873047e+00,3.896770954132080078e+00,3.773213386535644531e+00,3.657250881195068359e+00,3.548203229904174805e+00,3.445470094680786133e+00,3.348519086837768555e+00,3.256874561309814453e+00,3.170113086700439453e+00,3.087853670120239258e+00,3.009755611419677734e+00,2.935510873794555664e+00,2.864840507507324219e+00,2.797492980957031250e+00,2.733239173889160156e+00,2.671870470046997070e+00,2.613197565078735352e+00,2.557045698165893555e+00,2.503256320953369141e+00,2.451683282852172852e+00,2.402192354202270508e+00,2.354660272598266602e+00,2.308972597122192383e+00,2.265024185180664062e+00,2.222717285156250000e+00,2.181962013244628906e+00,2.142674446105957031e+00,2.104776620864868164e+00,2.068196058273315430e+00,2.032865285873413086e+00,1.998721480369567871e+00,1.965705513954162598e+00,1.933762669563293457e+00,1.902841448783874512e+00,1.872893333435058594e+00,1.843873381614685059e+00
4.874015331268310547e+00,4.872818470001220703e+00,4.871622085571289062e+00,4.870426654815673828e+00,4.869231700897216797e+00,4.868037223815917969e+00,4.866843223571777344e+00,4.865650177001953125e+00,4.864457607269287109e+00,4.863265514373779297e+00,4.862073421478271484e+00,4.860882759094238281e+00,4.859692573547363281e+00,4.858502864837646484e+00,4.857313632965087891e+00,4.856124877929687500e+00,4.854937076568603516e+00,4.853749752044677734e+00,4.852562904357910156e+00,4.851376533508300781e+00,4.850191116333007812e+00,4.849006175994873047e+00,4.847821235656738281e+00,4.846637248992919922e+00,4.845454216003417969e+00,4.844271183013916016e+00,4.843088626861572266e+00,4.841907501220703125e+00,4.840726375579833984e+00,4.839545726776123047e+00,4.838366031646728516e+00,4.837186336517333984e+00,4.836008071899414062e+00,4.834829330444335938e+00,4.833651542663574219e+00,4.832474708557128906e+00,4.831298351287841797e+00,4.830122470855712891e+00,4.828947067260742188e+00,4.827772140502929688e+00,4.659673690795898438e+00,4.484129428863525391e+00,4.321331501007080078e+00,4.169940471649169922e+00,4.028788566589355469e+00,3.896859169006347656e+00,3.773296594619750977e+00,3.657328605651855469e+00,3.548276424407958984e+00,3.445539474487304688e+00,3.348584175109863281e+00,3.256936550140380859e+00,3.170171499252319336e+00,3.087909221649169922e+00,3.009808540344238281e+00,2.935560941696166992e+00,2.864888429641723633e+00,2.797538518905639648e+00,2.733282566070556641e+00,2.671912193298339844e+00,2.613237142562866211e+00,2.557083845138549805e+00,2.503292798995971680e+00,2.451718330383300781e+00,2.402226209640502930e+00,2.354692697525024414e+00,2.309003591537475586e+00,2.265053987503051758e+00,2.222746133804321289e+00,2.181989908218383789e+00,2.142701148986816406e+00,2.104802370071411133e+00,2.068220853805541992e+00,2.032889604568481445e+00,1.998744726181030273e+00,1.965728163719177246e+00,1.933784484863281250e+00,1.902862429618835449e+00,1.872913837432861328e+00,1.843893289566040039e+00
3.777046442031860352e+00,3.776327848434448242e+00,3.775609254837036133e+00,3.774890899658203125e+00,3.774173021316528320e+00,3.773455619812011719e+00,3.772738218307495117e+00,3.772021055221557617e+00,3.771304130554199219e+00,3.770587444305419922e+00,3.769870996475219727e+00,3.769155502319335938e+00,3.768439531326293945e+00,3.767724037170410156e+00,3.767008781433105469e+00,3.766293764114379883e+00,3.765579462051391602e+00,3.764865159988403320e+00,3.764150857925415039e+00,3.763437032699584961e+00,3.762723445892333984e+00,3.762010335922241211e+00,3.761297225952148438e+00,3.760584592819213867e+00,3.759871959686279297e+00,3.759159564971923828e+00,3.758447647094726562e+00,3.757736206054687500e+00,3.757024765014648438e+00,3.756313562393188477e+00,3.755602598190307617e+00,3.754891872406005859e+00,3.754182100296020508e+00,3.753471851348876953e+00,3.752761840820312500e+00,3.752052307128906250e+00,3.751343011856079102e+00,3.750634431838989258e+00,3.749925613403320312e+00,3.749217033386230469e+00,3.748508691787719727e+00,3.747800827026367188e+00,3.747092962265014648e+00,3.746386051177978516e+00,3.745678901672363281e+00,3.744971990585327148e+00,3.744265317916870117e+00,3.657406330108642578e+00,3.548350095748901367e+00,3.445608615875244141e+00,3.348649740219116211e+00,3.256998300552368164e+00,3.170229911804199219e+00,3.087964773178100586e+00,3.009861230850219727e+00,2.935611248016357422e+00,2.864936113357543945e+00,2.797584056854248047e+00,2.733326196670532227e+00,2.671953678131103516e+00,2.613276958465576172e+00,2.557121753692626953e+00,2.503329515457153320e+00,2.451753377914428711e+00,2.402259588241577148e+00,2.354724884033203125e+00,2.309034585952758789e+00,2.265084028244018555e+00,2.222774982452392578e+00,2.182017564773559570e+00,2.142728090286254883e+00,2.104828119277954102e+00,2.068245887756347656e+00,2.032913446426391602e+00,1.998767852783203125e+00,1.965750694274902344e+00,1.933806300163269043e+00,1.902883529663085938e+00,1.872934103012084961e+00,1.843912839889526367e+00
3.083140373229980469e+00,3.082661390304565430e+00,3.082182407379150391e+00,3.081704139709472656e+00,3.081225633621215820e+00,3.080747127532958984e+00,3.080268859863281250e+00,3.079790830612182617e+00,3.079313278198242188e+00,3.078835487365722656e+00,3.078357696533203125e+00,3.077880382537841797e+00,3.077403068542480469e+00,3.076925992965698242e+00,3.076448917388916016e+00,3.075972080230712891e+00,3.075495243072509766e+00,3.075018644332885742e+00,3.074542284011840820e+00,3.074066162109375000e+00,3.073590040206909180e+00,3.073114156723022461e+00,3.072638273239135742e+00,3.072162389755249023e+00,3.071687221527099609e+00,3.071211814880371094e+00,3.070736408233642578e+00,3.070261240005493164e+00,3.069786310195922852e+00,3.069311857223510742e+00,3.068837165832519531e+00,3.068362474441528320e+00,3.067888259887695312e+00,3.067414045333862305e+00,3.066939830780029297e+00,3.066466093063354492e+00,3.065992355346679688e+00,3.065518856048583984e+00,3.065045356750488281e+00,3.064571857452392578e+00,3.064099073410034180e+00,3.063625812530517578e+00,3.063153028488159180e+00,3.062680244445800781e+00,3.062207460403442383e+00,3.061735391616821289e+00,3.061262845993041992e+00,3.060790777206420898e+00,3.060318708419799805e+00,3.059846878051757812e+00,3.059375047683715820e+00,3.058903694152832031e+00,3.058432102203369141e+00,3.057960748672485352e+00,3.009914159774780273e+00,2.935661315917968750e+00,2.864984035491943359e+00,2.797629594802856445e+00,2.733369588851928711e+00,2.671995401382446289e+00,2.613316774368286133e+00,2.557160139083862305e+00,2.503365755081176758e+00,2.451788425445556641e+00,2.402293443679809570e+00,2.354757308959960938e+00,2.309065818786621094e+00,2.265113830566406250e+00,2.222803592681884766e+00,2.182045459747314453e+00,2.142754793167114258e+00,2.104854106903076172e+00,2.068270683288574219e+00,2.032937526702880859e+00,1.998791217803955078e+00,1.965773105621337891e+00,1.933828115463256836e+00,1.902904629707336426e+00,1.872954607009887695e+00,1.843932747840881348e+00
2.604627132415771484e+00,2.604285240173339844e+00,2.603943586349487305e+00,2.603601932525634766e+00,2.603260278701782227e+00,2.602919101715087891e+00,2.602577686309814453e+00,2.602236270904541016e+00,2.601895093917846680e+00,2.601553916931152344e+00,2.601212978363037109e+00,2.600872278213500977e+00,2.600531339645385742e+00,2.600190639495849609e+00,2.599849939346313477e+00,2.599509239196777344e+00,2.599169015884399414e+00,2.598828554153442383e+00,2.598488092422485352e+00,2.598147869110107422e+00,2.597807884216308594e+00,2.597467899322509766e+00,2.597127914428710938e+00,2.596788167953491211e+00,2.596448421478271484e+00,2.596108675003051758e+00,2.595768928527832031e+00,2.595429658889770508e+00,2.595090389251708984e+00,2.594750881195068359e+00,2.594411611557006836e+00,2.594072580337524414e+00,2.593733549118041992e+00,2.593394517898559570e+00,2.593055725097656250e+00,2.592716932296752930e+00,2.592378139495849609e+00,2.592039823532104492e+00,2.591701269149780273e+00,2.591362714767456055e+00,2.591024398803710938e+00,2.590686082839965820e+00,2.590348005294799805e+00,2.590009927749633789e+00,2.589672088623046875e+00,2.589334011077880859e+00,2.588996171951293945e+00,2.588658571243286133e+00,2.588320970535278320e+00,2.587983369827270508e+00,2.587646007537841797e+00,2.587308645248413086e+00,2.586971282958984375e+00,2.586634159088134766e+00,2.586297035217285156e+00,2.585959911346435547e+00,2.585623025894165039e+00,2.585286140441894531e+00,2.584949493408203125e+00,2.584612846374511719e+00,2.584276437759399414e+00,2.557198047637939453e+00,2.503402233123779297e+00,2.451823472976684570e+00,2.402326822280883789e+00,2.354789495468139648e+00,2.309096813201904297e+00,2.265143871307373047e+00,2.222832441329956055e+00,2.182073116302490234e+00,2.142781496047973633e+00,2.104879856109619141e+00,2.068295717239379883e+00,2.032961606979370117e+00,1.998814582824707031e+00,1.965795636177062988e+00,1.933849811553955078e+00,1.902925848960876465e+00,1.872975111007690430e+00,1.843952655792236328e+00
2.254744768142700195e+00,2.254486322402954102e+00,2.254228115081787109e+00,2.253969669342041016e+00,2.253711700439453125e+00,2.253453493118286133e+00,2.253195285797119141e+00,2.252937316894531250e+00,2.252679347991943359e+00,2.252421379089355469e+00,2.252163648605346680e+00,2.251905918121337891e+00,2.251647949218750000e+00,2.251390457153320312e+00,2.251132726669311523e+00,2.250875234603881836e+00,2.250617742538452148e+00,2.250360488891601562e+00,2.250102996826171875e+00,2.249845743179321289e+00,2.249588489532470703e+00,2.249331235885620117e+00,2.249073982238769531e+00,2.248816967010498047e+00,2.248560667037963867e+00,2.248305797576904297e+00,2.248051166534423828e+00,2.247796535491943359e+00,2.247541904449462891e+00,2.247287511825561523e+00,2.247032880783081055e+00,2.246778488159179688e+00,2.246524095535278320e+00,2.246269941329956055e+00,2.246015548706054688e+00,2.245761632919311523e+00,2.245507478713989258e+00,2.245253324508666992e+00,2.244999170303344727e+00,2.244745254516601562e+00,2.244491577148437500e+00,2.244237661361694336e+00,2.243983983993530273e+00,2.243730068206787109e+00,2.243476390838623047e+00,2.243222951889038086e+00,2.242969512939453125e+00,2.242715835571289062e+00,2.242462396621704102e+00,2.242209196090698242e+00,2.241955757141113281e+00,2.241702556610107422e+00,2.241449356079101562e+00,2.241196155548095703e+00,2.240943193435668945e+00,2.240689992904663086e+00,2.240437269210815430e+00,2.240184307098388672e+00,2.239931344985961914e+00,2.239678621292114258e+00,2.239425897598266602e+00,2.239173173904418945e+00,2.238920688629150391e+00,2.238667964935302734e+00,2.238415479660034180e+00,2.238162994384765625e+00,2.237910509109497070e+00,2.237658262252807617e+00,2.222861289978027344e+00,2.182100772857666016e+00,2.142808198928833008e+00,2.104905843734741211e+00,2.068320512771606445e+00,2.032985687255859375e+00,1.998837828636169434e+00,1.965818166732788086e+00,1.933871626853942871e+00,1.902946829795837402e+00,1.872995376586914062e+00,1.843972444534301758e+00
1.987827181816101074e+00,1.987626314163208008e+00,1.987425446510314941e+00,1.987224698066711426e+00,1.987024188041687012e+00,1.986823439598083496e+00,1.986622691154479980e+00,1.986422061920166016e+00,1.986221790313720703e+00,1.986021161079406738e+00,1.985820651054382324e+00,1.985620260238647461e+00,1.985419988632202148e+00,1.985219597816467285e+00,1.985019326210021973e+00,1.984818935394287109e+00,1.984618902206420898e+00,1.984418630599975586e+00,1.984218478202819824e+00,1.984018325805664062e+00,1.983818411827087402e+00,1.983618378639221191e+00,1.983418345451354980e+00,1.983218312263488770e+00,1.983018636703491211e+00,1.982818722724914551e+00,1.982618808746337891e+00,1.982419013977050781e+00,1.982219457626342773e+00,1.982019782066345215e+00,1.981819987297058105e+00,1.981620311737060547e+00,1.981420993804931641e+00,1.981221318244934082e+00,1.981021761894226074e+00,1.980822324752807617e+00,1.980623126029968262e+00,1.980423688888549805e+00,1.980224251747131348e+00,1.980024933815002441e+00,1.979825854301452637e+00,1.979626536369323730e+00,1.979427337646484375e+00,1.979228138923645020e+00,1.979029178619384766e+00,1.978830099105834961e+00,1.978631019592285156e+00,1.978431940078735352e+00,1.978233218193054199e+00,1.978034257888793945e+00,1.977835416793823242e+00,1.977636456489562988e+00,1.977437853813171387e+00,1.977239131927490234e+00,1.977040410041809082e+00,1.976841688156127930e+00,1.976643204689025879e+00,1.976444602012634277e+00,1.976245999336242676e+00,1.976047396659851074e+00,1.975849151611328125e+00,1.975650668144226074e+00,1.975452303886413574e+00,1.975253820419311523e+00,1.975055456161499023e+00,1.974857449531555176e+00,1.974659204483032227e+00,1.974460959434509277e+00,1.974262714385986328e+00,1.974064826965332031e+00,1.973866701126098633e+00,1.973668575286865234e+00,1.973470568656921387e+00,1.973272800445556641e+00,1.973074913024902344e+00,1.965840816497802734e+00,1.933893442153930664e+00,1.902967929840087891e+00,1.873015880584716797e+00,1.843992114067077637e+00
1.777415990829467773e+00,1.777255415916442871e+00,1.777094841003417969e+00,1.776934385299682617e+00,1.776773929595947266e+00,1.776613473892211914e+00,1.776452898979187012e+00,1.776292681694030762e+00,1.776132345199584961e+00,1.775971889495849609e+00,1.775811553001403809e+00,1.775651454925537109e+00,1.775491118431091309e+00,1.775330901145935059e+00,1.775170683860778809e+00,1.775010704994201660e+00,1.774850487709045410e+00,1.774690389633178711e+00,1.774530172348022461e+00,1.774370312690734863e+00,1.774210333824157715e+00,1.774050235748291016e+00,1.773890256881713867e+00,1.773730516433715820e+00,1.773570537567138672e+00,1.773410558700561523e+00,1.773250699043273926e+00,1.773091077804565430e+00,1.772931218147277832e+00,1.772771358489990234e+00,1.772611618041992188e+00,1.772452116012573242e+00,1.772292375564575195e+00,1.772132635116577148e+00,1.771973013877868652e+00,1.771813631057739258e+00,1.771654009819030762e+00,1.771494388580322266e+00,1.771334886550903320e+00,1.771175503730773926e+00,1.771016001701354980e+00,1.770856618881225586e+00,1.770697116851806641e+00,1.770537972450256348e+00,1.770378589630126953e+00,1.770219206809997559e+00,1.770059943199157715e+00,1.769900679588317871e+00,1.769741535186767578e+00,1.769582390785217285e+00,1.769423127174377441e+00,1.769263982772827148e+00,1.769105076789855957e+00,1.768945932388305664e+00,1.768786787986755371e+00,1.768627762794494629e+00,1.768468976020812988e+00,1.768309950828552246e+00,1.768151044845581055e+00,1.767992019653320312e+00,1.767833352088928223e+00,1.767674446105957031e+00,1.767515540122985840e+00,1.767356753349304199e+00,1.767198204994201660e+00,1.767039418220520020e+00,1.766880631446838379e+00,1.766721963882446289e+00,1.766563415527343750e+00,1.766404747962951660e+00,1.766246199607849121e+00,1.766087532043457031e+00,1.765929222106933594e+00,1.765770673751831055e+00,1.765612125396728516e+00,1.765453696250915527e+00,1.765295386314392090e+00,1.765136957168579102e+00,1.764978647232055664e+00,1.764820218086242676e+00
1.607285141944885254e+00,1.607153773307800293e+00,1.607022643089294434e+00,1.606891274452209473e+00,1.606760025024414062e+00,1.606628775596618652e+00,1.606497764587402344e+00,1.606366515159606934e+00,1.606235265731811523e+00,1.606104135513305664e+00,1.605973124504089355e+00,1.605841994285583496e+00,1.605710983276367188e+00,1.605579853057861328e+00,1.605448961257934570e+00,1.605317950248718262e+00,1.605186939239501953e+00,1.605055928230285645e+00,1.604925155639648438e+00,1.604794144630432129e+00,1.604663252830505371e+00,1.604532361030578613e+00,1.604401588439941406e+00,1.604270696640014648e+00,1.604139924049377441e+00,1.604009032249450684e+00,1.603878378868103027e+00,1.603747606277465820e+00,1.603616833686828613e+00,1.603486180305480957e+00,1.603355407714843750e+00,1.603224873542785645e+00,1.603094220161437988e+00,1.602963566780090332e+00,1.602832913398742676e+00,1.602702498435974121e+00,1.602571845054626465e+00,1.602441310882568359e+00,1.602310776710510254e+00,1.602180480957031250e+00,1.602049946784973145e+00,1.601919412612915039e+00,1.601788997650146484e+00,1.601658701896667480e+00,1.601528286933898926e+00,1.601397871971130371e+00,1.601267457008361816e+00,1.601137280464172363e+00,1.601006984710693359e+00,1.600876688957214355e+00,1.600746393203735352e+00,1.600616335868835449e+00,1.600486040115356445e+00,1.600355863571166992e+00,1.600225567817687988e+00,1.600095629692077637e+00,1.599965333938598633e+00,1.599835276603698730e+00,1.599705100059509277e+00,1.599575161933898926e+00,1.599445104598999023e+00,1.599315047264099121e+00,1.599184989929199219e+00,1.599055171012878418e+00,1.598925113677978516e+00,1.598795175552368164e+00,1.598665237426757812e+00,1.598535418510437012e+00,1.598405599594116211e+00,1.598275661468505859e+00,1.598145842552185059e+00,1.598016142845153809e+00,1.597886323928833008e+00,1.597756505012512207e+00,1.597626686096191406e+00,1.597497105598449707e+00,1.597367286682128906e+00,1.597237586975097656e+00,1.597107887268066406e+00,1.596978425979614258e+00
1.466878294944763184e+00,1.466768980026245117e+00,1.466659665107727051e+00,1.466550230979919434e+00,1.466440916061401367e+00,1.466331720352172852e+00,1.466222405433654785e+00,1.466113090515136719e+00,1.466003775596618652e+00,1.465894699096679688e+00,1.465785503387451172e+00,1.465676188468933105e+00,1.465566992759704590e+00,1.465457797050476074e+00,1.465348720550537109e+00,1.465239644050598145e+00,1.465130448341369629e+00,1.465021371841430664e+00,1.464912295341491699e+00,1.464803218841552734e+00,1.464694142341613770e+00,1.464585065841674805e+00,1.464476108551025391e+00,1.464367151260375977e+00,1.464258074760437012e+00,1.464149117469787598e+00,1.464040279388427734e+00,1.463931322097778320e+00,1.463822364807128906e+00,1.463713407516479492e+00,1.463604569435119629e+00,1.463495731353759766e+00,1.463386774063110352e+00,1.463277935981750488e+00,1.463169217109680176e+00,1.463060379028320312e+00,1.462951540946960449e+00,1.462842702865600586e+00,1.462734103202819824e+00,1.462625265121459961e+00,1.462516546249389648e+00,1.462407827377319336e+00,1.462299227714538574e+00,1.462190508842468262e+00,1.462081789970397949e+00,1.461973071098327637e+00,1.461864590644836426e+00,1.461755990982055664e+00,1.461647272109985352e+00,1.461538672447204590e+00,1.461430191993713379e+00,1.461321711540222168e+00,1.461213111877441406e+00,1.461104512214660645e+00,1.460996150970458984e+00,1.460887670516967773e+00,1.460779070854187012e+00,1.460670590400695801e+00,1.460562348365783691e+00,1.460453867912292480e+00,1.460345387458801270e+00,1.460237026214599609e+00,1.460128664970397949e+00,1.460020303726196289e+00,1.459911942481994629e+00,1.459803581237792969e+00,1.459695339202880859e+00,1.459587097167968750e+00,1.459478735923767090e+00,1.459370493888854980e+00,1.459262371063232422e+00,1.459154009819030762e+00,1.459045767784118652e+00,1.458937644958496094e+00,1.458829522132873535e+00,1.458721280097961426e+00,1.458613157272338867e+00,1.458505034446716309e+00,1.458396911621093750e+00,1.458288788795471191e+00
1.349031567573547363e+00,1.348939180374145508e+00,1.348846673965454102e+00,1.348754167556762695e+00,1.348661661148071289e+00,1.348569273948669434e+00,1.348476767539978027e+00,1.348384380340576172e+00,1.348291993141174316e+00,1.348199605941772461e+00,1.348107218742370605e+00,1.348014831542968750e+00,1.347922444343566895e+00,1.347830176353454590e+00,1.347737789154052734e+00,1.347645521163940430e+00,1.347553133964538574e+00,1.347460985183715820e+00,1.347368597984313965e+00,1.347276329994201660e+00,1.347184062004089355e+00,1.347091913223266602e+00,1.346999645233154297e+00,1.346907496452331543e+00,1.346815228462219238e+00,1.346723079681396484e+00,1.346630930900573730e+00,1.346538662910461426e+00,1.346446514129638672e+00,1.346354484558105469e+00,1.346262335777282715e+00,1.346170186996459961e+00,1.346078038215637207e+00,1.345986008644104004e+00,1.345893979072570801e+00,1.345801830291748047e+00,1.345709800720214844e+00,1.345617771148681641e+00,1.345525741577148438e+00,1.345433712005615234e+00,1.345341682434082031e+00,1.345249772071838379e+00,1.345157742500305176e+00,1.345065712928771973e+00,1.344973802566528320e+00,1.344881892204284668e+00,1.344789981842041016e+00,1.344698071479797363e+00,1.344606161117553711e+00,1.344514250755310059e+00,1.344422340393066406e+00,1.344330549240112305e+00,1.344238638877868652e+00,1.344146847724914551e+00,1.344055056571960449e+00,1.343963146209716797e+00,1.343871355056762695e+00,1.343779683113098145e+00,1.343687772750854492e+00,1.343595981597900391e+00,1.343504309654235840e+00,1.343412637710571289e+00,1.343320846557617188e+00,1.343229055404663086e+00,1.343137383460998535e+00,1.343045711517333984e+00,1.342954039573669434e+00,1.342862367630004883e+00,1.342770695686340332e+00,1.342679023742675781e+00,1.342587471008300781e+00,1.342495799064636230e+00,1.342404246330261230e+00,1.342312574386596680e+00,1.342221140861511230e+00,1.342129468917846680e+00,1.342037916183471680e+00,1.341946363449096680e+00,1.341854929924011230e+00,1.341763377189636230e+00
1.248712062835693359e+00,1.248632788658142090e+00,1.248553514480590820e+00,1.248474240303039551e+00,1.248395204544067383e+00,1.248315930366516113e+00,1.248236656188964844e+00,1.248157501220703125e+00,1.248078346252441406e+00,1.247999191284179688e+00,1.247920036315917969e+00,1.247840762138366699e+00,1.247761726379394531e+00,1.247682571411132812e+00,1.247603416442871094e+00,1.247524380683898926e+00,1.247445344924926758e+00,1.247366189956665039e+00,1.247287034988403320e+00,1.247207999229431152e+00,1.247128963470458984e+00,1.247049927711486816e+00,1.246970891952514648e+00,1.246891856193542480e+00,1.246812820434570312e+00,1.246733784675598145e+00,1.246654748916625977e+00,1.246575832366943359e+00,1.246496915817260742e+00,1.246417880058288574e+00,1.246338844299316406e+00,1.246259927749633789e+00,1.246181011199951172e+00,1.246102094650268555e+00,1.246023178100585938e+00,1.245944261550903320e+00,1.245865345001220703e+00,1.245786547660827637e+00,1.245707631111145020e+00,1.245628714561462402e+00,1.245549917221069336e+00,1.245471000671386719e+00,1.245392203330993652e+00,1.245313286781311035e+00,1.245234608650207520e+00,1.245155692100524902e+00,1.245076894760131836e+00,1.244998097419738770e+00,1.244919300079345703e+00,1.244840621948242188e+00,1.244761824607849121e+00,1.244683027267456055e+00,1.244604229927062988e+00,1.244525671005249023e+00,1.244446873664855957e+00,1.244368195533752441e+00,1.244289398193359375e+00,1.244210839271545410e+00,1.244132161140441895e+00,1.244053363800048828e+00,1.243974685668945312e+00,1.243896126747131348e+00,1.243817448616027832e+00,1.243738889694213867e+00,1.243660211563110352e+00,1.243581652641296387e+00,1.243502974510192871e+00,1.243424415588378906e+00,1.243345856666564941e+00,1.243267297744750977e+00,1.243188738822937012e+00,1.243110179901123047e+00,1.243031620979309082e+00,1.242953181266784668e+00,1.242874622344970703e+00,1.242796063423156738e+00,1.242717504501342773e+00,1.242639064788818359e+00,1.242560625076293945e+00,1.242482185363769531e+00
1.162280201911926270e+00,1.162211418151855469e+00,1.162142753601074219e+00,1.162074208259582520e+00,1.162005543708801270e+00,1.161936879158020020e+00,1.161868214607238770e+00,1.161799669265747070e+00,1.161731123924255371e+00,1.161662459373474121e+00,1.161593914031982422e+00,1.161525368690490723e+00,1.161456823348999023e+00,1.161388158798217773e+00,1.161319613456726074e+00,1.161251187324523926e+00,1.161182522773742676e+00,1.161113977432250977e+00,1.161045432090759277e+00,1.160977005958557129e+00,1.160908460617065430e+00,1.160840034484863281e+00,1.160771489143371582e+00,1.160703063011169434e+00,1.160634517669677734e+00,1.160566091537475586e+00,1.160497546195983887e+00,1.160429239273071289e+00,1.160360693931579590e+00,1.160292267799377441e+00,1.160223841667175293e+00,1.160155415534973145e+00,1.160087108612060547e+00,1.160018682479858398e+00,1.159950256347656250e+00,1.159881830215454102e+00,1.159813523292541504e+00,1.159745097160339355e+00,1.159676671028137207e+00,1.159608364105224609e+00,1.159540057182312012e+00,1.159471750259399414e+00,1.159403324127197266e+00,1.159335017204284668e+00,1.159266710281372070e+00,1.159198403358459473e+00,1.159130096435546875e+00,1.159061789512634277e+00,1.158993601799011230e+00,1.158925294876098633e+00,1.158856987953186035e+00,1.158788681030273438e+00,1.158720493316650391e+00,1.158652305603027344e+00,1.158583998680114746e+00,1.158515810966491699e+00,1.158447623252868652e+00,1.158379435539245605e+00,1.158311247825622559e+00,1.158243060111999512e+00,1.158174872398376465e+00,1.158106684684753418e+00,1.158038496971130371e+00,1.157970309257507324e+00,1.157902240753173828e+00,1.157834053039550781e+00,1.157765865325927734e+00,1.157697796821594238e+00,1.157629728317260742e+00,1.157561540603637695e+00,1.157493472099304199e+00,1.157425403594970703e+00,1.157357335090637207e+00,1.157289266586303711e+00,1.157221078872680664e+00,1.157153010368347168e+00,1.157085061073303223e+00,1.157016992568969727e+00,1.156948924064636230e+00,1.156880855560302734e+00
1.087038636207580566e+00,1.086978673934936523e+00,1.086918592453002930e+00,1.086858510971069336e+00,1.086798548698425293e+00,1.086738467216491699e+00,1.086678504943847656e+00,1.086618423461914062e+00,1.086558461189270020e+00,1.086498379707336426e+00,1.086438417434692383e+00,1.086378455162048340e+00,1.086318492889404297e+00,1.086258411407470703e+00,1.086198449134826660e+00,1.086138606071472168e+00,1.086078524589538574e+00,1.086018562316894531e+00,1.085958600044250488e+00,1.085898756980895996e+00,1.085838794708251953e+00,1.085778832435607910e+00,1.085718989372253418e+00,1.085659027099609375e+00,1.085599184036254883e+00,1.085539221763610840e+00,1.085479378700256348e+00,1.085419535636901855e+00,1.085359573364257812e+00,1.085299730300903320e+00,1.085239887237548828e+00,1.085180044174194336e+00,1.085120201110839844e+00,1.085060238838195801e+00,1.085000395774841309e+00,1.084940671920776367e+00,1.084880828857421875e+00,1.084820985794067383e+00,1.084761142730712891e+00,1.084701418876647949e+00,1.084641575813293457e+00,1.084581732749938965e+00,1.084522008895874023e+00,1.084462285041809082e+00,1.084402441978454590e+00,1.084342598915100098e+00,1.084282875061035156e+00,1.084223151206970215e+00,1.084163427352905273e+00,1.084103703498840332e+00,1.084043860435485840e+00,1.083984255790710449e+00,1.083924531936645508e+00,1.083864808082580566e+00,1.083805084228515625e+00,1.083745360374450684e+00,1.083685636520385742e+00,1.083626031875610352e+00,1.083566308021545410e+00,1.083506703376770020e+00,1.083446979522705078e+00,1.083387255668640137e+00,1.083327651023864746e+00,1.083268046379089355e+00,1.083208322525024414e+00,1.083148717880249023e+00,1.083089113235473633e+00,1.083029508590698242e+00,1.082969903945922852e+00,1.082910180091857910e+00,1.082850575447082520e+00,1.082791090011596680e+00,1.082731485366821289e+00,1.082671880722045898e+00,1.082612276077270508e+00,1.082552790641784668e+00,1.082493185997009277e+00,1.082433581352233887e+00,1.082373976707458496e+00,1.082314491271972656e+00
1.020946621894836426e+00,1.020893692970275879e+00,1.020840764045715332e+00,1.020787715911865234e+00,1.020734786987304688e+00,1.020681738853454590e+00,1.020628929138183594e+00,1.020575881004333496e+00,1.020522952079772949e+00,1.020470023155212402e+00,1.020417094230651855e+00,1.020364165306091309e+00,1.020311236381530762e+00,1.020258307456970215e+00,1.020205497741699219e+00,1.020152568817138672e+00,1.020099639892578125e+00,1.020046710968017578e+00,1.019993901252746582e+00,1.019941091537475586e+00,1.019888162612915039e+00,1.019835233688354492e+00,1.019782423973083496e+00,1.019729614257812500e+00,1.019676685333251953e+00,1.019623875617980957e+00,1.019571065902709961e+00,1.019518256187438965e+00,1.019465327262878418e+00,1.019412517547607422e+00,1.019359707832336426e+00,1.019306898117065430e+00,1.019254088401794434e+00,1.019201278686523438e+00,1.019148588180541992e+00,1.019095778465270996e+00,1.019042968750000000e+00,1.018990159034729004e+00,1.018937468528747559e+00,1.018884658813476562e+00,1.018831849098205566e+00,1.018779039382934570e+00,1.018726348876953125e+00,1.018673658370971680e+00,1.018620848655700684e+00,1.018568158149719238e+00,1.018515467643737793e+00,1.018462657928466797e+00,1.018409967422485352e+00,1.018357276916503906e+00,1.018304586410522461e+00,1.018251895904541016e+00,1.018199086189270020e+00,1.018146395683288574e+00,1.018093824386596680e+00,1.018041133880615234e+00,1.017988443374633789e+00,1.017935752868652344e+00,1.017883062362670898e+00,1.017830371856689453e+00,1.017777800559997559e+00,1.017725110054016113e+00,1.017672538757324219e+00,1.017619848251342773e+00,1.017567157745361328e+00,1.017514586448669434e+00,1.017461895942687988e+00,1.017409324645996094e+00,1.017356753349304199e+00,1.017304062843322754e+00,1.017251491546630859e+00,1.017198920249938965e+00,1.017146348953247070e+00,1.017093777656555176e+00,1.017041087150573730e+00,1.016988635063171387e+00,1.016936063766479492e+00,1.016883492469787598e+00,1.016830921173095703e+00,1.016778349876403809e+00
9.624307751655578613e-01,9.623836874961853027e-01,9.623366594314575195e-01,9.622895717620849609e-01,9.622425436973571777e-01,9.621955156326293945e-01,9.621483683586120605e-01,9.621013998985290527e-01,9.620542526245117188e-01,9.620072841644287109e-01,9.619602560997009277e-01,9.619131684303283691e-01,9.618661999702453613e-01,9.618191719055175781e-01,9.617720842361450195e-01,9.617251157760620117e-01,9.616780877113342285e-01,9.616311192512512207e-01,9.615841507911682129e-01,9.615370631217956543e-01,9.614901542663574219e-01,9.614431858062744141e-01,9.613961577415466309e-01,9.613491892814636230e-01,9.613021612167358398e-01,9.612552523612976074e-01,9.612083435058593750e-01,9.611613154411315918e-01,9.611143469810485840e-01,9.610674381256103516e-01,9.610204696655273438e-01,9.609735608100891113e-01,9.609265327453613281e-01,9.608796834945678711e-01,9.608327746391296387e-01,9.607858061790466309e-01,9.607388973236083984e-01,9.606920480728149414e-01,9.606450796127319336e-01,9.605982303619384766e-01,9.605512022972106934e-01,9.605043530464172363e-01,9.604575037956237793e-01,9.604105949401855469e-01,9.603637456893920898e-01,9.603168964385986328e-01,9.602699875831604004e-01,9.602231383323669434e-01,9.601762294769287109e-01,9.601293802261352539e-01,9.600825905799865723e-01,9.600356817245483398e-01,9.599888324737548828e-01,9.599419236183166504e-01,9.598951339721679688e-01,9.598483443260192871e-01,9.598014950752258301e-01,9.597547054290771484e-01,9.597079157829284668e-01,9.596610069274902344e-01,9.596142768859863281e-01,9.595673680305480957e-01,9.595206379890441895e-01,9.594739079475402832e-01,9.594269990921020508e-01,9.593802690505981445e-01,9.593335390090942383e-01,9.592866897583007812e-01,9.592399597167968750e-01,9.591931104660034180e-01,9.591463804244995117e-01,9.590997099876403809e-01,9.590528607368469238e-01,9.590061306953430176e-01,9.589594602584838867e-01,9.589126706123352051e-01,9.588659405708312988e-01,9.588191509246826172e-01,9.587724804878234863e-01,9.587258100509643555e-01
9.102590680122375488e-01,9.102168679237365723e-01,9.101748466491699219e-01,9.101326465606689453e-01,9.100905656814575195e-01,9.100485444068908691e-01,9.100064039230346680e-01,9.099643230438232422e-01,9.099222421646118164e-01,9.098801016807556152e-01,9.098380804061889648e-01,9.097959399223327637e-01,9.097539186477661133e-01,9.097118973731994629e-01,9.096697568893432617e-01,9.096277356147766113e-01,9.095857143402099609e-01,9.095436334609985352e-01,9.095016121864318848e-01,9.094595313072204590e-01,9.094175100326538086e-01,9.093754887580871582e-01,9.093334078788757324e-01,9.092914462089538574e-01,9.092494249343872070e-01,9.092073440551757812e-01,9.091653823852539062e-01,9.091233015060424805e-01,9.090813398361206055e-01,9.090393781661987305e-01,9.089972972869873047e-01,9.089553356170654297e-01,9.089133143424987793e-01,9.088713526725769043e-01,9.088293910026550293e-01,9.087873697280883789e-01,9.087454080581665039e-01,9.087035059928894043e-01,9.086614251136779785e-01,9.086195230484008789e-01,9.085775017738342285e-01,9.085355997085571289e-01,9.084936380386352539e-01,9.084516763687133789e-01,9.084097146987915039e-01,9.083678126335144043e-01,9.083258509635925293e-01,9.082839488983154297e-01,9.082419276237487793e-01,9.082000851631164551e-01,9.081581830978393555e-01,9.081162214279174805e-01,9.080743193626403809e-01,9.080324769020080566e-01,9.079904556274414062e-01,9.079486131668090820e-01,9.079066514968872070e-01,9.078648090362548828e-01,9.078229665756225586e-01,9.077810049057006836e-01,9.077391624450683594e-01,9.076973199844360352e-01,9.076553583145141602e-01,9.076135158538818359e-01,9.075716137886047363e-01,9.075297713279724121e-01,9.074879288673400879e-01,9.074460268020629883e-01,9.074042439460754395e-01,9.073624014854431152e-01,9.073204994201660156e-01,9.072787165641784668e-01,9.072368144989013672e-01,9.071950316429138184e-01,9.071531891822814941e-01,9.071113467216491699e-01,9.070695638656616211e-01,9.070277810096740723e-01,9.069858789443969727e-01,9.069440960884094238e-01
