5.000000000000000000e+00,5.000000000000000000e+00,5.000000000000000000e+00,5.000000000000000000e+00,5.000000000000000000e+00,5.000000000000000000e+00,5.000000000000000000e+00,5.000000000000000000e+00,5.000000000000000000e+00,5.000000000000000000e+00,5.000000000000000000e+00,5.000000000000000000e+00,5.000000000000000000e+00,5.000000000000000000e+00,5.000000000000000000e+00,5.000000000000000000e+00,5.000000000000000000e+00,5.000000000000000000e+00,5.000000000000000000e+00,5.000000000000000000e+00,5.000000000000000000e+00,5.000000000000000000e+00,5.000000000000000000e+00,5.000000000000000000e+00,5.000000000000000000e+00,5.000000000000000000e+00,5.000000000000000000e+00,5.000000000000000000e+00,5.000000000000000000e+00,5.000000000000000000e+00,5.000000000000000000e+00,5.000000000000000000e+00,5.000000000000000000e+00,5.000000000000000000e+00,5.000000000000000000e+00,5.000000000000000000e+00,5.000000000000000000e+00,5.000000000000000000e+00,5.000000000000000000e+00,4.862336635589599609e+00,4.671351432800292969e+00,4.494802474975585938e+00,4.331112384796142578e+00,4.178925514221191406e+00,4.037070751190185547e+00,1.373270511627197266e+00,1.352128863334655762e+00,1.358753204345703125e+00,1.361862421035766602e+00,1.310454249382019043e+00,1.271318316459655762e+00,1.246928095817565918e+00,1.222780585289001465e+00,1.206838726997375488e+00,1.202507972717285156e+00,1.198208332061767578e+00,1.194611668586730957e+00,1.218140959739685059e+00,1.378709673881530762e+00,1.416334748268127441e+00,2.616167783737182617e+00,2.559856891632080078e+00,2.505918741226196289e+00,2.454206705093383789e+00,2.404586076736450195e+00,2.356931924819946289e+00,2.311130046844482422e+00,1.402735590934753418e+00,1.368281602859497070e+00,1.346510291099548340e+00,1.302054047584533691e+00,1.285950064659118652e+00,2.069797277450561523e+00,2.034391641616821289e+00,2.000176668167114258e+00,1.967093706130981445e+00,1.935087203979492188e+00,1.904105424880981445e+00,1.874100327491760254e+00,1.845026135444641113e+00
5.000000000000000000e+00,5.000000000000000000e+00,5.000000000000000000e+00,5.000000000000000000e+00,5.000000000000000000e+00,5.000000000000000000e+00,5.000000000000000000e+00,5.000000000000000000e+00,5.000000000000000000e+00,5.000000000000000000e+00,5.000000000000000000e+00,5.000000000000000000e+00,5.000000000000000000e+00,5.000000000000000000e+00,5.000000000000000000e+00,5.000000000000000000e+00,5.000000000000000000e+00,5.000000000000000000e+00,5.000000000000000000e+00,5.000000000000000000e+00,5.000000000000000000e+00,5.000000000000000000e+00,5.000000000000000000e+00,5.000000000000000000e+00,5.000000000000000000e+00,5.000000000000000000e+00,5.000000000000000000e+00,5.000000000000000000e+00,5.000000000000000000e+00,5.000000000000000000e+00,5.000000000000000000e+00,5.000000000000000000e+00,5.000000000000000000e+00,5.000000000000000000e+00,5.000000000000000000e+00,5.000000000000000000e+00,5.000000000000000000e+00,5.000000000000000000e+00,5.000000000000000000e+00,4.862476348876953125e+00,4.671480178833007812e+00,4.494921684265136719e+00,4.331223011016845703e+00,4.179028511047363281e+00,4.037167072296142578e+00,1.379787683486938477e+00,1.364323616027832031e+00,3.664029121398925781e+00,3.554519653320312500e+00,1.316344261169433594e+00,1.279537439346313477e+00,1.249636530876159668e+00,1.225600242614746094e+00,1.201437592506408691e+00,1.195734620094299316e+00,1.191483139991760254e+00,1.187261700630187988e+00,1.190110325813293457e+00,1.379425764083862305e+00,1.423370242118835449e+00,2.616208314895629883e+00,2.559895515441894531e+00,2.505955696105957031e+00,2.454242467880249023e+00,2.404620170593261719e+00,2.356964826583862305e+00,2.311161518096923828e+00,2.267104625701904297e+00,1.394904136657714844e+00,1.366544842720031738e+00,1.327953457832336426e+00,1.311990022659301758e+00,2.069822549819946289e+00,2.034415960311889648e+00,2.000200271606445312e+00,1.967116594314575195e+00,1.935109376907348633e+00,1.904126882553100586e+00,1.874121069908142090e+00,1.845046162605285645e+00
5.000000000000000000e+00,5.000000000000000000e+00,5.000000000000000000e+00,5.000000000000000000e+00,5.000000000000000000e+00,5.000000000000000000e+00,5.000000000000000000e+00,5.000000000000000000e+00,5.000000000000000000e+00,5.000000000000000000e+00,5.000000000000000000e+00,5.000000000000000000e+00,5.000000000000000000e+00,5.000000000000000000e+00,5.000000000000000000e+00,5.000000000000000000e+00,5.000000000000000000e+00,5.000000000000000000e+00,5.000000000000000000e+00,5.000000000000000000e+00,5.000000000000000000e+00,5.000000000000000000e+00,5.000000000000000000e+00,5.000000000000000000e+00,5.000000000000000000e+00,5.000000000000000000e+00,5.000000000000000000e+00,5.000000000000000000e+00,5.000000000000000000e+00,5.000000000000000000e+00,5.000000000000000000e+00,5.000000000000000000e+00,5.000000000000000000e+00,5.000000000000000000e+00,5.000000000000000000e+00,5.000000000000000000e+00,5.000000000000000000e+00,5.000000000000000000e+00,5.000000000000000000e+00,4.862616062164306641e+00,4.671609401702880859e+00,4.495041370391845703e+00,4.331334114074707031e+00,4.179131984710693359e+00,4.037263393402099609e+00,1.374683618545532227e+00,1.355191230773925781e+00,1.353342056274414062e+00,3.554594278335571289e+00,1.324899196624755859e+00,1.287863492965698242e+00,1.252610921859741211e+00,1.228433012962341309e+00,1.204159617424011230e+00,1.188050985336303711e+00,1.183321475982666016e+00,1.178629398345947266e+00,1.173974394798278809e+00,1.213692784309387207e+00,1.438703775405883789e+00,2.616248846054077148e+00,2.559934139251708984e+00,2.505992889404296875e+00,2.454277992248535156e+00,2.404654264450073242e+00,2.356997728347778320e+00,2.311192989349365234e+00,2.267134904861450195e+00,2.224725008010864258e+00,1.379138708114624023e+00,1.348783493041992188e+00,2.106509923934936523e+00,2.069847822189331055e+00,2.034440517425537109e+00,2.000223875045776367e+00,1.967139363288879395e+00,1.935131430625915527e+00,1.904148221015930176e+00,1.874141812324523926e+00,1.845066308975219727e+00
5.000000000000000000e+00,5.000000000000000000e+00,5.000000000000000000e+00,5.000000000000000000e+00,5.000000000000000000e+00,5.000000000000000000e+00,5.000000000000000000e+00,5.000000000000000000e+00,5.000000000000000000e+00,5.000000000000000000e+00,5.000000000000000000e+00,5.000000000000000000e+00,5.000000000000000000e+00,5.000000000000000000e+00,5.000000000000000000e+00,5.000000000000000000e+00,5.000000000000000000e+00,5.000000000000000000e+00,5.000000000000000000e+00,5.000000000000000000e+00,5.000000000000000000e+00,5.000000000000000000e+00,5.000000000000000000e+00,5.000000000000000000e+00,5.000000000000000000e+00,5.000000000000000000e+00,5.000000000000000000e+00,5.000000000000000000e+00,5.000000000000000000e+00,5.000000000000000000e+00,5.000000000000000000e+00,5.000000000000000000e+00,5.000000000000000000e+00,5.000000000000000000e+00,5.000000000000000000e+00,5.000000000000000000e+00,5.000000000000000000e+00,5.000000000000000000e+00,5.000000000000000000e+00,4.862755775451660156e+00,4.671738147735595703e+00,4.495160579681396484e+00,4.331444740295410156e+00,4.179234981536865234e+00,4.037359714508056641e+00,1.369300723075866699e+00,1.342463254928588867e+00,1.340611100196838379e+00,1.342175245285034180e+00,3.451506853103637695e+00,1.295600652694702148e+00,1.260589122772216797e+00,1.231278896331787109e+00,1.207310914993286133e+00,1.183837771415710449e+00,1.173657536506652832e+00,1.169041633605957031e+00,1.164461970329284668e+00,1.186151981353759766e+00,1.455346107482910156e+00,2.616289138793945312e+00,2.559972763061523438e+00,2.506030082702636719e+00,2.454313516616821289e+00,2.404688596725463867e+00,2.357030391693115234e+00,2.311224699020385742e+00,2.267165184020996094e+00,2.224754571914672852e+00,2.183901071548461914e+00,2.144520998001098633e+00,2.106536149978637695e+00,2.069873094558715820e+00,2.034465074539184570e+00,2.000247478485107422e+00,1.967162251472473145e+00,1.935153484344482422e+00,1.904169917106628418e+00,1.874162435531616211e+00,1.845086455345153809e+00
5.000000000000000000e+00,5.000000000000000000e+00,5.000000000000000000e+00,5.000000000000000000e+00,5.000000000000000000e+00,5.000000000000000000e+00,5.000000000000000000e+00,5.000000000000000000e+00,5.000000000000000000e+00,5.000000000000000000e+00,5.000000000000000000e+00,5.000000000000000000e+00,5.000000000000000000e+00,5.000000000000000000e+00,5.000000000000000000e+00,5.000000000000000000e+00,5.000000000000000000e+00,5.000000000000000000e+00,5.000000000000000000e+00,5.000000000000000000e+00,5.000000000000000000e+00,5.000000000000000000e+00,5.000000000000000000e+00,5.000000000000000000e+00,5.000000000000000000e+00,5.000000000000000000e+00,5.000000000000000000e+00,5.000000000000000000e+00,5.000000000000000000e+00,5.000000000000000000e+00,5.000000000000000000e+00,5.000000000000000000e+00,5.000000000000000000e+00,5.000000000000000000e+00,5.000000000000000000e+00,5.000000000000000000e+00,5.000000000000000000e+00,5.000000000000000000e+00,5.000000000000000000e+00,4.862895488739013672e+00,4.671867370605468750e+00,4.495279788970947266e+00,4.331555843353271484e+00,4.179338455200195312e+00,4.037456035614013672e+00,1.361700177192687988e+00,1.333951115608215332e+00,1.345488667488098145e+00,1.332027792930603027e+00,3.451577186584472656e+00,3.354229927062988281e+00,1.267569899559020996e+00,1.234871029853820801e+00,1.210653185844421387e+00,1.187592029571533203e+00,1.168991923332214355e+00,1.159781694412231445e+00,1.155102372169494629e+00,1.159939050674438477e+00,1.202337145805358887e+00,2.616329669952392578e+00,2.560011625289916992e+00,2.506067276000976562e+00,2.454349040985107422e+00,2.404722690582275391e+00,2.357063293457031250e+00,2.311256170272827148e+00,2.267195701599121094e+00,2.224783658981323242e+00,2.183929204940795898e+00,2.144548177719116211e+00,2.106562376022338867e+00,2.069898605346679688e+00,2.034489393234252930e+00,2.000271320343017578e+00,1.967185020446777344e+00,1.935175657272338867e+00,1.904191255569458008e+00,1.874183177947998047e+00,1.845106482505798340e+00
5.000000000000000000e+00,5.000000000000000000e+00,5.000000000000000000e+00,5.000000000000000000e+00,5.000000000000000000e+00,5.000000000000000000e+00,5.000000000000000000e+00,5.000000000000000000e+00,5.000000000000000000e+00,5.000000000000000000e+00,5.000000000000000000e+00,5.000000000000000000e+00,5.000000000000000000e+00,5.000000000000000000e+00,5.000000000000000000e+00,5.000000000000000000e+00,5.000000000000000000e+00,5.000000000000000000e+00,5.000000000000000000e+00,5.000000000000000000e+00,5.000000000000000000e+00,5.000000000000000000e+00,5.000000000000000000e+00,5.000000000000000000e+00,5.000000000000000000e+00,5.000000000000000000e+00,5.000000000000000000e+00,5.000000000000000000e+00,5.000000000000000000e+00,5.000000000000000000e+00,5.000000000000000000e+00,5.000000000000000000e+00,5.000000000000000000e+00,5.000000000000000000e+00,5.000000000000000000e+00,5.000000000000000000e+00,5.000000000000000000e+00,5.000000000000000000e+00,5.000000000000000000e+00,4.863035202026367188e+00,4.671996116638183594e+00,4.495398998260498047e+00,4.331666469573974609e+00,4.179441452026367188e+00,4.037552356719970703e+00,1.362512111663818359e+00,1.335199356079101562e+00,3.664346456527709961e+00,1.327117323875427246e+00,3.451647520065307617e+00,3.354296684265136719e+00,1.274512171745300293e+00,1.242484807968139648e+00,1.214013814926147461e+00,1.190945625305175781e+00,1.166795492172241211e+00,1.155800223350524902e+00,1.146795988082885742e+00,1.141491770744323730e+00,1.175086379051208496e+00,2.616369962692260742e+00,2.560050487518310547e+00,2.506104230880737305e+00,2.454384803771972656e+00,2.404756784439086914e+00,2.357096195220947266e+00,2.311287641525268555e+00,2.267226219177246094e+00,2.224812984466552734e+00,2.183957338333129883e+00,2.144575357437133789e+00,2.106588602066040039e+00,2.069923877716064453e+00,2.034513711929321289e+00,2.000294923782348633e+00,1.967207908630371094e+00,1.935197710990905762e+00,1.904212713241577148e+00,1.874204158782958984e+00,1.845126628875732422e+00
5.000000000000000000e+00,5.000000000000000000e+00,5.000000000000000000e+00,5.000000000000000000e+00,5.000000000000000000e+00,5.000000000000000000e+00,5.000000000000000000e+00,5.000000000000000000e+00,5.000000000000000000e+00,5.000000000000000000e+00,5.000000000000000000e+00,5.000000000000000000e+00,5.000000000000000000e+00,5.000000000000000000e+00,5.000000000000000000e+00,5.000000000000000000e+00,5.000000000000000000e+00,5.000000000000000000e+00,5.000000000000000000e+00,5.000000000000000000e+00,5.000000000000000000e+00,5.000000000000000000e+00,5.000000000000000000e+00,5.000000000000000000e+00,5.000000000000000000e+00,5.000000000000000000e+00,5.000000000000000000e+00,5.000000000000000000e+00,5.000000000000000000e+00,5.000000000000000000e+00,5.000000000000000000e+00,5.000000000000000000e+00,5.000000000000000000e+00,5.000000000000000000e+00,5.000000000000000000e+00,5.000000000000000000e+00,5.000000000000000000e+00,5.000000000000000000e+00,5.000000000000000000e+00,4.863174915313720703e+00,4.672125339508056641e+00,4.495518684387207031e+00,4.331777572631835938e+00,4.179544925689697266e+00,4.037648677825927734e+00,1.367113947868347168e+00,1.347848296165466309e+00,3.664425611495971680e+00,1.330172777175903320e+00,3.451717853546142578e+00,3.354362964630126953e+00,1.519076704978942871e+00,1.250192999839782715e+00,1.219475865364074707e+00,1.194197654724121094e+00,1.170442223548889160e+00,1.151845932006835938e+00,1.142902970314025879e+00,1.134097695350646973e+00,1.149043560028076172e+00,2.616410493850708008e+00,2.560089111328125000e+00,2.506141185760498047e+00,2.454420328140258789e+00,2.404790878295898438e+00,2.357128858566284180e+00,2.311319351196289062e+00,2.267256498336791992e+00,2.224842071533203125e+00,2.183985710144042969e+00,2.144602537155151367e+00,2.106614828109741211e+00,2.069949150085449219e+00,2.034538269042968750e+00,2.000318527221679688e+00,1.967230916023254395e+00,1.935219883918762207e+00,1.904234051704406738e+00,1.874224901199340820e+00,1.845146656036376953e+00
5.000000000000000000e+00,5.000000000000000000e+00,5.000000000000000000e+00,5.000000000000000000e+00,5.000000000000000000e+00,5.000000000000000000e+00,5.000000000000000000e+00,5.000000000000000000e+00,5.000000000000000000e+00,5.000000000000000000e+00,5.000000000000000000e+00,5.000000000000000000e+00,5.000000000000000000e+00,5.000000000000000000e+00,5.000000000000000000e+00,5.000000000000000000e+00,5.000000000000000000e+00,5.000000000000000000e+00,5.000000000000000000e+00,5.000000000000000000e+00,5.000000000000000000e+00,5.000000000000000000e+00,5.000000000000000000e+00,5.000000000000000000e+00,5.000000000000000000e+00,5.000000000000000000e+00,5.000000000000000000e+00,5.000000000000000000e+00,5.000000000000000000e+00,5.000000000000000000e+00,5.000000000000000000e+00,5.000000000000000000e+00,5.000000000000000000e+00,5.000000000000000000e+00,5.000000000000000000e+00,5.000000000000000000e+00,5.000000000000000000e+00,5.000000000000000000e+00,5.000000000000000000e+00,4.863314628601074219e+00,4.672254085540771484e+00,4.495637893676757812e+00,4.331888198852539062e+00,4.179647922515869141e+00,4.037744998931884766e+00,1.362764000892639160e+00,1.341548204421997070e+00,1.311506390571594238e+00,3.554967641830444336e+00,3.451788425445556641e+00,3.354429483413696289e+00,1.518239974975585938e+00,1.255414485931396484e+00,1.226900458335876465e+00,1.197467684745788574e+00,1.174111723899841309e+00,1.150236845016479492e+00,1.138537883758544922e+00,1.129330039024353027e+00,1.131781458854675293e+00,1.159104585647583008e+00,2.560127735137939453e+00,2.506178617477416992e+00,2.454455852508544922e+00,2.404825210571289062e+00,2.357161760330200195e+00,2.311351060867309570e+00,2.267286777496337891e+00,2.224871397018432617e+00,2.184013843536376953e+00,2.144629716873168945e+00,2.106641054153442383e+00,2.069974422454833984e+00,2.034562826156616211e+00,2.000342130661010742e+00,1.967253804206848145e+00,1.935241937637329102e+00,1.904255509376525879e+00,1.874245643615722656e+00,1.845166921615600586e+00
5.000000000000000000e+00,5.000000000000000000e+00,5.000000000000000000e+00,5.000000000000000000e+00,5.000000000000000000e+00,5.000000000000000000e+00,5.000000000000000000e+00,5.000000000000000000e+00,5.000000000000000000e+00,5.000000000000000000e+00,5.000000000000000000e+00,5.000000000000000000e+00,5.000000000000000000e+00,5.000000000000000000e+00,5.000000000000000000e+00,5.000000000000000000e+00,5.000000000000000000e+00,5.000000000000000000e+00,5.000000000000000000e+00,5.000000000000000000e+00,5.000000000000000000e+00,5.000000000000000000e+00,5.000000000000000000e+00,5.000000000000000000e+00,5.000000000000000000e+00,5.000000000000000000e+00,5.000000000000000000e+00,5.000000000000000000e+00,5.000000000000000000e+00,5.000000000000000000e+00,5.000000000000000000e+00,5.000000000000000000e+00,5.000000000000000000e+00,5.000000000000000000e+00,5.000000000000000000e+00,5.000000000000000000e+00,5.000000000000000000e+00,5.000000000000000000e+00,5.000000000000000000e+00,4.863454341888427734e+00,4.672383308410644531e+00,4.495757579803466797e+00,4.331999301910400391e+00,4.179751396179199219e+00,4.037841320037841797e+00,1.358011841773986816e+00,3.781092166900634766e+00,3.664584636688232422e+00,3.555042028427124023e+00,3.451858758926391602e+00,3.354495763778686523e+00,1.516504883766174316e+00,1.469572067260742188e+00,1.231023550033569336e+00,1.203858852386474609e+00,1.177804350852966309e+00,1.154224872589111328e+00,1.137398958206176758e+00,1.126955747604370117e+00,1.122312903404235840e+00,1.142177700996398926e+00,2.560166358947753906e+00,2.506215572357177734e+00,2.454491376876831055e+00,2.404859304428100586e+00,2.357194423675537109e+00,2.311382532119750977e+00,2.267317056655883789e+00,2.224900722503662109e+00,2.184041976928710938e+00,2.144656896591186523e+00,2.106667280197143555e+00,2.069999933242797852e+00,2.034587144851684570e+00,2.000365734100341797e+00,1.967276573181152344e+00,1.935263991355895996e+00,1.904276847839355469e+00,1.874266266822814941e+00,1.845187067985534668e+00
5.000000000000000000e+00,5.000000000000000000e+00,5.000000000000000000e+00,5.000000000000000000e+00,5.000000000000000000e+00,5.000000000000000000e+00,5.000000000000000000e+00,5.000000000000000000e+00,5.000000000000000000e+00,5.000000000000000000e+00,5.000000000000000000e+00,5.000000000000000000e+00,5.000000000000000000e+00,5.000000000000000000e+00,5.000000000000000000e+00,5.000000000000000000e+00,5.000000000000000000e+00,5.000000000000000000e+00,5.000000000000000000e+00,5.000000000000000000e+00,5.000000000000000000e+00,5.000000000000000000e+00,5.000000000000000000e+00,5.000000000000000000e+00,5.000000000000000000e+00,5.000000000000000000e+00,5.000000000000000000e+00,5.000000000000000000e+00,5.000000000000000000e+00,5.000000000000000000e+00,5.000000000000000000e+00,5.000000000000000000e+00,5.000000000000000000e+00,5.000000000000000000e+00,5.000000000000000000e+00,5.000000000000000000e+00,5.000000000000000000e+00,5.000000000000000000e+00,5.000000000000000000e+00,4.863594055175781250e+00,4.672512054443359375e+00,4.495876789093017578e+00,4.332109928131103516e+00,4.179854393005371094e+00,4.037937641143798828e+00,3.905341386795043945e+00,3.781176805496215820e+00,3.664663791656494141e+00,3.555117130279541016e+00,3.451929092407226562e+00,3.354562520980834961e+00,1.513051509857177734e+00,1.470501661300659180e+00,1.234896183013916016e+00,1.207562327384948730e+00,1.181874990463256836e+00,1.158322572708129883e+00,1.138002038002014160e+00,1.127137780189514160e+00,1.123140335083007812e+00,1.143942594528198242e+00,2.560205221176147461e+00,2.506252765655517578e+00,2.454527139663696289e+00,2.404893398284912109e+00,2.357227563858032227e+00,2.311414003372192383e+00,2.267347335815429688e+00,2.224929809570312500e+00,2.184070110321044922e+00,2.144684076309204102e+00,2.106693506240844727e+00,2.070025205612182617e+00,2.034611701965332031e+00,2.000389575958251953e+00,1.967299461364746094e+00,1.935286402702331543e+00,1.904298305511474609e+00,1.874287009239196777e+00,1.845207095146179199e+00
5.000000000000000000e+00,5.000000000000000000e+00,5.000000000000000000e+00,5.000000000000000000e+00,5.000000000000000000e+00,5.000000000000000000e+00,5.000000000000000000e+00,5.000000000000000000e+00,5.000000000000000000e+00,5.000000000000000000e+00,5.000000000000000000e+00,5.000000000000000000e+00,5.000000000000000000e+00,5.000000000000000000e+00,5.000000000000000000e+00,5.000000000000000000e+00,5.000000000000000000e+00,5.000000000000000000e+00,5.000000000000000000e+00,5.000000000000000000e+00,5.000000000000000000e+00,5.000000000000000000e+00,5.000000000000000000e+00,5.000000000000000000e+00,5.000000000000000000e+00,5.000000000000000000e+00,5.000000000000000000e+00,5.000000000000000000e+00,5.000000000000000000e+00,5.000000000000000000e+00,5.000000000000000000e+00,5.000000000000000000e+00,5.000000000000000000e+00,5.000000000000000000e+00,5.000000000000000000e+00,5.000000000000000000e+00,5.000000000000000000e+00,5.000000000000000000e+00,5.000000000000000000e+00,4.863734245300292969e+00,4.672641277313232422e+00,4.495996475219726562e+00,4.332221031188964844e+00,4.179957389831542969e+00,4.038033962249755859e+00,3.905431509017944336e+00,3.781261205673217773e+00,3.664743185043334961e+00,3.555191516876220703e+00,3.451999425888061523e+00,3.354629039764404297e+00,1.509613871574401855e+00,1.471432447433471680e+00,1.450510859489440918e+00,1.212213635444641113e+00,1.186220645904541016e+00,1.157027602195739746e+00,1.140586853027343750e+00,1.130419731140136719e+00,1.127129554748535156e+00,1.147885560989379883e+00,2.560244083404541016e+00,2.506289720535278320e+00,2.454562664031982422e+00,2.404927492141723633e+00,2.357260227203369141e+00,2.311445474624633789e+00,2.267377853393554688e+00,2.224959135055541992e+00,2.184098482131958008e+00,2.144711256027221680e+00,2.106719732284545898e+00,2.070050477981567383e+00,2.034636259078979492e+00,2.000413179397583008e+00,1.967322349548339844e+00,1.935308456420898438e+00,1.904319643974304199e+00,1.874307751655578613e+00,1.845227241516113281e+00
5.000000000000000000e+00,5.000000000000000000e+00,5.000000000000000000e+00,5.000000000000000000e+00,5.000000000000000000e+00,5.000000000000000000e+00,5.000000000000000000e+00,5.000000000000000000e+00,5.000000000000000000e+00,5.000000000000000000e+00,5.000000000000000000e+00,5.000000000000000000e+00,5.000000000000000000e+00,5.000000000000000000e+00,5.000000000000000000e+00,5.000000000000000000e+00,5.000000000000000000e+00,5.000000000000000000e+00,5.000000000000000000e+00,5.000000000000000000e+00,5.000000000000000000e+00,5.000000000000000000e+00,5.000000000000000000e+00,5.000000000000000000e+00,5.000000000000000000e+00,5.000000000000000000e+00,5.000000000000000000e+00,5.000000000000000000e+00,5.000000000000000000e+00,5.000000000000000000e+00,5.000000000000000000e+00,5.000000000000000000e+00,5.000000000000000000e+00,5.000000000000000000e+00,5.000000000000000000e+00,5.000000000000000000e+00,5.000000000000000000e+00,5.000000000000000000e+00,5.000000000000000000e+00,4.863873481750488281e+00,4.672770023345947266e+00,4.496115684509277344e+00,4.332331657409667969e+00,4.180060863494873047e+00,4.038130283355712891e+00,3.905521869659423828e+00,3.781345605850219727e+00,3.664822816848754883e+00,3.555266141891479492e+00,3.452069997787475586e+00,3.354695320129394531e+00,1.509637713432312012e+00,1.473716139793395996e+00,1.454798340797424316e+00,1.214040756225585938e+00,1.181220054626464844e+00,1.156837821006774902e+00,1.143925666809082031e+00,1.134894728660583496e+00,1.132015705108642578e+00,1.152953743934631348e+00,2.560282707214355469e+00,2.506326913833618164e+00,2.454598188400268555e+00,2.404961824417114258e+00,2.357293128967285156e+00,2.311477184295654297e+00,2.267408370971679688e+00,2.224988222122192383e+00,2.184126615524291992e+00,2.144738435745239258e+00,2.106745958328247070e+00,2.070075750350952148e+00,2.034660577774047852e+00,2.000436782836914062e+00,1.967345118522644043e+00,1.935330510139465332e+00,1.904341340065002441e+00,1.874328494071960449e+00,1.845247268676757812e+00
5.000000000000000000e+00,5.000000000000000000e+00,5.000000000000000000e+00,5.000000000000000000e+00,5.000000000000000000e+00,5.000000000000000000e+00,5.000000000000000000e+00,5.000000000000000000e+00,5.000000000000000000e+00,5.000000000000000000e+00,5.000000000000000000e+00,5.000000000000000000e+00,5.000000000000000000e+00,5.000000000000000000e+00,5.000000000000000000e+00,5.000000000000000000e+00,5.000000000000000000e+00,5.000000000000000000e+00,5.000000000000000000e+00,5.000000000000000000e+00,5.000000000000000000e+00,5.000000000000000000e+00,5.000000000000000000e+00,5.000000000000000000e+00,5.000000000000000000e+00,5.000000000000000000e+00,5.000000000000000000e+00,5.000000000000000000e+00,5.000000000000000000e+00,5.000000000000000000e+00,5.000000000000000000e+00,5.000000000000000000e+00,5.000000000000000000e+00,5.000000000000000000e+00,5.000000000000000000e+00,5.000000000000000000e+00,5.000000000000000000e+00,5.000000000000000000e+00,5.000000000000000000e+00,4.864013671875000000e+00,4.672899246215820312e+00,4.496235370635986328e+00,4.332442760467529297e+00,4.180163860321044922e+00,4.038226604461669922e+00,3.905611991882324219e+00,3.781430006027221680e+00,3.664901971817016602e+00,3.555340766906738281e+00,3.452140331268310547e+00,3.354761838912963867e+00,1.510325193405151367e+00,1.478142142295837402e+00,1.459111332893371582e+00,1.211298584938049316e+00,1.176947236061096191e+00,1.155945062637329102e+00,1.145905733108520508e+00,1.139405131340026855e+00,1.136944413185119629e+00,1.167934775352478027e+00,2.560321331024169922e+00,2.506364107131958008e+00,2.454633712768554688e+00,2.404995918273925781e+00,2.357325792312622070e+00,2.311508655548095703e+00,2.267438650131225586e+00,2.225017547607421875e+00,2.184154748916625977e+00,2.144765615463256836e+00,2.106772184371948242e+00,2.070101022720336914e+00,2.034685134887695312e+00,2.000460386276245117e+00,1.967368006706237793e+00,1.935352683067321777e+00,1.904362678527832031e+00,1.874349236488342285e+00,1.845267415046691895e+00
5.000000000000000000e+00,5.000000000000000000e+00,5.000000000000000000e+00,5.000000000000000000e+00,5.000000000000000000e+00,5.000000000000000000e+00,5.000000000000000000e+00,5.000000000000000000e+00,5.000000000000000000e+00,5.000000000000000000e+00,5.000000000000000000e+00,5.000000000000000000e+00,5.000000000000000000e+00,5.000000000000000000e+00,5.000000000000000000e+00,5.000000000000000000e+00,5.000000000000000000e+00,5.000000000000000000e+00,5.000000000000000000e+00,5.000000000000000000e+00,5.000000000000000000e+00,5.000000000000000000e+00,5.000000000000000000e+00,5.000000000000000000e+00,5.000000000000000000e+00,5.000000000000000000e+00,5.000000000000000000e+00,5.000000000000000000e+00,5.000000000000000000e+00,5.000000000000000000e+00,5.000000000000000000e+00,5.000000000000000000e+00,5.000000000000000000e+00,5.000000000000000000e+00,5.000000000000000000e+00,5.000000000000000000e+00,5.000000000000000000e+00,5.000000000000000000e+00,5.000000000000000000e+00,4.864153385162353516e+00,4.673027992248535156e+00,4.496354579925537109e+00,4.332553386688232422e+00,4.180267333984375000e+00,4.038322925567626953e+00,3.905701875686645508e+00,3.781514883041381836e+00,3.664981365203857422e+00,3.555415868759155273e+00,3.452210664749145508e+00,3.354828119277954102e+00,1.501479744911193848e+00,1.481710553169250488e+00,1.463285565376281738e+00,1.206768751144409180e+00,1.175011873245239258e+00,1.157225966453552246e+00,1.147892594337463379e+00,1.143951773643493652e+00,1.141916275024414062e+00,2.616693496704101562e+00,2.560360193252563477e+00,2.506401062011718750e+00,2.454669475555419922e+00,2.405030012130737305e+00,2.357358932495117188e+00,2.311540365219116211e+00,2.267468929290771484e+00,2.225046873092651367e+00,2.184182882308959961e+00,2.144792795181274414e+00,2.106798410415649414e+00,2.070126533508300781e+00,2.034709453582763672e+00,2.000483989715576172e+00,1.967390775680541992e+00,1.935374736785888672e+00,1.904384016990661621e+00,1.874370217323303223e+00,1.845287561416625977e+00
5.000000000000000000e+00,5.000000000000000000e+00,5.000000000000000000e+00,5.000000000000000000e+00,5.000000000000000000e+00,5.000000000000000000e+00,5.000000000000000000e+00,5.000000000000000000e+00,5.000000000000000000e+00,5.000000000000000000e+00,5.000000000000000000e+00,5.000000000000000000e+00,5.000000000000000000e+00,5.000000000000000000e+00,5.000000000000000000e+00,5.000000000000000000e+00,5.000000000000000000e+00,5.000000000000000000e+00,5.000000000000000000e+00,5.000000000000000000e+00,5.000000000000000000e+00,5.000000000000000000e+00,5.000000000000000000e+00,5.000000000000000000e+00,5.000000000000000000e+00,5.000000000000000000e+00,5.000000000000000000e+00,5.000000000000000000e+00,5.000000000000000000e+00,5.000000000000000000e+00,5.000000000000000000e+00,5.000000000000000000e+00,5.000000000000000000e+00,5.000000000000000000e+00,5.000000000000000000e+00,5.000000000000000000e+00,5.000000000000000000e+00,5.000000000000000000e+00,5.000000000000000000e+00,4.864293098449707031e+00,4.673157215118408203e+00,4.496474266052246094e+00,4.332664012908935547e+00,4.180370330810546875e+00,4.038419246673583984e+00,3.905791997909545898e+00,3.781599283218383789e+00,3.665060520172119141e+00,3.555490255355834961e+00,3.452280998229980469e+00,1.571598887443542480e+00,1.511709690093994141e+00,1.489670395851135254e+00,1.468842506408691406e+00,1.202272772789001465e+00,1.173151254653930664e+00,1.158509731292724609e+00,1.149886369705200195e+00,1.146317958831787109e+00,1.146931648254394531e+00,2.616734027862548828e+00,2.560398817062377930e+00,2.506438255310058594e+00,2.454705238342285156e+00,2.405064344406127930e+00,2.357391595840454102e+00,2.311571836471557617e+00,2.267499446868896484e+00,2.225075960159301758e+00,2.184211254119873047e+00,2.144819974899291992e+00,2.106824636459350586e+00,2.070151805877685547e+00,2.034734010696411133e+00,2.000507593154907227e+00,1.967413663864135742e+00,1.935396909713745117e+00,1.904405474662780762e+00,1.874390959739685059e+00,1.845307588577270508e+00
5.000000000000000000e+00,5.000000000000000000e+00,5.000000000000000000e+00,5.000000000000000000e+00,5.000000000000000000e+00,5.000000000000000000e+00,5.000000000000000000e+00,5.000000000000000000e+00,5.000000000000000000e+00,5.000000000000000000e+00,5.000000000000000000e+00,5.000000000000000000e+00,5.000000000000000000e+00,5.000000000000000000e+00,5.000000000000000000e+00,5.000000000000000000e+00,5.000000000000000000e+00,5.000000000000000000e+00,5.000000000000000000e+00,5.000000000000000000e+00,5.000000000000000000e+00,5.000000000000000000e+00,5.000000000000000000e+00,5.000000000000000000e+00,5.000000000000000000e+00,5.000000000000000000e+00,5.000000000000000000e+00,5.000000000000000000e+00,5.000000000000000000e+00,5.000000000000000000e+00,5.000000000000000000e+00,5.000000000000000000e+00,5.000000000000000000e+00,5.000000000000000000e+00,5.000000000000000000e+00,5.000000000000000000e+00,5.000000000000000000e+00,5.000000000000000000e+00,5.000000000000000000e+00,4.864432811737060547e+00,4.673285961151123047e+00,4.496593475341796875e+00,4.332775115966796875e+00,4.180473804473876953e+00,4.038515567779541016e+00,3.905882358551025391e+00,3.781683683395385742e+00,3.665140151977539062e+00,3.555564880371093750e+00,3.452351808547973633e+00,1.549229264259338379e+00,1.524393916130065918e+00,1.500342130661010742e+00,1.487257480621337891e+00,1.197810173034667969e+00,1.174263954162597656e+00,1.159796357154846191e+00,1.151887059211730957e+00,1.148306369781494141e+00,1.162484884262084961e+00,2.616774559020996094e+00,2.560437679290771484e+00,2.506475448608398438e+00,2.454740762710571289e+00,2.405098676681518555e+00,2.357424497604370117e+00,2.311603307723999023e+00,2.267529726028442383e+00,2.225105285644531250e+00,2.184239387512207031e+00,2.144847154617309570e+00,2.106850862503051758e+00,2.070177078247070312e+00,2.034758567810058594e+00,2.000531196594238281e+00,1.967436671257019043e+00,1.935418963432312012e+00,1.904426932334899902e+00,1.874411702156066895e+00,1.845327854156494141e+00
5.000000000000000000e+00,5.000000000000000000e+00,5.000000000000000000e+00,5.000000000000000000e+00,5.000000000000000000e+00,5.000000000000000000e+00,5.000000000000000000e+00,5.000000000000000000e+00,5.000000000000000000e+00,5.000000000000000000e+00,5.000000000000000000e+00,5.000000000000000000e+00,5.000000000000000000e+00,5.000000000000000000e+00,5.000000000000000000e+00,5.000000000000000000e+00,5.000000000000000000e+00,5.000000000000000000e+00,5.000000000000000000e+00,5.000000000000000000e+00,5.000000000000000000e+00,5.000000000000000000e+00,5.000000000000000000e+00,5.000000000000000000e+00,5.000000000000000000e+00,5.000000000000000000e+00,5.000000000000000000e+00,5.000000000000000000e+00,5.000000000000000000e+00,5.000000000000000000e+00,5.000000000000000000e+00,5.000000000000000000e+00,5.000000000000000000e+00,5.000000000000000000e+00,5.000000000000000000e+00,5.000000000000000000e+00,5.000000000000000000e+00,5.000000000000000000e+00,5.000000000000000000e+00,4.864573001861572266e+00,4.673415184020996094e+00,4.496713161468505859e+00,4.332886219024658203e+00,4.180576801300048828e+00,4.038611888885498047e+00,3.905972480773925781e+00,3.781768083572387695e+00,3.665219545364379883e+00,3.555639505386352539e+00,1.600323319435119629e+00,1.562290310859680176e+00,1.534084200859069824e+00,1.517234206199645996e+00,1.512133240699768066e+00,1.195544838905334473e+00,1.175530195236206055e+00,1.160852313041687012e+00,1.150665640830993652e+00,1.146351099014282227e+00,1.150992155075073242e+00,2.616815090179443359e+00,2.560476303100585938e+00,2.506512641906738281e+00,2.454776287078857422e+00,2.405132770538330078e+00,2.357457160949707031e+00,2.311635017395019531e+00,2.267560243606567383e+00,2.225134611129760742e+00,2.184267520904541016e+00,2.144874334335327148e+00,2.106877088546752930e+00,2.070202350616455078e+00,2.034782886505126953e+00,2.000554800033569336e+00,1.967459559440612793e+00,1.935441017150878906e+00,1.904448270797729492e+00,1.874432325363159180e+00,1.845348000526428223e+00
5.000000000000000000e+00,5.000000000000000000e+00,5.000000000000000000e+00,5.000000000000000000e+00,5.000000000000000000e+00,5.000000000000000000e+00,5.000000000000000000e+00,5.000000000000000000e+00,5.000000000000000000e+00,5.000000000000000000e+00,5.000000000000000000e+00,5.000000000000000000e+00,5.000000000000000000e+00,5.000000000000000000e+00,5.000000000000000000e+00,5.000000000000000000e+00,5.000000000000000000e+00,5.000000000000000000e+00,5.000000000000000000e+00,5.000000000000000000e+00,5.000000000000000000e+00,5.000000000000000000e+00,5.000000000000000000e+00,5.000000000000000000e+00,5.000000000000000000e+00,5.000000000000000000e+00,5.000000000000000000e+00,5.000000000000000000e+00,5.000000000000000000e+00,5.000000000000000000e+00,5.000000000000000000e+00,5.000000000000000000e+00,5.000000000000000000e+00,5.000000000000000000e+00,5.000000000000000000e+00,5.000000000000000000e+00,5.000000000000000000e+00,5.000000000000000000e+00,5.000000000000000000e+00,4.864712238311767578e+00,4.673543930053710938e+00,4.496832370758056641e+00,4.332997322082519531e+00,4.180680274963378906e+00,4.038708209991455078e+00,3.906062364578247070e+00,3.781852722167968750e+00,3.665298700332641602e+00,3.555714607238769531e+00,1.596570611000061035e+00,1.569038391113281250e+00,1.552401065826416016e+00,1.541293978691101074e+00,1.537855386734008789e+00,1.204167246818542480e+00,1.176350116729736328e+00,1.161651968955993652e+00,1.148892998695373535e+00,1.143880605697631836e+00,1.139724373817443848e+00,2.616855382919311523e+00,2.560515165328979492e+00,2.506549596786499023e+00,2.454812049865722656e+00,2.405166864395141602e+00,2.357490062713623047e+00,2.311666488647460938e+00,2.267590522766113281e+00,2.225163936614990234e+00,2.184295654296875000e+00,2.144901514053344727e+00,2.106903314590454102e+00,2.070227622985839844e+00,2.034807443618774414e+00,2.000578641891479492e+00,1.967482447624206543e+00,1.935463428497314453e+00,1.904469728469848633e+00,1.874453067779541016e+00,1.845368146896362305e+00
5.000000000000000000e+00,5.000000000000000000e+00,5.000000000000000000e+00,5.000000000000000000e+00,5.000000000000000000e+00,5.000000000000000000e+00,5.000000000000000000e+00,5.000000000000000000e+00,5.000000000000000000e+00,5.000000000000000000e+00,5.000000000000000000e+00,5.000000000000000000e+00,5.000000000000000000e+00,5.000000000000000000e+00,5.000000000000000000e+00,5.000000000000000000e+00,5.000000000000000000e+00,5.000000000000000000e+00,5.000000000000000000e+00,5.000000000000000000e+00,5.000000000000000000e+00,5.000000000000000000e+00,5.000000000000000000e+00,5.000000000000000000e+00,5.000000000000000000e+00,5.000000000000000000e+00,5.000000000000000000e+00,5.000000000000000000e+00,5.000000000000000000e+00,5.000000000000000000e+00,5.000000000000000000e+00,5.000000000000000000e+00,5.000000000000000000e+00,5.000000000000000000e+00,5.000000000000000000e+00,5.000000000000000000e+00,5.000000000000000000e+00,5.000000000000000000e+00,5.000000000000000000e+00,4.864851474761962891e+00,4.673673152923583984e+00,4.496951580047607422e+00,4.333107948303222656e+00,4.180783271789550781e+00,4.038804531097412109e+00,3.906152486801147461e+00,3.781937122344970703e+00,3.665378093719482422e+00,1.661919832229614258e+00,1.598924040794372559e+00,1.574802875518798828e+00,1.570356726646423340e+00,1.565412521362304688e+00,3.093356370925903320e+00,1.215993762016296387e+00,1.177171230316162109e+00,1.162452697753906250e+00,1.148518323898315430e+00,1.141420841217041016e+00,1.137175083160400391e+00,1.181652545928955078e+00,2.560553789138793945e+00,2.506586790084838867e+00,2.454847574234008789e+00,2.405200958251953125e+00,2.357522964477539062e+00,2.311698198318481445e+00,2.267621040344238281e+00,2.225193023681640625e+00,2.184324026107788086e+00,2.144928693771362305e+00,2.106929540634155273e+00,2.070252895355224609e+00,2.034831762313842773e+00,2.000602245330810547e+00,1.967505216598510742e+00,1.935485482215881348e+00,1.904491066932678223e+00,1.874473810195922852e+00,1.845388174057006836e+00
5.000000000000000000e+00,5.000000000000000000e+00,5.000000000000000000e+00,5.000000000000000000e+00,5.000000000000000000e+00,5.000000000000000000e+00,5.000000000000000000e+00,5.000000000000000000e+00,5.000000000000000000e+00,5.000000000000000000e+00,5.000000000000000000e+00,5.000000000000000000e+00,5.000000000000000000e+00,5.000000000000000000e+00,5.000000000000000000e+00,5.000000000000000000e+00,5.000000000000000000e+00,5.000000000000000000e+00,5.000000000000000000e+00,5.000000000000000000e+00,5.000000000000000000e+00,5.000000000000000000e+00,5.000000000000000000e+00,5.000000000000000000e+00,5.000000000000000000e+00,5.000000000000000000e+00,5.000000000000000000e+00,5.000000000000000000e+00,5.000000000000000000e+00,5.000000000000000000e+00,5.000000000000000000e+00,5.000000000000000000e+00,5.000000000000000000e+00,5.000000000000000000e+00,5.000000000000000000e+00,5.000000000000000000e+00,5.000000000000000000e+00,5.000000000000000000e+00,5.000000000000000000e+00,4.864989757537841797e+00,4.673801422119140625e+00,4.497071266174316406e+00,4.333219051361083984e+00,4.180886745452880859e+00,4.038901329040527344e+00,3.906243085861206055e+00,3.782021522521972656e+00,3.665457725524902344e+00,1.638703942298889160e+00,1.601678848266601562e+00,1.586157083511352539e+00,1.581828117370605469e+00,1.592006802558898926e+00,3.093412876129150391e+00,1.223791003227233887e+00,1.177993535995483398e+00,1.163281202316284180e+00,1.149355411529541016e+00,1.139869928359985352e+00,1.134744048118591309e+00,1.169970870018005371e+00,2.560592412948608398e+00,2.506623983383178711e+00,2.454883098602294922e+00,2.405235290527343750e+00,2.357555866241455078e+00,2.311729669570922852e+00,2.267651319503784180e+00,2.225222349166870117e+00,2.184352159500122070e+00,2.144955873489379883e+00,2.106955766677856445e+00,2.070278167724609375e+00,2.034856319427490234e+00,2.000625848770141602e+00,1.967528104782104492e+00,1.935507655143737793e+00,1.904512763023376465e+00,1.874494552612304688e+00,1.845408320426940918e+00
5.000000000000000000e+00,5.000000000000000000e+00,5.000000000000000000e+00,5.000000000000000000e+00,5.000000000000000000e+00,5.000000000000000000e+00,5.000000000000000000e+00,5.000000000000000000e+00,5.000000000000000000e+00,5.000000000000000000e+00,5.000000000000000000e+00,5.000000000000000000e+00,5.000000000000000000e+00,5.000000000000000000e+00,5.000000000000000000e+00,5.000000000000000000e+00,5.000000000000000000e+00,5.000000000000000000e+00,5.000000000000000000e+00,5.000000000000000000e+00,5.000000000000000000e+00,5.000000000000000000e+00,5.000000000000000000e+00,5.000000000000000000e+00,5.000000000000000000e+00,5.000000000000000000e+00,5.000000000000000000e+00,5.000000000000000000e+00,5.000000000000000000e+00,5.000000000000000000e+00,5.000000000000000000e+00,5.000000000000000000e+00,5.000000000000000000e+00,5.000000000000000000e+00,5.000000000000000000e+00,5.000000000000000000e+00,5.000000000000000000e+00,5.000000000000000000e+00,5.000000000000000000e+00,4.865128040313720703e+00,4.673929691314697266e+00,4.497190952301025391e+00,4.333329677581787109e+00,4.180989742279052734e+00,4.038997650146484375e+00,3.906332969665527344e+00,3.782105922698974609e+00,3.665536880493164062e+00,1.632308840751647949e+00,1.605502128601074219e+00,1.597676157951354980e+00,1.593468427658081055e+00,3.176082849502563477e+00,3.093469619750976562e+00,3.015044927597045898e+00,1.178816914558410645e+00,1.164139986038208008e+00,1.150193691253662109e+00,1.139000415802001953e+00,1.132323265075683594e+00,1.158517718315124512e+00,2.560631275177001953e+00,2.506660938262939453e+00,2.454918622970581055e+00,2.405269384384155273e+00,2.357588529586791992e+00,2.311761379241943359e+00,2.267681598663330078e+00,2.225251674652099609e+00,2.184380292892456055e+00,2.144983053207397461e+00,2.106981992721557617e+00,2.070303678512573242e+00,2.034880638122558594e+00,2.000649452209472656e+00,1.967550992965698242e+00,1.935529708862304688e+00,1.904534101486206055e+00,1.874515295028686523e+00,1.845428347587585449e+00
5.000000000000000000e+00,5.000000000000000000e+00,5.000000000000000000e+00,5.000000000000000000e+00,5.000000000000000000e+00,5.000000000000000000e+00,5.000000000000000000e+00,5.000000000000000000e+00,5.000000000000000000e+00,5.000000000000000000e+00,5.000000000000000000e+00,5.000000000000000000e+00,5.000000000000000000e+00,5.000000000000000000e+00,5.000000000000000000e+00,5.000000000000000000e+00,5.000000000000000000e+00,5.000000000000000000e+00,5.000000000000000000e+00,5.000000000000000000e+00,5.000000000000000000e+00,5.000000000000000000e+00,5.000000000000000000e+00,5.000000000000000000e+00,5.000000000000000000e+00,5.000000000000000000e+00,5.000000000000000000e+00,5.000000000000000000e+00,5.000000000000000000e+00,5.000000000000000000e+00,5.000000000000000000e+00,5.000000000000000000e+00,5.000000000000000000e+00,5.000000000000000000e+00,5.000000000000000000e+00,5.000000000000000000e+00,5.000000000000000000e+00,5.000000000000000000e+00,5.000000000000000000e+00,4.865266323089599609e+00,4.674057483673095703e+00,4.497309207916259766e+00,4.333440780639648438e+00,4.181093215942382812e+00,4.039093971252441406e+00,3.906423091888427734e+00,3.782190799713134766e+00,3.665616273880004883e+00,1.636572122573852539e+00,1.612565040588378906e+00,1.609363913536071777e+00,1.605281233787536621e+00,3.176142454147338867e+00,3.093526124954223633e+00,3.015098571777343750e+00,1.184060096740722656e+00,1.164999961853027344e+00,1.151033282279968262e+00,1.138132214546203613e+00,1.130987405776977539e+00,1.147286772727966309e+00,2.560670137405395508e+00,2.506698131561279297e+00,2.454954385757446289e+00,2.405303478240966797e+00,2.357621431350708008e+00,2.311792850494384766e+00,2.267712116241455078e+00,2.225281000137329102e+00,2.184408426284790039e+00,2.145010232925415039e+00,2.107007980346679688e+00,2.070328950881958008e+00,2.034905195236206055e+00,2.000673294067382812e+00,1.967573761940002441e+00,1.935551881790161133e+00,1.904555559158325195e+00,1.874536275863647461e+00,1.845448493957519531e+00
5.000000000000000000e+00,5.000000000000000000e+00,5.000000000000000000e+00,5.000000000000000000e+00,5.000000000000000000e+00,5.000000000000000000e+00,5.000000000000000000e+00,5.000000000000000000e+00,5.000000000000000000e+00,5.000000000000000000e+00,5.000000000000000000e+00,5.000000000000000000e+00,5.000000000000000000e+00,5.000000000000000000e+00,5.000000000000000000e+00,5.000000000000000000e+00,5.000000000000000000e+00,5.000000000000000000e+00,5.000000000000000000e+00,5.000000000000000000e+00,5.000000000000000000e+00,5.000000000000000000e+00,5.000000000000000000e+00,5.000000000000000000e+00,5.000000000000000000e+00,5.000000000000000000e+00,5.000000000000000000e+00,5.000000000000000000e+00,5.000000000000000000e+00,5.000000000000000000e+00,5.000000000000000000e+00,5.000000000000000000e+00,5.000000000000000000e+00,5.000000000000000000e+00,5.000000000000000000e+00,5.000000000000000000e+00,5.000000000000000000e+00,5.000000000000000000e+00,5.000000000000000000e+00,4.865405082702636719e+00,4.674185276031494141e+00,4.497427463531494141e+00,4.333550930023193359e+00,4.181196689605712891e+00,4.039190292358398438e+00,3.906513214111328125e+00,3.782275199890136719e+00,1.692648410797119141e+00,1.642923951148986816e+00,1.624931216239929199e+00,1.621266245841979980e+00,3.263355493545532227e+00,3.176202297210693359e+00,3.093582630157470703e+00,3.015152454376220703e+00,1.192180871963500977e+00,1.165861248970031738e+00,1.151873946189880371e+00,1.138317465782165527e+00,1.131116151809692383e+00,1.137418389320373535e+00,2.560708761215209961e+00,2.506735086441040039e+00,2.454989910125732422e+00,2.405337810516357422e+00,2.357654333114624023e+00,2.311824321746826172e+00,2.267742395401000977e+00,2.225310087203979492e+00,2.184436798095703125e+00,2.145037412643432617e+00,2.107034444808959961e+00,2.070354223251342773e+00,2.034929513931274414e+00,2.000696897506713867e+00,1.967596650123596191e+00,1.935573935508728027e+00,1.904576897621154785e+00,1.874557018280029297e+00,1.845468521118164062e+00
5.000000000000000000e+00,5.000000000000000000e+00,5.000000000000000000e+00,5.000000000000000000e+00,5.000000000000000000e+00,5.000000000000000000e+00,5.000000000000000000e+00,5.000000000000000000e+00,5.000000000000000000e+00,5.000000000000000000e+00,5.000000000000000000e+00,5.000000000000000000e+00,5.000000000000000000e+00,5.000000000000000000e+00,5.000000000000000000e+00,5.000000000000000000e+00,5.000000000000000000e+00,5.000000000000000000e+00,5.000000000000000000e+00,5.000000000000000000e+00,5.000000000000000000e+00,5.000000000000000000e+00,5.000000000000000000e+00,5.000000000000000000e+00,5.000000000000000000e+00,5.000000000000000000e+00,5.000000000000000000e+00,5.000000000000000000e+00,5.000000000000000000e+00,5.000000000000000000e+00,5.000000000000000000e+00,5.000000000000000000e+00,5.000000000000000000e+00,5.000000000000000000e+00,5.000000000000000000e+00,5.000000000000000000e+00,5.000000000000000000e+00,5.000000000000000000e+00,5.000000000000000000e+00,4.865543842315673828e+00,4.674313068389892578e+00,4.497545719146728516e+00,4.333660602569580078e+00,4.181299209594726562e+00,4.039286613464355469e+00,3.906603574752807617e+00,3.782359600067138672e+00,1.679343461990356445e+00,1.649103879928588867e+00,1.637941718101501465e+00,1.634217858314514160e+00,3.263418436050415039e+00,3.176261663436889648e+00,3.093639135360717773e+00,3.015206098556518555e+00,1.199538350105285645e+00,1.166938900947570801e+00,1.153159737586975098e+00,1.139740824699401855e+00,1.133057117462158203e+00,1.128527641296386719e+00,2.560747385025024414e+00,2.506772518157958984e+00,2.455025434494018555e+00,2.405371904373168945e+00,2.357686996459960938e+00,2.311856031417846680e+00,2.267772912979125977e+00,2.225339412689208984e+00,2.184464931488037109e+00,2.145064592361450195e+00,2.107060670852661133e+00,2.070379495620727539e+00,2.034954071044921875e+00,2.000720500946044922e+00,1.967619657516479492e+00,1.935595989227294922e+00,1.904598355293273926e+00,1.874577760696411133e+00,1.845488905906677246e+00
4.874725341796875000e+00,4.873513698577880859e+00,4.872303485870361328e+00,4.871093273162841797e+00,4.869884014129638672e+00,4.868675708770751953e+00,4.867467403411865234e+00,4.866260051727294922e+00,4.865053176879882812e+00,4.863846302032470703e+00,4.862640857696533203e+00,4.861435890197753906e+00,4.860231399536132812e+00,4.859027385711669922e+00,4.857824325561523438e+00,4.856621742248535156e+00,4.855419158935546875e+00,4.854217529296875000e+00,4.853016853332519531e+00,4.851816654205322266e+00,4.850616931915283203e+00,4.849417686462402344e+00,4.848219394683837891e+00,4.847021102905273438e+00,4.845823764801025391e+00,4.844626903533935547e+00,4.843430519104003906e+00,4.842235088348388672e+00,4.841040134429931641e+00,4.839845657348632812e+00,4.838652133941650391e+00,4.837458610534667969e+00,4.836265563964843750e+00,4.835073471069335938e+00,4.833882331848144531e+00,4.832691192626953125e+00,4.831501007080078125e+00,4.830311298370361328e+00,4.829122066497802734e+00,4.827933311462402344e+00,4.674440860748291016e+00,4.497664451599121094e+00,4.333770751953125000e+00,4.181401729583740234e+00,4.039382934570312500e+00,3.906693696975708008e+00,3.782444000244140625e+00,1.686008691787719727e+00,1.657292008399963379e+00,1.651162505149841309e+00,3.355560064315795898e+00,3.263481616973876953e+00,3.176321268081665039e+00,3.093695878982543945e+00,3.015259742736816406e+00,1.209413051605224609e+00,1.168394088745117188e+00,1.154580712318420410e+00,1.141191363334655762e+00,1.134378910064697266e+00,1.128321886062622070e+00,2.560786247253417969e+00,2.506809473037719727e+00,2.455061197280883789e+00,2.405406236648559570e+00,2.357719898223876953e+00,2.311887741088867188e+00,2.267803192138671875e+00,2.225368738174438477e+00,2.184493064880371094e+00,2.145091772079467773e+00,2.107086896896362305e+00,2.070404767990112305e+00,2.034978628158569336e+00,2.000744104385375977e+00,1.967642545700073242e+00,1.935618162155151367e+00,1.904619693756103516e+00,1.874598503112792969e+00,1.845508933067321777e+00
3.777500629425048828e+00,3.776773691177368164e+00,3.776046514511108398e+00,3.775319814682006836e+00,3.774593353271484375e+00,3.773866891860961914e+00,3.773141145706176758e+00,3.772415399551391602e+00,3.771690368652343750e+00,3.770965099334716797e+00,3.770240545272827148e+00,3.769515752792358398e+00,3.768791437149047852e+00,3.768067598342895508e+00,3.767343759536743164e+00,3.766620635986328125e+00,3.765897274017333984e+00,3.765174865722656250e+00,3.764451980590820312e+00,3.763729810714721680e+00,3.763007640838623047e+00,3.762285947799682617e+00,3.761564731597900391e+00,3.760843276977539062e+00,3.760122537612915039e+00,3.759401798248291016e+00,3.758681774139404297e+00,3.757961511611938477e+00,3.757241487503051758e+00,3.756522178649902344e+00,3.755802869796752930e+00,3.755084037780761719e+00,3.754365205764770508e+00,3.753646850585937500e+00,3.752928495407104492e+00,3.752210617065429688e+00,3.751493215560913086e+00,3.750775575637817383e+00,3.750058889389038086e+00,3.749341964721679688e+00,3.748625516891479492e+00,3.747909307479858398e+00,3.747193098068237305e+00,3.746477603912353516e+00,3.745762109756469727e+00,3.745047092437744141e+00,3.744332075119018555e+00,1.692318320274353027e+00,1.669918656349182129e+00,1.680600166320800781e+00,3.355626344680786133e+00,3.263544321060180664e+00,3.176380872726440430e+00,3.093752384185791016e+00,3.015313386917114258e+00,2.940753936767578125e+00,1.169852852821350098e+00,1.156005263328552246e+00,1.142645716667175293e+00,1.132036089897155762e+00,1.130253314971923828e+00,2.560825109481811523e+00,2.506846666336059570e+00,2.455096721649169922e+00,2.405440330505371094e+00,2.357752799987792969e+00,2.311919212341308594e+00,2.267833471298217773e+00,2.225397825241088867e+00,2.184521198272705078e+00,2.145118951797485352e+00,2.107112884521484375e+00,2.070430278778076172e+00,2.035002946853637695e+00,2.000767707824707031e+00,1.967665433883666992e+00,1.935640454292297363e+00,1.904641151428222656e+00,1.874619245529174805e+00,1.845529079437255859e+00
3.083461761474609375e+00,3.082977056503295898e+00,3.082492828369140625e+00,3.082008361816406250e+00,3.081524372100830078e+00,3.081040143966674805e+00,3.080556631088256836e+00,3.080072641372680664e+00,3.079589366912841797e+00,3.079105854034423828e+00,3.078622341156005859e+00,3.078139543533325195e+00,3.077656507492065430e+00,3.077173709869384766e+00,3.076690912246704102e+00,3.076208591461181641e+00,3.075726270675659180e+00,3.075243949890136719e+00,3.074762105941772461e+00,3.074280023574829102e+00,3.073798418045043945e+00,3.073316812515258789e+00,3.072835445404052734e+00,3.072354078292846680e+00,3.071872711181640625e+00,3.071392059326171875e+00,3.070910930633544922e+00,3.070430517196655273e+00,3.069949865341186523e+00,3.069469690322875977e+00,3.068989276885986328e+00,3.068509101867675781e+00,3.068029165267944336e+00,3.067549467086791992e+00,3.067070007324218750e+00,3.066590309143066406e+00,3.066111087799072266e+00,3.065631866455078125e+00,3.065152883529663086e+00,3.064674139022827148e+00,3.064195156097412109e+00,3.063716888427734375e+00,3.063238143920898438e+00,3.062760114669799805e+00,3.062281847000122070e+00,3.061804056167602539e+00,1.750390768051147461e+00,1.710372090339660645e+00,1.685556411743164062e+00,3.059893369674682617e+00,3.059416294097900391e+00,3.058938980102539062e+00,3.058462381362915039e+00,3.057985305786132812e+00,3.015367269515991211e+00,2.940804958343505859e+00,1.178580999374389648e+00,1.157433271408081055e+00,1.144103527069091797e+00,1.131244421005249023e+00,1.132191300392150879e+00,1.155575990676879883e+00,2.506883621215820312e+00,2.455132484436035156e+00,2.405474424362182617e+00,2.357785701751708984e+00,2.311950683593750000e+00,2.267863988876342773e+00,2.225427150726318359e+00,2.184549570083618164e+00,2.145146131515502930e+00,2.107139110565185547e+00,2.070455551147460938e+00,2.035027503967285156e+00,2.000791311264038086e+00,1.967688202857971191e+00,1.935662627220153809e+00,1.904662489891052246e+00,1.874639987945556641e+00,1.845549106597900391e+00
2.604870080947875977e+00,2.604524135589599609e+00,2.604178428649902344e+00,2.603832721710205078e+00,2.603487014770507812e+00,2.603141546249389648e+00,2.602796077728271484e+00,2.602450847625732422e+00,2.602105617523193359e+00,2.601760625839233398e+00,2.601415395736694336e+00,2.601070642471313477e+00,2.600725650787353516e+00,2.600380897521972656e+00,2.600036144256591797e+00,2.599691629409790039e+00,2.599347114562988281e+00,2.599002599716186523e+00,2.598658561706542969e+00,2.598314046859741211e+00,2.597970008850097656e+00,2.597625970840454102e+00,2.597281932830810547e+00,2.596938371658325195e+00,2.596594333648681641e+00,2.596250772476196289e+00,2.595907211303710938e+00,2.595563650131225586e+00,2.595220327377319336e+00,2.594877004623413086e+00,2.594533920288085938e+00,2.594190597534179688e+00,2.593847751617431641e+00,2.593504667282104492e+00,2.593162059783935547e+00,2.592818975448608398e+00,2.592476367950439453e+00,2.592133760452270508e+00,2.591791391372680664e+00,2.591449022293090820e+00,2.591106653213500977e+00,2.590764522552490234e+00,2.590422391891479492e+00,2.590080261230468750e+00,2.589738368988037109e+00,2.589396476745605469e+00,1.736923217773437500e+00,1.696922063827514648e+00,1.702804923057556152e+00,2.588029861450195312e+00,2.587688446044921875e+00,2.587347269058227539e+00,2.587005853652954102e+00,2.586664915084838867e+00,2.586323738098144531e+00,2.585983037948608398e+00,1.187252163887023926e+00,1.158864736557006836e+00,1.145565271377563477e+00,1.132673382759094238e+00,1.130444884300231934e+00,1.138938665390014648e+00,2.506921052932739258e+00,2.455168008804321289e+00,2.405508518218994141e+00,2.357818603515625000e+00,2.311982154846191406e+00,2.267894506454467773e+00,2.225456476211547852e+00,2.184577703475952148e+00,2.145173311233520508e+00,2.107165575027465820e+00,2.070480823516845703e+00,2.035052061080932617e+00,2.000815153121948242e+00,1.967711091041564941e+00,1.935684680938720703e+00,1.904684185981750488e+00,1.874660730361938477e+00,1.845569252967834473e+00
2.254932641983032227e+00,2.254671573638916016e+00,2.254410266876220703e+00,2.254148960113525391e+00,2.253887891769409180e+00,2.253626585006713867e+00,2.253365516662597656e+00,2.253104686737060547e+00,2.252843618392944336e+00,2.252583026885986328e+00,2.252322196960449219e+00,2.252061367034912109e+00,2.251800537109375000e+00,2.251539945602416992e+00,2.251279354095458984e+00,2.251019001007080078e+00,2.250758409500122070e+00,2.250498056411743164e+00,2.250237941741943359e+00,2.249977588653564453e+00,2.249717235565185547e+00,2.249457120895385742e+00,2.249197006225585938e+00,2.248937845230102539e+00,2.248680114746093750e+00,2.248422145843505859e+00,2.248164653778076172e+00,2.247906923294067383e+00,2.247649431228637695e+00,2.247391939163208008e+00,2.247134447097778320e+00,2.246877193450927734e+00,2.246619701385498047e+00,2.246362447738647461e+00,2.246105194091796875e+00,2.245848178863525391e+00,2.245590925216674805e+00,2.245333909988403320e+00,2.245076894760131836e+00,2.244819879531860352e+00,2.244563102722167969e+00,2.244306325912475586e+00,2.244049549102783203e+00,2.243792772293090820e+00,2.243536233901977539e+00,2.243279695510864258e+00,1.740297555923461914e+00,1.673466205596923828e+00,1.669689655303955078e+00,2.242254018783569336e+00,2.241997718811035156e+00,2.241741657257080078e+00,2.241485357284545898e+00,2.241229057312011719e+00,2.240973234176635742e+00,2.240717172622680664e+00,1.194251894950866699e+00,1.160299777984619141e+00,1.147030711174011230e+00,1.134105920791625977e+00,1.128118157386779785e+00,1.130024313926696777e+00,2.238926887512207031e+00,2.238671541213989258e+00,2.238415956497192383e+00,2.238160610198974609e+00,2.237905263900756836e+00,2.237649917602539062e+00,2.225485801696777344e+00,2.184605836868286133e+00,2.145200729370117188e+00,2.107191801071166992e+00,2.070506095886230469e+00,2.035076379776000977e+00,2.000838756561279297e+00,1.967733979225158691e+00,1.935706853866577148e+00,1.904705524444580078e+00,1.874681472778320312e+00,1.845589399337768555e+00
1.987977266311645508e+00,1.987773895263671875e+00,1.987571001052856445e+00,1.987367987632751465e+00,1.987164855003356934e+00,1.986962080001831055e+00,1.986758947372436523e+00,1.986556172370910645e+00,1.986353158950805664e+00,1.986150503158569336e+00,1.985947608947753906e+00,1.985744953155517578e+00,1.985542416572570801e+00,1.985339641571044922e+00,1.985137224197387695e+00,1.984934449195861816e+00,1.984732151031494141e+00,1.984529495239257812e+00,1.984327077865600586e+00,1.984124660491943359e+00,1.983922362327575684e+00,1.983720183372497559e+00,1.983517765998840332e+00,1.983315706253051758e+00,1.983113288879394531e+00,1.982911348342895508e+00,1.982709050178527832e+00,1.982507109642028809e+00,1.982305169105529785e+00,1.982103109359741211e+00,1.981901288032531738e+00,1.981699228286743164e+00,1.981497526168823242e+00,1.981295585632324219e+00,1.981093883514404297e+00,1.980891942977905273e+00,1.980690360069274902e+00,1.980488896369934082e+00,1.980287075042724609e+00,1.980085611343383789e+00,1.979884028434753418e+00,1.979682564735412598e+00,1.979480981826782227e+00,1.979279756546020508e+00,1.979078292846679688e+00,1.978877067565917969e+00,1.978675842285156250e+00,1.648311734199523926e+00,1.638031005859375000e+00,1.671434879302978516e+00,1.977871060371398926e+00,1.977669835090637207e+00,1.977468848228454590e+00,1.977267980575561523e+00,1.977066874504089355e+00,1.976866126060485840e+00,1.976665139198303223e+00,1.161756634712219238e+00,1.156519174575805664e+00,1.146625638008117676e+00,1.140109419822692871e+00,1.975661396980285645e+00,1.975460886955261230e+00,1.975260138511657715e+00,1.975059747695922852e+00,1.974859118461608887e+00,1.974658727645874023e+00,1.974458098411560059e+00,1.974257826805114746e+00,1.974057674407958984e+00,1.973857164382934570e+00,1.973657011985778809e+00,1.973456621170043945e+00,1.973256587982177734e+00,1.973056316375732422e+00,1.967756748199462891e+00,1.935728907585144043e+00,1.904726982116699219e+00,1.874702215194702148e+00,1.845609426498413086e+00
1.777538895606994629e+00,1.777376651763916016e+00,1.777214169502258301e+00,1.777051925659179688e+00,1.776889443397521973e+00,1.776727199554443359e+00,1.776565074920654297e+00,1.776402711868286133e+00,1.776240587234497070e+00,1.776078343391418457e+00,1.775916337966918945e+00,1.775754094123840332e+00,1.775592088699340820e+00,1.775430083274841309e+00,1.775267958641052246e+00,1.775106072425842285e+00,1.774943947792053223e+00,1.774782180786132812e+00,1.774620175361633301e+00,1.774458408355712891e+00,1.774296402931213379e+00,1.774134635925292969e+00,1.773972988128662109e+00,1.773811101913452148e+00,1.773649454116821289e+00,1.773487687110900879e+00,1.773326039314270020e+00,1.773164272308349609e+00,1.773002743721008301e+00,1.772841095924377441e+00,1.772679686546325684e+00,1.772518157958984375e+00,1.772356629371643066e+00,1.772195219993591309e+00,1.772033691406250000e+00,1.771872282028198242e+00,1.771710872650146484e+00,1.771549582481384277e+00,1.771388411521911621e+00,1.771227002143859863e+00,1.771065831184387207e+00,1.770904421806335449e+00,1.770743370056152344e+00,1.770582079887390137e+00,1.770421028137207031e+00,1.770259737968444824e+00,1.770098805427551270e+00,1.639912605285644531e+00,1.594791054725646973e+00,1.606103897094726562e+00,1.769454717636108398e+00,1.769293904304504395e+00,1.769132852554321289e+00,1.768972039222717285e+00,1.768811106681823730e+00,1.768650293350219727e+00,1.768489599227905273e+00,1.768328785896301270e+00,1.158832550048828125e+00,1.144737124443054199e+00,1.135903596878051758e+00,1.133620977401733398e+00,1.767525434494018555e+00,1.767364978790283203e+00,1.767204284667968750e+00,1.767043828964233398e+00,1.766883254051208496e+00,1.766722917556762695e+00,1.766562342643737793e+00,1.766402006149291992e+00,1.766241550445556641e+00,1.766081213951110840e+00,1.765920996665954590e+00,1.765760660171508789e+00,1.765600442886352539e+00,1.765440106391906738e+00,1.765280008316040039e+00,1.765119791030883789e+00,1.764959692955017090e+00,1.764799475669860840e+00
1.607388257980346680e+00,1.607255339622497559e+00,1.607122659683227539e+00,1.606989860534667969e+00,1.606857180595397949e+00,1.606724381446838379e+00,1.606591701507568359e+00,1.606459140777587891e+00,1.606326341629028320e+00,1.606193780899047852e+00,1.606061100959777832e+00,1.605928540229797363e+00,1.605795979499816895e+00,1.605663418769836426e+00,1.605530858039855957e+00,1.605398416519165039e+00,1.605265974998474121e+00,1.605133533477783203e+00,1.605001091957092285e+00,1.604868650436401367e+00,1.604736328125000000e+00,1.604603886604309082e+00,1.604471564292907715e+00,1.604339122772216797e+00,1.604206919670104980e+00,1.604074716567993164e+00,1.603942394256591797e+00,1.603810191154479980e+00,1.603677868843078613e+00,1.603545784950256348e+00,1.603413462638854980e+00,1.603281378746032715e+00,1.603149414062500000e+00,1.603017210960388184e+00,1.602885127067565918e+00,1.602753043174743652e+00,1.602621078491210938e+00,1.602488994598388672e+00,1.602357029914855957e+00,1.602224946022033691e+00,1.602093100547790527e+00,1.601961135864257812e+00,1.601829171180725098e+00,1.601697444915771484e+00,1.601565480232238770e+00,1.601433634757995605e+00,1.601301789283752441e+00,1.601170063018798828e+00,1.601038098335266113e+00,1.600906491279602051e+00,1.600774765014648438e+00,1.600643038749694824e+00,1.600511431694030762e+00,1.600379586219787598e+00,1.600248098373413086e+00,1.600116372108459473e+00,1.599984765052795410e+00,1.599853277206420898e+00,1.159592986106872559e+00,1.140716195106506348e+00,1.127520322799682617e+00,1.113860607147216797e+00,1.110390901565551758e+00,1.599064111709594727e+00,1.598932623863220215e+00,1.598801255226135254e+00,1.598670005798339844e+00,1.598538517951965332e+00,1.598407268524169922e+00,1.598275780677795410e+00,1.598144531250000000e+00,1.598013162612915039e+00,1.597882032394409180e+00,1.597750663757324219e+00,1.597619533538818359e+00,1.597488403320312500e+00,1.597357153892517090e+00,1.597226023674011230e+00,1.597094893455505371e+00,1.596963763236999512e+00
1.466966271400451660e+00,1.466855645179748535e+00,1.466745018959045410e+00,1.466634511947631836e+00,1.466523885726928711e+00,1.466413378715515137e+00,1.466302752494812012e+00,1.466192245483398438e+00,1.466081738471984863e+00,1.465971350669860840e+00,1.465860843658447266e+00,1.465750336647033691e+00,1.465639948844909668e+00,1.465529441833496094e+00,1.465419173240661621e+00,1.465308666229248047e+00,1.465198397636413574e+00,1.465088009834289551e+00,1.464977741241455078e+00,1.464867472648620605e+00,1.464757084846496582e+00,1.464646816253662109e+00,1.464536547660827637e+00,1.464426279067993164e+00,1.464316010475158691e+00,1.464205861091613770e+00,1.464095711708068848e+00,1.463985443115234375e+00,1.463875293731689453e+00,1.463765144348144531e+00,1.463654994964599609e+00,1.463544845581054688e+00,1.463434815406799316e+00,1.463324666023254395e+00,1.463214635848999023e+00,1.463104605674743652e+00,1.462994456291198730e+00,1.462884545326232910e+00,1.462774515151977539e+00,1.462664604187011719e+00,1.462554574012756348e+00,1.462444663047790527e+00,1.462334632873535156e+00,1.462224721908569336e+00,1.462114930152893066e+00,1.462005019187927246e+00,1.461895108222961426e+00,1.461785197257995605e+00,1.461675405502319336e+00,1.461565613746643066e+00,1.461455821990966797e+00,1.461346149444580078e+00,1.461236238479614258e+00,1.461126565933227539e+00,1.461016774177551270e+00,1.460907101631164551e+00,1.460797309875488281e+00,1.460687637329101562e+00,1.161114096641540527e+00,1.133594036102294922e+00,1.113464593887329102e+00,1.097706317901611328e+00,1.086774706840515137e+00,1.078995585441589355e+00,1.076350927352905273e+00,1.459810733795166016e+00,1.459701180458068848e+00,1.459591746330261230e+00,1.459482192993164062e+00,1.459372758865356445e+00,1.459263205528259277e+00,1.459153771400451660e+00,1.459044337272644043e+00,1.458934903144836426e+00,1.458825469017028809e+00,1.458716154098510742e+00,1.458606839179992676e+00,1.458497405052185059e+00,1.458388090133666992e+00,1.458278656005859375e+00
1.349107742309570312e+00,1.349014163017272949e+00,1.348920583724975586e+00,1.348827123641967773e+00,1.348733663558959961e+00,1.348640084266662598e+00,1.348546624183654785e+00,1.348453044891357422e+00,1.348359704017639160e+00,1.348266124725341797e+00,1.348172783851623535e+00,1.348079323768615723e+00,1.347985863685607910e+00,1.347892522811889648e+00,1.347799062728881836e+00,1.347705721855163574e+00,1.347612380981445312e+00,1.347519040107727051e+00,1.347425699234008789e+00,1.347332477569580078e+00,1.347239136695861816e+00,1.347145795822143555e+00,1.347052574157714844e+00,1.346959233283996582e+00,1.346866011619567871e+00,1.346772670745849609e+00,1.346679568290710449e+00,1.346586227416992188e+00,1.346493124961853027e+00,1.346399903297424316e+00,1.346306681632995605e+00,1.346213579177856445e+00,1.346120357513427734e+00,1.346027255058288574e+00,1.345934152603149414e+00,1.345841050148010254e+00,1.345747947692871094e+00,1.345654845237731934e+00,1.345561742782592773e+00,1.345468640327453613e+00,1.345375657081604004e+00,1.345282554626464844e+00,1.345189571380615234e+00,1.345096468925476074e+00,1.345003604888916016e+00,1.344910621643066406e+00,1.344817519187927246e+00,1.344724655151367188e+00,1.344631671905517578e+00,1.344538807868957520e+00,1.344445824623107910e+00,1.344352960586547852e+00,1.344259977340698242e+00,1.344167113304138184e+00,1.344074249267578125e+00,1.343981385231018066e+00,1.343888521194458008e+00,1.343795657157897949e+00,1.165045499801635742e+00,1.128154635429382324e+00,1.101263403892517090e+00,1.081806302070617676e+00,1.067304015159606934e+00,1.055490612983703613e+00,1.047540664672851562e+00,1.043863773345947266e+00,1.036470293998718262e+00,1.020374178886413574e+00,1.001536607742309570e+00,1.342682719230651855e+00,1.342590093612670898e+00,1.342497348785400391e+00,1.342404723167419434e+00,1.342312097549438477e+00,1.342219471931457520e+00,1.342126846313476562e+00,1.342034220695495605e+00,1.341941595077514648e+00,1.341849088668823242e+00,1.341756582260131836e+00
1.248778820037841797e+00,1.248698592185974121e+00,1.248618483543395996e+00,1.248538255691528320e+00,1.248458266258239746e+00,1.248378157615661621e+00,1.248298048973083496e+00,1.248217940330505371e+00,1.248137831687927246e+00,1.248057723045349121e+00,1.247977614402770996e+00,1.247897624969482422e+00,1.247817516326904297e+00,1.247737526893615723e+00,1.247657537460327148e+00,1.247577428817749023e+00,1.247497558593750000e+00,1.247417449951171875e+00,1.247337579727172852e+00,1.247257471084594727e+00,1.247177600860595703e+00,1.247097611427307129e+00,1.247017621994018555e+00,1.246937751770019531e+00,1.246857762336730957e+00,1.246777892112731934e+00,1.246698021888732910e+00,1.246618151664733887e+00,1.246538162231445312e+00,1.246458411216735840e+00,1.246378540992736816e+00,1.246298670768737793e+00,1.246218800544738770e+00,1.246138930320739746e+00,1.246059179306030273e+00,1.245979309082031250e+00,1.245899558067321777e+00,1.245819687843322754e+00,1.245739936828613281e+00,1.245660185813903809e+00,1.245580434799194336e+00,1.245500683784484863e+00,1.245420932769775391e+00,1.245341181755065918e+00,1.245261430740356445e+00,1.245181798934936523e+00,1.245102047920227051e+00,1.245022416114807129e+00,1.244942784309387207e+00,1.244863033294677734e+00,1.244783401489257812e+00,1.244703769683837891e+00,1.244624137878417969e+00,1.244544506072998047e+00,1.244464874267578125e+00,1.244385361671447754e+00,1.244305610656738281e+00,1.244226098060607910e+00,1.167915463447570801e+00,1.129422664642333984e+00,1.092393994331359863e+00,1.061130285263061523e+00,1.042707800865173340e+00,1.036077022552490234e+00,1.016646981239318848e+00,1.012451767921447754e+00,9.984453320503234863e-01,9.949440956115722656e-01,9.982757568359375000e-01,1.243271827697753906e+00,1.243192434310913086e+00,1.243112921714782715e+00,1.243033528327941895e+00,1.242954134941101074e+00,1.242874741554260254e+00,1.242795348167419434e+00,1.242715835571289062e+00,1.242636561393737793e+00,1.242557168006896973e+00,1.242477774620056152e+00
1.162339210510253906e+00,1.162269830703735352e+00,1.162200331687927246e+00,1.162130951881408691e+00,1.162061452865600586e+00,1.161992073059082031e+00,1.161922693252563477e+00,1.161853313446044922e+00,1.161783933639526367e+00,1.161714553833007812e+00,1.161645174026489258e+00,1.161575794219970703e+00,1.161506414413452148e+00,1.161437034606933594e+00,1.161367774009704590e+00,1.161298394203186035e+00,1.161229133605957031e+00,1.161159873008728027e+00,1.161090493202209473e+00,1.161021232604980469e+00,1.160951852798461914e+00,1.160882592201232910e+00,1.160813331604003906e+00,1.160744071006774902e+00,1.160674810409545898e+00,1.160605549812316895e+00,1.160536408424377441e+00,1.160467147827148438e+00,1.160397887229919434e+00,1.160328626632690430e+00,1.160259485244750977e+00,1.160190224647521973e+00,1.160121083259582520e+00,1.160051941871643066e+00,1.159982681274414062e+00,1.159913539886474609e+00,1.159844398498535156e+00,1.159775257110595703e+00,1.159706115722656250e+00,1.159636974334716797e+00,1.159567832946777344e+00,1.159498691558837891e+00,1.159429669380187988e+00,1.159360527992248535e+00,1.159291386604309082e+00,1.159222364425659180e+00,1.159153223037719727e+00,1.159084200859069824e+00,1.159015178680419922e+00,1.158946156501770020e+00,1.158877015113830566e+00,1.158807992935180664e+00,1.158738970756530762e+00,1.158669948577880859e+00,1.158600926399230957e+00,1.158531904220581055e+00,1.158462882041931152e+00,1.158393979072570801e+00,1.158325076103210449e+00,1.158256053924560547e+00,1.158187150955200195e+00,1.158118128776550293e+00,1.042351841926574707e+00,1.022490501403808594e+00,1.006759166717529297e+00,1.157842516899108887e+00,1.157773494720458984e+00,1.157704591751098633e+00,1.157635688781738281e+00,1.157566905021667480e+00,1.157497882843017578e+00,1.157429099082946777e+00,1.157360196113586426e+00,1.157291412353515625e+00,1.157222628593444824e+00,1.157153725624084473e+00,1.157084941864013672e+00,1.157016038894653320e+00,1.156947255134582520e+00,1.156878352165222168e+00
1.087091565132141113e+00,1.087030768394470215e+00,1.086970090866088867e+00,1.086909294128417969e+00,1.086848616600036621e+00,1.086787819862365723e+00,1.086727142333984375e+00,1.086666464805603027e+00,1.086605787277221680e+00,1.086545109748840332e+00,1.086484432220458984e+00,1.086423754692077637e+00,1.086363077163696289e+00,1.086302399635314941e+00,1.086241722106933594e+00,1.086181044578552246e+00,1.086120367050170898e+00,1.086059808731079102e+00,1.085999250411987305e+00,1.085938572883605957e+00,1.085878014564514160e+00,1.085817337036132812e+00,1.085756778717041016e+00,1.085696101188659668e+00,1.085635542869567871e+00,1.085574865341186523e+00,1.085514426231384277e+00,1.085453867912292480e+00,1.085393190383911133e+00,1.085332751274108887e+00,1.085272073745727539e+00,1.085211634635925293e+00,1.085151076316833496e+00,1.085090517997741699e+00,1.085030078887939453e+00,1.084969520568847656e+00,1.084909081459045410e+00,1.084848523139953613e+00,1.084787964820861816e+00,1.084727525711059570e+00,1.084666967391967773e+00,1.084606528282165527e+00,1.084546089172363281e+00,1.084485650062561035e+00,1.084425091743469238e+00,1.084364771842956543e+00,1.084304213523864746e+00,1.084243893623352051e+00,1.084183335304260254e+00,1.084123015403747559e+00,1.084062576293945312e+00,1.084002137184143066e+00,1.083941817283630371e+00,1.083881378173828125e+00,1.083821058273315430e+00,1.083760619163513184e+00,1.083700299263000488e+00,1.083639860153198242e+00,1.083579540252685547e+00,1.083519220352172852e+00,1.083458781242370605e+00,1.083398461341857910e+00,1.083338141441345215e+00,1.083277821540832520e+00,1.083217501640319824e+00,1.083157181739807129e+00,1.083096861839294434e+00,1.083036541938781738e+00,1.082976341247558594e+00,1.082916021347045898e+00,1.082855701446533203e+00,1.082795381546020508e+00,1.082735180854797363e+00,1.082674860954284668e+00,1.082614660263061523e+00,1.082554340362548828e+00,1.082494139671325684e+00,1.082433938980102539e+00,1.082373738288879395e+00,1.082313537597656250e+00
1.020994305610656738e+00,1.020940661430358887e+00,1.020887136459350586e+00,1.020833611488342285e+00,1.020779967308044434e+00,1.020726442337036133e+00,1.020672798156738281e+00,1.020619273185729980e+00,1.020565748214721680e+00,1.020512223243713379e+00,1.020458698272705078e+00,1.020405173301696777e+00,1.020351648330688477e+00,1.020298123359680176e+00,1.020244598388671875e+00,1.020191073417663574e+00,1.020137667655944824e+00,1.020084142684936523e+00,1.020030617713928223e+00,1.019977092742919922e+00,1.019923686981201172e+00,1.019870281219482422e+00,1.019816756248474121e+00,1.019763350486755371e+00,1.019709825515747070e+00,1.019656419754028320e+00,1.019602894783020020e+00,1.019549489021301270e+00,1.019496083259582520e+00,1.019442677497863770e+00,1.019389271736145020e+00,1.019335746765136719e+00,1.019282460212707520e+00,1.019228935241699219e+00,1.019175648689270020e+00,1.019122123718261719e+00,1.019068837165832520e+00,1.019015431404113770e+00,1.018962025642395020e+00,1.018908739089965820e+00,1.018855333328247070e+00,1.018801927566528320e+00,1.018748641014099121e+00,1.018695235252380371e+00,1.018641948699951172e+00,1.018588542938232422e+00,1.018535256385803223e+00,1.018481969833374023e+00,1.018428564071655273e+00,1.018375277519226074e+00,1.018321990966796875e+00,1.018268704414367676e+00,1.018215417861938477e+00,1.018162131309509277e+00,1.018108844757080078e+00,1.018055558204650879e+00,1.018002271652221680e+00,1.017948985099792480e+00,1.017895698547363281e+00,1.017842411994934082e+00,1.017789125442504883e+00,1.017735958099365234e+00,1.017682790756225586e+00,1.017629504203796387e+00,1.017576217651367188e+00,1.017523050308227539e+00,1.017469763755798340e+00,1.017416596412658691e+00,1.017363429069519043e+00,1.017310261726379395e+00,1.017256975173950195e+00,1.017203807830810547e+00,1.017150640487670898e+00,1.017097473144531250e+00,1.017044186592102051e+00,1.016991138458251953e+00,1.016937851905822754e+00,1.016884803771972656e+00,1.016831636428833008e+00,1.016778469085693359e+00
9.624740481376647949e-01,9.624264836311340332e-01,9.623787403106689453e-01,9.623311758041381836e-01,9.622836112976074219e-01,9.622359871864318848e-01,9.621884226799011230e-01,9.621407389640808105e-01,9.620932340621948242e-01,9.620456695556640625e-01,9.619981050491333008e-01,9.619504213333129883e-01,9.619029164314270020e-01,9.618553519248962402e-01,9.618078470230102539e-01,9.617603421211242676e-01,9.617126584053039551e-01,9.616651535034179688e-01,9.616176486015319824e-01,9.615701436996459961e-01,9.615225195884704590e-01,9.614750146865844727e-01,9.614275693893432617e-01,9.613800644874572754e-01,9.613325595855712891e-01,9.612849950790405273e-01,9.612374901771545410e-01,9.611900448799133301e-01,9.611425399780273438e-01,9.610949754714965820e-01,9.610475301742553711e-01,9.610000848770141602e-01,9.609526395797729492e-01,9.609051942825317383e-01,9.608576297760009766e-01,9.608102440834045410e-01,9.607627987861633301e-01,9.607153534889221191e-01,9.606679677963256836e-01,9.606204032897949219e-01,9.605730175971984863e-01,9.605256319046020508e-01,9.604781866073608398e-01,9.604306817054748535e-01,9.603832960128784180e-01,9.603359103202819824e-01,9.602885246276855469e-01,9.602411389350891113e-01,9.601936936378479004e-01,9.601463079452514648e-01,9.600989222526550293e-01,9.600515961647033691e-01,9.600041508674621582e-01,9.599567651748657227e-01,9.599094390869140625e-01,9.598621129989624023e-01,9.598147273063659668e-01,9.597672820091247559e-01,9.597199559211730957e-01,9.596726894378662109e-01,9.596253633499145508e-01,9.595779180526733398e-01,9.595306515693664551e-01,9.594833254814147949e-01,9.594359993934631348e-01,9.593887329101562500e-01,9.593413472175598145e-01,9.592940211296081543e-01,9.592467546463012695e-01,9.591994881629943848e-01,9.591521024703979492e-01,9.591048359870910645e-01,9.590575695037841797e-01,9.590103030204772949e-01,9.589630961418151855e-01,9.589157104492187500e-01,9.588684439659118652e-01,9.588212370872497559e-01,9.587740302085876465e-01,9.587266445159912109e-01
9.102984666824340820e-01,9.102559089660644531e-01,9.102133512496948242e-01,9.101706743240356445e-01,9.101281166076660156e-01,9.100855588912963867e-01,9.100430011749267578e-01,9.100004434585571289e-01,9.099578261375427246e-01,9.099152684211730957e-01,9.098727107048034668e-01,9.098302125930786133e-01,9.097875356674194336e-01,9.097450375556945801e-01,9.097025394439697266e-01,9.096599817276000977e-01,9.096174836158752441e-01,9.095748662948608398e-01,9.095323681831359863e-01,9.094898700714111328e-01,9.094473719596862793e-01,9.094048142433166504e-01,9.093623161315917969e-01,9.093198180198669434e-01,9.092773199081420898e-01,9.092348217964172363e-01,9.091922640800476074e-01,9.091498255729675293e-01,9.091073274612426758e-01,9.090648889541625977e-01,9.090223312377929688e-01,9.089798927307128906e-01,9.089373946189880371e-01,9.088949561119079590e-01,9.088525176048278809e-01,9.088100194931030273e-01,9.087675809860229492e-01,9.087251424789428711e-01,9.086827039718627930e-01,9.086402058601379395e-01,9.085977673530578613e-01,9.085553884506225586e-01,9.085129499435424805e-01,9.084705114364624023e-01,9.084280133247375488e-01,9.083856344223022461e-01,9.083432555198669434e-01,9.083008766174316406e-01,9.082583785057067871e-01,9.082159996032714844e-01,9.081736207008361816e-01,9.081312417984008789e-01,9.080888628959655762e-01,9.080464243888854980e-01,9.080040454864501953e-01,9.079616665840148926e-01,9.079193472862243652e-01,9.078769683837890625e-01,9.078345298767089844e-01,9.077922105789184570e-01,9.077498316764831543e-01,9.077075123786926270e-01,9.076650738716125488e-01,9.076227545738220215e-01,9.075804352760314941e-01,9.075381159782409668e-01,9.074957966804504395e-01,9.074534177780151367e-01,9.074110984802246094e-01,9.073687791824340820e-01,9.073264598846435547e-01,9.072840809822082520e-01,9.072418212890625000e-01,9.071995019912719727e-01,9.071572422981262207e-01,9.071149826049804688e-01,9.070726037025451660e-01,9.070302844047546387e-01,9.069880247116088867e-01,9.069457650184631348e-01
8.634889125823974609e-01,8.634505867958068848e-01,8.634122610092163086e-01,8.633739948272705078e-01,8.633356094360351562e-01,8.632972836494445801e-01,8.632590174674987793e-01,8.632206916809082031e-01,8.631823658943176270e-01,8.631440401077270508e-01,8.631057739257812500e-01,8.630675077438354492e-01,8.630292415618896484e-01,8.629909157752990723e-01,8.629526495933532715e-01,8.629143834114074707e-01,8.628761172294616699e-01,8.628377914428710938e-01,8.627995252609252930e-01,8.627612590789794922e-01,8.627230525016784668e-01,8.626847863197326660e-01,8.626464605331420898e-01,8.626082539558410645e-01,8.625699877738952637e-01,8.625317811965942383e-01,8.624935746192932129e-01,8.624552488327026367e-01,8.624170422554016113e-01,8.623788356781005859e-01,8.623406291007995605e-01,8.623023033142089844e-01,8.622640967369079590e-01,8.622258901596069336e-01,8.621877431869506836e-01,8.621495366096496582e-01,8.621112704277038574e-01,8.620730638504028320e-01,8.620348572731018066e-01,8.619967103004455566e-01,8.619584441184997559e-01,8.619202375411987305e-01,8.618820905685424805e-01,8.618439435958862305e-01,8.618057966232299805e-01,8.617675304412841797e-01,8.617293834686279297e-01,8.616912364959716797e-01,8.616530895233154297e-01,8.616148233413696289e-01,8.615766763687133789e-01,8.615385293960571289e-01,8.615004420280456543e-01,8.614622950553894043e-01,8.614240884780883789e-01,8.613859415054321289e-01,8.613478541374206543e-01,8.613097071647644043e-01,8.612715005874633789e-01,8.612334132194519043e-01,8.611952662467956543e-01,8.611571788787841797e-01,8.611190915107727051e-01,8.610808849334716797e-01,8.610427975654602051e-01,8.610047101974487305e-01,8.609666228294372559e-01,8.609285354614257812e-01,8.608903884887695312e-01,8.608523011207580566e-01,8.608142137527465820e-01,8.607761263847351074e-01,8.607379794120788574e-01,8.606999516487121582e-01,8.606618642807006836e-01,8.606238365173339844e-01,8.605857491493225098e-01,8.605476021766662598e-01,8.605095744132995605e-01,8.604715466499328613e-01
8.212579488754272461e-01,8.212233185768127441e-01,8.211886286735534668e-01,8.211539983749389648e-01,8.211193680763244629e-01,8.210846185684204102e-01,8.210499882698059082e-01,8.210153579711914062e-01,8.209807276725769043e-01,8.209460377693176270e-01,8.209114074707031250e-01,8.208767771720886230e-01,8.208421468734741211e-01,8.208075761795043945e-01,8.207728862762451172e-01,8.207382559776306152e-01,8.207036256790161133e-01,8.206690549850463867e-01,8.206343650817871094e-01,8.205997347831726074e-01,8.205651640892028809e-01,8.205305933952331543e-01,8.204959630966186523e-01,8.204613327980041504e-01,8.204267024993896484e-01,8.203921318054199219e-01,8.203575611114501953e-01,8.203229308128356934e-01,8.202883601188659668e-01,8.202537894248962402e-01,8.202192187309265137e-01,8.201846480369567871e-01,8.201500177383422852e-01,8.201154470443725586e-01,8.200808763504028320e-01,8.200463056564331055e-01,8.200117945671081543e-01,8.199771642684936523e-01,8.199425935745239258e-01,8.199080824851989746e-01,8.198735117912292480e-01,8.198389410972595215e-01,8.198043704032897949e-01,8.197698593139648438e-01,8.197353482246398926e-01,8.197007775306701660e-01,8.196662068367004395e-01,8.196316957473754883e-01,8.195971846580505371e-01,8.195626735687255859e-01,8.195280432701110840e-01,8.194935321807861328e-01,8.194590806961059570e-01,8.194245696067810059e-01,8.193900585174560547e-01,8.193554878234863281e-01,8.193209767341613770e-01,8.192865252494812012e-01,8.192520141601562500e-01,8.192174434661865234e-01,8.191829919815063477e-01,8.191484808921813965e-01,8.191140294075012207e-01,8.190795779228210449e-01,8.190450072288513184e-01,8.190105557441711426e-01,8.189760446548461914e-01,8.189415931701660156e-01,8.189070820808410645e-01,8.188726305961608887e-01,8.188381791114807129e-01,8.188037276268005371e-01,8.187692761421203613e-01,8.187347650527954102e-01,8.187003135681152344e-01,8.186658620834350586e-01,8.186314702033996582e-01,8.185969591140747070e-01,8.185625076293945312e-01,8.185280561447143555e-01
7.829653024673461914e-01,7.829337716102600098e-01,7.829022407531738281e-01,7.828707695007324219e-01,7.828392982482910156e-01,7.828077673912048340e-01,7.827762365341186523e-01,7.827447652816772461e-01,7.827132940292358398e-01,7.826817631721496582e-01,7.826502323150634766e-01,7.826187610626220703e-01,7.825872898101806641e-01,7.825558185577392578e-01,7.825243473052978516e-01,7.824928164482116699e-01,7.824614048004150391e-01,7.824299335479736328e-01,7.823984622955322266e-01,7.823669314384460449e-01,7.823355197906494141e-01,7.823040485382080078e-01,7.822726368904113770e-01,7.822411656379699707e-01,7.822096347808837891e-01,7.821782231330871582e-01,7.821468114852905273e-01,7.821153402328491211e-01,7.820838689804077148e-01,7.820524573326110840e-01,7.820209860801696777e-01,7.819895744323730469e-01,7.819581627845764160e-01,7.819266915321350098e-01,7.818952798843383789e-01,7.818638682365417480e-01,7.818324565887451172e-01,7.818009853363037109e-01,7.817695736885070801e-01,7.817381620407104492e-01,7.817067503929138184e-01,7.816753983497619629e-01,7.816439270973205566e-01,7.816125154495239258e-01,7.815811634063720703e-01,7.815497517585754395e-01,7.815182805061340332e-01,7.814869284629821777e-01,7.814555168151855469e-01,7.814241647720336914e-01,7.813928127288818359e-01,7.813613414764404297e-01,7.813299894332885742e-01,7.812986373901367188e-01,7.812672257423400879e-01,7.812358736991882324e-01,7.812044620513916016e-01,7.811731100082397461e-01,7.811417579650878906e-01,7.811104059219360352e-01,7.810789942741394043e-01,7.810476422309875488e-01,7.810162901878356934e-01,7.809849381446838379e-01,7.809536457061767578e-01,7.809222340583801270e-01,7.808908820152282715e-01,7.808595299720764160e-01,7.808282375335693359e-01,7.807968258857727051e-01,7.807655334472656250e-01,7.807341814041137695e-01,7.807028889656066895e-01,7.806715369224548340e-01,7.806401848793029785e-01,7.806088924407958984e-01,7.805775403976440430e-01,7.805462479591369629e-01,7.805148959159851074e-01,7.804836034774780273e-01
7.480844259262084961e-01,7.480556964874267578e-01,7.480268478393554688e-01,7.479981184005737305e-01,7.479693889617919922e-01,7.479405999183654785e-01,7.479118108749389648e-01,7.478830814361572266e-01,7.478543519973754883e-01,7.478256225585937500e-01,7.477968931198120117e-01,7.477681040763854980e-01,7.477393746376037598e-01,7.477106451988220215e-01,7.476819157600402832e-01,7.476531267166137695e-01,7.476243972778320312e-01,7.475956678390502930e-01,7.475669384002685547e-01,7.475382685661315918e-01,7.475094795227050781e-01,7.474807500839233398e-01,7.474520802497863770e-01,7.474233508110046387e-01,7.473946809768676758e-01,7.473658919334411621e-01,7.473371624946594238e-01,7.473084926605224609e-01,7.472798228263854980e-01,7.472510337829589844e-01,7.472223639488220215e-01,7.471936941146850586e-01,7.471649646759033203e-01,7.471362948417663574e-01,7.471075654029846191e-01,7.470788955688476562e-01,7.470502257347106934e-01,7.470215559005737305e-01,7.469927668571472168e-01,7.469640970230102539e-01,7.469354867935180664e-01,7.469068169593811035e-01,7.468781471252441406e-01,7.468494176864624023e-01,7.468207478523254395e-01,7.467920780181884766e-01,7.467634677886962891e-01,7.467347383499145508e-01,7.467060685157775879e-01,7.466773986816406250e-01,7.466487884521484375e-01,7.466201186180114746e-01,7.465914487838745117e-01,7.465627789497375488e-01,7.465341687202453613e-01,7.465054988861083984e-01,7.464768290519714355e-01,7.464482188224792480e-01,7.464195489883422852e-01,7.463909387588500977e-01,7.463623285293579102e-01,7.463336586952209473e-01,7.463050484657287598e-01,7.462763786315917969e-01,7.462477684020996094e-01,7.462191581726074219e-01,7.461904883384704590e-01,7.461618781089782715e-01,7.461332678794860840e-01,7.461047172546386719e-01,7.460760474205017090e-01,7.460474371910095215e-01,7.460188269615173340e-01,7.459902167320251465e-01,7.459616661071777344e-01,7.459329962730407715e-01,7.459043860435485840e-01,7.458758354187011719e-01,7.458472251892089844e-01,7.458185553550720215e-01
7.161788344383239746e-01,7.161524891853332520e-01,7.161261439323425293e-01,7.160997390747070312e-01,7.160733938217163086e-01,7.160470485687255859e-01,7.160207033157348633e-01,7.159942984580993652e-01,7.159679532051086426e-01,7.159416675567626953e-01,7.159153223037719727e-01,7.158889770507812500e-01,7.158625721931457520e-01,7.158362269401550293e-01,7.158099412918090820e-01,7.157835960388183594e-01,7.157571911811828613e-01,7.157309055328369141e-01,7.157045602798461914e-01,7.156782746315002441e-01,7.156519293785095215e-01,7.156255841255187988e-01,7.155992388725280762e-01,7.155729532241821289e-01,7.155466675758361816e-01,7.155202627182006836e-01,7.154939770698547363e-01,7.154676914215087891e-01,7.154413461685180664e-01,7.154150605201721191e-01,7.153887152671813965e-01,7.153624296188354492e-01,7.153361439704895020e-01,7.153098583221435547e-01,7.152835726737976074e-01,7.152572274208068848e-01,7.152309417724609375e-01,7.152046561241149902e-01,7.151783704757690430e-01,7.151520252227783203e-01,7.151257395744323730e-01,7.150994539260864258e-01,7.150732278823852539e-01,7.150469422340393066e-01,7.150205969810485840e-01,7.149943113327026367e-01,7.149680852890014648e-01,7.149417996406555176e-01,7.149155139923095703e-01,7.148892283439636230e-01,7.148630023002624512e-01,7.148367166519165039e-01,7.148104906082153320e-01,7.147841453552246094e-01,7.147579193115234375e-01,7.147316336631774902e-01,7.147054076194763184e-01,7.146791219711303711e-01,7.146528363227844238e-01,7.146266102790832520e-01,7.146003842353820801e-01,7.145741581916809082e-01,7.145478725433349609e-01,7.145216464996337891e-01,7.144954204559326172e-01,7.144691348075866699e-01,7.144428491592407227e-01,7.144166827201843262e-01,7.143904566764831543e-01,7.143642306327819824e-01,7.143380045890808105e-01,7.143117189407348633e-01,7.142854928970336914e-01,7.142592668533325195e-01,7.142331004142761230e-01,7.142068147659301758e-01,7.141805887222290039e-01,7.141543626785278320e-01,7.141281962394714355e-01,7.141019701957702637e-01
6.868835091590881348e-01,6.868592500686645508e-01,6.868350505828857422e-01,6.868107914924621582e-01,6.867865324020385742e-01,6.867622733116149902e-01,6.867380142211914062e-01,6.867138147354125977e-01,6.866894960403442383e-01,6.866652965545654297e-01,6.866410970687866211e-01,6.866168379783630371e-01,6.865926384925842285e-01,6.865683197975158691e-01,6.865441203117370605e-01,6.865199208259582520e-01,6.864957213401794434e-01,6.864714026451110840e-01,6.864472031593322754e-01,6.864230036735534668e-01,6.863988041877746582e-01,6.863746047019958496e-01,6.863503456115722656e-01,6.863261461257934570e-01,6.863019466400146484e-01,6.862777471542358398e-01,6.862534880638122559e-01,6.862292885780334473e-01,6.862050890922546387e-01,6.861808896064758301e-01,6.861566901206970215e-01,6.861324310302734375e-01,6.861082911491394043e-01,6.860840916633605957e-01,6.860598921775817871e-01,6.860356926918029785e-01,6.860114932060241699e-01,6.859872937202453613e-01,6.859631538391113281e-01,6.859389543533325195e-01,6.859146952629089355e-01,6.858905553817749023e-01,6.858663558959960938e-01,6.858422160148620605e-01,6.858180165290832520e-01,6.857938170433044434e-01,6.857696771621704102e-01,6.857454776763916016e-01,6.857213377952575684e-01,6.856971383094787598e-01,6.856729388236999512e-01,6.856487989425659180e-01,6.856246590614318848e-01,6.856005191802978516e-01,6.855763196945190430e-01,6.855521798133850098e-01,6.855279803276062012e-01,6.855038404464721680e-01,6.854796409606933594e-01,6.854555010795593262e-01,6.854313611984252930e-01,6.854072213172912598e-01,6.853830814361572266e-01,6.853589415550231934e-01,6.853348016738891602e-01,6.853106617927551270e-01,6.852865219116210938e-01,6.852623224258422852e-01,6.852382421493530273e-01,6.852141022682189941e-01,6.851899623870849609e-01,6.851658225059509277e-01,6.851416826248168945e-01,6.851175427436828613e-01,6.850934624671936035e-01,6.850693225860595703e-01,6.850451827049255371e-01,6.850210428237915039e-01,6.849969625473022461e-01,6.849728226661682129e-01
6.598906517028808594e-01,6.598682403564453125e-01,6.598458886146545410e-01,6.598235368728637695e-01,6.598010659217834473e-01,6.597787141799926758e-01,6.597563624382019043e-01,6.597340106964111328e-01,6.597116589546203613e-01,6.596892476081848145e-01,6.596668958663940430e-01,6.596444845199584961e-01,6.596221327781677246e-01,6.595997810363769531e-01,6.595773696899414062e-01,6.595550179481506348e-01,6.595326662063598633e-01,6.595103740692138672e-01,6.594879627227783203e-01,6.594656109809875488e-01,6.594432592391967773e-01,6.594209074974060059e-01,6.593985557556152344e-01,6.593762040138244629e-01,6.593538522720336914e-01,6.593315005302429199e-01,6.593092083930969238e-01,6.592867970466613770e-01,6.592644453048706055e-01,6.592421531677246094e-01,6.592198014259338379e-01,6.591974496841430664e-01,6.591750979423522949e-01,6.591527462005615234e-01,6.591304540634155273e-01,6.591081023216247559e-01,6.590857505798339844e-01,6.590634584426879883e-01,6.590411067008972168e-01,6.590188145637512207e-01,6.589965224266052246e-01,6.589741110801696777e-01,6.589518189430236816e-01,6.589295268058776855e-01,6.589072346687316895e-01,6.588848233222961426e-01,6.588625311851501465e-01,6.588402390480041504e-01,6.588179469108581543e-01,6.587956547737121582e-01,6.587733030319213867e-01,6.587510108947753906e-01,6.587287187576293945e-01,6.587064266204833984e-01,6.586840748786926270e-01,6.586617827415466309e-01,6.586394906044006348e-01,6.586171984672546387e-01,6.585949063301086426e-01,6.585725545883178711e-01,6.585502624511718750e-01,6.585280299186706543e-01,6.585057377815246582e-01,6.584834456443786621e-01,6.584610939025878906e-01,6.584388613700866699e-01,6.584165692329406738e-01,6.583942770957946777e-01,6.583719849586486816e-01,6.583496928215026855e-01,6.583274006843566895e-01,6.583051681518554688e-01,6.582828760147094727e-01,6.582605838775634766e-01,6.582382917404174805e-01,6.582160592079162598e-01,6.581938266754150391e-01,6.581714749336242676e-01,6.581492424011230469e-01,6.581269502639770508e-01
