5.000000000000000000e+00,5.000000000000000000e+00,5.000000000000000000e+00,5.000000000000000000e+00,5.000000000000000000e+00,5.000000000000000000e+00,5.000000000000000000e+00,5.000000000000000000e+00,5.000000000000000000e+00,5.000000000000000000e+00,5.000000000000000000e+00,5.000000000000000000e+00,5.000000000000000000e+00,5.000000000000000000e+00,5.000000000000000000e+00,5.000000000000000000e+00,5.000000000000000000e+00,5.000000000000000000e+00,5.000000000000000000e+00,5.000000000000000000e+00,5.000000000000000000e+00,5.000000000000000000e+00,5.000000000000000000e+00,5.000000000000000000e+00,5.000000000000000000e+00,5.000000000000000000e+00,5.000000000000000000e+00,5.000000000000000000e+00,5.000000000000000000e+00,5.000000000000000000e+00,5.000000000000000000e+00,5.000000000000000000e+00,5.000000000000000000e+00,5.000000000000000000e+00,5.000000000000000000e+00,5.000000000000000000e+00,5.000000000000000000e+00,5.000000000000000000e+00,5.000000000000000000e+00,4.865678787231445312e+00,4.674413204193115234e+00,4.497615337371826172e+00,4.333703994750976562e+00,4.181320190429687500e+00,4.039288043975830078e+00,3.906588554382324219e+00,3.782330751419067383e+00,3.665733575820922852e+00,3.556110143661499023e+00,3.452852964401245117e+00,3.355422973632812500e+00,3.263340711593627930e+00,3.176177263259887695e+00,3.093549013137817383e+00,3.015110731124877930e+00,2.940551996231079102e+00,2.869591474533081055e+00,2.801975250244140625e+00,2.737472057342529297e+00,2.675871849060058594e+00,2.616982698440551758e+00,2.560630083084106445e+00,2.506653070449829102e+00,2.454904794692993164e+00,2.405249834060668945e+00,2.357563972473144531e+00,2.311732053756713867e+00,2.267647981643676758e+00,2.225214004516601562e+00,2.184338808059692383e+00,2.144938230514526367e+00,2.106933832168579102e+00,2.070252656936645508e+00,2.034827232360839844e+00,2.000593423843383789e+00,1.967492938041687012e+00,1.935469508171081543e+00,1.904471993446350098e+00,1.874451518058776855e+00,1.845362901687622070e+00
5.000000000000000000e+00,5.000000000000000000e+00,5.000000000000000000e+00,5.000000000000000000e+00,5.000000000000000000e+00,5.000000000000000000e+00,5.000000000000000000e+00,5.000000000000000000e+00,5.000000000000000000e+00,5.000000000000000000e+00,5.000000000000000000e+00,5.000000000000000000e+00,5.000000000000000000e+00,5.000000000000000000e+00,5.000000000000000000e+00,5.000000000000000000e+00,5.000000000000000000e+00,5.000000000000000000e+00,5.000000000000000000e+00,5.000000000000000000e+00,5.000000000000000000e+00,5.000000000000000000e+00,5.000000000000000000e+00,5.000000000000000000e+00,5.000000000000000000e+00,5.000000000000000000e+00,5.000000000000000000e+00,5.000000000000000000e+00,5.000000000000000000e+00,5.000000000000000000e+00,5.000000000000000000e+00,5.000000000000000000e+00,5.000000000000000000e+00,5.000000000000000000e+00,5.000000000000000000e+00,5.000000000000000000e+00,5.000000000000000000e+00,5.000000000000000000e+00,5.000000000000000000e+00,4.865817546844482422e+00,4.674540996551513672e+00,4.497734069824218750e+00,4.333814144134521484e+00,4.181422233581542969e+00,4.039383888244628906e+00,3.906678199768066406e+00,3.782414674758911133e+00,3.665812492370605469e+00,3.556184530258178711e+00,3.452923059463500977e+00,3.355489253997802734e+00,3.263403177261352539e+00,3.176236152648925781e+00,3.093604803085327148e+00,3.015163898468017578e+00,2.940602540969848633e+00,2.869639635086059570e+00,2.802021026611328125e+00,2.737515687942504883e+00,2.675913810729980469e+00,2.617022991180419922e+00,2.560668468475341797e+00,2.506690025329589844e+00,2.454940319061279297e+00,2.405283927917480469e+00,2.357596635818481445e+00,2.311763525009155273e+00,2.267678260803222656e+00,2.225242853164672852e+00,2.184366703033447266e+00,2.144965171813964844e+00,2.106960058212280273e+00,2.070277929306030273e+00,2.034851551055908203e+00,2.000617027282714844e+00,1.967515468597412109e+00,1.935491442680358887e+00,1.904493093490600586e+00,1.874472022056579590e+00,1.845382809638977051e+00
5.000000000000000000e+00,5.000000000000000000e+00,5.000000000000000000e+00,5.000000000000000000e+00,5.000000000000000000e+00,5.000000000000000000e+00,5.000000000000000000e+00,5.000000000000000000e+00,5.000000000000000000e+00,5.000000000000000000e+00,5.000000000000000000e+00,5.000000000000000000e+00,5.000000000000000000e+00,5.000000000000000000e+00,5.000000000000000000e+00,5.000000000000000000e+00,5.000000000000000000e+00,5.000000000000000000e+00,5.000000000000000000e+00,5.000000000000000000e+00,5.000000000000000000e+00,5.000000000000000000e+00,5.000000000000000000e+00,5.000000000000000000e+00,5.000000000000000000e+00,5.000000000000000000e+00,5.000000000000000000e+00,5.000000000000000000e+00,5.000000000000000000e+00,5.000000000000000000e+00,5.000000000000000000e+00,5.000000000000000000e+00,5.000000000000000000e+00,5.000000000000000000e+00,5.000000000000000000e+00,5.000000000000000000e+00,5.000000000000000000e+00,5.000000000000000000e+00,5.000000000000000000e+00,4.865956783294677734e+00,4.674669265747070312e+00,4.497852802276611328e+00,4.333924293518066406e+00,4.181524753570556641e+00,4.039479255676269531e+00,3.906767368316650391e+00,3.782498121261596680e+00,3.665890932083129883e+00,3.556258440017700195e+00,3.452992677688598633e+00,3.355554819107055664e+00,3.263465404510498047e+00,3.176295518875122070e+00,3.093661069869995117e+00,3.015217304229736328e+00,2.940653324127197266e+00,2.869688034057617188e+00,2.802067279815673828e+00,2.737559795379638672e+00,2.675955772399902344e+00,2.617063283920288086e+00,2.560707092285156250e+00,2.506726980209350586e+00,2.454975605010986328e+00,2.405317783355712891e+00,2.357629299163818359e+00,2.311794757843017578e+00,2.267708301544189453e+00,2.225271940231323242e+00,2.184394836425781250e+00,2.144992113113403320e+00,2.106986045837402344e+00,2.070303201675415039e+00,2.034875869750976562e+00,2.000640630722045898e+00,1.967538118362426758e+00,1.935513257980346680e+00,1.904514312744140625e+00,1.874492526054382324e+00,1.845402717590332031e+00
5.000000000000000000e+00,5.000000000000000000e+00,5.000000000000000000e+00,5.000000000000000000e+00,5.000000000000000000e+00,5.000000000000000000e+00,5.000000000000000000e+00,5.000000000000000000e+00,5.000000000000000000e+00,5.000000000000000000e+00,5.000000000000000000e+00,5.000000000000000000e+00,5.000000000000000000e+00,5.000000000000000000e+00,5.000000000000000000e+00,5.000000000000000000e+00,5.000000000000000000e+00,5.000000000000000000e+00,5.000000000000000000e+00,5.000000000000000000e+00,5.000000000000000000e+00,5.000000000000000000e+00,5.000000000000000000e+00,5.000000000000000000e+00,5.000000000000000000e+00,5.000000000000000000e+00,5.000000000000000000e+00,5.000000000000000000e+00,5.000000000000000000e+00,5.000000000000000000e+00,5.000000000000000000e+00,5.000000000000000000e+00,5.000000000000000000e+00,5.000000000000000000e+00,5.000000000000000000e+00,5.000000000000000000e+00,5.000000000000000000e+00,5.000000000000000000e+00,5.000000000000000000e+00,4.866095066070556641e+00,4.674797058105468750e+00,4.497971057891845703e+00,4.334034442901611328e+00,4.181627273559570312e+00,4.039575099945068359e+00,3.906857013702392578e+00,3.782582283020019531e+00,3.665969848632812500e+00,3.556332588195800781e+00,3.453062772750854492e+00,3.355621099472045898e+00,3.263527870178222656e+00,3.176354646682739258e+00,3.093717098236083984e+00,3.015270709991455078e+00,2.940704107284545898e+00,2.869736433029174805e+00,2.802113294601440430e+00,2.737603664398193359e+00,2.675997734069824219e+00,2.617103338241577148e+00,2.560745477676391602e+00,2.506763935089111328e+00,2.455010890960693359e+00,2.405351877212524414e+00,2.357661962509155273e+00,2.311825990676879883e+00,2.267738342285156250e+00,2.225300788879394531e+00,2.184422731399536133e+00,2.145019054412841797e+00,2.107012033462524414e+00,2.070328235626220703e+00,2.034899950027465820e+00,2.000663995742797852e+00,1.967561006546020508e+00,1.935535430908203125e+00,1.904535770416259766e+00,1.874513268470764160e+00,1.845422744750976562e+00
5.000000000000000000e+00,5.000000000000000000e+00,5.000000000000000000e+00,5.000000000000000000e+00,5.000000000000000000e+00,5.000000000000000000e+00,5.000000000000000000e+00,5.000000000000000000e+00,5.000000000000000000e+00,5.000000000000000000e+00,5.000000000000000000e+00,5.000000000000000000e+00,5.000000000000000000e+00,5.000000000000000000e+00,5.000000000000000000e+00,5.000000000000000000e+00,5.000000000000000000e+00,5.000000000000000000e+00,5.000000000000000000e+00,5.000000000000000000e+00,5.000000000000000000e+00,5.000000000000000000e+00,5.000000000000000000e+00,5.000000000000000000e+00,5.000000000000000000e+00,5.000000000000000000e+00,5.000000000000000000e+00,5.000000000000000000e+00,5.000000000000000000e+00,5.000000000000000000e+00,5.000000000000000000e+00,5.000000000000000000e+00,5.000000000000000000e+00,5.000000000000000000e+00,5.000000000000000000e+00,5.000000000000000000e+00,5.000000000000000000e+00,5.000000000000000000e+00,5.000000000000000000e+00,4.866234302520751953e+00,4.674925327301025391e+00,4.498089790344238281e+00,4.334144592285156250e+00,4.181729793548583984e+00,4.039670467376708984e+00,3.906946659088134766e+00,3.782666206359863281e+00,3.666048765182495117e+00,3.556406974792480469e+00,3.453132629394531250e+00,3.355687141418457031e+00,3.263590335845947266e+00,3.176413774490356445e+00,3.093773365020751953e+00,3.015323877334594727e+00,2.940754652023315430e+00,2.869784593582153320e+00,2.802159309387207031e+00,2.737647533416748047e+00,2.676039695739746094e+00,2.617143392562866211e+00,2.560783863067626953e+00,2.506800413131713867e+00,2.455046176910400391e+00,2.405385732650756836e+00,2.357694149017333984e+00,2.311857223510742188e+00,2.267768383026123047e+00,2.225329875946044922e+00,2.184450626373291016e+00,2.145045995712280273e+00,2.107038021087646484e+00,2.070353269577026367e+00,2.034924268722534180e+00,2.000687360763549805e+00,1.967583537101745605e+00,1.935557246208190918e+00,1.904556870460510254e+00,1.874533891677856445e+00,1.845442652702331543e+00
5.000000000000000000e+00,5.000000000000000000e+00,5.000000000000000000e+00,5.000000000000000000e+00,5.000000000000000000e+00,5.000000000000000000e+00,5.000000000000000000e+00,5.000000000000000000e+00,5.000000000000000000e+00,5.000000000000000000e+00,5.000000000000000000e+00,5.000000000000000000e+00,5.000000000000000000e+00,5.000000000000000000e+00,5.000000000000000000e+00,5.000000000000000000e+00,5.000000000000000000e+00,5.000000000000000000e+00,5.000000000000000000e+00,5.000000000000000000e+00,5.000000000000000000e+00,5.000000000000000000e+00,5.000000000000000000e+00,5.000000000000000000e+00,5.000000000000000000e+00,4.270051002502441406e+00,5.000000000000000000e+00,5.000000000000000000e+00,5.000000000000000000e+00,5.000000000000000000e+00,5.000000000000000000e+00,5.000000000000000000e+00,5.000000000000000000e+00,5.000000000000000000e+00,5.000000000000000000e+00,5.000000000000000000e+00,5.000000000000000000e+00,5.000000000000000000e+00,5.000000000000000000e+00,4.866373062133789062e+00,4.675053596496582031e+00,4.498208522796630859e+00,4.334254741668701172e+00,4.181832313537597656e+00,4.039766311645507812e+00,3.907036304473876953e+00,3.782750368118286133e+00,3.666127681732177734e+00,3.556481122970581055e+00,3.453202724456787109e+00,3.355752944946289062e+00,3.263652563095092773e+00,3.176472902297973633e+00,3.093829393386840820e+00,3.015377044677734375e+00,2.940805196762084961e+00,2.869832754135131836e+00,2.802205324172973633e+00,2.737691640853881836e+00,2.676081657409667969e+00,2.617183685302734375e+00,2.560822248458862305e+00,2.506837368011474609e+00,2.455081462860107422e+00,2.405419349670410156e+00,2.357726812362670898e+00,2.311888456344604492e+00,2.267798662185668945e+00,2.225358963012695312e+00,2.184478759765625000e+00,2.145073175430297852e+00,2.107064008712768555e+00,2.070378541946411133e+00,2.034948587417602539e+00,2.000710964202880859e+00,1.967606425285339355e+00,1.935579419136047363e+00,1.904578328132629395e+00,1.874554634094238281e+00,1.845462799072265625e+00
5.000000000000000000e+00,5.000000000000000000e+00,5.000000000000000000e+00,5.000000000000000000e+00,5.000000000000000000e+00,5.000000000000000000e+00,5.000000000000000000e+00,5.000000000000000000e+00,5.000000000000000000e+00,5.000000000000000000e+00,5.000000000000000000e+00,5.000000000000000000e+00,5.000000000000000000e+00,5.000000000000000000e+00,5.000000000000000000e+00,5.000000000000000000e+00,5.000000000000000000e+00,5.000000000000000000e+00,5.000000000000000000e+00,5.000000000000000000e+00,5.000000000000000000e+00,5.000000000000000000e+00,5.000000000000000000e+00,5.000000000000000000e+00,4.371963024139404297e+00,4.267493247985839844e+00,4.345994949340820312e+00,5.000000000000000000e+00,5.000000000000000000e+00,5.000000000000000000e+00,5.000000000000000000e+00,5.000000000000000000e+00,5.000000000000000000e+00,5.000000000000000000e+00,5.000000000000000000e+00,5.000000000000000000e+00,5.000000000000000000e+00,5.000000000000000000e+00,5.000000000000000000e+00,4.866511821746826172e+00,4.675181865692138672e+00,4.498326778411865234e+00,4.334364891052246094e+00,4.181934833526611328e+00,4.039862155914306641e+00,3.907125473022460938e+00,3.782833814620971680e+00,3.666206121444702148e+00,3.556555032730102539e+00,3.453272342681884766e+00,3.355818986892700195e+00,3.263715267181396484e+00,3.176532030105590820e+00,3.093885421752929688e+00,3.015430450439453125e+00,2.940855979919433594e+00,2.869881153106689453e+00,2.802251338958740234e+00,2.737735509872436523e+00,2.676123619079589844e+00,2.617223978042602539e+00,2.560860872268676758e+00,2.506874322891235352e+00,2.455116748809814453e+00,2.405453443527221680e+00,2.357759475708007812e+00,2.311919927597045898e+00,2.267828941345214844e+00,2.225388050079345703e+00,2.184506654739379883e+00,2.145100116729736328e+00,2.107090234756469727e+00,2.070403575897216797e+00,2.034972906112670898e+00,2.000734329223632812e+00,1.967629075050354004e+00,1.935601234436035156e+00,1.904599547386169434e+00,1.874575138092041016e+00,1.845482707023620605e+00
5.000000000000000000e+00,5.000000000000000000e+00,5.000000000000000000e+00,5.000000000000000000e+00,5.000000000000000000e+00,5.000000000000000000e+00,5.000000000000000000e+00,5.000000000000000000e+00,5.000000000000000000e+00,5.000000000000000000e+00,5.000000000000000000e+00,5.000000000000000000e+00,5.000000000000000000e+00,5.000000000000000000e+00,5.000000000000000000e+00,5.000000000000000000e+00,5.000000000000000000e+00,5.000000000000000000e+00,5.000000000000000000e+00,5.000000000000000000e+00,5.000000000000000000e+00,5.000000000000000000e+00,5.000000000000000000e+00,5.000000000000000000e+00,5.000000000000000000e+00,4.290291309356689453e+00,4.396735668182373047e+00,5.000000000000000000e+00,5.000000000000000000e+00,5.000000000000000000e+00,5.000000000000000000e+00,5.000000000000000000e+00,5.000000000000000000e+00,5.000000000000000000e+00,5.000000000000000000e+00,5.000000000000000000e+00,5.000000000000000000e+00,5.000000000000000000e+00,5.000000000000000000e+00,4.866650581359863281e+00,4.675309658050537109e+00,4.498445510864257812e+00,4.334475040435791016e+00,4.182037830352783203e+00,4.039958000183105469e+00,3.907215118408203125e+00,3.782917976379394531e+00,3.666285037994384766e+00,3.556629180908203125e+00,3.453342437744140625e+00,3.355885267257690430e+00,3.263777732849121094e+00,3.176591396331787109e+00,3.093941688537597656e+00,3.015483856201171875e+00,2.940906763076782227e+00,2.869929552078247070e+00,2.802297353744506836e+00,2.737779617309570312e+00,2.676165819168090820e+00,2.617264032363891602e+00,2.560899257659912109e+00,2.506911039352416992e+00,2.455152034759521484e+00,2.405487298965454102e+00,2.357791900634765625e+00,2.311951160430908203e+00,2.267858982086181641e+00,2.225416898727416992e+00,2.184534549713134766e+00,2.145127058029174805e+00,2.107115983963012695e+00,2.070428609848022461e+00,2.034997224807739258e+00,2.000757694244384766e+00,1.967651605606079102e+00,1.935623168945312500e+00,1.904620647430419922e+00,1.874595642089843750e+00,1.845502495765686035e+00
5.000000000000000000e+00,5.000000000000000000e+00,5.000000000000000000e+00,5.000000000000000000e+00,5.000000000000000000e+00,5.000000000000000000e+00,5.000000000000000000e+00,5.000000000000000000e+00,5.000000000000000000e+00,5.000000000000000000e+00,5.000000000000000000e+00,5.000000000000000000e+00,5.000000000000000000e+00,5.000000000000000000e+00,5.000000000000000000e+00,5.000000000000000000e+00,5.000000000000000000e+00,5.000000000000000000e+00,5.000000000000000000e+00,5.000000000000000000e+00,5.000000000000000000e+00,5.000000000000000000e+00,5.000000000000000000e+00,5.000000000000000000e+00,4.317824840545654297e+00,4.365908145904541016e+00,4.333421230316162109e+00,4.384870052337646484e+00,5.000000000000000000e+00,5.000000000000000000e+00,5.000000000000000000e+00,5.000000000000000000e+00,5.000000000000000000e+00,5.000000000000000000e+00,5.000000000000000000e+00,5.000000000000000000e+00,5.000000000000000000e+00,5.000000000000000000e+00,5.000000000000000000e+00,4.866789817810058594e+00,4.675437927246093750e+00,4.498564243316650391e+00,4.334585189819335938e+00,4.182139873504638672e+00,4.040053367614746094e+00,3.907304763793945312e+00,3.783001899719238281e+00,3.666363954544067383e+00,3.556703567504882812e+00,3.453412294387817383e+00,3.355951309204101562e+00,3.263840198516845703e+00,3.176650524139404297e+00,3.093997955322265625e+00,3.015537261962890625e+00,2.940957546234130859e+00,2.869977712631225586e+00,2.802343368530273438e+00,2.737823247909545898e+00,2.676207542419433594e+00,2.617304086685180664e+00,2.560937643051147461e+00,2.506947755813598633e+00,2.455187320709228516e+00,2.405521154403686523e+00,2.357824563980102539e+00,2.311982393264770508e+00,2.267889022827148438e+00,2.225445985794067383e+00,2.184562683105468750e+00,2.145153999328613281e+00,2.107142210006713867e+00,2.070453882217407227e+00,2.035021543502807617e+00,2.000781297683715820e+00,1.967674493789672852e+00,1.935645222663879395e+00,1.904642105102539062e+00,1.874616384506225586e+00,1.845522642135620117e+00
5.000000000000000000e+00,5.000000000000000000e+00,5.000000000000000000e+00,5.000000000000000000e+00,5.000000000000000000e+00,5.000000000000000000e+00,5.000000000000000000e+00,5.000000000000000000e+00,5.000000000000000000e+00,5.000000000000000000e+00,5.000000000000000000e+00,5.000000000000000000e+00,5.000000000000000000e+00,5.000000000000000000e+00,5.000000000000000000e+00,5.000000000000000000e+00,5.000000000000000000e+00,5.000000000000000000e+00,5.000000000000000000e+00,5.000000000000000000e+00,5.000000000000000000e+00,5.000000000000000000e+00,4.302396297454833984e+00,4.292706966400146484e+00,4.281788349151611328e+00,4.285214900970458984e+00,4.301241874694824219e+00,4.335425376892089844e+00,4.376011371612548828e+00,5.000000000000000000e+00,5.000000000000000000e+00,5.000000000000000000e+00,5.000000000000000000e+00,5.000000000000000000e+00,5.000000000000000000e+00,5.000000000000000000e+00,5.000000000000000000e+00,5.000000000000000000e+00,5.000000000000000000e+00,4.866928577423095703e+00,4.675566196441650391e+00,4.498682975769042969e+00,4.334695339202880859e+00,4.182242870330810547e+00,4.040149211883544922e+00,3.907394170761108398e+00,3.783085823059082031e+00,3.666442871093750000e+00,3.556777477264404297e+00,3.453481912612915039e+00,3.356017112731933594e+00,3.263902425765991211e+00,3.176709413528442383e+00,3.094053745269775391e+00,3.015590429306030273e+00,2.941008090972900391e+00,2.870025873184204102e+00,2.802389383316040039e+00,2.737867355346679688e+00,2.676249742507934570e+00,2.617344141006469727e+00,2.560976028442382812e+00,2.506984472274780273e+00,2.455222606658935547e+00,2.405555009841918945e+00,2.357857227325439453e+00,2.312013864517211914e+00,2.267919301986694336e+00,2.225475072860717773e+00,2.184590578079223633e+00,2.145180940628051758e+00,2.107168197631835938e+00,2.070478916168212891e+00,2.035045862197875977e+00,2.000804662704467773e+00,1.967697143554687500e+00,1.935667157173156738e+00,1.904663324356079102e+00,1.874636888504028320e+00,1.845542550086975098e+00
5.000000000000000000e+00,5.000000000000000000e+00,5.000000000000000000e+00,5.000000000000000000e+00,5.000000000000000000e+00,5.000000000000000000e+00,5.000000000000000000e+00,5.000000000000000000e+00,5.000000000000000000e+00,5.000000000000000000e+00,5.000000000000000000e+00,5.000000000000000000e+00,5.000000000000000000e+00,5.000000000000000000e+00,5.000000000000000000e+00,5.000000000000000000e+00,5.000000000000000000e+00,5.000000000000000000e+00,5.000000000000000000e+00,5.000000000000000000e+00,5.000000000000000000e+00,5.000000000000000000e+00,4.339430809020996094e+00,4.301286220550537109e+00,4.255693912506103516e+00,4.262424468994140625e+00,4.277496814727783203e+00,4.333839893341064453e+00,4.383043766021728516e+00,5.000000000000000000e+00,5.000000000000000000e+00,5.000000000000000000e+00,5.000000000000000000e+00,5.000000000000000000e+00,5.000000000000000000e+00,5.000000000000000000e+00,5.000000000000000000e+00,5.000000000000000000e+00,5.000000000000000000e+00,4.867067337036132812e+00,4.675694465637207031e+00,4.498801708221435547e+00,4.334805488586425781e+00,4.182345390319824219e+00,4.040245056152343750e+00,3.907483339309692383e+00,3.783169507980346680e+00,3.666521549224853516e+00,3.556851625442504883e+00,3.453552007675170898e+00,3.356083154678344727e+00,3.263965129852294922e+00,3.176768779754638672e+00,3.094110012054443359e+00,3.015643835067749023e+00,2.941058874130249023e+00,2.870074272155761719e+00,2.802435636520385742e+00,2.737911224365234375e+00,2.676291704177856445e+00,2.617384195327758789e+00,2.561014413833618164e+00,2.507021427154541016e+00,2.455258131027221680e+00,2.405589103698730469e+00,2.357889890670776367e+00,2.312045335769653320e+00,2.267949581146240234e+00,2.225504159927368164e+00,2.184618711471557617e+00,2.145208120346069336e+00,2.107194185256958008e+00,2.070503950119018555e+00,2.035069942474365234e+00,2.000828266143798828e+00,1.967719793319702148e+00,1.935689091682434082e+00,1.904684424400329590e+00,1.874657392501831055e+00,1.845562458038330078e+00
5.000000000000000000e+00,5.000000000000000000e+00,5.000000000000000000e+00,5.000000000000000000e+00,5.000000000000000000e+00,5.000000000000000000e+00,5.000000000000000000e+00,5.000000000000000000e+00,5.000000000000000000e+00,5.000000000000000000e+00,5.000000000000000000e+00,5.000000000000000000e+00,5.000000000000000000e+00,5.000000000000000000e+00,5.000000000000000000e+00,5.000000000000000000e+00,5.000000000000000000e+00,5.000000000000000000e+00,5.000000000000000000e+00,5.000000000000000000e+00,5.000000000000000000e+00,5.000000000000000000e+00,5.000000000000000000e+00,4.340579032897949219e+00,4.261834144592285156e+00,4.253649711608886719e+00,4.281089305877685547e+00,4.344767093658447266e+00,4.372654914855957031e+00,5.000000000000000000e+00,5.000000000000000000e+00,5.000000000000000000e+00,5.000000000000000000e+00,5.000000000000000000e+00,5.000000000000000000e+00,5.000000000000000000e+00,5.000000000000000000e+00,5.000000000000000000e+00,5.000000000000000000e+00,4.867206096649169922e+00,4.675822257995605469e+00,4.498920440673828125e+00,4.334915637969970703e+00,4.182447910308837891e+00,4.040340900421142578e+00,3.907573223114013672e+00,3.783253431320190430e+00,3.666600465774536133e+00,3.556926012039184570e+00,3.453622102737426758e+00,3.356149435043334961e+00,3.264027595520019531e+00,3.176827907562255859e+00,3.094166278839111328e+00,3.015697240829467773e+00,2.941109657287597656e+00,2.870122671127319336e+00,2.802481651306152344e+00,2.737955093383789062e+00,2.676333427429199219e+00,2.617424488067626953e+00,2.561053037643432617e+00,2.507058382034301758e+00,2.455293416976928711e+00,2.405622959136962891e+00,2.357922315597534180e+00,2.312076568603515625e+00,2.267979621887207031e+00,2.225533246994018555e+00,2.184646606445312500e+00,2.145234823226928711e+00,2.107220172882080078e+00,2.070529222488403320e+00,2.035094261169433594e+00,2.000851631164550781e+00,1.967742562294006348e+00,1.935711145401000977e+00,1.904705882072448730e+00,1.874678134918212891e+00,1.845582485198974609e+00
5.000000000000000000e+00,5.000000000000000000e+00,5.000000000000000000e+00,5.000000000000000000e+00,5.000000000000000000e+00,5.000000000000000000e+00,5.000000000000000000e+00,5.000000000000000000e+00,5.000000000000000000e+00,5.000000000000000000e+00,5.000000000000000000e+00,5.000000000000000000e+00,5.000000000000000000e+00,5.000000000000000000e+00,5.000000000000000000e+00,5.000000000000000000e+00,5.000000000000000000e+00,5.000000000000000000e+00,5.000000000000000000e+00,5.000000000000000000e+00,5.000000000000000000e+00,5.000000000000000000e+00,5.000000000000000000e+00,4.346464633941650391e+00,4.257673740386962891e+00,4.256705284118652344e+00,4.283114433288574219e+00,4.372760295867919922e+00,4.384191513061523438e+00,4.413283348083496094e+00,5.000000000000000000e+00,5.000000000000000000e+00,5.000000000000000000e+00,5.000000000000000000e+00,5.000000000000000000e+00,5.000000000000000000e+00,5.000000000000000000e+00,5.000000000000000000e+00,5.000000000000000000e+00,4.867344856262207031e+00,4.675950527191162109e+00,4.499038696289062500e+00,4.335025787353515625e+00,4.182550430297851562e+00,4.040436267852783203e+00,3.907662868499755859e+00,3.783337593078613281e+00,3.666679382324218750e+00,3.557000160217285156e+00,3.453692197799682617e+00,3.356215476989746094e+00,3.264090061187744141e+00,3.176887273788452148e+00,3.094222545623779297e+00,3.015750169754028320e+00,2.941160202026367188e+00,2.870170831680297852e+00,2.802527427673339844e+00,2.737998962402343750e+00,2.676375389099121094e+00,2.617464542388916016e+00,2.561091184616088867e+00,2.507095098495483398e+00,2.455328702926635742e+00,2.405656814575195312e+00,2.357954978942871094e+00,2.312107801437377930e+00,2.268009662628173828e+00,2.225562334060668945e+00,2.184674501419067383e+00,2.145262002944946289e+00,2.107246160507202148e+00,2.070554256439208984e+00,2.035118579864501953e+00,2.000875234603881836e+00,1.967765212059020996e+00,1.935733079910278320e+00,1.904727101325988770e+00,1.874698638916015625e+00,1.845602393150329590e+00
5.000000000000000000e+00,5.000000000000000000e+00,5.000000000000000000e+00,5.000000000000000000e+00,5.000000000000000000e+00,5.000000000000000000e+00,5.000000000000000000e+00,5.000000000000000000e+00,5.000000000000000000e+00,5.000000000000000000e+00,5.000000000000000000e+00,5.000000000000000000e+00,5.000000000000000000e+00,5.000000000000000000e+00,5.000000000000000000e+00,5.000000000000000000e+00,5.000000000000000000e+00,5.000000000000000000e+00,5.000000000000000000e+00,5.000000000000000000e+00,5.000000000000000000e+00,5.000000000000000000e+00,5.000000000000000000e+00,4.376401424407958984e+00,4.241848945617675781e+00,4.246105670928955078e+00,4.267188072204589844e+00,4.353332996368408203e+00,4.388544082641601562e+00,4.374278068542480469e+00,5.000000000000000000e+00,5.000000000000000000e+00,5.000000000000000000e+00,5.000000000000000000e+00,5.000000000000000000e+00,5.000000000000000000e+00,5.000000000000000000e+00,5.000000000000000000e+00,5.000000000000000000e+00,4.867484092712402344e+00,4.676078796386718750e+00,4.499157905578613281e+00,4.335135936737060547e+00,4.182652950286865234e+00,4.040532112121582031e+00,3.907752513885498047e+00,3.783421277999877930e+00,3.666757822036743164e+00,3.557074069976806641e+00,3.453761816024780273e+00,3.356281280517578125e+00,3.264152288436889648e+00,3.176946163177490234e+00,3.094278335571289062e+00,3.015803575515747070e+00,2.941210985183715820e+00,2.870219230651855469e+00,2.802573442459106445e+00,2.738043069839477539e+00,2.676417350769042969e+00,2.617504835128784180e+00,2.561129808425903320e+00,2.507132053375244141e+00,2.455363988876342773e+00,2.405690908432006836e+00,2.357987642288208008e+00,2.312139272689819336e+00,2.268039941787719727e+00,2.225591421127319336e+00,2.184702634811401367e+00,2.145288944244384766e+00,2.107272386550903320e+00,2.070579528808593750e+00,2.035142898559570312e+00,2.000898599624633789e+00,1.967788100242614746e+00,1.935755133628845215e+00,1.904748439788818359e+00,1.874719262123107910e+00,1.845622301101684570e+00
5.000000000000000000e+00,5.000000000000000000e+00,5.000000000000000000e+00,5.000000000000000000e+00,5.000000000000000000e+00,5.000000000000000000e+00,5.000000000000000000e+00,5.000000000000000000e+00,5.000000000000000000e+00,5.000000000000000000e+00,5.000000000000000000e+00,5.000000000000000000e+00,5.000000000000000000e+00,5.000000000000000000e+00,5.000000000000000000e+00,5.000000000000000000e+00,5.000000000000000000e+00,5.000000000000000000e+00,5.000000000000000000e+00,5.000000000000000000e+00,5.000000000000000000e+00,5.000000000000000000e+00,5.000000000000000000e+00,4.360935211181640625e+00,4.268266201019287109e+00,4.259782314300537109e+00,4.281950950622558594e+00,4.332702159881591797e+00,5.000000000000000000e+00,4.318830966949462891e+00,5.000000000000000000e+00,5.000000000000000000e+00,5.000000000000000000e+00,5.000000000000000000e+00,5.000000000000000000e+00,5.000000000000000000e+00,5.000000000000000000e+00,5.000000000000000000e+00,5.000000000000000000e+00,4.867622852325439453e+00,4.676207065582275391e+00,4.499276161193847656e+00,4.335246086120605469e+00,4.182755470275878906e+00,4.040627956390380859e+00,3.907841682434082031e+00,3.783505201339721680e+00,3.666836738586425781e+00,3.557148456573486328e+00,3.453831911087036133e+00,3.356347322463989258e+00,3.264214992523193359e+00,3.177005529403686523e+00,3.094334602355957031e+00,3.015856981277465820e+00,2.941261768341064453e+00,2.870267391204833984e+00,2.802619457244873047e+00,2.738086938858032227e+00,2.676459550857543945e+00,2.617544889450073242e+00,2.561168193817138672e+00,2.507169008255004883e+00,2.455399513244628906e+00,2.405724763870239258e+00,2.358020305633544922e+00,2.312170743942260742e+00,2.268070220947265625e+00,2.225620508193969727e+00,2.184730529785156250e+00,2.145315885543823242e+00,2.107298374176025391e+00,2.070604562759399414e+00,2.035166978836059570e+00,2.000921964645385742e+00,1.967810630798339844e+00,1.935777068138122559e+00,1.904769659042358398e+00,1.874740004539489746e+00,1.845642447471618652e+00
5.000000000000000000e+00,5.000000000000000000e+00,5.000000000000000000e+00,5.000000000000000000e+00,5.000000000000000000e+00,5.000000000000000000e+00,5.000000000000000000e+00,5.000000000000000000e+00,5.000000000000000000e+00,5.000000000000000000e+00,5.000000000000000000e+00,5.000000000000000000e+00,5.000000000000000000e+00,5.000000000000000000e+00,5.000000000000000000e+00,5.000000000000000000e+00,5.000000000000000000e+00,5.000000000000000000e+00,5.000000000000000000e+00,5.000000000000000000e+00,5.000000000000000000e+00,5.000000000000000000e+00,5.000000000000000000e+00,4.342884540557861328e+00,4.191994667053222656e+00,4.260893821716308594e+00,4.303417682647705078e+00,4.328269481658935547e+00,5.000000000000000000e+00,4.279971122741699219e+00,5.000000000000000000e+00,5.000000000000000000e+00,5.000000000000000000e+00,5.000000000000000000e+00,5.000000000000000000e+00,5.000000000000000000e+00,5.000000000000000000e+00,5.000000000000000000e+00,5.000000000000000000e+00,4.867762088775634766e+00,4.676335334777832031e+00,4.499395370483398438e+00,4.335356712341308594e+00,4.182857990264892578e+00,4.040723800659179688e+00,3.907931327819824219e+00,3.783589363098144531e+00,3.666915893554687500e+00,3.557222843170166016e+00,3.453901767730712891e+00,3.356413602828979492e+00,3.264277458190917969e+00,3.177064657211303711e+00,3.094390869140625000e+00,3.015910387039184570e+00,2.941312313079833984e+00,2.870315790176391602e+00,2.802665710449218750e+00,2.738131046295166016e+00,2.676501512527465820e+00,2.617585182189941406e+00,2.561206579208374023e+00,2.507205724716186523e+00,2.455434799194335938e+00,2.405758619308471680e+00,2.358052730560302734e+00,2.312201976776123047e+00,2.268100261688232422e+00,2.225649356842041016e+00,2.184758424758911133e+00,2.145342826843261719e+00,2.107324361801147461e+00,2.070629835128784180e+00,2.035191297531127930e+00,2.000945568084716797e+00,1.967833280563354492e+00,1.935798883438110352e+00,1.904790878295898438e+00,1.874760508537292480e+00,1.845662355422973633e+00
5.000000000000000000e+00,5.000000000000000000e+00,5.000000000000000000e+00,5.000000000000000000e+00,5.000000000000000000e+00,5.000000000000000000e+00,5.000000000000000000e+00,5.000000000000000000e+00,5.000000000000000000e+00,5.000000000000000000e+00,5.000000000000000000e+00,5.000000000000000000e+00,5.000000000000000000e+00,5.000000000000000000e+00,5.000000000000000000e+00,5.000000000000000000e+00,5.000000000000000000e+00,5.000000000000000000e+00,5.000000000000000000e+00,5.000000000000000000e+00,5.000000000000000000e+00,5.000000000000000000e+00,5.000000000000000000e+00,4.188333988189697266e+00,4.158827304840087891e+00,4.235606193542480469e+00,4.294400691986083984e+00,4.324724197387695312e+00,5.000000000000000000e+00,4.215090751647949219e+00,5.000000000000000000e+00,5.000000000000000000e+00,5.000000000000000000e+00,5.000000000000000000e+00,5.000000000000000000e+00,5.000000000000000000e+00,5.000000000000000000e+00,5.000000000000000000e+00,5.000000000000000000e+00,4.867900848388671875e+00,4.676463603973388672e+00,4.499513626098632812e+00,4.335466861724853516e+00,4.182960510253906250e+00,4.040819168090820312e+00,3.908020973205566406e+00,3.783673286437988281e+00,3.666994810104370117e+00,3.557296991348266602e+00,3.453971862792968750e+00,3.356479644775390625e+00,3.264339923858642578e+00,3.177123785018920898e+00,3.094446659088134766e+00,3.015963315963745117e+00,2.941362857818603516e+00,2.870363712310791016e+00,2.802711486816406250e+00,2.738174915313720703e+00,2.676543474197387695e+00,2.617625236511230469e+00,2.561245203018188477e+00,2.507242441177368164e+00,2.455470085144042969e+00,2.405792474746704102e+00,2.358085393905639648e+00,2.312233209609985352e+00,2.268130302429199219e+00,2.225678443908691406e+00,2.184786558151245117e+00,2.145370006561279297e+00,2.107350349426269531e+00,2.070654869079589844e+00,2.035215616226196289e+00,2.000969171524047852e+00,1.967856168746948242e+00,1.935821056365966797e+00,1.904812335968017578e+00,1.874781250953674316e+00,1.845682382583618164e+00
5.000000000000000000e+00,5.000000000000000000e+00,5.000000000000000000e+00,5.000000000000000000e+00,5.000000000000000000e+00,5.000000000000000000e+00,5.000000000000000000e+00,5.000000000000000000e+00,5.000000000000000000e+00,5.000000000000000000e+00,5.000000000000000000e+00,5.000000000000000000e+00,5.000000000000000000e+00,5.000000000000000000e+00,5.000000000000000000e+00,5.000000000000000000e+00,5.000000000000000000e+00,5.000000000000000000e+00,5.000000000000000000e+00,5.000000000000000000e+00,5.000000000000000000e+00,5.000000000000000000e+00,5.000000000000000000e+00,4.294510364532470703e+00,4.128324031829833984e+00,4.216220855712890625e+00,4.304218292236328125e+00,4.337661266326904297e+00,5.000000000000000000e+00,5.000000000000000000e+00,5.000000000000000000e+00,5.000000000000000000e+00,5.000000000000000000e+00,5.000000000000000000e+00,5.000000000000000000e+00,5.000000000000000000e+00,5.000000000000000000e+00,5.000000000000000000e+00,5.000000000000000000e+00,4.868039608001708984e+00,4.676591873168945312e+00,4.499632358551025391e+00,4.335577011108398438e+00,4.183063507080078125e+00,4.040915012359619141e+00,3.908110141754150391e+00,3.783756971359252930e+00,3.667073249816894531e+00,3.557370901107788086e+00,3.454041481018066406e+00,3.356545448303222656e+00,3.264402151107788086e+00,3.177182912826538086e+00,3.094502687454223633e+00,3.016016721725463867e+00,2.941413640975952148e+00,2.870412111282348633e+00,2.802757740020751953e+00,2.738218784332275391e+00,2.676585435867309570e+00,2.617665529251098633e+00,2.561283588409423828e+00,2.507279396057128906e+00,2.455505609512329102e+00,2.405826568603515625e+00,2.358118057250976562e+00,2.312264680862426758e+00,2.268160581588745117e+00,2.225707530975341797e+00,2.184814453125000000e+00,2.145396947860717773e+00,2.107376575469970703e+00,2.070680141448974609e+00,2.035239934921264648e+00,2.000992536544799805e+00,1.967878699302673340e+00,1.935842871665954590e+00,1.904833436012268066e+00,1.874801754951477051e+00,1.845702290534973145e+00
5.000000000000000000e+00,5.000000000000000000e+00,5.000000000000000000e+00,5.000000000000000000e+00,5.000000000000000000e+00,5.000000000000000000e+00,5.000000000000000000e+00,5.000000000000000000e+00,5.000000000000000000e+00,5.000000000000000000e+00,5.000000000000000000e+00,5.000000000000000000e+00,5.000000000000000000e+00,5.000000000000000000e+00,5.000000000000000000e+00,5.000000000000000000e+00,5.000000000000000000e+00,5.000000000000000000e+00,5.000000000000000000e+00,5.000000000000000000e+00,5.000000000000000000e+00,5.000000000000000000e+00,5.000000000000000000e+00,5.000000000000000000e+00,4.094598293304443359e+00,4.188015460968017578e+00,4.316951751708984375e+00,4.357016563415527344e+00,5.000000000000000000e+00,5.000000000000000000e+00,5.000000000000000000e+00,5.000000000000000000e+00,5.000000000000000000e+00,5.000000000000000000e+00,5.000000000000000000e+00,5.000000000000000000e+00,5.000000000000000000e+00,5.000000000000000000e+00,5.000000000000000000e+00,4.868178367614746094e+00,4.676719665527343750e+00,4.499751091003417969e+00,4.335687160491943359e+00,4.183166027069091797e+00,4.041010856628417969e+00,3.908199787139892578e+00,3.783840894699096680e+00,3.667152166366577148e+00,3.557445287704467773e+00,3.454111576080322266e+00,3.356611728668212891e+00,3.264464855194091797e+00,3.177242040634155273e+00,3.094558954238891602e+00,3.016070127487182617e+00,2.941464424133300781e+00,2.870460510253906250e+00,2.802803754806518555e+00,2.738262891769409180e+00,2.676627397537231445e+00,2.617705583572387695e+00,2.561322212219238281e+00,2.507316350936889648e+00,2.455540895462036133e+00,2.405860424041748047e+00,2.358150720596313477e+00,2.312296152114868164e+00,2.268190622329711914e+00,2.225736379623413086e+00,2.184842348098754883e+00,2.145423889160156250e+00,2.107402324676513672e+00,2.070705175399780273e+00,2.035264253616333008e+00,2.001015901565551758e+00,1.967901349067687988e+00,1.935864806175231934e+00,1.904854655265808105e+00,1.874822258949279785e+00,1.845722198486328125e+00
5.000000000000000000e+00,5.000000000000000000e+00,5.000000000000000000e+00,5.000000000000000000e+00,5.000000000000000000e+00,5.000000000000000000e+00,5.000000000000000000e+00,5.000000000000000000e+00,5.000000000000000000e+00,5.000000000000000000e+00,5.000000000000000000e+00,5.000000000000000000e+00,5.000000000000000000e+00,5.000000000000000000e+00,5.000000000000000000e+00,5.000000000000000000e+00,5.000000000000000000e+00,5.000000000000000000e+00,5.000000000000000000e+00,5.000000000000000000e+00,5.000000000000000000e+00,5.000000000000000000e+00,5.000000000000000000e+00,5.000000000000000000e+00,4.069676399230957031e+00,5.000000000000000000e+00,4.329621315002441406e+00,5.000000000000000000e+00,5.000000000000000000e+00,5.000000000000000000e+00,5.000000000000000000e+00,5.000000000000000000e+00,5.000000000000000000e+00,5.000000000000000000e+00,5.000000000000000000e+00,5.000000000000000000e+00,5.000000000000000000e+00,5.000000000000000000e+00,5.000000000000000000e+00,4.868317604064941406e+00,4.676848411560058594e+00,4.499869823455810547e+00,4.335797309875488281e+00,4.183268547058105469e+00,4.041106224060058594e+00,3.908289432525634766e+00,3.783925056457519531e+00,3.667231082916259766e+00,3.557519435882568359e+00,3.454181671142578125e+00,3.356677770614624023e+00,3.264527082443237305e+00,3.177301168441772461e+00,3.094615221023559570e+00,3.016123533248901367e+00,2.941515207290649414e+00,2.870508909225463867e+00,2.802849769592285156e+00,2.738306999206542969e+00,2.676669359207153320e+00,2.617745637893676758e+00,2.561360359191894531e+00,2.507353067398071289e+00,2.455576181411743164e+00,2.405894279479980469e+00,2.358183145523071289e+00,2.312327384948730469e+00,2.268220901489257812e+00,2.225765466690063477e+00,2.184870481491088867e+00,2.145450830459594727e+00,2.107428550720214844e+00,2.070730209350585938e+00,2.035288572311401367e+00,2.001039505004882812e+00,1.967924237251281738e+00,1.935886979103088379e+00,1.904876112937927246e+00,1.874843001365661621e+00,1.845742344856262207e+00
5.000000000000000000e+00,5.000000000000000000e+00,5.000000000000000000e+00,5.000000000000000000e+00,5.000000000000000000e+00,5.000000000000000000e+00,5.000000000000000000e+00,5.000000000000000000e+00,5.000000000000000000e+00,5.000000000000000000e+00,5.000000000000000000e+00,5.000000000000000000e+00,5.000000000000000000e+00,5.000000000000000000e+00,5.000000000000000000e+00,5.000000000000000000e+00,5.000000000000000000e+00,5.000000000000000000e+00,5.000000000000000000e+00,5.000000000000000000e+00,5.000000000000000000e+00,5.000000000000000000e+00,5.000000000000000000e+00,5.000000000000000000e+00,4.079527378082275391e+00,5.000000000000000000e+00,4.339542865753173828e+00,5.000000000000000000e+00,5.000000000000000000e+00,5.000000000000000000e+00,5.000000000000000000e+00,5.000000000000000000e+00,5.000000000000000000e+00,5.000000000000000000e+00,5.000000000000000000e+00,5.000000000000000000e+00,5.000000000000000000e+00,5.000000000000000000e+00,5.000000000000000000e+00,4.868455410003662109e+00,4.676976203918457031e+00,4.499988555908203125e+00,4.335907459259033203e+00,4.183371067047119141e+00,4.041202068328857422e+00,3.908379077911376953e+00,3.784009218215942383e+00,3.667310237884521484e+00,3.557593822479248047e+00,3.454251766204833984e+00,3.356743335723876953e+00,3.264589309692382812e+00,3.177360296249389648e+00,3.094671010971069336e+00,3.016176700592041016e+00,2.941565752029418945e+00,2.870557069778442383e+00,2.802895784378051758e+00,2.738350629806518555e+00,2.676711320877075195e+00,2.617785930633544922e+00,2.561398983001708984e+00,2.507390022277832031e+00,2.455611467361450195e+00,2.405928373336791992e+00,2.358215808868408203e+00,2.312358617782592773e+00,2.268251180648803711e+00,2.225794553756713867e+00,2.184898376464843750e+00,2.145477771759033203e+00,2.107454538345336914e+00,2.070755481719970703e+00,2.035312891006469727e+00,2.001062870025634766e+00,1.967946887016296387e+00,1.935908794403076172e+00,1.904897332191467285e+00,1.874863505363464355e+00,1.845762252807617188e+00
5.000000000000000000e+00,5.000000000000000000e+00,5.000000000000000000e+00,5.000000000000000000e+00,5.000000000000000000e+00,5.000000000000000000e+00,5.000000000000000000e+00,5.000000000000000000e+00,5.000000000000000000e+00,5.000000000000000000e+00,5.000000000000000000e+00,5.000000000000000000e+00,5.000000000000000000e+00,5.000000000000000000e+00,5.000000000000000000e+00,5.000000000000000000e+00,5.000000000000000000e+00,5.000000000000000000e+00,5.000000000000000000e+00,5.000000000000000000e+00,5.000000000000000000e+00,5.000000000000000000e+00,5.000000000000000000e+00,5.000000000000000000e+00,4.089253902435302734e+00,5.000000000000000000e+00,4.389640331268310547e+00,5.000000000000000000e+00,5.000000000000000000e+00,5.000000000000000000e+00,5.000000000000000000e+00,5.000000000000000000e+00,5.000000000000000000e+00,5.000000000000000000e+00,5.000000000000000000e+00,5.000000000000000000e+00,5.000000000000000000e+00,5.000000000000000000e+00,5.000000000000000000e+00,4.868594646453857422e+00,4.677103519439697266e+00,4.500107288360595703e+00,4.336017608642578125e+00,4.183473587036132812e+00,4.041297912597656250e+00,3.908468484878540039e+00,3.784092664718627930e+00,3.667388677597045898e+00,3.557667732238769531e+00,3.454321146011352539e+00,3.356809616088867188e+00,3.264652013778686523e+00,3.177419424057006836e+00,3.094727277755737305e+00,3.016230106353759766e+00,2.941616535186767578e+00,2.870605468750000000e+00,2.802941799163818359e+00,2.738394737243652344e+00,2.676753520965576172e+00,2.617826223373413086e+00,2.561437368392944336e+00,2.507426977157592773e+00,2.455646991729736328e+00,2.405962228775024414e+00,2.358248472213745117e+00,2.312390089035034180e+00,2.268281221389770508e+00,2.225823640823364258e+00,2.184926509857177734e+00,2.145504951477050781e+00,2.107480764389038086e+00,2.070780754089355469e+00,2.035337209701538086e+00,2.001086473464965820e+00,1.967969417572021484e+00,1.935930728912353516e+00,1.904918432235717773e+00,1.874884128570556641e+00,1.845782160758972168e+00
5.000000000000000000e+00,5.000000000000000000e+00,5.000000000000000000e+00,5.000000000000000000e+00,5.000000000000000000e+00,5.000000000000000000e+00,5.000000000000000000e+00,5.000000000000000000e+00,5.000000000000000000e+00,5.000000000000000000e+00,5.000000000000000000e+00,5.000000000000000000e+00,5.000000000000000000e+00,5.000000000000000000e+00,5.000000000000000000e+00,5.000000000000000000e+00,5.000000000000000000e+00,5.000000000000000000e+00,5.000000000000000000e+00,5.000000000000000000e+00,5.000000000000000000e+00,5.000000000000000000e+00,5.000000000000000000e+00,5.000000000000000000e+00,4.078192710876464844e+00,5.000000000000000000e+00,4.443414211273193359e+00,5.000000000000000000e+00,5.000000000000000000e+00,5.000000000000000000e+00,5.000000000000000000e+00,5.000000000000000000e+00,5.000000000000000000e+00,5.000000000000000000e+00,5.000000000000000000e+00,5.000000000000000000e+00,5.000000000000000000e+00,5.000000000000000000e+00,5.000000000000000000e+00,4.868733882904052734e+00,4.677232265472412109e+00,4.500226020812988281e+00,4.336128234863281250e+00,4.183576107025146484e+00,4.041393756866455078e+00,3.908558130264282227e+00,3.784176826477050781e+00,3.667467594146728516e+00,3.557741880416870117e+00,3.454391241073608398e+00,3.356875658035278320e+00,3.264714479446411133e+00,3.177478790283203125e+00,3.094783544540405273e+00,3.016283512115478516e+00,2.941667318344116211e+00,2.870653867721557617e+00,2.802988052368164062e+00,2.738438844680786133e+00,2.676795482635498047e+00,2.617866516113281250e+00,2.561475992202758789e+00,2.507463693618774414e+00,2.455682277679443359e+00,2.405996322631835938e+00,2.358280897140502930e+00,2.312421321868896484e+00,2.268311262130737305e+00,2.225852727890014648e+00,2.184954404830932617e+00,2.145531654357910156e+00,2.107506513595581055e+00,2.070805788040161133e+00,2.035361289978027344e+00,2.001109838485717773e+00,1.967992305755615234e+00,1.935952782630920410e+00,1.904939889907836914e+00,1.874904870986938477e+00,1.845802187919616699e+00
5.000000000000000000e+00,5.000000000000000000e+00,5.000000000000000000e+00,5.000000000000000000e+00,5.000000000000000000e+00,5.000000000000000000e+00,5.000000000000000000e+00,5.000000000000000000e+00,5.000000000000000000e+00,5.000000000000000000e+00,5.000000000000000000e+00,5.000000000000000000e+00,5.000000000000000000e+00,5.000000000000000000e+00,5.000000000000000000e+00,5.000000000000000000e+00,5.000000000000000000e+00,5.000000000000000000e+00,5.000000000000000000e+00,5.000000000000000000e+00,5.000000000000000000e+00,5.000000000000000000e+00,5.000000000000000000e+00,5.000000000000000000e+00,4.067060947418212891e+00,5.000000000000000000e+00,4.472889900207519531e+00,5.000000000000000000e+00,5.000000000000000000e+00,5.000000000000000000e+00,5.000000000000000000e+00,5.000000000000000000e+00,5.000000000000000000e+00,5.000000000000000000e+00,5.000000000000000000e+00,5.000000000000000000e+00,5.000000000000000000e+00,5.000000000000000000e+00,5.000000000000000000e+00,4.868873119354248047e+00,4.677360534667968750e+00,4.500343799591064453e+00,4.336237907409667969e+00,4.183678627014160156e+00,4.041489601135253906e+00,3.908647775650024414e+00,3.784260988235473633e+00,3.667546510696411133e+00,3.557816267013549805e+00,3.454461336135864258e+00,3.356941938400268555e+00,3.264777183532714844e+00,3.177537918090820312e+00,3.094839811325073242e+00,3.016336917877197266e+00,2.941718339920043945e+00,2.870702266693115234e+00,2.803033828735351562e+00,2.738482475280761719e+00,2.676837444305419922e+00,2.617906570434570312e+00,2.561514377593994141e+00,2.507500648498535156e+00,2.455717563629150391e+00,2.406030178070068359e+00,2.358313560485839844e+00,2.312452793121337891e+00,2.268341541290283203e+00,2.225881814956665039e+00,2.184982299804687500e+00,2.145558834075927734e+00,2.107532739639282227e+00,2.070830821990966797e+00,2.035385847091674805e+00,2.001133441925048828e+00,1.968014955520629883e+00,1.935974717140197754e+00,1.904961109161376953e+00,1.874925374984741211e+00,1.845822095870971680e+00
5.000000000000000000e+00,5.000000000000000000e+00,5.000000000000000000e+00,5.000000000000000000e+00,5.000000000000000000e+00,5.000000000000000000e+00,5.000000000000000000e+00,5.000000000000000000e+00,5.000000000000000000e+00,5.000000000000000000e+00,5.000000000000000000e+00,5.000000000000000000e+00,5.000000000000000000e+00,5.000000000000000000e+00,5.000000000000000000e+00,5.000000000000000000e+00,5.000000000000000000e+00,5.000000000000000000e+00,5.000000000000000000e+00,5.000000000000000000e+00,5.000000000000000000e+00,5.000000000000000000e+00,5.000000000000000000e+00,5.000000000000000000e+00,4.067689418792724609e+00,5.000000000000000000e+00,4.526512145996093750e+00,5.000000000000000000e+00,5.000000000000000000e+00,5.000000000000000000e+00,5.000000000000000000e+00,5.000000000000000000e+00,5.000000000000000000e+00,5.000000000000000000e+00,5.000000000000000000e+00,5.000000000000000000e+00,5.000000000000000000e+00,5.000000000000000000e+00,5.000000000000000000e+00,4.869012832641601562e+00,4.677489280700683594e+00,4.500463008880615234e+00,4.336347579956054688e+00,4.183781623840332031e+00,4.041585445404052734e+00,3.908737421035766602e+00,3.784344673156738281e+00,3.667625427246093750e+00,3.557890176773071289e+00,3.454530954360961914e+00,3.357007741928100586e+00,3.264839410781860352e+00,3.177597045898437500e+00,3.094895839691162109e+00,3.016390085220336914e+00,2.941768884658813477e+00,2.870750427246093750e+00,2.803080081939697266e+00,2.738526582717895508e+00,2.676879405975341797e+00,2.617946624755859375e+00,2.561552762985229492e+00,2.507537364959716797e+00,2.455753087997436523e+00,2.406064033508300781e+00,2.358346223831176758e+00,2.312484025955200195e+00,2.268371820449829102e+00,2.225910902023315430e+00,2.185010433197021484e+00,2.145585775375366211e+00,2.107558727264404297e+00,2.070856094360351562e+00,2.035410165786743164e+00,2.001156806945800781e+00,1.968037843704223633e+00,1.935996890068054199e+00,1.904982447624206543e+00,1.874946117401123047e+00,1.845842242240905762e+00
5.000000000000000000e+00,5.000000000000000000e+00,5.000000000000000000e+00,5.000000000000000000e+00,5.000000000000000000e+00,5.000000000000000000e+00,5.000000000000000000e+00,5.000000000000000000e+00,5.000000000000000000e+00,5.000000000000000000e+00,5.000000000000000000e+00,5.000000000000000000e+00,5.000000000000000000e+00,5.000000000000000000e+00,5.000000000000000000e+00,5.000000000000000000e+00,5.000000000000000000e+00,5.000000000000000000e+00,5.000000000000000000e+00,5.000000000000000000e+00,5.000000000000000000e+00,5.000000000000000000e+00,5.000000000000000000e+00,5.000000000000000000e+00,4.072114467620849609e+00,5.000000000000000000e+00,4.605296134948730469e+00,5.000000000000000000e+00,5.000000000000000000e+00,5.000000000000000000e+00,5.000000000000000000e+00,5.000000000000000000e+00,5.000000000000000000e+00,5.000000000000000000e+00,5.000000000000000000e+00,5.000000000000000000e+00,5.000000000000000000e+00,5.000000000000000000e+00,5.000000000000000000e+00,4.869152069091796875e+00,4.677618026733398438e+00,4.500582218170166016e+00,4.336457729339599609e+00,4.183883190155029297e+00,4.041680812835693359e+00,3.908826589584350586e+00,3.784428358078002930e+00,3.667703866958618164e+00,3.557964324951171875e+00,3.454601049423217773e+00,3.357073783874511719e+00,3.264901876449584961e+00,3.177656412124633789e+00,3.094952106475830078e+00,3.016443490982055664e+00,2.941819667816162109e+00,2.870798826217651367e+00,2.803126096725463867e+00,2.738570690155029297e+00,2.676921606063842773e+00,2.617986917495727539e+00,2.561591386795043945e+00,2.507574319839477539e+00,2.455788373947143555e+00,2.406098127365112305e+00,2.358378887176513672e+00,2.312515497207641602e+00,2.268401861190795898e+00,2.225939989089965820e+00,2.185038328170776367e+00,2.145612955093383789e+00,2.107584953308105469e+00,2.070881128311157227e+00,2.035434246063232422e+00,2.001180171966552734e+00,1.968060374259948730e+00,1.936018705368041992e+00,1.905003666877746582e+00,1.874966621398925781e+00,1.845862150192260742e+00
4.875262737274169922e+00,4.874051570892333984e+00,4.872840881347656250e+00,4.871631145477294922e+00,4.870421409606933594e+00,4.869212627410888672e+00,4.868004322052001953e+00,4.866796493530273438e+00,4.865589141845703125e+00,4.864382743835449219e+00,4.863176822662353516e+00,4.861971378326416016e+00,4.860766887664794922e+00,4.859562397003173828e+00,4.858358860015869141e+00,4.857156753540039062e+00,4.855954170227050781e+00,4.854752540588378906e+00,4.853551387786865234e+00,4.852350711822509766e+00,4.851150989532470703e+00,4.849951267242431641e+00,4.848752498626708984e+00,4.847554683685302734e+00,3.920963048934936523e+00,4.435116291046142578e+00,4.497077941894531250e+00,4.842767715454101562e+00,4.841572284698486328e+00,4.840378284454345703e+00,4.839184284210205078e+00,4.837990760803222656e+00,4.836797714233398438e+00,4.835605144500732422e+00,4.834413528442382812e+00,4.833222389221191406e+00,4.832031726837158203e+00,4.830842018127441406e+00,4.829652786254882812e+00,4.828464031219482422e+00,4.677746295928955078e+00,4.500700950622558594e+00,4.336568355560302734e+00,4.183986186981201172e+00,4.041777133941650391e+00,3.908916234970092773e+00,3.784512519836425781e+00,3.667783021926879883e+00,3.558038711547851562e+00,3.454671144485473633e+00,3.357140064239501953e+00,3.264964580535888672e+00,3.177715539932250977e+00,3.095008134841918945e+00,3.016496896743774414e+00,2.941870450973510742e+00,2.870846986770629883e+00,2.803172349929809570e+00,2.738614559173583984e+00,2.676963567733764648e+00,2.618027210235595703e+00,2.561629772186279297e+00,2.507611274719238281e+00,2.455823659896850586e+00,2.406131982803344727e+00,2.358411312103271484e+00,2.312546730041503906e+00,2.268432140350341797e+00,2.225968837738037109e+00,2.185066223144531250e+00,2.145639657974243164e+00,2.107610702514648438e+00,2.070906400680541992e+00,2.035458564758300781e+00,2.001203775405883789e+00,1.968083024024963379e+00,1.936040639877319336e+00,1.905024886131286621e+00,1.874987244606018066e+00,1.845882058143615723e+00
3.778055667877197266e+00,3.777328014373779297e+00,3.776601076126098633e+00,3.775873899459838867e+00,3.775147438049316406e+00,3.774421215057373047e+00,3.773694992065429688e+00,3.772969245910644531e+00,3.772243499755859375e+00,3.771518707275390625e+00,3.770793437957763672e+00,3.770068883895874023e+00,3.769344329833984375e+00,3.768620252609252930e+00,3.767896413803100586e+00,3.767173051834106445e+00,3.766449451446533203e+00,3.765726566314697266e+00,3.765003681182861328e+00,3.764281272888183594e+00,3.763559341430664062e+00,3.762837171554565430e+00,3.762115716934204102e+00,3.761394262313842773e+00,3.760673522949218750e+00,3.759952306747436523e+00,3.759232044219970703e+00,3.758511543273925781e+00,3.757791757583618164e+00,3.757071971893310547e+00,3.756352663040161133e+00,3.755633354187011719e+00,3.754914760589599609e+00,3.754196166992187500e+00,3.753477811813354492e+00,3.752759933471679688e+00,3.752041816711425781e+00,3.751324653625488281e+00,3.750607013702392578e+00,3.749890327453613281e+00,3.749173402786254883e+00,3.748457193374633789e+00,3.747740983963012695e+00,3.747025251388549805e+00,3.746309518814086914e+00,3.745594263076782227e+00,3.744879484176635742e+00,3.667861938476562500e+00,3.558113098144531250e+00,3.454741239547729492e+00,3.357206106185913086e+00,3.265027046203613281e+00,3.177774906158447266e+00,3.095064401626586914e+00,3.016550302505493164e+00,2.941920995712280273e+00,2.870895147323608398e+00,2.803218126296997070e+00,2.738658428192138672e+00,2.677005529403686523e+00,2.618067264556884766e+00,2.561668157577514648e+00,2.507647991180419922e+00,2.455858945846557617e+00,2.406165838241577148e+00,2.358443975448608398e+00,2.312578201293945312e+00,2.268462181091308594e+00,2.225997924804687500e+00,2.185094356536865234e+00,2.145666837692260742e+00,2.107636928558349609e+00,2.070931434631347656e+00,2.035482883453369141e+00,2.001227378845214844e+00,1.968105912208557129e+00,1.936062693595886230e+00,1.905046343803405762e+00,1.875007987022399902e+00,1.845902204513549805e+00
3.083986043930053711e+00,3.083501338958740234e+00,3.083016872406005859e+00,3.082532167434692383e+00,3.082047939300537109e+00,3.081563711166381836e+00,3.081079959869384766e+00,3.080595970153808594e+00,3.080112218856811523e+00,3.079628944396972656e+00,3.079145431518554688e+00,3.078662395477294922e+00,3.078179121017456055e+00,3.077696323394775391e+00,3.077213287353515625e+00,3.076730728149414062e+00,3.076248168945312500e+00,3.075766086578369141e+00,3.075283765792846680e+00,3.074801683425903320e+00,3.074319839477539062e+00,3.073838233947753906e+00,3.073356389999389648e+00,3.072875022888183594e+00,3.072393894195556641e+00,3.071912765502929688e+00,3.071431875228881836e+00,3.070950984954833984e+00,3.070470333099365234e+00,3.069989681243896484e+00,3.069509506225585938e+00,3.069029092788696289e+00,3.068549156188964844e+00,3.068069219589233398e+00,3.067589521408081055e+00,3.067110061645507812e+00,3.066630363464355469e+00,3.066151142120361328e+00,3.065671920776367188e+00,3.065193176269531250e+00,3.064714193344116211e+00,3.064235448837280273e+00,3.063756704330444336e+00,3.063278436660766602e+00,3.062800168991088867e+00,3.062322139739990234e+00,3.061843872070312500e+00,3.061366319656372070e+00,3.060888528823852539e+00,3.060410976409912109e+00,3.059933900833129883e+00,3.059456348419189453e+00,3.058979511260986328e+00,3.058502435684204102e+00,3.016603469848632812e+00,2.941971778869628906e+00,2.870943546295166016e+00,2.803264379501342773e+00,2.738702535629272461e+00,2.677047491073608398e+00,2.618107557296752930e+00,2.561706781387329102e+00,2.507684946060180664e+00,2.455894470214843750e+00,2.406199932098388672e+00,2.358476638793945312e+00,2.312609434127807617e+00,2.268492460250854492e+00,2.226027011871337891e+00,2.185122489929199219e+00,2.145693778991699219e+00,2.107662916183471680e+00,2.070956707000732422e+00,2.035507202148437500e+00,2.001250743865966797e+00,1.968128561973571777e+00,1.936084628105163574e+00,1.905067563056945801e+00,1.875028491020202637e+00,1.845922112464904785e+00
2.605354309082031250e+00,2.605008363723754883e+00,2.604662418365478516e+00,2.604316711425781250e+00,2.603971004486083984e+00,2.603625297546386719e+00,2.603279829025268555e+00,2.602934360504150391e+00,2.602589130401611328e+00,2.602243661880493164e+00,2.601898670196533203e+00,2.601553678512573242e+00,2.601208686828613281e+00,2.600863933563232422e+00,2.600518941879272461e+00,2.600174427032470703e+00,2.599829673767089844e+00,2.599485397338867188e+00,2.599140882492065430e+00,2.598796606063842773e+00,2.598452091217041016e+00,2.598108053207397461e+00,2.597764015197753906e+00,2.597420215606689453e+00,2.597076177597045898e+00,2.596732378005981445e+00,2.596388816833496094e+00,2.596045255661010742e+00,2.595701694488525391e+00,2.595358133316040039e+00,2.595015048980712891e+00,2.594671726226806641e+00,2.594328641891479492e+00,2.593985557556152344e+00,2.593642711639404297e+00,2.593299627304077148e+00,2.592957019805908203e+00,2.592614173889160156e+00,2.592271566390991211e+00,2.591929197311401367e+00,2.591586589813232422e+00,2.591244459152221680e+00,2.590902090072631836e+00,2.590560197830200195e+00,2.590217828750610352e+00,2.589875936508178711e+00,2.589534044265747070e+00,2.589192390441894531e+00,2.588850498199462891e+00,2.588509082794189453e+00,2.588167428970336914e+00,2.587826251983642578e+00,2.587484598159790039e+00,2.587143659591674805e+00,2.586802482604980469e+00,2.586461305618286133e+00,2.586120367050170898e+00,2.585779428482055664e+00,2.585438728332519531e+00,2.585098028182983398e+00,2.584757566452026367e+00,2.561745166778564453e+00,2.507721900939941406e+00,2.455929756164550781e+00,2.406233787536621094e+00,2.358509302139282227e+00,2.312640905380249023e+00,2.268522739410400391e+00,2.226056098937988281e+00,2.185150384902954102e+00,2.145720720291137695e+00,2.107688903808593750e+00,2.070981740951538086e+00,2.035531520843505859e+00,2.001274108886718750e+00,1.968151211738586426e+00,1.936106562614440918e+00,1.905088663101196289e+00,1.875048995018005371e+00,1.845942020416259766e+00
2.255353212356567383e+00,2.255093097686767578e+00,2.254832744598388672e+00,2.254572629928588867e+00,2.254312276840209961e+00,2.254052162170410156e+00,2.253792285919189453e+00,2.253532171249389648e+00,2.253272294998168945e+00,2.253012418746948242e+00,2.252752542495727539e+00,2.252492904663085938e+00,2.252233266830444336e+00,2.251973628997802734e+00,2.251713991165161133e+00,2.251454591751098633e+00,2.251195192337036133e+00,2.250935792922973633e+00,2.250676393508911133e+00,2.250417232513427734e+00,2.250157833099365234e+00,2.249898910522460938e+00,2.249639749526977539e+00,2.249381542205810547e+00,2.249123573303222656e+00,2.248865842819213867e+00,2.248607873916625977e+00,2.248350143432617188e+00,2.248092412948608398e+00,2.247834920883178711e+00,2.247577428817749023e+00,2.247319936752319336e+00,2.247062683105468750e+00,2.246805191040039062e+00,2.246547937393188477e+00,2.246290683746337891e+00,2.246033430099487305e+00,2.245776176452636719e+00,2.245519161224365234e+00,2.245262145996093750e+00,2.245005369186401367e+00,2.244748353958129883e+00,2.244491577148437500e+00,2.244234800338745117e+00,2.243978023529052734e+00,2.243721485137939453e+00,2.243464708328247070e+00,2.243208408355712891e+00,2.242951869964599609e+00,2.242695331573486328e+00,2.242439031600952148e+00,2.242182731628417969e+00,2.241926431655883789e+00,2.241670370101928711e+00,2.241414070129394531e+00,2.241158008575439453e+00,2.240902185440063477e+00,2.240646123886108398e+00,2.240390300750732422e+00,2.240134239196777344e+00,2.239878654479980469e+00,2.239622831344604492e+00,2.239367246627807617e+00,2.239111661911010742e+00,2.238856077194213867e+00,2.238600492477416992e+00,2.238345146179199219e+00,2.238089799880981445e+00,2.226084947586059570e+00,2.185178279876708984e+00,2.145747661590576172e+00,2.107714891433715820e+00,2.071007013320922852e+00,2.035555839538574219e+00,2.001297712326049805e+00,1.968173980712890625e+00,1.936128616333007812e+00,1.905110120773315430e+00,1.875069737434387207e+00,1.845962047576904297e+00
1.988301396369934082e+00,1.988098978996276855e+00,1.987896680831909180e+00,1.987694382667541504e+00,1.987492084503173828e+00,1.987290143966674805e+00,1.987087965011596680e+00,1.986885786056518555e+00,1.986683726310729980e+00,1.986481666564941406e+00,1.986279845237731934e+00,1.986077904701232910e+00,1.985875964164733887e+00,1.985674023628234863e+00,1.985472202301025391e+00,1.985270619392395020e+00,1.985068798065185547e+00,1.984867095947265625e+00,1.984665393829345703e+00,1.984463691711425781e+00,1.984262347221374512e+00,1.984060764312744141e+00,1.983859300613403320e+00,1.983657717704772949e+00,1.983456373214721680e+00,1.983255147933959961e+00,1.983053803443908691e+00,1.982852458953857422e+00,1.982651233673095703e+00,1.982450008392333984e+00,1.982248783111572266e+00,1.982047796249389648e+00,1.981846690177917480e+00,1.981645584106445312e+00,1.981444597244262695e+00,1.981243610382080078e+00,1.981042861938476562e+00,1.980841994285583496e+00,1.980641126632690430e+00,1.980440258979797363e+00,1.980239391326904297e+00,1.980038881301879883e+00,1.979838252067565918e+00,1.979637503623962402e+00,1.979436874389648438e+00,1.979236245155334473e+00,1.979035973548889160e+00,1.978835463523864746e+00,1.978634953498840332e+00,1.978434562683105469e+00,1.978234171867370605e+00,1.978034019470214844e+00,1.977833747863769531e+00,1.977633476257324219e+00,1.977433204650878906e+00,1.977233052253723145e+00,1.977032899856567383e+00,1.976832985877990723e+00,1.976632952690124512e+00,1.976432919502258301e+00,1.976233005523681641e+00,1.976032972335815430e+00,1.975833296775817871e+00,1.975633502006530762e+00,1.975433707237243652e+00,1.975233912467956543e+00,1.975034117698669434e+00,1.974834680557250977e+00,1.974635004997253418e+00,1.974435329437255859e+00,1.974235773086547852e+00,1.974036216735839844e+00,1.973837018013000488e+00,1.973637461662292480e+00,1.973438143730163574e+00,1.968196630477905273e+00,1.936150550842285156e+00,1.905131340026855469e+00,1.875090241432189941e+00,1.845981955528259277e+00
1.777795910835266113e+00,1.777634263038635254e+00,1.777472496032714844e+00,1.777310729026794434e+00,1.777148962020874023e+00,1.776987314224243164e+00,1.776825904846191406e+00,1.776664257049560547e+00,1.776502609252929688e+00,1.776341080665588379e+00,1.776179552078247070e+00,1.776018142700195312e+00,1.775856733322143555e+00,1.775695204734802246e+00,1.775533795356750488e+00,1.775372385978698730e+00,1.775211215019226074e+00,1.775049924850463867e+00,1.774888634681701660e+00,1.774727344512939453e+00,1.774566054344177246e+00,1.774405002593994141e+00,1.774243831634521484e+00,1.774082660675048828e+00,1.773921608924865723e+00,1.773760437965393066e+00,1.773599386215209961e+00,1.773438572883605957e+00,1.773277521133422852e+00,1.773116469383239746e+00,1.772955536842346191e+00,1.772794604301452637e+00,1.772633910179138184e+00,1.772473096847534180e+00,1.772312164306640625e+00,1.772151350975036621e+00,1.771990656852722168e+00,1.771830081939697266e+00,1.771669268608093262e+00,1.771508574485778809e+00,1.771347999572753906e+00,1.771187305450439453e+00,1.771026849746704102e+00,1.770866274833679199e+00,1.770705819129943848e+00,1.770545244216918945e+00,1.770384788513183594e+00,1.770224452018737793e+00,1.770063996315002441e+00,1.769903659820556641e+00,1.769743323326110840e+00,1.769582867622375488e+00,1.769422650337219238e+00,1.769262552261352539e+00,1.769102215766906738e+00,1.768941998481750488e+00,1.768781781196594238e+00,1.768621683120727539e+00,1.768461704254150391e+00,1.768301606178283691e+00,1.768141508102416992e+00,1.767981410026550293e+00,1.767821431159973145e+00,1.767661571502685547e+00,1.767501592636108398e+00,1.767341732978820801e+00,1.767181754112243652e+00,1.767021894454956055e+00,1.766862273216247559e+00,1.766702413558959961e+00,1.766542673110961914e+00,1.766382813453674316e+00,1.766223073005676270e+00,1.766063451766967773e+00,1.765903949737548828e+00,1.765744209289550781e+00,1.765584707260131836e+00,1.765425086021423340e+00,1.765265583992004395e+00,1.765106201171875000e+00
1.607596516609191895e+00,1.607464194297790527e+00,1.607332110404968262e+00,1.607199788093566895e+00,1.607067584991455078e+00,1.606935262680053711e+00,1.606803178787231445e+00,1.606671094894409180e+00,1.606538891792297363e+00,1.606406807899475098e+00,1.606274724006652832e+00,1.606142640113830566e+00,1.606010675430297852e+00,1.605878591537475586e+00,1.605746626853942871e+00,1.605614542961120605e+00,1.605482578277587891e+00,1.605350613594055176e+00,1.605218887329101562e+00,1.605086922645568848e+00,1.604955077171325684e+00,1.604823231697082520e+00,1.604691267013549805e+00,1.604559659957885742e+00,1.604427814483642578e+00,1.604296088218688965e+00,1.604164242744445801e+00,1.604032516479492188e+00,1.603900909423828125e+00,1.603769302368164062e+00,1.603637576103210449e+00,1.603505969047546387e+00,1.603374242782592773e+00,1.603242874145507812e+00,1.603111267089843750e+00,1.602979660034179688e+00,1.602848052978515625e+00,1.602716565132141113e+00,1.602585196495056152e+00,1.602453708648681641e+00,1.602322220802307129e+00,1.602190852165222168e+00,1.602059364318847656e+00,1.601927995681762695e+00,1.601796746253967285e+00,1.601665377616882324e+00,1.601534128189086914e+00,1.601402759552001953e+00,1.601271510124206543e+00,1.601140379905700684e+00,1.601009130477905273e+00,1.600877881050109863e+00,1.600746750831604004e+00,1.600615501403808594e+00,1.600484490394592285e+00,1.600353360176086426e+00,1.600222229957580566e+00,1.600091099739074707e+00,1.599959969520568848e+00,1.599829077720642090e+00,1.599698066711425781e+00,1.599567055702209473e+00,1.599436044692993164e+00,1.599305152893066406e+00,1.599174380302429199e+00,1.599043369293212891e+00,1.598912477493286133e+00,1.598781585693359375e+00,1.598650813102722168e+00,1.598519921302795410e+00,1.598389267921447754e+00,1.598258495330810547e+00,1.598127722740173340e+00,1.597996950149536133e+00,1.597866177558898926e+00,1.597735643386840820e+00,1.597604990005493164e+00,1.597474217414855957e+00,1.597343564033508301e+00,1.597213029861450195e+00
1.467138290405273438e+00,1.467028141021728516e+00,1.466917872428894043e+00,1.466807842254638672e+00,1.466697692871093750e+00,1.466587543487548828e+00,1.466477513313293457e+00,1.466367363929748535e+00,1.466257452964782715e+00,1.466147303581237793e+00,1.466037273406982422e+00,1.465927243232727051e+00,1.465817213058471680e+00,1.465707182884216309e+00,1.465597391128540039e+00,1.465487360954284668e+00,1.465377449989318848e+00,1.465267539024353027e+00,1.465157628059387207e+00,1.465047836303710938e+00,1.464937925338745117e+00,1.464828014373779297e+00,1.464718222618103027e+00,1.464608311653137207e+00,1.464498639106750488e+00,1.464388847351074219e+00,1.464279055595397949e+00,1.464169263839721680e+00,1.464059472084045410e+00,1.463949918746948242e+00,1.463840246200561523e+00,1.463730454444885254e+00,1.463620781898498535e+00,1.463511109352111816e+00,1.463401436805725098e+00,1.463292002677917480e+00,1.463182330131530762e+00,1.463072776794433594e+00,1.462963104248046875e+00,1.462853550910949707e+00,1.462744116783142090e+00,1.462634563446044922e+00,1.462525129318237305e+00,1.462415575981140137e+00,1.462306022644042969e+00,1.462196707725524902e+00,1.462087273597717285e+00,1.461977839469909668e+00,1.461868405342102051e+00,1.461758971214294434e+00,1.461649775505065918e+00,1.461540341377258301e+00,1.461431026458740234e+00,1.461321711540222168e+00,1.461212277412414551e+00,1.461103200912475586e+00,1.460993885993957520e+00,1.460884571075439453e+00,1.460775256156921387e+00,1.460666060447692871e+00,1.460556864738464355e+00,1.460447788238525391e+00,1.460338592529296875e+00,1.460229396820068359e+00,1.460120201110839844e+00,1.460011005401611328e+00,1.459902048110961914e+00,1.459792971611022949e+00,1.459683895111083984e+00,1.459574699401855469e+00,1.459465742111206055e+00,1.459356784820556641e+00,1.459247708320617676e+00,1.459138751029968262e+00,1.459029674530029297e+00,1.458920717239379883e+00,1.458811879158020020e+00,1.458702921867370605e+00,1.458593964576721191e+00,1.458485126495361328e+00
1.349251985549926758e+00,1.349158763885498047e+00,1.349065542221069336e+00,1.348972439765930176e+00,1.348879218101501465e+00,1.348786234855651855e+00,1.348693132400512695e+00,1.348599910736083984e+00,1.348506808280944824e+00,1.348413705825805664e+00,1.348320722579956055e+00,1.348227739334106445e+00,1.348134636878967285e+00,1.348041534423828125e+00,1.347948551177978516e+00,1.347855687141418457e+00,1.347762584686279297e+00,1.347669601440429688e+00,1.347576618194580078e+00,1.347483634948730469e+00,1.347390770912170410e+00,1.347297906875610352e+00,1.347204923629760742e+00,1.347112059593200684e+00,1.347019195556640625e+00,1.346926331520080566e+00,1.346833467483520508e+00,1.346740603446960449e+00,1.346647739410400391e+00,1.346554875373840332e+00,1.346462130546569824e+00,1.346369385719299316e+00,1.346276521682739258e+00,1.346183776855468750e+00,1.346091032028198242e+00,1.345998287200927734e+00,1.345905542373657227e+00,1.345812797546386719e+00,1.345720171928405762e+00,1.345627427101135254e+00,1.345534682273864746e+00,1.345442175865173340e+00,1.345349431037902832e+00,1.345256805419921875e+00,1.345164179801940918e+00,1.345071434974670410e+00,1.344978928565979004e+00,1.344886302947998047e+00,1.344793796539306641e+00,1.344701170921325684e+00,1.344608545303344727e+00,1.344516158103942871e+00,1.344423532485961914e+00,1.344331026077270508e+00,1.344238519668579102e+00,1.344146013259887695e+00,1.344053506851196289e+00,1.343961119651794434e+00,1.343868613243103027e+00,1.343776226043701172e+00,1.343683719635009766e+00,1.343591332435607910e+00,1.343498945236206055e+00,1.343406558036804199e+00,1.343314170837402344e+00,1.343221783638000488e+00,1.343129396438598633e+00,1.343037128448486328e+00,1.342944860458374023e+00,1.342852473258972168e+00,1.342760205268859863e+00,1.342667818069458008e+00,1.342575669288635254e+00,1.342483401298522949e+00,1.342391133308410645e+00,1.342298865318298340e+00,1.342206597328186035e+00,1.342114448547363281e+00,1.342022299766540527e+00,1.341930031776428223e+00
1.248901247978210449e+00,1.248821496963500977e+00,1.248741626739501953e+00,1.248661756515502930e+00,1.248582005500793457e+00,1.248502135276794434e+00,1.248422503471374512e+00,1.248342633247375488e+00,1.248262882232666016e+00,1.248183131217956543e+00,1.248103380203247070e+00,1.248023629188537598e+00,1.247943997383117676e+00,1.247864246368408203e+00,1.247784495353698730e+00,1.247704744338989258e+00,1.247625112533569336e+00,1.247545480728149414e+00,1.247465729713439941e+00,1.247386097908020020e+00,1.247306466102600098e+00,1.247226953506469727e+00,1.247147202491760254e+00,1.247067570686340332e+00,1.246988058090209961e+00,1.246908426284790039e+00,1.246828794479370117e+00,1.246749281883239746e+00,1.246669769287109375e+00,1.246590137481689453e+00,1.246510624885559082e+00,1.246430993080139160e+00,1.246351599693298340e+00,1.246272087097167969e+00,1.246192574501037598e+00,1.246113061904907227e+00,1.246033549308776855e+00,1.245954155921936035e+00,1.245874643325805664e+00,1.245795130729675293e+00,1.245715737342834473e+00,1.245636224746704102e+00,1.245556950569152832e+00,1.245477557182312012e+00,1.245398044586181641e+00,1.245318651199340820e+00,1.245239257812500000e+00,1.245159983634948730e+00,1.245080590248107910e+00,1.245001196861267090e+00,1.244921922683715820e+00,1.244842529296875000e+00,1.244763255119323730e+00,1.244683980941772461e+00,1.244604706764221191e+00,1.244525313377380371e+00,1.244446039199829102e+00,1.244366765022277832e+00,1.244287610054016113e+00,1.244208335876464844e+00,1.244129061698913574e+00,1.244049787521362305e+00,1.243970632553100586e+00,1.243891477584838867e+00,1.243812203407287598e+00,1.243733048439025879e+00,1.243653774261474609e+00,1.243574619293212891e+00,1.243495583534240723e+00,1.243416428565979004e+00,1.243337273597717285e+00,1.243258118629455566e+00,1.243178963661193848e+00,1.243099808692932129e+00,1.243020772933959961e+00,1.242941737174987793e+00,1.242862582206726074e+00,1.242783546447753906e+00,1.242704510688781738e+00,1.242625474929809570e+00
1.162444472312927246e+00,1.162375211715698242e+00,1.162306189537048340e+00,1.162237048149108887e+00,1.162167787551879883e+00,1.162098646163940430e+00,1.162029504776000977e+00,1.161960482597351074e+00,1.161891341209411621e+00,1.161822199821472168e+00,1.161753177642822266e+00,1.161684036254882812e+00,1.161615014076232910e+00,1.161545991897583008e+00,1.161476850509643555e+00,1.161407828330993652e+00,1.161338806152343750e+00,1.161269664764404297e+00,1.161200761795043945e+00,1.161131739616394043e+00,1.161062717437744141e+00,1.160993695259094238e+00,1.160924673080444336e+00,1.160855770111083984e+00,1.160786747932434082e+00,1.160717725753784180e+00,1.160648822784423828e+00,1.160579800605773926e+00,1.160510897636413574e+00,1.160441994667053223e+00,1.160372972488403320e+00,1.160304069519042969e+00,1.160235166549682617e+00,1.160166263580322266e+00,1.160097360610961914e+00,1.160028457641601562e+00,1.159959554672241211e+00,1.159890770912170410e+00,1.159821867942810059e+00,1.159753084182739258e+00,1.159684181213378906e+00,1.159615278244018555e+00,1.159546494483947754e+00,1.159477591514587402e+00,1.159408926963806152e+00,1.159340023994445801e+00,1.159271240234375000e+00,1.159202456474304199e+00,1.159133672714233398e+00,1.159064888954162598e+00,1.158996105194091797e+00,1.158927440643310547e+00,1.158858656883239746e+00,1.158789873123168945e+00,1.158721208572387695e+00,1.158652424812316895e+00,1.158583760261535645e+00,1.158514976501464844e+00,1.158446311950683594e+00,1.158377647399902344e+00,1.158308982849121094e+00,1.158240318298339844e+00,1.158171653747558594e+00,1.158102989196777344e+00,1.158034324645996094e+00,1.157965660095214844e+00,1.157896995544433594e+00,1.157828450202941895e+00,1.157759785652160645e+00,1.157691121101379395e+00,1.157622575759887695e+00,1.157554030418395996e+00,1.157485365867614746e+00,1.157416820526123047e+00,1.157348275184631348e+00,1.157279729843139648e+00,1.157211184501647949e+00,1.157142639160156250e+00,1.157074093818664551e+00,1.157005548477172852e+00
1.087182760238647461e+00,1.087122201919555664e+00,1.087061762809753418e+00,1.087001323699951172e+00,1.086940765380859375e+00,1.086880326271057129e+00,1.086819887161254883e+00,1.086759328842163086e+00,1.086699008941650391e+00,1.086638450622558594e+00,1.086578011512756348e+00,1.086517572402954102e+00,1.086457133293151855e+00,1.086396694183349609e+00,1.086336374282836914e+00,1.086275935173034668e+00,1.086215496063232422e+00,1.086155176162719727e+00,1.086094737052917480e+00,1.086034417152404785e+00,1.085973978042602539e+00,1.085913658142089844e+00,1.085853338241577148e+00,1.085792899131774902e+00,1.085732579231262207e+00,1.085672259330749512e+00,1.085611939430236816e+00,1.085551619529724121e+00,1.085491299629211426e+00,1.085430979728698730e+00,1.085370659828186035e+00,1.085310339927673340e+00,1.085250139236450195e+00,1.085189819335937500e+00,1.085129499435424805e+00,1.085069298744201660e+00,1.085008978843688965e+00,1.084948778152465820e+00,1.084888458251953125e+00,1.084828257560729980e+00,1.084768056869506836e+00,1.084707736968994141e+00,1.084647536277770996e+00,1.084587335586547852e+00,1.084527015686035156e+00,1.084466934204101562e+00,1.084406733512878418e+00,1.084346532821655273e+00,1.084286332130432129e+00,1.084226131439208984e+00,1.084166049957275391e+00,1.084105849266052246e+00,1.084045648574829102e+00,1.083985447883605957e+00,1.083925366401672363e+00,1.083865284919738770e+00,1.083805084228515625e+00,1.083745002746582031e+00,1.083684802055358887e+00,1.083624720573425293e+00,1.083564639091491699e+00,1.083504557609558105e+00,1.083444476127624512e+00,1.083384394645690918e+00,1.083324313163757324e+00,1.083264231681823730e+00,1.083204150199890137e+00,1.083144068717956543e+00,1.083083987236022949e+00,1.083024024963378906e+00,1.082963943481445312e+00,1.082903981208801270e+00,1.082843899726867676e+00,1.082783818244934082e+00,1.082723855972290039e+00,1.082663774490356445e+00,1.082603931427001953e+00,1.082543849945068359e+00,1.082483887672424316e+00,1.082423925399780273e+00
1.021074056625366211e+00,1.021020650863647461e+00,1.020967245101928711e+00,1.020913839340209961e+00,1.020860552787780762e+00,1.020807266235351562e+00,1.020753860473632812e+00,1.020700573921203613e+00,1.020647168159484863e+00,1.020593881607055664e+00,1.020540595054626465e+00,1.020487308502197266e+00,1.020434021949768066e+00,1.020380616188049316e+00,1.020327329635620117e+00,1.020274162292480469e+00,1.020220756530761719e+00,1.020167469978332520e+00,1.020114183425903320e+00,1.020061016082763672e+00,1.020007729530334473e+00,1.019954442977905273e+00,1.019901275634765625e+00,1.019847989082336426e+00,1.019794702529907227e+00,1.019741535186767578e+00,1.019688248634338379e+00,1.019635081291198730e+00,1.019581794738769531e+00,1.019528627395629883e+00,1.019475460052490234e+00,1.019422292709350586e+00,1.019369006156921387e+00,1.019315838813781738e+00,1.019262671470642090e+00,1.019209504127502441e+00,1.019156336784362793e+00,1.019103169441223145e+00,1.019050002098083496e+00,1.018996834754943848e+00,1.018943667411804199e+00,1.018890619277954102e+00,1.018837451934814453e+00,1.018784284591674805e+00,1.018731117248535156e+00,1.018678069114685059e+00,1.018624901771545410e+00,1.018571853637695312e+00,1.018518686294555664e+00,1.018465638160705566e+00,1.018412470817565918e+00,1.018359422683715820e+00,1.018306374549865723e+00,1.018253207206726074e+00,1.018200159072875977e+00,1.018147110939025879e+00,1.018094062805175781e+00,1.018041014671325684e+00,1.017987966537475586e+00,1.017934918403625488e+00,1.017881870269775391e+00,1.017828822135925293e+00,1.017775893211364746e+00,1.017722845077514648e+00,1.017669796943664551e+00,1.017616748809814453e+00,1.017563700675964355e+00,1.017510771751403809e+00,1.017457723617553711e+00,1.017404794692993164e+00,1.017351746559143066e+00,1.017298817634582520e+00,1.017245888710021973e+00,1.017192840576171875e+00,1.017139911651611328e+00,1.017086982727050781e+00,1.017033934593200684e+00,1.016981124877929688e+00,1.016928195953369141e+00,1.016875147819519043e+00
9.625442028045654297e-01,9.624968171119689941e-01,9.624494314193725586e-01,9.624019265174865723e-01,9.623545408248901367e-01,9.623070955276489258e-01,9.622597098350524902e-01,9.622123837471008301e-01,9.621649384498596191e-01,9.621176123619079590e-01,9.620701670646667480e-01,9.620228409767150879e-01,9.619755148887634277e-01,9.619280695915222168e-01,9.618807435035705566e-01,9.618332982063293457e-01,9.617860317230224609e-01,9.617387056350708008e-01,9.616913199424743652e-01,9.616439938545227051e-01,9.615966081619262695e-01,9.615493416786193848e-01,9.615020155906677246e-01,9.614546298980712891e-01,9.614073634147644043e-01,9.613599777221679688e-01,9.613127112388610840e-01,9.612655043601989746e-01,9.612181186676025391e-01,9.611708521842956543e-01,9.611235260963439941e-01,9.610762596130371094e-01,9.610290527343750000e-01,9.609817266464233398e-01,9.609344601631164551e-01,9.608871340751647949e-01,9.608399271965026855e-01,9.607927203178405762e-01,9.607453942298889160e-01,9.606981873512268066e-01,9.606508612632751465e-01,9.606037139892578125e-01,9.605565071105957031e-01,9.605092406272888184e-01,9.604620337486267090e-01,9.604147672653198242e-01,9.603675603866577148e-01,9.603204131126403809e-01,9.602731466293334961e-01,9.602259993553161621e-01,9.601787328720092773e-01,9.601315855979919434e-01,9.600843191146850586e-01,9.600371718406677246e-01,9.599900841712951660e-01,9.599428176879882812e-01,9.598956704139709473e-01,9.598484635353088379e-01,9.598013758659362793e-01,9.597542285919189453e-01,9.597070217132568359e-01,9.596599340438842773e-01,9.596127271652221680e-01,9.595656394958496094e-01,9.595185518264770508e-01,9.594713449478149414e-01,9.594242572784423828e-01,9.593771100044250488e-01,9.593300223350524902e-01,9.592829346656799316e-01,9.592357873916625977e-01,9.591887593269348145e-01,9.591415524482727051e-01,9.590945243835449219e-01,9.590474963188171387e-01,9.590003490447998047e-01,9.589533209800720215e-01,9.589061737060546875e-01,9.588591456413269043e-01,9.588121175765991211e-01
9.103606939315795898e-01,9.103182554244995117e-01,9.102758765220642090e-01,9.102334976196289062e-01,9.101909995079040527e-01,9.101486206054687500e-01,9.101061820983886719e-01,9.100638031959533691e-01,9.100214838981628418e-01,9.099790453910827637e-01,9.099366664886474609e-01,9.098942279815673828e-01,9.098519086837768555e-01,9.098095893859863281e-01,9.097671508789062500e-01,9.097248315811157227e-01,9.096823930740356445e-01,9.096400737762451172e-01,9.095977544784545898e-01,9.095553755760192871e-01,9.095130562782287598e-01,9.094706177711486816e-01,9.094283580780029297e-01,9.093860387802124023e-01,9.093436598777770996e-01,9.093014001846313477e-01,9.092590212821960449e-01,9.092167019844055176e-01,9.091744422912597656e-01,9.091320633888244629e-01,9.090898036956787109e-01,9.090474247932434082e-01,9.090051651000976562e-01,9.089629054069519043e-01,9.089205861091613770e-01,9.088783264160156250e-01,9.088360071182250977e-01,9.087937474250793457e-01,9.087514877319335938e-01,9.087091684341430664e-01,9.086669683456420898e-01,9.086246490478515625e-01,9.085824489593505859e-01,9.085401296615600586e-01,9.084978699684143066e-01,9.084556698799133301e-01,9.084133505821228027e-01,9.083712100982666016e-01,9.083288908004760742e-01,9.082866907119750977e-01,9.082444906234741211e-01,9.082022309303283691e-01,9.081600308418273926e-01,9.081177711486816406e-01,9.080756306648254395e-01,9.080334305763244629e-01,9.079911708831787109e-01,9.079490303993225098e-01,9.079067707061767578e-01,9.078646302223205566e-01,9.078224301338195801e-01,9.077802300453186035e-01,9.077380895614624023e-01,9.076958298683166504e-01,9.076536893844604492e-01,9.076115489006042480e-01,9.075693488121032715e-01,9.075272083282470703e-01,9.074850082397460938e-01,9.074428677558898926e-01,9.074007868766784668e-01,9.073585867881774902e-01,9.073165059089660645e-01,9.072743058204650879e-01,9.072321653366088867e-01,9.071900844573974609e-01,9.071479439735412598e-01,9.071058034896850586e-01,9.070636630058288574e-01,9.070215821266174316e-01
8.635443449020385742e-01,8.635061979293823242e-01,8.634679913520812988e-01,8.634298443794250488e-01,8.633917570114135742e-01,8.633535504341125488e-01,8.633154034614562988e-01,8.632771968841552734e-01,8.632391095161437988e-01,8.632010221481323242e-01,8.631628155708312988e-01,8.631247282028198242e-01,8.630865216255187988e-01,8.630484342575073242e-01,8.630103468894958496e-01,8.629721403121948242e-01,8.629340529441833496e-01,8.628959059715270996e-01,8.628578186035156250e-01,8.628197312355041504e-01,8.627815842628479004e-01,8.627434968948364258e-01,8.627053499221801758e-01,8.626673221588134766e-01,8.626292347908020020e-01,8.625910878181457520e-01,8.625530600547790527e-01,8.625149130821228027e-01,8.624768853187561035e-01,8.624388575553894043e-01,8.624007105827331543e-01,8.623626828193664551e-01,8.623245358467102051e-01,8.622865080833435059e-01,8.622484207153320312e-01,8.622103929519653320e-01,8.621723651885986328e-01,8.621342778205871582e-01,8.620962500572204590e-01,8.620581626892089844e-01,8.620201945304870605e-01,8.619821667671203613e-01,8.619440793991088867e-01,8.619061112403869629e-01,8.618680238723754883e-01,8.618300557136535645e-01,8.617920279502868652e-01,8.617540001869201660e-01,8.617159724235534668e-01,8.616779446601867676e-01,8.616399765014648438e-01,8.616020083427429199e-01,8.615639805793762207e-01,8.615260124206542969e-01,8.614879250526428223e-01,8.614500164985656738e-01,8.614120483398437500e-01,8.613740205764770508e-01,8.613360524177551270e-01,8.612980246543884277e-01,8.612601161003112793e-01,8.612221479415893555e-01,8.611841201782226562e-01,8.611462116241455078e-01,8.611082434654235840e-01,8.610702753067016602e-01,8.610323667526245117e-01,8.609943985939025879e-01,8.609564900398254395e-01,8.609184622764587402e-01,8.608805537223815918e-01,8.608426451683044434e-01,8.608046770095825195e-01,8.607667684555053711e-01,8.607288002967834473e-01,8.606909513473510742e-01,8.606530427932739258e-01,8.606150746345520020e-01,8.605772256851196289e-01,8.605392575263977051e-01
8.213077187538146973e-01,8.212731480598449707e-01,8.212386369705200195e-01,8.212040662765502930e-01,8.211696147918701172e-01,8.211351037025451660e-01,8.211005330085754395e-01,8.210660815238952637e-01,8.210315108299255371e-01,8.209970593452453613e-01,8.209626078605651855e-01,8.209280371665954590e-01,8.208935856819152832e-01,8.208590149879455566e-01,8.208245635032653809e-01,8.207901120185852051e-01,8.207556009292602539e-01,8.207211494445800781e-01,8.206866383552551270e-01,8.206521868705749512e-01,8.206177353858947754e-01,8.205832242965698242e-01,8.205487728118896484e-01,8.205142617225646973e-01,8.204798698425292969e-01,8.204454183578491211e-01,8.204109072685241699e-01,8.203765153884887695e-01,8.203420042991638184e-01,8.203076124191284180e-01,8.202731013298034668e-01,8.202387094497680664e-01,8.202042579650878906e-01,8.201698064804077148e-01,8.201354146003723145e-01,8.201009035110473633e-01,8.200665116310119629e-01,8.200321197509765625e-01,8.199976682662963867e-01,8.199632763862609863e-01,8.199288249015808105e-01,8.198944330215454102e-01,8.198600411415100098e-01,8.198255896568298340e-01,8.197912573814392090e-01,8.197568058967590332e-01,8.197224140167236328e-01,8.196880817413330078e-01,8.196536302566528320e-01,8.196192979812622070e-01,8.195848464965820312e-01,8.195505142211914062e-01,8.195161223411560059e-01,8.194817304611206055e-01,8.194473385810852051e-01,8.194129467010498047e-01,8.193786144256591797e-01,8.193442821502685547e-01,8.193098902702331543e-01,8.192755579948425293e-01,8.192411065101623535e-01,8.192068338394165039e-01,8.191725015640258789e-01,8.191381096839904785e-01,8.191037774085998535e-01,8.190693855285644531e-01,8.190351128578186035e-01,8.190007805824279785e-01,8.189663887023925781e-01,8.189321160316467285e-01,8.188977241516113281e-01,8.188634514808654785e-01,8.188291192054748535e-01,8.187947869300842285e-01,8.187605142593383789e-01,8.187261223793029785e-01,8.186918497085571289e-01,8.186575770378112793e-01,8.186232447624206543e-01,8.185889720916748047e-01
7.830100655555725098e-01,7.829787135124206543e-01,7.829472422599792480e-01,7.829158902168273926e-01,7.828844785690307617e-01,7.828531265258789062e-01,7.828218340873718262e-01,7.827904224395751953e-01,7.827590703964233398e-01,7.827276587486267090e-01,7.826963067054748535e-01,7.826650142669677734e-01,7.826336026191711426e-01,7.826022505760192871e-01,7.825708985328674316e-01,7.825395464897155762e-01,7.825082540512084961e-01,7.824768424034118652e-01,7.824455499649047852e-01,7.824141383171081543e-01,7.823828458786010742e-01,7.823515534400939941e-01,7.823202013969421387e-01,7.822889089584350586e-01,7.822574973106384277e-01,7.822262048721313477e-01,7.821948528289794922e-01,7.821635603904724121e-01,7.821322679519653320e-01,7.821009159088134766e-01,7.820696234703063965e-01,7.820382714271545410e-01,7.820070385932922363e-01,7.819757461547851562e-01,7.819443941116333008e-01,7.819131016731262207e-01,7.818818092346191406e-01,7.818505167961120605e-01,7.818192839622497559e-01,7.817879319190979004e-01,7.817566990852355957e-01,7.817253470420837402e-01,7.816941142082214355e-01,7.816628813743591309e-01,7.816315293312072754e-01,7.816002964973449707e-01,7.815690040588378906e-01,7.815377116203308105e-01,7.815064787864685059e-01,7.814751863479614258e-01,7.814439535140991211e-01,7.814126610755920410e-01,7.813814282417297363e-01,7.813501954078674316e-01,7.813189029693603516e-01,7.812877297401428223e-01,7.812564373016357422e-01,7.812252044677734375e-01,7.811939716339111328e-01,7.811626791954040527e-01,7.811315059661865234e-01,7.811002135276794434e-01,7.810690402984619141e-01,7.810378074645996094e-01,7.810065746307373047e-01,7.809753417968750000e-01,7.809441089630126953e-01,7.809129357337951660e-01,7.808817028999328613e-01,7.808504700660705566e-01,7.808192968368530273e-01,7.807880640029907227e-01,7.807568907737731934e-01,7.807255983352661133e-01,7.806944251060485840e-01,7.806632518768310547e-01,7.806320190429687500e-01,7.806008458137512207e-01,7.805696129798889160e-01,7.805384993553161621e-01
7.481248378753662109e-01,7.480962276458740234e-01,7.480676174163818359e-01,7.480389475822448730e-01,7.480103373527526855e-01,7.479816675186157227e-01,7.479530572891235352e-01,7.479244470596313477e-01,7.478957772254943848e-01,7.478671669960021973e-01,7.478384971618652344e-01,7.478098869323730469e-01,7.477812767028808594e-01,7.477526068687438965e-01,7.477239966392517090e-01,7.476953864097595215e-01,7.476667761802673340e-01,7.476381063461303711e-01,7.476095557212829590e-01,7.475809454917907715e-01,7.475522756576538086e-01,7.475237250328063965e-01,7.474950551986694336e-01,7.474665045738220215e-01,7.474379539489746094e-01,7.474092841148376465e-01,7.473807334899902344e-01,7.473521232604980469e-01,7.473235130310058594e-01,7.472949624061584473e-01,7.472663521766662598e-01,7.472378015518188477e-01,7.472091913223266602e-01,7.471806406974792480e-01,7.471520900726318359e-01,7.471234798431396484e-01,7.470949292182922363e-01,7.470663189888000488e-01,7.470377683639526367e-01,7.470092177391052246e-01,7.469806075096130371e-01,7.469520568847656250e-01,7.469235062599182129e-01,7.468949556350708008e-01,7.468664050102233887e-01,7.468378543853759766e-01,7.468093037605285645e-01,7.467807531356811523e-01,7.467522025108337402e-01,7.467237114906311035e-01,7.466951012611389160e-01,7.466666102409362793e-01,7.466380000114440918e-01,7.466095089912414551e-01,7.465810179710388184e-01,7.465524077415466309e-01,7.465239167213439941e-01,7.464953660964965820e-01,7.464668750762939453e-01,7.464383840560913086e-01,7.464098334312438965e-01,7.463813424110412598e-01,7.463527917861938477e-01,7.463243007659912109e-01,7.462958097457885742e-01,7.462672591209411621e-01,7.462387681007385254e-01,7.462102174758911133e-01,7.461817264556884766e-01,7.461531758308410645e-01,7.461247444152832031e-01,7.460962533950805664e-01,7.460677027702331543e-01,7.460392713546752930e-01,7.460107207298278809e-01,7.459822893142700195e-01,7.459537982940673828e-01,7.459253072738647461e-01,7.458968162536621094e-01,7.458683252334594727e-01
7.162156105041503906e-01,7.161893248558044434e-01,7.161630988121032715e-01,7.161368727684020996e-01,7.161105871200561523e-01,7.160843610763549805e-01,7.160580754280090332e-01,7.160318493843078613e-01,7.160056233406066895e-01,7.159793376922607422e-01,7.159531116485595703e-01,7.159268856048583984e-01,7.159006595611572266e-01,7.158743739128112793e-01,7.158481478691101074e-01,7.158219814300537109e-01,7.157956957817077637e-01,7.157694697380065918e-01,7.157432436943054199e-01,7.157170176506042480e-01,7.156908512115478516e-01,7.156645655632019043e-01,7.156383991241455078e-01,7.156121134757995605e-01,7.155859470367431641e-01,7.155597805976867676e-01,7.155334949493408203e-01,7.155073285102844238e-01,7.154811024665832520e-01,7.154549360275268555e-01,7.154287695884704590e-01,7.154024839401245117e-01,7.153763175010681152e-01,7.153500914573669434e-01,7.153239250183105469e-01,7.152977585792541504e-01,7.152715325355529785e-01,7.152453660964965820e-01,7.152191400527954102e-01,7.151929736137390137e-01,7.151668667793273926e-01,7.151406407356262207e-01,7.151144742965698242e-01,7.150882482528686523e-01,7.150620818138122559e-01,7.150359749794006348e-01,7.150097489356994629e-01,7.149835824966430664e-01,7.149574160575866699e-01,7.149312496185302734e-01,7.149051427841186523e-01,7.148789167404174805e-01,7.148528099060058594e-01,7.148265838623046875e-01,7.148004770278930664e-01,7.147743701934814453e-01,7.147481441497802734e-01,7.147220373153686523e-01,7.146958708763122559e-01,7.146697044372558594e-01,7.146435379981994629e-01,7.146174311637878418e-01,7.145913243293762207e-01,7.145651578903198242e-01,7.145390510559082031e-01,7.145128846168518066e-01,7.144867777824401855e-01,7.144606709480285645e-01,7.144345045089721680e-01,7.144083976745605469e-01,7.143822312355041504e-01,7.143561244010925293e-01,7.143300175666809082e-01,7.143038511276245117e-01,7.142777442932128906e-01,7.142516374588012695e-01,7.142255306243896484e-01,7.141994237899780273e-01,7.141733169555664062e-01,7.141472101211547852e-01
