5.000000000000000000e+00,5.000000000000000000e+00,5.000000000000000000e+00,5.000000000000000000e+00,5.000000000000000000e+00,5.000000000000000000e+00,5.000000000000000000e+00,5.000000000000000000e+00,5.000000000000000000e+00,5.000000000000000000e+00,5.000000000000000000e+00,5.000000000000000000e+00,5.000000000000000000e+00,5.000000000000000000e+00,5.000000000000000000e+00,5.000000000000000000e+00,5.000000000000000000e+00,5.000000000000000000e+00,5.000000000000000000e+00,5.000000000000000000e+00,5.000000000000000000e+00,5.000000000000000000e+00,5.000000000000000000e+00,5.000000000000000000e+00,5.000000000000000000e+00,5.000000000000000000e+00,5.000000000000000000e+00,5.000000000000000000e+00,5.000000000000000000e+00,5.000000000000000000e+00,5.000000000000000000e+00,5.000000000000000000e+00,5.000000000000000000e+00,5.000000000000000000e+00,5.000000000000000000e+00,5.000000000000000000e+00,5.000000000000000000e+00,5.000000000000000000e+00,5.000000000000000000e+00,5.000000000000000000e+00,5.000000000000000000e+00,5.000000000000000000e+00,4.330760955810546875e+00,4.178594112396240234e+00,4.036757946014404297e+00,3.904234647750854492e+00,3.780135393142700195e+00,3.663682699203491211e+00,3.554190397262573242e+00,3.451052904129028320e+00,3.353732109069824219e+00,3.261750221252441406e+00,3.174678564071655273e+00,3.092134952545166016e+00,3.013775110244750977e+00,2.939288616180419922e+00,2.868395090103149414e+00,2.800840854644775391e+00,2.736395597457885742e+00,2.674849033355712891e+00,2.616010427474975586e+00,2.559704303741455078e+00,2.505771398544311523e+00,2.454063892364501953e+00,2.404447555541992188e+00,2.356797456741333008e+00,2.310999393463134766e+00,2.266947269439697266e+00,2.224543333053588867e+00,2.183696508407592773e+00,2.144322633743286133e+00,2.106343746185302734e+00,2.069686412811279297e+00,2.034283638000488281e+00,2.000071287155151367e+00,1.966990828514099121e+00,1.934986472129821777e+00,1.904007196426391602e+00,1.874004244804382324e+00,1.844932317733764648e+00
5.000000000000000000e+00,5.000000000000000000e+00,5.000000000000000000e+00,5.000000000000000000e+00,5.000000000000000000e+00,5.000000000000000000e+00,5.000000000000000000e+00,5.000000000000000000e+00,5.000000000000000000e+00,5.000000000000000000e+00,5.000000000000000000e+00,5.000000000000000000e+00,5.000000000000000000e+00,5.000000000000000000e+00,5.000000000000000000e+00,5.000000000000000000e+00,5.000000000000000000e+00,5.000000000000000000e+00,5.000000000000000000e+00,5.000000000000000000e+00,5.000000000000000000e+00,5.000000000000000000e+00,5.000000000000000000e+00,5.000000000000000000e+00,5.000000000000000000e+00,5.000000000000000000e+00,5.000000000000000000e+00,5.000000000000000000e+00,5.000000000000000000e+00,5.000000000000000000e+00,5.000000000000000000e+00,5.000000000000000000e+00,5.000000000000000000e+00,5.000000000000000000e+00,5.000000000000000000e+00,5.000000000000000000e+00,5.000000000000000000e+00,5.000000000000000000e+00,5.000000000000000000e+00,5.000000000000000000e+00,5.000000000000000000e+00,4.494548320770263672e+00,4.330871582031250000e+00,4.178697109222412109e+00,4.036853790283203125e+00,3.904324531555175781e+00,3.780219793319702148e+00,3.663761854171752930e+00,3.554264783859252930e+00,3.451123237609863281e+00,3.353798389434814453e+00,3.261812925338745117e+00,3.174738168716430664e+00,3.092191457748413086e+00,3.013828754425048828e+00,2.939339399337768555e+00,2.868443727493286133e+00,2.800887107849121094e+00,2.736439704895019531e+00,2.674891233444213867e+00,2.616050720214843750e+00,2.559742927551269531e+00,2.505808353424072266e+00,2.454099416732788086e+00,2.404481649398803711e+00,2.356830358505249023e+00,2.311031103134155273e+00,2.266977548599243164e+00,2.224572658538818359e+00,2.183724641799926758e+00,2.144349813461303711e+00,2.106369972229003906e+00,2.069711685180664062e+00,2.034307956695556641e+00,2.000094890594482422e+00,1.967013716697692871e+00,1.935008525848388672e+00,1.904028654098510742e+00,1.874024987220764160e+00,1.844952344894409180e+00
5.000000000000000000e+00,5.000000000000000000e+00,5.000000000000000000e+00,5.000000000000000000e+00,5.000000000000000000e+00,5.000000000000000000e+00,5.000000000000000000e+00,5.000000000000000000e+00,5.000000000000000000e+00,5.000000000000000000e+00,5.000000000000000000e+00,5.000000000000000000e+00,5.000000000000000000e+00,5.000000000000000000e+00,5.000000000000000000e+00,5.000000000000000000e+00,5.000000000000000000e+00,5.000000000000000000e+00,5.000000000000000000e+00,5.000000000000000000e+00,5.000000000000000000e+00,5.000000000000000000e+00,5.000000000000000000e+00,5.000000000000000000e+00,5.000000000000000000e+00,5.000000000000000000e+00,5.000000000000000000e+00,5.000000000000000000e+00,5.000000000000000000e+00,5.000000000000000000e+00,5.000000000000000000e+00,5.000000000000000000e+00,5.000000000000000000e+00,5.000000000000000000e+00,5.000000000000000000e+00,5.000000000000000000e+00,5.000000000000000000e+00,5.000000000000000000e+00,5.000000000000000000e+00,5.000000000000000000e+00,4.671210765838623047e+00,4.494667530059814453e+00,4.330982208251953125e+00,4.178800582885742188e+00,4.036950111389160156e+00,3.904414415359497070e+00,3.780303955078125000e+00,3.663841247558593750e+00,3.554339408874511719e+00,3.451193332672119141e+00,3.353864908218383789e+00,3.261875629425048828e+00,3.174797534942626953e+00,3.092247724533081055e+00,3.013882398605346680e+00,2.939390420913696289e+00,2.868492364883422852e+00,2.800933361053466797e+00,2.736483812332153320e+00,2.674933433532714844e+00,2.616091251373291016e+00,2.559781789779663086e+00,2.505845308303833008e+00,2.454134941101074219e+00,2.404515743255615234e+00,2.356863021850585938e+00,2.311062574386596680e+00,2.267008066177368164e+00,2.224601745605468750e+00,2.183752775192260742e+00,2.144376993179321289e+00,2.106396198272705078e+00,2.069736957550048828e+00,2.034332275390625000e+00,2.000118494033813477e+00,1.967036485671997070e+00,1.935030698776245117e+00,1.904049992561340332e+00,1.874045729637145996e+00,1.844972491264343262e+00
5.000000000000000000e+00,5.000000000000000000e+00,5.000000000000000000e+00,5.000000000000000000e+00,5.000000000000000000e+00,5.000000000000000000e+00,5.000000000000000000e+00,5.000000000000000000e+00,5.000000000000000000e+00,5.000000000000000000e+00,5.000000000000000000e+00,5.000000000000000000e+00,5.000000000000000000e+00,5.000000000000000000e+00,5.000000000000000000e+00,5.000000000000000000e+00,5.000000000000000000e+00,5.000000000000000000e+00,5.000000000000000000e+00,5.000000000000000000e+00,5.000000000000000000e+00,5.000000000000000000e+00,5.000000000000000000e+00,5.000000000000000000e+00,5.000000000000000000e+00,5.000000000000000000e+00,5.000000000000000000e+00,5.000000000000000000e+00,5.000000000000000000e+00,5.000000000000000000e+00,5.000000000000000000e+00,5.000000000000000000e+00,5.000000000000000000e+00,5.000000000000000000e+00,5.000000000000000000e+00,5.000000000000000000e+00,5.000000000000000000e+00,5.000000000000000000e+00,5.000000000000000000e+00,4.862329483032226562e+00,4.671339511871337891e+00,4.494786739349365234e+00,4.331092834472656250e+00,4.178903579711914062e+00,4.037046432495117188e+00,3.904504299163818359e+00,3.780388355255126953e+00,3.663920402526855469e+00,3.554414033889770508e+00,3.451263666152954102e+00,3.353931188583374023e+00,3.261938571929931641e+00,3.174857139587402344e+00,3.092304229736328125e+00,3.013935804367065430e+00,2.939441442489624023e+00,2.868540763854980469e+00,2.800979852676391602e+00,2.736528158187866211e+00,2.674975633621215820e+00,2.616131544113159180e+00,2.559820413589477539e+00,2.505882501602172852e+00,2.454170465469360352e+00,2.404549837112426758e+00,2.356895923614501953e+00,2.311094045639038086e+00,2.267038345336914062e+00,2.224631071090698242e+00,2.183780908584594727e+00,2.144404172897338867e+00,2.106422185897827148e+00,2.069762229919433594e+00,2.034356832504272461e+00,2.000142097473144531e+00,1.967059373855590820e+00,1.935052752494812012e+00,1.904071450233459473e+00,1.874066472053527832e+00,1.844992518424987793e+00
5.000000000000000000e+00,5.000000000000000000e+00,5.000000000000000000e+00,5.000000000000000000e+00,5.000000000000000000e+00,5.000000000000000000e+00,5.000000000000000000e+00,5.000000000000000000e+00,5.000000000000000000e+00,5.000000000000000000e+00,5.000000000000000000e+00,5.000000000000000000e+00,5.000000000000000000e+00,5.000000000000000000e+00,5.000000000000000000e+00,5.000000000000000000e+00,5.000000000000000000e+00,5.000000000000000000e+00,5.000000000000000000e+00,5.000000000000000000e+00,5.000000000000000000e+00,5.000000000000000000e+00,5.000000000000000000e+00,5.000000000000000000e+00,5.000000000000000000e+00,5.000000000000000000e+00,5.000000000000000000e+00,5.000000000000000000e+00,5.000000000000000000e+00,5.000000000000000000e+00,5.000000000000000000e+00,5.000000000000000000e+00,5.000000000000000000e+00,5.000000000000000000e+00,5.000000000000000000e+00,5.000000000000000000e+00,5.000000000000000000e+00,5.000000000000000000e+00,5.000000000000000000e+00,4.862468719482421875e+00,4.671468257904052734e+00,4.494905948638916016e+00,4.331203937530517578e+00,4.179006576538085938e+00,4.037142276763916016e+00,3.904594421386718750e+00,3.780472755432128906e+00,3.663999557495117188e+00,3.554488420486450195e+00,3.451333999633789062e+00,3.353997707366943359e+00,3.262001276016235352e+00,3.174916505813598633e+00,3.092360496520996094e+00,3.013989448547363281e+00,2.939492464065551758e+00,2.868589401245117188e+00,2.801026105880737305e+00,2.736572265625000000e+00,2.675017833709716797e+00,2.616171836853027344e+00,2.559859037399291992e+00,2.505919456481933594e+00,2.454205989837646484e+00,2.404583930969238281e+00,2.356928586959838867e+00,2.311125516891479492e+00,2.267068624496459961e+00,2.224660158157348633e+00,2.183809041976928711e+00,2.144431352615356445e+00,2.106448411941528320e+00,2.069787502288818359e+00,2.034381151199340820e+00,2.000165700912475586e+00,1.967082142829895020e+00,1.935074806213378906e+00,1.904092788696289062e+00,1.874087214469909668e+00,1.845012664794921875e+00
5.000000000000000000e+00,5.000000000000000000e+00,5.000000000000000000e+00,5.000000000000000000e+00,5.000000000000000000e+00,5.000000000000000000e+00,5.000000000000000000e+00,5.000000000000000000e+00,5.000000000000000000e+00,5.000000000000000000e+00,5.000000000000000000e+00,5.000000000000000000e+00,5.000000000000000000e+00,5.000000000000000000e+00,5.000000000000000000e+00,5.000000000000000000e+00,5.000000000000000000e+00,5.000000000000000000e+00,5.000000000000000000e+00,5.000000000000000000e+00,5.000000000000000000e+00,5.000000000000000000e+00,5.000000000000000000e+00,5.000000000000000000e+00,5.000000000000000000e+00,5.000000000000000000e+00,5.000000000000000000e+00,3.161099672317504883e+00,3.113137483596801758e+00,3.135426044464111328e+00,5.000000000000000000e+00,5.000000000000000000e+00,5.000000000000000000e+00,5.000000000000000000e+00,5.000000000000000000e+00,5.000000000000000000e+00,5.000000000000000000e+00,5.000000000000000000e+00,5.000000000000000000e+00,4.862608432769775391e+00,4.671597003936767578e+00,4.495025157928466797e+00,4.331314563751220703e+00,4.179109573364257812e+00,4.037238597869873047e+00,3.904684305191040039e+00,3.780556917190551758e+00,3.664078712463378906e+00,3.554563045501708984e+00,3.451404333114624023e+00,3.354063987731933594e+00,3.262063980102539062e+00,3.174976110458374023e+00,3.092417240142822266e+00,3.014043092727661133e+00,2.939543485641479492e+00,2.868638038635253906e+00,2.801072359085083008e+00,2.736616373062133789e+00,2.675060272216796875e+00,2.616212368011474609e+00,2.559897661209106445e+00,2.505956649780273438e+00,2.454241514205932617e+00,2.404618024826049805e+00,2.356961488723754883e+00,2.311156988143920898e+00,2.267098903656005859e+00,2.224689483642578125e+00,2.183837413787841797e+00,2.144458293914794922e+00,2.106474637985229492e+00,2.069812774658203125e+00,2.034405708312988281e+00,2.000189304351806641e+00,1.967105031013488770e+00,1.935096979141235352e+00,1.904114246368408203e+00,1.874107956886291504e+00,1.845032691955566406e+00
5.000000000000000000e+00,5.000000000000000000e+00,5.000000000000000000e+00,5.000000000000000000e+00,5.000000000000000000e+00,5.000000000000000000e+00,5.000000000000000000e+00,5.000000000000000000e+00,5.000000000000000000e+00,5.000000000000000000e+00,5.000000000000000000e+00,5.000000000000000000e+00,5.000000000000000000e+00,5.000000000000000000e+00,5.000000000000000000e+00,5.000000000000000000e+00,5.000000000000000000e+00,5.000000000000000000e+00,5.000000000000000000e+00,5.000000000000000000e+00,5.000000000000000000e+00,5.000000000000000000e+00,5.000000000000000000e+00,5.000000000000000000e+00,5.000000000000000000e+00,5.000000000000000000e+00,5.000000000000000000e+00,3.171450614929199219e+00,3.120132446289062500e+00,3.147511243820190430e+00,5.000000000000000000e+00,5.000000000000000000e+00,5.000000000000000000e+00,5.000000000000000000e+00,5.000000000000000000e+00,5.000000000000000000e+00,5.000000000000000000e+00,5.000000000000000000e+00,5.000000000000000000e+00,4.862748146057128906e+00,4.671725749969482422e+00,4.495144367218017578e+00,4.331425189971923828e+00,4.179212570190429688e+00,4.037334918975830078e+00,3.904774188995361328e+00,3.780641317367553711e+00,3.664158105850219727e+00,3.554637670516967773e+00,3.451474666595458984e+00,3.354130268096923828e+00,3.262126922607421875e+00,3.175035476684570312e+00,3.092473745346069336e+00,3.014096736907958984e+00,2.939594507217407227e+00,2.868686437606811523e+00,2.801118612289428711e+00,2.736660718917846680e+00,2.675102472305297852e+00,2.616252660751342773e+00,2.559936285018920898e+00,2.505993604660034180e+00,2.454277038574218750e+00,2.404652118682861328e+00,2.356994152069091797e+00,2.311188459396362305e+00,2.267129182815551758e+00,2.224718570709228516e+00,2.183865547180175781e+00,2.144485473632812500e+00,2.106500864028930664e+00,2.069838047027587891e+00,2.034430027008056641e+00,2.000212907791137695e+00,1.967127799987792969e+00,1.935119032859802246e+00,1.904135584831237793e+00,1.874128699302673340e+00,1.845052838325500488e+00
5.000000000000000000e+00,5.000000000000000000e+00,5.000000000000000000e+00,5.000000000000000000e+00,5.000000000000000000e+00,5.000000000000000000e+00,5.000000000000000000e+00,5.000000000000000000e+00,5.000000000000000000e+00,5.000000000000000000e+00,5.000000000000000000e+00,5.000000000000000000e+00,5.000000000000000000e+00,5.000000000000000000e+00,5.000000000000000000e+00,5.000000000000000000e+00,5.000000000000000000e+00,5.000000000000000000e+00,5.000000000000000000e+00,5.000000000000000000e+00,5.000000000000000000e+00,5.000000000000000000e+00,5.000000000000000000e+00,5.000000000000000000e+00,5.000000000000000000e+00,5.000000000000000000e+00,5.000000000000000000e+00,3.206778049468994141e+00,3.134671211242675781e+00,3.144592761993408203e+00,5.000000000000000000e+00,5.000000000000000000e+00,5.000000000000000000e+00,5.000000000000000000e+00,5.000000000000000000e+00,5.000000000000000000e+00,5.000000000000000000e+00,5.000000000000000000e+00,5.000000000000000000e+00,4.862887382507324219e+00,4.671854496002197266e+00,4.495263576507568359e+00,4.331535816192626953e+00,4.179315567016601562e+00,4.037431240081787109e+00,3.904864311218261719e+00,3.780725717544555664e+00,3.664237260818481445e+00,3.554712295532226562e+00,3.451545000076293945e+00,3.354196786880493164e+00,3.262189626693725586e+00,3.175095081329345703e+00,3.092530250549316406e+00,3.014150381088256836e+00,2.939645528793334961e+00,2.868735074996948242e+00,2.801164865493774414e+00,2.736704826354980469e+00,2.675144672393798828e+00,2.616293191909790039e+00,2.559974908828735352e+00,2.506030559539794922e+00,2.454312562942504883e+00,2.404686212539672852e+00,2.357027053833007812e+00,2.311220169067382812e+00,2.267159700393676758e+00,2.224747896194458008e+00,2.183893680572509766e+00,2.144512653350830078e+00,2.106527090072631836e+00,2.069863319396972656e+00,2.034454584121704102e+00,2.000236511230468750e+00,1.967150688171386719e+00,1.935141086578369141e+00,1.904157042503356934e+00,1.874149322509765625e+00,1.845072865486145020e+00
5.000000000000000000e+00,5.000000000000000000e+00,5.000000000000000000e+00,5.000000000000000000e+00,5.000000000000000000e+00,5.000000000000000000e+00,5.000000000000000000e+00,5.000000000000000000e+00,5.000000000000000000e+00,5.000000000000000000e+00,5.000000000000000000e+00,5.000000000000000000e+00,5.000000000000000000e+00,5.000000000000000000e+00,5.000000000000000000e+00,5.000000000000000000e+00,5.000000000000000000e+00,5.000000000000000000e+00,5.000000000000000000e+00,5.000000000000000000e+00,5.000000000000000000e+00,5.000000000000000000e+00,5.000000000000000000e+00,5.000000000000000000e+00,5.000000000000000000e+00,5.000000000000000000e+00,5.000000000000000000e+00,5.000000000000000000e+00,3.186307907104492188e+00,3.167047739028930664e+00,5.000000000000000000e+00,5.000000000000000000e+00,5.000000000000000000e+00,5.000000000000000000e+00,5.000000000000000000e+00,5.000000000000000000e+00,5.000000000000000000e+00,5.000000000000000000e+00,5.000000000000000000e+00,4.863027095794677734e+00,4.671983242034912109e+00,4.495382785797119141e+00,4.331646442413330078e+00,4.179418563842773438e+00,4.037527084350585938e+00,3.904954195022583008e+00,3.780810117721557617e+00,3.664316415786743164e+00,3.554786682128906250e+00,3.451615095138549805e+00,3.354263067245483398e+00,3.262252330780029297e+00,3.175154447555541992e+00,3.092586517333984375e+00,3.014204025268554688e+00,2.939696311950683594e+00,2.868783712387084961e+00,2.801211357116699219e+00,2.736748933792114258e+00,2.675186872482299805e+00,2.616333484649658203e+00,2.560013771057128906e+00,2.506067752838134766e+00,2.454348087310791016e+00,2.404720306396484375e+00,2.357059717178344727e+00,2.311251640319824219e+00,2.267189979553222656e+00,2.224776983261108398e+00,2.183921813964843750e+00,2.144539833068847656e+00,2.106553316116333008e+00,2.069888591766357422e+00,2.034478902816772461e+00,2.000260114669799805e+00,1.967173576354980469e+00,1.935163259506225586e+00,1.904178380966186523e+00,1.874170064926147461e+00,1.845093011856079102e+00
5.000000000000000000e+00,5.000000000000000000e+00,5.000000000000000000e+00,5.000000000000000000e+00,5.000000000000000000e+00,5.000000000000000000e+00,5.000000000000000000e+00,5.000000000000000000e+00,5.000000000000000000e+00,5.000000000000000000e+00,5.000000000000000000e+00,5.000000000000000000e+00,5.000000000000000000e+00,5.000000000000000000e+00,5.000000000000000000e+00,5.000000000000000000e+00,5.000000000000000000e+00,5.000000000000000000e+00,5.000000000000000000e+00,5.000000000000000000e+00,5.000000000000000000e+00,5.000000000000000000e+00,5.000000000000000000e+00,5.000000000000000000e+00,3.069921493530273438e+00,3.079148292541503906e+00,3.117525815963745117e+00,3.109840154647827148e+00,3.202490329742431641e+00,3.252936840057373047e+00,5.000000000000000000e+00,5.000000000000000000e+00,5.000000000000000000e+00,5.000000000000000000e+00,5.000000000000000000e+00,5.000000000000000000e+00,5.000000000000000000e+00,5.000000000000000000e+00,5.000000000000000000e+00,4.863166809082031250e+00,4.672111988067626953e+00,4.495501995086669922e+00,4.331757068634033203e+00,4.179521560668945312e+00,4.037623405456542969e+00,3.905044317245483398e+00,3.780894279479980469e+00,3.664395809173583984e+00,3.554861307144165039e+00,3.451685428619384766e+00,3.354329586029052734e+00,3.262315273284912109e+00,3.175214052200317383e+00,3.092643022537231445e+00,3.014257669448852539e+00,2.939747333526611328e+00,2.868832111358642578e+00,2.801257610321044922e+00,2.736793279647827148e+00,2.675229072570800781e+00,2.616373777389526367e+00,2.560052394866943359e+00,2.506104707717895508e+00,2.454383611679077148e+00,2.404754400253295898e+00,2.357092618942260742e+00,2.311283111572265625e+00,2.267220258712768555e+00,2.224806308746337891e+00,2.183949947357177734e+00,2.144567012786865234e+00,2.106579303741455078e+00,2.069913864135742188e+00,2.034503221511840820e+00,2.000283718109130859e+00,1.967196345329284668e+00,1.935185313224792480e+00,1.904199838638305664e+00,1.874190807342529297e+00,1.845113039016723633e+00
5.000000000000000000e+00,5.000000000000000000e+00,5.000000000000000000e+00,5.000000000000000000e+00,5.000000000000000000e+00,5.000000000000000000e+00,5.000000000000000000e+00,5.000000000000000000e+00,5.000000000000000000e+00,5.000000000000000000e+00,5.000000000000000000e+00,5.000000000000000000e+00,5.000000000000000000e+00,5.000000000000000000e+00,5.000000000000000000e+00,5.000000000000000000e+00,5.000000000000000000e+00,5.000000000000000000e+00,5.000000000000000000e+00,5.000000000000000000e+00,5.000000000000000000e+00,5.000000000000000000e+00,5.000000000000000000e+00,5.000000000000000000e+00,3.056986570358276367e+00,3.077668190002441406e+00,3.075501203536987305e+00,3.092321634292602539e+00,3.118439912796020508e+00,3.152931213378906250e+00,3.199287652969360352e+00,3.270872354507446289e+00,5.000000000000000000e+00,5.000000000000000000e+00,5.000000000000000000e+00,5.000000000000000000e+00,5.000000000000000000e+00,5.000000000000000000e+00,5.000000000000000000e+00,4.863306045532226562e+00,4.672241210937500000e+00,4.495621204376220703e+00,4.331868171691894531e+00,4.179625034332275391e+00,4.037719726562500000e+00,3.905134201049804688e+00,3.780978679656982422e+00,3.664474964141845703e+00,3.554935932159423828e+00,3.451755762100219727e+00,3.354395866394042969e+00,3.262377977371215820e+00,3.175273418426513672e+00,3.092699527740478516e+00,3.014311075210571289e+00,2.939798355102539062e+00,2.868880748748779297e+00,2.801303863525390625e+00,2.736837387084960938e+00,2.675271272659301758e+00,2.616414308547973633e+00,2.560091018676757812e+00,2.506141901016235352e+00,2.454419374465942383e+00,2.404788732528686523e+00,2.357125282287597656e+00,2.311314582824707031e+00,2.267250537872314453e+00,2.224835395812988281e+00,2.183978080749511719e+00,2.144594192504882812e+00,2.106605529785156250e+00,2.069939136505126953e+00,2.034527778625488281e+00,2.000307321548461914e+00,1.967219233512878418e+00,1.935207486152648926e+00,1.904221177101135254e+00,1.874211549758911133e+00,1.845133185386657715e+00
5.000000000000000000e+00,5.000000000000000000e+00,5.000000000000000000e+00,5.000000000000000000e+00,5.000000000000000000e+00,5.000000000000000000e+00,5.000000000000000000e+00,5.000000000000000000e+00,5.000000000000000000e+00,5.000000000000000000e+00,5.000000000000000000e+00,5.000000000000000000e+00,5.000000000000000000e+00,5.000000000000000000e+00,5.000000000000000000e+00,5.000000000000000000e+00,5.000000000000000000e+00,5.000000000000000000e+00,5.000000000000000000e+00,5.000000000000000000e+00,5.000000000000000000e+00,5.000000000000000000e+00,5.000000000000000000e+00,5.000000000000000000e+00,3.069923400878906250e+00,3.079101800918579102e+00,3.082920789718627930e+00,3.075163602828979492e+00,3.087037801742553711e+00,3.120422840118408203e+00,3.151072263717651367e+00,3.247628450393676758e+00,3.309321880340576172e+00,5.000000000000000000e+00,5.000000000000000000e+00,5.000000000000000000e+00,5.000000000000000000e+00,5.000000000000000000e+00,5.000000000000000000e+00,4.863445758819580078e+00,4.672369956970214844e+00,4.495740413665771484e+00,4.331978797912597656e+00,4.179728031158447266e+00,4.037816047668457031e+00,3.905224084854125977e+00,3.781063079833984375e+00,3.664554119110107422e+00,3.555010557174682617e+00,3.451826095581054688e+00,3.354462385177612305e+00,3.262440919876098633e+00,3.175333023071289062e+00,3.092756032943725586e+00,3.014364719390869141e+00,2.939849376678466797e+00,2.868929386138916016e+00,2.801350116729736328e+00,2.736881732940673828e+00,2.675313472747802734e+00,2.616454601287841797e+00,2.560129642486572266e+00,2.506178855895996094e+00,2.454454898834228516e+00,2.404822826385498047e+00,2.357158184051513672e+00,2.311346292495727539e+00,2.267281055450439453e+00,2.224864721298217773e+00,2.184006214141845703e+00,2.144621372222900391e+00,2.106631755828857422e+00,2.069964408874511719e+00,2.034552097320556641e+00,2.000330924987792969e+00,1.967242002487182617e+00,1.935229539871215820e+00,1.904242634773254395e+00,1.874232292175292969e+00,1.845153212547302246e+00
5.000000000000000000e+00,5.000000000000000000e+00,5.000000000000000000e+00,5.000000000000000000e+00,5.000000000000000000e+00,5.000000000000000000e+00,5.000000000000000000e+00,5.000000000000000000e+00,5.000000000000000000e+00,5.000000000000000000e+00,5.000000000000000000e+00,5.000000000000000000e+00,5.000000000000000000e+00,5.000000000000000000e+00,5.000000000000000000e+00,5.000000000000000000e+00,5.000000000000000000e+00,5.000000000000000000e+00,5.000000000000000000e+00,5.000000000000000000e+00,5.000000000000000000e+00,5.000000000000000000e+00,5.000000000000000000e+00,5.000000000000000000e+00,3.071328401565551758e+00,3.079171657562255859e+00,3.094802618026733398e+00,3.085971593856811523e+00,3.088759899139404297e+00,3.117556810379028320e+00,3.156086444854736328e+00,3.255973339080810547e+00,3.334161758422851562e+00,5.000000000000000000e+00,5.000000000000000000e+00,5.000000000000000000e+00,5.000000000000000000e+00,5.000000000000000000e+00,5.000000000000000000e+00,4.863585472106933594e+00,4.672498703002929688e+00,4.495859622955322266e+00,4.332089424133300781e+00,4.179831027984619141e+00,4.037911891937255859e+00,3.905314207077026367e+00,3.781147480010986328e+00,3.664633512496948242e+00,3.555084943771362305e+00,3.451896429061889648e+00,3.354528665542602539e+00,3.262503623962402344e+00,3.175392389297485352e+00,3.092812299728393555e+00,3.014418363571166992e+00,2.939900398254394531e+00,2.868977785110473633e+00,2.801396369934082031e+00,2.736925840377807617e+00,2.675355672836303711e+00,2.616495132446289062e+00,2.560168266296386719e+00,2.506216049194335938e+00,2.454490423202514648e+00,2.404856920242309570e+00,2.357190847396850586e+00,2.311377763748168945e+00,2.267311334609985352e+00,2.224893808364868164e+00,2.184034347534179688e+00,2.144648551940917969e+00,2.106657981872558594e+00,2.069989681243896484e+00,2.034576654434204102e+00,2.000354528427124023e+00,1.967264890670776367e+00,1.935251593589782715e+00,1.904263973236083984e+00,1.874253034591674805e+00,1.845173358917236328e+00
5.000000000000000000e+00,5.000000000000000000e+00,5.000000000000000000e+00,5.000000000000000000e+00,5.000000000000000000e+00,5.000000000000000000e+00,5.000000000000000000e+00,5.000000000000000000e+00,5.000000000000000000e+00,5.000000000000000000e+00,5.000000000000000000e+00,5.000000000000000000e+00,5.000000000000000000e+00,5.000000000000000000e+00,5.000000000000000000e+00,5.000000000000000000e+00,5.000000000000000000e+00,5.000000000000000000e+00,5.000000000000000000e+00,5.000000000000000000e+00,5.000000000000000000e+00,5.000000000000000000e+00,5.000000000000000000e+00,5.000000000000000000e+00,3.066463708877563477e+00,3.071379184722900391e+00,3.111410856246948242e+00,3.089407682418823242e+00,3.091884374618530273e+00,3.112614154815673828e+00,3.157224893569946289e+00,3.308792829513549805e+00,3.363265514373779297e+00,5.000000000000000000e+00,5.000000000000000000e+00,5.000000000000000000e+00,5.000000000000000000e+00,5.000000000000000000e+00,5.000000000000000000e+00,4.863725185394287109e+00,4.672627449035644531e+00,4.495978832244873047e+00,4.332200050354003906e+00,4.179934024810791016e+00,4.038008213043212891e+00,3.905404090881347656e+00,3.781231880187988281e+00,3.664712667465209961e+00,3.555159568786621094e+00,3.451966762542724609e+00,3.354595184326171875e+00,3.262566328048706055e+00,3.175451993942260742e+00,3.092868804931640625e+00,3.014472007751464844e+00,2.939951658248901367e+00,2.869026422500610352e+00,2.801442861557006836e+00,2.736969947814941406e+00,2.675398111343383789e+00,2.616535425186157227e+00,2.560207128524780273e+00,2.506253004074096680e+00,2.454525947570800781e+00,2.404891014099121094e+00,2.357223749160766602e+00,2.311409235000610352e+00,2.267341613769531250e+00,2.224923133850097656e+00,2.184062480926513672e+00,2.144675731658935547e+00,2.106684207916259766e+00,2.070014953613281250e+00,2.034600973129272461e+00,2.000378131866455078e+00,1.967287659645080566e+00,1.935273766517639160e+00,1.904285430908203125e+00,1.874273777008056641e+00,1.845193386077880859e+00
5.000000000000000000e+00,5.000000000000000000e+00,5.000000000000000000e+00,5.000000000000000000e+00,5.000000000000000000e+00,5.000000000000000000e+00,5.000000000000000000e+00,5.000000000000000000e+00,5.000000000000000000e+00,5.000000000000000000e+00,5.000000000000000000e+00,5.000000000000000000e+00,5.000000000000000000e+00,5.000000000000000000e+00,5.000000000000000000e+00,5.000000000000000000e+00,5.000000000000000000e+00,5.000000000000000000e+00,5.000000000000000000e+00,5.000000000000000000e+00,5.000000000000000000e+00,5.000000000000000000e+00,5.000000000000000000e+00,5.000000000000000000e+00,3.064682722091674805e+00,3.067177534103393555e+00,3.126867771148681641e+00,3.091867208480834961e+00,3.093948364257812500e+00,3.114484548568725586e+00,3.155080318450927734e+00,3.309270143508911133e+00,3.378379106521606445e+00,5.000000000000000000e+00,5.000000000000000000e+00,5.000000000000000000e+00,5.000000000000000000e+00,5.000000000000000000e+00,5.000000000000000000e+00,4.863864898681640625e+00,4.672756195068359375e+00,4.496098041534423828e+00,4.332311153411865234e+00,4.180037498474121094e+00,4.038104534149169922e+00,3.905494213104248047e+00,3.781316280364990234e+00,3.664791822433471680e+00,3.555234193801879883e+00,3.452037096023559570e+00,3.354661464691162109e+00,3.262629270553588867e+00,3.175511360168457031e+00,3.092925310134887695e+00,3.014525651931762695e+00,2.940002679824829102e+00,2.869075059890747070e+00,2.801489114761352539e+00,2.737014293670654297e+00,2.675440311431884766e+00,2.616575956344604492e+00,2.560245752334594727e+00,2.506290197372436523e+00,2.454561471939086914e+00,2.404925107955932617e+00,2.357256412506103516e+00,2.311440706253051758e+00,2.267371892929077148e+00,2.224952220916748047e+00,2.184090614318847656e+00,2.144702672958374023e+00,2.106710433959960938e+00,2.070040225982666016e+00,2.034625530242919922e+00,2.000401735305786133e+00,1.967310547828674316e+00,1.935295820236206055e+00,1.904306769371032715e+00,1.874294519424438477e+00,1.845213532447814941e+00
5.000000000000000000e+00,5.000000000000000000e+00,5.000000000000000000e+00,5.000000000000000000e+00,5.000000000000000000e+00,5.000000000000000000e+00,5.000000000000000000e+00,5.000000000000000000e+00,5.000000000000000000e+00,5.000000000000000000e+00,5.000000000000000000e+00,5.000000000000000000e+00,5.000000000000000000e+00,5.000000000000000000e+00,5.000000000000000000e+00,5.000000000000000000e+00,5.000000000000000000e+00,5.000000000000000000e+00,5.000000000000000000e+00,5.000000000000000000e+00,5.000000000000000000e+00,5.000000000000000000e+00,5.000000000000000000e+00,5.000000000000000000e+00,3.063909530639648438e+00,3.075036048889160156e+00,3.110442399978637695e+00,3.080392599105834961e+00,3.086204051971435547e+00,3.117850542068481445e+00,3.146843671798706055e+00,3.327315330505371094e+00,5.000000000000000000e+00,5.000000000000000000e+00,5.000000000000000000e+00,5.000000000000000000e+00,5.000000000000000000e+00,5.000000000000000000e+00,5.000000000000000000e+00,4.864004611968994141e+00,4.672884941101074219e+00,4.496217727661132812e+00,4.332421779632568359e+00,4.180140495300292969e+00,4.038200855255126953e+00,3.905584096908569336e+00,3.781400680541992188e+00,3.664871215820312500e+00,3.555308818817138672e+00,3.452107429504394531e+00,3.354727983474731445e+00,3.262691974639892578e+00,3.175570964813232422e+00,3.092981815338134766e+00,3.014579296112060547e+00,2.940053701400756836e+00,2.869123697280883789e+00,2.801535367965698242e+00,2.737058401107788086e+00,2.675482511520385742e+00,2.616616249084472656e+00,2.560284376144409180e+00,2.506327152252197266e+00,2.454596996307373047e+00,2.404959201812744141e+00,2.357289314270019531e+00,2.311472415924072266e+00,2.267402410507202148e+00,2.224981546401977539e+00,2.184118747711181641e+00,2.144729852676391602e+00,2.106736421585083008e+00,2.070065736770629883e+00,2.034649848937988281e+00,2.000425338745117188e+00,1.967333436012268066e+00,1.935317993164062500e+00,1.904328227043151855e+00,1.874315261840820312e+00,1.845233559608459473e+00
5.000000000000000000e+00,5.000000000000000000e+00,5.000000000000000000e+00,5.000000000000000000e+00,5.000000000000000000e+00,5.000000000000000000e+00,5.000000000000000000e+00,5.000000000000000000e+00,5.000000000000000000e+00,5.000000000000000000e+00,5.000000000000000000e+00,5.000000000000000000e+00,5.000000000000000000e+00,5.000000000000000000e+00,5.000000000000000000e+00,5.000000000000000000e+00,5.000000000000000000e+00,5.000000000000000000e+00,5.000000000000000000e+00,5.000000000000000000e+00,5.000000000000000000e+00,5.000000000000000000e+00,5.000000000000000000e+00,5.000000000000000000e+00,3.029149293899536133e+00,3.032041549682617188e+00,3.105381011962890625e+00,3.090741157531738281e+00,3.095545053482055664e+00,3.106362104415893555e+00,3.140682458877563477e+00,3.346420288085937500e+00,5.000000000000000000e+00,5.000000000000000000e+00,5.000000000000000000e+00,5.000000000000000000e+00,5.000000000000000000e+00,5.000000000000000000e+00,5.000000000000000000e+00,4.864143848419189453e+00,4.673014163970947266e+00,4.496336936950683594e+00,4.332532405853271484e+00,4.180243492126464844e+00,4.038297176361083984e+00,3.905674219131469727e+00,3.781485080718994141e+00,3.664950370788574219e+00,3.555383443832397461e+00,3.452177762985229492e+00,3.354794263839721680e+00,3.262754917144775391e+00,3.175630569458007812e+00,3.093038082122802734e+00,3.014632940292358398e+00,2.940104722976684570e+00,2.869172096252441406e+00,2.801581621170043945e+00,2.737102746963500977e+00,2.675524711608886719e+00,2.616656780242919922e+00,2.560322999954223633e+00,2.506364345550537109e+00,2.454632520675659180e+00,2.404993295669555664e+00,2.357321977615356445e+00,2.311503887176513672e+00,2.267432689666748047e+00,2.225010633468627930e+00,2.184146881103515625e+00,2.144757032394409180e+00,2.106762647628784180e+00,2.070091009140014648e+00,2.034674406051635742e+00,2.000448942184448242e+00,1.967356204986572266e+00,1.935340046882629395e+00,1.904349565505981445e+00,1.874335885047912598e+00,1.845253705978393555e+00
5.000000000000000000e+00,5.000000000000000000e+00,5.000000000000000000e+00,5.000000000000000000e+00,5.000000000000000000e+00,5.000000000000000000e+00,5.000000000000000000e+00,5.000000000000000000e+00,5.000000000000000000e+00,5.000000000000000000e+00,5.000000000000000000e+00,5.000000000000000000e+00,5.000000000000000000e+00,5.000000000000000000e+00,5.000000000000000000e+00,5.000000000000000000e+00,5.000000000000000000e+00,5.000000000000000000e+00,5.000000000000000000e+00,5.000000000000000000e+00,5.000000000000000000e+00,5.000000000000000000e+00,5.000000000000000000e+00,5.000000000000000000e+00,3.028385639190673828e+00,2.991664648056030273e+00,3.092169284820556641e+00,3.089961290359497070e+00,3.099548101425170898e+00,3.120175123214721680e+00,3.167721271514892578e+00,3.336369276046752930e+00,5.000000000000000000e+00,5.000000000000000000e+00,5.000000000000000000e+00,5.000000000000000000e+00,5.000000000000000000e+00,5.000000000000000000e+00,5.000000000000000000e+00,4.864283561706542969e+00,4.673143386840820312e+00,4.496456146240234375e+00,4.332643032073974609e+00,4.180346488952636719e+00,4.038393020629882812e+00,3.905764102935791016e+00,3.781569242477416992e+00,3.665029764175415039e+00,3.555458068847656250e+00,3.452248096466064453e+00,3.354860782623291016e+00,3.262817621231079102e+00,3.175689935684204102e+00,3.093094587326049805e+00,3.014686584472656250e+00,2.940155744552612305e+00,2.869220733642578125e+00,2.801628112792968750e+00,2.737146854400634766e+00,2.675566911697387695e+00,2.616697072982788086e+00,2.560361862182617188e+00,2.506401300430297852e+00,2.454668045043945312e+00,2.405027627944946289e+00,2.357354879379272461e+00,2.311535358428955078e+00,2.267462968826293945e+00,2.225039958953857422e+00,2.184175014495849609e+00,2.144784212112426758e+00,2.106788873672485352e+00,2.070116281509399414e+00,2.034698724746704102e+00,2.000472545623779297e+00,1.967379093170166016e+00,1.935362100601196289e+00,1.904371023178100586e+00,1.874356627464294434e+00,1.845273852348327637e+00
5.000000000000000000e+00,5.000000000000000000e+00,5.000000000000000000e+00,5.000000000000000000e+00,5.000000000000000000e+00,5.000000000000000000e+00,5.000000000000000000e+00,5.000000000000000000e+00,5.000000000000000000e+00,5.000000000000000000e+00,5.000000000000000000e+00,5.000000000000000000e+00,5.000000000000000000e+00,5.000000000000000000e+00,5.000000000000000000e+00,5.000000000000000000e+00,5.000000000000000000e+00,5.000000000000000000e+00,5.000000000000000000e+00,5.000000000000000000e+00,5.000000000000000000e+00,5.000000000000000000e+00,5.000000000000000000e+00,5.000000000000000000e+00,5.000000000000000000e+00,2.949254274368286133e+00,3.093383789062500000e+00,3.095441341400146484e+00,3.130584955215454102e+00,3.158161401748657227e+00,3.142557144165039062e+00,3.204923391342163086e+00,5.000000000000000000e+00,5.000000000000000000e+00,5.000000000000000000e+00,5.000000000000000000e+00,5.000000000000000000e+00,5.000000000000000000e+00,5.000000000000000000e+00,4.864423274993896484e+00,4.673272132873535156e+00,4.496575355529785156e+00,4.332754135131835938e+00,4.180449962615966797e+00,4.038489341735839844e+00,3.905854225158691406e+00,3.781653642654418945e+00,3.665108919143676758e+00,3.555532455444335938e+00,3.452318429946899414e+00,3.354927301406860352e+00,3.262880563735961914e+00,3.175749540328979492e+00,3.093151092529296875e+00,3.014740228652954102e+00,2.940206766128540039e+00,2.869269371032714844e+00,2.801674365997314453e+00,2.737190961837768555e+00,2.675609111785888672e+00,2.616737365722656250e+00,2.560400485992431641e+00,2.506438493728637695e+00,2.454703569412231445e+00,2.405061721801757812e+00,2.357387542724609375e+00,2.311566829681396484e+00,2.267493247985839844e+00,2.225069046020507812e+00,2.184203147888183594e+00,2.144811391830444336e+00,2.106815099716186523e+00,2.070141553878784180e+00,2.034723281860351562e+00,2.000496149063110352e+00,1.967401862144470215e+00,1.935384273529052734e+00,1.904392361640930176e+00,1.874377369880676270e+00,1.845293879508972168e+00
5.000000000000000000e+00,5.000000000000000000e+00,5.000000000000000000e+00,5.000000000000000000e+00,5.000000000000000000e+00,5.000000000000000000e+00,5.000000000000000000e+00,5.000000000000000000e+00,5.000000000000000000e+00,5.000000000000000000e+00,5.000000000000000000e+00,5.000000000000000000e+00,5.000000000000000000e+00,5.000000000000000000e+00,5.000000000000000000e+00,5.000000000000000000e+00,5.000000000000000000e+00,5.000000000000000000e+00,5.000000000000000000e+00,5.000000000000000000e+00,5.000000000000000000e+00,5.000000000000000000e+00,5.000000000000000000e+00,5.000000000000000000e+00,5.000000000000000000e+00,2.913684368133544922e+00,2.943002939224243164e+00,3.103022575378417969e+00,3.153177261352539062e+00,3.106073617935180664e+00,3.093860149383544922e+00,3.133398771286010742e+00,3.363297462463378906e+00,5.000000000000000000e+00,5.000000000000000000e+00,5.000000000000000000e+00,5.000000000000000000e+00,5.000000000000000000e+00,5.000000000000000000e+00,4.864562988281250000e+00,4.673400878906250000e+00,4.496694564819335938e+00,4.332864761352539062e+00,4.180552959442138672e+00,4.038585662841796875e+00,3.905944347381591797e+00,3.781738042831420898e+00,3.665188312530517578e+00,3.555607080459594727e+00,3.452388763427734375e+00,3.354993581771850586e+00,3.262943267822265625e+00,3.175808906555175781e+00,3.093207597732543945e+00,3.014793872833251953e+00,2.940257787704467773e+00,2.869318008422851562e+00,2.801720619201660156e+00,2.737235307693481445e+00,2.675651550292968750e+00,2.616777896881103516e+00,2.560439109802246094e+00,2.506475448608398438e+00,2.454739332199096680e+00,2.405095815658569336e+00,2.357420444488525391e+00,2.311598300933837891e+00,2.267523765563964844e+00,2.225098371505737305e+00,2.184231281280517578e+00,2.144838571548461914e+00,2.106841325759887695e+00,2.070166826248168945e+00,2.034747600555419922e+00,2.000519752502441406e+00,1.967424750328063965e+00,1.935406327247619629e+00,1.904413819313049316e+00,1.874398112297058105e+00,1.845314025878906250e+00
5.000000000000000000e+00,5.000000000000000000e+00,5.000000000000000000e+00,5.000000000000000000e+00,5.000000000000000000e+00,5.000000000000000000e+00,5.000000000000000000e+00,5.000000000000000000e+00,5.000000000000000000e+00,5.000000000000000000e+00,5.000000000000000000e+00,5.000000000000000000e+00,5.000000000000000000e+00,5.000000000000000000e+00,5.000000000000000000e+00,5.000000000000000000e+00,5.000000000000000000e+00,5.000000000000000000e+00,5.000000000000000000e+00,5.000000000000000000e+00,5.000000000000000000e+00,5.000000000000000000e+00,5.000000000000000000e+00,5.000000000000000000e+00,5.000000000000000000e+00,2.886924266815185547e+00,2.896259546279907227e+00,3.110226392745971680e+00,3.158463239669799805e+00,3.104787349700927734e+00,3.074717998504638672e+00,3.094173192977905273e+00,5.000000000000000000e+00,5.000000000000000000e+00,5.000000000000000000e+00,5.000000000000000000e+00,5.000000000000000000e+00,5.000000000000000000e+00,5.000000000000000000e+00,4.864702701568603516e+00,4.673529624938964844e+00,4.496814250946044922e+00,4.332975387573242188e+00,4.180655956268310547e+00,4.038681983947753906e+00,3.906034231185913086e+00,3.781822443008422852e+00,3.665267467498779297e+00,3.555681705474853516e+00,3.452459096908569336e+00,3.355060100555419922e+00,3.263006210327148438e+00,3.175868511199951172e+00,3.093264102935791016e+00,3.014847517013549805e+00,2.940308809280395508e+00,2.869366407394409180e+00,2.801767110824584961e+00,2.737279415130615234e+00,2.675693750381469727e+00,2.616818189620971680e+00,2.560477733612060547e+00,2.506512641906738281e+00,2.454774856567382812e+00,2.405129909515380859e+00,2.357453107833862305e+00,2.311630010604858398e+00,2.267554044723510742e+00,2.225127458572387695e+00,2.184259414672851562e+00,2.144865512847900391e+00,2.106867551803588867e+00,2.070192098617553711e+00,2.034772157669067383e+00,2.000543355941772461e+00,1.967447519302368164e+00,1.935428500175476074e+00,1.904435157775878906e+00,1.874418854713439941e+00,1.845334053039550781e+00
5.000000000000000000e+00,5.000000000000000000e+00,5.000000000000000000e+00,5.000000000000000000e+00,5.000000000000000000e+00,5.000000000000000000e+00,5.000000000000000000e+00,5.000000000000000000e+00,5.000000000000000000e+00,5.000000000000000000e+00,5.000000000000000000e+00,5.000000000000000000e+00,5.000000000000000000e+00,5.000000000000000000e+00,5.000000000000000000e+00,5.000000000000000000e+00,5.000000000000000000e+00,5.000000000000000000e+00,5.000000000000000000e+00,5.000000000000000000e+00,5.000000000000000000e+00,5.000000000000000000e+00,5.000000000000000000e+00,5.000000000000000000e+00,5.000000000000000000e+00,2.852320909500122070e+00,3.122858762741088867e+00,3.125629663467407227e+00,3.177584409713745117e+00,3.101650714874267578e+00,3.052073717117309570e+00,3.055968761444091797e+00,3.322306871414184570e+00,5.000000000000000000e+00,5.000000000000000000e+00,5.000000000000000000e+00,5.000000000000000000e+00,5.000000000000000000e+00,5.000000000000000000e+00,4.864842414855957031e+00,4.673658847808837891e+00,4.496933937072753906e+00,4.333086490631103516e+00,4.180758953094482422e+00,4.038778305053710938e+00,3.906124353408813477e+00,3.781906843185424805e+00,3.665346860885620117e+00,3.555756330490112305e+00,3.452529430389404297e+00,3.355126380920410156e+00,3.263068914413452148e+00,3.175928115844726562e+00,3.093320369720458984e+00,3.014901161193847656e+00,2.940359830856323242e+00,2.869415044784545898e+00,2.801813602447509766e+00,2.737323760986328125e+00,2.675735950469970703e+00,2.616858720779418945e+00,2.560516595840454102e+00,2.506549596786499023e+00,2.454810380935668945e+00,2.405164003372192383e+00,2.357486009597778320e+00,2.311661481857299805e+00,2.267584323883056641e+00,2.225156784057617188e+00,2.184287548065185547e+00,2.144892692565917969e+00,2.106893777847290039e+00,2.070217370986938477e+00,2.034796476364135742e+00,2.000566959381103516e+00,1.967470407485961914e+00,1.935450553894042969e+00,1.904456615447998047e+00,1.874439597129821777e+00,1.845354199409484863e+00
5.000000000000000000e+00,5.000000000000000000e+00,5.000000000000000000e+00,5.000000000000000000e+00,5.000000000000000000e+00,5.000000000000000000e+00,5.000000000000000000e+00,5.000000000000000000e+00,5.000000000000000000e+00,5.000000000000000000e+00,5.000000000000000000e+00,5.000000000000000000e+00,5.000000000000000000e+00,5.000000000000000000e+00,5.000000000000000000e+00,5.000000000000000000e+00,5.000000000000000000e+00,5.000000000000000000e+00,5.000000000000000000e+00,5.000000000000000000e+00,5.000000000000000000e+00,5.000000000000000000e+00,5.000000000000000000e+00,5.000000000000000000e+00,5.000000000000000000e+00,5.000000000000000000e+00,3.143108367919921875e+00,3.144154548645019531e+00,3.200878381729125977e+00,3.119671821594238281e+00,3.027663469314575195e+00,3.032039642333984375e+00,3.302942514419555664e+00,5.000000000000000000e+00,5.000000000000000000e+00,5.000000000000000000e+00,5.000000000000000000e+00,5.000000000000000000e+00,5.000000000000000000e+00,4.864981651306152344e+00,4.673787593841552734e+00,4.497053146362304688e+00,4.333197116851806641e+00,4.180862426757812500e+00,4.038874626159667969e+00,3.906214237213134766e+00,3.781991243362426758e+00,3.665426015853881836e+00,3.555830955505371094e+00,3.452599763870239258e+00,3.355192899703979492e+00,3.263131856918334961e+00,3.175987482070922852e+00,3.093376874923706055e+00,3.014954805374145508e+00,2.940410852432250977e+00,2.869463682174682617e+00,2.801859855651855469e+00,2.737367868423461914e+00,2.675778150558471680e+00,2.616899013519287109e+00,2.560555219650268555e+00,2.506586790084838867e+00,2.454845905303955078e+00,2.405198097229003906e+00,2.357518911361694336e+00,2.311692953109741211e+00,2.267614603042602539e+00,2.225186109542846680e+00,2.184315919876098633e+00,2.144919872283935547e+00,2.106919765472412109e+00,2.070242881774902344e+00,2.034820795059204102e+00,2.000590562820434570e+00,1.967493295669555664e+00,1.935472607612609863e+00,1.904477953910827637e+00,1.874460339546203613e+00,1.845374226570129395e+00
5.000000000000000000e+00,5.000000000000000000e+00,5.000000000000000000e+00,5.000000000000000000e+00,5.000000000000000000e+00,5.000000000000000000e+00,5.000000000000000000e+00,5.000000000000000000e+00,5.000000000000000000e+00,5.000000000000000000e+00,5.000000000000000000e+00,5.000000000000000000e+00,5.000000000000000000e+00,5.000000000000000000e+00,5.000000000000000000e+00,5.000000000000000000e+00,5.000000000000000000e+00,5.000000000000000000e+00,5.000000000000000000e+00,5.000000000000000000e+00,5.000000000000000000e+00,5.000000000000000000e+00,5.000000000000000000e+00,5.000000000000000000e+00,5.000000000000000000e+00,5.000000000000000000e+00,3.161726474761962891e+00,3.162807941436767578e+00,5.000000000000000000e+00,5.000000000000000000e+00,3.021134138107299805e+00,3.006819009780883789e+00,5.000000000000000000e+00,5.000000000000000000e+00,5.000000000000000000e+00,5.000000000000000000e+00,5.000000000000000000e+00,5.000000000000000000e+00,5.000000000000000000e+00,4.865121364593505859e+00,4.673916339874267578e+00,4.497172355651855469e+00,4.333307743072509766e+00,4.180965423583984375e+00,4.038970470428466797e+00,3.906304359436035156e+00,3.782075643539428711e+00,3.665505409240722656e+00,3.555905580520629883e+00,3.452670097351074219e+00,3.355259418487548828e+00,3.263194561004638672e+00,3.176047086715698242e+00,3.093433380126953125e+00,3.015008211135864258e+00,2.940461874008178711e+00,2.869512319564819336e+00,2.801906108856201172e+00,2.737412214279174805e+00,2.675820350646972656e+00,2.616939544677734375e+00,2.560593843460083008e+00,2.506623744964599609e+00,2.454881429672241211e+00,2.405232429504394531e+00,2.357551574707031250e+00,2.311724662780761719e+00,2.267645120620727539e+00,2.225215196609497070e+00,2.184344053268432617e+00,2.144947052001953125e+00,2.106945991516113281e+00,2.070268154144287109e+00,2.034845352172851562e+00,2.000614166259765625e+00,1.967516064643859863e+00,1.935494780540466309e+00,1.904499411582946777e+00,1.874481081962585449e+00,1.845394372940063477e+00
5.000000000000000000e+00,5.000000000000000000e+00,5.000000000000000000e+00,5.000000000000000000e+00,5.000000000000000000e+00,5.000000000000000000e+00,5.000000000000000000e+00,5.000000000000000000e+00,5.000000000000000000e+00,5.000000000000000000e+00,5.000000000000000000e+00,5.000000000000000000e+00,5.000000000000000000e+00,5.000000000000000000e+00,5.000000000000000000e+00,5.000000000000000000e+00,5.000000000000000000e+00,5.000000000000000000e+00,5.000000000000000000e+00,5.000000000000000000e+00,5.000000000000000000e+00,5.000000000000000000e+00,5.000000000000000000e+00,5.000000000000000000e+00,5.000000000000000000e+00,5.000000000000000000e+00,3.182861566543579102e+00,3.181393861770629883e+00,5.000000000000000000e+00,5.000000000000000000e+00,3.015544891357421875e+00,2.994594097137451172e+00,5.000000000000000000e+00,5.000000000000000000e+00,5.000000000000000000e+00,5.000000000000000000e+00,5.000000000000000000e+00,5.000000000000000000e+00,5.000000000000000000e+00,4.865261077880859375e+00,4.674045562744140625e+00,4.497291564941406250e+00,4.333418846130371094e+00,4.181068420410156250e+00,4.039066791534423828e+00,3.906394481658935547e+00,3.782160043716430664e+00,3.665584564208984375e+00,3.555980205535888672e+00,3.452740430831909180e+00,3.355325698852539062e+00,3.263257503509521484e+00,3.176106691360473633e+00,3.093489885330200195e+00,3.015062093734741211e+00,2.940512895584106445e+00,2.869560956954956055e+00,2.801952600479125977e+00,2.737456321716308594e+00,2.675862789154052734e+00,2.616979837417602539e+00,2.560632467269897461e+00,2.506660938262939453e+00,2.454916954040527344e+00,2.405266523361206055e+00,2.357584476470947266e+00,2.311756134033203125e+00,2.267675399780273438e+00,2.225244522094726562e+00,2.184372186660766602e+00,2.144974231719970703e+00,2.106972217559814453e+00,2.070293426513671875e+00,2.034869670867919922e+00,2.000638008117675781e+00,1.967538952827453613e+00,1.935516834259033203e+00,1.904520750045776367e+00,1.874501824378967285e+00,1.845414400100708008e+00
5.000000000000000000e+00,5.000000000000000000e+00,5.000000000000000000e+00,5.000000000000000000e+00,5.000000000000000000e+00,5.000000000000000000e+00,5.000000000000000000e+00,5.000000000000000000e+00,5.000000000000000000e+00,5.000000000000000000e+00,5.000000000000000000e+00,5.000000000000000000e+00,5.000000000000000000e+00,5.000000000000000000e+00,5.000000000000000000e+00,5.000000000000000000e+00,5.000000000000000000e+00,5.000000000000000000e+00,5.000000000000000000e+00,5.000000000000000000e+00,5.000000000000000000e+00,5.000000000000000000e+00,5.000000000000000000e+00,5.000000000000000000e+00,5.000000000000000000e+00,5.000000000000000000e+00,3.210550308227539062e+00,3.202664613723754883e+00,5.000000000000000000e+00,5.000000000000000000e+00,3.027608394622802734e+00,3.002573251724243164e+00,5.000000000000000000e+00,5.000000000000000000e+00,5.000000000000000000e+00,5.000000000000000000e+00,5.000000000000000000e+00,5.000000000000000000e+00,5.000000000000000000e+00,4.865400791168212891e+00,4.674174308776855469e+00,4.497411251068115234e+00,4.333529949188232422e+00,4.181171894073486328e+00,4.039163112640380859e+00,3.906484365463256836e+00,3.782244443893432617e+00,3.665663957595825195e+00,3.556054830551147461e+00,3.452810764312744141e+00,3.355392217636108398e+00,3.263320207595825195e+00,3.176166057586669922e+00,3.093546390533447266e+00,3.015115499496459961e+00,2.940563917160034180e+00,2.869609355926513672e+00,2.801998853683471680e+00,2.737500667572021484e+00,2.675904989242553711e+00,2.617020368576049805e+00,2.560671329498291016e+00,2.506697893142700195e+00,2.454952716827392578e+00,2.405300617218017578e+00,2.357617139816284180e+00,2.311787605285644531e+00,2.267705678939819336e+00,2.225273609161376953e+00,2.184400320053100586e+00,2.145001411437988281e+00,2.106998443603515625e+00,2.070318698883056641e+00,2.034894227981567383e+00,2.000661611557006836e+00,1.967561721801757812e+00,1.935539007186889648e+00,1.904542207717895508e+00,1.874522566795349121e+00,1.845434546470642090e+00
5.000000000000000000e+00,5.000000000000000000e+00,5.000000000000000000e+00,5.000000000000000000e+00,5.000000000000000000e+00,5.000000000000000000e+00,5.000000000000000000e+00,5.000000000000000000e+00,5.000000000000000000e+00,5.000000000000000000e+00,5.000000000000000000e+00,5.000000000000000000e+00,5.000000000000000000e+00,5.000000000000000000e+00,5.000000000000000000e+00,5.000000000000000000e+00,5.000000000000000000e+00,5.000000000000000000e+00,5.000000000000000000e+00,5.000000000000000000e+00,5.000000000000000000e+00,5.000000000000000000e+00,5.000000000000000000e+00,5.000000000000000000e+00,5.000000000000000000e+00,5.000000000000000000e+00,3.244679212570190430e+00,3.242381572723388672e+00,5.000000000000000000e+00,5.000000000000000000e+00,3.043630361557006836e+00,3.016997575759887695e+00,3.085854291915893555e+00,5.000000000000000000e+00,5.000000000000000000e+00,5.000000000000000000e+00,5.000000000000000000e+00,5.000000000000000000e+00,5.000000000000000000e+00,4.865539073944091797e+00,4.674303054809570312e+00,4.497530460357666016e+00,4.333640575408935547e+00,4.181274890899658203e+00,4.039259433746337891e+00,3.906574487686157227e+00,3.782329082489013672e+00,3.665743112564086914e+00,3.556129455566406250e+00,3.452881097793579102e+00,3.355458736419677734e+00,3.263383150100708008e+00,3.176225662231445312e+00,3.093602895736694336e+00,3.015169143676757812e+00,2.940614938735961914e+00,2.869657993316650391e+00,2.802045106887817383e+00,2.737544775009155273e+00,2.675947189331054688e+00,2.617060661315917969e+00,2.560709953308105469e+00,2.506735086441040039e+00,2.454988241195678711e+00,2.405334711074829102e+00,2.357650041580200195e+00,2.311819076538085938e+00,2.267735958099365234e+00,2.225302934646606445e+00,2.184428453445434570e+00,2.145028591156005859e+00,2.107024669647216797e+00,2.070343971252441406e+00,2.034918546676635742e+00,2.000685214996337891e+00,1.967584609985351562e+00,1.935561060905456543e+00,1.904563665390014648e+00,1.874543309211730957e+00,1.845454692840576172e+00
5.000000000000000000e+00,5.000000000000000000e+00,5.000000000000000000e+00,5.000000000000000000e+00,5.000000000000000000e+00,5.000000000000000000e+00,5.000000000000000000e+00,5.000000000000000000e+00,5.000000000000000000e+00,5.000000000000000000e+00,5.000000000000000000e+00,5.000000000000000000e+00,5.000000000000000000e+00,5.000000000000000000e+00,5.000000000000000000e+00,5.000000000000000000e+00,5.000000000000000000e+00,5.000000000000000000e+00,5.000000000000000000e+00,5.000000000000000000e+00,5.000000000000000000e+00,5.000000000000000000e+00,5.000000000000000000e+00,5.000000000000000000e+00,5.000000000000000000e+00,5.000000000000000000e+00,3.290658950805664062e+00,3.343511343002319336e+00,5.000000000000000000e+00,5.000000000000000000e+00,3.046454668045043945e+00,3.017565965652465820e+00,3.077777862548828125e+00,5.000000000000000000e+00,5.000000000000000000e+00,5.000000000000000000e+00,5.000000000000000000e+00,5.000000000000000000e+00,5.000000000000000000e+00,4.865677833557128906e+00,4.674431324005126953e+00,4.497649669647216797e+00,4.333751678466796875e+00,4.181377887725830078e+00,4.039355754852294922e+00,3.906664609909057617e+00,3.782413482666015625e+00,3.665822505950927734e+00,3.556204080581665039e+00,3.452951431274414062e+00,3.355525016784667969e+00,3.263446092605590820e+00,3.176285266876220703e+00,3.093659400939941406e+00,3.015223026275634766e+00,2.940665960311889648e+00,2.869706630706787109e+00,2.802091598510742188e+00,2.737589120864868164e+00,2.675989389419555664e+00,2.617101192474365234e+00,2.560748577117919922e+00,2.506772041320800781e+00,2.455023765563964844e+00,2.405368804931640625e+00,2.357682704925537109e+00,2.311850786209106445e+00,2.267766475677490234e+00,2.225332021713256836e+00,2.184456586837768555e+00,2.145055770874023438e+00,2.107050895690917969e+00,2.070369243621826172e+00,2.034943103790283203e+00,2.000708818435668945e+00,1.967607498168945312e+00,1.935583233833312988e+00,1.904585003852844238e+00,1.874564051628112793e+00,1.845474720001220703e+00
5.000000000000000000e+00,5.000000000000000000e+00,5.000000000000000000e+00,5.000000000000000000e+00,5.000000000000000000e+00,5.000000000000000000e+00,5.000000000000000000e+00,5.000000000000000000e+00,5.000000000000000000e+00,5.000000000000000000e+00,5.000000000000000000e+00,5.000000000000000000e+00,5.000000000000000000e+00,5.000000000000000000e+00,5.000000000000000000e+00,5.000000000000000000e+00,5.000000000000000000e+00,5.000000000000000000e+00,5.000000000000000000e+00,5.000000000000000000e+00,5.000000000000000000e+00,5.000000000000000000e+00,5.000000000000000000e+00,5.000000000000000000e+00,5.000000000000000000e+00,5.000000000000000000e+00,3.323446750640869141e+00,5.000000000000000000e+00,5.000000000000000000e+00,5.000000000000000000e+00,3.043947935104370117e+00,3.010574340820312500e+00,3.064418077468872070e+00,5.000000000000000000e+00,5.000000000000000000e+00,5.000000000000000000e+00,5.000000000000000000e+00,5.000000000000000000e+00,5.000000000000000000e+00,4.865817070007324219e+00,4.674559593200683594e+00,4.497769355773925781e+00,4.333862304687500000e+00,4.181481361389160156e+00,4.039452075958251953e+00,3.906754732131958008e+00,3.782497882843017578e+00,3.665901899337768555e+00,3.556278705596923828e+00,3.453021764755249023e+00,3.355591535568237305e+00,3.263508796691894531e+00,3.176344633102416992e+00,3.093715667724609375e+00,3.015276670455932617e+00,2.940716981887817383e+00,2.869755268096923828e+00,2.802137851715087891e+00,2.737633228302001953e+00,2.676031827926635742e+00,2.617141485214233398e+00,2.560787439346313477e+00,2.506809234619140625e+00,2.455059289932250977e+00,2.405403137207031250e+00,2.357715606689453125e+00,2.311882257461547852e+00,2.267796754837036133e+00,2.225361347198486328e+00,2.184484720230102539e+00,2.145082712173461914e+00,2.107076883316040039e+00,2.070394515991210938e+00,2.034967422485351562e+00,2.000732421875000000e+00,1.967630267143249512e+00,1.935605287551879883e+00,1.904606461524963379e+00,1.874584794044494629e+00,1.845494866371154785e+00
5.000000000000000000e+00,5.000000000000000000e+00,5.000000000000000000e+00,5.000000000000000000e+00,5.000000000000000000e+00,5.000000000000000000e+00,5.000000000000000000e+00,5.000000000000000000e+00,5.000000000000000000e+00,5.000000000000000000e+00,5.000000000000000000e+00,5.000000000000000000e+00,5.000000000000000000e+00,5.000000000000000000e+00,5.000000000000000000e+00,5.000000000000000000e+00,5.000000000000000000e+00,5.000000000000000000e+00,5.000000000000000000e+00,5.000000000000000000e+00,5.000000000000000000e+00,5.000000000000000000e+00,5.000000000000000000e+00,5.000000000000000000e+00,5.000000000000000000e+00,3.444607734680175781e+00,3.352704048156738281e+00,5.000000000000000000e+00,5.000000000000000000e+00,5.000000000000000000e+00,5.000000000000000000e+00,3.003102779388427734e+00,3.053496599197387695e+00,5.000000000000000000e+00,5.000000000000000000e+00,5.000000000000000000e+00,5.000000000000000000e+00,5.000000000000000000e+00,5.000000000000000000e+00,4.865955829620361328e+00,4.674687385559082031e+00,4.497886657714843750e+00,4.333972930908203125e+00,4.181584835052490234e+00,4.039548397064208984e+00,3.906844615936279297e+00,3.782582283020019531e+00,3.665981054306030273e+00,3.556353330612182617e+00,3.453092098236083984e+00,3.355658054351806641e+00,3.263571739196777344e+00,3.176404237747192383e+00,3.093772172927856445e+00,3.015330314636230469e+00,2.940768003463745117e+00,2.869803905487060547e+00,2.802184104919433594e+00,2.737677574157714844e+00,2.676074266433715820e+00,2.617182016372680664e+00,2.560826063156127930e+00,2.506846189498901367e+00,2.455094814300537109e+00,2.405437231063842773e+00,2.357748508453369141e+00,2.311913728713989258e+00,2.267827033996582031e+00,2.225390434265136719e+00,2.184512853622436523e+00,2.145109891891479492e+00,2.107103109359741211e+00,2.070419788360595703e+00,2.034991979598999023e+00,2.000756025314331055e+00,1.967653155326843262e+00,1.935627460479736328e+00,1.904627799987792969e+00,1.874605417251586914e+00,1.845514893531799316e+00
5.000000000000000000e+00,5.000000000000000000e+00,5.000000000000000000e+00,5.000000000000000000e+00,5.000000000000000000e+00,5.000000000000000000e+00,5.000000000000000000e+00,5.000000000000000000e+00,5.000000000000000000e+00,5.000000000000000000e+00,5.000000000000000000e+00,5.000000000000000000e+00,5.000000000000000000e+00,5.000000000000000000e+00,5.000000000000000000e+00,5.000000000000000000e+00,5.000000000000000000e+00,5.000000000000000000e+00,5.000000000000000000e+00,5.000000000000000000e+00,5.000000000000000000e+00,5.000000000000000000e+00,5.000000000000000000e+00,5.000000000000000000e+00,5.000000000000000000e+00,5.000000000000000000e+00,3.394801855087280273e+00,5.000000000000000000e+00,5.000000000000000000e+00,5.000000000000000000e+00,5.000000000000000000e+00,2.996906280517578125e+00,3.053419589996337891e+00,5.000000000000000000e+00,5.000000000000000000e+00,5.000000000000000000e+00,5.000000000000000000e+00,5.000000000000000000e+00,5.000000000000000000e+00,4.866094589233398438e+00,4.674815654754638672e+00,4.498005867004394531e+00,4.334082603454589844e+00,4.181687831878662109e+00,4.039644718170166016e+00,3.906934738159179688e+00,3.782666683197021484e+00,3.666060447692871094e+00,3.556427955627441406e+00,3.453162431716918945e+00,3.355724334716796875e+00,3.263634443283081055e+00,3.176463842391967773e+00,3.093828678131103516e+00,3.015383958816528320e+00,2.940819025039672852e+00,2.869852542877197266e+00,2.802230596542358398e+00,2.737721681594848633e+00,2.676116466522216797e+00,2.617222547531127930e+00,2.560864686965942383e+00,2.506883382797241211e+00,2.455130338668823242e+00,2.405471324920654297e+00,2.357781171798706055e+00,2.311945199966430664e+00,2.267857551574707031e+00,2.225419759750366211e+00,2.184540987014770508e+00,2.145137071609497070e+00,2.107129335403442383e+00,2.070445060729980469e+00,2.035016298294067383e+00,2.000779628753662109e+00,1.967676043510437012e+00,1.935649514198303223e+00,1.904649257659912109e+00,1.874626159667968750e+00,1.845535039901733398e+00
5.000000000000000000e+00,5.000000000000000000e+00,5.000000000000000000e+00,5.000000000000000000e+00,5.000000000000000000e+00,5.000000000000000000e+00,5.000000000000000000e+00,5.000000000000000000e+00,5.000000000000000000e+00,5.000000000000000000e+00,5.000000000000000000e+00,5.000000000000000000e+00,5.000000000000000000e+00,5.000000000000000000e+00,5.000000000000000000e+00,5.000000000000000000e+00,5.000000000000000000e+00,5.000000000000000000e+00,5.000000000000000000e+00,5.000000000000000000e+00,5.000000000000000000e+00,5.000000000000000000e+00,5.000000000000000000e+00,5.000000000000000000e+00,5.000000000000000000e+00,5.000000000000000000e+00,3.433114767074584961e+00,5.000000000000000000e+00,5.000000000000000000e+00,5.000000000000000000e+00,5.000000000000000000e+00,2.993372917175292969e+00,3.053654670715332031e+00,5.000000000000000000e+00,5.000000000000000000e+00,5.000000000000000000e+00,5.000000000000000000e+00,5.000000000000000000e+00,5.000000000000000000e+00,4.866233825683593750e+00,4.674943923950195312e+00,4.498124599456787109e+00,4.334192752838134766e+00,4.181789875030517578e+00,4.039741039276123047e+00,3.907024860382080078e+00,3.782751083374023438e+00,3.666139841079711914e+00,3.556502580642700195e+00,3.453233003616333008e+00,3.355790853500366211e+00,3.263697385787963867e+00,3.176523447036743164e+00,3.093885183334350586e+00,3.015437602996826172e+00,2.940870046615600586e+00,2.869900941848754883e+00,2.802276849746704102e+00,2.737766027450561523e+00,2.676158666610717773e+00,2.617262840270996094e+00,2.560903549194335938e+00,2.506920337677001953e+00,2.455166101455688477e+00,2.405505418777465820e+00,2.357814073562622070e+00,2.311976909637451172e+00,2.267887830734252930e+00,2.225449085235595703e+00,2.184569120407104492e+00,2.145164251327514648e+00,2.107155561447143555e+00,2.070470333099365234e+00,2.035040855407714844e+00,2.000803232192993164e+00,1.967698812484741211e+00,1.935671567916870117e+00,1.904670596122741699e+00,1.874646902084350586e+00,1.845555186271667480e+00
4.875467777252197266e+00,4.874256610870361328e+00,4.873046398162841797e+00,4.871836662292480469e+00,4.870626926422119141e+00,4.869418621063232422e+00,4.868210315704345703e+00,4.867002964019775391e+00,4.865795612335205078e+00,4.864589214324951172e+00,4.863383769989013672e+00,4.862178802490234375e+00,4.860974311828613281e+00,4.859770298004150391e+00,4.858566761016845703e+00,4.857364177703857422e+00,4.856162071228027344e+00,4.854960918426513672e+00,4.853759765625000000e+00,4.852559566497802734e+00,4.851359844207763672e+00,4.850160598754882812e+00,4.848961830139160156e+00,4.847764015197753906e+00,4.846566677093505859e+00,4.845369815826416016e+00,3.445784330368041992e+00,4.842978000640869141e+00,4.841783046722412109e+00,4.840588569641113281e+00,4.839395046234130859e+00,3.004550218582153320e+00,4.837008953094482422e+00,4.835816860198974609e+00,4.834625244140625000e+00,4.833434104919433594e+00,4.832243919372558594e+00,4.831054210662841797e+00,4.829864978790283203e+00,4.828676700592041016e+00,4.675072193145751953e+00,4.498242855072021484e+00,4.334303379058837891e+00,4.181892871856689453e+00,4.039837360382080078e+00,3.907114982604980469e+00,3.782835483551025391e+00,3.666218996047973633e+00,3.556577205657958984e+00,3.453303337097167969e+00,3.355857372283935547e+00,3.263760328292846680e+00,3.176582813262939453e+00,3.093941688537597656e+00,3.015491247177124023e+00,2.940921068191528320e+00,2.869949579238891602e+00,2.802323102951049805e+00,2.737810134887695312e+00,2.676200866699218750e+00,2.617303371429443359e+00,2.560942173004150391e+00,2.506957530975341797e+00,2.455201625823974609e+00,2.405539512634277344e+00,2.357846736907958984e+00,2.312008380889892578e+00,2.267918109893798828e+00,2.225478172302246094e+00,2.184597492218017578e+00,2.145191431045532227e+00,2.107181787490844727e+00,2.070495605468750000e+00,2.035065174102783203e+00,2.000827074050903320e+00,1.967721700668334961e+00,1.935693740844726562e+00,1.904692053794860840e+00,1.874667644500732422e+00,1.845575213432312012e+00
3.778275251388549805e+00,3.777547836303710938e+00,3.776820421218872070e+00,3.776093482971191406e+00,3.775367021560668945e+00,3.774640798568725586e+00,3.773914813995361328e+00,3.773189067840576172e+00,3.772463798522949219e+00,3.771738529205322266e+00,3.771013736724853516e+00,3.770289182662963867e+00,3.769564867019653320e+00,3.768840789794921875e+00,3.768117189407348633e+00,3.767393827438354492e+00,3.766670465469360352e+00,3.765947580337524414e+00,3.765225172042846680e+00,3.764502525329589844e+00,3.763780593872070312e+00,3.763058900833129883e+00,3.762337207794189453e+00,3.761615991592407227e+00,3.760895013809204102e+00,3.760174512863159180e+00,3.404001951217651367e+00,3.395276546478271484e+00,3.758013725280761719e+00,3.757293939590454102e+00,3.756574630737304688e+00,2.985938310623168945e+00,2.866925477981567383e+00,2.890172004699707031e+00,3.753700256347656250e+00,3.752982378005981445e+00,3.752264738082885742e+00,3.751547336578369141e+00,3.750830173492431641e+00,3.750113248825073242e+00,3.749396800994873047e+00,3.748680591583251953e+00,3.747964382171630859e+00,3.747248649597167969e+00,3.746533155441284180e+00,3.745818138122558594e+00,3.745103120803833008e+00,3.666298389434814453e+00,3.556651830673217773e+00,3.453373670578002930e+00,3.355923652648925781e+00,3.263823032379150391e+00,3.176642417907714844e+00,3.093998193740844727e+00,3.015544891357421875e+00,2.940972089767456055e+00,2.869998216629028320e+00,2.802369594573974609e+00,2.737854480743408203e+00,2.676243305206298828e+00,2.617343664169311523e+00,2.560980796813964844e+00,2.506994485855102539e+00,2.455237150192260742e+00,2.405573844909667969e+00,2.357879638671875000e+00,2.312039852142333984e+00,2.267948627471923828e+00,2.225507497787475586e+00,2.184625625610351562e+00,2.145218610763549805e+00,2.107208013534545898e+00,2.070521116256713867e+00,2.035089731216430664e+00,2.000850677490234375e+00,1.967744588851928711e+00,1.935716032981872559e+00,1.904713511466979980e+00,1.874688386917114258e+00,1.845595359802246094e+00
3.084196567535400391e+00,3.083711862564086914e+00,3.083227157592773438e+00,3.082742929458618164e+00,3.082258701324462891e+00,3.081774473190307617e+00,3.081290721893310547e+00,3.080806970596313477e+00,3.080322980880737305e+00,3.079839468002319336e+00,3.079356193542480469e+00,3.078872919082641602e+00,3.078389883041381836e+00,3.077907085418701172e+00,3.077424526214599609e+00,3.076941967010498047e+00,3.076459407806396484e+00,3.075977087020874023e+00,3.075495004653930664e+00,3.075013160705566406e+00,3.074531316757202148e+00,3.074049711227416992e+00,3.073568105697631836e+00,3.073086738586425781e+00,3.072605609893798828e+00,3.072124481201171875e+00,3.071643590927124023e+00,3.071162939071655273e+00,3.070682287216186523e+00,3.070201873779296875e+00,3.069721460342407227e+00,3.069241285324096680e+00,3.068761348724365234e+00,3.068281412124633789e+00,3.067801475524902344e+00,3.067322015762329102e+00,3.066842555999755859e+00,3.066363334655761719e+00,3.065884113311767578e+00,3.065405368804931641e+00,3.064926624298095703e+00,3.064447879791259766e+00,3.063969373703002930e+00,3.063491106033325195e+00,3.063012838363647461e+00,3.062534809112548828e+00,3.062056779861450195e+00,3.061579227447509766e+00,3.061101436614990234e+00,3.060624122619628906e+00,3.060146808624267578e+00,3.059669494628906250e+00,3.059192657470703125e+00,3.058715820312500000e+00,3.015598535537719727e+00,2.941023111343383789e+00,2.870046854019165039e+00,2.802415847778320312e+00,2.737898588180541992e+00,2.676285505294799805e+00,2.617384195327758789e+00,2.561019420623779297e+00,2.507031679153442383e+00,2.455272674560546875e+00,2.405607938766479492e+00,2.357912540435791016e+00,2.312071561813354492e+00,2.267978906631469727e+00,2.225536584854125977e+00,2.184653759002685547e+00,2.145245790481567383e+00,2.107234239578247070e+00,2.070546388626098633e+00,2.035114049911499023e+00,2.000874280929565430e+00,1.967767357826232910e+00,1.935738205909729004e+00,1.904734849929809570e+00,1.874709129333496094e+00,1.845615386962890625e+00
2.605550289154052734e+00,2.605204343795776367e+00,2.604858398437500000e+00,2.604512691497802734e+00,2.604166984558105469e+00,2.603821516036987305e+00,2.603476047515869141e+00,2.603130578994750977e+00,2.602785348892211914e+00,2.602440118789672852e+00,2.602095127105712891e+00,2.601750135421752930e+00,2.601405143737792969e+00,2.601060390472412109e+00,2.600715637207031250e+00,2.600370645523071289e+00,2.600026130676269531e+00,2.599681615829467773e+00,2.599337339401245117e+00,2.598993062973022461e+00,2.598648786544799805e+00,2.598304748535156250e+00,2.597960710525512695e+00,2.597616672515869141e+00,2.597272872924804688e+00,2.596929311752319336e+00,2.596585512161254883e+00,2.596241950988769531e+00,2.595898628234863281e+00,2.595555305480957031e+00,2.595211982727050781e+00,2.594868659973144531e+00,2.594525575637817383e+00,2.594182491302490234e+00,2.593839645385742188e+00,2.593496799468994141e+00,2.593154191970825195e+00,2.592811584472656250e+00,2.592468976974487305e+00,2.592126369476318359e+00,2.591784000396728516e+00,2.591441631317138672e+00,2.591099500656127930e+00,2.590757369995117188e+00,2.590415239334106445e+00,2.590073347091674805e+00,2.589731454849243164e+00,2.589389801025390625e+00,2.589048147201538086e+00,2.588706493377685547e+00,2.588365077972412109e+00,2.588023662567138672e+00,2.587682485580444336e+00,2.587341308593750000e+00,2.587000131607055664e+00,2.586659193038940430e+00,2.586318254470825195e+00,2.585977315902709961e+00,2.585636615753173828e+00,2.585295915603637695e+00,2.584955453872680664e+00,2.561058282852172852e+00,2.507068634033203125e+00,2.455308198928833008e+00,2.405642032623291016e+00,2.357945203781127930e+00,2.312103033065795898e+00,2.268009185791015625e+00,2.225565910339355469e+00,2.184681892395019531e+00,2.145272970199584961e+00,2.107260465621948242e+00,2.070571660995483398e+00,2.035138607025146484e+00,2.000897884368896484e+00,1.967790246009826660e+00,1.935760259628295898e+00,1.904756307601928711e+00,1.874729871749877930e+00,1.845635533332824707e+00
2.255524396896362305e+00,2.255264759063720703e+00,2.255004882812500000e+00,2.254745244979858398e+00,2.254485607147216797e+00,2.254225730895996094e+00,2.253966331481933594e+00,2.253706693649291992e+00,2.253447294235229492e+00,2.253187894821166992e+00,2.252928495407104492e+00,2.252669334411621094e+00,2.252410173416137695e+00,2.252151012420654297e+00,2.251891851425170898e+00,2.251632690429687500e+00,2.251373767852783203e+00,2.251114845275878906e+00,2.250856161117553711e+00,2.250597238540649414e+00,2.250338554382324219e+00,2.250079870223999023e+00,2.249821186065673828e+00,2.249562978744506836e+00,2.249305248260498047e+00,2.249047279357910156e+00,2.248789548873901367e+00,2.248532056808471680e+00,2.248274326324462891e+00,2.248016834259033203e+00,2.247759342193603516e+00,2.247501850128173828e+00,2.247244358062744141e+00,2.246987104415893555e+00,2.246729850769042969e+00,2.246472597122192383e+00,2.246215343475341797e+00,2.245958328247070312e+00,2.245701313018798828e+00,2.245444297790527344e+00,2.245187282562255859e+00,2.244930505752563477e+00,2.244673728942871094e+00,2.244416952133178711e+00,2.244160175323486328e+00,2.243903636932373047e+00,2.243647098541259766e+00,2.243390321731567383e+00,2.243134021759033203e+00,2.242877483367919922e+00,2.242621183395385742e+00,2.242364883422851562e+00,2.242108821868896484e+00,2.241852521896362305e+00,2.241596460342407227e+00,2.241340398788452148e+00,2.241084337234497070e+00,2.240828514099121094e+00,2.240572690963745117e+00,2.240316867828369141e+00,2.240061044692993164e+00,2.239805459976196289e+00,2.239549636840820312e+00,2.239294052124023438e+00,2.239038705825805664e+00,2.238783121109008789e+00,2.238527774810791016e+00,2.238272428512573242e+00,2.225594997406005859e+00,2.184710025787353516e+00,2.145300149917602539e+00,2.107286691665649414e+00,2.070596933364868164e+00,2.035162925720214844e+00,2.000921487808227539e+00,1.967813134193420410e+00,1.935782432556152344e+00,1.904777646064758301e+00,1.874750614166259766e+00,1.845655679702758789e+00
1.988433122634887695e+00,1.988231182098388672e+00,1.988029241561889648e+00,1.987827420234680176e+00,1.987625598907470703e+00,1.987423777580261230e+00,1.987222075462341309e+00,1.987020373344421387e+00,1.986818671226501465e+00,1.986616849899291992e+00,1.986415266990661621e+00,1.986213803291320801e+00,1.986012220382690430e+00,1.985810875892639160e+00,1.985609412193298340e+00,1.985408067703247070e+00,1.985206723213195801e+00,1.985005378723144531e+00,1.984804153442382812e+00,1.984602689743041992e+00,1.984401583671569824e+00,1.984200358390808105e+00,1.983999371528625488e+00,1.983798265457153320e+00,1.983597278594970703e+00,1.983396291732788086e+00,1.983195424079895020e+00,1.982994556427001953e+00,1.982793450355529785e+00,1.982592582702636719e+00,1.982391834259033203e+00,1.982191085815429688e+00,1.981990456581115723e+00,1.981789827346801758e+00,1.981589198112487793e+00,1.981388688087463379e+00,1.981188178062438965e+00,1.980987668037414551e+00,1.980787038803100586e+00,1.980586647987365723e+00,1.980386257171630859e+00,1.980185866355895996e+00,1.979985594749450684e+00,1.979785442352294922e+00,1.979585170745849609e+00,1.979385018348693848e+00,1.979184985160827637e+00,1.978984594345092773e+00,1.978784561157226562e+00,1.978584647178649902e+00,1.978384613990783691e+00,1.978184700012207031e+00,1.977984905242919922e+00,1.977784991264343262e+00,1.977585196495056152e+00,1.977385520935058594e+00,1.977185726165771484e+00,1.976985812187194824e+00,1.976786255836486816e+00,1.976586580276489258e+00,1.976387023925781250e+00,1.976187586784362793e+00,1.975988149642944336e+00,1.975788712501525879e+00,1.975589275360107422e+00,1.975389957427978516e+00,1.975190401077270508e+00,1.974991083145141602e+00,1.974791884422302246e+00,1.974592685699462891e+00,1.974393606185913086e+00,1.974194407463073730e+00,1.973995327949523926e+00,1.973796367645263672e+00,1.973597407341003418e+00,1.967835903167724609e+00,1.935804486274719238e+00,1.904799103736877441e+00,1.874771356582641602e+00,1.845675706863403320e+00
1.777900457382202148e+00,1.777738928794860840e+00,1.777577519416809082e+00,1.777416110038757324e+00,1.777254819869995117e+00,1.777093529701232910e+00,1.776932120323181152e+00,1.776770949363708496e+00,1.776609659194946289e+00,1.776448249816894531e+00,1.776287078857421875e+00,1.776125907897949219e+00,1.775964736938476562e+00,1.775803685188293457e+00,1.775642633438110352e+00,1.775481581687927246e+00,1.775320529937744141e+00,1.775159597396850586e+00,1.774998426437377930e+00,1.774837493896484375e+00,1.774676680564880371e+00,1.774515748023986816e+00,1.774354934692382812e+00,1.774194121360778809e+00,1.774033308029174805e+00,1.773872613906860352e+00,1.773711919784545898e+00,1.773551225662231445e+00,1.773390293121337891e+00,1.773229718208312988e+00,1.773069143295288086e+00,1.772908568382263184e+00,1.772747993469238281e+00,1.772587418556213379e+00,1.772426962852478027e+00,1.772266507148742676e+00,1.772106051445007324e+00,1.771945476531982422e+00,1.771785140037536621e+00,1.771624803543090820e+00,1.771464467048645020e+00,1.771304249763488770e+00,1.771143913269042969e+00,1.770983695983886719e+00,1.770823478698730469e+00,1.770663380622863770e+00,1.770503044128417969e+00,1.770342946052551270e+00,1.770182847976684570e+00,1.770022749900817871e+00,1.769862771034240723e+00,1.769702792167663574e+00,1.769542813301086426e+00,1.769382834434509277e+00,1.769222974777221680e+00,1.769063115119934082e+00,1.768903017044067383e+00,1.768743157386779785e+00,1.768583416938781738e+00,1.768423676490783691e+00,1.768263936042785645e+00,1.768104195594787598e+00,1.767944574356079102e+00,1.767784953117370605e+00,1.767625212669372559e+00,1.767465710639953613e+00,1.767305970191955566e+00,1.767146348953247070e+00,1.766986966133117676e+00,1.766827464103698730e+00,1.766667962074279785e+00,1.766508579254150391e+00,1.766349196434020996e+00,1.766189813613891602e+00,1.766030550003051758e+00,1.765871047973632812e+00,1.765711784362792969e+00,1.765552520751953125e+00,1.765393376350402832e+00,1.765234112739562988e+00
1.607681274414062500e+00,1.607549190521240234e+00,1.607417225837707520e+00,1.607285261154174805e+00,1.607153296470642090e+00,1.607021331787109375e+00,1.606889486312866211e+00,1.606757521629333496e+00,1.606625556945800781e+00,1.606493711471557617e+00,1.606361865997314453e+00,1.606230139732360840e+00,1.606098294258117676e+00,1.605966567993164062e+00,1.605834841728210449e+00,1.605703115463256836e+00,1.605571389198303223e+00,1.605439782142639160e+00,1.605307936668395996e+00,1.605176329612731934e+00,1.605044722557067871e+00,1.604913115501403809e+00,1.604781627655029297e+00,1.604650020599365234e+00,1.604518532752990723e+00,1.604387044906616211e+00,1.604255557060241699e+00,1.604123950004577637e+00,1.603992462158203125e+00,1.603861093521118164e+00,1.603729724884033203e+00,1.603598356246948242e+00,1.603466987609863281e+00,1.603335618972778320e+00,1.603204369544982910e+00,1.603073120117187500e+00,1.602941632270812988e+00,1.602810382843017578e+00,1.602679252624511719e+00,1.602548003196716309e+00,1.602416872978210449e+00,1.602285742759704590e+00,1.602154612541198730e+00,1.602023482322692871e+00,1.601892352104187012e+00,1.601761341094970703e+00,1.601630091667175293e+00,1.601499080657958984e+00,1.601368069648742676e+00,1.601237058639526367e+00,1.601106166839599609e+00,1.600975155830383301e+00,1.600844264030456543e+00,1.600713372230529785e+00,1.600582480430603027e+00,1.600451588630676270e+00,1.600320696830749512e+00,1.600189924240112305e+00,1.600059151649475098e+00,1.599928259849548340e+00,1.599797487258911133e+00,1.599666833877563477e+00,1.599536180496215820e+00,1.599405407905578613e+00,1.599274754524230957e+00,1.599143981933593750e+00,1.599013328552246094e+00,1.598882794380187988e+00,1.598752260208129883e+00,1.598621606826782227e+00,1.598491191864013672e+00,1.598360657691955566e+00,1.598230123519897461e+00,1.598099708557128906e+00,1.597969055175781250e+00,1.597838640213012695e+00,1.597708225250244141e+00,1.597577810287475586e+00,1.597447514533996582e+00,1.597317099571228027e+00
1.467208266258239746e+00,1.467098236083984375e+00,1.466988325119018555e+00,1.466878414154052734e+00,1.466768503189086914e+00,1.466658592224121094e+00,1.466548681259155273e+00,1.466438770294189453e+00,1.466328859329223633e+00,1.466219067573547363e+00,1.466109275817871094e+00,1.465999484062194824e+00,1.465889692306518555e+00,1.465779900550842285e+00,1.465670228004455566e+00,1.465560436248779297e+00,1.465450763702392578e+00,1.465340971946716309e+00,1.465231299400329590e+00,1.465121626853942871e+00,1.465011954307556152e+00,1.464902400970458984e+00,1.464792728424072266e+00,1.464683175086975098e+00,1.464573621749877930e+00,1.464463949203491211e+00,1.464354276657104492e+00,1.464244842529296875e+00,1.464135289192199707e+00,1.464025855064392090e+00,1.463916301727294922e+00,1.463806867599487305e+00,1.463697433471679688e+00,1.463587999343872070e+00,1.463478565216064453e+00,1.463369131088256836e+00,1.463259696960449219e+00,1.463150262832641602e+00,1.463040947914123535e+00,1.462931632995605469e+00,1.462822318077087402e+00,1.462713003158569336e+00,1.462603688240051270e+00,1.462494492530822754e+00,1.462385177612304688e+00,1.462275862693786621e+00,1.462166666984558105e+00,1.462057471275329590e+00,1.461948275566101074e+00,1.461839079856872559e+00,1.461730003356933594e+00,1.461620807647705078e+00,1.461511731147766113e+00,1.461402654647827148e+00,1.461293578147888184e+00,1.461184382438659668e+00,1.461075305938720703e+00,1.460966229438781738e+00,1.460857272148132324e+00,1.460748195648193359e+00,1.460639238357543945e+00,1.460530281066894531e+00,1.460421323776245117e+00,1.460312366485595703e+00,1.460203289985656738e+00,1.460094451904296875e+00,1.459985494613647461e+00,1.459876656532287598e+00,1.459767818450927734e+00,1.459658980369567871e+00,1.459550142288208008e+00,1.459441304206848145e+00,1.459332466125488281e+00,1.459223747253417969e+00,1.459114909172058105e+00,1.459006071090698242e+00,1.458897352218627930e+00,1.458788633346557617e+00,1.458680033683776855e+00,1.458571314811706543e+00
1.349310636520385742e+00,1.349217653274536133e+00,1.349124670028686523e+00,1.349031686782836914e+00,1.348938703536987305e+00,1.348845720291137695e+00,1.348752856254577637e+00,1.348659753799438477e+00,1.348566889762878418e+00,1.348474025726318359e+00,1.348381161689758301e+00,1.348288297653198242e+00,1.348195433616638184e+00,1.348102569580078125e+00,1.348009705543518066e+00,1.347916960716247559e+00,1.347823977470397949e+00,1.347731232643127441e+00,1.347638487815856934e+00,1.347545742988586426e+00,1.347452878952026367e+00,1.347360253334045410e+00,1.347267508506774902e+00,1.347174763679504395e+00,1.347082138061523438e+00,1.346989393234252930e+00,1.346896648406982422e+00,1.346804022789001465e+00,1.346711277961730957e+00,1.346618652343750000e+00,1.346526026725769043e+00,1.346433401107788086e+00,1.346340894699096680e+00,1.346248269081115723e+00,1.346155643463134766e+00,1.346063017845153809e+00,1.345970511436462402e+00,1.345878005027770996e+00,1.345785379409790039e+00,1.345692873001098633e+00,1.345600366592407227e+00,1.345507979393005371e+00,1.345415472984313965e+00,1.345322966575622559e+00,1.345230579376220703e+00,1.345138072967529297e+00,1.345045566558837891e+00,1.344953179359436035e+00,1.344860792160034180e+00,1.344768404960632324e+00,1.344676017761230469e+00,1.344583749771118164e+00,1.344491362571716309e+00,1.344398975372314453e+00,1.344306588172912598e+00,1.344214320182800293e+00,1.344121932983398438e+00,1.344029664993286133e+00,1.343937397003173828e+00,1.343845129013061523e+00,1.343752980232238770e+00,1.343660712242126465e+00,1.343568444252014160e+00,1.343476295471191406e+00,1.343384027481079102e+00,1.343291759490966797e+00,1.343199610710144043e+00,1.343107461929321289e+00,1.343015313148498535e+00,1.342923164367675781e+00,1.342831134796142578e+00,1.342738986015319824e+00,1.342646956443786621e+00,1.342554688453674316e+00,1.342462658882141113e+00,1.342370629310607910e+00,1.342278599739074707e+00,1.342186570167541504e+00,1.342094540596008301e+00,1.342002511024475098e+00
1.248951077461242676e+00,1.248871326446533203e+00,1.248791694641113281e+00,1.248712062835693359e+00,1.248632431030273438e+00,1.248552799224853516e+00,1.248473048210144043e+00,1.248393535614013672e+00,1.248313903808593750e+00,1.248234272003173828e+00,1.248154640197753906e+00,1.248075127601623535e+00,1.247995615005493164e+00,1.247915983200073242e+00,1.247836470603942871e+00,1.247756958007812500e+00,1.247677326202392578e+00,1.247597813606262207e+00,1.247518301010131836e+00,1.247438788414001465e+00,1.247359275817871094e+00,1.247279882431030273e+00,1.247200369834899902e+00,1.247120976448059082e+00,1.247041463851928711e+00,1.246961951255798340e+00,1.246882557868957520e+00,1.246803164482116699e+00,1.246723771095275879e+00,1.246644377708435059e+00,1.246564984321594238e+00,1.246485590934753418e+00,1.246406197547912598e+00,1.246326923370361328e+00,1.246247529983520508e+00,1.246168136596679688e+00,1.246088743209838867e+00,1.246009469032287598e+00,1.245930194854736328e+00,1.245850920677185059e+00,1.245771646499633789e+00,1.245692372322082520e+00,1.245613098144531250e+00,1.245533823966979980e+00,1.245454430580139160e+00,1.245375275611877441e+00,1.245296001434326172e+00,1.245216846466064453e+00,1.245137572288513184e+00,1.245058417320251465e+00,1.244979262351989746e+00,1.244900107383728027e+00,1.244820952415466309e+00,1.244741797447204590e+00,1.244662523269653320e+00,1.244583368301391602e+00,1.244504332542419434e+00,1.244425177574157715e+00,1.244346141815185547e+00,1.244266986846923828e+00,1.244187951087951660e+00,1.244108796119689941e+00,1.244029760360717773e+00,1.243950605392456055e+00,1.243871569633483887e+00,1.243792533874511719e+00,1.243713617324829102e+00,1.243634581565856934e+00,1.243555545806884766e+00,1.243476629257202148e+00,1.243397593498229980e+00,1.243318676948547363e+00,1.243239641189575195e+00,1.243160605430603027e+00,1.243081688880920410e+00,1.243002772331237793e+00,1.242923855781555176e+00,1.242844939231872559e+00,1.242766022682189941e+00,1.242687225341796875e+00
1.162487149238586426e+00,1.162418127059936523e+00,1.162349104881286621e+00,1.162280201911926270e+00,1.162211179733276367e+00,1.162142157554626465e+00,1.162073135375976562e+00,1.162004113197326660e+00,1.161935091018676758e+00,1.161866188049316406e+00,1.161797285079956055e+00,1.161728262901306152e+00,1.161659359931945801e+00,1.161590456962585449e+00,1.161521553993225098e+00,1.161452531814575195e+00,1.161383628845214844e+00,1.161314725875854492e+00,1.161245822906494141e+00,1.161176919937133789e+00,1.161108016967773438e+00,1.161039233207702637e+00,1.160970330238342285e+00,1.160901546478271484e+00,1.160832643508911133e+00,1.160763740539550781e+00,1.160694956779479980e+00,1.160626173019409180e+00,1.160557270050048828e+00,1.160488486289978027e+00,1.160419702529907227e+00,1.160350918769836426e+00,1.160282135009765625e+00,1.160213470458984375e+00,1.160144567489624023e+00,1.160075783729553223e+00,1.160007119178771973e+00,1.159938335418701172e+00,1.159869670867919922e+00,1.159800887107849121e+00,1.159732222557067871e+00,1.159663558006286621e+00,1.159594774246215820e+00,1.159526109695434570e+00,1.159457325935363770e+00,1.159388661384582520e+00,1.159319996833801270e+00,1.159251332283020020e+00,1.159182786941528320e+00,1.159114122390747070e+00,1.159045457839965820e+00,1.158976912498474121e+00,1.158908247947692871e+00,1.158839583396911621e+00,1.158770918846130371e+00,1.158702373504638672e+00,1.158633828163146973e+00,1.158565282821655273e+00,1.158496618270874023e+00,1.158428072929382324e+00,1.158359646797180176e+00,1.158291101455688477e+00,1.158222436904907227e+00,1.158153891563415527e+00,1.158085465431213379e+00,1.158016920089721680e+00,1.157948374748229980e+00,1.157879948616027832e+00,1.157811522483825684e+00,1.157742977142333984e+00,1.157674551010131836e+00,1.157606124877929688e+00,1.157537579536437988e+00,1.157469153404235840e+00,1.157400727272033691e+00,1.157332301139831543e+00,1.157263875007629395e+00,1.157195448875427246e+00,1.157127022743225098e+00,1.157058596611022949e+00
1.087219834327697754e+00,1.087159395217895508e+00,1.087099075317382812e+00,1.087038636207580566e+00,1.086978316307067871e+00,1.086917877197265625e+00,1.086857557296752930e+00,1.086797237396240234e+00,1.086736917495727539e+00,1.086676597595214844e+00,1.086616277694702148e+00,1.086555957794189453e+00,1.086495637893676758e+00,1.086435317993164062e+00,1.086374998092651367e+00,1.086314678192138672e+00,1.086254477500915527e+00,1.086194157600402832e+00,1.086133956909179688e+00,1.086073637008666992e+00,1.086013436317443848e+00,1.085953116416931152e+00,1.085892915725708008e+00,1.085832715034484863e+00,1.085772395133972168e+00,1.085712194442749023e+00,1.085651993751525879e+00,1.085591793060302734e+00,1.085531592369079590e+00,1.085471391677856445e+00,1.085411190986633301e+00,1.085350990295410156e+00,1.085290908813476562e+00,1.085230708122253418e+00,1.085170507431030273e+00,1.085110306739807129e+00,1.085050225257873535e+00,1.084990024566650391e+00,1.084929943084716797e+00,1.084869861602783203e+00,1.084809660911560059e+00,1.084749579429626465e+00,1.084689497947692871e+00,1.084629297256469727e+00,1.084569215774536133e+00,1.084509134292602539e+00,1.084449052810668945e+00,1.084388971328735352e+00,1.084328889846801758e+00,1.084268808364868164e+00,1.084208846092224121e+00,1.084148764610290527e+00,1.084088683128356934e+00,1.084028601646423340e+00,1.083968639373779297e+00,1.083908557891845703e+00,1.083848595619201660e+00,1.083788633346557617e+00,1.083728551864624023e+00,1.083668589591979980e+00,1.083608627319335938e+00,1.083548665046691895e+00,1.083488583564758301e+00,1.083428621292114258e+00,1.083368659019470215e+00,1.083308696746826172e+00,1.083248734474182129e+00,1.083188891410827637e+00,1.083128929138183594e+00,1.083068966865539551e+00,1.083009123802185059e+00,1.082949161529541016e+00,1.082889199256896973e+00,1.082829356193542480e+00,1.082769393920898438e+00,1.082709550857543945e+00,1.082649588584899902e+00,1.082589745521545410e+00,1.082529902458190918e+00,1.082470059394836426e+00
1.021106362342834473e+00,1.021053075790405273e+00,1.020999908447265625e+00,1.020946621894836426e+00,1.020893335342407227e+00,1.020840048789978027e+00,1.020786881446838379e+00,1.020733594894409180e+00,1.020680427551269531e+00,1.020627260208129883e+00,1.020573973655700684e+00,1.020520806312561035e+00,1.020467638969421387e+00,1.020414471626281738e+00,1.020361185073852539e+00,1.020308017730712891e+00,1.020254850387573242e+00,1.020201683044433594e+00,1.020148515701293945e+00,1.020095348358154297e+00,1.020042181015014648e+00,1.019989013671875000e+00,1.019935846328735352e+00,1.019882678985595703e+00,1.019829511642456055e+00,1.019776463508605957e+00,1.019723296165466309e+00,1.019670248031616211e+00,1.019617080688476562e+00,1.019564032554626465e+00,1.019510865211486816e+00,1.019457817077636719e+00,1.019404768943786621e+00,1.019351601600646973e+00,1.019298553466796875e+00,1.019245386123657227e+00,1.019192337989807129e+00,1.019139289855957031e+00,1.019086241722106934e+00,1.019033193588256836e+00,1.018980145454406738e+00,1.018927097320556641e+00,1.018874049186706543e+00,1.018821001052856445e+00,1.018768072128295898e+00,1.018715023994445801e+00,1.018661975860595703e+00,1.018609046936035156e+00,1.018555998802185059e+00,1.018502950668334961e+00,1.018450021743774414e+00,1.018397092819213867e+00,1.018344044685363770e+00,1.018290996551513672e+00,1.018238067626953125e+00,1.018185138702392578e+00,1.018132209777832031e+00,1.018079161643981934e+00,1.018026232719421387e+00,1.017973303794860840e+00,1.017920374870300293e+00,1.017867445945739746e+00,1.017814517021179199e+00,1.017761588096618652e+00,1.017708659172058105e+00,1.017655730247497559e+00,1.017602920532226562e+00,1.017549991607666016e+00,1.017497062683105469e+00,1.017444252967834473e+00,1.017391324043273926e+00,1.017338395118713379e+00,1.017285585403442383e+00,1.017232656478881836e+00,1.017179846763610840e+00,1.017126917839050293e+00,1.017074108123779297e+00,1.017021298408508301e+00,1.016968488693237305e+00,1.016915678977966309e+00
9.625728130340576172e-01,9.625254273414611816e-01,9.624781608581542969e-01,9.624307751655578613e-01,9.623833894729614258e-01,9.623361229896545410e-01,9.622887969017028809e-01,9.622415304183959961e-01,9.621942043304443359e-01,9.621469378471374512e-01,9.620996117591857910e-01,9.620524048805236816e-01,9.620050787925720215e-01,9.619577527046203613e-01,9.619105458259582520e-01,9.618632197380065918e-01,9.618160128593444824e-01,9.617686867713928223e-01,9.617214798927307129e-01,9.616742134094238281e-01,9.616270065307617188e-01,9.615797400474548340e-01,9.615325331687927246e-01,9.614852666854858398e-01,9.614380002021789551e-01,9.613908529281616211e-01,9.613435864448547363e-01,9.612964391708374023e-01,9.612491726875305176e-01,9.612020254135131836e-01,9.611548185348510742e-01,9.611076712608337402e-01,9.610604047775268555e-01,9.610131978988647461e-01,9.609660506248474121e-01,9.609188437461853027e-01,9.608717560768127441e-01,9.608245491981506348e-01,9.607774019241333008e-01,9.607301950454711914e-01,9.606831073760986328e-01,9.606359004974365234e-01,9.605887532234191895e-01,9.605416655540466309e-01,9.604944586753845215e-01,9.604474306106567383e-01,9.604002237319946289e-01,9.603531956672668457e-01,9.603059887886047363e-01,9.602589607238769531e-01,9.602118134498596191e-01,9.601646661758422852e-01,9.601176381111145020e-01,9.600704908370971680e-01,9.600234627723693848e-01,9.599763154983520508e-01,9.599292874336242676e-01,9.598821997642517090e-01,9.598351716995239258e-01,9.597880840301513672e-01,9.597410559654235840e-01,9.596939682960510254e-01,9.596468806266784668e-01,9.595998525619506836e-01,9.595527648925781250e-01,9.595057964324951172e-01,9.594587087631225586e-01,9.594117403030395508e-01,9.593647122383117676e-01,9.593177437782287598e-01,9.592706561088562012e-01,9.592236280441284180e-01,9.591766595840454102e-01,9.591296315193176270e-01,9.590826630592346191e-01,9.590356349945068359e-01,9.589887261390686035e-01,9.589416980743408203e-01,9.588947892189025879e-01,9.588477611541748047e-01
