5.000000000000000000e+00,5.000000000000000000e+00,5.000000000000000000e+00,5.000000000000000000e+00,5.000000000000000000e+00,5.000000000000000000e+00,5.000000000000000000e+00,5.000000000000000000e+00,5.000000000000000000e+00,5.000000000000000000e+00,5.000000000000000000e+00,5.000000000000000000e+00,5.000000000000000000e+00,5.000000000000000000e+00,5.000000000000000000e+00,5.000000000000000000e+00,5.000000000000000000e+00,5.000000000000000000e+00,5.000000000000000000e+00,5.000000000000000000e+00,5.000000000000000000e+00,5.000000000000000000e+00,5.000000000000000000e+00,5.000000000000000000e+00,5.000000000000000000e+00,5.000000000000000000e+00,5.000000000000000000e+00,5.000000000000000000e+00,5.000000000000000000e+00,5.000000000000000000e+00,5.000000000000000000e+00,5.000000000000000000e+00,5.000000000000000000e+00,5.000000000000000000e+00,5.000000000000000000e+00,5.000000000000000000e+00,5.000000000000000000e+00,5.000000000000000000e+00,5.000000000000000000e+00,5.000000000000000000e+00,5.000000000000000000e+00,4.678966999053955078e+00,4.500563144683837891e+00,4.335264682769775391e+00,4.181677818298339844e+00,4.038601398468017578e+00,3.904991865158081055e+00,3.779939413070678711e+00,3.662647724151611328e+00,3.552416086196899414e+00,3.448625802993774414e+00,3.350728034973144531e+00,3.258235454559326172e+00,3.170711517333984375e+00,3.087766885757446289e+00,3.009051084518432617e+00,2.934249162673950195e+00,2.863075733184814453e+00,2.795273542404174805e+00,2.730608463287353516e+00,2.668867588043212891e+00,2.609856843948364258e+00,2.553399085998535156e+00,2.499332427978515625e+00,2.447507858276367188e+00,2.397789001464843750e+00,2.350049734115600586e+00,2.304174423217773438e+00,2.260056018829345703e+00,2.217595100402832031e+00,2.176700115203857422e+00,2.137286663055419922e+00,2.099274635314941406e+00,2.062591314315795898e+00,2.027167797088623047e+00,1.992940664291381836e+00,1.959850072860717773e+00,1.927840352058410645e+00,1.896859645843505859e+00,1.866858720779418945e+00
5.000000000000000000e+00,5.000000000000000000e+00,5.000000000000000000e+00,5.000000000000000000e+00,5.000000000000000000e+00,5.000000000000000000e+00,5.000000000000000000e+00,5.000000000000000000e+00,5.000000000000000000e+00,5.000000000000000000e+00,5.000000000000000000e+00,5.000000000000000000e+00,5.000000000000000000e+00,5.000000000000000000e+00,5.000000000000000000e+00,5.000000000000000000e+00,5.000000000000000000e+00,5.000000000000000000e+00,5.000000000000000000e+00,5.000000000000000000e+00,5.000000000000000000e+00,5.000000000000000000e+00,5.000000000000000000e+00,5.000000000000000000e+00,5.000000000000000000e+00,5.000000000000000000e+00,5.000000000000000000e+00,5.000000000000000000e+00,5.000000000000000000e+00,5.000000000000000000e+00,5.000000000000000000e+00,5.000000000000000000e+00,5.000000000000000000e+00,5.000000000000000000e+00,5.000000000000000000e+00,5.000000000000000000e+00,5.000000000000000000e+00,5.000000000000000000e+00,5.000000000000000000e+00,5.000000000000000000e+00,4.872241497039794922e+00,4.679098606109619141e+00,4.500685214996337891e+00,4.335377693176269531e+00,4.181783199310302734e+00,4.038699626922607422e+00,3.905083656311035156e+00,3.780025482177734375e+00,3.662728548049926758e+00,3.552492141723632812e+00,3.448697328567504883e+00,3.350795507431030273e+00,3.258299112319946289e+00,3.170772075653076172e+00,3.087824344635009766e+00,3.009105682373046875e+00,2.934300899505615234e+00,2.863125085830688477e+00,2.795320510864257812e+00,2.730653285980224609e+00,2.668910264968872070e+00,2.609897851943969727e+00,2.553438425064086914e+00,2.499369859695434570e+00,2.447544097900390625e+00,2.397823333740234375e+00,2.350083112716674805e+00,2.304206371307373047e+00,2.260086536407470703e+00,2.217624664306640625e+00,2.176728725433349609e+00,2.137313842773437500e+00,2.099301099777221680e+00,2.062616825103759766e+00,2.027192592620849609e+00,1.992964506149291992e+00,1.959873199462890625e+00,1.927862763404846191e+00,1.896881341934204102e+00,1.866879820823669434e+00
5.000000000000000000e+00,5.000000000000000000e+00,5.000000000000000000e+00,5.000000000000000000e+00,5.000000000000000000e+00,5.000000000000000000e+00,5.000000000000000000e+00,5.000000000000000000e+00,5.000000000000000000e+00,5.000000000000000000e+00,5.000000000000000000e+00,5.000000000000000000e+00,5.000000000000000000e+00,5.000000000000000000e+00,5.000000000000000000e+00,5.000000000000000000e+00,5.000000000000000000e+00,5.000000000000000000e+00,5.000000000000000000e+00,5.000000000000000000e+00,5.000000000000000000e+00,5.000000000000000000e+00,5.000000000000000000e+00,5.000000000000000000e+00,5.000000000000000000e+00,5.000000000000000000e+00,5.000000000000000000e+00,5.000000000000000000e+00,5.000000000000000000e+00,5.000000000000000000e+00,5.000000000000000000e+00,5.000000000000000000e+00,5.000000000000000000e+00,5.000000000000000000e+00,5.000000000000000000e+00,5.000000000000000000e+00,5.000000000000000000e+00,5.000000000000000000e+00,5.000000000000000000e+00,5.000000000000000000e+00,4.872384071350097656e+00,4.679230690002441406e+00,4.500807285308837891e+00,4.335490703582763672e+00,4.181888580322265625e+00,4.038797855377197266e+00,3.905175209045410156e+00,3.780111551284790039e+00,3.662809371948242188e+00,3.552568197250366211e+00,3.448768854141235352e+00,3.350863218307495117e+00,3.258363008499145508e+00,3.170832633972167969e+00,3.087881565093994141e+00,3.009160280227661133e+00,2.934352874755859375e+00,2.863174438476562500e+00,2.795367479324340820e+00,2.730697870254516602e+00,2.668953180313110352e+00,2.609938859939575195e+00,2.553477525711059570e+00,2.499407529830932617e+00,2.447580099105834961e+00,2.397858142852783203e+00,2.350116252899169922e+00,2.304238319396972656e+00,2.260117292404174805e+00,2.217654228210449219e+00,2.176757335662841797e+00,2.137341499328613281e+00,2.099327564239501953e+00,2.062642574310302734e+00,2.027217388153076172e+00,1.992988467216491699e+00,1.959896326065063477e+00,1.927885174751281738e+00,1.896902799606323242e+00,1.866900801658630371e+00
5.000000000000000000e+00,5.000000000000000000e+00,5.000000000000000000e+00,5.000000000000000000e+00,5.000000000000000000e+00,5.000000000000000000e+00,5.000000000000000000e+00,5.000000000000000000e+00,5.000000000000000000e+00,5.000000000000000000e+00,5.000000000000000000e+00,5.000000000000000000e+00,5.000000000000000000e+00,5.000000000000000000e+00,5.000000000000000000e+00,5.000000000000000000e+00,5.000000000000000000e+00,5.000000000000000000e+00,5.000000000000000000e+00,5.000000000000000000e+00,5.000000000000000000e+00,5.000000000000000000e+00,5.000000000000000000e+00,5.000000000000000000e+00,5.000000000000000000e+00,5.000000000000000000e+00,5.000000000000000000e+00,5.000000000000000000e+00,5.000000000000000000e+00,5.000000000000000000e+00,5.000000000000000000e+00,5.000000000000000000e+00,5.000000000000000000e+00,5.000000000000000000e+00,5.000000000000000000e+00,5.000000000000000000e+00,5.000000000000000000e+00,5.000000000000000000e+00,5.000000000000000000e+00,5.000000000000000000e+00,4.872527122497558594e+00,4.679362297058105469e+00,4.500928878784179688e+00,4.335603713989257812e+00,4.181993961334228516e+00,4.038895606994628906e+00,3.905267000198364258e+00,3.780197620391845703e+00,3.662889957427978516e+00,3.552644014358520508e+00,3.448840618133544922e+00,3.350930690765380859e+00,3.258426904678344727e+00,3.170892715454101562e+00,3.087939023971557617e+00,3.009214639663696289e+00,2.934404611587524414e+00,2.863223791122436523e+00,2.795414447784423828e+00,2.730742931365966797e+00,2.668996095657348633e+00,2.609979867935180664e+00,2.553516864776611328e+00,2.499445199966430664e+00,2.447616100311279297e+00,2.397892713546752930e+00,2.350149393081665039e+00,2.304270267486572266e+00,2.260148048400878906e+00,2.217683792114257812e+00,2.176785707473754883e+00,2.137368917465209961e+00,2.099354028701782227e+00,2.062668085098266602e+00,2.027241945266723633e+00,1.993012309074401855e+00,1.959919452667236328e+00,1.927907466888427734e+00,1.896924495697021484e+00,1.866921782493591309e+00
5.000000000000000000e+00,5.000000000000000000e+00,5.000000000000000000e+00,5.000000000000000000e+00,5.000000000000000000e+00,5.000000000000000000e+00,5.000000000000000000e+00,5.000000000000000000e+00,5.000000000000000000e+00,5.000000000000000000e+00,5.000000000000000000e+00,5.000000000000000000e+00,5.000000000000000000e+00,5.000000000000000000e+00,5.000000000000000000e+00,5.000000000000000000e+00,5.000000000000000000e+00,5.000000000000000000e+00,5.000000000000000000e+00,5.000000000000000000e+00,5.000000000000000000e+00,5.000000000000000000e+00,5.000000000000000000e+00,5.000000000000000000e+00,5.000000000000000000e+00,5.000000000000000000e+00,5.000000000000000000e+00,5.000000000000000000e+00,5.000000000000000000e+00,5.000000000000000000e+00,5.000000000000000000e+00,5.000000000000000000e+00,5.000000000000000000e+00,5.000000000000000000e+00,5.000000000000000000e+00,5.000000000000000000e+00,5.000000000000000000e+00,5.000000000000000000e+00,5.000000000000000000e+00,5.000000000000000000e+00,4.872669696807861328e+00,4.679493904113769531e+00,4.501050949096679688e+00,4.335717201232910156e+00,4.182098865509033203e+00,4.038993835449218750e+00,3.905358791351318359e+00,3.780283212661743164e+00,3.662970781326293945e+00,3.552720069885253906e+00,3.448912143707275391e+00,3.350998401641845703e+00,3.258490800857543945e+00,3.170953273773193359e+00,3.087996482849121094e+00,3.009269237518310547e+00,2.934456348419189453e+00,2.863273143768310547e+00,2.795461654663085938e+00,2.730787754058837891e+00,2.669038772583007812e+00,2.610020875930786133e+00,2.553556203842163086e+00,2.499482870101928711e+00,2.447652101516723633e+00,2.397927284240722656e+00,2.350182533264160156e+00,2.304302215576171875e+00,2.260178804397583008e+00,2.217713356018066406e+00,2.176814317703247070e+00,2.137396335601806641e+00,2.099380731582641602e+00,2.062693595886230469e+00,2.027266740798950195e+00,1.993036270141601562e+00,1.959942579269409180e+00,1.927929878234863281e+00,1.896946191787719727e+00,1.866942644119262695e+00
5.000000000000000000e+00,5.000000000000000000e+00,5.000000000000000000e+00,5.000000000000000000e+00,5.000000000000000000e+00,5.000000000000000000e+00,5.000000000000000000e+00,5.000000000000000000e+00,5.000000000000000000e+00,5.000000000000000000e+00,5.000000000000000000e+00,5.000000000000000000e+00,5.000000000000000000e+00,5.000000000000000000e+00,5.000000000000000000e+00,5.000000000000000000e+00,5.000000000000000000e+00,5.000000000000000000e+00,5.000000000000000000e+00,5.000000000000000000e+00,5.000000000000000000e+00,5.000000000000000000e+00,5.000000000000000000e+00,5.000000000000000000e+00,5.000000000000000000e+00,5.000000000000000000e+00,5.000000000000000000e+00,5.000000000000000000e+00,5.000000000000000000e+00,5.000000000000000000e+00,5.000000000000000000e+00,5.000000000000000000e+00,5.000000000000000000e+00,5.000000000000000000e+00,5.000000000000000000e+00,5.000000000000000000e+00,5.000000000000000000e+00,5.000000000000000000e+00,5.000000000000000000e+00,5.000000000000000000e+00,4.872812747955322266e+00,4.679625511169433594e+00,4.501173019409179688e+00,4.335830211639404297e+00,4.182204246520996094e+00,4.039092063903808594e+00,3.905450582504272461e+00,3.780369043350219727e+00,3.663051605224609375e+00,3.552796125411987305e+00,3.448983669281005859e+00,3.351066112518310547e+00,3.258554697036743164e+00,3.171013832092285156e+00,3.088053464889526367e+00,3.009323835372924805e+00,2.934508323669433594e+00,2.863322496414184570e+00,2.795508623123168945e+00,2.730832576751708984e+00,2.669081687927246094e+00,2.610061883926391602e+00,2.553595304489135742e+00,2.499520301818847656e+00,2.447688341140747070e+00,2.397961854934692383e+00,2.350215911865234375e+00,2.304334163665771484e+00,2.260209560394287109e+00,2.217743158340454102e+00,2.176842927932739258e+00,2.137423992156982422e+00,2.099407196044921875e+00,2.062719106674194336e+00,2.027291536331176758e+00,1.993060231208801270e+00,1.959965705871582031e+00,1.927952289581298828e+00,1.896967887878417969e+00,1.866963505744934082e+00
5.000000000000000000e+00,5.000000000000000000e+00,5.000000000000000000e+00,5.000000000000000000e+00,5.000000000000000000e+00,5.000000000000000000e+00,5.000000000000000000e+00,5.000000000000000000e+00,5.000000000000000000e+00,5.000000000000000000e+00,5.000000000000000000e+00,5.000000000000000000e+00,5.000000000000000000e+00,5.000000000000000000e+00,5.000000000000000000e+00,5.000000000000000000e+00,5.000000000000000000e+00,5.000000000000000000e+00,5.000000000000000000e+00,5.000000000000000000e+00,5.000000000000000000e+00,5.000000000000000000e+00,5.000000000000000000e+00,5.000000000000000000e+00,5.000000000000000000e+00,5.000000000000000000e+00,5.000000000000000000e+00,5.000000000000000000e+00,5.000000000000000000e+00,5.000000000000000000e+00,5.000000000000000000e+00,5.000000000000000000e+00,5.000000000000000000e+00,5.000000000000000000e+00,5.000000000000000000e+00,5.000000000000000000e+00,5.000000000000000000e+00,5.000000000000000000e+00,5.000000000000000000e+00,5.000000000000000000e+00,4.872955799102783203e+00,4.679757595062255859e+00,4.501294612884521484e+00,4.335943222045898438e+00,4.182309627532958984e+00,4.039190292358398438e+00,3.905542373657226562e+00,3.780455112457275391e+00,3.663131952285766602e+00,3.552871942520141602e+00,3.449055433273315430e+00,3.351133584976196289e+00,3.258618593215942383e+00,3.171074390411376953e+00,3.088110923767089844e+00,3.009378194808959961e+00,2.934560060501098633e+00,2.863371849060058594e+00,2.795555591583251953e+00,2.730877637863159180e+00,2.669124603271484375e+00,2.610102653503417969e+00,2.553634643554687500e+00,2.499557971954345703e+00,2.447724342346191406e+00,2.397996425628662109e+00,2.350249052047729492e+00,2.304366111755371094e+00,2.260240316390991211e+00,2.217772722244262695e+00,2.176871299743652344e+00,2.137451410293579102e+00,2.099433660507202148e+00,2.062744855880737305e+00,2.027316093444824219e+00,1.993084073066711426e+00,1.959988832473754883e+00,1.927974581718444824e+00,1.896989464759826660e+00,1.866984605789184570e+00
5.000000000000000000e+00,5.000000000000000000e+00,5.000000000000000000e+00,5.000000000000000000e+00,5.000000000000000000e+00,5.000000000000000000e+00,5.000000000000000000e+00,5.000000000000000000e+00,5.000000000000000000e+00,5.000000000000000000e+00,5.000000000000000000e+00,5.000000000000000000e+00,5.000000000000000000e+00,5.000000000000000000e+00,5.000000000000000000e+00,5.000000000000000000e+00,5.000000000000000000e+00,5.000000000000000000e+00,5.000000000000000000e+00,5.000000000000000000e+00,5.000000000000000000e+00,5.000000000000000000e+00,5.000000000000000000e+00,5.000000000000000000e+00,5.000000000000000000e+00,5.000000000000000000e+00,5.000000000000000000e+00,5.000000000000000000e+00,5.000000000000000000e+00,5.000000000000000000e+00,5.000000000000000000e+00,5.000000000000000000e+00,5.000000000000000000e+00,5.000000000000000000e+00,5.000000000000000000e+00,5.000000000000000000e+00,5.000000000000000000e+00,5.000000000000000000e+00,5.000000000000000000e+00,5.000000000000000000e+00,4.873098850250244141e+00,4.679889202117919922e+00,4.501416683197021484e+00,4.336056709289550781e+00,4.182414531707763672e+00,4.039288520812988281e+00,3.905634164810180664e+00,3.780541181564331055e+00,3.663212776184082031e+00,3.552947759628295898e+00,3.449126958847045898e+00,3.351201295852661133e+00,3.258682489395141602e+00,3.171134948730468750e+00,3.088168382644653320e+00,3.009432554244995117e+00,2.934612035751342773e+00,2.863421201705932617e+00,2.795602798461914062e+00,2.730922460556030273e+00,2.669167518615722656e+00,2.610143661499023438e+00,2.553673982620239258e+00,2.499595642089843750e+00,2.447760343551635742e+00,2.398031234741210938e+00,2.350282430648803711e+00,2.304398059844970703e+00,2.260271072387695312e+00,2.217802286148071289e+00,2.176899909973144531e+00,2.137478828430175781e+00,2.099460124969482422e+00,2.062770366668701172e+00,2.027340888977050781e+00,1.993108034133911133e+00,1.960011959075927734e+00,1.927996993064880371e+00,1.897011160850524902e+00,1.867005586624145508e+00
5.000000000000000000e+00,5.000000000000000000e+00,5.000000000000000000e+00,5.000000000000000000e+00,5.000000000000000000e+00,5.000000000000000000e+00,5.000000000000000000e+00,5.000000000000000000e+00,5.000000000000000000e+00,5.000000000000000000e+00,5.000000000000000000e+00,5.000000000000000000e+00,5.000000000000000000e+00,5.000000000000000000e+00,5.000000000000000000e+00,5.000000000000000000e+00,5.000000000000000000e+00,5.000000000000000000e+00,5.000000000000000000e+00,5.000000000000000000e+00,5.000000000000000000e+00,5.000000000000000000e+00,5.000000000000000000e+00,5.000000000000000000e+00,5.000000000000000000e+00,5.000000000000000000e+00,5.000000000000000000e+00,5.000000000000000000e+00,5.000000000000000000e+00,5.000000000000000000e+00,5.000000000000000000e+00,5.000000000000000000e+00,5.000000000000000000e+00,5.000000000000000000e+00,5.000000000000000000e+00,5.000000000000000000e+00,5.000000000000000000e+00,5.000000000000000000e+00,5.000000000000000000e+00,5.000000000000000000e+00,4.873241424560546875e+00,4.680021286010742188e+00,4.501538753509521484e+00,4.336169242858886719e+00,4.182519912719726562e+00,4.039386749267578125e+00,3.905725955963134766e+00,3.780627250671386719e+00,3.663293600082397461e+00,3.553023576736450195e+00,3.449198722839355469e+00,3.351268768310546875e+00,3.258746385574340820e+00,3.171195507049560547e+00,3.088225841522216797e+00,3.009487152099609375e+00,2.934663772583007812e+00,2.863470554351806641e+00,2.795649766921997070e+00,2.730967283248901367e+00,2.669210433959960938e+00,2.610184669494628906e+00,2.553713083267211914e+00,2.499633312225341797e+00,2.447796344757080078e+00,2.398065805435180664e+00,2.350315570831298828e+00,2.304430007934570312e+00,2.260301828384399414e+00,2.217831850051879883e+00,2.176928520202636719e+00,2.137506484985351562e+00,2.099486827850341797e+00,2.062796115875244141e+00,2.027365684509277344e+00,1.993131875991821289e+00,1.960035085678100586e+00,1.928019404411315918e+00,1.897032856941223145e+00,1.867026567459106445e+00
5.000000000000000000e+00,5.000000000000000000e+00,5.000000000000000000e+00,5.000000000000000000e+00,5.000000000000000000e+00,5.000000000000000000e+00,5.000000000000000000e+00,5.000000000000000000e+00,5.000000000000000000e+00,5.000000000000000000e+00,5.000000000000000000e+00,5.000000000000000000e+00,5.000000000000000000e+00,5.000000000000000000e+00,5.000000000000000000e+00,5.000000000000000000e+00,5.000000000000000000e+00,5.000000000000000000e+00,5.000000000000000000e+00,5.000000000000000000e+00,5.000000000000000000e+00,5.000000000000000000e+00,5.000000000000000000e+00,5.000000000000000000e+00,5.000000000000000000e+00,5.000000000000000000e+00,5.000000000000000000e+00,5.000000000000000000e+00,5.000000000000000000e+00,5.000000000000000000e+00,5.000000000000000000e+00,5.000000000000000000e+00,5.000000000000000000e+00,5.000000000000000000e+00,5.000000000000000000e+00,5.000000000000000000e+00,5.000000000000000000e+00,5.000000000000000000e+00,5.000000000000000000e+00,5.000000000000000000e+00,4.873384475708007812e+00,4.680152893066406250e+00,4.501660823822021484e+00,4.336282730102539062e+00,4.182625293731689453e+00,4.039484977722167969e+00,3.905817747116088867e+00,3.780713319778442383e+00,3.663374423980712891e+00,3.553099632263183594e+00,3.449269771575927734e+00,3.351336479187011719e+00,3.258810281753540039e+00,3.171256065368652344e+00,3.088283300399780273e+00,3.009541511535644531e+00,2.934715509414672852e+00,2.863519906997680664e+00,2.795696735382080078e+00,2.731012344360351562e+00,2.669253349304199219e+00,2.610225677490234375e+00,2.553752183914184570e+00,2.499670743942260742e+00,2.447832584381103516e+00,2.398100376129150391e+00,2.350348949432373047e+00,2.304461956024169922e+00,2.260332584381103516e+00,2.217861413955688477e+00,2.176956892013549805e+00,2.137533903121948242e+00,2.099513292312622070e+00,2.062821626663208008e+00,2.027390480041503906e+00,1.993155837059020996e+00,1.960058212280273438e+00,1.928041696548461914e+00,1.897054553031921387e+00,1.867047548294067383e+00
5.000000000000000000e+00,5.000000000000000000e+00,5.000000000000000000e+00,5.000000000000000000e+00,5.000000000000000000e+00,5.000000000000000000e+00,5.000000000000000000e+00,5.000000000000000000e+00,5.000000000000000000e+00,5.000000000000000000e+00,5.000000000000000000e+00,5.000000000000000000e+00,5.000000000000000000e+00,5.000000000000000000e+00,5.000000000000000000e+00,5.000000000000000000e+00,5.000000000000000000e+00,5.000000000000000000e+00,5.000000000000000000e+00,5.000000000000000000e+00,5.000000000000000000e+00,5.000000000000000000e+00,5.000000000000000000e+00,5.000000000000000000e+00,5.000000000000000000e+00,5.000000000000000000e+00,5.000000000000000000e+00,5.000000000000000000e+00,5.000000000000000000e+00,5.000000000000000000e+00,5.000000000000000000e+00,5.000000000000000000e+00,5.000000000000000000e+00,5.000000000000000000e+00,5.000000000000000000e+00,5.000000000000000000e+00,5.000000000000000000e+00,5.000000000000000000e+00,5.000000000000000000e+00,5.000000000000000000e+00,4.873527050018310547e+00,4.680284500122070312e+00,4.501782417297363281e+00,4.336395740509033203e+00,4.182730674743652344e+00,4.039583206176757812e+00,3.905909776687622070e+00,3.780799388885498047e+00,3.663455247879028320e+00,3.553175687789916992e+00,3.449341535568237305e+00,3.351403951644897461e+00,3.258874416351318359e+00,3.171316623687744141e+00,3.088340520858764648e+00,3.009596109390258789e+00,2.934767246246337891e+00,2.863569021224975586e+00,2.795743942260742188e+00,2.731057167053222656e+00,2.669296026229858398e+00,2.610266685485839844e+00,2.553791522979736328e+00,2.499708175659179688e+00,2.447868585586547852e+00,2.398134946823120117e+00,2.350382089614868164e+00,2.304493904113769531e+00,2.260363340377807617e+00,2.217890977859497070e+00,2.176985502243041992e+00,2.137561559677124023e+00,2.099539756774902344e+00,2.062847137451171875e+00,2.027415037155151367e+00,1.993179798126220703e+00,1.960081338882446289e+00,1.928064107894897461e+00,1.897076129913330078e+00,1.867068529129028320e+00
5.000000000000000000e+00,5.000000000000000000e+00,5.000000000000000000e+00,5.000000000000000000e+00,5.000000000000000000e+00,5.000000000000000000e+00,5.000000000000000000e+00,5.000000000000000000e+00,5.000000000000000000e+00,5.000000000000000000e+00,5.000000000000000000e+00,5.000000000000000000e+00,5.000000000000000000e+00,5.000000000000000000e+00,5.000000000000000000e+00,5.000000000000000000e+00,5.000000000000000000e+00,5.000000000000000000e+00,5.000000000000000000e+00,5.000000000000000000e+00,5.000000000000000000e+00,5.000000000000000000e+00,5.000000000000000000e+00,5.000000000000000000e+00,5.000000000000000000e+00,5.000000000000000000e+00,5.000000000000000000e+00,4.759186744689941406e+00,4.763220310211181641e+00,5.000000000000000000e+00,5.000000000000000000e+00,5.000000000000000000e+00,5.000000000000000000e+00,5.000000000000000000e+00,5.000000000000000000e+00,5.000000000000000000e+00,5.000000000000000000e+00,5.000000000000000000e+00,5.000000000000000000e+00,5.000000000000000000e+00,4.873670101165771484e+00,4.680416584014892578e+00,4.501904487609863281e+00,4.336509227752685547e+00,4.182835578918457031e+00,4.039681434631347656e+00,3.906001567840576172e+00,3.780885457992553711e+00,3.663535833358764648e+00,3.553251743316650391e+00,3.449413061141967773e+00,3.351471424102783203e+00,3.258938312530517578e+00,3.171377182006835938e+00,3.088397979736328125e+00,3.009650707244873047e+00,2.934819221496582031e+00,2.863618373870849609e+00,2.795790910720825195e+00,2.731101989746093750e+00,2.669338941574096680e+00,2.610307693481445312e+00,2.553830862045288086e+00,2.499745845794677734e+00,2.447904586791992188e+00,2.398169517517089844e+00,2.350415468215942383e+00,2.304525852203369141e+00,2.260394096374511719e+00,2.217920541763305664e+00,2.177013874053955078e+00,2.137588977813720703e+00,2.099566459655761719e+00,2.062872886657714844e+00,2.027439832687377930e+00,1.993203639984130859e+00,1.960104465484619141e+00,1.928086519241333008e+00,1.897097826004028320e+00,1.867089509963989258e+00
5.000000000000000000e+00,5.000000000000000000e+00,5.000000000000000000e+00,5.000000000000000000e+00,5.000000000000000000e+00,5.000000000000000000e+00,5.000000000000000000e+00,5.000000000000000000e+00,5.000000000000000000e+00,5.000000000000000000e+00,5.000000000000000000e+00,5.000000000000000000e+00,5.000000000000000000e+00,5.000000000000000000e+00,5.000000000000000000e+00,5.000000000000000000e+00,5.000000000000000000e+00,5.000000000000000000e+00,5.000000000000000000e+00,5.000000000000000000e+00,5.000000000000000000e+00,5.000000000000000000e+00,5.000000000000000000e+00,5.000000000000000000e+00,5.000000000000000000e+00,5.000000000000000000e+00,5.000000000000000000e+00,4.778843879699707031e+00,4.774274826049804688e+00,5.000000000000000000e+00,5.000000000000000000e+00,5.000000000000000000e+00,5.000000000000000000e+00,5.000000000000000000e+00,5.000000000000000000e+00,5.000000000000000000e+00,5.000000000000000000e+00,5.000000000000000000e+00,5.000000000000000000e+00,5.000000000000000000e+00,4.873813152313232422e+00,4.680548191070556641e+00,4.502026557922363281e+00,4.336622238159179688e+00,4.182940959930419922e+00,4.039779186248779297e+00,3.906093358993530273e+00,3.780971527099609375e+00,3.663616657257080078e+00,3.553327798843383789e+00,3.449484825134277344e+00,3.351538896560668945e+00,3.259002208709716797e+00,3.171437740325927734e+00,3.088455438613891602e+00,3.009705066680908203e+00,2.934870958328247070e+00,2.863667726516723633e+00,2.795837879180908203e+00,2.731147050857543945e+00,2.669381856918334961e+00,2.610348701477050781e+00,2.553869962692260742e+00,2.499783515930175781e+00,2.447940587997436523e+00,2.398204326629638672e+00,2.350448608398437500e+00,2.304557800292968750e+00,2.260424852371215820e+00,2.217950105667114258e+00,2.177042484283447266e+00,2.137616395950317383e+00,2.099592924118041992e+00,2.062898397445678711e+00,2.027464628219604492e+00,1.993227601051330566e+00,1.960127592086791992e+00,1.928108930587768555e+00,1.897119522094726562e+00,1.867110490798950195e+00
5.000000000000000000e+00,5.000000000000000000e+00,5.000000000000000000e+00,5.000000000000000000e+00,5.000000000000000000e+00,5.000000000000000000e+00,5.000000000000000000e+00,5.000000000000000000e+00,5.000000000000000000e+00,5.000000000000000000e+00,5.000000000000000000e+00,5.000000000000000000e+00,5.000000000000000000e+00,5.000000000000000000e+00,5.000000000000000000e+00,5.000000000000000000e+00,5.000000000000000000e+00,5.000000000000000000e+00,5.000000000000000000e+00,5.000000000000000000e+00,5.000000000000000000e+00,5.000000000000000000e+00,5.000000000000000000e+00,5.000000000000000000e+00,5.000000000000000000e+00,5.000000000000000000e+00,5.000000000000000000e+00,4.864849090576171875e+00,4.856132507324218750e+00,5.000000000000000000e+00,5.000000000000000000e+00,5.000000000000000000e+00,5.000000000000000000e+00,5.000000000000000000e+00,5.000000000000000000e+00,5.000000000000000000e+00,5.000000000000000000e+00,5.000000000000000000e+00,5.000000000000000000e+00,5.000000000000000000e+00,4.873956203460693359e+00,4.680680274963378906e+00,4.502148151397705078e+00,4.336735725402832031e+00,4.183046340942382812e+00,4.039877414703369141e+00,3.906185150146484375e+00,3.781057596206665039e+00,3.663697481155395508e+00,3.553403615951538086e+00,3.449556350708007812e+00,3.351606607437133789e+00,3.259065866470336914e+00,3.171498298645019531e+00,3.088512897491455078e+00,3.009759664535522461e+00,2.934922933578491211e+00,2.863717317581176758e+00,2.795884847640991211e+00,2.731191873550415039e+00,2.669424772262573242e+00,2.610389709472656250e+00,2.553909301757812500e+00,2.499821186065673828e+00,2.447976589202880859e+00,2.398238897323608398e+00,2.350481986999511719e+00,2.304589748382568359e+00,2.260455608367919922e+00,2.217979907989501953e+00,2.177070856094360352e+00,2.137643814086914062e+00,2.099619388580322266e+00,2.062924146652221680e+00,2.027489423751831055e+00,1.993251442909240723e+00,1.960150718688964844e+00,1.928131222724914551e+00,1.897141098976135254e+00,1.867131471633911133e+00
5.000000000000000000e+00,5.000000000000000000e+00,5.000000000000000000e+00,5.000000000000000000e+00,5.000000000000000000e+00,5.000000000000000000e+00,5.000000000000000000e+00,5.000000000000000000e+00,5.000000000000000000e+00,5.000000000000000000e+00,5.000000000000000000e+00,5.000000000000000000e+00,5.000000000000000000e+00,5.000000000000000000e+00,5.000000000000000000e+00,5.000000000000000000e+00,5.000000000000000000e+00,5.000000000000000000e+00,5.000000000000000000e+00,5.000000000000000000e+00,5.000000000000000000e+00,5.000000000000000000e+00,5.000000000000000000e+00,5.000000000000000000e+00,5.000000000000000000e+00,4.759686946868896484e+00,4.779572486877441406e+00,4.775129318237304688e+00,4.794775009155273438e+00,4.833501815795898438e+00,4.879605770111083984e+00,5.000000000000000000e+00,5.000000000000000000e+00,5.000000000000000000e+00,5.000000000000000000e+00,5.000000000000000000e+00,5.000000000000000000e+00,5.000000000000000000e+00,5.000000000000000000e+00,5.000000000000000000e+00,4.874099254608154297e+00,4.680811882019042969e+00,4.502270221710205078e+00,4.336848258972167969e+00,4.183151721954345703e+00,4.039975643157958984e+00,3.906276702880859375e+00,3.781143665313720703e+00,3.663778305053710938e+00,3.553479671478271484e+00,3.449628114700317383e+00,3.351674318313598633e+00,3.259129762649536133e+00,3.171558856964111328e+00,3.088570356369018555e+00,3.009814262390136719e+00,2.934974670410156250e+00,2.863766670227050781e+00,2.795931816101074219e+00,2.731236457824707031e+00,2.669467687606811523e+00,2.610430717468261719e+00,2.553948640823364258e+00,2.499858856201171875e+00,2.448012590408325195e+00,2.398273229598999023e+00,2.350515127182006836e+00,2.304621934890747070e+00,2.260486364364624023e+00,2.218009471893310547e+00,2.177099466323852539e+00,2.137671232223510742e+00,2.099646091461181641e+00,2.062949657440185547e+00,2.027514219284057617e+00,1.993275403976440430e+00,1.960173845291137695e+00,1.928153634071350098e+00,1.897162795066833496e+00,1.867152452468872070e+00
5.000000000000000000e+00,5.000000000000000000e+00,5.000000000000000000e+00,5.000000000000000000e+00,5.000000000000000000e+00,5.000000000000000000e+00,5.000000000000000000e+00,5.000000000000000000e+00,5.000000000000000000e+00,5.000000000000000000e+00,5.000000000000000000e+00,5.000000000000000000e+00,5.000000000000000000e+00,5.000000000000000000e+00,5.000000000000000000e+00,5.000000000000000000e+00,5.000000000000000000e+00,5.000000000000000000e+00,5.000000000000000000e+00,5.000000000000000000e+00,5.000000000000000000e+00,5.000000000000000000e+00,5.000000000000000000e+00,5.000000000000000000e+00,5.000000000000000000e+00,4.771645069122314453e+00,4.751926422119140625e+00,4.729330062866210938e+00,4.753670215606689453e+00,4.800434589385986328e+00,4.894121646881103516e+00,5.000000000000000000e+00,5.000000000000000000e+00,5.000000000000000000e+00,5.000000000000000000e+00,5.000000000000000000e+00,5.000000000000000000e+00,5.000000000000000000e+00,5.000000000000000000e+00,5.000000000000000000e+00,4.874241828918457031e+00,4.680943965911865234e+00,4.502392292022705078e+00,4.336961746215820312e+00,4.183257102966308594e+00,4.040074348449707031e+00,3.906368494033813477e+00,3.781229734420776367e+00,3.663859128952026367e+00,3.553555727005004883e+00,3.449699640274047852e+00,3.351741790771484375e+00,3.259193658828735352e+00,3.171618938446044922e+00,3.088627815246582031e+00,3.009868860244750977e+00,2.935026645660400391e+00,2.863816022872924805e+00,2.795979022979736328e+00,2.731281518936157227e+00,2.669510602951049805e+00,2.610471725463867188e+00,2.553987741470336914e+00,2.499896287918090820e+00,2.448048830032348633e+00,2.398308038711547852e+00,2.350548267364501953e+00,2.304653882980346680e+00,2.260517120361328125e+00,2.218039035797119141e+00,2.177128076553344727e+00,2.137698888778686523e+00,2.099672317504882812e+00,2.062975406646728516e+00,2.027538776397705078e+00,1.993299365043640137e+00,1.960196971893310547e+00,1.928176045417785645e+00,1.897184491157531738e+00,1.867173433303833008e+00
5.000000000000000000e+00,5.000000000000000000e+00,5.000000000000000000e+00,5.000000000000000000e+00,5.000000000000000000e+00,5.000000000000000000e+00,5.000000000000000000e+00,5.000000000000000000e+00,5.000000000000000000e+00,5.000000000000000000e+00,5.000000000000000000e+00,5.000000000000000000e+00,5.000000000000000000e+00,5.000000000000000000e+00,5.000000000000000000e+00,5.000000000000000000e+00,5.000000000000000000e+00,5.000000000000000000e+00,5.000000000000000000e+00,5.000000000000000000e+00,5.000000000000000000e+00,5.000000000000000000e+00,5.000000000000000000e+00,5.000000000000000000e+00,5.000000000000000000e+00,4.809162616729736328e+00,4.769557476043701172e+00,4.733422279357910156e+00,4.747594356536865234e+00,4.817173004150390625e+00,4.883222103118896484e+00,5.000000000000000000e+00,5.000000000000000000e+00,5.000000000000000000e+00,5.000000000000000000e+00,5.000000000000000000e+00,5.000000000000000000e+00,5.000000000000000000e+00,5.000000000000000000e+00,5.000000000000000000e+00,4.874384880065917969e+00,4.681076049804687500e+00,4.502514362335205078e+00,4.337074756622314453e+00,4.183362007141113281e+00,4.040172576904296875e+00,3.906460285186767578e+00,3.781315326690673828e+00,3.663939952850341797e+00,3.553631782531738281e+00,3.449771404266357422e+00,3.351809501647949219e+00,3.259257555007934570e+00,3.171679496765136719e+00,3.088685274124145508e+00,3.009923219680786133e+00,2.935078382492065430e+00,2.863865375518798828e+00,2.796025991439819336e+00,2.731326341629028320e+00,2.669553279876708984e+00,2.610512733459472656e+00,2.554027080535888672e+00,2.499933958053588867e+00,2.448084831237792969e+00,2.398342609405517578e+00,2.350581645965576172e+00,2.304685831069946289e+00,2.260547876358032227e+00,2.218068599700927734e+00,2.177156448364257812e+00,2.137726306915283203e+00,2.099699020385742188e+00,2.063000917434692383e+00,2.027563571929931641e+00,1.993323206901550293e+00,1.960220098495483398e+00,1.928198456764221191e+00,1.897206187248229980e+00,1.867194414138793945e+00
5.000000000000000000e+00,5.000000000000000000e+00,5.000000000000000000e+00,5.000000000000000000e+00,5.000000000000000000e+00,5.000000000000000000e+00,5.000000000000000000e+00,5.000000000000000000e+00,5.000000000000000000e+00,5.000000000000000000e+00,5.000000000000000000e+00,5.000000000000000000e+00,5.000000000000000000e+00,5.000000000000000000e+00,5.000000000000000000e+00,5.000000000000000000e+00,5.000000000000000000e+00,5.000000000000000000e+00,5.000000000000000000e+00,5.000000000000000000e+00,5.000000000000000000e+00,5.000000000000000000e+00,5.000000000000000000e+00,5.000000000000000000e+00,5.000000000000000000e+00,4.830267906188964844e+00,4.799690723419189453e+00,4.731353282928466797e+00,4.750057697296142578e+00,4.812952041625976562e+00,4.903584480285644531e+00,5.000000000000000000e+00,5.000000000000000000e+00,5.000000000000000000e+00,5.000000000000000000e+00,5.000000000000000000e+00,5.000000000000000000e+00,5.000000000000000000e+00,5.000000000000000000e+00,5.000000000000000000e+00,4.874527931213378906e+00,4.681207656860351562e+00,4.502636432647705078e+00,4.337188243865966797e+00,4.183467388153076172e+00,4.040270805358886719e+00,3.906552314758300781e+00,3.781401395797729492e+00,3.664020776748657227e+00,3.553707838058471680e+00,3.449842929840087891e+00,3.351877212524414062e+00,3.259321689605712891e+00,3.171740055084228516e+00,3.088742256164550781e+00,3.009977817535400391e+00,2.935130357742309570e+00,2.863914728164672852e+00,2.796072959899902344e+00,2.731371164321899414e+00,2.669596195220947266e+00,2.610553741455078125e+00,2.554066419601440430e+00,2.499971628189086914e+00,2.448120832443237305e+00,2.398377180099487305e+00,2.350614786148071289e+00,2.304717540740966797e+00,2.260578632354736328e+00,2.218098402023315430e+00,2.177185058593750000e+00,2.137753963470458984e+00,2.099725484848022461e+00,2.063026428222656250e+00,2.027588367462158203e+00,1.993347167968750000e+00,1.960243225097656250e+00,1.928220748901367188e+00,1.897227883338928223e+00,1.867215394973754883e+00
5.000000000000000000e+00,5.000000000000000000e+00,5.000000000000000000e+00,5.000000000000000000e+00,5.000000000000000000e+00,5.000000000000000000e+00,5.000000000000000000e+00,5.000000000000000000e+00,5.000000000000000000e+00,5.000000000000000000e+00,5.000000000000000000e+00,5.000000000000000000e+00,5.000000000000000000e+00,5.000000000000000000e+00,5.000000000000000000e+00,5.000000000000000000e+00,5.000000000000000000e+00,5.000000000000000000e+00,5.000000000000000000e+00,5.000000000000000000e+00,5.000000000000000000e+00,5.000000000000000000e+00,5.000000000000000000e+00,5.000000000000000000e+00,5.000000000000000000e+00,5.000000000000000000e+00,4.767035484313964844e+00,4.716819763183593750e+00,4.740327358245849609e+00,4.791102409362792969e+00,4.913328170776367188e+00,4.891283035278320312e+00,5.000000000000000000e+00,5.000000000000000000e+00,5.000000000000000000e+00,5.000000000000000000e+00,5.000000000000000000e+00,5.000000000000000000e+00,5.000000000000000000e+00,5.000000000000000000e+00,4.874670982360839844e+00,4.681339263916015625e+00,4.502758026123046875e+00,4.337301254272460938e+00,4.183572769165039062e+00,4.040368556976318359e+00,3.906644105911254883e+00,3.781487464904785156e+00,3.664101123809814453e+00,3.553783893585205078e+00,3.449914693832397461e+00,3.351944684982299805e+00,3.259385585784912109e+00,3.171800613403320312e+00,3.088799715042114258e+00,3.010032415390014648e+00,2.935182094573974609e+00,2.863964080810546875e+00,2.796120166778564453e+00,2.731416225433349609e+00,2.669639110565185547e+00,2.610594749450683594e+00,2.554105520248413086e+00,2.500009298324584961e+00,2.448157072067260742e+00,2.398411750793457031e+00,2.350648164749145508e+00,2.304749488830566406e+00,2.260609388351440430e+00,2.218127965927124023e+00,2.177213668823242188e+00,2.137781381607055664e+00,2.099751949310302734e+00,2.063052177429199219e+00,2.027612924575805664e+00,1.993371129035949707e+00,1.960266351699829102e+00,1.928243160247802734e+00,1.897249460220336914e+00,1.867236375808715820e+00
5.000000000000000000e+00,5.000000000000000000e+00,5.000000000000000000e+00,5.000000000000000000e+00,5.000000000000000000e+00,5.000000000000000000e+00,5.000000000000000000e+00,5.000000000000000000e+00,5.000000000000000000e+00,5.000000000000000000e+00,5.000000000000000000e+00,5.000000000000000000e+00,5.000000000000000000e+00,5.000000000000000000e+00,5.000000000000000000e+00,5.000000000000000000e+00,5.000000000000000000e+00,5.000000000000000000e+00,5.000000000000000000e+00,5.000000000000000000e+00,5.000000000000000000e+00,5.000000000000000000e+00,5.000000000000000000e+00,5.000000000000000000e+00,5.000000000000000000e+00,4.839574813842773438e+00,4.772549152374267578e+00,4.746121883392333984e+00,4.758118629455566406e+00,4.803262710571289062e+00,5.000000000000000000e+00,4.838701248168945312e+00,5.000000000000000000e+00,5.000000000000000000e+00,5.000000000000000000e+00,5.000000000000000000e+00,5.000000000000000000e+00,5.000000000000000000e+00,5.000000000000000000e+00,5.000000000000000000e+00,4.874814033508300781e+00,4.681471347808837891e+00,4.502880096435546875e+00,4.337414741516113281e+00,4.183678150177001953e+00,4.040466785430908203e+00,3.906735897064208984e+00,3.781573534011840820e+00,3.664181947708129883e+00,3.553859710693359375e+00,3.449986219406127930e+00,3.352012395858764648e+00,3.259449481964111328e+00,3.171861171722412109e+00,3.088857173919677734e+00,3.010086774826049805e+00,2.935234069824218750e+00,2.864013433456420898e+00,2.796167135238647461e+00,2.731461048126220703e+00,2.669682025909423828e+00,2.610635757446289062e+00,2.554144859313964844e+00,2.500046968460083008e+00,2.448193073272705078e+00,2.398446559906005859e+00,2.350681304931640625e+00,2.304781436920166016e+00,2.260639905929565430e+00,2.218157529830932617e+00,2.177242040634155273e+00,2.137808799743652344e+00,2.099778652191162109e+00,2.063077688217163086e+00,2.027637720108032227e+00,1.993394970893859863e+00,1.960289478302001953e+00,1.928265571594238281e+00,1.897271156311035156e+00,1.867257356643676758e+00
5.000000000000000000e+00,5.000000000000000000e+00,5.000000000000000000e+00,5.000000000000000000e+00,5.000000000000000000e+00,5.000000000000000000e+00,5.000000000000000000e+00,5.000000000000000000e+00,5.000000000000000000e+00,5.000000000000000000e+00,5.000000000000000000e+00,5.000000000000000000e+00,5.000000000000000000e+00,5.000000000000000000e+00,5.000000000000000000e+00,5.000000000000000000e+00,5.000000000000000000e+00,5.000000000000000000e+00,5.000000000000000000e+00,5.000000000000000000e+00,5.000000000000000000e+00,5.000000000000000000e+00,5.000000000000000000e+00,5.000000000000000000e+00,5.000000000000000000e+00,5.000000000000000000e+00,4.678460121154785156e+00,4.657709598541259766e+00,4.810858726501464844e+00,4.798974037170410156e+00,5.000000000000000000e+00,4.793337821960449219e+00,5.000000000000000000e+00,5.000000000000000000e+00,5.000000000000000000e+00,5.000000000000000000e+00,5.000000000000000000e+00,5.000000000000000000e+00,5.000000000000000000e+00,5.000000000000000000e+00,4.874957084655761719e+00,4.681603431701660156e+00,4.503002166748046875e+00,4.337527751922607422e+00,4.183783531188964844e+00,4.040565490722656250e+00,3.906827926635742188e+00,3.781659603118896484e+00,3.664262771606445312e+00,3.553935527801513672e+00,3.450057983398437500e+00,3.352080106735229492e+00,3.259513378143310547e+00,3.171921730041503906e+00,3.088914632797241211e+00,3.010141134262084961e+00,2.935285806655883789e+00,2.864062786102294922e+00,2.796214342117309570e+00,2.731506109237670898e+00,2.669724941253662109e+00,2.610676765441894531e+00,2.554183959960937500e+00,2.500084400177001953e+00,2.448229074478149414e+00,2.398481130599975586e+00,2.350714683532714844e+00,2.304813623428344727e+00,2.260670661926269531e+00,2.218187093734741211e+00,2.177270650863647461e+00,2.137836456298828125e+00,2.099805116653442383e+00,2.063103437423706055e+00,2.027662515640258789e+00,1.993418693542480469e+00,1.960312604904174805e+00,1.928287982940673828e+00,1.897292852401733398e+00,1.867278337478637695e+00
5.000000000000000000e+00,5.000000000000000000e+00,5.000000000000000000e+00,5.000000000000000000e+00,5.000000000000000000e+00,5.000000000000000000e+00,5.000000000000000000e+00,5.000000000000000000e+00,5.000000000000000000e+00,5.000000000000000000e+00,5.000000000000000000e+00,5.000000000000000000e+00,5.000000000000000000e+00,5.000000000000000000e+00,5.000000000000000000e+00,5.000000000000000000e+00,5.000000000000000000e+00,5.000000000000000000e+00,5.000000000000000000e+00,5.000000000000000000e+00,5.000000000000000000e+00,5.000000000000000000e+00,5.000000000000000000e+00,5.000000000000000000e+00,5.000000000000000000e+00,5.000000000000000000e+00,4.668272495269775391e+00,4.620396614074707031e+00,4.799139976501464844e+00,4.798895835876464844e+00,5.000000000000000000e+00,5.000000000000000000e+00,5.000000000000000000e+00,5.000000000000000000e+00,5.000000000000000000e+00,5.000000000000000000e+00,5.000000000000000000e+00,5.000000000000000000e+00,5.000000000000000000e+00,5.000000000000000000e+00,4.875099658966064453e+00,4.681735038757324219e+00,4.503124237060546875e+00,4.337640762329101562e+00,4.183888912200927734e+00,4.040663719177246094e+00,3.906919717788696289e+00,3.781745910644531250e+00,3.664343595504760742e+00,3.554011583328247070e+00,3.450129508972167969e+00,3.352147579193115234e+00,3.259577512741088867e+00,3.171982288360595703e+00,3.088972091674804688e+00,3.010195732116699219e+00,2.935337543487548828e+00,2.864112138748168945e+00,2.796261310577392578e+00,2.731550931930541992e+00,2.669767856597900391e+00,2.610717773437500000e+00,2.554223299026489258e+00,2.500122070312500000e+00,2.448265314102172852e+00,2.398515701293945312e+00,2.350747823715209961e+00,2.304845571517944336e+00,2.260701417922973633e+00,2.218216657638549805e+00,2.177299261093139648e+00,2.137863874435424805e+00,2.099831581115722656e+00,2.063128948211669922e+00,2.027687311172485352e+00,1.993442654609680176e+00,1.960335731506347656e+00,1.928310394287109375e+00,1.897314548492431641e+00,1.867299318313598633e+00
5.000000000000000000e+00,5.000000000000000000e+00,5.000000000000000000e+00,5.000000000000000000e+00,5.000000000000000000e+00,5.000000000000000000e+00,5.000000000000000000e+00,5.000000000000000000e+00,5.000000000000000000e+00,5.000000000000000000e+00,5.000000000000000000e+00,5.000000000000000000e+00,5.000000000000000000e+00,5.000000000000000000e+00,5.000000000000000000e+00,5.000000000000000000e+00,5.000000000000000000e+00,5.000000000000000000e+00,5.000000000000000000e+00,5.000000000000000000e+00,5.000000000000000000e+00,5.000000000000000000e+00,5.000000000000000000e+00,5.000000000000000000e+00,5.000000000000000000e+00,4.788101673126220703e+00,5.000000000000000000e+00,4.580325603485107422e+00,4.806643486022949219e+00,4.816133975982666016e+00,5.000000000000000000e+00,5.000000000000000000e+00,5.000000000000000000e+00,5.000000000000000000e+00,5.000000000000000000e+00,5.000000000000000000e+00,5.000000000000000000e+00,5.000000000000000000e+00,5.000000000000000000e+00,5.000000000000000000e+00,4.875243186950683594e+00,4.681867122650146484e+00,4.503246307373046875e+00,4.337754249572753906e+00,4.183994293212890625e+00,4.040761947631835938e+00,3.907011747360229492e+00,3.781831979751586914e+00,3.664424419403076172e+00,3.554087638854980469e+00,3.450200796127319336e+00,3.352215290069580078e+00,3.259641408920288086e+00,3.172043085098266602e+00,3.089029550552368164e+00,3.010250329971313477e+00,2.935389280319213867e+00,2.864161491394042969e+00,2.796308517456054688e+00,2.731595754623413086e+00,2.669810771942138672e+00,2.610758781433105469e+00,2.554262638092041016e+00,2.500159502029418945e+00,2.448301315307617188e+00,2.398550271987915039e+00,2.350781202316284180e+00,2.304877519607543945e+00,2.260732412338256836e+00,2.218246221542358398e+00,2.177327632904052734e+00,2.137891530990600586e+00,2.099858283996582031e+00,2.063154458999633789e+00,2.027712106704711914e+00,1.993466496467590332e+00,1.960358619689941406e+00,1.928332686424255371e+00,1.897336125373840332e+00,1.867320299148559570e+00
5.000000000000000000e+00,5.000000000000000000e+00,5.000000000000000000e+00,5.000000000000000000e+00,5.000000000000000000e+00,5.000000000000000000e+00,5.000000000000000000e+00,5.000000000000000000e+00,5.000000000000000000e+00,5.000000000000000000e+00,5.000000000000000000e+00,5.000000000000000000e+00,5.000000000000000000e+00,5.000000000000000000e+00,5.000000000000000000e+00,5.000000000000000000e+00,5.000000000000000000e+00,5.000000000000000000e+00,5.000000000000000000e+00,5.000000000000000000e+00,5.000000000000000000e+00,5.000000000000000000e+00,5.000000000000000000e+00,5.000000000000000000e+00,5.000000000000000000e+00,5.000000000000000000e+00,5.000000000000000000e+00,4.542191028594970703e+00,4.814615726470947266e+00,4.832137584686279297e+00,5.000000000000000000e+00,5.000000000000000000e+00,5.000000000000000000e+00,5.000000000000000000e+00,5.000000000000000000e+00,5.000000000000000000e+00,5.000000000000000000e+00,5.000000000000000000e+00,5.000000000000000000e+00,5.000000000000000000e+00,4.875386238098144531e+00,4.681998729705810547e+00,4.503368377685546875e+00,4.337867259979248047e+00,4.184099674224853516e+00,4.040860176086425781e+00,3.907103538513183594e+00,3.781918048858642578e+00,3.664505243301391602e+00,3.554163694381713867e+00,3.450272560119628906e+00,3.352282524108886719e+00,3.259705305099487305e+00,3.172103643417358398e+00,3.089087009429931641e+00,3.010304927825927734e+00,2.935441255569458008e+00,2.864210844039916992e+00,2.796355485916137695e+00,2.731640815734863281e+00,2.669853687286376953e+00,2.610799789428710938e+00,2.554301738739013672e+00,2.500197172164916992e+00,2.448337554931640625e+00,2.398585081100463867e+00,2.350814342498779297e+00,2.304909467697143555e+00,2.260763168334960938e+00,2.218275785446166992e+00,2.177356243133544922e+00,2.137918949127197266e+00,2.099884748458862305e+00,2.063180208206176758e+00,2.027736663818359375e+00,1.993490457534790039e+00,1.960381746292114258e+00,1.928355097770690918e+00,1.897357821464538574e+00,1.867341279983520508e+00
5.000000000000000000e+00,5.000000000000000000e+00,5.000000000000000000e+00,5.000000000000000000e+00,5.000000000000000000e+00,5.000000000000000000e+00,5.000000000000000000e+00,5.000000000000000000e+00,5.000000000000000000e+00,5.000000000000000000e+00,5.000000000000000000e+00,5.000000000000000000e+00,5.000000000000000000e+00,5.000000000000000000e+00,5.000000000000000000e+00,5.000000000000000000e+00,5.000000000000000000e+00,5.000000000000000000e+00,5.000000000000000000e+00,5.000000000000000000e+00,5.000000000000000000e+00,5.000000000000000000e+00,5.000000000000000000e+00,5.000000000000000000e+00,5.000000000000000000e+00,5.000000000000000000e+00,5.000000000000000000e+00,4.546448230743408203e+00,4.825229167938232422e+00,4.853858470916748047e+00,5.000000000000000000e+00,5.000000000000000000e+00,5.000000000000000000e+00,5.000000000000000000e+00,5.000000000000000000e+00,5.000000000000000000e+00,5.000000000000000000e+00,5.000000000000000000e+00,5.000000000000000000e+00,5.000000000000000000e+00,4.875527381896972656e+00,4.682130813598632812e+00,4.503490447998046875e+00,4.337980747222900391e+00,4.184205055236816406e+00,4.040958404541015625e+00,3.907195568084716797e+00,3.782004117965698242e+00,3.664586305618286133e+00,3.554239749908447266e+00,3.450344324111938477e+00,3.352350234985351562e+00,3.259769439697265625e+00,3.172164201736450195e+00,3.089144468307495117e+00,3.010359525680541992e+00,2.935492992401123047e+00,2.864260196685791016e+00,2.796402454376220703e+00,2.731685638427734375e+00,2.669896602630615234e+00,2.610840797424316406e+00,2.554341077804565430e+00,2.500234842300415039e+00,2.448373317718505859e+00,2.398619651794433594e+00,2.350847721099853516e+00,2.304941415786743164e+00,2.260793924331665039e+00,2.218305587768554688e+00,2.177384614944458008e+00,2.137946367263793945e+00,2.099911212921142578e+00,2.063205718994140625e+00,2.027761459350585938e+00,1.993514418601989746e+00,1.960404872894287109e+00,1.928377270698547363e+00,1.897379517555236816e+00,1.867362380027770996e+00
5.000000000000000000e+00,5.000000000000000000e+00,5.000000000000000000e+00,5.000000000000000000e+00,5.000000000000000000e+00,5.000000000000000000e+00,5.000000000000000000e+00,5.000000000000000000e+00,5.000000000000000000e+00,5.000000000000000000e+00,5.000000000000000000e+00,5.000000000000000000e+00,5.000000000000000000e+00,5.000000000000000000e+00,5.000000000000000000e+00,5.000000000000000000e+00,5.000000000000000000e+00,5.000000000000000000e+00,5.000000000000000000e+00,5.000000000000000000e+00,5.000000000000000000e+00,5.000000000000000000e+00,5.000000000000000000e+00,5.000000000000000000e+00,5.000000000000000000e+00,5.000000000000000000e+00,5.000000000000000000e+00,4.567994117736816406e+00,4.868098258972167969e+00,5.000000000000000000e+00,5.000000000000000000e+00,5.000000000000000000e+00,5.000000000000000000e+00,5.000000000000000000e+00,5.000000000000000000e+00,5.000000000000000000e+00,5.000000000000000000e+00,5.000000000000000000e+00,5.000000000000000000e+00,5.000000000000000000e+00,4.875667095184326172e+00,4.682261943817138672e+00,4.503612518310546875e+00,4.338093757629394531e+00,4.184310436248779297e+00,4.041056632995605469e+00,3.907287359237670898e+00,3.782090187072753906e+00,3.664667129516601562e+00,3.554315805435180664e+00,3.450415849685668945e+00,3.352417945861816406e+00,3.259833097457885742e+00,3.172224760055541992e+00,3.089201927185058594e+00,3.010413885116577148e+00,2.935544967651367188e+00,2.864309549331665039e+00,2.796449422836303711e+00,2.731730699539184570e+00,2.669939517974853516e+00,2.610881805419921875e+00,2.554380416870117188e+00,2.500272512435913086e+00,2.448409318923950195e+00,2.398654222488403320e+00,2.350880861282348633e+00,2.304973363876342773e+00,2.260824680328369141e+00,2.218335151672363281e+00,2.177413225173950195e+00,2.137973785400390625e+00,2.099937915802001953e+00,2.063231468200683594e+00,2.027786254882812500e+00,1.993538379669189453e+00,1.960428118705749512e+00,1.928399682044982910e+00,1.897401213645935059e+00,1.867383360862731934e+00
5.000000000000000000e+00,5.000000000000000000e+00,5.000000000000000000e+00,5.000000000000000000e+00,5.000000000000000000e+00,5.000000000000000000e+00,5.000000000000000000e+00,5.000000000000000000e+00,5.000000000000000000e+00,5.000000000000000000e+00,5.000000000000000000e+00,5.000000000000000000e+00,5.000000000000000000e+00,5.000000000000000000e+00,5.000000000000000000e+00,5.000000000000000000e+00,5.000000000000000000e+00,5.000000000000000000e+00,5.000000000000000000e+00,5.000000000000000000e+00,5.000000000000000000e+00,5.000000000000000000e+00,5.000000000000000000e+00,5.000000000000000000e+00,5.000000000000000000e+00,5.000000000000000000e+00,5.000000000000000000e+00,4.560548782348632812e+00,4.927223205566406250e+00,5.000000000000000000e+00,5.000000000000000000e+00,5.000000000000000000e+00,5.000000000000000000e+00,5.000000000000000000e+00,5.000000000000000000e+00,5.000000000000000000e+00,5.000000000000000000e+00,5.000000000000000000e+00,5.000000000000000000e+00,5.000000000000000000e+00,4.875806808471679688e+00,4.682390689849853516e+00,4.503734588623046875e+00,4.338206768035888672e+00,4.184415817260742188e+00,4.041154861450195312e+00,3.907378911972045898e+00,3.782176256179809570e+00,3.664747953414916992e+00,3.554391860961914062e+00,3.450487613677978516e+00,3.352485656738281250e+00,3.259896993637084961e+00,3.172285318374633789e+00,3.089259386062622070e+00,3.010468482971191406e+00,2.935596942901611328e+00,2.864358901977539062e+00,2.796496391296386719e+00,2.731775283813476562e+00,2.669982433319091797e+00,2.610922813415527344e+00,2.554419755935668945e+00,2.500310182571411133e+00,2.448445558547973633e+00,2.398688793182373047e+00,2.350914239883422852e+00,2.305005550384521484e+00,2.260855436325073242e+00,2.218364715576171875e+00,2.177441835403442383e+00,2.138001441955566406e+00,2.099964380264282227e+00,2.063256978988647461e+00,2.027811050415039062e+00,1.993562221527099609e+00,1.960451245307922363e+00,1.928422093391418457e+00,1.897422671318054199e+00,1.867404341697692871e+00
5.000000000000000000e+00,5.000000000000000000e+00,5.000000000000000000e+00,5.000000000000000000e+00,5.000000000000000000e+00,5.000000000000000000e+00,5.000000000000000000e+00,5.000000000000000000e+00,5.000000000000000000e+00,5.000000000000000000e+00,5.000000000000000000e+00,5.000000000000000000e+00,5.000000000000000000e+00,5.000000000000000000e+00,5.000000000000000000e+00,5.000000000000000000e+00,5.000000000000000000e+00,5.000000000000000000e+00,5.000000000000000000e+00,5.000000000000000000e+00,5.000000000000000000e+00,5.000000000000000000e+00,5.000000000000000000e+00,5.000000000000000000e+00,5.000000000000000000e+00,5.000000000000000000e+00,5.000000000000000000e+00,4.564330101013183594e+00,4.955804824829101562e+00,5.000000000000000000e+00,5.000000000000000000e+00,5.000000000000000000e+00,5.000000000000000000e+00,5.000000000000000000e+00,5.000000000000000000e+00,5.000000000000000000e+00,5.000000000000000000e+00,5.000000000000000000e+00,5.000000000000000000e+00,5.000000000000000000e+00,4.875946521759033203e+00,4.682519912719726562e+00,4.503854274749755859e+00,4.338320255279541016e+00,4.184521198272705078e+00,4.041253089904785156e+00,3.907470703125000000e+00,3.782262563705444336e+00,3.664828777313232422e+00,3.554467916488647461e+00,3.450559139251708984e+00,3.352553367614746094e+00,3.259960889816284180e+00,3.172345638275146484e+00,3.089316844940185547e+00,3.010523080825805664e+00,2.935648679733276367e+00,2.864408254623413086e+00,2.796543598175048828e+00,2.731820344924926758e+00,2.670025348663330078e+00,2.610964059829711914e+00,2.554458856582641602e+00,2.500347614288330078e+00,2.448481559753417969e+00,2.398723363876342773e+00,2.350947618484497070e+00,2.305037498474121094e+00,2.260886192321777344e+00,2.218394279479980469e+00,2.177470207214355469e+00,2.138028860092163086e+00,2.099990844726562500e+00,2.063282728195190430e+00,2.027835845947265625e+00,1.993586182594299316e+00,1.960474371910095215e+00,1.928444385528564453e+00,1.897444367408752441e+00,1.867425322532653809e+00
5.000000000000000000e+00,5.000000000000000000e+00,5.000000000000000000e+00,5.000000000000000000e+00,5.000000000000000000e+00,5.000000000000000000e+00,5.000000000000000000e+00,5.000000000000000000e+00,5.000000000000000000e+00,5.000000000000000000e+00,5.000000000000000000e+00,5.000000000000000000e+00,5.000000000000000000e+00,5.000000000000000000e+00,5.000000000000000000e+00,5.000000000000000000e+00,5.000000000000000000e+00,5.000000000000000000e+00,5.000000000000000000e+00,5.000000000000000000e+00,5.000000000000000000e+00,5.000000000000000000e+00,5.000000000000000000e+00,5.000000000000000000e+00,5.000000000000000000e+00,5.000000000000000000e+00,5.000000000000000000e+00,4.569407939910888672e+00,5.000000000000000000e+00,5.000000000000000000e+00,5.000000000000000000e+00,5.000000000000000000e+00,5.000000000000000000e+00,5.000000000000000000e+00,5.000000000000000000e+00,5.000000000000000000e+00,5.000000000000000000e+00,5.000000000000000000e+00,5.000000000000000000e+00,5.000000000000000000e+00,4.876086235046386719e+00,4.682649135589599609e+00,4.503973484039306641e+00,4.338432312011718750e+00,4.184626102447509766e+00,4.041351318359375000e+00,3.907562732696533203e+00,3.782348155975341797e+00,3.664909601211547852e+00,3.554543972015380859e+00,3.450630903244018555e+00,3.352620840072631836e+00,3.260024785995483398e+00,3.172406196594238281e+00,3.089374303817749023e+00,3.010577678680419922e+00,2.935700654983520508e+00,2.864457607269287109e+00,2.796590566635131836e+00,2.731865167617797852e+00,2.670068025588989258e+00,2.611005067825317383e+00,2.554498195648193359e+00,2.500385284423828125e+00,2.448517799377441406e+00,2.398757934570312500e+00,2.350980520248413086e+00,2.305069446563720703e+00,2.260916948318481445e+00,2.218424081802368164e+00,2.177498817443847656e+00,2.138056516647338867e+00,2.100017309188842773e+00,2.063308238983154297e+00,2.027860641479492188e+00,1.993610143661499023e+00,1.960497498512268066e+00,1.928466796875000000e+00,1.897465944290161133e+00,1.867446064949035645e+00
5.000000000000000000e+00,5.000000000000000000e+00,5.000000000000000000e+00,5.000000000000000000e+00,5.000000000000000000e+00,5.000000000000000000e+00,5.000000000000000000e+00,5.000000000000000000e+00,5.000000000000000000e+00,5.000000000000000000e+00,5.000000000000000000e+00,5.000000000000000000e+00,5.000000000000000000e+00,5.000000000000000000e+00,5.000000000000000000e+00,5.000000000000000000e+00,5.000000000000000000e+00,5.000000000000000000e+00,5.000000000000000000e+00,5.000000000000000000e+00,5.000000000000000000e+00,5.000000000000000000e+00,5.000000000000000000e+00,5.000000000000000000e+00,5.000000000000000000e+00,5.000000000000000000e+00,5.000000000000000000e+00,4.603711605072021484e+00,5.000000000000000000e+00,5.000000000000000000e+00,5.000000000000000000e+00,5.000000000000000000e+00,5.000000000000000000e+00,5.000000000000000000e+00,5.000000000000000000e+00,5.000000000000000000e+00,5.000000000000000000e+00,5.000000000000000000e+00,5.000000000000000000e+00,5.000000000000000000e+00,4.876226425170898438e+00,4.682777881622314453e+00,4.504092693328857422e+00,4.338542938232421875e+00,4.184731483459472656e+00,4.041450023651123047e+00,3.907654523849487305e+00,3.782434225082397461e+00,3.664990425109863281e+00,3.554620027542114258e+00,3.450702667236328125e+00,3.352688550949096680e+00,3.260088920593261719e+00,3.172466754913330078e+00,3.089431285858154297e+00,3.010632276535034180e+00,2.935752391815185547e+00,2.864507198333740234e+00,2.796637773513793945e+00,2.731909990310668945e+00,2.670110940933227539e+00,2.611046075820922852e+00,2.554537534713745117e+00,2.500422954559326172e+00,2.448553800582885742e+00,2.398792743682861328e+00,2.351013898849487305e+00,2.305101394653320312e+00,2.260947704315185547e+00,2.218453645706176758e+00,2.177527427673339844e+00,2.138083934783935547e+00,2.100044012069702148e+00,2.063333749771118164e+00,2.027885198593139648e+00,1.993633985519409180e+00,1.960520625114440918e+00,1.928489208221435547e+00,1.897487640380859375e+00,1.867467045783996582e+00
4.872531890869140625e+00,4.871313095092773438e+00,4.870094299316406250e+00,4.868876934051513672e+00,4.867659568786621094e+00,4.866442680358886719e+00,4.865227222442626953e+00,4.864011287689208984e+00,4.862796783447265625e+00,4.861582756042480469e+00,4.860368728637695312e+00,4.859156131744384766e+00,4.857943534851074219e+00,4.856731891632080078e+00,4.855521202087402344e+00,4.854310512542724609e+00,4.853100299835205078e+00,4.851891040802001953e+00,4.850682258605957031e+00,4.849474430084228516e+00,4.848267078399658203e+00,4.847059726715087891e+00,4.845853805541992188e+00,4.844647884368896484e+00,4.843442916870117188e+00,4.842238426208496094e+00,4.841034412384033203e+00,4.839830875396728516e+00,4.838628292083740234e+00,4.837426185607910156e+00,4.836224555969238281e+00,4.835023403167724609e+00,4.833823204040527344e+00,4.832623481750488281e+00,4.831424236297607422e+00,4.830225944519042969e+00,4.829027652740478516e+00,4.827830791473388672e+00,4.826633930206298828e+00,4.825437545776367188e+00,4.824242115020751953e+00,4.682906627655029297e+00,4.504212379455566406e+00,4.338653564453125000e+00,4.184834480285644531e+00,4.041547775268554688e+00,3.907746553421020508e+00,3.782520532608032227e+00,3.665071010589599609e+00,3.554696083068847656e+00,3.450774192810058594e+00,3.352756261825561523e+00,3.260152816772460938e+00,3.172527313232421875e+00,3.089488744735717773e+00,3.010686874389648438e+00,2.935804367065429688e+00,2.864556550979614258e+00,2.796684741973876953e+00,2.731955051422119141e+00,2.670153856277465820e+00,2.611086845397949219e+00,2.554576873779296875e+00,2.500460624694824219e+00,2.448589801788330078e+00,2.398827314376831055e+00,2.351047277450561523e+00,2.305133104324340820e+00,2.260978460311889648e+00,2.218483209609985352e+00,2.177556037902832031e+00,2.138111352920532227e+00,2.100070476531982422e+00,2.063359498977661133e+00,2.027909994125366211e+00,1.993657946586608887e+00,1.960543751716613770e+00,1.928511619567871094e+00,1.897509336471557617e+00,1.867488145828247070e+00
3.777037620544433594e+00,3.776305198669433594e+00,3.775573015213012695e+00,3.774841308593750000e+00,3.774109363555908203e+00,3.773377895355224609e+00,3.772646903991699219e+00,3.771915912628173828e+00,3.771185398101806641e+00,3.770455360412597656e+00,3.769725084304809570e+00,3.768995523452758789e+00,3.768266201019287109e+00,3.767536640167236328e+00,3.766808032989501953e+00,3.766079425811767578e+00,3.765351057052612305e+00,3.764622926712036133e+00,3.763895511627197266e+00,3.763168096542358398e+00,3.762440681457519531e+00,3.761713981628417969e+00,3.760987520217895508e+00,3.760260820388793945e+00,3.759534835815429688e+00,3.758809328079223633e+00,3.758083581924438477e+00,3.757358551025390625e+00,3.756633520126342773e+00,3.755908727645874023e+00,3.755184412002563477e+00,3.754460573196411133e+00,3.753736734390258789e+00,3.753012895584106445e+00,3.752289772033691406e+00,3.751566886901855469e+00,3.750844001770019531e+00,3.750121831893920898e+00,3.749399662017822266e+00,3.748677492141723633e+00,3.747956037521362305e+00,3.747234821319580078e+00,3.746513605117797852e+00,3.745792865753173828e+00,3.745072603225708008e+00,3.744352579116821289e+00,3.743632316589355469e+00,3.742912769317626953e+00,3.665151834487915039e+00,3.554772138595581055e+00,3.450845956802368164e+00,3.352823972702026367e+00,3.260216951370239258e+00,3.172587871551513672e+00,3.089546203613281250e+00,3.010740995407104492e+00,2.935856342315673828e+00,2.864605903625488281e+00,2.796731948852539062e+00,2.731999874114990234e+00,2.670196771621704102e+00,2.611127853393554688e+00,2.554615974426269531e+00,2.500498294830322266e+00,2.448626041412353516e+00,2.398861885070800781e+00,2.351080417633056641e+00,2.305165290832519531e+00,2.261008977890014648e+00,2.218512773513793945e+00,2.177584409713745117e+00,2.138139009475708008e+00,2.100096940994262695e+00,2.063385009765625000e+00,2.027934789657592773e+00,1.993681907653808594e+00,1.960566878318786621e+00,1.928534030914306641e+00,1.897531032562255859e+00,1.867509126663208008e+00
3.083722591400146484e+00,3.083234310150146484e+00,3.082746267318725586e+00,3.082258462905883789e+00,3.081770420074462891e+00,3.081282854080200195e+00,3.080795288085937500e+00,3.080307722091674805e+00,3.079820632934570312e+00,3.079333543777465820e+00,3.078846454620361328e+00,3.078359842300415039e+00,3.077873229980468750e+00,3.077386617660522461e+00,3.076900482177734375e+00,3.076414346694946289e+00,3.075928211212158203e+00,3.075442314147949219e+00,3.074956655502319336e+00,3.074471235275268555e+00,3.073985815048217773e+00,3.073500633239746094e+00,3.073015451431274414e+00,3.072530508041381836e+00,3.072045803070068359e+00,3.071561098098754883e+00,3.071076631546020508e+00,3.070592403411865234e+00,3.070108175277709961e+00,3.069623947143554688e+00,3.069140195846557617e+00,3.068656682968139648e+00,3.068173170089721680e+00,3.067689657211303711e+00,3.067206382751464844e+00,3.066723346710205078e+00,3.066240310668945312e+00,3.065757751464843750e+00,3.065275192260742188e+00,3.064792394638061523e+00,3.064310312271118164e+00,3.063828229904174805e+00,3.063345909118652344e+00,3.062864065170288086e+00,3.062382459640502930e+00,3.061901092529296875e+00,3.061419486999511719e+00,3.060938119888305664e+00,3.060457229614257812e+00,3.059975862503051758e+00,3.059495210647583008e+00,3.059014558792114258e+00,3.058533906936645508e+00,3.058053731918334961e+00,3.057573556900024414e+00,3.010795593261718750e+00,2.935908079147338867e+00,2.864655256271362305e+00,2.796778917312622070e+00,2.732044935226440430e+00,2.670239686965942383e+00,2.611168861389160156e+00,2.554655075073242188e+00,2.500535964965820312e+00,2.448662042617797852e+00,2.398896694183349609e+00,2.351113796234130859e+00,2.305197238922119141e+00,2.261039972305297852e+00,2.218542575836181641e+00,2.177613019943237305e+00,2.138166427612304688e+00,2.100123643875122070e+00,2.063410758972167969e+00,2.027959346771240234e+00,1.993705749511718750e+00,1.960590004920959473e+00,1.928556323051452637e+00,1.897552728652954102e+00,1.867530107498168945e+00
2.605462312698364258e+00,2.605113983154296875e+00,2.604765415191650391e+00,2.604417085647583008e+00,2.604068517684936523e+00,2.603720426559448242e+00,2.603372335433959961e+00,2.603024244308471680e+00,2.602676391601562500e+00,2.602328538894653320e+00,2.601980686187744141e+00,2.601633071899414062e+00,2.601285457611083984e+00,2.600937843322753906e+00,2.600590467453002930e+00,2.600243330001831055e+00,2.599895954132080078e+00,2.599549055099487305e+00,2.599201917648315430e+00,2.598855018615722656e+00,2.598508119583129883e+00,2.598161458969116211e+00,2.597814798355102539e+00,2.597468137741088867e+00,2.597121715545654297e+00,2.596775531768798828e+00,2.596429109573364258e+00,2.596082925796508789e+00,2.595736980438232422e+00,2.595390796661376953e+00,2.595044851303100586e+00,2.594699144363403320e+00,2.594353437423706055e+00,2.594007730484008789e+00,2.593662261962890625e+00,2.593316793441772461e+00,2.592971324920654297e+00,2.592626094818115234e+00,2.592281103134155273e+00,2.591935873031616211e+00,2.591590881347656250e+00,2.591246128082275391e+00,2.590901136398315430e+00,2.590556383132934570e+00,2.590211868286132812e+00,2.589867353439331055e+00,2.589522838592529297e+00,2.589178562164306641e+00,2.588834524154663086e+00,2.588490009307861328e+00,2.588146209716796875e+00,2.587802171707153320e+00,2.587458133697509766e+00,2.587114334106445312e+00,2.586770772933959961e+00,2.586426973342895508e+00,2.586083650588989258e+00,2.585740327835083008e+00,2.585397005081176758e+00,2.585053682327270508e+00,2.584710597991943359e+00,2.584367513656616211e+00,2.554694414138793945e+00,2.500573635101318359e+00,2.448698282241821289e+00,2.398931264877319336e+00,2.351146936416625977e+00,2.305229187011718750e+00,2.261070728302001953e+00,2.218571901321411133e+00,2.177641630172729492e+00,2.138194084167480469e+00,2.100150108337402344e+00,2.063436269760131836e+00,2.027984142303466797e+00,1.993729710578918457e+00,1.960613131523132324e+00,1.928578734397888184e+00,1.897574424743652344e+00,1.867551088333129883e+00
2.255616426467895508e+00,2.255357027053833008e+00,2.255097866058349609e+00,2.254838466644287109e+00,2.254579305648803711e+00,2.254320144653320312e+00,2.254060983657836914e+00,2.253802061080932617e+00,2.253542900085449219e+00,2.253283023834228516e+00,2.253022193908691406e+00,2.252761602401733398e+00,2.252501010894775391e+00,2.252240419387817383e+00,2.251980066299438477e+00,2.251719713211059570e+00,2.251459121704101562e+00,2.251199007034301758e+00,2.250938653945922852e+00,2.250678539276123047e+00,2.250418424606323242e+00,2.250158309936523438e+00,2.249898433685302734e+00,2.249638319015502930e+00,2.249378442764282227e+00,2.249118566513061523e+00,2.248858928680419922e+00,2.248599052429199219e+00,2.248339653015136719e+00,2.248079776763916016e+00,2.247820377349853516e+00,2.247560977935791016e+00,2.247301578521728516e+00,2.247042179107666016e+00,2.246782779693603516e+00,2.246523618698120117e+00,2.246264457702636719e+00,2.246005296707153320e+00,2.245746374130249023e+00,2.245487213134765625e+00,2.245228290557861328e+00,2.244969606399536133e+00,2.244710683822631836e+00,2.244451999664306641e+00,2.244193315505981445e+00,2.243934631347656250e+00,2.243675947189331055e+00,2.243417501449584961e+00,2.243159055709838867e+00,2.242900609970092773e+00,2.242642402648925781e+00,2.242384195327758789e+00,2.242125749588012695e+00,2.241867780685424805e+00,2.241609573364257812e+00,2.241351604461669922e+00,2.241093635559082031e+00,2.240835666656494141e+00,2.240577936172485352e+00,2.240319967269897461e+00,2.240062236785888672e+00,2.239804744720458984e+00,2.239547014236450195e+00,2.239289283752441406e+00,2.239032030105590820e+00,2.238774299621582031e+00,2.238517045974731445e+00,2.238259792327880859e+00,2.238002300262451172e+00,2.218601703643798828e+00,2.177670240402221680e+00,2.138221502304077148e+00,2.100176572799682617e+00,2.063462018966674805e+00,2.028008937835693359e+00,1.993753671646118164e+00,1.960636377334594727e+00,1.928601145744323730e+00,1.897596001625061035e+00,1.867572069168090820e+00
1.988501429557800293e+00,1.988299965858459473e+00,1.988098263740539551e+00,1.987896919250488281e+00,1.987695336341857910e+00,1.987493991851806641e+00,1.987292408943176270e+00,1.987091183662414551e+00,1.986889719963073730e+00,1.986688613891601562e+00,1.986487269401550293e+00,1.986286163330078125e+00,1.986084938049316406e+00,1.985883951187133789e+00,1.985682964324951172e+00,1.985481858253479004e+00,1.985280990600585938e+00,1.985079884529113770e+00,1.984879136085510254e+00,1.984678149223327637e+00,1.984477400779724121e+00,1.984276413917541504e+00,1.984075784683227539e+00,1.983875036239624023e+00,1.983674407005310059e+00,1.983473658561706543e+00,1.983273267745971680e+00,1.983072519302368164e+00,1.982872128486633301e+00,1.982671618461608887e+00,1.982471227645874023e+00,1.982270717620849609e+00,1.982070565223693848e+00,1.981870174407958984e+00,1.981670022010803223e+00,1.981469631195068359e+00,1.981269598007202148e+00,1.981069564819335938e+00,1.980869293212890625e+00,1.980669379234313965e+00,1.980469226837158203e+00,1.980269312858581543e+00,1.980069279670715332e+00,1.979869484901428223e+00,1.979669570922851562e+00,1.979469776153564453e+00,1.979269981384277344e+00,1.979070305824279785e+00,1.978870511054992676e+00,1.978670954704284668e+00,1.978471159934997559e+00,1.978271722793579102e+00,1.978072047233581543e+00,1.977872729301452637e+00,1.977673053741455078e+00,1.977473855018615723e+00,1.977274298667907715e+00,1.977075099945068359e+00,1.976875662803649902e+00,1.976676583290100098e+00,1.976477384567260742e+00,1.976278066635131836e+00,1.976079106330871582e+00,1.975879907608032227e+00,1.975680947303771973e+00,1.975481748580932617e+00,1.975282907485961914e+00,1.975083827972412109e+00,1.974885106086730957e+00,1.974686145782470703e+00,1.974487423896789551e+00,1.974288582801818848e+00,1.974089860916137695e+00,1.973891139030456543e+00,1.973692536354064941e+00,1.973493814468383789e+00,1.960659503936767578e+00,1.928623557090759277e+00,1.897617697715759277e+00,1.867593050003051758e+00
1.777952671051025391e+00,1.777791380882263184e+00,1.777630329132080078e+00,1.777469038963317871e+00,1.777308106422424316e+00,1.777146935462951660e+00,1.776986002922058105e+00,1.776824951171875000e+00,1.776664018630981445e+00,1.776503205299377441e+00,1.776342153549194336e+00,1.776181340217590332e+00,1.776020407676696777e+00,1.775859713554382324e+00,1.775698781013488770e+00,1.775538206100463867e+00,1.775377273559570312e+00,1.775216698646545410e+00,1.775055885314941406e+00,1.774895310401916504e+00,1.774734616279602051e+00,1.774574160575866699e+00,1.774413466453552246e+00,1.774253010749816895e+00,1.774092435836791992e+00,1.773932099342346191e+00,1.773771524429321289e+00,1.773611187934875488e+00,1.773450732231140137e+00,1.773290395736694336e+00,1.773130059242248535e+00,1.772969841957092285e+00,1.772809624671936035e+00,1.772649288177490234e+00,1.772489190101623535e+00,1.772328853607177734e+00,1.772168755531311035e+00,1.772008538246154785e+00,1.771848559379577637e+00,1.771688461303710938e+00,1.771528482437133789e+00,1.771368384361267090e+00,1.771208405494689941e+00,1.771048426628112793e+00,1.770888566970825195e+00,1.770728588104248047e+00,1.770568847656250000e+00,1.770408868789672852e+00,1.770249128341674805e+00,1.770089268684387207e+00,1.769929647445678711e+00,1.769769787788391113e+00,1.769610166549682617e+00,1.769450545310974121e+00,1.769290924072265625e+00,1.769131302833557129e+00,1.768971681594848633e+00,1.768812179565429688e+00,1.768652558326721191e+00,1.768493175506591797e+00,1.768333673477172852e+00,1.768174290657043457e+00,1.768014788627624512e+00,1.767855525016784668e+00,1.767696022987365723e+00,1.767536759376525879e+00,1.767377376556396484e+00,1.767218232154846191e+00,1.767058968544006348e+00,1.766899824142456055e+00,1.766740560531616211e+00,1.766581535339355469e+00,1.766422271728515625e+00,1.766263246536254883e+00,1.766104102134704590e+00,1.765945196151733398e+00,1.765786290168762207e+00,1.765627145767211914e+00,1.765468358993530273e+00,1.765309333801269531e+00
1.607721686363220215e+00,1.607590079307556152e+00,1.607458233833312988e+00,1.607326507568359375e+00,1.607194900512695312e+00,1.607063055038452148e+00,1.606931447982788086e+00,1.606799721717834473e+00,1.606668233871459961e+00,1.606536507606506348e+00,1.606404900550842285e+00,1.606273293495178223e+00,1.606141805648803711e+00,1.606010198593139648e+00,1.605878829956054688e+00,1.605747222900390625e+00,1.605615854263305664e+00,1.605484247207641602e+00,1.605352997779846191e+00,1.605221509933471680e+00,1.605090141296386719e+00,1.604958772659301758e+00,1.604827523231506348e+00,1.604696035385131836e+00,1.604564905166625977e+00,1.604433655738830566e+00,1.604302287101745605e+00,1.604171156883239746e+00,1.604039907455444336e+00,1.603908777236938477e+00,1.603777527809143066e+00,1.603646516799926758e+00,1.603515267372131348e+00,1.603384256362915039e+00,1.603253126144409180e+00,1.603122115135192871e+00,1.602990984916687012e+00,1.602860093116760254e+00,1.602728962898254395e+00,1.602598071098327637e+00,1.602467060089111328e+00,1.602336168289184570e+00,1.602205157279968262e+00,1.602074384689331055e+00,1.601943492889404297e+00,1.601812720298767090e+00,1.601681828498840332e+00,1.601551055908203125e+00,1.601420402526855469e+00,1.601289510726928711e+00,1.601158857345581055e+00,1.601028084754943848e+00,1.600897431373596191e+00,1.600766658782958984e+00,1.600636124610900879e+00,1.600505471229553223e+00,1.600374937057495117e+00,1.600244283676147461e+00,1.600113749504089355e+00,1.599983096122741699e+00,1.599852561950683594e+00,1.599722027778625488e+00,1.599591612815856934e+00,1.599461078643798828e+00,1.599330782890319824e+00,1.599200248718261719e+00,1.599069952964782715e+00,1.598939418792724609e+00,1.598809242248535156e+00,1.598678827285766602e+00,1.598548531532287598e+00,1.598418354988098145e+00,1.598287940025329590e+00,1.598157763481140137e+00,1.598027467727661133e+00,1.597897410392761230e+00,1.597767114639282227e+00,1.597637057304382324e+00,1.597506761550903320e+00,1.597376823425292969e+00
1.467240333557128906e+00,1.467130541801452637e+00,1.467020750045776367e+00,1.466911077499389648e+00,1.466801285743713379e+00,1.466691732406616211e+00,1.466581940650939941e+00,1.466472268104553223e+00,1.466362595558166504e+00,1.466253042221069336e+00,1.466143369674682617e+00,1.466033816337585449e+00,1.465924143791198730e+00,1.465814709663391113e+00,1.465705037117004395e+00,1.465595602989196777e+00,1.465485930442810059e+00,1.465376496315002441e+00,1.465266942977905273e+00,1.465157628059387207e+00,1.465048193931579590e+00,1.464938640594482422e+00,1.464829325675964355e+00,1.464719891548156738e+00,1.464610576629638672e+00,1.464501023292541504e+00,1.464391827583312988e+00,1.464282393455505371e+00,1.464173078536987305e+00,1.464063763618469238e+00,1.463954567909240723e+00,1.463845133781433105e+00,1.463735938072204590e+00,1.463626623153686523e+00,1.463517546653747559e+00,1.463408231735229492e+00,1.463299155235290527e+00,1.463189840316772461e+00,1.463080763816833496e+00,1.462971568107604980e+00,1.462862491607666016e+00,1.462753295898437500e+00,1.462644338607788086e+00,1.462535262107849121e+00,1.462426185607910156e+00,1.462317109107971191e+00,1.462208032608032227e+00,1.462099075317382812e+00,1.461990118026733398e+00,1.461881160736083984e+00,1.461772084236145020e+00,1.461663246154785156e+00,1.461554288864135742e+00,1.461445331573486328e+00,1.461336374282836914e+00,1.461227655410766602e+00,1.461118698120117188e+00,1.461009860038757324e+00,1.460901021957397461e+00,1.460792183876037598e+00,1.460683345794677734e+00,1.460574626922607422e+00,1.460465788841247559e+00,1.460357069969177246e+00,1.460248470306396484e+00,1.460139632225036621e+00,1.460031032562255859e+00,1.459922313690185547e+00,1.459813594818115234e+00,1.459704875946044922e+00,1.459596395492553711e+00,1.459487676620483398e+00,1.459379076957702637e+00,1.459270477294921875e+00,1.459161877632141113e+00,1.459053277969360352e+00,1.458944797515869141e+00,1.458836197853088379e+00,1.458727836608886719e+00,1.458619236946105957e+00
1.349336266517639160e+00,1.349243402481079102e+00,1.349150657653808594e+00,1.349057793617248535e+00,1.348965048789978027e+00,1.348872184753417969e+00,1.348779439926147461e+00,1.348686695098876953e+00,1.348593950271606445e+00,1.348501205444335938e+00,1.348408579826354980e+00,1.348315715789794922e+00,1.348223090171813965e+00,1.348130345344543457e+00,1.348037838935852051e+00,1.347945213317871094e+00,1.347852468490600586e+00,1.347759962081909180e+00,1.347667217254638672e+00,1.347574710845947266e+00,1.347482085227966309e+00,1.347389578819274902e+00,1.347296953201293945e+00,1.347204446792602539e+00,1.347111821174621582e+00,1.347019314765930176e+00,1.346926808357238770e+00,1.346834301948547363e+00,1.346741795539855957e+00,1.346649408340454102e+00,1.346556901931762695e+00,1.346464514732360840e+00,1.346372008323669434e+00,1.346279621124267578e+00,1.346187114715576172e+00,1.346094727516174316e+00,1.346002459526062012e+00,1.345910072326660156e+00,1.345817685127258301e+00,1.345725297927856445e+00,1.345633029937744141e+00,1.345540642738342285e+00,1.345448374748229980e+00,1.345355987548828125e+00,1.345263838768005371e+00,1.345171451568603516e+00,1.345079302787780762e+00,1.344986915588378906e+00,1.344894766807556152e+00,1.344802498817443848e+00,1.344710350036621094e+00,1.344618082046508789e+00,1.344525933265686035e+00,1.344433665275573730e+00,1.344341635704040527e+00,1.344249367713928223e+00,1.344157338142395020e+00,1.344065189361572266e+00,1.343973040580749512e+00,1.343881011009216309e+00,1.343788862228393555e+00,1.343696832656860352e+00,1.343604803085327148e+00,1.343512773513793945e+00,1.343420624732971191e+00,1.343328714370727539e+00,1.343236684799194336e+00,1.343144655227661133e+00,1.343052625656127930e+00,1.342960715293884277e+00,1.342868685722351074e+00,1.342776775360107422e+00,1.342684864997863770e+00,1.342592954635620117e+00,1.342501044273376465e+00,1.342409133911132812e+00,1.342317223548889160e+00,1.342225432395935059e+00,1.342133522033691406e+00,1.342041730880737305e+00
1.248971819877624512e+00,1.248892307281494141e+00,1.248812675476074219e+00,1.248733282089233398e+00,1.248653769493103027e+00,1.248574256896972656e+00,1.248494744300842285e+00,1.248415350914001465e+00,1.248335838317871094e+00,1.248256325721740723e+00,1.248176932334899902e+00,1.248097538948059082e+00,1.248018145561218262e+00,1.247938632965087891e+00,1.247859239578247070e+00,1.247779846191406250e+00,1.247700452804565430e+00,1.247621059417724609e+00,1.247541785240173340e+00,1.247462391853332520e+00,1.247382998466491699e+00,1.247303724288940430e+00,1.247224450111389160e+00,1.247145056724548340e+00,1.247065782546997070e+00,1.246986389160156250e+00,1.246907234191894531e+00,1.246827840805053711e+00,1.246748685836791992e+00,1.246669292449951172e+00,1.246590137481689453e+00,1.246510982513427734e+00,1.246431708335876465e+00,1.246352553367614746e+00,1.246273279190063477e+00,1.246194124221801758e+00,1.246114850044250488e+00,1.246035695075988770e+00,1.245956540107727051e+00,1.245877385139465332e+00,1.245798230171203613e+00,1.245719194412231445e+00,1.245639920234680176e+00,1.245560884475708008e+00,1.245481729507446289e+00,1.245402693748474121e+00,1.245323538780212402e+00,1.245244503021240234e+00,1.245165467262268066e+00,1.245086431503295898e+00,1.245007395744323730e+00,1.244928359985351562e+00,1.244849324226379395e+00,1.244770288467407227e+00,1.244691371917724609e+00,1.244612336158752441e+00,1.244533419609069824e+00,1.244454383850097656e+00,1.244375467300415039e+00,1.244296431541442871e+00,1.244217514991760254e+00,1.244138598442077637e+00,1.244059681892395020e+00,1.243980765342712402e+00,1.243901848793029785e+00,1.243822932243347168e+00,1.243744134902954102e+00,1.243665218353271484e+00,1.243586301803588867e+00,1.243507504463195801e+00,1.243428707122802734e+00,1.243349790573120117e+00,1.243270993232727051e+00,1.243192195892333984e+00,1.243113398551940918e+00,1.243034601211547852e+00,1.242955803871154785e+00,1.242877125740051270e+00,1.242798328399658203e+00,1.242719531059265137e+00
1.162504076957702637e+00,1.162435173988342285e+00,1.162366271018981934e+00,1.162297487258911133e+00,1.162228584289550781e+00,1.162159681320190430e+00,1.162090778350830078e+00,1.162021994590759277e+00,1.161953091621398926e+00,1.161884307861328125e+00,1.161815404891967773e+00,1.161746621131896973e+00,1.161677718162536621e+00,1.161609053611755371e+00,1.161540150642395020e+00,1.161471366882324219e+00,1.161402583122253418e+00,1.161333799362182617e+00,1.161265015602111816e+00,1.161196351051330566e+00,1.161127567291259766e+00,1.161058783531188965e+00,1.160989999771118164e+00,1.160921335220336914e+00,1.160852551460266113e+00,1.160783886909484863e+00,1.160715222358703613e+00,1.160646557807922363e+00,1.160577893257141113e+00,1.160509109497070312e+00,1.160440564155578613e+00,1.160371780395507812e+00,1.160303235054016113e+00,1.160234570503234863e+00,1.160165905952453613e+00,1.160097241401672363e+00,1.160028696060180664e+00,1.159960031509399414e+00,1.159891486167907715e+00,1.159822821617126465e+00,1.159754276275634766e+00,1.159685611724853516e+00,1.159617066383361816e+00,1.159548521041870117e+00,1.159479975700378418e+00,1.159411430358886719e+00,1.159342885017395020e+00,1.159274339675903320e+00,1.159205794334411621e+00,1.159137368202209473e+00,1.159068822860717773e+00,1.159000277519226074e+00,1.158931732177734375e+00,1.158863306045532227e+00,1.158794760704040527e+00,1.158726334571838379e+00,1.158657908439636230e+00,1.158589482307434082e+00,1.158520936965942383e+00,1.158452630043029785e+00,1.158384084701538086e+00,1.158315777778625488e+00,1.158247351646423340e+00,1.158178925514221191e+00,1.158110499382019043e+00,1.158042192459106445e+00,1.157973766326904297e+00,1.157905459403991699e+00,1.157837033271789551e+00,1.157768726348876953e+00,1.157700419425964355e+00,1.157631993293762207e+00,1.157563686370849609e+00,1.157495379447937012e+00,1.157427072525024414e+00,1.157358765602111816e+00,1.157290458679199219e+00,1.157222151756286621e+00,1.157153964042663574e+00,1.157085657119750977e+00
1.087233662605285645e+00,1.087173342704772949e+00,1.087113142013549805e+00,1.087052822113037109e+00,1.086992621421813965e+00,1.086932301521301270e+00,1.086872100830078125e+00,1.086811900138854980e+00,1.086751699447631836e+00,1.086691379547119141e+00,1.086631298065185547e+00,1.086570978164672852e+00,1.086510896682739258e+00,1.086450576782226562e+00,1.086390495300292969e+00,1.086330294609069824e+00,1.086270093917846680e+00,1.086209893226623535e+00,1.086149811744689941e+00,1.086089730262756348e+00,1.086029529571533203e+00,1.085969448089599609e+00,1.085909247398376465e+00,1.085849165916442871e+00,1.085788965225219727e+00,1.085728883743286133e+00,1.085668802261352539e+00,1.085608720779418945e+00,1.085548639297485352e+00,1.085488557815551758e+00,1.085428476333618164e+00,1.085368394851684570e+00,1.085308313369750977e+00,1.085248231887817383e+00,1.085188150405883789e+00,1.085128188133239746e+00,1.085068106651306152e+00,1.085008144378662109e+00,1.084948062896728516e+00,1.084888100624084473e+00,1.084828019142150879e+00,1.084768056869506836e+00,1.084708094596862793e+00,1.084648013114929199e+00,1.084588050842285156e+00,1.084528088569641113e+00,1.084468126296997070e+00,1.084408164024353027e+00,1.084348201751708984e+00,1.084288239479064941e+00,1.084228277206420898e+00,1.084168314933776855e+00,1.084108471870422363e+00,1.084048509597778320e+00,1.083988547325134277e+00,1.083928585052490234e+00,1.083868741989135742e+00,1.083808779716491699e+00,1.083748936653137207e+00,1.083689093589782715e+00,1.083629250526428223e+00,1.083569288253784180e+00,1.083509445190429688e+00,1.083449602127075195e+00,1.083389759063720703e+00,1.083329916000366211e+00,1.083270072937011719e+00,1.083210229873657227e+00,1.083150386810302734e+00,1.083090662956237793e+00,1.083030700683593750e+00,1.082970976829528809e+00,1.082911133766174316e+00,1.082851409912109375e+00,1.082791566848754883e+00,1.082731842994689941e+00,1.082671999931335449e+00,1.082612276077270508e+00,1.082552433013916016e+00,1.082492709159851074e+00
1.021117806434631348e+00,1.021064639091491699e+00,1.021011471748352051e+00,1.020958304405212402e+00,1.020905137062072754e+00,1.020851969718933105e+00,1.020798802375793457e+00,1.020745754241943359e+00,1.020692586898803711e+00,1.020639538764953613e+00,1.020586371421813965e+00,1.020533323287963867e+00,1.020480155944824219e+00,1.020427107810974121e+00,1.020374059677124023e+00,1.020320892333984375e+00,1.020267844200134277e+00,1.020214676856994629e+00,1.020161747932434082e+00,1.020108580589294434e+00,1.020055532455444336e+00,1.020002484321594238e+00,1.019949436187744141e+00,1.019896388053894043e+00,1.019843339920043945e+00,1.019790291786193848e+00,1.019737362861633301e+00,1.019684314727783203e+00,1.019631266593933105e+00,1.019578218460083008e+00,1.019525289535522461e+00,1.019472241401672363e+00,1.019419312477111816e+00,1.019366264343261719e+00,1.019313335418701172e+00,1.019260287284851074e+00,1.019207358360290527e+00,1.019154429435729980e+00,1.019101381301879883e+00,1.019048571586608887e+00,1.018995523452758789e+00,1.018942594528198242e+00,1.018889665603637695e+00,1.018836736679077148e+00,1.018783807754516602e+00,1.018730878829956055e+00,1.018677949905395508e+00,1.018625020980834961e+00,1.018572092056274414e+00,1.018519282341003418e+00,1.018466353416442871e+00,1.018413424491882324e+00,1.018360614776611328e+00,1.018307685852050781e+00,1.018254756927490234e+00,1.018201947212219238e+00,1.018149137496948242e+00,1.018096208572387695e+00,1.018043398857116699e+00,1.017990589141845703e+00,1.017937779426574707e+00,1.017884850502014160e+00,1.017832040786743164e+00,1.017779231071472168e+00,1.017726421356201172e+00,1.017673611640930176e+00,1.017620801925659180e+00,1.017567992210388184e+00,1.017515182495117188e+00,1.017462372779846191e+00,1.017409682273864746e+00,1.017356872558593750e+00,1.017304062843322754e+00,1.017251253128051758e+00,1.017198562622070312e+00,1.017145752906799316e+00,1.017093062400817871e+00,1.017040252685546875e+00,1.016987562179565430e+00,1.016934752464294434e+00
9.625821709632873535e-01,9.625349044799804688e-01,9.624876379966735840e-01,9.624403715133666992e-01,9.623932242393493652e-01,9.623459577560424805e-01,9.622986912727355957e-01,9.622514843940734863e-01,9.622043371200561523e-01,9.621570706367492676e-01,9.621098637580871582e-01,9.620627760887145996e-01,9.620155096054077148e-01,9.619683027267456055e-01,9.619210958480834961e-01,9.618740081787109375e-01,9.618268013000488281e-01,9.617795944213867188e-01,9.617323875427246094e-01,9.616853594779968262e-01,9.616381525993347168e-01,9.615910053253173828e-01,9.615437984466552734e-01,9.614967703819274902e-01,9.614495635032653809e-01,9.614024162292480469e-01,9.613552689552307129e-01,9.613082408905029297e-01,9.612610936164855957e-01,9.612139463424682617e-01,9.611667990684509277e-01,9.611197710037231445e-01,9.610726237297058105e-01,9.610255360603332520e-01,9.609785079956054688e-01,9.609314203262329102e-01,9.608842730522155762e-01,9.608371853828430176e-01,9.607902169227600098e-01,9.607430696487426758e-01,9.606959819793701172e-01,9.606488943099975586e-01,9.606019258499145508e-01,9.605548381805419922e-01,9.605078101158142090e-01,9.604607224464416504e-01,9.604137539863586426e-01,9.603667259216308594e-01,9.603196382522583008e-01,9.602726101875305176e-01,9.602256417274475098e-01,9.601786136627197266e-01,9.601315855979919434e-01,9.600846767425537109e-01,9.600376486778259277e-01,9.599906206130981445e-01,9.599435925483703613e-01,9.598966836929321289e-01,9.598496556282043457e-01,9.598026871681213379e-01,9.597556591033935547e-01,9.597088098526000977e-01,9.596617817878723145e-01,9.596148133277893066e-01,9.595678448677062988e-01,9.595209360122680664e-01,9.594739675521850586e-01,9.594269990921020508e-01,9.593800306320190430e-01,9.593331813812255859e-01,9.592862725257873535e-01,9.592393040657043457e-01,9.591923356056213379e-01,9.591455459594726562e-01,9.590985774993896484e-01,9.590516686439514160e-01,9.590048193931579590e-01,9.589579105377197266e-01,9.589110016822814941e-01,9.588640928268432617e-01
9.103937149047851562e-01,9.103514552116394043e-01,9.103091359138488770e-01,9.102669358253479004e-01,9.102246761322021484e-01,9.101824164390563965e-01,9.101402759552001953e-01,9.100980162620544434e-01,9.100557565689086914e-01,9.100134968757629395e-01,9.099712967872619629e-01,9.099290966987609863e-01,9.098868370056152344e-01,9.098445773124694824e-01,9.098024368286132812e-01,9.097602367401123047e-01,9.097179770469665527e-01,9.096757769584655762e-01,9.096336364746093750e-01,9.095914363861083984e-01,9.095492362976074219e-01,9.095070362091064453e-01,9.094648957252502441e-01,9.094226956367492676e-01,9.093805551528930664e-01,9.093384146690368652e-01,9.092962741851806641e-01,9.092540740966796875e-01,9.092118740081787109e-01,9.091697931289672852e-01,9.091276526451110840e-01,9.090854525566101074e-01,9.090433120727539062e-01,9.090012311935424805e-01,9.089590907096862793e-01,9.089169502258300781e-01,9.088748097419738770e-01,9.088327288627624512e-01,9.087905883789062500e-01,9.087484478950500488e-01,9.087063074111938477e-01,9.086642861366271973e-01,9.086221456527709961e-01,9.085800647735595703e-01,9.085379242897033691e-01,9.084959030151367188e-01,9.084538221359252930e-01,9.084117412567138672e-01,9.083697199821472168e-01,9.083276391029357910e-01,9.082854986190795898e-01,9.082434177398681641e-01,9.082014560699462891e-01,9.081593751907348633e-01,9.081172943115234375e-01,9.080752134323120117e-01,9.080332517623901367e-01,9.079911708831787109e-01,9.079490900039672852e-01,9.079070687294006348e-01,9.078651070594787598e-01,9.078230261802673340e-01,9.077810049057006836e-01,9.077389240264892578e-01,9.076970219612121582e-01,9.076549410820007324e-01,9.076129198074340820e-01,9.075708985328674316e-01,9.075289964675903320e-01,9.074869751930236816e-01,9.074449539184570312e-01,9.074030518531799316e-01,9.073610305786132812e-01,9.073190093040466309e-01,9.072770476341247559e-01,9.072351455688476562e-01,9.071931242942810059e-01,9.071511626243591309e-01,9.071091413497924805e-01,9.070672988891601562e-01
8.635732531547546387e-01,8.635352849960327148e-01,8.634972572326660156e-01,8.634591698646545410e-01,8.634211421012878418e-01,8.633832335472106934e-01,8.633452057838439941e-01,8.633071780204772949e-01,8.632691502571105957e-01,8.632311820983886719e-01,8.631931543350219727e-01,8.631551861763000488e-01,8.631171584129333496e-01,8.630792498588562012e-01,8.630412220954895020e-01,8.630032539367675781e-01,8.629652261734008789e-01,8.629273176193237305e-01,8.628893494606018066e-01,8.628513216972351074e-01,8.628134727478027344e-01,8.627754449844360352e-01,8.627374768257141113e-01,8.626995086669921875e-01,8.626616597175598145e-01,8.626236915588378906e-01,8.625857234001159668e-01,8.625477552413940430e-01,8.625098466873168945e-01,8.624719381332397461e-01,8.624339699745178223e-01,8.623960018157958984e-01,8.623581528663635254e-01,8.623202443122863770e-01,8.622822761535644531e-01,8.622443675994873047e-01,8.622065186500549316e-01,8.621685504913330078e-01,8.621306419372558594e-01,8.620927333831787109e-01,8.620548844337463379e-01,8.620169758796691895e-01,8.619790673255920410e-01,8.619412779808044434e-01,8.619033694267272949e-01,8.618654608726501465e-01,8.618275523185729980e-01,8.617897629737854004e-01,8.617518544197082520e-01,8.617139458656311035e-01,8.616760969161987305e-01,8.616383075714111328e-01,8.616003990173339844e-01,8.615625500679016113e-01,8.615246415138244629e-01,8.614869117736816406e-01,8.614490032196044922e-01,8.614111542701721191e-01,8.613733053207397461e-01,8.613355159759521484e-01,8.612976670265197754e-01,8.612598180770874023e-01,8.612219691276550293e-01,8.611842393875122070e-01,8.611463904380798340e-01,8.611085414886474609e-01,8.610708117485046387e-01,8.610330224037170410e-01,8.609951734542846680e-01,8.609573245048522949e-01,8.609195947647094727e-01,8.608818054199218750e-01,8.608440160751342773e-01,8.608061671257019043e-01,8.607684969902038574e-01,8.607306480407714844e-01,8.606928586959838867e-01,8.606550693511962891e-01,8.606173992156982422e-01,8.605796098709106445e-01
