5.000000000000000000e+00,5.000000000000000000e+00,5.000000000000000000e+00,5.000000000000000000e+00,5.000000000000000000e+00,5.000000000000000000e+00,5.000000000000000000e+00,5.000000000000000000e+00,5.000000000000000000e+00,5.000000000000000000e+00,5.000000000000000000e+00,5.000000000000000000e+00,5.000000000000000000e+00,5.000000000000000000e+00,5.000000000000000000e+00,5.000000000000000000e+00,5.000000000000000000e+00,5.000000000000000000e+00,5.000000000000000000e+00,5.000000000000000000e+00,5.000000000000000000e+00,5.000000000000000000e+00,5.000000000000000000e+00,5.000000000000000000e+00,5.000000000000000000e+00,5.000000000000000000e+00,5.000000000000000000e+00,5.000000000000000000e+00,5.000000000000000000e+00,5.000000000000000000e+00,5.000000000000000000e+00,5.000000000000000000e+00,5.000000000000000000e+00,5.000000000000000000e+00,5.000000000000000000e+00,5.000000000000000000e+00,5.000000000000000000e+00,5.000000000000000000e+00,5.000000000000000000e+00,4.850719928741455078e+00,4.660703659057617188e+00,4.485013961791992188e+00,4.322088241577148438e+00,4.170584678649902344e+00,4.029342651367187500e+00,3.897354364395141602e+00,3.773738622665405273e+00,3.657723665237426758e+00,3.548628807067871094e+00,3.445853471755981445e+00,3.348863601684570312e+00,3.257184028625488281e+00,3.170390605926513672e+00,3.088102817535400391e+00,3.009978055953979492e+00,2.935708999633789062e+00,2.865016698837280273e+00,2.797648906707763672e+00,2.733376502990722656e+00,2.671990871429443359e+00,2.613301992416381836e+00,2.557135581970214844e+00,2.503332853317260742e+00,2.451747655868530273e+00,2.402245283126831055e+00,2.354702472686767578e+00,2.309005022048950195e+00,2.265047311782836914e+00,1.025279045104980469e+00,1.006910443305969238e+00,9.890577197074890137e-01,9.756623506546020508e-01,9.625914096832275391e-01,9.498658776283264160e-01,9.441239237785339355e-01,9.432960152626037598e-01,9.424695968627929688e-01,9.416446089744567871e-01,9.568156003952026367e-01,1.204861760139465332e+00
5.000000000000000000e+00,5.000000000000000000e+00,5.000000000000000000e+00,5.000000000000000000e+00,5.000000000000000000e+00,5.000000000000000000e+00,5.000000000000000000e+00,5.000000000000000000e+00,5.000000000000000000e+00,5.000000000000000000e+00,5.000000000000000000e+00,5.000000000000000000e+00,5.000000000000000000e+00,5.000000000000000000e+00,5.000000000000000000e+00,5.000000000000000000e+00,5.000000000000000000e+00,5.000000000000000000e+00,5.000000000000000000e+00,5.000000000000000000e+00,5.000000000000000000e+00,5.000000000000000000e+00,5.000000000000000000e+00,5.000000000000000000e+00,5.000000000000000000e+00,5.000000000000000000e+00,5.000000000000000000e+00,5.000000000000000000e+00,5.000000000000000000e+00,5.000000000000000000e+00,5.000000000000000000e+00,5.000000000000000000e+00,5.000000000000000000e+00,5.000000000000000000e+00,5.000000000000000000e+00,5.000000000000000000e+00,5.000000000000000000e+00,5.000000000000000000e+00,5.000000000000000000e+00,4.850857734680175781e+00,4.660830974578857422e+00,4.485131740570068359e+00,4.322197437286376953e+00,4.170686244964599609e+00,4.029438018798828125e+00,3.897443532943725586e+00,3.773821830749511719e+00,3.657801866531372070e+00,3.548702716827392578e+00,3.445923089981079102e+00,3.348929166793823242e+00,3.257246494293212891e+00,3.170449733734130859e+00,3.088158369064331055e+00,3.010031223297119141e+00,2.935759782791137695e+00,2.865064859390258789e+00,2.797694683074951172e+00,2.733420372009277344e+00,2.672032594680786133e+00,2.613342046737670898e+00,2.557173967361450195e+00,2.503369569778442383e+00,2.451782703399658203e+00,2.402279138565063477e+00,2.354735136032104492e+00,2.309036016464233398e+00,2.265077352523803711e+00,1.028352856636047363e+00,1.009984970092773438e+00,9.924737215042114258e-01,9.789588451385498047e-01,9.658071398735046387e-01,9.530040621757507324e-01,9.483343362808227539e-01,9.478748440742492676e-01,9.473291635513305664e-01,9.464956521987915039e-01,9.952648878097534180e-01,1.215235948562622070e+00
3.303496837615966797e+00,3.346619844436645508e+00,3.371407508850097656e+00,5.000000000000000000e+00,5.000000000000000000e+00,5.000000000000000000e+00,5.000000000000000000e+00,5.000000000000000000e+00,5.000000000000000000e+00,5.000000000000000000e+00,5.000000000000000000e+00,5.000000000000000000e+00,5.000000000000000000e+00,5.000000000000000000e+00,5.000000000000000000e+00,5.000000000000000000e+00,5.000000000000000000e+00,5.000000000000000000e+00,5.000000000000000000e+00,5.000000000000000000e+00,5.000000000000000000e+00,5.000000000000000000e+00,5.000000000000000000e+00,5.000000000000000000e+00,5.000000000000000000e+00,5.000000000000000000e+00,5.000000000000000000e+00,5.000000000000000000e+00,5.000000000000000000e+00,5.000000000000000000e+00,5.000000000000000000e+00,5.000000000000000000e+00,5.000000000000000000e+00,5.000000000000000000e+00,5.000000000000000000e+00,5.000000000000000000e+00,5.000000000000000000e+00,5.000000000000000000e+00,5.000000000000000000e+00,4.850995540618896484e+00,4.660958290100097656e+00,4.485249519348144531e+00,4.322306632995605469e+00,4.170788288116455078e+00,4.029532909393310547e+00,3.897532224655151367e+00,3.773905515670776367e+00,3.657880544662475586e+00,3.548776388168334961e+00,3.445992469787597656e+00,3.348994970321655273e+00,3.257308483123779297e+00,3.170508384704589844e+00,3.088214397430419922e+00,3.010084152221679688e+00,2.935810089111328125e+00,2.865113019943237305e+00,2.797740697860717773e+00,2.733464002609252930e+00,2.672074556350708008e+00,2.613382101058959961e+00,2.557212352752685547e+00,2.503406286239624023e+00,2.451817989349365234e+00,2.402312755584716797e+00,2.354767560958862305e+00,2.309067249298095703e+00,2.265107393264770508e+00,1.032065510749816895e+00,1.013566017150878906e+00,9.960537552833557129e-01,9.824419021606445312e-01,9.691969752311706543e-01,9.559305310249328613e-01,9.517606496810913086e-01,9.512978196144104004e-01,9.508353471755981445e-01,9.503734111785888672e-01,1.872890830039978027e+00,1.217134833335876465e+00
3.269789218902587891e+00,3.303808927536010742e+00,3.358338356018066406e+00,3.384396553039550781e+00,5.000000000000000000e+00,5.000000000000000000e+00,5.000000000000000000e+00,5.000000000000000000e+00,5.000000000000000000e+00,5.000000000000000000e+00,5.000000000000000000e+00,5.000000000000000000e+00,5.000000000000000000e+00,5.000000000000000000e+00,5.000000000000000000e+00,5.000000000000000000e+00,5.000000000000000000e+00,5.000000000000000000e+00,5.000000000000000000e+00,5.000000000000000000e+00,5.000000000000000000e+00,5.000000000000000000e+00,5.000000000000000000e+00,5.000000000000000000e+00,5.000000000000000000e+00,5.000000000000000000e+00,5.000000000000000000e+00,5.000000000000000000e+00,5.000000000000000000e+00,5.000000000000000000e+00,5.000000000000000000e+00,5.000000000000000000e+00,5.000000000000000000e+00,5.000000000000000000e+00,5.000000000000000000e+00,5.000000000000000000e+00,5.000000000000000000e+00,5.000000000000000000e+00,5.000000000000000000e+00,4.851133346557617188e+00,4.661085605621337891e+00,4.485367298126220703e+00,4.322416305541992188e+00,4.170890331268310547e+00,4.029628276824951172e+00,3.897621393203735352e+00,3.773988723754882812e+00,3.657958745956420898e+00,3.548850297927856445e+00,3.446062088012695312e+00,3.349060535430908203e+00,3.257370710372924805e+00,3.170567274093627930e+00,3.088270187377929688e+00,3.010137319564819336e+00,2.935860633850097656e+00,2.865160942077636719e+00,2.797786474227905273e+00,2.733507871627807617e+00,2.672116279602050781e+00,2.613421916961669922e+00,2.557250738143920898e+00,2.503443002700805664e+00,2.451853275299072266e+00,2.402346611022949219e+00,2.354799985885620117e+00,2.309098482131958008e+00,2.265137434005737305e+00,1.035804986953735352e+00,1.017172455787658691e+00,9.996597170829772949e-01,9.859497547149658203e-01,9.726107716560363770e-01,9.590587019920349121e-01,9.552119374275207520e-01,9.547456502914428711e-01,9.542798995971679688e-01,9.579523801803588867e-01,1.872911334037780762e+00,1.220353007316589355e+00
3.253616094589233398e+00,3.297343730926513672e+00,3.362275362014770508e+00,3.396039247512817383e+00,3.464898586273193359e+00,5.000000000000000000e+00,5.000000000000000000e+00,5.000000000000000000e+00,5.000000000000000000e+00,5.000000000000000000e+00,5.000000000000000000e+00,5.000000000000000000e+00,5.000000000000000000e+00,5.000000000000000000e+00,5.000000000000000000e+00,5.000000000000000000e+00,5.000000000000000000e+00,5.000000000000000000e+00,5.000000000000000000e+00,5.000000000000000000e+00,5.000000000000000000e+00,5.000000000000000000e+00,5.000000000000000000e+00,5.000000000000000000e+00,5.000000000000000000e+00,5.000000000000000000e+00,5.000000000000000000e+00,5.000000000000000000e+00,5.000000000000000000e+00,5.000000000000000000e+00,5.000000000000000000e+00,5.000000000000000000e+00,5.000000000000000000e+00,5.000000000000000000e+00,5.000000000000000000e+00,5.000000000000000000e+00,5.000000000000000000e+00,5.000000000000000000e+00,5.000000000000000000e+00,4.851271152496337891e+00,4.661212921142578125e+00,4.485485076904296875e+00,4.322525501251220703e+00,4.170991897583007812e+00,4.029723167419433594e+00,3.897710084915161133e+00,3.774072408676147461e+00,3.658037185668945312e+00,3.548923730850219727e+00,3.446131467819213867e+00,3.349126338958740234e+00,3.257432699203491211e+00,3.170626163482666016e+00,3.088326215744018555e+00,3.010190248489379883e+00,2.935910940170288086e+00,2.865209102630615234e+00,2.797832489013671875e+00,2.733551502227783203e+00,2.672158241271972656e+00,2.613461971282958984e+00,2.557288885116577148e+00,2.503479719161987305e+00,2.451888561248779297e+00,2.402380466461181641e+00,2.354832410812377930e+00,2.309129714965820312e+00,2.265167474746704102e+00,1.038898229598999023e+00,1.020804762840270996e+00,1.003291726112365723e+00,9.894828200340270996e-01,9.758061170578002930e-01,9.633188843727111816e-01,9.587995409965515137e-01,9.582186341285705566e-01,9.577493667602539062e-01,9.960820674896240234e-01,1.872931838035583496e+00,1.843905568122863770e+00
3.260500907897949219e+00,3.303837060928344727e+00,3.390038967132568359e+00,3.395292997360229492e+00,3.441457271575927734e+00,5.000000000000000000e+00,5.000000000000000000e+00,5.000000000000000000e+00,5.000000000000000000e+00,5.000000000000000000e+00,5.000000000000000000e+00,5.000000000000000000e+00,5.000000000000000000e+00,5.000000000000000000e+00,5.000000000000000000e+00,5.000000000000000000e+00,5.000000000000000000e+00,5.000000000000000000e+00,5.000000000000000000e+00,5.000000000000000000e+00,5.000000000000000000e+00,5.000000000000000000e+00,5.000000000000000000e+00,5.000000000000000000e+00,5.000000000000000000e+00,5.000000000000000000e+00,5.000000000000000000e+00,5.000000000000000000e+00,5.000000000000000000e+00,5.000000000000000000e+00,5.000000000000000000e+00,5.000000000000000000e+00,5.000000000000000000e+00,5.000000000000000000e+00,5.000000000000000000e+00,5.000000000000000000e+00,5.000000000000000000e+00,5.000000000000000000e+00,5.000000000000000000e+00,4.851408958435058594e+00,4.661339759826660156e+00,4.485602855682373047e+00,4.322635173797607422e+00,4.171093940734863281e+00,4.029818058013916016e+00,3.897799491882324219e+00,3.774155616760253906e+00,3.658115386962890625e+00,3.548997879028320312e+00,3.446201324462890625e+00,3.349191904067993164e+00,3.257494926452636719e+00,3.170685052871704102e+00,3.088381767272949219e+00,3.010243654251098633e+00,2.935961484909057617e+00,2.865257024765014648e+00,2.797878265380859375e+00,2.733595371246337891e+00,2.672199964523315430e+00,2.613502025604248047e+00,2.557327270507812500e+00,2.503516435623168945e+00,2.451923608779907227e+00,2.402414321899414062e+00,2.354865074157714844e+00,2.309160947799682617e+00,2.265197515487670898e+00,1.041946291923522949e+00,1.024463057518005371e+00,1.006950259208679199e+00,9.930410981178283691e-01,9.787737727165222168e-01,9.676171541213989258e-01,9.630574584007263184e-01,9.617168903350830078e-01,9.612442255020141602e-01,1.902907967567443848e+00,1.872952342033386230e+00,1.843925476074218750e+00
3.256135702133178711e+00,3.312177419662475586e+00,5.000000000000000000e+00,3.388223648071289062e+00,3.432241201400756836e+00,5.000000000000000000e+00,5.000000000000000000e+00,5.000000000000000000e+00,5.000000000000000000e+00,5.000000000000000000e+00,5.000000000000000000e+00,5.000000000000000000e+00,5.000000000000000000e+00,5.000000000000000000e+00,5.000000000000000000e+00,5.000000000000000000e+00,5.000000000000000000e+00,5.000000000000000000e+00,5.000000000000000000e+00,5.000000000000000000e+00,5.000000000000000000e+00,5.000000000000000000e+00,5.000000000000000000e+00,5.000000000000000000e+00,5.000000000000000000e+00,5.000000000000000000e+00,5.000000000000000000e+00,5.000000000000000000e+00,5.000000000000000000e+00,5.000000000000000000e+00,5.000000000000000000e+00,5.000000000000000000e+00,5.000000000000000000e+00,5.000000000000000000e+00,5.000000000000000000e+00,5.000000000000000000e+00,5.000000000000000000e+00,5.000000000000000000e+00,5.000000000000000000e+00,4.851546764373779297e+00,4.661467075347900391e+00,4.485721111297607422e+00,4.322744369506835938e+00,4.171195983886718750e+00,4.029913425445556641e+00,3.897888183593750000e+00,3.774239063262939453e+00,3.658193826675415039e+00,3.549071311950683594e+00,3.446270704269409180e+00,3.349257707595825195e+00,3.257556915283203125e+00,3.170743942260742188e+00,3.088437795639038086e+00,3.010296583175659180e+00,2.936012029647827148e+00,2.865305185317993164e+00,2.797924041748046875e+00,2.733639001846313477e+00,2.672241926193237305e+00,2.613542079925537109e+00,2.557365417480468750e+00,2.503553152084350586e+00,2.451958894729614258e+00,2.402447938919067383e+00,2.354897260665893555e+00,2.309192180633544922e+00,2.265227556228637695e+00,1.045012474060058594e+00,1.028147697448730469e+00,1.010635733604431152e+00,9.965257048606872559e-01,9.817596673965454102e-01,9.719539284706115723e-01,9.673534035682678223e-01,9.652407169342041016e-01,9.647647142410278320e-01,1.902929067611694336e+00,1.872972965240478516e+00,1.843945264816284180e+00
3.260205984115600586e+00,3.324135541915893555e+00,5.000000000000000000e+00,3.395177602767944336e+00,3.430565595626831055e+00,5.000000000000000000e+00,5.000000000000000000e+00,5.000000000000000000e+00,5.000000000000000000e+00,5.000000000000000000e+00,5.000000000000000000e+00,5.000000000000000000e+00,5.000000000000000000e+00,5.000000000000000000e+00,5.000000000000000000e+00,5.000000000000000000e+00,5.000000000000000000e+00,5.000000000000000000e+00,5.000000000000000000e+00,5.000000000000000000e+00,5.000000000000000000e+00,5.000000000000000000e+00,5.000000000000000000e+00,5.000000000000000000e+00,5.000000000000000000e+00,5.000000000000000000e+00,5.000000000000000000e+00,5.000000000000000000e+00,5.000000000000000000e+00,5.000000000000000000e+00,5.000000000000000000e+00,5.000000000000000000e+00,5.000000000000000000e+00,5.000000000000000000e+00,5.000000000000000000e+00,5.000000000000000000e+00,5.000000000000000000e+00,5.000000000000000000e+00,5.000000000000000000e+00,4.851684570312500000e+00,4.661594390869140625e+00,4.485838890075683594e+00,4.322854042053222656e+00,4.171297550201416016e+00,4.030008316040039062e+00,3.897977352142333984e+00,3.774322271347045898e+00,3.658272027969360352e+00,3.549145221710205078e+00,3.446340322494506836e+00,3.349323272705078125e+00,3.257619142532348633e+00,3.170802831649780273e+00,3.088493585586547852e+00,3.010349750518798828e+00,2.936062574386596680e+00,2.865353107452392578e+00,2.797969818115234375e+00,2.733682870864868164e+00,2.672283649444580078e+00,2.613581895828247070e+00,2.557403802871704102e+00,2.503589868545532227e+00,2.451993942260742188e+00,2.402481794357299805e+00,2.354929924011230469e+00,2.309223413467407227e+00,1.065251111984252930e+00,1.048096656799316406e+00,1.031485915184020996e+00,1.014348149299621582e+00,9.996209144592285156e-01,9.847636818885803223e-01,9.763298034667968750e-01,9.716877937316894531e-01,9.687905311584472656e-01,9.908368587493896484e-01,1.902950406074523926e+00,1.872993469238281250e+00,1.843965172767639160e+00
3.248915195465087891e+00,3.311352491378784180e+00,5.000000000000000000e+00,3.410371303558349609e+00,3.410582304000854492e+00,5.000000000000000000e+00,5.000000000000000000e+00,5.000000000000000000e+00,5.000000000000000000e+00,5.000000000000000000e+00,5.000000000000000000e+00,5.000000000000000000e+00,5.000000000000000000e+00,5.000000000000000000e+00,5.000000000000000000e+00,5.000000000000000000e+00,5.000000000000000000e+00,5.000000000000000000e+00,5.000000000000000000e+00,5.000000000000000000e+00,5.000000000000000000e+00,5.000000000000000000e+00,5.000000000000000000e+00,5.000000000000000000e+00,5.000000000000000000e+00,5.000000000000000000e+00,5.000000000000000000e+00,5.000000000000000000e+00,5.000000000000000000e+00,5.000000000000000000e+00,5.000000000000000000e+00,5.000000000000000000e+00,5.000000000000000000e+00,5.000000000000000000e+00,5.000000000000000000e+00,5.000000000000000000e+00,5.000000000000000000e+00,5.000000000000000000e+00,5.000000000000000000e+00,4.851822376251220703e+00,4.661721706390380859e+00,4.485956668853759766e+00,4.322963237762451172e+00,4.171399593353271484e+00,4.030103683471679688e+00,3.898066043853759766e+00,3.774405956268310547e+00,3.658350706100463867e+00,3.549218893051147461e+00,3.446409702301025391e+00,3.349389076232910156e+00,3.257681131362915039e+00,3.170861721038818359e+00,3.088549613952636719e+00,3.010402679443359375e+00,2.936112880706787109e+00,2.865401506423950195e+00,2.798015832901000977e+00,2.733726501464843750e+00,2.672325611114501953e+00,2.613621950149536133e+00,2.557441949844360352e+00,2.503626585006713867e+00,2.452029228210449219e+00,2.402515649795532227e+00,2.354962348937988281e+00,2.309254646301269531e+00,1.068500876426696777e+00,1.051199078559875488e+00,1.034490704536437988e+00,1.018087983131408691e+00,1.002735495567321777e+00,9.877861738204956055e-01,9.807451963424682617e-01,9.760612249374389648e-01,9.723666310310363770e-01,1.005407929420471191e+00,1.902971625328063965e+00,1.873013973236083984e+00,1.843985199928283691e+00
3.257995367050170898e+00,3.312650680541992188e+00,5.000000000000000000e+00,3.379827737808227539e+00,3.374331235885620117e+00,5.000000000000000000e+00,5.000000000000000000e+00,5.000000000000000000e+00,5.000000000000000000e+00,5.000000000000000000e+00,5.000000000000000000e+00,5.000000000000000000e+00,5.000000000000000000e+00,5.000000000000000000e+00,5.000000000000000000e+00,5.000000000000000000e+00,5.000000000000000000e+00,5.000000000000000000e+00,5.000000000000000000e+00,5.000000000000000000e+00,5.000000000000000000e+00,5.000000000000000000e+00,5.000000000000000000e+00,5.000000000000000000e+00,5.000000000000000000e+00,5.000000000000000000e+00,5.000000000000000000e+00,5.000000000000000000e+00,5.000000000000000000e+00,5.000000000000000000e+00,5.000000000000000000e+00,5.000000000000000000e+00,5.000000000000000000e+00,5.000000000000000000e+00,5.000000000000000000e+00,5.000000000000000000e+00,5.000000000000000000e+00,5.000000000000000000e+00,5.000000000000000000e+00,4.851960182189941406e+00,4.661849021911621094e+00,4.486074447631835938e+00,4.323072910308837891e+00,4.171501636505126953e+00,4.030198574066162109e+00,3.898155212402343750e+00,3.774489164352416992e+00,3.658428907394409180e+00,3.549292802810668945e+00,3.446479558944702148e+00,3.349454641342163086e+00,3.257743597030639648e+00,3.170920610427856445e+00,3.088605165481567383e+00,3.010455846786499023e+00,2.936163425445556641e+00,2.865449428558349609e+00,2.798061609268188477e+00,2.733770370483398438e+00,2.672367334365844727e+00,2.613662004470825195e+00,2.557480573654174805e+00,2.503663301467895508e+00,2.452064514160156250e+00,2.402549505233764648e+00,2.354994773864746094e+00,2.309285879135131836e+00,1.072994232177734375e+00,1.054784059524536133e+00,1.037759900093078613e+00,1.021454691886901855e+00,1.005957603454589844e+00,9.909254908561706543e-01,9.851730465888977051e-01,9.804743528366088867e-01,9.759691357612609863e-01,1.933924913406372070e+00,1.902992725372314453e+00,1.873034477233886719e+00,1.844005107879638672e+00
3.264217376708984375e+00,3.309565782546997070e+00,5.000000000000000000e+00,5.000000000000000000e+00,3.332731485366821289e+00,5.000000000000000000e+00,5.000000000000000000e+00,5.000000000000000000e+00,5.000000000000000000e+00,5.000000000000000000e+00,5.000000000000000000e+00,5.000000000000000000e+00,5.000000000000000000e+00,5.000000000000000000e+00,5.000000000000000000e+00,5.000000000000000000e+00,5.000000000000000000e+00,5.000000000000000000e+00,5.000000000000000000e+00,5.000000000000000000e+00,5.000000000000000000e+00,5.000000000000000000e+00,5.000000000000000000e+00,5.000000000000000000e+00,5.000000000000000000e+00,5.000000000000000000e+00,5.000000000000000000e+00,5.000000000000000000e+00,5.000000000000000000e+00,5.000000000000000000e+00,5.000000000000000000e+00,5.000000000000000000e+00,5.000000000000000000e+00,5.000000000000000000e+00,5.000000000000000000e+00,5.000000000000000000e+00,5.000000000000000000e+00,5.000000000000000000e+00,5.000000000000000000e+00,4.852097988128662109e+00,4.661976337432861328e+00,4.486192226409912109e+00,4.323182106018066406e+00,4.171603202819824219e+00,4.030293941497802734e+00,3.898244142532348633e+00,3.774572849273681641e+00,3.658507347106933594e+00,3.549366474151611328e+00,3.446548938751220703e+00,3.349520444869995117e+00,3.257805585861206055e+00,3.170979499816894531e+00,3.088661193847656250e+00,3.010508775711059570e+00,2.936213970184326172e+00,2.865497589111328125e+00,2.798107624053955078e+00,2.733814001083374023e+00,2.672409057617187500e+00,2.613702058792114258e+00,2.557518720626831055e+00,2.503700017929077148e+00,2.452099800109863281e+00,2.402583122253417969e+00,2.355027198791503906e+00,1.090812802314758301e+00,1.073249220848083496e+00,1.057247996330261230e+00,1.041418671607971191e+00,1.025140643119812012e+00,1.009537339210510254e+00,9.965790510177612305e-01,9.892634153366088867e-01,9.845747947692871094e-01,9.943440556526184082e-01,1.933946728706359863e+00,1.903013944625854492e+00,1.873055219650268555e+00,1.844025015830993652e+00
3.279887199401855469e+00,3.313506841659545898e+00,5.000000000000000000e+00,5.000000000000000000e+00,3.295887470245361328e+00,3.358900070190429688e+00,5.000000000000000000e+00,5.000000000000000000e+00,5.000000000000000000e+00,5.000000000000000000e+00,5.000000000000000000e+00,5.000000000000000000e+00,5.000000000000000000e+00,5.000000000000000000e+00,5.000000000000000000e+00,5.000000000000000000e+00,5.000000000000000000e+00,5.000000000000000000e+00,5.000000000000000000e+00,5.000000000000000000e+00,5.000000000000000000e+00,5.000000000000000000e+00,5.000000000000000000e+00,5.000000000000000000e+00,5.000000000000000000e+00,5.000000000000000000e+00,5.000000000000000000e+00,5.000000000000000000e+00,5.000000000000000000e+00,5.000000000000000000e+00,5.000000000000000000e+00,5.000000000000000000e+00,5.000000000000000000e+00,5.000000000000000000e+00,5.000000000000000000e+00,5.000000000000000000e+00,5.000000000000000000e+00,5.000000000000000000e+00,5.000000000000000000e+00,4.852236270904541016e+00,4.662103652954101562e+00,4.486310005187988281e+00,4.323291778564453125e+00,4.171705245971679688e+00,4.030388832092285156e+00,3.898333311080932617e+00,3.774656057357788086e+00,3.658585548400878906e+00,3.549440383911132812e+00,3.446618556976318359e+00,3.349586009979248047e+00,3.257867813110351562e+00,3.171038389205932617e+00,3.088716983795166016e+00,3.010561943054199219e+00,2.936264514923095703e+00,2.865545511245727539e+00,2.798153162002563477e+00,2.733857870101928711e+00,2.672450780868530273e+00,2.613741874694824219e+00,2.557557106018066406e+00,2.503736495971679688e+00,2.452134847640991211e+00,2.402617216110229492e+00,1.109512329101562500e+00,1.088645458221435547e+00,1.071899652481079102e+00,1.055421829223632812e+00,1.040534973144531250e+00,1.026040792465209961e+00,1.012210130691528320e+00,1.002617120742797852e+00,9.952129125595092773e-01,9.886569380760192871e-01,1.016844272613525391e+00,1.933968544006347656e+00,1.903035283088684082e+00,1.873075723648071289e+00,1.844044804573059082e+00
3.281029462814331055e+00,3.316867589950561523e+00,3.407455682754516602e+00,5.000000000000000000e+00,5.000000000000000000e+00,3.298340082168579102e+00,5.000000000000000000e+00,5.000000000000000000e+00,5.000000000000000000e+00,5.000000000000000000e+00,5.000000000000000000e+00,5.000000000000000000e+00,5.000000000000000000e+00,5.000000000000000000e+00,5.000000000000000000e+00,5.000000000000000000e+00,5.000000000000000000e+00,5.000000000000000000e+00,5.000000000000000000e+00,5.000000000000000000e+00,5.000000000000000000e+00,5.000000000000000000e+00,5.000000000000000000e+00,5.000000000000000000e+00,5.000000000000000000e+00,5.000000000000000000e+00,5.000000000000000000e+00,5.000000000000000000e+00,5.000000000000000000e+00,5.000000000000000000e+00,5.000000000000000000e+00,5.000000000000000000e+00,5.000000000000000000e+00,5.000000000000000000e+00,5.000000000000000000e+00,5.000000000000000000e+00,5.000000000000000000e+00,5.000000000000000000e+00,5.000000000000000000e+00,4.852374076843261719e+00,4.662230968475341797e+00,4.486428260803222656e+00,4.323401451110839844e+00,4.171807289123535156e+00,4.030484199523925781e+00,3.898422002792358398e+00,3.774739742279052734e+00,3.658664226531982422e+00,3.549514055252075195e+00,3.446687936782836914e+00,3.349652051925659180e+00,3.257929801940917969e+00,3.171097278594970703e+00,3.088773012161254883e+00,3.010614871978759766e+00,2.936314821243286133e+00,2.865593671798706055e+00,2.798199176788330078e+00,2.733901500701904297e+00,2.672492742538452148e+00,2.613782167434692383e+00,2.557595252990722656e+00,2.503773450851440430e+00,2.452170133590698242e+00,1.128879904747009277e+00,1.103695034980773926e+00,1.086486697196960449e+00,1.069806694984436035e+00,1.055607557296752930e+00,1.042523264884948730e+00,1.029759287834167480e+00,1.018763661384582520e+00,1.009535431861877441e+00,1.001770496368408203e+00,1.015236020088195801e+00,1.965946912765502930e+00,1.933990597724914551e+00,1.903056383132934570e+00,1.873096227645874023e+00,1.844064950942993164e+00
3.288226842880249023e+00,3.328536510467529297e+00,5.000000000000000000e+00,5.000000000000000000e+00,5.000000000000000000e+00,3.264070034027099609e+00,5.000000000000000000e+00,5.000000000000000000e+00,5.000000000000000000e+00,5.000000000000000000e+00,5.000000000000000000e+00,5.000000000000000000e+00,5.000000000000000000e+00,5.000000000000000000e+00,5.000000000000000000e+00,5.000000000000000000e+00,5.000000000000000000e+00,5.000000000000000000e+00,5.000000000000000000e+00,5.000000000000000000e+00,5.000000000000000000e+00,5.000000000000000000e+00,5.000000000000000000e+00,5.000000000000000000e+00,5.000000000000000000e+00,5.000000000000000000e+00,5.000000000000000000e+00,5.000000000000000000e+00,5.000000000000000000e+00,5.000000000000000000e+00,5.000000000000000000e+00,5.000000000000000000e+00,5.000000000000000000e+00,5.000000000000000000e+00,5.000000000000000000e+00,5.000000000000000000e+00,5.000000000000000000e+00,5.000000000000000000e+00,5.000000000000000000e+00,4.852511882781982422e+00,4.662358283996582031e+00,4.486546039581298828e+00,4.323510646820068359e+00,4.171909332275390625e+00,4.030579090118408203e+00,3.898511409759521484e+00,3.774822950363159180e+00,3.658742427825927734e+00,3.549587965011596680e+00,3.446757793426513672e+00,3.349717378616333008e+00,3.257992267608642578e+00,3.171156167984008789e+00,3.088828802108764648e+00,3.010668039321899414e+00,2.936365365982055664e+00,2.865641832351684570e+00,2.798244953155517578e+00,2.733945369720458984e+00,2.672534465789794922e+00,2.613821983337402344e+00,2.557633638381958008e+00,2.503809928894042969e+00,1.148935675621032715e+00,1.121312141418457031e+00,1.101476311683654785e+00,1.084942698478698730e+00,1.071125864982604980e+00,1.057875752449035645e+00,1.046443939208984375e+00,1.039366602897644043e+00,1.028591394424438477e+00,1.018037438392639160e+00,1.033688426017761230e+00,1.999000549316406250e+00,1.965969562530517578e+00,1.934012532234191895e+00,1.903077602386474609e+00,1.873116612434387207e+00,1.844084739685058594e+00
3.304479360580444336e+00,3.345721244812011719e+00,5.000000000000000000e+00,5.000000000000000000e+00,5.000000000000000000e+00,5.000000000000000000e+00,5.000000000000000000e+00,5.000000000000000000e+00,5.000000000000000000e+00,5.000000000000000000e+00,5.000000000000000000e+00,5.000000000000000000e+00,5.000000000000000000e+00,5.000000000000000000e+00,5.000000000000000000e+00,5.000000000000000000e+00,5.000000000000000000e+00,5.000000000000000000e+00,5.000000000000000000e+00,5.000000000000000000e+00,5.000000000000000000e+00,5.000000000000000000e+00,5.000000000000000000e+00,5.000000000000000000e+00,5.000000000000000000e+00,5.000000000000000000e+00,5.000000000000000000e+00,5.000000000000000000e+00,5.000000000000000000e+00,5.000000000000000000e+00,5.000000000000000000e+00,5.000000000000000000e+00,5.000000000000000000e+00,5.000000000000000000e+00,5.000000000000000000e+00,5.000000000000000000e+00,5.000000000000000000e+00,5.000000000000000000e+00,5.000000000000000000e+00,4.852649688720703125e+00,4.662485599517822266e+00,4.486663818359375000e+00,4.323620319366455078e+00,4.172010898590087891e+00,4.030674457550048828e+00,3.898600101470947266e+00,3.774906635284423828e+00,3.658820867538452148e+00,3.549661636352539062e+00,3.446827173233032227e+00,3.349783420562744141e+00,3.258054256439208984e+00,3.171214818954467773e+00,3.088884830474853516e+00,3.010720968246459961e+00,2.936415910720825195e+00,2.865689992904663086e+00,2.798290967941284180e+00,2.733989238739013672e+00,2.672576427459716797e+00,2.613862037658691406e+00,2.557671785354614258e+00,2.503846883773803711e+00,1.141097426414489746e+00,1.116885304450988770e+00,1.101342082023620605e+00,1.088633179664611816e+00,1.076530575752258301e+00,1.064694285392761230e+00,1.059351086616516113e+00,1.050608396530151367e+00,1.039600133895874023e+00,2.068533182144165039e+00,2.033184766769409180e+00,1.999023914337158203e+00,1.965992331504821777e+00,1.934034347534179688e+00,1.903098702430725098e+00,1.873137354850769043e+00,1.844104647636413574e+00
3.321495771408081055e+00,3.365742683410644531e+00,5.000000000000000000e+00,5.000000000000000000e+00,5.000000000000000000e+00,5.000000000000000000e+00,5.000000000000000000e+00,5.000000000000000000e+00,5.000000000000000000e+00,5.000000000000000000e+00,5.000000000000000000e+00,5.000000000000000000e+00,5.000000000000000000e+00,5.000000000000000000e+00,5.000000000000000000e+00,5.000000000000000000e+00,5.000000000000000000e+00,5.000000000000000000e+00,5.000000000000000000e+00,5.000000000000000000e+00,5.000000000000000000e+00,5.000000000000000000e+00,5.000000000000000000e+00,5.000000000000000000e+00,5.000000000000000000e+00,5.000000000000000000e+00,5.000000000000000000e+00,5.000000000000000000e+00,5.000000000000000000e+00,5.000000000000000000e+00,5.000000000000000000e+00,5.000000000000000000e+00,5.000000000000000000e+00,5.000000000000000000e+00,5.000000000000000000e+00,5.000000000000000000e+00,5.000000000000000000e+00,5.000000000000000000e+00,5.000000000000000000e+00,4.852787494659423828e+00,4.662612915039062500e+00,4.486781597137451172e+00,4.323729515075683594e+00,4.172112941741943359e+00,4.030769348144531250e+00,3.898689270019531250e+00,3.774989843368530273e+00,3.658899068832397461e+00,3.549735546112060547e+00,3.446897029876708984e+00,3.349848985671997070e+00,3.258116483688354492e+00,3.171273946762084961e+00,3.088940620422363281e+00,3.010774374008178711e+00,2.936466455459594727e+00,2.865737915039062500e+00,2.798336744308471680e+00,2.734033107757568359e+00,2.672618150711059570e+00,2.613902091979980469e+00,2.557710409164428711e+00,1.171249508857727051e+00,1.135814189910888672e+00,1.121232509613037109e+00,1.108398675918579102e+00,1.095855116844177246e+00,1.084350824356079102e+00,1.079384922981262207e+00,1.073588371276855469e+00,1.062095999717712402e+00,2.105158567428588867e+00,2.068558216094970703e+00,2.033208847045898438e+00,1.999047398567199707e+00,1.966014981269836426e+00,1.934056162834167480e+00,1.903120160102844238e+00,1.873157858848571777e+00,1.844124436378479004e+00
3.337336301803588867e+00,3.380995750427246094e+00,5.000000000000000000e+00,5.000000000000000000e+00,5.000000000000000000e+00,5.000000000000000000e+00,5.000000000000000000e+00,5.000000000000000000e+00,5.000000000000000000e+00,5.000000000000000000e+00,5.000000000000000000e+00,5.000000000000000000e+00,5.000000000000000000e+00,5.000000000000000000e+00,5.000000000000000000e+00,5.000000000000000000e+00,5.000000000000000000e+00,5.000000000000000000e+00,5.000000000000000000e+00,5.000000000000000000e+00,5.000000000000000000e+00,5.000000000000000000e+00,5.000000000000000000e+00,5.000000000000000000e+00,5.000000000000000000e+00,5.000000000000000000e+00,5.000000000000000000e+00,5.000000000000000000e+00,5.000000000000000000e+00,5.000000000000000000e+00,5.000000000000000000e+00,5.000000000000000000e+00,5.000000000000000000e+00,5.000000000000000000e+00,5.000000000000000000e+00,5.000000000000000000e+00,5.000000000000000000e+00,5.000000000000000000e+00,5.000000000000000000e+00,4.852925777435302734e+00,4.662740230560302734e+00,4.486899375915527344e+00,4.323839187622070312e+00,4.172214984893798828e+00,4.030864715576171875e+00,3.898778200149536133e+00,3.775073528289794922e+00,3.658977746963500977e+00,3.549809217453002930e+00,3.446966409683227539e+00,3.349914789199829102e+00,3.258178472518920898e+00,3.171332836151123047e+00,3.088996410369873047e+00,3.010827302932739258e+00,2.936516761779785156e+00,2.865786075592041016e+00,2.798382759094238281e+00,2.734076738357543945e+00,2.672660112380981445e+00,2.613942146301269531e+00,1.200228095054626465e+00,1.166406989097595215e+00,1.141633272171020508e+00,1.128519296646118164e+00,1.115703105926513672e+00,1.105233311653137207e+00,1.100191116333007812e+00,1.095079541206359863e+00,2.182415246963500977e+00,2.143104314804077148e+00,2.105184555053710938e+00,2.068583250045776367e+00,2.033233165740966797e+00,1.999070763587951660e+00,1.966037511825561523e+00,1.934078216552734375e+00,1.903141260147094727e+00,1.873178362846374512e+00,1.844144582748413086e+00
3.352625846862792969e+00,5.000000000000000000e+00,5.000000000000000000e+00,5.000000000000000000e+00,5.000000000000000000e+00,5.000000000000000000e+00,5.000000000000000000e+00,5.000000000000000000e+00,5.000000000000000000e+00,5.000000000000000000e+00,5.000000000000000000e+00,5.000000000000000000e+00,5.000000000000000000e+00,5.000000000000000000e+00,5.000000000000000000e+00,5.000000000000000000e+00,5.000000000000000000e+00,5.000000000000000000e+00,5.000000000000000000e+00,5.000000000000000000e+00,5.000000000000000000e+00,5.000000000000000000e+00,5.000000000000000000e+00,5.000000000000000000e+00,5.000000000000000000e+00,5.000000000000000000e+00,5.000000000000000000e+00,5.000000000000000000e+00,5.000000000000000000e+00,5.000000000000000000e+00,5.000000000000000000e+00,5.000000000000000000e+00,5.000000000000000000e+00,5.000000000000000000e+00,5.000000000000000000e+00,5.000000000000000000e+00,5.000000000000000000e+00,5.000000000000000000e+00,5.000000000000000000e+00,4.853063583374023438e+00,4.662867546081542969e+00,4.487017631530761719e+00,4.323948383331298828e+00,4.172317028045654297e+00,4.030959606170654297e+00,3.898867368698120117e+00,3.775156736373901367e+00,3.659055948257446289e+00,3.549883127212524414e+00,3.447036027908325195e+00,3.349980354309082031e+00,3.258240699768066406e+00,3.171391725540161133e+00,3.089052200317382812e+00,3.010880470275878906e+00,2.936567544937133789e+00,2.865833997726440430e+00,2.798428297042846680e+00,2.734120607376098633e+00,2.672701835632324219e+00,2.613981962203979492e+00,1.197268247604370117e+00,1.162758111953735352e+00,1.149157166481018066e+00,1.135870695114135742e+00,1.123031377792358398e+00,1.116367340087890625e+00,1.112845659255981445e+00,2.223224163055419922e+00,2.182443141937255859e+00,2.143131256103515625e+00,2.105210542678833008e+00,2.068608283996582031e+00,2.033257246017456055e+00,1.999094128608703613e+00,1.966060042381286621e+00,1.934100151062011719e+00,1.903162479400634766e+00,1.873198866844177246e+00,1.844164371490478516e+00
3.374157667160034180e+00,5.000000000000000000e+00,5.000000000000000000e+00,5.000000000000000000e+00,5.000000000000000000e+00,5.000000000000000000e+00,5.000000000000000000e+00,5.000000000000000000e+00,5.000000000000000000e+00,5.000000000000000000e+00,5.000000000000000000e+00,5.000000000000000000e+00,5.000000000000000000e+00,5.000000000000000000e+00,5.000000000000000000e+00,5.000000000000000000e+00,5.000000000000000000e+00,5.000000000000000000e+00,5.000000000000000000e+00,5.000000000000000000e+00,5.000000000000000000e+00,5.000000000000000000e+00,5.000000000000000000e+00,5.000000000000000000e+00,5.000000000000000000e+00,5.000000000000000000e+00,5.000000000000000000e+00,5.000000000000000000e+00,5.000000000000000000e+00,5.000000000000000000e+00,5.000000000000000000e+00,5.000000000000000000e+00,5.000000000000000000e+00,5.000000000000000000e+00,5.000000000000000000e+00,5.000000000000000000e+00,5.000000000000000000e+00,5.000000000000000000e+00,5.000000000000000000e+00,4.853200435638427734e+00,4.662994861602783203e+00,4.487135410308837891e+00,4.324058055877685547e+00,4.172419071197509766e+00,4.031054973602294922e+00,3.898956060409545898e+00,3.775240421295166016e+00,3.659134626388549805e+00,3.549956798553466797e+00,3.447105407714843750e+00,3.350046157836914062e+00,3.258302927017211914e+00,3.171450614929199219e+00,3.089108228683471680e+00,3.010933399200439453e+00,2.936617851257324219e+00,2.865882396697998047e+00,2.798474311828613281e+00,2.734164237976074219e+00,2.672743797302246094e+00,1.226858258247375488e+00,1.193621993064880371e+00,1.170563936233520508e+00,1.156780838966369629e+00,1.143544197082519531e+00,1.132357120513916016e+00,1.127727866172790527e+00,1.124134421348571777e+00,2.223253011703491211e+00,2.182471036911010742e+00,2.143157958984375000e+00,2.105236530303955078e+00,2.068633317947387695e+00,2.033281564712524414e+00,1.999117493629455566e+00,1.966082930564880371e+00,1.934121966361999512e+00,1.903183579444885254e+00,1.873219609260559082e+00,1.844184279441833496e+00
3.425143241882324219e+00,3.532288074493408203e+00,5.000000000000000000e+00,5.000000000000000000e+00,5.000000000000000000e+00,5.000000000000000000e+00,5.000000000000000000e+00,5.000000000000000000e+00,5.000000000000000000e+00,5.000000000000000000e+00,5.000000000000000000e+00,5.000000000000000000e+00,5.000000000000000000e+00,5.000000000000000000e+00,5.000000000000000000e+00,5.000000000000000000e+00,5.000000000000000000e+00,5.000000000000000000e+00,5.000000000000000000e+00,5.000000000000000000e+00,5.000000000000000000e+00,5.000000000000000000e+00,5.000000000000000000e+00,5.000000000000000000e+00,5.000000000000000000e+00,5.000000000000000000e+00,5.000000000000000000e+00,5.000000000000000000e+00,5.000000000000000000e+00,5.000000000000000000e+00,5.000000000000000000e+00,5.000000000000000000e+00,5.000000000000000000e+00,5.000000000000000000e+00,5.000000000000000000e+00,5.000000000000000000e+00,5.000000000000000000e+00,5.000000000000000000e+00,5.000000000000000000e+00,4.853339195251464844e+00,4.663122177124023438e+00,4.487253189086914062e+00,4.324167728424072266e+00,4.172520637512207031e+00,4.031150341033935547e+00,3.899045467376708984e+00,3.775323629379272461e+00,3.659212827682495117e+00,3.550030708312988281e+00,3.447175264358520508e+00,3.350111722946166992e+00,3.258365154266357422e+00,3.171509504318237305e+00,3.089164018630981445e+00,3.010986566543579102e+00,2.936668395996093750e+00,2.865930318832397461e+00,2.798520088195800781e+00,2.734208106994628906e+00,2.672785520553588867e+00,1.223765850067138672e+00,1.192783355712890625e+00,1.178547620773315430e+00,1.164820313453674316e+00,1.151409149169921875e+00,1.143165230751037598e+00,1.139322161674499512e+00,2.265618324279785156e+00,2.223282098770141602e+00,2.182498693466186523e+00,2.143184900283813477e+00,2.105262517929077148e+00,2.068658351898193359e+00,2.033305644989013672e+00,1.999141097068786621e+00,1.966105461120605469e+00,1.934143781661987305e+00,1.903204917907714844e+00,1.873240113258361816e+00,1.844204187393188477e+00
3.470452547073364258e+00,5.000000000000000000e+00,5.000000000000000000e+00,5.000000000000000000e+00,5.000000000000000000e+00,5.000000000000000000e+00,5.000000000000000000e+00,5.000000000000000000e+00,5.000000000000000000e+00,5.000000000000000000e+00,5.000000000000000000e+00,5.000000000000000000e+00,5.000000000000000000e+00,5.000000000000000000e+00,5.000000000000000000e+00,5.000000000000000000e+00,5.000000000000000000e+00,5.000000000000000000e+00,5.000000000000000000e+00,5.000000000000000000e+00,5.000000000000000000e+00,5.000000000000000000e+00,5.000000000000000000e+00,5.000000000000000000e+00,5.000000000000000000e+00,5.000000000000000000e+00,5.000000000000000000e+00,5.000000000000000000e+00,5.000000000000000000e+00,5.000000000000000000e+00,5.000000000000000000e+00,5.000000000000000000e+00,5.000000000000000000e+00,5.000000000000000000e+00,5.000000000000000000e+00,5.000000000000000000e+00,5.000000000000000000e+00,5.000000000000000000e+00,5.000000000000000000e+00,4.853477478027343750e+00,4.663249015808105469e+00,4.487371444702148438e+00,4.324276924133300781e+00,4.172622680664062500e+00,4.031245231628417969e+00,3.899134159088134766e+00,3.775407314300537109e+00,3.659291267395019531e+00,3.550104379653930664e+00,3.447244644165039062e+00,3.350177764892578125e+00,3.258427143096923828e+00,3.171568393707275391e+00,3.089220046997070312e+00,3.011039495468139648e+00,2.936718940734863281e+00,2.865978479385375977e+00,2.798566102981567383e+00,2.734251737594604492e+00,1.258066654205322266e+00,1.220971941947937012e+00,1.201159000396728516e+00,1.186903119087219238e+00,1.172981619834899902e+00,1.161625266075134277e+00,1.154925942420959473e+00,2.309629440307617188e+00,2.265648126602172852e+00,2.223310947418212891e+00,2.182526826858520508e+00,2.143211841583251953e+00,2.105288267135620117e+00,2.068683385848999023e+00,2.033329963684082031e+00,1.999164462089538574e+00,1.966128110885620117e+00,1.934165835380554199e+00,1.903226137161254883e+00,1.873260617256164551e+00,1.844224214553833008e+00
3.501210212707519531e+00,5.000000000000000000e+00,5.000000000000000000e+00,5.000000000000000000e+00,5.000000000000000000e+00,5.000000000000000000e+00,5.000000000000000000e+00,5.000000000000000000e+00,5.000000000000000000e+00,5.000000000000000000e+00,5.000000000000000000e+00,5.000000000000000000e+00,5.000000000000000000e+00,5.000000000000000000e+00,5.000000000000000000e+00,5.000000000000000000e+00,5.000000000000000000e+00,5.000000000000000000e+00,5.000000000000000000e+00,5.000000000000000000e+00,5.000000000000000000e+00,5.000000000000000000e+00,5.000000000000000000e+00,5.000000000000000000e+00,5.000000000000000000e+00,5.000000000000000000e+00,5.000000000000000000e+00,5.000000000000000000e+00,5.000000000000000000e+00,5.000000000000000000e+00,5.000000000000000000e+00,5.000000000000000000e+00,5.000000000000000000e+00,5.000000000000000000e+00,5.000000000000000000e+00,5.000000000000000000e+00,5.000000000000000000e+00,5.000000000000000000e+00,5.000000000000000000e+00,4.853615760803222656e+00,4.663376808166503906e+00,4.487488269805908203e+00,4.324386596679687500e+00,4.172724723815917969e+00,4.031340599060058594e+00,3.899223566055297852e+00,3.775490760803222656e+00,3.659369707107543945e+00,3.550178289413452148e+00,3.447314500808715820e+00,3.350243330001831055e+00,3.258489608764648438e+00,3.171627283096313477e+00,3.089275836944580078e+00,3.011092901229858398e+00,2.936769485473632812e+00,2.866026401519775391e+00,2.798611879348754883e+00,2.734295606613159180e+00,1.256303071975708008e+00,1.225339531898498535e+00,1.210211753845214844e+00,1.195452809333801270e+00,1.181258201599121094e+00,1.173002004623413086e+00,2.355384588241577148e+00,2.309660673141479492e+00,2.265678405761718750e+00,2.223339796066284180e+00,2.182554721832275391e+00,2.143238782882690430e+00,2.105314254760742188e+00,2.068708419799804688e+00,2.033354282379150391e+00,1.999187707901000977e+00,1.966150641441345215e+00,1.934187769889831543e+00,1.903247237205505371e+00,1.873281121253967285e+00,1.844244122505187988e+00
3.547399044036865234e+00,5.000000000000000000e+00,5.000000000000000000e+00,5.000000000000000000e+00,5.000000000000000000e+00,5.000000000000000000e+00,5.000000000000000000e+00,5.000000000000000000e+00,5.000000000000000000e+00,5.000000000000000000e+00,5.000000000000000000e+00,5.000000000000000000e+00,5.000000000000000000e+00,5.000000000000000000e+00,5.000000000000000000e+00,5.000000000000000000e+00,5.000000000000000000e+00,5.000000000000000000e+00,5.000000000000000000e+00,5.000000000000000000e+00,5.000000000000000000e+00,5.000000000000000000e+00,5.000000000000000000e+00,5.000000000000000000e+00,5.000000000000000000e+00,5.000000000000000000e+00,5.000000000000000000e+00,5.000000000000000000e+00,5.000000000000000000e+00,5.000000000000000000e+00,5.000000000000000000e+00,5.000000000000000000e+00,5.000000000000000000e+00,5.000000000000000000e+00,5.000000000000000000e+00,5.000000000000000000e+00,5.000000000000000000e+00,5.000000000000000000e+00,5.000000000000000000e+00,4.853754520416259766e+00,4.663504600524902344e+00,4.487606525421142578e+00,4.324495315551757812e+00,4.172826766967773438e+00,4.031435489654541016e+00,3.899312257766723633e+00,3.775574445724487305e+00,3.659448146820068359e+00,3.550251960754394531e+00,3.447383880615234375e+00,3.350309133529663086e+00,3.258551597595214844e+00,3.171686172485351562e+00,3.089331865310668945e+00,3.011145830154418945e+00,2.936819791793823242e+00,2.866074800491333008e+00,2.798657894134521484e+00,1.291471719741821289e+00,1.254421234130859375e+00,1.235145926475524902e+00,1.219776391983032227e+00,1.204833865165710449e+00,1.195242285728454590e+00,1.185692906379699707e+00,2.355417013168334961e+00,2.309691905975341797e+00,2.265708446502685547e+00,2.223368883132934570e+00,2.182582616806030273e+00,2.143265724182128906e+00,2.105340242385864258e+00,2.068733692169189453e+00,2.033378362655639648e+00,1.999211072921752930e+00,1.966173410415649414e+00,1.934209585189819336e+00,1.903268456459045410e+00,1.873301744461059570e+00,1.844263911247253418e+00
5.000000000000000000e+00,5.000000000000000000e+00,5.000000000000000000e+00,5.000000000000000000e+00,5.000000000000000000e+00,5.000000000000000000e+00,5.000000000000000000e+00,5.000000000000000000e+00,5.000000000000000000e+00,5.000000000000000000e+00,5.000000000000000000e+00,5.000000000000000000e+00,5.000000000000000000e+00,5.000000000000000000e+00,5.000000000000000000e+00,5.000000000000000000e+00,5.000000000000000000e+00,5.000000000000000000e+00,5.000000000000000000e+00,5.000000000000000000e+00,5.000000000000000000e+00,5.000000000000000000e+00,5.000000000000000000e+00,5.000000000000000000e+00,5.000000000000000000e+00,5.000000000000000000e+00,5.000000000000000000e+00,5.000000000000000000e+00,5.000000000000000000e+00,5.000000000000000000e+00,5.000000000000000000e+00,5.000000000000000000e+00,5.000000000000000000e+00,5.000000000000000000e+00,5.000000000000000000e+00,5.000000000000000000e+00,5.000000000000000000e+00,5.000000000000000000e+00,5.000000000000000000e+00,4.853892803192138672e+00,4.663632869720458984e+00,4.487725257873535156e+00,4.324605464935302734e+00,4.172928810119628906e+00,4.031530857086181641e+00,3.899401664733886719e+00,3.775657653808593750e+00,3.659526348114013672e+00,3.550325870513916016e+00,3.447453737258911133e+00,3.350374698638916016e+00,3.258613824844360352e+00,3.171745300292968750e+00,3.089387655258178711e+00,3.011198997497558594e+00,2.936870574951171875e+00,2.866122722625732422e+00,2.798703670501708984e+00,1.290792107582092285e+00,1.261129021644592285e+00,1.245110392570495605e+00,1.229687809944152832e+00,1.216464877128601074e+00,1.211369872093200684e+00,2.403022766113281250e+00,2.355449676513671875e+00,2.309723138809204102e+00,2.265738487243652344e+00,2.223397731781005859e+00,2.182610511779785156e+00,2.143292665481567383e+00,2.105366230010986328e+00,2.068758487701416016e+00,2.033402681350708008e+00,1.999234676361083984e+00,1.966196060180664062e+00,1.934231400489807129e+00,1.903289794921875000e+00,1.873322248458862305e+00,1.844283819198608398e+00
4.875414371490478516e+00,4.874203681945800781e+00,4.872993469238281250e+00,4.871784210205078125e+00,4.870574951171875000e+00,4.869367122650146484e+00,4.868159770965576172e+00,4.866952419281005859e+00,4.865746021270751953e+00,4.864540576934814453e+00,4.863335132598876953e+00,4.862130165100097656e+00,4.860926151275634766e+00,4.859723091125488281e+00,4.858520030975341797e+00,4.857317924499511719e+00,4.856116294860839844e+00,4.854915618896484375e+00,4.853714942932128906e+00,4.852515220642089844e+00,4.851315498352050781e+00,4.850116729736328125e+00,4.848918914794921875e+00,4.847721576690673828e+00,4.846524715423583984e+00,4.845328330993652344e+00,4.844132900238037109e+00,4.842937469482421875e+00,4.841742992401123047e+00,4.840548992156982422e+00,4.839355945587158203e+00,4.838162899017333984e+00,4.836970806121826172e+00,4.835778713226318359e+00,4.834588050842285156e+00,4.833397388458251953e+00,4.832207679748535156e+00,4.831018447875976562e+00,4.829829692840576172e+00,4.828641891479492188e+00,4.663760662078857422e+00,4.487843513488769531e+00,4.324715614318847656e+00,4.173030376434326172e+00,4.031626224517822266e+00,3.899490356445312500e+00,3.775741338729858398e+00,3.659605026245117188e+00,3.550399541854858398e+00,3.447523117065429688e+00,3.350440502166748047e+00,3.258675813674926758e+00,3.171803951263427734e+00,3.089443683624267578e+00,3.011251926422119141e+00,2.936920881271362305e+00,2.866170883178710938e+00,2.798749685287475586e+00,1.289754867553710938e+00,1.271620631217956543e+00,1.255588889122009277e+00,1.239956259727478027e+00,1.238183498382568359e+00,2.452592849731445312e+00,2.403056621551513672e+00,2.355482101440429688e+00,2.309754610061645508e+00,2.265768527984619141e+00,2.223426580429077148e+00,2.182638406753540039e+00,2.143319368362426758e+00,2.105392217636108398e+00,2.068783760070800781e+00,2.033426761627197266e+00,1.999258041381835938e+00,1.966218590736389160e+00,1.934253573417663574e+00,1.903311014175415039e+00,1.873342752456665039e+00,1.844303846359252930e+00
3.778255224227905273e+00,3.777527809143066406e+00,3.776801347732543945e+00,3.776074886322021484e+00,3.775348424911499023e+00,3.774622440338134766e+00,3.773896455764770508e+00,3.773171424865722656e+00,3.772446393966674805e+00,3.771721124649047852e+00,3.770996809005737305e+00,3.770272731781005859e+00,3.769548416137695312e+00,3.768824815750122070e+00,3.768101215362548828e+00,3.767378091812133789e+00,3.766655206680297852e+00,3.765932559967041016e+00,3.765210390090942383e+00,3.764488220214843750e+00,3.763766288757324219e+00,3.763044834136962891e+00,3.762323379516601562e+00,3.761602640151977539e+00,3.760882139205932617e+00,3.760161399841308594e+00,3.759441375732421875e+00,3.758721351623535156e+00,3.758001804351806641e+00,3.757282733917236328e+00,3.756563425064086914e+00,3.755844831466674805e+00,3.755126476287841797e+00,3.754407882690429688e+00,3.753690242767333984e+00,3.752972364425659180e+00,3.752254962921142578e+00,3.751538038253784180e+00,3.750820875167846680e+00,3.750104427337646484e+00,3.749387979507446289e+00,3.748672008514404297e+00,3.747956514358520508e+00,3.747240781784057617e+00,3.746525764465332031e+00,3.745810985565185547e+00,3.745095968246459961e+00,3.659683227539062500e+00,3.550473690032958984e+00,3.447592973709106445e+00,3.350506067276000977e+00,3.258738279342651367e+00,3.171863079071044922e+00,3.089499473571777344e+00,3.011305332183837891e+00,2.936971426010131836e+00,2.866218805313110352e+00,1.353996515274047852e+00,1.312252640724182129e+00,1.282604455947875977e+00,1.266296148300170898e+00,1.256530404090881348e+00,1.255499005317687988e+00,2.452627897262573242e+00,2.403090476989746094e+00,2.355514526367187500e+00,2.309785604476928711e+00,2.265798568725585938e+00,2.223455667495727539e+00,2.182666301727294922e+00,2.143346309661865234e+00,2.105418205261230469e+00,2.068808794021606445e+00,2.033451080322265625e+00,1.999281406402587891e+00,1.966241240501403809e+00,1.934275388717651367e+00,1.903332114219665527e+00,1.873363256454467773e+00,1.844323754310607910e+00
3.084191322326660156e+00,3.083706855773925781e+00,3.083222389221191406e+00,3.082738399505615234e+00,3.082254171371459961e+00,3.081770420074462891e+00,3.081286668777465820e+00,3.080802917480468750e+00,3.080319643020629883e+00,3.079836368560791016e+00,3.079353094100952148e+00,3.078870296478271484e+00,3.078387260437011719e+00,3.077904701232910156e+00,3.077422142028808594e+00,3.076939582824707031e+00,3.076457500457763672e+00,3.075975418090820312e+00,3.075493335723876953e+00,3.075011730194091797e+00,3.074529886245727539e+00,3.074048519134521484e+00,3.073567390441894531e+00,3.073086023330688477e+00,3.072604894638061523e+00,3.072124004364013672e+00,3.071643352508544922e+00,3.071162939071655273e+00,3.070682287216186523e+00,3.070202112197875977e+00,3.069721937179565430e+00,3.069242000579833984e+00,3.068762063980102539e+00,3.068282365798950195e+00,3.067802906036376953e+00,3.067323684692382812e+00,3.066844224929809570e+00,3.066365242004394531e+00,3.065886259078979492e+00,3.065407514572143555e+00,3.064929008483886719e+00,3.064450502395629883e+00,3.063972234725952148e+00,3.063494205474853516e+00,3.063015937805175781e+00,3.062538146972656250e+00,3.062060356140136719e+00,3.061582803726196289e+00,3.061105489730834961e+00,3.060627937316894531e+00,3.060150861740112305e+00,3.059674024581909180e+00,3.059196949005126953e+00,3.058720350265502930e+00,3.011358261108398438e+00,2.937021970748901367e+00,1.385117053985595703e+00,1.344307184219360352e+00,1.317243814468383789e+00,1.303508400917053223e+00,1.294868946075439453e+00,1.280637502670288086e+00,2.504287481307983398e+00,2.452663183212280273e+00,2.403124332427978516e+00,2.355546951293945312e+00,2.309817075729370117e+00,2.265828609466552734e+00,2.223484516143798828e+00,2.182694196701049805e+00,2.143373250961303711e+00,2.105444192886352539e+00,2.068833827972412109e+00,2.033475399017333984e+00,1.999304771423339844e+00,1.966264009475708008e+00,1.934297204017639160e+00,1.903353333473205566e+00,1.873383998870849609e+00,1.844343662261962891e+00
2.605552434921264648e+00,2.605206727981567383e+00,2.604861021041870117e+00,2.604515314102172852e+00,2.604169845581054688e+00,2.603824377059936523e+00,2.603479146957397461e+00,2.603133916854858398e+00,2.602788686752319336e+00,2.602443695068359375e+00,2.602098464965820312e+00,2.601753711700439453e+00,2.601408958435058594e+00,2.601064205169677734e+00,2.600719690322875977e+00,2.600375175476074219e+00,2.600030660629272461e+00,2.599686384201049805e+00,2.599341869354248047e+00,2.598997831344604492e+00,2.598653793334960938e+00,2.598309755325317383e+00,2.597965955734252930e+00,2.597621917724609375e+00,2.597278356552124023e+00,2.596934795379638672e+00,2.596591234207153320e+00,2.596247911453247070e+00,2.595904588699340820e+00,2.595561265945434570e+00,2.595218181610107422e+00,2.594874858856201172e+00,2.594532012939453125e+00,2.594189167022705078e+00,2.593846321105957031e+00,2.593503713607788086e+00,2.593160867691040039e+00,2.592818498611450195e+00,2.592476129531860352e+00,2.592133760452270508e+00,2.591791391372680664e+00,2.591449499130249023e+00,2.591107130050659180e+00,2.590765237808227539e+00,2.590423345565795898e+00,2.590081453323364258e+00,2.589740037918090820e+00,2.589398145675659180e+00,2.589056730270385742e+00,2.588715314865112305e+00,2.588373899459838867e+00,2.588032722473144531e+00,2.587691545486450195e+00,2.587350368499755859e+00,2.587009429931640625e+00,2.586668491363525391e+00,1.377031087875366211e+00,1.342235684394836426e+00,1.318300127983093262e+00,1.306786298751831055e+00,1.304601669311523438e+00,2.558170080184936523e+00,2.504324197769165039e+00,2.452698469161987305e+00,2.403158187866210938e+00,2.355579614639282227e+00,2.309848070144653320e+00,2.265858650207519531e+00,2.223513603210449219e+00,2.182722091674804688e+00,2.143400192260742188e+00,2.105470180511474609e+00,2.068858861923217773e+00,2.033499479293823242e+00,1.999328374862670898e+00,1.966286540031433105e+00,1.934319138526916504e+00,1.903374671936035156e+00,1.873404502868652344e+00,1.844363451004028320e+00
2.255529642105102539e+00,2.255270004272460938e+00,2.255010366439819336e+00,2.254750728607177734e+00,2.254491329193115234e+00,2.254231929779052734e+00,2.253972530364990234e+00,2.253713130950927734e+00,2.253453731536865234e+00,2.253194570541381836e+00,2.252935409545898438e+00,2.252676486968994141e+00,2.252417325973510742e+00,2.252158403396606445e+00,2.251899480819702148e+00,2.251640558242797852e+00,2.251381874084472656e+00,2.251123189926147461e+00,2.250864505767822266e+00,2.250605821609497070e+00,2.250347375869750977e+00,2.250088691711425781e+00,2.249830245971679688e+00,2.249572038650512695e+00,2.249313592910766602e+00,2.249055862426757812e+00,2.248798370361328125e+00,2.248540639877319336e+00,2.248283147811889648e+00,2.248025655746459961e+00,2.247768163681030273e+00,2.247510910034179688e+00,2.247253656387329102e+00,2.246996402740478516e+00,2.246739387512207031e+00,2.246482133865356445e+00,2.246225118637084961e+00,2.245967864990234375e+00,2.245711088180541992e+00,2.245454072952270508e+00,2.245197296142578125e+00,2.244940519332885742e+00,2.244683742523193359e+00,2.244427204132080078e+00,2.244170665740966797e+00,2.243913888931274414e+00,2.243657588958740234e+00,2.243401288986206055e+00,2.243144750595092773e+00,2.242888450622558594e+00,2.242632150650024414e+00,2.242376089096069336e+00,2.242120027542114258e+00,2.241863727569580078e+00,2.241607904434204102e+00,2.241351842880249023e+00,2.241096019744873047e+00,1.337362766265869141e+00,1.314161300659179688e+00,1.301083326339721680e+00,1.294539690017700195e+00,2.239817380905151367e+00,2.239561796188354492e+00,2.239306211471557617e+00,2.239050865173339844e+00,2.238795518875122070e+00,2.238540172576904297e+00,2.238285064697265625e+00,2.223542451858520508e+00,2.182749986648559570e+00,2.143427133560180664e+00,2.105495929718017578e+00,2.068883895874023438e+00,2.033523797988891602e+00,1.999351620674133301e+00,1.966309189796447754e+00,1.934341192245483398e+00,1.903395771980285645e+00,1.873425006866455078e+00,1.844383597373962402e+00
1.988435745239257812e+00,1.988233804702758789e+00,1.988032102584838867e+00,1.987830281257629395e+00,1.987628698348999023e+00,1.987426877021789551e+00,1.987225413322448730e+00,1.987023711204528809e+00,1.986822247505187988e+00,1.986620664596557617e+00,1.986419081687927246e+00,1.986217737197875977e+00,1.986016273498535156e+00,1.985815048217773438e+00,1.985613584518432617e+00,1.985412478446960449e+00,1.985211133956909180e+00,1.985010147094726562e+00,1.984808921813964844e+00,1.984607934951782227e+00,1.984406709671020508e+00,1.984205842018127441e+00,1.984004735946655273e+00,1.983803868293762207e+00,1.983602881431579590e+00,1.983402132987976074e+00,1.983201265335083008e+00,1.983000636100769043e+00,1.982799768447875977e+00,1.982599139213562012e+00,1.982398390769958496e+00,1.982197880744934082e+00,1.981997251510620117e+00,1.981796860694885254e+00,1.981596231460571289e+00,1.981395959854125977e+00,1.981195449829101562e+00,1.980995178222656250e+00,1.980794668197631836e+00,1.980594515800476074e+00,1.980394244194030762e+00,1.980194091796875000e+00,1.979993820190429688e+00,1.979793787002563477e+00,1.979593634605407715e+00,1.979393720626831055e+00,1.979193568229675293e+00,1.978993773460388184e+00,1.978793740272521973e+00,1.978593945503234863e+00,1.978393912315368652e+00,1.978194236755371094e+00,1.977994441986083984e+00,1.977794766426086426e+00,1.977594971656799316e+00,1.977395534515380859e+00,1.977195739746093750e+00,1.976996302604675293e+00,1.305362701416015625e+00,1.295060515403747559e+00,1.289589166641235352e+00,1.291076779365539551e+00,1.975998997688293457e+00,1.975799798965454102e+00,1.975600481033325195e+00,1.975401282310485840e+00,1.975201964378356934e+00,1.975003004074096680e+00,1.974803686141967773e+00,1.974604725837707520e+00,1.974405646324157715e+00,1.974206805229187012e+00,1.974007725715637207e+00,1.973808884620666504e+00,1.973609924316406250e+00,1.966331720352172852e+00,1.934363007545471191e+00,1.903416991233825684e+00,1.873445510864257812e+00,1.844403386116027832e+00
1.777901172637939453e+00,1.777739763259887695e+00,1.777578473091125488e+00,1.777417063713073730e+00,1.777255892753601074e+00,1.777094602584838867e+00,1.776933431625366211e+00,1.776772260665893555e+00,1.776611208915710449e+00,1.776449918746948242e+00,1.776288986206054688e+00,1.776127815246582031e+00,1.775966882705688477e+00,1.775805711746215820e+00,1.775644898414611816e+00,1.775483846664428711e+00,1.775323033332824707e+00,1.775162100791931152e+00,1.775001287460327148e+00,1.774840354919433594e+00,1.774679660797119141e+00,1.774518728256225586e+00,1.774358153343200684e+00,1.774197340011596680e+00,1.774036765098571777e+00,1.773875951766967773e+00,1.773715496063232422e+00,1.773554801940917969e+00,1.773394227027893066e+00,1.773233652114868164e+00,1.773073196411132812e+00,1.772912621498107910e+00,1.772752285003662109e+00,1.772591829299926758e+00,1.772431492805480957e+00,1.772271037101745605e+00,1.772110819816589355e+00,1.771950364112854004e+00,1.771790146827697754e+00,1.771629810333251953e+00,1.771469712257385254e+00,1.771309494972229004e+00,1.771149396896362305e+00,1.770989179611206055e+00,1.770829081535339355e+00,1.770668983459472656e+00,1.770509004592895508e+00,1.770348906517028809e+00,1.770189046859741211e+00,1.770028948783874512e+00,1.769869089126586914e+00,1.769709110260009766e+00,1.769549369812011719e+00,1.769389390945434570e+00,1.769229650497436523e+00,1.769069790840148926e+00,1.768910169601440430e+00,1.768750309944152832e+00,1.297880291938781738e+00,1.284280419349670410e+00,1.281454563140869141e+00,1.280493378639221191e+00,1.287303686141967773e+00,1.767792582511901855e+00,1.767633080482482910e+00,1.767473459243774414e+00,1.767314076423645020e+00,1.767154574394226074e+00,1.766995310783386230e+00,1.766835808753967285e+00,1.766676545143127441e+00,1.766517162322998047e+00,1.766357898712158203e+00,1.766198515892028809e+00,1.766039371490478516e+00,1.765880107879638672e+00,1.765721082687377930e+00,1.765561819076538086e+00,1.765402793884277344e+00,1.765243649482727051e+00
1.607680797576904297e+00,1.607548952102661133e+00,1.607416868209838867e+00,1.607285141944885254e+00,1.607153177261352539e+00,1.607021331787109375e+00,1.606889486312866211e+00,1.606757760047912598e+00,1.606625914573669434e+00,1.606494188308715820e+00,1.606362342834472656e+00,1.606230735778808594e+00,1.606098890304565430e+00,1.605967283248901367e+00,1.605835556983947754e+00,1.605704069137573242e+00,1.605572342872619629e+00,1.605440855026245117e+00,1.605309128761291504e+00,1.605177760124206543e+00,1.605046153068542480e+00,1.604914665222167969e+00,1.604783058166503906e+00,1.604651689529418945e+00,1.604520201683044434e+00,1.604388833045959473e+00,1.604257345199584961e+00,1.604126095771789551e+00,1.603994607925415039e+00,1.603863358497619629e+00,1.603731989860534668e+00,1.603600740432739258e+00,1.603469491004943848e+00,1.603338241577148438e+00,1.603206992149353027e+00,1.603075861930847168e+00,1.602944612503051758e+00,1.602813482284545898e+00,1.602682232856750488e+00,1.602551221847534180e+00,1.602420091629028320e+00,1.602289080619812012e+00,1.602157950401306152e+00,1.602026939392089844e+00,1.601895928382873535e+00,1.601764917373657227e+00,1.601633906364440918e+00,1.601503014564514160e+00,1.601372003555297852e+00,1.601241230964660645e+00,1.601110219955444336e+00,1.600979447364807129e+00,1.600848555564880371e+00,1.600717782974243164e+00,1.600587010383605957e+00,1.600456118583679199e+00,1.600325465202331543e+00,1.600194573402404785e+00,1.600064039230346680e+00,1.274459004402160645e+00,1.271113872528076172e+00,1.271612644195556641e+00,1.278796195983886719e+00,1.599410653114318848e+00,1.599280118942260742e+00,1.599149465560913086e+00,1.599019050598144531e+00,1.598888397216796875e+00,1.598757982254028320e+00,1.598627448081970215e+00,1.598497033119201660e+00,1.598366498947143555e+00,1.598236203193664551e+00,1.598105788230895996e+00,1.597975492477416992e+00,1.597845077514648438e+00,1.597714781761169434e+00,1.597584366798400879e+00,1.597454190254211426e+00,1.597323894500732422e+00
1.467206954956054688e+00,1.467097043991088867e+00,1.466987133026123047e+00,1.466877341270446777e+00,1.466767430305480957e+00,1.466657757759094238e+00,1.466547846794128418e+00,1.466438055038452148e+00,1.466328263282775879e+00,1.466218590736389160e+00,1.466108798980712891e+00,1.465999126434326172e+00,1.465889334678649902e+00,1.465779662132263184e+00,1.465669989585876465e+00,1.465560317039489746e+00,1.465450644493103027e+00,1.465341091156005859e+00,1.465231418609619141e+00,1.465121865272521973e+00,1.465012192726135254e+00,1.464902758598327637e+00,1.464793086051940918e+00,1.464683651924133301e+00,1.464574098587036133e+00,1.464464664459228516e+00,1.464355111122131348e+00,1.464245676994323730e+00,1.464136242866516113e+00,1.464026808738708496e+00,1.463917374610900879e+00,1.463808059692382812e+00,1.463698506355285645e+00,1.463589310646057129e+00,1.463479876518249512e+00,1.463370561599731445e+00,1.463261246681213379e+00,1.463151931762695312e+00,1.463042616844177246e+00,1.462933421134948730e+00,1.462824106216430664e+00,1.462714910507202148e+00,1.462605595588684082e+00,1.462496519088745117e+00,1.462387323379516602e+00,1.462278127670288086e+00,1.462168931961059570e+00,1.462059855461120605e+00,1.461950659751892090e+00,1.461841702461242676e+00,1.461732506752014160e+00,1.461623549461364746e+00,1.461514353752136230e+00,1.461405396461486816e+00,1.461296319961547852e+00,1.461187362670898438e+00,1.461078286170959473e+00,1.460969448089599609e+00,1.460860371589660645e+00,1.460751533508300781e+00,1.258526206016540527e+00,1.254225969314575195e+00,1.259702086448669434e+00,1.260670423507690430e+00,1.460206985473632812e+00,1.460098266601562500e+00,1.459989309310913086e+00,1.459880590438842773e+00,1.459771752357482910e+00,1.459663033485412598e+00,1.459554195404052734e+00,1.459445476531982422e+00,1.459336757659912109e+00,1.459228038787841797e+00,1.459119319915771484e+00,1.459010720252990723e+00,1.458902001380920410e+00,1.458793401718139648e+00,1.458684682846069336e+00,1.458576083183288574e+00
1.349308848381042480e+00,1.349215865135192871e+00,1.349123001098632812e+00,1.349030017852783203e+00,1.348937153816223145e+00,1.348844170570373535e+00,1.348751425743103027e+00,1.348658442497253418e+00,1.348565697669982910e+00,1.348472833633422852e+00,1.348380088806152344e+00,1.348287224769592285e+00,1.348194479942321777e+00,1.348101615905761719e+00,1.348008871078491211e+00,1.347916007041931152e+00,1.347823381423950195e+00,1.347730517387390137e+00,1.347637891769409180e+00,1.347545146942138672e+00,1.347452521324157715e+00,1.347359776496887207e+00,1.347267150878906250e+00,1.347174525260925293e+00,1.347081899642944336e+00,1.346989154815673828e+00,1.346896648406982422e+00,1.346804022789001465e+00,1.346711397171020508e+00,1.346618771553039551e+00,1.346526265144348145e+00,1.346433639526367188e+00,1.346341133117675781e+00,1.346248626708984375e+00,1.346156120300292969e+00,1.346063613891601562e+00,1.345971107482910156e+00,1.345878601074218750e+00,1.345786213874816895e+00,1.345693707466125488e+00,1.345601320266723633e+00,1.345508813858032227e+00,1.345416426658630371e+00,1.345324039459228516e+00,1.345231652259826660e+00,1.345139265060424805e+00,1.345046877861022949e+00,1.344954490661621094e+00,1.344862222671508789e+00,1.344769835472106934e+00,1.344677567481994629e+00,1.344585180282592773e+00,1.344492912292480469e+00,1.344400644302368164e+00,1.344308376312255859e+00,1.344216108322143555e+00,1.344123959541320801e+00,1.344031691551208496e+00,1.343939542770385742e+00,1.343847274780273438e+00,1.343755125999450684e+00,1.251927375793457031e+00,1.242821216583251953e+00,1.243387103080749512e+00,1.243535280227661133e+00,1.343294262886047363e+00,1.343202233314514160e+00,1.343110084533691406e+00,1.343018054962158203e+00,1.342925906181335449e+00,1.342833876609802246e+00,1.342741727828979492e+00,1.342649817466735840e+00,1.342557668685913086e+00,1.342465758323669434e+00,1.342373728752136230e+00,1.342281818389892578e+00,1.342189788818359375e+00,1.342097878456115723e+00,1.342005848884582520e+00
1.248948931694030762e+00,1.248869299888610840e+00,1.248789668083190918e+00,1.248710155487060547e+00,1.248630523681640625e+00,1.248550891876220703e+00,1.248471379280090332e+00,1.248391747474670410e+00,1.248312234878540039e+00,1.248232722282409668e+00,1.248153090476989746e+00,1.248073577880859375e+00,1.247994065284729004e+00,1.247914552688598633e+00,1.247835040092468262e+00,1.247755646705627441e+00,1.247676134109497070e+00,1.247596740722656250e+00,1.247517228126525879e+00,1.247437834739685059e+00,1.247358322143554688e+00,1.247278928756713867e+00,1.247199416160583496e+00,1.247120141983032227e+00,1.247040629386901855e+00,1.246961355209350586e+00,1.246881842613220215e+00,1.246802568435668945e+00,1.246723175048828125e+00,1.246643900871276855e+00,1.246564507484436035e+00,1.246485233306884766e+00,1.246405839920043945e+00,1.246326446533203125e+00,1.246247291564941406e+00,1.246167898178100586e+00,1.246088743209838867e+00,1.246009349822998047e+00,1.245930194854736328e+00,1.245850920677185059e+00,1.245771646499633789e+00,1.245692372322082520e+00,1.245613217353820801e+00,1.245533943176269531e+00,1.245454907417297363e+00,1.245375633239746094e+00,1.245296478271484375e+00,1.245217323303222656e+00,1.245138168334960938e+00,1.245059013366699219e+00,1.244979858398437500e+00,1.244900703430175781e+00,1.244821667671203613e+00,1.244742512702941895e+00,1.244663476943969727e+00,1.244584321975708008e+00,1.244505286216735840e+00,1.244426250457763672e+00,1.244347214698791504e+00,1.244268059730529785e+00,1.244189143180847168e+00,1.244110107421875000e+00,1.244031071662902832e+00,1.243952035903930664e+00,1.243873119354248047e+00,1.243794083595275879e+00,1.243715167045593262e+00,1.243636131286621094e+00,1.243557214736938477e+00,1.243478178977966309e+00,1.243399381637573242e+00,1.243320345878601074e+00,1.243241548538208008e+00,1.243162512779235840e+00,1.243083715438842773e+00,1.243004798889160156e+00,1.242926001548767090e+00,1.242847084999084473e+00,1.242768287658691406e+00,1.242689371109008789e+00
1.162484765052795410e+00,1.162415862083435059e+00,1.162346839904785156e+00,1.162277936935424805e+00,1.162208914756774902e+00,1.162140011787414551e+00,1.162070989608764648e+00,1.162002086639404297e+00,1.161933183670043945e+00,1.161864280700683594e+00,1.161795258522033691e+00,1.161726474761962891e+00,1.161657452583312988e+00,1.161588668823242188e+00,1.161519765853881836e+00,1.161450862884521484e+00,1.161381959915161133e+00,1.161313176155090332e+00,1.161244273185729980e+00,1.161175489425659180e+00,1.161106586456298828e+00,1.161037802696228027e+00,1.160969018936157227e+00,1.160900235176086426e+00,1.160831332206726074e+00,1.160762667655944824e+00,1.160693764686584473e+00,1.160625100135803223e+00,1.160556316375732422e+00,1.160487532615661621e+00,1.160418748855590820e+00,1.160350084304809570e+00,1.160281300544738770e+00,1.160212635993957520e+00,1.160143852233886719e+00,1.160075187683105469e+00,1.160006403923034668e+00,1.159937739372253418e+00,1.159869074821472168e+00,1.159800410270690918e+00,1.159731745719909668e+00,1.159663081169128418e+00,1.159594416618347168e+00,1.159525752067565918e+00,1.159457087516784668e+00,1.159388542175292969e+00,1.159319877624511719e+00,1.159251332283020020e+00,1.159182667732238770e+00,1.159114122390747070e+00,1.159045457839965820e+00,1.158976912498474121e+00,1.158908367156982422e+00,1.158839821815490723e+00,1.158771157264709473e+00,1.158702731132507324e+00,1.158634066581726074e+00,1.158565640449523926e+00,1.158497095108032227e+00,1.158428549766540527e+00,1.158360123634338379e+00,1.158291578292846680e+00,1.158223152160644531e+00,1.158154606819152832e+00,1.158086180686950684e+00,1.158017754554748535e+00,1.157949209213256836e+00,1.157880783081054688e+00,1.157812356948852539e+00,1.157743930816650391e+00,1.157675504684448242e+00,1.157607078552246094e+00,1.157538652420043945e+00,1.157470345497131348e+00,1.157401919364929199e+00,1.157333493232727051e+00,1.157265067100524902e+00,1.157196760177612305e+00,1.157128334045410156e+00,1.157060027122497559e+00
1.087217211723327637e+00,1.087156891822814941e+00,1.087096571922302246e+00,1.087036252021789551e+00,1.086975932121276855e+00,1.086915612220764160e+00,1.086855292320251465e+00,1.086794972419738770e+00,1.086734771728515625e+00,1.086674451828002930e+00,1.086614131927490234e+00,1.086553812026977539e+00,1.086493611335754395e+00,1.086433291435241699e+00,1.086373090744018555e+00,1.086312770843505859e+00,1.086252570152282715e+00,1.086192369461059570e+00,1.086132168769836426e+00,1.086071848869323730e+00,1.086011767387390137e+00,1.085951447486877441e+00,1.085891366004943848e+00,1.085831046104431152e+00,1.085770964622497559e+00,1.085710763931274414e+00,1.085650563240051270e+00,1.085590362548828125e+00,1.085530281066894531e+00,1.085470080375671387e+00,1.085409998893737793e+00,1.085349798202514648e+00,1.085289716720581055e+00,1.085229516029357910e+00,1.085169434547424316e+00,1.085109233856201172e+00,1.085049152374267578e+00,1.084989070892333984e+00,1.084928989410400391e+00,1.084868907928466797e+00,1.084808826446533203e+00,1.084748744964599609e+00,1.084688663482666016e+00,1.084628582000732422e+00,1.084568619728088379e+00,1.084508538246154785e+00,1.084448456764221191e+00,1.084388375282287598e+00,1.084328413009643555e+00,1.084268331527709961e+00,1.084208369255065918e+00,1.084148406982421875e+00,1.084088444709777832e+00,1.084028363227844238e+00,1.083968400955200195e+00,1.083908438682556152e+00,1.083848476409912109e+00,1.083788394927978516e+00,1.083728551864624023e+00,1.083668589591979980e+00,1.083608627319335938e+00,1.083548665046691895e+00,1.083488702774047852e+00,1.083428740501403809e+00,1.083368897438049316e+00,1.083308935165405273e+00,1.083249092102050781e+00,1.083189129829406738e+00,1.083129286766052246e+00,1.083069324493408203e+00,1.083009481430053711e+00,1.082949638366699219e+00,1.082889795303344727e+00,1.082829833030700684e+00,1.082769989967346191e+00,1.082710146903991699e+00,1.082650303840637207e+00,1.082590460777282715e+00,1.082530617713928223e+00,1.082470774650573730e+00
1.021103739738464355e+00,1.021050572395324707e+00,1.020997285842895508e+00,1.020944118499755859e+00,1.020890831947326660e+00,1.020837664604187012e+00,1.020784497261047363e+00,1.020731329917907715e+00,1.020678043365478516e+00,1.020624876022338867e+00,1.020571708679199219e+00,1.020518541336059570e+00,1.020465373992919922e+00,1.020412206649780273e+00,1.020359039306640625e+00,1.020305871963500977e+00,1.020252823829650879e+00,1.020199656486511230e+00,1.020146489143371582e+00,1.020093321800231934e+00,1.020040273666381836e+00,1.019987106323242188e+00,1.019934058189392090e+00,1.019880890846252441e+00,1.019827842712402344e+00,1.019774675369262695e+00,1.019721627235412598e+00,1.019668579101562500e+00,1.019615530967712402e+00,1.019562363624572754e+00,1.019509315490722656e+00,1.019456267356872559e+00,1.019403219223022461e+00,1.019350171089172363e+00,1.019297122955322266e+00,1.019244074821472168e+00,1.019191026687622070e+00,1.019137978553771973e+00,1.019085049629211426e+00,1.019032001495361328e+00,1.018978953361511230e+00,1.018926024436950684e+00,1.018872976303100586e+00,1.018819928169250488e+00,1.018766999244689941e+00,1.018713951110839844e+00,1.018661022186279297e+00,1.018608093261718750e+00,1.018555164337158203e+00,1.018502116203308105e+00,1.018449187278747559e+00,1.018396258354187012e+00,1.018343329429626465e+00,1.018290400505065918e+00,1.018237471580505371e+00,1.018184542655944824e+00,1.018131613731384277e+00,1.018078684806823730e+00,1.018025755882263184e+00,1.017972826957702637e+00,1.017920017242431641e+00,1.017867088317871094e+00,1.017814159393310547e+00,1.017761230468750000e+00,1.017708420753479004e+00,1.017655491828918457e+00,1.017602682113647461e+00,1.017549753189086914e+00,1.017496943473815918e+00,1.017444133758544922e+00,1.017391204833984375e+00,1.017338395118713379e+00,1.017285585403442383e+00,1.017232775688171387e+00,1.017179965972900391e+00,1.017127037048339844e+00,1.017074346542358398e+00,1.017021417617797852e+00,1.016968727111816406e+00,1.016915917396545410e+00
9.625700116157531738e-01,9.625227451324462891e-01,9.624753594398498535e-01,9.624280929565429688e-01,9.623808264732360840e-01,9.623335599899291992e-01,9.622862339019775391e-01,9.622389674186706543e-01,9.621917605400085449e-01,9.621444940567016602e-01,9.620971679687500000e-01,9.620499610900878906e-01,9.620027542114257812e-01,9.619555473327636719e-01,9.619082212448120117e-01,9.618610143661499023e-01,9.618138074874877930e-01,9.617666006088256836e-01,9.617192745208740234e-01,9.616721272468566895e-01,9.616249203681945801e-01,9.615777730941772461e-01,9.615304470062255859e-01,9.614832997322082520e-01,9.614361524581909180e-01,9.613890051841735840e-01,9.613417387008666992e-01,9.612945318222045898e-01,9.612474441528320312e-01,9.612002968788146973e-01,9.611530303955078125e-01,9.611058831214904785e-01,9.610587358474731445e-01,9.610116481781005859e-01,9.609644412994384766e-01,9.609172940254211426e-01,9.608702063560485840e-01,9.608231186866760254e-01,9.607758522033691406e-01,9.607287645339965820e-01,9.606816768646240234e-01,9.606345891952514648e-01,9.605874419212341309e-01,9.605403542518615723e-01,9.604932665824890137e-01,9.604461789131164551e-01,9.603990316390991211e-01,9.603519439697265625e-01,9.603049159049987793e-01,9.602578878402709961e-01,9.602107405662536621e-01,9.601636528968811035e-01,9.601166248321533203e-01,9.600695967674255371e-01,9.600224494934082031e-01,9.599754214286804199e-01,9.599284529685974121e-01,9.598814249038696289e-01,9.598342776298522949e-01,9.597873091697692871e-01,9.597402811050415039e-01,9.596933126449584961e-01,9.596462249755859375e-01,9.595991969108581543e-01,9.595522284507751465e-01,9.595052599906921387e-01,9.594581723213195801e-01,9.594112038612365723e-01,9.593642354011535645e-01,9.593173265457153320e-01,9.592702388763427734e-01,9.592232704162597656e-01,9.591763615608215332e-01,9.591293931007385254e-01,9.590823650360107422e-01,9.590354561805725098e-01,9.589884877204895020e-01,9.589415788650512695e-01,9.588945508003234863e-01,9.588476419448852539e-01
9.103832244873046875e-01,9.103408455848693848e-01,9.102985858917236328e-01,9.102563261985778809e-01,9.102140069007873535e-01,9.101716876029968262e-01,9.101293683052062988e-01,9.100871086120605469e-01,9.100448489189147949e-01,9.100025296211242676e-01,9.099602699279785156e-01,9.099180102348327637e-01,9.098758101463317871e-01,9.098334312438964844e-01,9.097912311553955078e-01,9.097489714622497559e-01,9.097067713737487793e-01,9.096644520759582520e-01,9.096221923828125000e-01,9.095799922943115234e-01,9.095377922058105469e-01,9.094954729080200195e-01,9.094532728195190430e-01,9.094110727310180664e-01,9.093688726425170898e-01,9.093266129493713379e-01,9.092844128608703613e-01,9.092422127723693848e-01,9.092000722885131836e-01,9.091578125953674316e-01,9.091156125068664551e-01,9.090734720230102539e-01,9.090312719345092773e-01,9.089890122413635254e-01,9.089468717575073242e-01,9.089047312736511230e-01,9.088625907897949219e-01,9.088203310966491699e-01,9.087781906127929688e-01,9.087360501289367676e-01,9.086939096450805664e-01,9.086517095565795898e-01,9.086095690727233887e-01,9.085674881935119629e-01,9.085253477096557617e-01,9.084831476211547852e-01,9.084410071372985840e-01,9.083989262580871582e-01,9.083568453788757324e-01,9.083146452903747559e-01,9.082725644111633301e-01,9.082304239273071289e-01,9.081883430480957031e-01,9.081462025642395020e-01,9.081041216850280762e-01,9.080620408058166504e-01,9.080199003219604492e-01,9.079778194427490234e-01,9.079357385635375977e-01,9.078937172889709473e-01,9.078515172004699707e-01,9.078094959259033203e-01,9.077674150466918945e-01,9.077253937721252441e-01,9.076832532882690430e-01,9.076412320137023926e-01,9.075992107391357422e-01,9.075571894645690918e-01,9.075150489807128906e-01,9.074730277061462402e-01,9.074310064315795898e-01,9.073889851570129395e-01,9.073469042778015137e-01,9.073048830032348633e-01,9.072629213333129883e-01,9.072209000587463379e-01,9.071788191795349121e-01,9.071368575096130371e-01,9.070948362350463867e-01,9.070528745651245117e-01
8.635640740394592285e-01,8.635260462760925293e-01,8.634880185127258301e-01,8.634498715400695801e-01,8.634118437767028809e-01,8.633738160133361816e-01,8.633357882499694824e-01,8.632976412773132324e-01,8.632596135139465332e-01,8.632215857505798340e-01,8.631835579872131348e-01,8.631454706192016602e-01,8.631075024604797363e-01,8.630694746971130371e-01,8.630314469337463379e-01,8.629933595657348633e-01,8.629553914070129395e-01,8.629173636436462402e-01,8.628793954849243164e-01,8.628413081169128418e-01,8.628033399581909180e-01,8.627653717994689941e-01,8.627273440361022949e-01,8.626893162727355957e-01,8.626513481140136719e-01,8.626133799552917480e-01,8.625754117965698242e-01,8.625373840332031250e-01,8.624994158744812012e-01,8.624614477157592773e-01,8.624234795570373535e-01,8.623854517936706543e-01,8.623475432395935059e-01,8.623095750808715820e-01,8.622716665267944336e-01,8.622336387634277344e-01,8.621956706047058105e-01,8.621577620506286621e-01,8.621198534965515137e-01,8.620818257331848145e-01,8.620439171791076660e-01,8.620060086250305176e-01,8.619681000709533691e-01,8.619300723075866699e-01,8.618921637535095215e-01,8.618543148040771484e-01,8.618164062500000000e-01,8.617784380912780762e-01,8.617405295372009277e-01,8.617026209831237793e-01,8.616647720336914062e-01,8.616268038749694824e-01,8.615888953208923340e-01,8.615510463714599609e-01,8.615131378173828125e-01,8.614752292633056641e-01,8.614373207092285156e-01,8.613994717597961426e-01,8.613616228103637695e-01,8.613236546516418457e-01,8.612858057022094727e-01,8.612479567527770996e-01,8.612101674079895020e-01,8.611721992492675781e-01,8.611343502998352051e-01,8.610965609550476074e-01,8.610587120056152344e-01,8.610208034515380859e-01,8.609829545021057129e-01,8.609451651573181152e-01,8.609073162078857422e-01,8.608694076538085938e-01,8.608316183090209961e-01,8.607938289642333984e-01,8.607560396194458008e-01,8.607181310653686523e-01,8.606803417205810547e-01,8.606425523757934570e-01,8.606047630310058594e-01,8.605668544769287109e-01
8.213250637054443359e-01,8.212906718254089355e-01,8.212561607360839844e-01,8.212217688560485840e-01,8.211873769760131836e-01,8.211529850959777832e-01,8.211184740066528320e-01,8.210840821266174316e-01,8.210496902465820312e-01,8.210152983665466309e-01,8.209808468818664551e-01,8.209464550018310547e-01,8.209120631217956543e-01,8.208776712417602539e-01,8.208432197570800781e-01,8.208088278770446777e-01,8.207744359970092773e-01,8.207401037216186523e-01,8.207056522369384766e-01,8.206712603569030762e-01,8.206369280815124512e-01,8.206025362014770508e-01,8.205681443214416504e-01,8.205337524414062500e-01,8.204994201660156250e-01,8.204650878906250000e-01,8.204306364059448242e-01,8.203963041305541992e-01,8.203619718551635742e-01,8.203276395797729492e-01,8.202932476997375488e-01,8.202589154243469238e-01,8.202245831489562988e-01,8.201902508735656738e-01,8.201558589935302734e-01,8.201215267181396484e-01,8.200871944427490234e-01,8.200529217720031738e-01,8.200185298919677734e-01,8.199841976165771484e-01,8.199499249458312988e-01,8.199155926704406738e-01,8.198812007904052734e-01,8.198469281196594238e-01,8.198126554489135742e-01,8.197783231735229492e-01,8.197439908981323242e-01,8.197097182273864746e-01,8.196753859519958496e-01,8.196411132812500000e-01,8.196067810058593750e-01,8.195725083351135254e-01,8.195382356643676758e-01,8.195039629936218262e-01,8.194696307182312012e-01,8.194353580474853516e-01,8.194010853767395020e-01,8.193668723106384277e-01,8.193325400352478027e-01,8.192982673645019531e-01,8.192639946937561035e-01,8.192297816276550293e-01,8.191954493522644043e-01,8.191612362861633301e-01,8.191269636154174805e-01,8.190927505493164062e-01,8.190584182739257812e-01,8.190242052078247070e-01,8.189899921417236328e-01,8.189557790756225586e-01,8.189214468002319336e-01,8.188872337341308594e-01,8.188530206680297852e-01,8.188188076019287109e-01,8.187845349311828613e-01,8.187503218650817871e-01,8.187161087989807129e-01,8.186819553375244141e-01,8.186476826667785645e-01,8.186134696006774902e-01
7.830254435539245605e-01,7.829940915107727051e-01,7.829627990722656250e-01,7.829315662384033203e-01,7.829002737998962402e-01,7.828689217567443848e-01,7.828376889228820801e-01,7.828063964843750000e-01,7.827751040458679199e-01,7.827438116073608398e-01,7.827125191688537598e-01,7.826812863349914551e-01,7.826500535011291504e-01,7.826187014579772949e-01,7.825874686241149902e-01,7.825561761856079102e-01,7.825249433517456055e-01,7.824936509132385254e-01,7.824624180793762207e-01,7.824311852455139160e-01,7.823999524116516113e-01,7.823686003684997559e-01,7.823374271392822266e-01,7.823061943054199219e-01,7.822749614715576172e-01,7.822436690330505371e-01,7.822124361991882324e-01,7.821812033653259277e-01,7.821500301361083984e-01,7.821187376976013184e-01,7.820875048637390137e-01,7.820562720298767090e-01,7.820250391960144043e-01,7.819938063621520996e-01,7.819626331329345703e-01,7.819314002990722656e-01,7.819001674652099609e-01,7.818689346313476562e-01,7.818377614021301270e-01,7.818065881729125977e-01,7.817753553390502930e-01,7.817441225051879883e-01,7.817129492759704590e-01,7.816817760467529297e-01,7.816505432128906250e-01,7.816193699836730957e-01,7.815881967544555664e-01,7.815570235252380371e-01,7.815257906913757324e-01,7.814946174621582031e-01,7.814634442329406738e-01,7.814323306083679199e-01,7.814010977745056152e-01,7.813699245452880859e-01,7.813388109207153320e-01,7.813076376914978027e-01,7.812764048576354980e-01,7.812452912330627441e-01,7.812141180038452148e-01,7.811830043792724609e-01,7.811517715454101562e-01,7.811206579208374023e-01,7.810895442962646484e-01,7.810584306716918945e-01,7.810271978378295898e-01,7.809960842132568359e-01,7.809649705886840820e-01,7.809338569641113281e-01,7.809026837348937988e-01,7.808715701103210449e-01,7.808404564857482910e-01,7.808093428611755371e-01,7.807781696319580078e-01,7.807470560073852539e-01,7.807159423828125000e-01,7.806848287582397461e-01,7.806537151336669922e-01,7.806226015090942383e-01,7.805914878845214844e-01,7.805604338645935059e-01
7.481385469436645508e-01,7.481099963188171387e-01,7.480814456939697266e-01,7.480528354644775391e-01,7.480242848396301270e-01,7.479957342147827148e-01,7.479671835899353027e-01,7.479385733604431152e-01,7.479100227355957031e-01,7.478814721107482910e-01,7.478529214859008789e-01,7.478243112564086914e-01,7.477958202362060547e-01,7.477672696113586426e-01,7.477387785911560059e-01,7.477101683616638184e-01,7.476816177368164062e-01,7.476531267166137695e-01,7.476245760917663574e-01,7.475960254669189453e-01,7.475674748420715332e-01,7.475389838218688965e-01,7.475104928016662598e-01,7.474818825721740723e-01,7.474533915519714355e-01,7.474249005317687988e-01,7.473964095115661621e-01,7.473677992820739746e-01,7.473393082618713379e-01,7.473108172416687012e-01,7.472823262214660645e-01,7.472537755966186523e-01,7.472252845764160156e-01,7.471967935562133789e-01,7.471683025360107422e-01,7.471397519111633301e-01,7.471112608909606934e-01,7.470828294754028320e-01,7.470543384552001953e-01,7.470257878303527832e-01,7.469972968101501465e-01,7.469688653945922852e-01,7.469403743743896484e-01,7.469118237495422363e-01,7.468833923339843750e-01,7.468549013137817383e-01,7.468264698982238770e-01,7.467979192733764648e-01,7.467694878578186035e-01,7.467410564422607422e-01,7.467125654220581055e-01,7.466840744018554688e-01,7.466556429862976074e-01,7.466272115707397461e-01,7.465987205505371094e-01,7.465702295303344727e-01,7.465417981147766113e-01,7.465133666992187500e-01,7.464849352836608887e-01,7.464564442634582520e-01,7.464280128479003906e-01,7.463995814323425293e-01,7.463711500167846680e-01,7.463426589965820312e-01,7.463142275810241699e-01,7.462858557701110840e-01,7.462574243545532227e-01,7.462289333343505859e-01,7.462005019187927246e-01,7.461721301078796387e-01,7.461436986923217773e-01,7.461152672767639160e-01,7.460868358612060547e-01,7.460584640502929688e-01,7.460300326347351074e-01,7.460016012191772461e-01,7.459731698036193848e-01,7.459447979927062988e-01,7.459164261817932129e-01,7.458879351615905762e-01
7.162277698516845703e-01,7.162016034126281738e-01,7.161753773689270020e-01,7.161492109298706055e-01,7.161230444908142090e-01,7.160968780517578125e-01,7.160706520080566406e-01,7.160444855690002441e-01,7.160183191299438477e-01,7.159921526908874512e-01,7.159659862518310547e-01,7.159398198127746582e-01,7.159136533737182617e-01,7.158874869346618652e-01,7.158613204956054688e-01,7.158351540565490723e-01,7.158089876174926758e-01,7.157828807830810547e-01,7.157566547393798828e-01,7.157305479049682617e-01,7.157043814659118652e-01,7.156782746315002441e-01,7.156520485877990723e-01,7.156259417533874512e-01,7.155998349189758301e-01,7.155736684799194336e-01,7.155475020408630371e-01,7.155213952064514160e-01,7.154952287673950195e-01,7.154691219329833984e-01,7.154429554939270020e-01,7.154168486595153809e-01,7.153907418251037598e-01,7.153646349906921387e-01,7.153384685516357422e-01,7.153123617172241211e-01,7.152862548828125000e-01,7.152601480484008789e-01,7.152339816093444824e-01,7.152078747749328613e-01,7.151817679405212402e-01,7.151556611061096191e-01,7.151295542716979980e-01,7.151034474372863770e-01,7.150773406028747559e-01,7.150512337684631348e-01,7.150251269340515137e-01,7.149990200996398926e-01,7.149729728698730469e-01,7.149468660354614258e-01,7.149206995964050293e-01,7.148946523666381836e-01,7.148686051368713379e-01,7.148424983024597168e-01,7.148163914680480957e-01,7.147902846336364746e-01,7.147642374038696289e-01,7.147381901741027832e-01,7.147120237350463867e-01,7.146859765052795410e-01,7.146599292755126953e-01,7.146338820457458496e-01,7.146077752113342285e-01,7.145817279815673828e-01,7.145556211471557617e-01,7.145295739173889160e-01,7.145034670829772949e-01,7.144774198532104492e-01,7.144513726234436035e-01,7.144253253936767578e-01,7.143992781639099121e-01,7.143732309341430664e-01,7.143471837043762207e-01,7.143211364746093750e-01,7.142950296401977539e-01,7.142690420150756836e-01,7.142429947853088379e-01,7.142168879508972168e-01,7.141909003257751465e-01,7.141648530960083008e-01
6.869279146194458008e-01,6.869037747383117676e-01,6.868796944618225098e-01,6.868556141853332520e-01,6.868315339088439941e-01,6.868073940277099609e-01,6.867833733558654785e-01,6.867592930793762207e-01,6.867352128028869629e-01,6.867111325263977051e-01,6.866870522499084473e-01,6.866629719734191895e-01,6.866388916969299316e-01,6.866148114204406738e-01,6.865907907485961914e-01,6.865667104721069336e-01,6.865426301956176758e-01,6.865185499191284180e-01,6.864945292472839355e-01,6.864704489707946777e-01,6.864463686943054199e-01,6.864223480224609375e-01,6.863982677459716797e-01,6.863742470741271973e-01,6.863501667976379395e-01,6.863261461257934570e-01,6.863021254539489746e-01,6.862780451774597168e-01,6.862539649009704590e-01,6.862299442291259766e-01,6.862059235572814941e-01,6.861819028854370117e-01,6.861578226089477539e-01,6.861338019371032715e-01,6.861097812652587891e-01,6.860857605934143066e-01,6.860616803169250488e-01,6.860376596450805664e-01,6.860136985778808594e-01,6.859896779060363770e-01,6.859655976295471191e-01,6.859415769577026367e-01,6.859175562858581543e-01,6.858935952186584473e-01,6.858695149421691895e-01,6.858454942703247070e-01,6.858215332031250000e-01,6.857975125312805176e-01,6.857734918594360352e-01,6.857494711875915527e-01,6.857255101203918457e-01,6.857014894485473633e-01,6.856774687767028809e-01,6.856534481048583984e-01,6.856294870376586914e-01,6.856054663658142090e-01,6.855814456939697266e-01,6.855574846267700195e-01,6.855335235595703125e-01,6.855095028877258301e-01,6.854854822158813477e-01,6.854615211486816406e-01,6.854375600814819336e-01,6.854135990142822266e-01,6.853895187377929688e-01,6.853655576705932617e-01,6.853415966033935547e-01,6.853176355361938477e-01,6.852936148643493652e-01,6.852696537971496582e-01,6.852456927299499512e-01,6.852217316627502441e-01,6.851977705955505371e-01,6.851738095283508301e-01,6.851498484611511230e-01,6.851258873939514160e-01,6.851018667221069336e-01,6.850779652595520020e-01,6.850540041923522949e-01,6.850300431251525879e-01
6.599309444427490234e-01,6.599087119102478027e-01,6.598865389823913574e-01,6.598642468452453613e-01,6.598420143127441406e-01,6.598198413848876953e-01,6.597976088523864746e-01,6.597753763198852539e-01,6.597531437873840332e-01,6.597309112548828125e-01,6.597087383270263672e-01,6.596865057945251465e-01,6.596642732620239258e-01,6.596421003341674805e-01,6.596198678016662598e-01,6.595976352691650391e-01,6.595754027366638184e-01,6.595532298088073730e-01,6.595310568809509277e-01,6.595087647438049316e-01,6.594865918159484863e-01,6.594644188880920410e-01,6.594422459602355957e-01,6.594200134277343750e-01,6.593977808952331543e-01,6.593756079673767090e-01,6.593534350395202637e-01,6.593312025070190430e-01,6.593090295791625977e-01,6.592868566513061523e-01,6.592646837234497070e-01,6.592424511909484863e-01,6.592202782630920410e-01,6.591981053352355957e-01,6.591759324073791504e-01,6.591536998748779297e-01,6.591315269470214844e-01,6.591093540191650391e-01,6.590871810913085938e-01,6.590650081634521484e-01,6.590428352355957031e-01,6.590206623077392578e-01,6.589984893798828125e-01,6.589763164520263672e-01,6.589541435241699219e-01,6.589319705963134766e-01,6.589098572731018066e-01,6.588876247406005859e-01,6.588655114173889160e-01,6.588433384895324707e-01,6.588212251663208008e-01,6.587989926338195801e-01,6.587768793106079102e-01,6.587547063827514648e-01,6.587325930595397949e-01,6.587103605270385742e-01,6.586882472038269043e-01,6.586661338806152344e-01,6.586439609527587891e-01,6.586217880249023438e-01,6.585996747016906738e-01,6.585775017738342285e-01,6.585553884506225586e-01,6.585332155227661133e-01,6.585111021995544434e-01,6.584889888763427734e-01,6.584668755531311035e-01,6.584447026252746582e-01,6.584225296974182129e-01,6.584004163742065430e-01,6.583783030509948730e-01,6.583561301231384277e-01,6.583340167999267578e-01,6.583119034767150879e-01,6.582897901535034180e-01,6.582676768302917480e-01,6.582455635070800781e-01,6.582234501838684082e-01,6.582013368606567383e-01,6.581791639328002930e-01
