1.795824408531188965e+00,1.795034885406494141e+00,1.790843844413757324e+00,1.792858958244323730e+00,1.798329710960388184e+00,1.809674024581909180e+00,1.671358585357666016e+00,1.690560698509216309e+00,1.725441813468933105e+00,5.000000000000000000e+00,5.000000000000000000e+00,5.000000000000000000e+00,5.000000000000000000e+00,5.000000000000000000e+00,5.000000000000000000e+00,5.000000000000000000e+00,5.000000000000000000e+00,5.000000000000000000e+00,5.000000000000000000e+00,5.000000000000000000e+00,5.000000000000000000e+00,5.000000000000000000e+00,5.000000000000000000e+00,5.000000000000000000e+00,5.000000000000000000e+00,5.000000000000000000e+00,5.000000000000000000e+00,5.000000000000000000e+00,5.000000000000000000e+00,5.000000000000000000e+00,5.000000000000000000e+00,5.000000000000000000e+00,5.000000000000000000e+00,5.000000000000000000e+00,5.000000000000000000e+00,5.000000000000000000e+00,5.000000000000000000e+00,5.000000000000000000e+00,5.000000000000000000e+00,5.000000000000000000e+00,4.872220039367675781e+00,4.679084777832031250e+00,4.500677108764648438e+00,4.335374355316162109e+00,4.181784629821777344e+00,4.038704395294189453e+00,3.905092000961303711e+00,3.780036449432373047e+00,3.662742137908935547e+00,3.552508354187011719e+00,3.448715448379516602e+00,3.350815296173095703e+00,3.258320331573486328e+00,3.170794248580932617e+00,3.087847471237182617e+00,3.009130239486694336e+00,2.934326410293579102e+00,2.863151311874389648e+00,2.795347213745117188e+00,2.730680465698242188e+00,2.668938159942626953e+00,2.609925985336303711e+00,2.553467035293579102e+00,2.499398708343505859e+00,2.447573184967041016e+00,2.397852897644042969e+00,2.350112438201904297e+00,2.304235935211181641e+00,2.260116338729858398e+00,2.217654466629028320e+00,2.176758527755737305e+00,2.137343883514404297e+00,2.099330902099609375e+00,2.062646627426147461e+00,2.027222394943237305e+00,1.992994308471679688e+00,1.959902882575988770e+00,1.927892446517944336e+00,1.896910786628723145e+00,1.866909146308898926e+00
1.820070862770080566e+00,1.803988218307495117e+00,1.795199990272521973e+00,1.795117855072021484e+00,1.799922108650207520e+00,1.650984764099121094e+00,1.665094494819641113e+00,1.690091371536254883e+00,1.738747119903564453e+00,5.000000000000000000e+00,5.000000000000000000e+00,5.000000000000000000e+00,5.000000000000000000e+00,5.000000000000000000e+00,5.000000000000000000e+00,5.000000000000000000e+00,5.000000000000000000e+00,5.000000000000000000e+00,5.000000000000000000e+00,5.000000000000000000e+00,5.000000000000000000e+00,5.000000000000000000e+00,5.000000000000000000e+00,5.000000000000000000e+00,5.000000000000000000e+00,5.000000000000000000e+00,5.000000000000000000e+00,5.000000000000000000e+00,5.000000000000000000e+00,5.000000000000000000e+00,5.000000000000000000e+00,5.000000000000000000e+00,5.000000000000000000e+00,5.000000000000000000e+00,5.000000000000000000e+00,5.000000000000000000e+00,5.000000000000000000e+00,5.000000000000000000e+00,5.000000000000000000e+00,5.000000000000000000e+00,4.872362136840820312e+00,4.679214954376220703e+00,4.500798225402832031e+00,4.335486888885498047e+00,4.181889057159423828e+00,4.038802146911621094e+00,3.905182838439941406e+00,3.780122280120849609e+00,3.662822484970092773e+00,3.552583456039428711e+00,3.448786258697509766e+00,3.350882291793823242e+00,3.258383750915527344e+00,3.170854330062866211e+00,3.087904691696166992e+00,3.009184122085571289e+00,2.934377670288085938e+00,2.863200187683105469e+00,2.795393943786621094e+00,2.730725049972534180e+00,2.668980598449707031e+00,2.609966516494750977e+00,2.553505897521972656e+00,2.499436140060424805e+00,2.447608947753906250e+00,2.397887229919433594e+00,2.350145339965820312e+00,2.304267644882202148e+00,2.260146856307983398e+00,2.217683792114257812e+00,2.176786899566650391e+00,2.137371063232421875e+00,2.099357366561889648e+00,2.062671899795532227e+00,2.027246952056884766e+00,1.993018031120300293e+00,1.959925770759582520e+00,1.927914619445800781e+00,1.896932244300842285e+00,1.866930127143859863e+00
1.845434784889221191e+00,1.818539738655090332e+00,1.817166566848754883e+00,1.612038254737854004e+00,1.618954896926879883e+00,1.633205294609069824e+00,1.654178023338317871e+00,1.720077514648437500e+00,1.886158108711242676e+00,1.933144092559814453e+00,5.000000000000000000e+00,5.000000000000000000e+00,5.000000000000000000e+00,5.000000000000000000e+00,5.000000000000000000e+00,5.000000000000000000e+00,5.000000000000000000e+00,5.000000000000000000e+00,5.000000000000000000e+00,5.000000000000000000e+00,5.000000000000000000e+00,5.000000000000000000e+00,5.000000000000000000e+00,5.000000000000000000e+00,5.000000000000000000e+00,5.000000000000000000e+00,5.000000000000000000e+00,5.000000000000000000e+00,5.000000000000000000e+00,5.000000000000000000e+00,5.000000000000000000e+00,5.000000000000000000e+00,5.000000000000000000e+00,5.000000000000000000e+00,5.000000000000000000e+00,5.000000000000000000e+00,5.000000000000000000e+00,5.000000000000000000e+00,5.000000000000000000e+00,5.000000000000000000e+00,4.872503757476806641e+00,4.679346084594726562e+00,4.500918865203857422e+00,4.335598945617675781e+00,4.181993484497070312e+00,4.038899421691894531e+00,3.905274152755737305e+00,3.780207395553588867e+00,3.662902355194091797e+00,3.552658796310424805e+00,3.448857545852661133e+00,3.350949525833129883e+00,3.258447170257568359e+00,3.170914411544799805e+00,3.087961435317993164e+00,3.009238243103027344e+00,2.934429168701171875e+00,2.863249301910400391e+00,2.795440673828125000e+00,2.730769634246826172e+00,2.669023036956787109e+00,2.610007286071777344e+00,2.553544759750366211e+00,2.499473571777343750e+00,2.447644710540771484e+00,2.397921562194824219e+00,2.350178480148315430e+00,2.304299354553222656e+00,2.260177373886108398e+00,2.217713117599487305e+00,2.176815032958984375e+00,2.137398242950439453e+00,2.099383592605590820e+00,2.062697410583496094e+00,2.027271509170532227e+00,1.993041753768920898e+00,1.959948658943176270e+00,1.927936911582946777e+00,1.896953940391540527e+00,1.866950869560241699e+00
1.816380858421325684e+00,1.838207840919494629e+00,1.612561821937561035e+00,1.598699092864990234e+00,1.604065775871276855e+00,1.621932625770568848e+00,1.644894599914550781e+00,1.849554896354675293e+00,1.884163141250610352e+00,1.922730088233947754e+00,5.000000000000000000e+00,5.000000000000000000e+00,5.000000000000000000e+00,5.000000000000000000e+00,5.000000000000000000e+00,5.000000000000000000e+00,5.000000000000000000e+00,5.000000000000000000e+00,5.000000000000000000e+00,5.000000000000000000e+00,5.000000000000000000e+00,5.000000000000000000e+00,5.000000000000000000e+00,5.000000000000000000e+00,5.000000000000000000e+00,5.000000000000000000e+00,5.000000000000000000e+00,5.000000000000000000e+00,5.000000000000000000e+00,5.000000000000000000e+00,5.000000000000000000e+00,5.000000000000000000e+00,5.000000000000000000e+00,5.000000000000000000e+00,5.000000000000000000e+00,5.000000000000000000e+00,5.000000000000000000e+00,5.000000000000000000e+00,5.000000000000000000e+00,5.000000000000000000e+00,4.872645854949951172e+00,4.679476737976074219e+00,4.501039981842041016e+00,4.335711479187011719e+00,4.182097911834716797e+00,4.038997173309326172e+00,3.905364990234375000e+00,3.780292510986328125e+00,3.662982940673828125e+00,3.552734375000000000e+00,3.448928356170654297e+00,3.351016521453857422e+00,3.258510351181030273e+00,3.170974493026733398e+00,3.088018655776977539e+00,3.009292364120483398e+00,2.934480667114257812e+00,2.863298177719116211e+00,2.795487165451049805e+00,2.730814218521118164e+00,2.669065713882446289e+00,2.610048055648803711e+00,2.553583860397338867e+00,2.499510765075683594e+00,2.447680473327636719e+00,2.397955894470214844e+00,2.350211381912231445e+00,2.304331064224243164e+00,2.260207891464233398e+00,2.217742681503295898e+00,2.176843404769897461e+00,2.137425661087036133e+00,2.099409818649291992e+00,2.062722921371459961e+00,2.027296066284179688e+00,1.993065595626831055e+00,1.959971785545349121e+00,1.927959084510803223e+00,1.896975398063659668e+00,1.866971731185913086e+00
1.805734276771545410e+00,1.830316781997680664e+00,1.572778105735778809e+00,1.578539729118347168e+00,1.806760907173156738e+00,1.615708112716674805e+00,1.638465762138366699e+00,1.848356127738952637e+00,1.881939649581909180e+00,1.921981453895568848e+00,5.000000000000000000e+00,5.000000000000000000e+00,5.000000000000000000e+00,5.000000000000000000e+00,5.000000000000000000e+00,5.000000000000000000e+00,5.000000000000000000e+00,5.000000000000000000e+00,5.000000000000000000e+00,5.000000000000000000e+00,5.000000000000000000e+00,5.000000000000000000e+00,5.000000000000000000e+00,5.000000000000000000e+00,5.000000000000000000e+00,5.000000000000000000e+00,5.000000000000000000e+00,5.000000000000000000e+00,5.000000000000000000e+00,5.000000000000000000e+00,5.000000000000000000e+00,5.000000000000000000e+00,5.000000000000000000e+00,5.000000000000000000e+00,5.000000000000000000e+00,5.000000000000000000e+00,5.000000000000000000e+00,5.000000000000000000e+00,5.000000000000000000e+00,5.000000000000000000e+00,4.872787475585937500e+00,4.679607868194580078e+00,4.501161098480224609e+00,4.335823535919189453e+00,4.182202339172363281e+00,4.039093971252441406e+00,3.905456542968750000e+00,3.780378103256225586e+00,3.663062810897827148e+00,3.552809715270996094e+00,3.448999404907226562e+00,3.351083755493164062e+00,3.258574008941650391e+00,3.171034574508666992e+00,3.088075399398803711e+00,3.009346485137939453e+00,2.934532165527343750e+00,2.863347291946411133e+00,2.795534133911132812e+00,2.730858564376831055e+00,2.669108152389526367e+00,2.610088586807250977e+00,2.553622722625732422e+00,2.499548196792602539e+00,2.447716236114501953e+00,2.397990226745605469e+00,2.350244283676147461e+00,2.304362773895263672e+00,2.260238409042358398e+00,2.217772006988525391e+00,2.176871776580810547e+00,2.137452840805053711e+00,2.099436283111572266e+00,2.062748432159423828e+00,2.027320623397827148e+00,1.993089318275451660e+00,1.959994792938232422e+00,1.927981257438659668e+00,1.896996736526489258e+00,1.866992473602294922e+00
1.803706645965576172e+00,1.825113773345947266e+00,1.849672079086303711e+00,1.575989007949829102e+00,1.585459232330322266e+00,1.617396831512451172e+00,1.825827002525329590e+00,1.848799109458923340e+00,1.881598234176635742e+00,1.922089815139770508e+00,5.000000000000000000e+00,5.000000000000000000e+00,5.000000000000000000e+00,5.000000000000000000e+00,5.000000000000000000e+00,5.000000000000000000e+00,5.000000000000000000e+00,5.000000000000000000e+00,5.000000000000000000e+00,5.000000000000000000e+00,5.000000000000000000e+00,5.000000000000000000e+00,5.000000000000000000e+00,5.000000000000000000e+00,5.000000000000000000e+00,5.000000000000000000e+00,5.000000000000000000e+00,5.000000000000000000e+00,5.000000000000000000e+00,5.000000000000000000e+00,5.000000000000000000e+00,5.000000000000000000e+00,5.000000000000000000e+00,5.000000000000000000e+00,5.000000000000000000e+00,5.000000000000000000e+00,5.000000000000000000e+00,5.000000000000000000e+00,5.000000000000000000e+00,5.000000000000000000e+00,4.872929096221923828e+00,4.679738521575927734e+00,4.501281738281250000e+00,4.335935592651367188e+00,4.182306766510009766e+00,4.039191722869873047e+00,3.905547380447387695e+00,3.780463218688964844e+00,3.663142681121826172e+00,3.552885293960571289e+00,3.449070692062377930e+00,3.351150751113891602e+00,3.258637189865112305e+00,3.171094417572021484e+00,3.088132619857788086e+00,3.009400606155395508e+00,2.934583425521850586e+00,2.863396167755126953e+00,2.795580625534057617e+00,2.730903148651123047e+00,2.669150829315185547e+00,2.610129356384277344e+00,2.553661584854125977e+00,2.499585390090942383e+00,2.447751998901367188e+00,2.398024559020996094e+00,2.350277423858642578e+00,2.304394483566284180e+00,2.260268926620483398e+00,2.217801332473754883e+00,2.176900148391723633e+00,2.137480258941650391e+00,2.099462509155273438e+00,2.062773704528808594e+00,2.027345180511474609e+00,1.993112921714782715e+00,1.960017681121826172e+00,1.928003430366516113e+00,1.897018194198608398e+00,1.867013216018676758e+00
1.801437616348266602e+00,1.825647115707397461e+00,1.858675956726074219e+00,1.812004327774047852e+00,1.813841462135314941e+00,1.816246509552001953e+00,1.822701930999755859e+00,1.849789381027221680e+00,1.880367875099182129e+00,1.921595335006713867e+00,5.000000000000000000e+00,5.000000000000000000e+00,5.000000000000000000e+00,5.000000000000000000e+00,5.000000000000000000e+00,5.000000000000000000e+00,5.000000000000000000e+00,5.000000000000000000e+00,5.000000000000000000e+00,5.000000000000000000e+00,5.000000000000000000e+00,5.000000000000000000e+00,5.000000000000000000e+00,5.000000000000000000e+00,5.000000000000000000e+00,5.000000000000000000e+00,5.000000000000000000e+00,5.000000000000000000e+00,5.000000000000000000e+00,5.000000000000000000e+00,5.000000000000000000e+00,5.000000000000000000e+00,5.000000000000000000e+00,5.000000000000000000e+00,5.000000000000000000e+00,5.000000000000000000e+00,5.000000000000000000e+00,5.000000000000000000e+00,5.000000000000000000e+00,5.000000000000000000e+00,4.873071193695068359e+00,4.679869174957275391e+00,4.501402854919433594e+00,4.336048126220703125e+00,4.182411193847656250e+00,4.039288997650146484e+00,3.905638217926025391e+00,3.780548810958862305e+00,3.663223266601562500e+00,3.552960395812988281e+00,3.449141502380371094e+00,3.351217508316040039e+00,3.258700847625732422e+00,3.171154737472534180e+00,3.088189363479614258e+00,3.009454727172851562e+00,2.934634923934936523e+00,2.863445281982421875e+00,2.795627355575561523e+00,2.730947732925415039e+00,2.669193267822265625e+00,2.610170125961303711e+00,2.553700447082519531e+00,2.499622821807861328e+00,2.447787761688232422e+00,2.398058891296386719e+00,2.350310325622558594e+00,2.304426193237304688e+00,2.260299444198608398e+00,2.217830657958984375e+00,2.176928520202636719e+00,2.137507438659667969e+00,2.099488973617553711e+00,2.062799215316772461e+00,2.027369737625122070e+00,1.993136644363403320e+00,1.960040569305419922e+00,1.928025603294372559e+00,1.897039651870727539e+00,1.867034196853637695e+00
1.798959374427795410e+00,1.827172160148620605e+00,1.860844016075134277e+00,1.818462610244750977e+00,1.821090936660766602e+00,1.824006080627441406e+00,1.827518582344055176e+00,1.853659272193908691e+00,1.884053945541381836e+00,1.924628019332885742e+00,5.000000000000000000e+00,5.000000000000000000e+00,5.000000000000000000e+00,5.000000000000000000e+00,5.000000000000000000e+00,5.000000000000000000e+00,5.000000000000000000e+00,5.000000000000000000e+00,5.000000000000000000e+00,5.000000000000000000e+00,5.000000000000000000e+00,5.000000000000000000e+00,5.000000000000000000e+00,5.000000000000000000e+00,5.000000000000000000e+00,5.000000000000000000e+00,5.000000000000000000e+00,5.000000000000000000e+00,5.000000000000000000e+00,5.000000000000000000e+00,5.000000000000000000e+00,5.000000000000000000e+00,5.000000000000000000e+00,5.000000000000000000e+00,5.000000000000000000e+00,5.000000000000000000e+00,5.000000000000000000e+00,5.000000000000000000e+00,5.000000000000000000e+00,5.000000000000000000e+00,4.873212814331054688e+00,4.679999828338623047e+00,4.501523971557617188e+00,4.336160659790039062e+00,4.182516098022460938e+00,4.039386749267578125e+00,3.905729770660400391e+00,3.780634164810180664e+00,3.663303136825561523e+00,3.553035736083984375e+00,3.449212789535522461e+00,3.351284980773925781e+00,3.258764266967773438e+00,3.171214580535888672e+00,3.088246345520019531e+00,3.009508848190307617e+00,2.934686422348022461e+00,2.863494157791137695e+00,2.795674085617065430e+00,2.730992317199707031e+00,2.669235944747924805e+00,2.610210895538330078e+00,2.553739547729492188e+00,2.499660015106201172e+00,2.447823524475097656e+00,2.398093223571777344e+00,2.350343465805053711e+00,2.304457902908325195e+00,2.260329961776733398e+00,2.217859983444213867e+00,2.176956653594970703e+00,2.137534856796264648e+00,2.099515199661254883e+00,2.062824487686157227e+00,2.027394294738769531e+00,1.993160367012023926e+00,1.960063695907592773e+00,1.928048014640808105e+00,1.897061347961425781e+00,1.867054939270019531e+00
1.796487808227539062e+00,1.828629374504089355e+00,1.863307118415832520e+00,5.000000000000000000e+00,1.829859972000122070e+00,1.832803010940551758e+00,1.837045192718505859e+00,1.860851287841796875e+00,1.890099763870239258e+00,1.930677413940429688e+00,5.000000000000000000e+00,5.000000000000000000e+00,5.000000000000000000e+00,5.000000000000000000e+00,5.000000000000000000e+00,5.000000000000000000e+00,5.000000000000000000e+00,5.000000000000000000e+00,5.000000000000000000e+00,5.000000000000000000e+00,5.000000000000000000e+00,5.000000000000000000e+00,5.000000000000000000e+00,5.000000000000000000e+00,5.000000000000000000e+00,5.000000000000000000e+00,5.000000000000000000e+00,5.000000000000000000e+00,5.000000000000000000e+00,5.000000000000000000e+00,5.000000000000000000e+00,5.000000000000000000e+00,5.000000000000000000e+00,5.000000000000000000e+00,5.000000000000000000e+00,5.000000000000000000e+00,5.000000000000000000e+00,5.000000000000000000e+00,5.000000000000000000e+00,5.000000000000000000e+00,4.873354911804199219e+00,4.680130958557128906e+00,4.501645088195800781e+00,4.336272716522216797e+00,4.182620048522949219e+00,4.039484024047851562e+00,3.905820608139038086e+00,3.780719757080078125e+00,3.663383483886718750e+00,3.553111314773559570e+00,3.449283599853515625e+00,3.351351737976074219e+00,3.258827447891235352e+00,3.171274900436401367e+00,3.088303327560424805e+00,3.009562969207763672e+00,2.934737682342529297e+00,2.863543033599853516e+00,2.795720815658569336e+00,2.731036901473999023e+00,2.669278621673583984e+00,2.610251426696777344e+00,2.553778409957885742e+00,2.499697446823120117e+00,2.447859525680541992e+00,2.398127555847167969e+00,2.350376367568969727e+00,2.304489612579345703e+00,2.260360479354858398e+00,2.217889547348022461e+00,2.176985025405883789e+00,2.137562036514282227e+00,2.099541664123535156e+00,2.062849998474121094e+00,2.027418851852416992e+00,1.993184208869934082e+00,1.960086584091186523e+00,1.928070068359375000e+00,1.897082805633544922e+00,1.867075800895690918e+00
1.798260450363159180e+00,1.832880377769470215e+00,2.038666963577270508e+00,5.000000000000000000e+00,1.838713765144348145e+00,1.841716289520263672e+00,1.846671938896179199e+00,1.867330670356750488e+00,1.896282553672790527e+00,1.936532974243164062e+00,5.000000000000000000e+00,5.000000000000000000e+00,5.000000000000000000e+00,5.000000000000000000e+00,5.000000000000000000e+00,5.000000000000000000e+00,5.000000000000000000e+00,5.000000000000000000e+00,5.000000000000000000e+00,5.000000000000000000e+00,5.000000000000000000e+00,5.000000000000000000e+00,5.000000000000000000e+00,5.000000000000000000e+00,5.000000000000000000e+00,5.000000000000000000e+00,5.000000000000000000e+00,5.000000000000000000e+00,5.000000000000000000e+00,5.000000000000000000e+00,5.000000000000000000e+00,5.000000000000000000e+00,5.000000000000000000e+00,5.000000000000000000e+00,5.000000000000000000e+00,5.000000000000000000e+00,5.000000000000000000e+00,5.000000000000000000e+00,5.000000000000000000e+00,5.000000000000000000e+00,4.873497009277343750e+00,4.680261611938476562e+00,4.501766204833984375e+00,4.336385250091552734e+00,4.182724475860595703e+00,4.039581775665283203e+00,3.905911922454833984e+00,3.780804872512817383e+00,3.663463592529296875e+00,3.553186655044555664e+00,3.449354648590087891e+00,3.351419210433959961e+00,3.258891105651855469e+00,3.171334743499755859e+00,3.088360309600830078e+00,3.009616851806640625e+00,2.934789419174194336e+00,2.863592147827148438e+00,2.795767307281494141e+00,2.731081485748291016e+00,2.669321060180664062e+00,2.610292196273803711e+00,2.553817510604858398e+00,2.499734640121459961e+00,2.447895288467407227e+00,2.398161888122558594e+00,2.350409269332885742e+00,2.304521560668945312e+00,2.260390996932983398e+00,2.217918872833251953e+00,2.177013397216796875e+00,2.137589454650878906e+00,2.099567890167236328e+00,2.062875509262084961e+00,2.027443408966064453e+00,1.993207931518554688e+00,1.960109472274780273e+00,1.928092241287231445e+00,1.897104263305664062e+00,1.867096543312072754e+00
1.802623629570007324e+00,1.838252782821655273e+00,2.048599243164062500e+00,5.000000000000000000e+00,1.847653746604919434e+00,1.851392030715942383e+00,1.856399893760681152e+00,1.873710751533508301e+00,1.903765916824340820e+00,1.942424416542053223e+00,5.000000000000000000e+00,5.000000000000000000e+00,5.000000000000000000e+00,5.000000000000000000e+00,5.000000000000000000e+00,5.000000000000000000e+00,5.000000000000000000e+00,5.000000000000000000e+00,5.000000000000000000e+00,5.000000000000000000e+00,5.000000000000000000e+00,5.000000000000000000e+00,5.000000000000000000e+00,5.000000000000000000e+00,5.000000000000000000e+00,5.000000000000000000e+00,5.000000000000000000e+00,5.000000000000000000e+00,5.000000000000000000e+00,5.000000000000000000e+00,5.000000000000000000e+00,5.000000000000000000e+00,5.000000000000000000e+00,5.000000000000000000e+00,5.000000000000000000e+00,5.000000000000000000e+00,5.000000000000000000e+00,5.000000000000000000e+00,5.000000000000000000e+00,5.000000000000000000e+00,4.873638629913330078e+00,4.680392742156982422e+00,4.501887321472167969e+00,4.336497783660888672e+00,4.182829380035400391e+00,4.039679050445556641e+00,3.906002998352050781e+00,3.780890226364135742e+00,3.663543939590454102e+00,3.553262233734130859e+00,3.449425935745239258e+00,3.351485967636108398e+00,3.258954524993896484e+00,3.171394824981689453e+00,3.088417291641235352e+00,3.009671211242675781e+00,2.934840679168701172e+00,2.863641023635864258e+00,2.795814037322998047e+00,2.731126070022583008e+00,2.669363737106323242e+00,2.610332965850830078e+00,2.553856372833251953e+00,2.499772071838378906e+00,2.447931051254272461e+00,2.398196458816528320e+00,2.350442409515380859e+00,2.304553031921386719e+00,2.260421514511108398e+00,2.217948198318481445e+00,2.177041769027709961e+00,2.137616634368896484e+00,2.099594116210937500e+00,2.062900781631469727e+00,2.027467727661132812e+00,1.993231654167175293e+00,1.960132360458374023e+00,1.928114414215087891e+00,1.897125720977783203e+00,1.867117285728454590e+00
1.808964848518371582e+00,2.033288717269897461e+00,2.058676719665527344e+00,5.000000000000000000e+00,1.890089869499206543e+00,1.860415697097778320e+00,1.864798307418823242e+00,1.880712032318115234e+00,1.911116480827331543e+00,1.949819564819335938e+00,5.000000000000000000e+00,5.000000000000000000e+00,5.000000000000000000e+00,5.000000000000000000e+00,5.000000000000000000e+00,5.000000000000000000e+00,5.000000000000000000e+00,5.000000000000000000e+00,5.000000000000000000e+00,5.000000000000000000e+00,5.000000000000000000e+00,5.000000000000000000e+00,5.000000000000000000e+00,5.000000000000000000e+00,5.000000000000000000e+00,5.000000000000000000e+00,5.000000000000000000e+00,5.000000000000000000e+00,5.000000000000000000e+00,5.000000000000000000e+00,5.000000000000000000e+00,5.000000000000000000e+00,5.000000000000000000e+00,5.000000000000000000e+00,5.000000000000000000e+00,5.000000000000000000e+00,5.000000000000000000e+00,5.000000000000000000e+00,5.000000000000000000e+00,5.000000000000000000e+00,4.873780250549316406e+00,4.680523395538330078e+00,4.502007961273193359e+00,4.336609840393066406e+00,4.182933807373046875e+00,4.039776325225830078e+00,3.906094312667846680e+00,3.780975818634033203e+00,3.663624048233032227e+00,3.553337574005126953e+00,3.449496746063232422e+00,3.351553440093994141e+00,3.259017944335937500e+00,3.171455144882202148e+00,3.088474273681640625e+00,3.009725093841552734e+00,2.934891939163208008e+00,2.863690137863159180e+00,2.795860767364501953e+00,2.731170415878295898e+00,2.669406175613403320e+00,2.610373497009277344e+00,2.553895473480224609e+00,2.499809503555297852e+00,2.447966814041137695e+00,2.398230552673339844e+00,2.350475311279296875e+00,2.304584980010986328e+00,2.260452032089233398e+00,2.217977523803710938e+00,2.177069902420043945e+00,2.137644052505493164e+00,2.099620580673217773e+00,2.062926292419433594e+00,2.027492523193359375e+00,1.993255257606506348e+00,1.960155248641967773e+00,1.928136587142944336e+00,1.897147417068481445e+00,1.867138266563415527e+00
2.005983114242553711e+00,2.036899328231811523e+00,5.000000000000000000e+00,5.000000000000000000e+00,5.000000000000000000e+00,1.867061614990234375e+00,1.871475696563720703e+00,1.887456536293029785e+00,1.918770909309387207e+00,1.957021355628967285e+00,5.000000000000000000e+00,5.000000000000000000e+00,5.000000000000000000e+00,5.000000000000000000e+00,5.000000000000000000e+00,5.000000000000000000e+00,5.000000000000000000e+00,5.000000000000000000e+00,5.000000000000000000e+00,5.000000000000000000e+00,5.000000000000000000e+00,5.000000000000000000e+00,5.000000000000000000e+00,5.000000000000000000e+00,5.000000000000000000e+00,5.000000000000000000e+00,5.000000000000000000e+00,5.000000000000000000e+00,5.000000000000000000e+00,5.000000000000000000e+00,5.000000000000000000e+00,5.000000000000000000e+00,5.000000000000000000e+00,5.000000000000000000e+00,5.000000000000000000e+00,5.000000000000000000e+00,5.000000000000000000e+00,5.000000000000000000e+00,5.000000000000000000e+00,5.000000000000000000e+00,4.873922348022460938e+00,4.680654525756835938e+00,4.502129077911376953e+00,4.336721897125244141e+00,4.183038234710693359e+00,4.039874076843261719e+00,3.906185150146484375e+00,3.781060934066772461e+00,3.663703918457031250e+00,3.553413152694702148e+00,3.449568033218383789e+00,3.351620197296142578e+00,3.259081363677978516e+00,3.171514987945556641e+00,3.088531017303466797e+00,3.009779453277587891e+00,2.934943675994873047e+00,2.863739013671875000e+00,2.795907497406005859e+00,2.731215000152587891e+00,2.669448852539062500e+00,2.610414266586303711e+00,2.553934335708618164e+00,2.499846696853637695e+00,2.448002576828002930e+00,2.398265123367309570e+00,2.350508451461791992e+00,2.304616689682006836e+00,2.260482549667358398e+00,2.218006849288940430e+00,2.177098274230957031e+00,2.137671232223510742e+00,2.099646806716918945e+00,2.062951564788818359e+00,2.027516841888427734e+00,1.993278980255126953e+00,1.960178375244140625e+00,1.928158998489379883e+00,1.897168874740600586e+00,1.867159128189086914e+00
5.000000000000000000e+00,5.000000000000000000e+00,5.000000000000000000e+00,5.000000000000000000e+00,5.000000000000000000e+00,1.873754978179931641e+00,1.878517746925354004e+00,1.893563985824584961e+00,1.926486849784851074e+00,1.962299108505249023e+00,5.000000000000000000e+00,5.000000000000000000e+00,5.000000000000000000e+00,5.000000000000000000e+00,5.000000000000000000e+00,5.000000000000000000e+00,5.000000000000000000e+00,5.000000000000000000e+00,5.000000000000000000e+00,5.000000000000000000e+00,5.000000000000000000e+00,5.000000000000000000e+00,5.000000000000000000e+00,5.000000000000000000e+00,5.000000000000000000e+00,5.000000000000000000e+00,5.000000000000000000e+00,5.000000000000000000e+00,5.000000000000000000e+00,5.000000000000000000e+00,5.000000000000000000e+00,5.000000000000000000e+00,5.000000000000000000e+00,5.000000000000000000e+00,5.000000000000000000e+00,5.000000000000000000e+00,5.000000000000000000e+00,5.000000000000000000e+00,5.000000000000000000e+00,5.000000000000000000e+00,4.874064445495605469e+00,4.680785179138183594e+00,4.502250194549560547e+00,4.336834430694580078e+00,4.183143138885498047e+00,4.039971351623535156e+00,3.906276226043701172e+00,3.781146526336669922e+00,3.663784265518188477e+00,3.553488254547119141e+00,3.449639081954956055e+00,3.351687192916870117e+00,3.259145021438598633e+00,3.171575307846069336e+00,3.088588237762451172e+00,3.009833335876464844e+00,2.934994935989379883e+00,2.863787889480590820e+00,2.795954227447509766e+00,2.731259584426879883e+00,2.669491291046142578e+00,2.610454797744750977e+00,2.553973197937011719e+00,2.499884128570556641e+00,2.448038339614868164e+00,2.398299455642700195e+00,2.350541353225708008e+00,2.304648160934448242e+00,2.260513067245483398e+00,2.218036413192749023e+00,2.177126646041870117e+00,2.137698650360107422e+00,2.099673271179199219e+00,2.062977075576782227e+00,2.027541637420654297e+00,1.993302941322326660e+00,1.960201263427734375e+00,1.928181171417236328e+00,1.897190213203430176e+00,1.867179870605468750e+00
5.000000000000000000e+00,5.000000000000000000e+00,5.000000000000000000e+00,5.000000000000000000e+00,5.000000000000000000e+00,1.902312159538269043e+00,1.887221813201904297e+00,1.900090456008911133e+00,1.934157252311706543e+00,1.967605352401733398e+00,5.000000000000000000e+00,5.000000000000000000e+00,5.000000000000000000e+00,5.000000000000000000e+00,5.000000000000000000e+00,5.000000000000000000e+00,5.000000000000000000e+00,5.000000000000000000e+00,5.000000000000000000e+00,5.000000000000000000e+00,5.000000000000000000e+00,5.000000000000000000e+00,5.000000000000000000e+00,5.000000000000000000e+00,5.000000000000000000e+00,5.000000000000000000e+00,5.000000000000000000e+00,5.000000000000000000e+00,5.000000000000000000e+00,5.000000000000000000e+00,5.000000000000000000e+00,5.000000000000000000e+00,5.000000000000000000e+00,5.000000000000000000e+00,5.000000000000000000e+00,5.000000000000000000e+00,5.000000000000000000e+00,5.000000000000000000e+00,5.000000000000000000e+00,5.000000000000000000e+00,4.874206066131591797e+00,4.680915832519531250e+00,4.502371788024902344e+00,4.336946964263916016e+00,4.183247089385986328e+00,4.040069103240966797e+00,3.906367540359497070e+00,3.781231880187988281e+00,3.663864374160766602e+00,3.553563594818115234e+00,3.449710369110107422e+00,3.351754665374755859e+00,3.259208202362060547e+00,3.171635150909423828e+00,3.088644981384277344e+00,3.009887695312500000e+00,2.935046672821044922e+00,2.863837003707885742e+00,2.796000957489013672e+00,2.731304168701171875e+00,2.669533729553222656e+00,2.610495805740356445e+00,2.554012298583984375e+00,2.499921321868896484e+00,2.448074102401733398e+00,2.398333549499511719e+00,2.350574493408203125e+00,2.304680109024047852e+00,2.260543584823608398e+00,2.218065738677978516e+00,2.177154779434204102e+00,2.137726068496704102e+00,2.099699497222900391e+00,2.063002586364746094e+00,2.027565956115722656e+00,1.993326544761657715e+00,1.960224151611328125e+00,1.928203344345092773e+00,1.897211670875549316e+00,1.867200613021850586e+00
5.000000000000000000e+00,5.000000000000000000e+00,5.000000000000000000e+00,5.000000000000000000e+00,5.000000000000000000e+00,1.925148725509643555e+00,1.895665526390075684e+00,1.910468697547912598e+00,1.941226363182067871e+00,1.976176977157592773e+00,2.011034965515136719e+00,5.000000000000000000e+00,5.000000000000000000e+00,5.000000000000000000e+00,5.000000000000000000e+00,5.000000000000000000e+00,5.000000000000000000e+00,5.000000000000000000e+00,5.000000000000000000e+00,5.000000000000000000e+00,5.000000000000000000e+00,5.000000000000000000e+00,5.000000000000000000e+00,5.000000000000000000e+00,5.000000000000000000e+00,5.000000000000000000e+00,5.000000000000000000e+00,5.000000000000000000e+00,5.000000000000000000e+00,5.000000000000000000e+00,5.000000000000000000e+00,5.000000000000000000e+00,5.000000000000000000e+00,5.000000000000000000e+00,5.000000000000000000e+00,5.000000000000000000e+00,5.000000000000000000e+00,5.000000000000000000e+00,5.000000000000000000e+00,5.000000000000000000e+00,4.874348163604736328e+00,4.681046962738037109e+00,4.502492904663085938e+00,4.337059020996093750e+00,4.183351993560791016e+00,4.040166378021240234e+00,3.906458616256713867e+00,3.781316995620727539e+00,3.663944721221923828e+00,3.553639173507690430e+00,3.449781179428100586e+00,3.351821422576904297e+00,3.259271621704101562e+00,3.171695470809936523e+00,3.088702201843261719e+00,3.009941577911376953e+00,2.935097932815551758e+00,2.863885879516601562e+00,2.796047687530517578e+00,2.731348752975463867e+00,2.669576406478881836e+00,2.610536336898803711e+00,2.554051160812377930e+00,2.499958515167236328e+00,2.448110103607177734e+00,2.398368120193481445e+00,2.350607395172119141e+00,2.304711818695068359e+00,2.260574102401733398e+00,2.218095302581787109e+00,2.177183151245117188e+00,2.137753248214721680e+00,2.099725961685180664e+00,2.063027858734130859e+00,2.027590751647949219e+00,1.993350267410278320e+00,1.960247159004211426e+00,1.928225398063659668e+00,1.897233128547668457e+00,1.867221474647521973e+00
5.000000000000000000e+00,5.000000000000000000e+00,5.000000000000000000e+00,5.000000000000000000e+00,5.000000000000000000e+00,5.000000000000000000e+00,1.912605404853820801e+00,1.923440337181091309e+00,1.946245789527893066e+00,1.974199056625366211e+00,2.006484031677246094e+00,2.046343564987182617e+00,5.000000000000000000e+00,5.000000000000000000e+00,5.000000000000000000e+00,5.000000000000000000e+00,5.000000000000000000e+00,5.000000000000000000e+00,5.000000000000000000e+00,5.000000000000000000e+00,5.000000000000000000e+00,5.000000000000000000e+00,5.000000000000000000e+00,5.000000000000000000e+00,5.000000000000000000e+00,5.000000000000000000e+00,5.000000000000000000e+00,5.000000000000000000e+00,5.000000000000000000e+00,5.000000000000000000e+00,5.000000000000000000e+00,5.000000000000000000e+00,5.000000000000000000e+00,5.000000000000000000e+00,5.000000000000000000e+00,5.000000000000000000e+00,5.000000000000000000e+00,5.000000000000000000e+00,5.000000000000000000e+00,5.000000000000000000e+00,4.874490261077880859e+00,4.681177616119384766e+00,4.502613544464111328e+00,4.337171554565429688e+00,4.183456420898437500e+00,4.040263652801513672e+00,3.906549930572509766e+00,3.781402826309204102e+00,3.664024829864501953e+00,3.553714513778686523e+00,3.449852228164672852e+00,3.351888895034790039e+00,3.259335279464721680e+00,3.171755313873291016e+00,3.088759183883666992e+00,3.009995698928833008e+00,2.935149431228637695e+00,2.863934993743896484e+00,2.796094179153442383e+00,2.731393337249755859e+00,2.669618844985961914e+00,2.610576868057250977e+00,2.554090261459350586e+00,2.499995946884155273e+00,2.448145866394042969e+00,2.398402452468872070e+00,2.350640296936035156e+00,2.304743528366088867e+00,2.260604619979858398e+00,2.218124628067016602e+00,2.177211523056030273e+00,2.137780427932739258e+00,2.099752187728881836e+00,2.063053369522094727e+00,2.027615308761596680e+00,1.993373990058898926e+00,1.960270047187805176e+00,1.928247570991516113e+00,1.897254824638366699e+00,1.867242455482482910e+00
5.000000000000000000e+00,5.000000000000000000e+00,5.000000000000000000e+00,5.000000000000000000e+00,5.000000000000000000e+00,5.000000000000000000e+00,5.000000000000000000e+00,1.946233749389648438e+00,1.965657949447631836e+00,1.981754183769226074e+00,2.006645679473876953e+00,2.037004947662353516e+00,2.088747739791870117e+00,5.000000000000000000e+00,5.000000000000000000e+00,5.000000000000000000e+00,5.000000000000000000e+00,5.000000000000000000e+00,5.000000000000000000e+00,5.000000000000000000e+00,5.000000000000000000e+00,5.000000000000000000e+00,5.000000000000000000e+00,5.000000000000000000e+00,5.000000000000000000e+00,5.000000000000000000e+00,5.000000000000000000e+00,5.000000000000000000e+00,5.000000000000000000e+00,5.000000000000000000e+00,5.000000000000000000e+00,5.000000000000000000e+00,5.000000000000000000e+00,5.000000000000000000e+00,5.000000000000000000e+00,5.000000000000000000e+00,5.000000000000000000e+00,5.000000000000000000e+00,5.000000000000000000e+00,5.000000000000000000e+00,4.874631881713867188e+00,4.681308746337890625e+00,4.502734661102294922e+00,4.337284088134765625e+00,4.183560848236083984e+00,4.040361404418945312e+00,3.906641006469726562e+00,3.781487941741943359e+00,3.664104700088500977e+00,3.553790092468261719e+00,3.449923515319824219e+00,3.351955890655517578e+00,3.259398460388183594e+00,3.171815395355224609e+00,3.088816165924072266e+00,3.010050058364868164e+00,2.935200929641723633e+00,2.863983869552612305e+00,2.796140909194946289e+00,2.731437921524047852e+00,2.669661521911621094e+00,2.610617876052856445e+00,2.554129123687744141e+00,2.500033378601074219e+00,2.448181390762329102e+00,2.398436784744262695e+00,2.350673437118530273e+00,2.304775238037109375e+00,2.260635137557983398e+00,2.218153953552246094e+00,2.177239894866943359e+00,2.137807846069335938e+00,2.099778652191162109e+00,2.063078641891479492e+00,2.027639627456665039e+00,1.993397831916809082e+00,1.960293173789978027e+00,1.928269982337951660e+00,1.897276282310485840e+00,1.867263197898864746e+00
5.000000000000000000e+00,5.000000000000000000e+00,5.000000000000000000e+00,5.000000000000000000e+00,5.000000000000000000e+00,5.000000000000000000e+00,5.000000000000000000e+00,5.000000000000000000e+00,5.000000000000000000e+00,2.007036685943603516e+00,2.019933938980102539e+00,2.045615196228027344e+00,2.081195116043090820e+00,5.000000000000000000e+00,5.000000000000000000e+00,5.000000000000000000e+00,5.000000000000000000e+00,5.000000000000000000e+00,5.000000000000000000e+00,5.000000000000000000e+00,5.000000000000000000e+00,5.000000000000000000e+00,5.000000000000000000e+00,5.000000000000000000e+00,5.000000000000000000e+00,5.000000000000000000e+00,5.000000000000000000e+00,5.000000000000000000e+00,5.000000000000000000e+00,5.000000000000000000e+00,5.000000000000000000e+00,5.000000000000000000e+00,5.000000000000000000e+00,5.000000000000000000e+00,5.000000000000000000e+00,5.000000000000000000e+00,5.000000000000000000e+00,5.000000000000000000e+00,5.000000000000000000e+00,5.000000000000000000e+00,4.874772548675537109e+00,4.681439876556396484e+00,4.502855777740478516e+00,4.337396144866943359e+00,4.183665275573730469e+00,4.040459156036376953e+00,3.906732320785522461e+00,3.781573534011840820e+00,3.664185285568237305e+00,3.553865432739257812e+00,3.449994325637817383e+00,3.352022647857666016e+00,3.259462118148803711e+00,3.171875715255737305e+00,3.088873147964477539e+00,3.010103940963745117e+00,2.935252189636230469e+00,2.864032983779907227e+00,2.796187639236450195e+00,2.731482505798339844e+00,2.669704198837280273e+00,2.610658407211303711e+00,2.554168224334716797e+00,2.500070810317993164e+00,2.448217391967773438e+00,2.398471117019653320e+00,2.350706338882446289e+00,2.304806947708129883e+00,2.260665655136108398e+00,2.218183279037475586e+00,2.177268028259277344e+00,2.137835025787353516e+00,2.099804878234863281e+00,2.063104152679443359e+00,2.027664422988891602e+00,1.993421554565429688e+00,1.960316061973571777e+00,1.928292155265808105e+00,1.897297739982604980e+00,1.867283940315246582e+00
5.000000000000000000e+00,5.000000000000000000e+00,5.000000000000000000e+00,5.000000000000000000e+00,5.000000000000000000e+00,5.000000000000000000e+00,5.000000000000000000e+00,5.000000000000000000e+00,5.000000000000000000e+00,5.000000000000000000e+00,2.039095401763916016e+00,2.058637142181396484e+00,2.085082530975341797e+00,2.138747930526733398e+00,5.000000000000000000e+00,5.000000000000000000e+00,5.000000000000000000e+00,5.000000000000000000e+00,5.000000000000000000e+00,5.000000000000000000e+00,5.000000000000000000e+00,5.000000000000000000e+00,5.000000000000000000e+00,5.000000000000000000e+00,5.000000000000000000e+00,5.000000000000000000e+00,5.000000000000000000e+00,5.000000000000000000e+00,5.000000000000000000e+00,5.000000000000000000e+00,5.000000000000000000e+00,5.000000000000000000e+00,5.000000000000000000e+00,5.000000000000000000e+00,5.000000000000000000e+00,5.000000000000000000e+00,5.000000000000000000e+00,5.000000000000000000e+00,5.000000000000000000e+00,5.000000000000000000e+00,4.874912261962890625e+00,4.681569576263427734e+00,4.502976894378662109e+00,4.337508678436279297e+00,4.183770179748535156e+00,4.040556430816650391e+00,3.906823396682739258e+00,3.781658887863159180e+00,3.664265155792236328e+00,3.553941249847412109e+00,3.450065612792968750e+00,3.352090120315551758e+00,3.259525537490844727e+00,3.171935558319091797e+00,3.088929891586303711e+00,3.010158300399780273e+00,2.935303926467895508e+00,2.864081859588623047e+00,2.796234369277954102e+00,2.731526851654052734e+00,2.669746875762939453e+00,2.610699176788330078e+00,2.554207086563110352e+00,2.500108003616333008e+00,2.448253154754638672e+00,2.398505687713623047e+00,2.350739479064941406e+00,2.304838657379150391e+00,2.260696172714233398e+00,2.218212604522705078e+00,2.177296400070190430e+00,2.137862443923950195e+00,2.099831342697143555e+00,2.063129663467407227e+00,2.027688741683959961e+00,1.993445277214050293e+00,1.960338950157165527e+00,1.928314328193664551e+00,1.897319197654724121e+00,1.867304801940917969e+00
5.000000000000000000e+00,5.000000000000000000e+00,5.000000000000000000e+00,5.000000000000000000e+00,5.000000000000000000e+00,5.000000000000000000e+00,5.000000000000000000e+00,5.000000000000000000e+00,5.000000000000000000e+00,5.000000000000000000e+00,2.057664394378662109e+00,2.072343826293945312e+00,2.098719596862792969e+00,2.134251594543457031e+00,5.000000000000000000e+00,5.000000000000000000e+00,5.000000000000000000e+00,5.000000000000000000e+00,5.000000000000000000e+00,5.000000000000000000e+00,5.000000000000000000e+00,5.000000000000000000e+00,5.000000000000000000e+00,5.000000000000000000e+00,5.000000000000000000e+00,5.000000000000000000e+00,5.000000000000000000e+00,5.000000000000000000e+00,5.000000000000000000e+00,5.000000000000000000e+00,5.000000000000000000e+00,5.000000000000000000e+00,5.000000000000000000e+00,5.000000000000000000e+00,5.000000000000000000e+00,5.000000000000000000e+00,5.000000000000000000e+00,5.000000000000000000e+00,5.000000000000000000e+00,5.000000000000000000e+00,4.875051975250244141e+00,4.681698799133300781e+00,4.503098011016845703e+00,4.337620735168457031e+00,4.183874607086181641e+00,4.040654182434082031e+00,3.906914234161376953e+00,3.781744480133056641e+00,3.664345741271972656e+00,3.554016351699829102e+00,3.450136661529541016e+00,3.352157115936279297e+00,3.259588718414306641e+00,3.171995878219604492e+00,3.088987112045288086e+00,3.010212182998657227e+00,2.935355186462402344e+00,2.864130735397338867e+00,2.796281099319458008e+00,2.731571674346923828e+00,2.669789314270019531e+00,2.610739946365356445e+00,2.554245948791503906e+00,2.500145435333251953e+00,2.448288917541503906e+00,2.398540019989013672e+00,2.350772380828857422e+00,2.304870367050170898e+00,2.260726690292358398e+00,2.218242168426513672e+00,2.177324771881103516e+00,2.137889623641967773e+00,2.099857568740844727e+00,2.063154935836791992e+00,2.027713537216186523e+00,1.993468880653381348e+00,1.960361838340759277e+00,1.928336501121520996e+00,1.897340655326843262e+00,1.867325782775878906e+00
5.000000000000000000e+00,5.000000000000000000e+00,5.000000000000000000e+00,5.000000000000000000e+00,5.000000000000000000e+00,5.000000000000000000e+00,5.000000000000000000e+00,5.000000000000000000e+00,5.000000000000000000e+00,5.000000000000000000e+00,5.000000000000000000e+00,2.089402198791503906e+00,2.112967252731323242e+00,2.140733480453491211e+00,2.196125984191894531e+00,5.000000000000000000e+00,5.000000000000000000e+00,5.000000000000000000e+00,5.000000000000000000e+00,5.000000000000000000e+00,5.000000000000000000e+00,5.000000000000000000e+00,5.000000000000000000e+00,5.000000000000000000e+00,5.000000000000000000e+00,5.000000000000000000e+00,5.000000000000000000e+00,5.000000000000000000e+00,5.000000000000000000e+00,5.000000000000000000e+00,5.000000000000000000e+00,5.000000000000000000e+00,5.000000000000000000e+00,5.000000000000000000e+00,5.000000000000000000e+00,5.000000000000000000e+00,5.000000000000000000e+00,5.000000000000000000e+00,5.000000000000000000e+00,5.000000000000000000e+00,4.875192165374755859e+00,4.681827545166015625e+00,4.503217220306396484e+00,4.337733268737792969e+00,4.183979034423828125e+00,4.040751457214355469e+00,3.907005786895751953e+00,3.781829833984375000e+00,3.664425611495971680e+00,3.554091691970825195e+00,3.450207948684692383e+00,3.352224349975585938e+00,3.259652376174926758e+00,3.172055959701538086e+00,3.089044094085693359e+00,3.010266304016113281e+00,2.935406923294067383e+00,2.864179849624633789e+00,2.796327829360961914e+00,2.731616020202636719e+00,2.669831752777099609e+00,2.610780715942382812e+00,2.554285049438476562e+00,2.500182628631591797e+00,2.448324680328369141e+00,2.398574113845825195e+00,2.350805521011352539e+00,2.304902076721191406e+00,2.260757207870483398e+00,2.218271493911743164e+00,2.177353143692016602e+00,2.137917041778564453e+00,2.099884033203125000e+00,2.063180446624755859e+00,2.027738094329833984e+00,1.993492603302001953e+00,1.960384726524353027e+00,1.928358912467956543e+00,1.897362351417541504e+00,1.867346525192260742e+00
5.000000000000000000e+00,5.000000000000000000e+00,5.000000000000000000e+00,5.000000000000000000e+00,5.000000000000000000e+00,5.000000000000000000e+00,5.000000000000000000e+00,5.000000000000000000e+00,5.000000000000000000e+00,5.000000000000000000e+00,5.000000000000000000e+00,2.111614704132080078e+00,2.128601789474487305e+00,2.156610965728759766e+00,2.195024490356445312e+00,5.000000000000000000e+00,5.000000000000000000e+00,5.000000000000000000e+00,5.000000000000000000e+00,5.000000000000000000e+00,5.000000000000000000e+00,5.000000000000000000e+00,5.000000000000000000e+00,5.000000000000000000e+00,5.000000000000000000e+00,5.000000000000000000e+00,5.000000000000000000e+00,5.000000000000000000e+00,5.000000000000000000e+00,5.000000000000000000e+00,5.000000000000000000e+00,5.000000000000000000e+00,5.000000000000000000e+00,5.000000000000000000e+00,5.000000000000000000e+00,5.000000000000000000e+00,5.000000000000000000e+00,5.000000000000000000e+00,5.000000000000000000e+00,5.000000000000000000e+00,4.875331401824951172e+00,4.681956768035888672e+00,4.503336429595947266e+00,4.337844371795654297e+00,4.184083461761474609e+00,4.040849208831787109e+00,3.907096624374389648e+00,3.781914949417114258e+00,3.664506196975708008e+00,3.554167270660400391e+00,3.450278997421264648e+00,3.352291345596313477e+00,3.259715795516967773e+00,3.172116041183471680e+00,3.089101076126098633e+00,3.010320425033569336e+00,2.935458183288574219e+00,2.864228725433349609e+00,2.796374320983886719e+00,2.731660842895507812e+00,2.669874429702758789e+00,2.610821247100830078e+00,2.554323911666870117e+00,2.500219821929931641e+00,2.448360681533813477e+00,2.398608684539794922e+00,2.350838422775268555e+00,2.304933786392211914e+00,2.260787725448608398e+00,2.218301057815551758e+00,2.177381515502929688e+00,2.137944221496582031e+00,2.099910259246826172e+00,2.063205718994140625e+00,2.027762413024902344e+00,1.993516564369201660e+00,1.960407853126525879e+00,1.928381085395812988e+00,1.897383809089660645e+00,1.867367267608642578e+00
5.000000000000000000e+00,5.000000000000000000e+00,5.000000000000000000e+00,5.000000000000000000e+00,5.000000000000000000e+00,5.000000000000000000e+00,5.000000000000000000e+00,5.000000000000000000e+00,5.000000000000000000e+00,5.000000000000000000e+00,5.000000000000000000e+00,5.000000000000000000e+00,2.157477378845214844e+00,2.173069953918457031e+00,2.202121019363403320e+00,5.000000000000000000e+00,5.000000000000000000e+00,5.000000000000000000e+00,5.000000000000000000e+00,5.000000000000000000e+00,5.000000000000000000e+00,5.000000000000000000e+00,5.000000000000000000e+00,5.000000000000000000e+00,5.000000000000000000e+00,5.000000000000000000e+00,5.000000000000000000e+00,5.000000000000000000e+00,5.000000000000000000e+00,5.000000000000000000e+00,5.000000000000000000e+00,5.000000000000000000e+00,5.000000000000000000e+00,5.000000000000000000e+00,5.000000000000000000e+00,5.000000000000000000e+00,5.000000000000000000e+00,5.000000000000000000e+00,5.000000000000000000e+00,5.000000000000000000e+00,4.875471591949462891e+00,4.682085990905761719e+00,4.503456115722656250e+00,4.337954998016357422e+00,4.184187889099121094e+00,4.040946483612060547e+00,3.907188177108764648e+00,3.782000780105590820e+00,3.664586305618286133e+00,3.554242610931396484e+00,3.450349807739257812e+00,3.352358579635620117e+00,3.259779453277587891e+00,3.172176122665405273e+00,3.089158058166503906e+00,3.010374546051025391e+00,2.935509443283081055e+00,2.864278078079223633e+00,2.796421289443969727e+00,2.731705188751220703e+00,2.669916868209838867e+00,2.610862016677856445e+00,2.554363012313842773e+00,2.500257253646850586e+00,2.448396444320678711e+00,2.398643016815185547e+00,2.350871324539184570e+00,2.304965734481811523e+00,2.260818243026733398e+00,2.218330383300781250e+00,2.177409648895263672e+00,2.137971639633178711e+00,2.099936485290527344e+00,2.063231229782104492e+00,2.027787208557128906e+00,1.993540167808532715e+00,1.960430860519409180e+00,1.928403258323669434e+00,1.897405266761779785e+00,1.867388129234313965e+00
4.872439384460449219e+00,4.871220588684082031e+00,4.870001792907714844e+00,4.868784427642822266e+00,4.867567062377929688e+00,4.866350650787353516e+00,4.865134716033935547e+00,4.863919258117675781e+00,4.862704753875732422e+00,4.861490726470947266e+00,4.860277175903320312e+00,4.859064579010009766e+00,4.857851982116699219e+00,2.206282138824462891e+00,2.225961446762084961e+00,2.274280309677124023e+00,4.853009223937988281e+00,4.851799964904785156e+00,4.850591182708740234e+00,4.849382877349853516e+00,4.848176002502441406e+00,4.846968650817871094e+00,4.845762729644775391e+00,4.844556808471679688e+00,4.843351840972900391e+00,4.842147350311279297e+00,4.840943813323974609e+00,4.839740276336669922e+00,4.838537693023681641e+00,4.837335586547851562e+00,4.836134433746337891e+00,4.834933280944824219e+00,4.833733081817626953e+00,4.832533359527587891e+00,4.831334590911865234e+00,4.830135822296142578e+00,4.828938007354736328e+00,4.827740669250488281e+00,4.826543807983398438e+00,4.825347900390625000e+00,4.824152469635009766e+00,4.682214736938476562e+00,4.503575325012207031e+00,4.338066101074218750e+00,4.184290409088134766e+00,4.041044235229492188e+00,3.907279253005981445e+00,3.782085895538330078e+00,3.664666175842285156e+00,3.554318428039550781e+00,3.450421094894409180e+00,3.352425575256347656e+00,3.259842872619628906e+00,3.172236204147338867e+00,3.089215278625488281e+00,3.010428905487060547e+00,2.935561180114746094e+00,2.864326953887939453e+00,2.796467781066894531e+00,2.731749773025512695e+00,2.669959783554077148e+00,2.610902786254882812e+00,2.554401874542236328e+00,2.500294685363769531e+00,2.448432207107543945e+00,2.398677349090576172e+00,2.350904464721679688e+00,2.304997444152832031e+00,2.260848760604858398e+00,2.218359708786010742e+00,2.177438020706176758e+00,2.137998819351196289e+00,2.099962949752807617e+00,2.063256740570068359e+00,2.027811527252197266e+00,1.993563890457153320e+00,1.960453748703002930e+00,1.928425431251525879e+00,1.897426724433898926e+00,1.867408871650695801e+00
3.776938915252685547e+00,3.776206493377685547e+00,3.775474548339843750e+00,3.774742603302001953e+00,3.774010658264160156e+00,3.773279428482055664e+00,3.772548437118530273e+00,3.771817445755004883e+00,3.771087169647216797e+00,3.770356893539428711e+00,3.769627094268798828e+00,3.768897294998168945e+00,3.768167972564697266e+00,2.210919380187988281e+00,2.230062484741210938e+00,2.270576953887939453e+00,3.765253305435180664e+00,3.764525413513183594e+00,3.763797998428344727e+00,3.763070106506347656e+00,3.762343168258666992e+00,3.761616468429565430e+00,3.760890007019042969e+00,3.760163545608520508e+00,3.759437561035156250e+00,3.758712053298950195e+00,3.757986783981323242e+00,3.757261276245117188e+00,3.756536483764648438e+00,3.755811929702758789e+00,3.755087375640869141e+00,3.754363536834716797e+00,3.753639698028564453e+00,3.752916336059570312e+00,3.752192974090576172e+00,3.751470088958740234e+00,3.750747680664062500e+00,3.750025272369384766e+00,3.749302864074707031e+00,3.748581171035766602e+00,3.747859716415405273e+00,3.747138738632202148e+00,3.746417284011840820e+00,3.745696783065795898e+00,3.744976520538330078e+00,3.744256496429443359e+00,3.743536233901977539e+00,3.742816925048828125e+00,3.664746761322021484e+00,3.554393529891967773e+00,3.450492143630981445e+00,3.352492570877075195e+00,3.259906530380249023e+00,3.172296285629272461e+00,3.089272022247314453e+00,3.010482788085937500e+00,2.935612440109252930e+00,2.864376068115234375e+00,2.796514749526977539e+00,2.731794357299804688e+00,2.670002222061157227e+00,2.610943317413330078e+00,2.554440736770629883e+00,2.500332117080688477e+00,2.448467969894409180e+00,2.398711681365966797e+00,2.350937366485595703e+00,2.305028915405273438e+00,2.260879516601562500e+00,2.218389034271240234e+00,2.177466392517089844e+00,2.138026237487792969e+00,2.099989175796508789e+00,2.063282251358032227e+00,2.027836322784423828e+00,1.993587613105773926e+00,1.960476636886596680e+00,1.928447484970092773e+00,1.897448182106018066e+00,1.867429852485656738e+00
3.083628177642822266e+00,3.083139896392822266e+00,3.082651853561401367e+00,3.082163810729980469e+00,3.081676006317138672e+00,3.081188440322875977e+00,3.080701112747192383e+00,3.080213546752929688e+00,3.079726457595825195e+00,3.079239368438720703e+00,3.078752756118774414e+00,3.078265666961669922e+00,2.197191715240478516e+00,2.201416492462158203e+00,2.219784498214721680e+00,3.076320409774780273e+00,3.075834512710571289e+00,3.075348854064941406e+00,3.074862957000732422e+00,3.074377536773681641e+00,3.073892116546630859e+00,3.073407173156738281e+00,3.072921752929687500e+00,3.072437047958374023e+00,3.071952342987060547e+00,3.071467876434326172e+00,3.070983171463012695e+00,3.070498943328857422e+00,3.070014953613281250e+00,3.069531202316284180e+00,3.069046974182128906e+00,3.068563461303710938e+00,3.068079948425292969e+00,3.067596673965454102e+00,3.067113399505615234e+00,3.066630363464355469e+00,3.066147565841674805e+00,3.065665006637573242e+00,3.065182209014892578e+00,3.064699888229370117e+00,3.064217567443847656e+00,3.063735246658325195e+00,3.063253402709960938e+00,3.062771558761596680e+00,3.062289953231811523e+00,3.061808109283447266e+00,3.061326980590820312e+00,3.060845851898193359e+00,3.060364723205566406e+00,3.059883594512939453e+00,3.059402942657470703e+00,3.058922290802001953e+00,3.058441877365112305e+00,3.057961463928222656e+00,3.057481288909912109e+00,3.010537147521972656e+00,2.935664176940917969e+00,2.864424943923950195e+00,2.796561241149902344e+00,2.731838941574096680e+00,2.670044660568237305e+00,2.610984325408935547e+00,2.554479837417602539e+00,2.500369310379028320e+00,2.448503732681274414e+00,2.398746013641357422e+00,2.350970506668090820e+00,2.305060863494873047e+00,2.260909795761108398e+00,2.218418359756469727e+00,2.177494525909423828e+00,2.138053655624389648e+00,2.100015640258789062e+00,2.063307523727416992e+00,2.027860879898071289e+00,1.993611335754394531e+00,1.960499525070190430e+00,1.928469896316528320e+00,1.897469878196716309e+00,1.867450714111328125e+00
2.605374574661254883e+00,2.605026006698608398e+00,2.604677677154541016e+00,2.604329109191894531e+00,2.603981018066406250e+00,2.603632688522338867e+00,2.603284597396850586e+00,2.602936506271362305e+00,2.602588653564453125e+00,2.602241039276123047e+00,2.601893186569213867e+00,2.178098678588867188e+00,2.177875280380249023e+00,2.181882143020629883e+00,2.600503206253051758e+00,2.600155830383300781e+00,2.599808692932128906e+00,2.599461793899536133e+00,2.599114656448364258e+00,2.598767757415771484e+00,2.598421096801757812e+00,2.598074436187744141e+00,2.597727537155151367e+00,2.597381114959716797e+00,2.597034692764282227e+00,2.596688508987426758e+00,2.596342086791992188e+00,2.595995903015136719e+00,2.595649957656860352e+00,2.595303773880004883e+00,2.594958066940307617e+00,2.594612360000610352e+00,2.594266653060913086e+00,2.593920946121215820e+00,2.593575477600097656e+00,2.593230009078979492e+00,2.592884778976440430e+00,2.592539548873901367e+00,2.592194318771362305e+00,2.591849327087402344e+00,2.591504335403442383e+00,2.591159343719482422e+00,2.590814828872680664e+00,2.590470075607299805e+00,2.590125560760498047e+00,2.589780807495117188e+00,2.589436531066894531e+00,2.589092254638671875e+00,2.588748216629028320e+00,2.588403940200805664e+00,2.588059902191162109e+00,2.587715864181518555e+00,2.587372064590454102e+00,2.587028264999389648e+00,2.586684703826904297e+00,2.586341142654418945e+00,2.585997581481933594e+00,2.585654258728027344e+00,2.585310935974121094e+00,2.584967851638793945e+00,2.584624528884887695e+00,2.584281444549560547e+00,2.554518938064575195e+00,2.500406503677368164e+00,2.448539733886718750e+00,2.398780584335327148e+00,2.351003408432006836e+00,2.305092573165893555e+00,2.260940313339233398e+00,2.218447923660278320e+00,2.177523136138916016e+00,2.138080835342407227e+00,2.100041866302490234e+00,2.063333034515380859e+00,2.027885437011718750e+00,1.993635177612304688e+00,1.960522651672363281e+00,1.928492069244384766e+00,1.897491335868835449e+00,1.867471456527709961e+00
2.255537033081054688e+00,2.255277633666992188e+00,2.255017995834350586e+00,2.254758596420288086e+00,2.254499197006225586e+00,2.254239797592163086e+00,2.253980398178100586e+00,2.253721237182617188e+00,2.253462076187133789e+00,2.253202199935913086e+00,2.252941370010375977e+00,2.252680778503417969e+00,2.156334161758422852e+00,2.252159833908081055e+00,2.251899242401123047e+00,2.251638889312744141e+00,2.251378536224365234e+00,2.251118183135986328e+00,2.250857830047607422e+00,2.250597715377807617e+00,2.250337839126586914e+00,2.250077486038208008e+00,2.249817609786987305e+00,2.249557733535766602e+00,2.249297857284545898e+00,2.249037981033325195e+00,2.248778343200683594e+00,2.248518705368041992e+00,2.248259067535400391e+00,2.247999429702758789e+00,2.247740030288696289e+00,2.247480630874633789e+00,2.247221231460571289e+00,2.246961832046508789e+00,2.246702671051025391e+00,2.246443510055541992e+00,2.246184349060058594e+00,2.245925188064575195e+00,2.245666027069091797e+00,2.245407104492187500e+00,2.245148181915283203e+00,2.244889259338378906e+00,2.244630575180053711e+00,2.244371891021728516e+00,2.244113206863403320e+00,2.243854522705078125e+00,2.243596076965332031e+00,2.243337631225585938e+00,2.243078947067260742e+00,2.242820739746093750e+00,2.242562532424926758e+00,2.242304325103759766e+00,2.242045879364013672e+00,2.241787910461425781e+00,2.241529703140258789e+00,2.241271734237670898e+00,2.241013765335083008e+00,2.240756034851074219e+00,2.240498065948486328e+00,2.240240335464477539e+00,2.239982604980468750e+00,2.239724874496459961e+00,2.239467382431030273e+00,2.239209651947021484e+00,2.238952398300170898e+00,2.238694906234741211e+00,2.238437652587890625e+00,2.238180160522460938e+00,2.237922906875610352e+00,2.218477249145507812e+00,2.177551269531250000e+00,2.138108015060424805e+00,2.100068330764770508e+00,2.063358545303344727e+00,2.027909994125366211e+00,1.993658900260925293e+00,1.960545539855957031e+00,1.928514242172241211e+00,1.897512793540954590e+00,1.867492198944091797e+00
1.988440871238708496e+00,1.988239169120788574e+00,1.988037586212158203e+00,1.987835884094238281e+00,1.987634062767028809e+00,1.987432479858398438e+00,1.987231016159057617e+00,1.987029552459716797e+00,1.986828088760375977e+00,1.986626744270324707e+00,1.986425161361694336e+00,1.986223816871643066e+00,1.986022591590881348e+00,1.985821366310119629e+00,1.985620260238647461e+00,1.985418796539306641e+00,1.985217690467834473e+00,1.985016703605651855e+00,1.984815716743469238e+00,1.984614729881286621e+00,1.984413743019104004e+00,1.984212636947631836e+00,1.984011769294738770e+00,1.983810901641845703e+00,1.983610153198242188e+00,1.983409404754638672e+00,1.983208537101745605e+00,1.983007907867431641e+00,1.982807278633117676e+00,1.982606649398803711e+00,1.982406139373779297e+00,1.982205390930175781e+00,1.982005000114440918e+00,1.981804609298706055e+00,1.981604218482971191e+00,1.981403827667236328e+00,1.981203556060791016e+00,1.981003046035766602e+00,1.980802893638610840e+00,1.980602741241455078e+00,1.980402588844299316e+00,1.980202555656433105e+00,1.980002284049987793e+00,1.979802250862121582e+00,1.979602217674255371e+00,1.979402303695678711e+00,1.979202389717102051e+00,1.979002356529235840e+00,1.978802561759948730e+00,1.978602766990661621e+00,1.978403091430664062e+00,1.978203415870666504e+00,1.978003740310668945e+00,1.977803945541381836e+00,1.977604389190673828e+00,1.977404832839965820e+00,1.977205276489257812e+00,1.977005839347839355e+00,1.976806282997131348e+00,1.976606845855712891e+00,1.976407527923583984e+00,1.976208329200744629e+00,1.976009011268615723e+00,1.975809574127197266e+00,1.975610494613647461e+00,1.975411295890808105e+00,1.975212216377258301e+00,1.975013256072998047e+00,1.974814176559448242e+00,1.974614977836608887e+00,1.974416136741638184e+00,1.974217176437377930e+00,1.974018335342407227e+00,1.973819613456726074e+00,1.973620533943176270e+00,1.973421812057495117e+00,1.960568547248840332e+00,1.928536415100097656e+00,1.897534251213073730e+00,1.867513060569763184e+00
1.777905106544494629e+00,1.777743816375732422e+00,1.777582406997680664e+00,1.777421236038208008e+00,1.777260065078735352e+00,1.777098894119262695e+00,1.776937842369079590e+00,1.776776552200317383e+00,1.776615500450134277e+00,1.776454448699951172e+00,1.776293516159057617e+00,1.776132464408874512e+00,1.775971412658691406e+00,1.775810480117797852e+00,1.775649547576904297e+00,1.775488734245300293e+00,1.775327920913696289e+00,1.775167107582092285e+00,1.775006175041198730e+00,1.774845480918884277e+00,1.774684667587280273e+00,1.774524092674255371e+00,1.774363398551940918e+00,1.774202585220336914e+00,1.774042010307312012e+00,1.773881435394287109e+00,1.773720860481262207e+00,1.773560404777526855e+00,1.773399710655212402e+00,1.773239254951477051e+00,1.773078918457031250e+00,1.772918462753295898e+00,1.772758126258850098e+00,1.772597789764404297e+00,1.772437334060668945e+00,1.772276997566223145e+00,1.772116780281066895e+00,1.771956562995910645e+00,1.771796345710754395e+00,1.771636009216308594e+00,1.771475911140441895e+00,1.771315813064575195e+00,1.771155714988708496e+00,1.770995736122131348e+00,1.770835518836975098e+00,1.770675539970397949e+00,1.770515561103820801e+00,1.770355582237243652e+00,1.770195722579956055e+00,1.770035862922668457e+00,1.769875884056091309e+00,1.769716024398803711e+00,1.769556283950805664e+00,1.769396424293518066e+00,1.769236803054809570e+00,1.769076824188232422e+00,1.768917202949523926e+00,1.768757581710815430e+00,1.768597960472106934e+00,1.768438339233398438e+00,1.768278598785400391e+00,1.768119096755981445e+00,1.767959594726562500e+00,1.767800211906433105e+00,1.767640709877014160e+00,1.767481327056884766e+00,1.767321705818176270e+00,1.767162442207336426e+00,1.767003059387207031e+00,1.766843795776367188e+00,1.766684532165527344e+00,1.766525149345397949e+00,1.766365885734558105e+00,1.766206741333007812e+00,1.766047596931457520e+00,1.765888452529907227e+00,1.765729188919067383e+00,1.765570163726806641e+00,1.765411138534545898e+00,1.765252113342285156e+00
1.607683658599853516e+00,1.607551813125610352e+00,1.607419967651367188e+00,1.607288122177124023e+00,1.607156157493591309e+00,1.607024431228637695e+00,1.606892704963684082e+00,1.606760978698730469e+00,1.606629252433776855e+00,1.606497406959533691e+00,1.606365680694580078e+00,1.606234073638916016e+00,1.606102466583251953e+00,1.605970859527587891e+00,1.605839252471923828e+00,1.605707526206970215e+00,1.605576038360595703e+00,1.605444550514221191e+00,1.605313062667846680e+00,1.605181574821472168e+00,1.605049967765808105e+00,1.604918479919433594e+00,1.604787111282348633e+00,1.604655742645263672e+00,1.604524374008178711e+00,1.604392886161804199e+00,1.604261517524719238e+00,1.604130268096923828e+00,1.603998899459838867e+00,1.603867650032043457e+00,1.603736400604248047e+00,1.603605031967163086e+00,1.603473901748657227e+00,1.603342771530151367e+00,1.603211522102355957e+00,1.603080391883850098e+00,1.602949142456054688e+00,1.602818131446838379e+00,1.602687001228332520e+00,1.602555990219116211e+00,1.602424979209899902e+00,1.602293848991394043e+00,1.602162837982177734e+00,1.602031826972961426e+00,1.601900935173034668e+00,1.601770043373107910e+00,1.601639151573181152e+00,1.601508140563964844e+00,1.601377248764038086e+00,1.601246476173400879e+00,1.601115584373474121e+00,1.600984811782836914e+00,1.600853919982910156e+00,1.600723147392272949e+00,1.600592494010925293e+00,1.600461721420288086e+00,1.600331068038940430e+00,1.600200295448303223e+00,1.600069642066955566e+00,1.599938988685607910e+00,1.599808335304260254e+00,1.599677801132202148e+00,1.599547266960144043e+00,1.599416613578796387e+00,1.599286079406738281e+00,1.599155545234680176e+00,1.599025130271911621e+00,1.598894715309143066e+00,1.598764061927795410e+00,1.598633646965026855e+00,1.598503351211547852e+00,1.598372936248779297e+00,1.598242640495300293e+00,1.598112106323242188e+00,1.597981810569763184e+00,1.597851634025573730e+00,1.597721338272094727e+00,1.597591042518615723e+00,1.597460865974426270e+00,1.597330570220947266e+00
1.467209219932556152e+00,1.467099308967590332e+00,1.466989517211914062e+00,1.466879725456237793e+00,1.466769933700561523e+00,1.466660141944885254e+00,1.466550230979919434e+00,1.466440558433532715e+00,1.466330766677856445e+00,1.466221094131469727e+00,1.466111421585083008e+00,1.466001749038696289e+00,1.465891957283020020e+00,1.465782403945922852e+00,1.465672731399536133e+00,1.465563178062438965e+00,1.465453624725341797e+00,1.465343952178955078e+00,1.465234398841857910e+00,1.465124845504760742e+00,1.465015292167663574e+00,1.464905858039855957e+00,1.464796185493469238e+00,1.464686751365661621e+00,1.464577317237854004e+00,1.464467883110046387e+00,1.464358448982238770e+00,1.464249014854431152e+00,1.464139461517333984e+00,1.464030146598815918e+00,1.463920831680297852e+00,1.463811397552490234e+00,1.463702082633972168e+00,1.463592648506164551e+00,1.463483452796936035e+00,1.463374137878417969e+00,1.463264942169189453e+00,1.463155627250671387e+00,1.463046312332153320e+00,1.462937116622924805e+00,1.462827920913696289e+00,1.462718725204467773e+00,1.462609648704528809e+00,1.462500452995300293e+00,1.462391257286071777e+00,1.462282061576843262e+00,1.462172985076904297e+00,1.462063908576965332e+00,1.461954951286315918e+00,1.461845755577087402e+00,1.461736679077148438e+00,1.461627721786499023e+00,1.461518764495849609e+00,1.461409687995910645e+00,1.461300611495971680e+00,1.461191773414611816e+00,1.461082816123962402e+00,1.460973858833312988e+00,1.460865020751953125e+00,1.460756063461303711e+00,1.460647106170654297e+00,1.460538268089294434e+00,1.460429430007934570e+00,1.460320591926574707e+00,1.460211873054504395e+00,1.460102915763854980e+00,1.459994196891784668e+00,1.459885358810424805e+00,1.459776639938354492e+00,1.459667921066284180e+00,1.459559082984924316e+00,1.459450483322143555e+00,1.459341764450073242e+00,1.459233164787292480e+00,1.459124445915222168e+00,1.459015846252441406e+00,1.458907127380371094e+00,1.458798527717590332e+00,1.458689928054809570e+00,1.458581447601318359e+00
1.349310517311096191e+00,1.349217653274536133e+00,1.349124670028686523e+00,1.349031805992126465e+00,1.348938941955566406e+00,1.348846077919006348e+00,1.348753213882446289e+00,1.348660469055175781e+00,1.348567485809326172e+00,1.348474740982055664e+00,1.348381996154785156e+00,1.348289251327514648e+00,1.348196506500244141e+00,1.348103761672973633e+00,1.348010897636413574e+00,1.347918272018432617e+00,1.347825527191162109e+00,1.347732901573181152e+00,1.347640156745910645e+00,1.347547411918640137e+00,1.347454786300659180e+00,1.347362160682678223e+00,1.347269535064697266e+00,1.347176909446716309e+00,1.347084403038024902e+00,1.346991658210754395e+00,1.346899151802062988e+00,1.346806526184082031e+00,1.346714019775390625e+00,1.346621513366699219e+00,1.346528887748718262e+00,1.346436381340026855e+00,1.346343874931335449e+00,1.346251368522644043e+00,1.346158981323242188e+00,1.346066355705261230e+00,1.345973968505859375e+00,1.345881462097167969e+00,1.345789074897766113e+00,1.345696687698364258e+00,1.345604300498962402e+00,1.345511794090270996e+00,1.345419406890869141e+00,1.345327138900756836e+00,1.345234751701354980e+00,1.345142483711242676e+00,1.345049977302551270e+00,1.344957709312438965e+00,1.344865441322326660e+00,1.344773173332214355e+00,1.344680905342102051e+00,1.344588518142700195e+00,1.344496250152587891e+00,1.344404101371765137e+00,1.344311833381652832e+00,1.344219684600830078e+00,1.344127535820007324e+00,1.344035148620605469e+00,1.343942999839782715e+00,1.343850851058959961e+00,1.343758702278137207e+00,1.343666672706604004e+00,1.343574404716491699e+00,1.343482255935668945e+00,1.343390226364135742e+00,1.343298196792602539e+00,1.343206048011779785e+00,1.343113899230957031e+00,1.343021869659423828e+00,1.342929840087890625e+00,1.342837810516357422e+00,1.342745900154113770e+00,1.342653870582580566e+00,1.342561841011047363e+00,1.342469811439514160e+00,1.342377901077270508e+00,1.342285990715026855e+00,1.342194080352783203e+00,1.342102050781250000e+00,1.342010140419006348e+00
1.248950123786926270e+00,1.248870491981506348e+00,1.248790979385375977e+00,1.248711466789245605e+00,1.248631834983825684e+00,1.248552322387695312e+00,1.248472690582275391e+00,1.248393177986145020e+00,1.248313665390014648e+00,1.248234152793884277e+00,1.248154640197753906e+00,1.248075127601623535e+00,1.247995615005493164e+00,1.247916221618652344e+00,1.247836709022521973e+00,1.247757315635681152e+00,1.247677803039550781e+00,1.247598409652709961e+00,1.247518897056579590e+00,1.247439503669738770e+00,1.247360110282897949e+00,1.247280716896057129e+00,1.247201323509216309e+00,1.247121930122375488e+00,1.247042655944824219e+00,1.246963262557983398e+00,1.246883869171142578e+00,1.246804475784301758e+00,1.246725201606750488e+00,1.246645927429199219e+00,1.246566653251647949e+00,1.246487379074096680e+00,1.246407985687255859e+00,1.246328711509704590e+00,1.246249437332153320e+00,1.246170282363891602e+00,1.246091008186340332e+00,1.246011734008789062e+00,1.245932459831237793e+00,1.245853304862976074e+00,1.245774149894714355e+00,1.245694875717163086e+00,1.245615720748901367e+00,1.245536446571350098e+00,1.245457291603088379e+00,1.245378255844116211e+00,1.245299100875854492e+00,1.245219945907592773e+00,1.245140790939331055e+00,1.245061635971069336e+00,1.244982600212097168e+00,1.244903445243835449e+00,1.244824409484863281e+00,1.244745373725891113e+00,1.244666218757629395e+00,1.244587182998657227e+00,1.244508147239685059e+00,1.244429111480712891e+00,1.244350194931030273e+00,1.244271039962768555e+00,1.244192123413085938e+00,1.244113087654113770e+00,1.244034171104431152e+00,1.243955135345458984e+00,1.243876099586486816e+00,1.243797183036804199e+00,1.243718266487121582e+00,1.243639349937438965e+00,1.243560433387756348e+00,1.243481516838073730e+00,1.243402600288391113e+00,1.243323683738708496e+00,1.243244886398315430e+00,1.243165969848632812e+00,1.243087172508239746e+00,1.243008255958557129e+00,1.242929339408874512e+00,1.242850542068481445e+00,1.242771744728088379e+00,1.242692947387695312e+00
1.162485718727111816e+00,1.162416815757751465e+00,1.162347793579101562e+00,1.162278890609741211e+00,1.162209987640380859e+00,1.162141084671020508e+00,1.162072062492370605e+00,1.162003278732299805e+00,1.161934256553649902e+00,1.161865353584289551e+00,1.161796450614929199e+00,1.161727666854858398e+00,1.161658763885498047e+00,1.161589860916137695e+00,1.161521077156066895e+00,1.161452174186706543e+00,1.161383390426635742e+00,1.161314606666564941e+00,1.161245703697204590e+00,1.161176919937133789e+00,1.161108016967773438e+00,1.161039233207702637e+00,1.160970568656921387e+00,1.160901784896850586e+00,1.160832881927490234e+00,1.160764217376708984e+00,1.160695433616638184e+00,1.160626649856567383e+00,1.160557985305786133e+00,1.160489201545715332e+00,1.160420417785644531e+00,1.160351753234863281e+00,1.160283088684082031e+00,1.160214424133300781e+00,1.160145640373229980e+00,1.160076975822448730e+00,1.160008311271667480e+00,1.159939646720886230e+00,1.159870982170104980e+00,1.159802317619323730e+00,1.159733653068542480e+00,1.159664988517761230e+00,1.159596443176269531e+00,1.159527778625488281e+00,1.159459233283996582e+00,1.159390568733215332e+00,1.159321904182434082e+00,1.159253358840942383e+00,1.159184813499450684e+00,1.159116268157958984e+00,1.159047722816467285e+00,1.158979058265686035e+00,1.158910512924194336e+00,1.158842086791992188e+00,1.158773541450500488e+00,1.158704996109008789e+00,1.158636450767517090e+00,1.158567905426025391e+00,1.158499479293823242e+00,1.158431053161621094e+00,1.158362507820129395e+00,1.158294081687927246e+00,1.158225536346435547e+00,1.158157110214233398e+00,1.158088684082031250e+00,1.158020257949829102e+00,1.157951831817626953e+00,1.157883405685424805e+00,1.157814979553222656e+00,1.157746553421020508e+00,1.157678246498107910e+00,1.157609820365905762e+00,1.157541394233703613e+00,1.157472968101501465e+00,1.157404661178588867e+00,1.157336354255676270e+00,1.157268047332763672e+00,1.157199621200561523e+00,1.157131314277648926e+00,1.157063007354736328e+00
1.087217926979064941e+00,1.087157607078552246e+00,1.087097287178039551e+00,1.087036967277526855e+00,1.086976766586303711e+00,1.086916327476501465e+00,1.086856126785278320e+00,1.086795806884765625e+00,1.086735606193542480e+00,1.086675286293029785e+00,1.086614966392517090e+00,1.086554765701293945e+00,1.086494565010070801e+00,1.086434245109558105e+00,1.086374044418334961e+00,1.086313843727111816e+00,1.086253643035888672e+00,1.086193442344665527e+00,1.086133241653442383e+00,1.086073040962219238e+00,1.086012840270996094e+00,1.085952639579772949e+00,1.085892438888549805e+00,1.085832238197326660e+00,1.085772156715393066e+00,1.085711956024169922e+00,1.085651755332946777e+00,1.085591673851013184e+00,1.085531473159790039e+00,1.085471391677856445e+00,1.085411310195922852e+00,1.085351228713989258e+00,1.085291028022766113e+00,1.085230946540832520e+00,1.085170865058898926e+00,1.085110783576965332e+00,1.085050702095031738e+00,1.084990501403808594e+00,1.084930539131164551e+00,1.084870457649230957e+00,1.084810376167297363e+00,1.084750413894653320e+00,1.084690213203430176e+00,1.084630250930786133e+00,1.084570169448852539e+00,1.084510207176208496e+00,1.084450125694274902e+00,1.084390163421630859e+00,1.084330081939697266e+00,1.084270119667053223e+00,1.084210157394409180e+00,1.084150195121765137e+00,1.084090232849121094e+00,1.084030151367187500e+00,1.083970189094543457e+00,1.083910226821899414e+00,1.083850383758544922e+00,1.083790421485900879e+00,1.083730459213256836e+00,1.083670496940612793e+00,1.083610534667968750e+00,1.083550691604614258e+00,1.083490729331970215e+00,1.083430886268615723e+00,1.083370923995971680e+00,1.083311080932617188e+00,1.083251118659973145e+00,1.083191275596618652e+00,1.083131432533264160e+00,1.083071470260620117e+00,1.083011627197265625e+00,1.082951784133911133e+00,1.082891941070556641e+00,1.082832217216491699e+00,1.082772254943847656e+00,1.082712411880493164e+00,1.082652688026428223e+00,1.082592844963073730e+00,1.082533001899719238e+00,1.082473278045654297e+00
1.021104216575622559e+00,1.021051049232482910e+00,1.020997762680053711e+00,1.020944595336914062e+00,1.020891427993774414e+00,1.020838260650634766e+00,1.020785093307495117e+00,1.020731806755065918e+00,1.020678639411926270e+00,1.020625591278076172e+00,1.020572423934936523e+00,1.020519256591796875e+00,1.020466089248657227e+00,1.020412921905517578e+00,1.020359754562377930e+00,1.020306706428527832e+00,1.020253539085388184e+00,1.020200490951538086e+00,1.020147323608398438e+00,1.020094156265258789e+00,1.020041108131408691e+00,1.019988059997558594e+00,1.019935011863708496e+00,1.019881844520568848e+00,1.019828796386718750e+00,1.019775748252868652e+00,1.019722580909729004e+00,1.019669532775878906e+00,1.019616484642028809e+00,1.019563436508178711e+00,1.019510388374328613e+00,1.019457340240478516e+00,1.019404411315917969e+00,1.019351363182067871e+00,1.019298315048217773e+00,1.019245266914367676e+00,1.019192218780517578e+00,1.019139289855957031e+00,1.019086241722106934e+00,1.019033193588256836e+00,1.018980264663696289e+00,1.018927216529846191e+00,1.018874287605285645e+00,1.018821358680725098e+00,1.018768429756164551e+00,1.018715381622314453e+00,1.018662452697753906e+00,1.018609523773193359e+00,1.018556594848632812e+00,1.018503665924072266e+00,1.018450617790222168e+00,1.018397688865661621e+00,1.018344759941101074e+00,1.018291950225830078e+00,1.018239021301269531e+00,1.018185973167419434e+00,1.018133163452148438e+00,1.018080234527587891e+00,1.018027424812316895e+00,1.017974495887756348e+00,1.017921686172485352e+00,1.017868757247924805e+00,1.017815828323364258e+00,1.017763018608093262e+00,1.017710089683532715e+00,1.017657279968261719e+00,1.017604351043701172e+00,1.017551541328430176e+00,1.017498731613159180e+00,1.017445921897888184e+00,1.017393112182617188e+00,1.017340302467346191e+00,1.017287492752075195e+00,1.017234683036804199e+00,1.017181873321533203e+00,1.017129063606262207e+00,1.017076253890991211e+00,1.017023444175720215e+00,1.016970634460449219e+00,1.016917943954467773e+00
9.625703692436218262e-01,9.625231027603149414e-01,9.624758362770080566e-01,9.624285697937011719e-01,9.623811841011047363e-01,9.623339176177978516e-01,9.622866511344909668e-01,9.622394442558288574e-01,9.621921777725219727e-01,9.621449708938598633e-01,9.620977044105529785e-01,9.620504975318908691e-01,9.620032906532287598e-01,9.619560837745666504e-01,9.619088768959045410e-01,9.618615508079528809e-01,9.618143439292907715e-01,9.617671370506286621e-01,9.617199897766113281e-01,9.616727828979492188e-01,9.616255760192871094e-01,9.615784287452697754e-01,9.615312218666076660e-01,9.614840745925903320e-01,9.614369273185729980e-01,9.613897204399108887e-01,9.613424539566040039e-01,9.612953066825866699e-01,9.612481594085693359e-01,9.612010717391967773e-01,9.611539244651794434e-01,9.611067771911621094e-01,9.610596299171447754e-01,9.610125422477722168e-01,9.609653949737548828e-01,9.609183073043823242e-01,9.608711004257202148e-01,9.608239531517028809e-01,9.607768654823303223e-01,9.607297778129577637e-01,9.606826901435852051e-01,9.606356024742126465e-01,9.605885148048400879e-01,9.605414271354675293e-01,9.604943990707397461e-01,9.604473114013671875e-01,9.604002237319946289e-01,9.603530764579772949e-01,9.603059887886047363e-01,9.602589607238769531e-01,9.602119326591491699e-01,9.601649045944213867e-01,9.601178765296936035e-01,9.600707888603210449e-01,9.600237607955932617e-01,9.599767923355102539e-01,9.599297642707824707e-01,9.598827362060546875e-01,9.598356485366821289e-01,9.597886204719543457e-01,9.597415924072265625e-01,9.596946239471435547e-01,9.596476554870605469e-01,9.596006274223327637e-01,9.595536589622497559e-01,9.595066905021667480e-01,9.594597220420837402e-01,9.594127535820007324e-01,9.593656659126281738e-01,9.593186974525451660e-01,9.592717885971069336e-01,9.592248201370239258e-01,9.591778516769409180e-01,9.591309428215026855e-01,9.590839743614196777e-01,9.590370655059814453e-01,9.589901566505432129e-01,9.589432477951049805e-01,9.588963389396667480e-01,9.588493108749389648e-01
9.103834629058837891e-01,9.103410243988037109e-01,9.102987647056579590e-01,9.102565050125122070e-01,9.102142453193664551e-01,9.101719260215759277e-01,9.101296663284301758e-01,9.100874066352844238e-01,9.100451469421386719e-01,9.100029468536376953e-01,9.099606871604919434e-01,9.099184274673461914e-01,9.098761081695556641e-01,9.098338484764099121e-01,9.097915887832641602e-01,9.097493886947631836e-01,9.097071290016174316e-01,9.096649289131164551e-01,9.096227288246154785e-01,9.095805287361145020e-01,9.095382690429687500e-01,9.094960689544677734e-01,9.094538688659667969e-01,9.094116091728210449e-01,9.093694090843200684e-01,9.093272089958190918e-01,9.092850089073181152e-01,9.092428088188171387e-01,9.092006683349609375e-01,9.091584682464599609e-01,9.091163277626037598e-01,9.090741276741027832e-01,9.090319871902465820e-01,9.089897274971008301e-01,9.089475870132446289e-01,9.089053869247436523e-01,9.088632464408874512e-01,9.088211059570312500e-01,9.087789654731750488e-01,9.087368249893188477e-01,9.086947441101074219e-01,9.086526036262512207e-01,9.086104631423950195e-01,9.085683226585388184e-01,9.085261225700378418e-01,9.084840416908264160e-01,9.084419012069702148e-01,9.083998203277587891e-01,9.083576798439025879e-01,9.083155989646911621e-01,9.082735180854797363e-01,9.082314372062683105e-01,9.081893563270568848e-01,9.081472754478454590e-01,9.081051945686340332e-01,9.080629944801330566e-01,9.080209732055664062e-01,9.079788923263549805e-01,9.079368114471435547e-01,9.078947901725769043e-01,9.078527092933654785e-01,9.078106880187988281e-01,9.077686071395874023e-01,9.077265858650207520e-01,9.076845049858093262e-01,9.076424241065979004e-01,9.076003432273864746e-01,9.075583219528198242e-01,9.075163006782531738e-01,9.074742794036865234e-01,9.074323177337646484e-01,9.073902964591979980e-01,9.073482751846313477e-01,9.073062539100646973e-01,9.072642922401428223e-01,9.072222709655761719e-01,9.071801900863647461e-01,9.071382284164428711e-01,9.070962071418762207e-01,9.070542454719543457e-01
8.635641932487487793e-01,8.635261058807373047e-01,8.634880781173706055e-01,8.634500503540039062e-01,8.634120225906372070e-01,8.633739948272705078e-01,8.633359670639038086e-01,8.632979393005371094e-01,8.632599115371704102e-01,8.632217645645141602e-01,8.631837368011474609e-01,8.631457686424255371e-01,8.631077408790588379e-01,8.630697131156921387e-01,8.630317449569702148e-01,8.629937171936035156e-01,8.629557490348815918e-01,8.629177212715148926e-01,8.628797531127929688e-01,8.628417849540710449e-01,8.628036975860595703e-01,8.627657294273376465e-01,8.627277016639709473e-01,8.626897335052490234e-01,8.626517653465270996e-01,8.626137971878051758e-01,8.625758290290832520e-01,8.625379204750061035e-01,8.624999523162841797e-01,8.624619841575622559e-01,8.624239563941955566e-01,8.623859882354736328e-01,8.623480796813964844e-01,8.623101115226745605e-01,8.622722029685974121e-01,8.622342348098754883e-01,8.621963262557983398e-01,8.621583580970764160e-01,8.621204495429992676e-01,8.620825409889221191e-01,8.620446324348449707e-01,8.620066046714782715e-01,8.619686961174011230e-01,8.619307875633239746e-01,8.618928790092468262e-01,8.618550300598144531e-01,8.618171215057373047e-01,8.617792129516601562e-01,8.617413043975830078e-01,8.617034554481506348e-01,8.616655468940734863e-01,8.616276383399963379e-01,8.615897297859191895e-01,8.615518212318420410e-01,8.615139722824096680e-01,8.614760637283325195e-01,8.614382147789001465e-01,8.614003658294677734e-01,8.613625168800354004e-01,8.613246679306030273e-01,8.612868189811706543e-01,8.612489700317382812e-01,8.612110018730163574e-01,8.611732125282287598e-01,8.611353635787963867e-01,8.610975146293640137e-01,8.610596656799316406e-01,8.610218763351440430e-01,8.609840273857116699e-01,8.609462380409240723e-01,8.609083890914916992e-01,8.608705997467041016e-01,8.608327507972717285e-01,8.607949018478393555e-01,8.607570528984069824e-01,8.607192635536193848e-01,8.606814742088317871e-01,8.606436848640441895e-01,8.606058955192565918e-01,8.605681061744689941e-01
8.213250637054443359e-01,8.212906718254089355e-01,8.212562799453735352e-01,8.212218284606933594e-01,8.211874365806579590e-01,8.211530447006225586e-01,8.211185336112976074e-01,8.210841417312622070e-01,8.210497498512268066e-01,8.210153579711914062e-01,8.209809660911560059e-01,8.209465742111206055e-01,8.209121823310852051e-01,8.208778500556945801e-01,8.208434581756591797e-01,8.208090662956237793e-01,8.207747340202331543e-01,8.207402825355529785e-01,8.207058906555175781e-01,8.206714987754821777e-01,8.206371665000915527e-01,8.206027746200561523e-01,8.205684423446655273e-01,8.205341100692749023e-01,8.204997777938842773e-01,8.204653859138488770e-01,8.204310536384582520e-01,8.203966617584228516e-01,8.203623294830322266e-01,8.203279376029968262e-01,8.202936053276062012e-01,8.202593326568603516e-01,8.202250003814697266e-01,8.201906681060791016e-01,8.201563358306884766e-01,8.201220035552978516e-01,8.200876712799072266e-01,8.200533986091613770e-01,8.200190067291259766e-01,8.199846744537353516e-01,8.199504017829895020e-01,8.199160695075988770e-01,8.198817968368530273e-01,8.198474645614624023e-01,8.198131918907165527e-01,8.197789192199707031e-01,8.197446465492248535e-01,8.197103142738342285e-01,8.196760416030883789e-01,8.196417093276977539e-01,8.196074366569519043e-01,8.195731639862060547e-01,8.195388913154602051e-01,8.195046186447143555e-01,8.194703459739685059e-01,8.194360733032226562e-01,8.194018006324768066e-01,8.193675875663757324e-01,8.193333148956298828e-01,8.192989826202392578e-01,8.192647099494934082e-01,8.192304968833923340e-01,8.191962838172912598e-01,8.191620111465454102e-01,8.191277980804443359e-01,8.190935254096984863e-01,8.190593123435974121e-01,8.190250992774963379e-01,8.189908862113952637e-01,8.189566731452941895e-01,8.189223408699035645e-01,8.188881278038024902e-01,8.188539147377014160e-01,8.188197016716003418e-01,8.187854886054992676e-01,8.187512755393981934e-01,8.187171220779418945e-01,8.186829090118408203e-01,8.186486959457397461e-01,8.186144828796386719e-01
7.830253839492797852e-01,7.829940915107727051e-01,7.829627990722656250e-01,7.829314470291137695e-01,7.829002141952514648e-01,7.828689217567443848e-01,7.828376889228820801e-01,7.828063964843750000e-01,7.827751040458679199e-01,7.827438712120056152e-01,7.827126383781433105e-01,7.826813459396362305e-01,7.826501131057739258e-01,7.826188206672668457e-01,7.825875282287597656e-01,7.825562953948974609e-01,7.825250625610351562e-01,7.824937701225280762e-01,7.824625372886657715e-01,7.824313044548034668e-01,7.824000716209411621e-01,7.823688387870788574e-01,7.823376059532165527e-01,7.823063731193542480e-01,7.822750806808471680e-01,7.822438478469848633e-01,7.822126746177673340e-01,7.821814417839050293e-01,7.821502089500427246e-01,7.821190357208251953e-01,7.820878028869628906e-01,7.820565700531005859e-01,7.820253968238830566e-01,7.819941639900207520e-01,7.819629907608032227e-01,7.819316983222961426e-01,7.819005250930786133e-01,7.818693518638610840e-01,7.818381190299987793e-01,7.818069458007812500e-01,7.817757725715637207e-01,7.817445993423461914e-01,7.817134261131286621e-01,7.816822528839111328e-01,7.816510796546936035e-01,7.816199064254760742e-01,7.815886139869689941e-01,7.815575003623962402e-01,7.815263271331787109e-01,7.814951539039611816e-01,7.814639806747436523e-01,7.814328074455261230e-01,7.814016938209533691e-01,7.813705205917358398e-01,7.813393473625183105e-01,7.813082337379455566e-01,7.812770009040832520e-01,7.812458872795104980e-01,7.812147140502929688e-01,7.811836004257202148e-01,7.811524271965026855e-01,7.811213135719299316e-01,7.810901999473571777e-01,7.810590863227844238e-01,7.810279130935668945e-01,7.809967994689941406e-01,7.809656858444213867e-01,7.809345126152038574e-01,7.809033989906311035e-01,7.808722853660583496e-01,7.808411717414855957e-01,7.808100581169128418e-01,7.807789444923400879e-01,7.807478308677673340e-01,7.807167768478393555e-01,7.806856632232666016e-01,7.806545495986938477e-01,7.806234955787658691e-01,7.805923223495483398e-01,7.805612087249755859e-01
7.481384277343750000e-01,7.481098771095275879e-01,7.480812668800354004e-01,7.480527162551879883e-01,7.480242252349853516e-01,7.479956746101379395e-01,7.479671239852905273e-01,7.479385733604431152e-01,7.479100227355957031e-01,7.478814721107482910e-01,7.478528618812561035e-01,7.478243112564086914e-01,7.477958202362060547e-01,7.477672696113586426e-01,7.477387785911560059e-01,7.477102279663085938e-01,7.476816773414611816e-01,7.476531863212585449e-01,7.476246356964111328e-01,7.475961446762084961e-01,7.475676536560058594e-01,7.475390434265136719e-01,7.475105524063110352e-01,7.474820017814636230e-01,7.474535107612609863e-01,7.474250197410583496e-01,7.473965287208557129e-01,7.473680377006530762e-01,7.473395466804504395e-01,7.473109960556030273e-01,7.472825050354003906e-01,7.472540140151977539e-01,7.472254633903503418e-01,7.471969723701477051e-01,7.471685409545898438e-01,7.471400499343872070e-01,7.471115589141845703e-01,7.470830678939819336e-01,7.470545768737792969e-01,7.470261454582214355e-01,7.469976544380187988e-01,7.469691634178161621e-01,7.469407320022583008e-01,7.469121813774108887e-01,7.468836903572082520e-01,7.468552589416503906e-01,7.468268275260925293e-01,7.467983365058898926e-01,7.467699050903320312e-01,7.467414140701293945e-01,7.467129826545715332e-01,7.466845512390136719e-01,7.466561198234558105e-01,7.466275691986083984e-01,7.465991377830505371e-01,7.465707063674926758e-01,7.465422749519348145e-01,7.465138435363769531e-01,7.464854121208190918e-01,7.464569807052612305e-01,7.464285492897033691e-01,7.464001178741455078e-01,7.463716864585876465e-01,7.463432550430297852e-01,7.463147640228271484e-01,7.462863922119140625e-01,7.462579607963562012e-01,7.462295293807983398e-01,7.462010979652404785e-01,7.461727261543273926e-01,7.461442947387695312e-01,7.461159229278564453e-01,7.460874915122985840e-01,7.460591197013854980e-01,7.460306882858276367e-01,7.460022568702697754e-01,7.459738254547119141e-01,7.459454536437988281e-01,7.459170818328857422e-01,7.458886504173278809e-01
7.162275910377502441e-01,7.162014245986938477e-01,7.161752581596374512e-01,7.161490917205810547e-01,7.161229252815246582e-01,7.160967588424682617e-01,7.160705924034118652e-01,7.160444259643554688e-01,7.160181999206542969e-01,7.159920334815979004e-01,7.159659266471862793e-01,7.159397602081298828e-01,7.159135937690734863e-01,7.158874273300170898e-01,7.158613204956054688e-01,7.158351540565490723e-01,7.158089876174926758e-01,7.157828807830810547e-01,7.157566547393798828e-01,7.157305479049682617e-01,7.157043814659118652e-01,7.156782746315002441e-01,7.156521081924438477e-01,7.156260013580322266e-01,7.155998945236206055e-01,7.155737280845642090e-01,7.155476212501525879e-01,7.155215144157409668e-01,7.154954075813293457e-01,7.154691815376281738e-01,7.154430747032165527e-01,7.154169678688049316e-01,7.153908610343933105e-01,7.153647541999816895e-01,7.153386473655700684e-01,7.153125405311584473e-01,7.152864336967468262e-01,7.152603268623352051e-01,7.152342200279235840e-01,7.152081131935119629e-01,7.151819467544555664e-01,7.151558399200439453e-01,7.151297926902770996e-01,7.151036858558654785e-01,7.150775790214538574e-01,7.150515317916870117e-01,7.150254249572753906e-01,7.149993181228637695e-01,7.149732708930969238e-01,7.149471640586853027e-01,7.149210572242736816e-01,7.148949503898620605e-01,7.148689031600952148e-01,7.148427963256835938e-01,7.148167490959167480e-01,7.147906422615051270e-01,7.147645950317382812e-01,7.147385478019714355e-01,7.147125005722045898e-01,7.146863937377929688e-01,7.146603465080261230e-01,7.146342396736145020e-01,7.146081924438476562e-01,7.145821452140808105e-01,7.145560979843139648e-01,7.145300507545471191e-01,7.145040035247802734e-01,7.144779562950134277e-01,7.144519090652465820e-01,7.144258618354797363e-01,7.143998146057128906e-01,7.143737673759460449e-01,7.143476605415344238e-01,7.143216133117675781e-01,7.142956256866455078e-01,7.142695784568786621e-01,7.142435312271118164e-01,7.142174839973449707e-01,7.141914963722229004e-01,7.141654491424560547e-01
6.869276762008666992e-01,6.869035959243774414e-01,6.868795156478881836e-01,6.868554353713989258e-01,6.868312954902648926e-01,6.868072748184204102e-01,6.867831945419311523e-01,6.867591142654418945e-01,6.867350339889526367e-01,6.867110133171081543e-01,6.866869330406188965e-01,6.866628527641296387e-01,6.866388320922851562e-01,6.866147518157958984e-01,6.865907311439514160e-01,6.865665912628173828e-01,6.865425705909729004e-01,6.865184903144836426e-01,6.864944696426391602e-01,6.864704489707946777e-01,6.864463686943054199e-01,6.864223480224609375e-01,6.863982677459716797e-01,6.863742470741271973e-01,6.863502264022827148e-01,6.863262057304382324e-01,6.863021254539489746e-01,6.862780451774597168e-01,6.862540245056152344e-01,6.862300038337707520e-01,6.862059831619262695e-01,6.861819624900817871e-01,6.861579418182373047e-01,6.861339211463928223e-01,6.861099004745483398e-01,6.860858798027038574e-01,6.860618591308593750e-01,6.860377788543701172e-01,6.860137581825256348e-01,6.859897971153259277e-01,6.859657764434814453e-01,6.859417557716369629e-01,6.859177350997924805e-01,6.858937740325927734e-01,6.858697533607482910e-01,6.858457326889038086e-01,6.858217716217041016e-01,6.857976913452148438e-01,6.857736706733703613e-01,6.857497096061706543e-01,6.857256889343261719e-01,6.857017278671264648e-01,6.856777071952819824e-01,6.856537461280822754e-01,6.856297850608825684e-01,6.856057643890380859e-01,6.855818033218383789e-01,6.855577826499938965e-01,6.855337619781494141e-01,6.855098009109497070e-01,6.854858398437500000e-01,6.854618787765502930e-01,6.854378581047058105e-01,6.854138970375061035e-01,6.853899359703063965e-01,6.853659749031066895e-01,6.853420138359069824e-01,6.853180527687072754e-01,6.852940917015075684e-01,6.852700710296630859e-01,6.852461099624633789e-01,6.852221488952636719e-01,6.851981878280639648e-01,6.851742267608642578e-01,6.851502656936645508e-01,6.851263642311096191e-01,6.851024031639099121e-01,6.850784420967102051e-01,6.850544810295104980e-01,6.850305199623107910e-01
6.599307656288146973e-01,6.599085330963134766e-01,6.598862409591674805e-01,6.598640680313110352e-01,6.598418354988098145e-01,6.598196029663085938e-01,6.597974300384521484e-01,6.597751975059509277e-01,6.597529649734497070e-01,6.597307920455932617e-01,6.597085595130920410e-01,6.596863865852355957e-01,6.596640944480895996e-01,6.596419215202331543e-01,6.596196889877319336e-01,6.595975160598754883e-01,6.595753431320190430e-01,6.595531105995178223e-01,6.595309376716613770e-01,6.595087647438049316e-01,6.594865322113037109e-01,6.594643592834472656e-01,6.594421863555908203e-01,6.594199538230895996e-01,6.593977212905883789e-01,6.593755483627319336e-01,6.593533754348754883e-01,6.593312025070190430e-01,6.593090295791625977e-01,6.592868566513061523e-01,6.592646837234497070e-01,6.592425107955932617e-01,6.592203378677368164e-01,6.591981649398803711e-01,6.591759324073791504e-01,6.591537594795227051e-01,6.591315865516662598e-01,6.591094136238098145e-01,6.590872406959533691e-01,6.590651273727416992e-01,6.590429544448852539e-01,6.590207815170288086e-01,6.589986085891723633e-01,6.589764356613159180e-01,6.589542627334594727e-01,6.589320898056030273e-01,6.589099764823913574e-01,6.588878035545349121e-01,6.588656306266784668e-01,6.588435173034667969e-01,6.588213443756103516e-01,6.587992310523986816e-01,6.587770581245422363e-01,6.587549448013305664e-01,6.587327718734741211e-01,6.587105989456176758e-01,6.586884260177612305e-01,6.586663126945495605e-01,6.586441993713378906e-01,6.586220264434814453e-01,6.585999131202697754e-01,6.585777997970581055e-01,6.585556864738464355e-01,6.585335135459899902e-01,6.585114002227783203e-01,6.584892868995666504e-01,6.584671139717102051e-01,6.584450006484985352e-01,6.584228873252868652e-01,6.584007740020751953e-01,6.583786606788635254e-01,6.583565473556518555e-01,6.583343744277954102e-01,6.583122611045837402e-01,6.582902073860168457e-01,6.582680940628051758e-01,6.582459211349487305e-01,6.582238078117370605e-01,6.582016944885253906e-01,6.581795811653137207e-01
