5.000000000000000000e+00,5.000000000000000000e+00,5.000000000000000000e+00,5.000000000000000000e+00,5.000000000000000000e+00,5.000000000000000000e+00,5.000000000000000000e+00,5.000000000000000000e+00,5.000000000000000000e+00,5.000000000000000000e+00,5.000000000000000000e+00,5.000000000000000000e+00,5.000000000000000000e+00,5.000000000000000000e+00,5.000000000000000000e+00,5.000000000000000000e+00,5.000000000000000000e+00,5.000000000000000000e+00,5.000000000000000000e+00,5.000000000000000000e+00,5.000000000000000000e+00,5.000000000000000000e+00,5.000000000000000000e+00,5.000000000000000000e+00,5.000000000000000000e+00,5.000000000000000000e+00,5.000000000000000000e+00,5.000000000000000000e+00,5.000000000000000000e+00,5.000000000000000000e+00,5.000000000000000000e+00,5.000000000000000000e+00,5.000000000000000000e+00,5.000000000000000000e+00,5.000000000000000000e+00,1.797438740730285645e+00,1.779495835304260254e+00,1.812038421630859375e+00,1.816893100738525391e+00,1.794401884078979492e+00,1.801790595054626465e+00,1.795945763587951660e+00,1.791996717453002930e+00,1.809227585792541504e+00,1.826344966888427734e+00,1.858584642410278320e+00,3.780221462249755859e+00,3.663765430450439453e+00,3.554270505905151367e+00,3.451130628585815430e+00,3.353807449340820312e+00,3.261822938919067383e+00,3.174749612808227539e+00,3.092204093933105469e+00,3.013842344284057617e+00,2.939353942871093750e+00,2.868458986282348633e+00,2.800903081893920898e+00,2.736455917358398438e+00,2.674908161163330078e+00,2.616068124771118164e+00,2.559760808944702148e+00,2.505826234817504883e+00,2.454117774963378906e+00,2.404500246047973633e+00,2.356849193572998047e+00,2.311049938201904297e+00,2.266996860504150391e+00,2.224591970443725586e+00,2.183743953704833984e+00,2.144369125366210938e+00,2.106389284133911133e+00,2.069731235504150391e+00,2.034327507019042969e+00,2.000114440917968750e+00,1.967033386230468750e+00,1.935028433799743652e+00,1.904048562049865723e+00,1.874044895172119141e+00,1.844972014427185059e+00
5.000000000000000000e+00,5.000000000000000000e+00,5.000000000000000000e+00,5.000000000000000000e+00,5.000000000000000000e+00,5.000000000000000000e+00,5.000000000000000000e+00,5.000000000000000000e+00,5.000000000000000000e+00,5.000000000000000000e+00,5.000000000000000000e+00,5.000000000000000000e+00,5.000000000000000000e+00,5.000000000000000000e+00,5.000000000000000000e+00,5.000000000000000000e+00,5.000000000000000000e+00,5.000000000000000000e+00,5.000000000000000000e+00,5.000000000000000000e+00,5.000000000000000000e+00,5.000000000000000000e+00,5.000000000000000000e+00,5.000000000000000000e+00,5.000000000000000000e+00,5.000000000000000000e+00,5.000000000000000000e+00,5.000000000000000000e+00,5.000000000000000000e+00,5.000000000000000000e+00,5.000000000000000000e+00,5.000000000000000000e+00,5.000000000000000000e+00,5.000000000000000000e+00,5.000000000000000000e+00,1.774224519729614258e+00,1.753073096275329590e+00,1.767339229583740234e+00,1.814124345779418945e+00,1.800555348396301270e+00,1.794887661933898926e+00,1.794970035552978516e+00,1.802661538124084473e+00,1.813241481781005859e+00,1.841562151908874512e+00,1.874840140342712402e+00,3.780305385589599609e+00,3.663844823837280273e+00,3.554345130920410156e+00,3.451200485229492188e+00,3.353873491287231445e+00,3.261885881423950195e+00,3.174808979034423828e+00,3.092260360717773438e+00,3.013895750045776367e+00,2.939404964447021484e+00,2.868507146835327148e+00,2.800949096679687500e+00,2.736500263214111328e+00,2.674950361251831055e+00,2.616108179092407227e+00,2.559799432754516602e+00,2.505863428115844727e+00,2.454153299331665039e+00,2.404534101486206055e+00,2.356881856918334961e+00,2.311081409454345703e+00,2.267027139663696289e+00,2.224620819091796875e+00,2.183772087097167969e+00,2.144396305084228516e+00,2.106415510177612305e+00,2.069756507873535156e+00,2.034351825714111328e+00,2.000138044357299805e+00,1.967056035995483398e+00,1.935050487518310547e+00,1.904069900512695312e+00,1.874065399169921875e+00,1.844992160797119141e+00
5.000000000000000000e+00,5.000000000000000000e+00,5.000000000000000000e+00,5.000000000000000000e+00,5.000000000000000000e+00,5.000000000000000000e+00,5.000000000000000000e+00,5.000000000000000000e+00,5.000000000000000000e+00,5.000000000000000000e+00,5.000000000000000000e+00,5.000000000000000000e+00,5.000000000000000000e+00,5.000000000000000000e+00,5.000000000000000000e+00,5.000000000000000000e+00,5.000000000000000000e+00,5.000000000000000000e+00,5.000000000000000000e+00,5.000000000000000000e+00,5.000000000000000000e+00,5.000000000000000000e+00,5.000000000000000000e+00,5.000000000000000000e+00,5.000000000000000000e+00,5.000000000000000000e+00,5.000000000000000000e+00,5.000000000000000000e+00,5.000000000000000000e+00,5.000000000000000000e+00,5.000000000000000000e+00,5.000000000000000000e+00,5.000000000000000000e+00,5.000000000000000000e+00,5.000000000000000000e+00,1.778723716735839844e+00,1.739486932754516602e+00,1.741201639175415039e+00,1.808117389678955078e+00,1.798097014427185059e+00,1.795171380043029785e+00,1.798514604568481445e+00,1.804775953292846680e+00,1.814819931983947754e+00,1.846011638641357422e+00,1.891100287437438965e+00,3.780389547348022461e+00,3.663923501968383789e+00,3.554419279098510742e+00,3.451270818710327148e+00,3.353940010070800781e+00,3.261948347091674805e+00,3.174868345260620117e+00,3.092316627502441406e+00,3.013949155807495117e+00,2.939455509185791016e+00,2.868555784225463867e+00,2.800995349884033203e+00,2.736544132232666016e+00,2.674992561340332031e+00,2.616148710250854492e+00,2.559837818145751953e+00,2.505900144577026367e+00,2.454188823699951172e+00,2.404568195343017578e+00,2.356914520263671875e+00,2.311112880706787109e+00,2.267057180404663086e+00,2.224649906158447266e+00,2.183800220489501953e+00,2.144423484802246094e+00,2.106441736221313477e+00,2.069781541824340820e+00,2.034376382827758789e+00,2.000161647796630859e+00,1.967078804969787598e+00,1.935072660446166992e+00,1.904091358184814453e+00,1.874086141586303711e+00,1.845012187957763672e+00
5.000000000000000000e+00,5.000000000000000000e+00,5.000000000000000000e+00,5.000000000000000000e+00,5.000000000000000000e+00,5.000000000000000000e+00,5.000000000000000000e+00,5.000000000000000000e+00,5.000000000000000000e+00,5.000000000000000000e+00,5.000000000000000000e+00,5.000000000000000000e+00,5.000000000000000000e+00,5.000000000000000000e+00,5.000000000000000000e+00,5.000000000000000000e+00,5.000000000000000000e+00,5.000000000000000000e+00,5.000000000000000000e+00,5.000000000000000000e+00,5.000000000000000000e+00,5.000000000000000000e+00,5.000000000000000000e+00,5.000000000000000000e+00,5.000000000000000000e+00,5.000000000000000000e+00,5.000000000000000000e+00,5.000000000000000000e+00,5.000000000000000000e+00,5.000000000000000000e+00,5.000000000000000000e+00,5.000000000000000000e+00,5.000000000000000000e+00,5.000000000000000000e+00,5.000000000000000000e+00,5.000000000000000000e+00,1.720840692520141602e+00,1.709389448165893555e+00,1.803231954574584961e+00,1.797864675521850586e+00,1.796109080314636230e+00,1.805387496948242188e+00,1.818485379219055176e+00,1.834716796875000000e+00,1.857233643531799316e+00,1.900523185729980469e+00,3.780473947525024414e+00,3.664002656936645508e+00,3.554493904113769531e+00,3.451340675354003906e+00,3.354006290435791016e+00,3.262011051177978516e+00,3.174927711486816406e+00,3.092372894287109375e+00,3.014002799987792969e+00,2.939506530761718750e+00,2.868604183197021484e+00,2.801041841506958008e+00,2.736588239669799805e+00,2.675034523010253906e+00,2.616188764572143555e+00,2.559876680374145508e+00,2.505937337875366211e+00,2.454224109649658203e+00,2.404602289199829102e+00,2.356947422027587891e+00,2.311144113540649414e+00,2.267087459564208984e+00,2.224679231643676758e+00,2.183828353881835938e+00,2.144450426101684570e+00,2.106467723846435547e+00,2.069807052612304688e+00,2.034400701522827148e+00,2.000185012817382812e+00,1.967101693153381348e+00,1.935094714164733887e+00,1.904112458229064941e+00,1.874106884002685547e+00,1.845032334327697754e+00
5.000000000000000000e+00,5.000000000000000000e+00,5.000000000000000000e+00,5.000000000000000000e+00,5.000000000000000000e+00,5.000000000000000000e+00,5.000000000000000000e+00,5.000000000000000000e+00,5.000000000000000000e+00,5.000000000000000000e+00,5.000000000000000000e+00,5.000000000000000000e+00,5.000000000000000000e+00,5.000000000000000000e+00,5.000000000000000000e+00,5.000000000000000000e+00,5.000000000000000000e+00,5.000000000000000000e+00,5.000000000000000000e+00,5.000000000000000000e+00,5.000000000000000000e+00,5.000000000000000000e+00,5.000000000000000000e+00,5.000000000000000000e+00,5.000000000000000000e+00,5.000000000000000000e+00,5.000000000000000000e+00,5.000000000000000000e+00,5.000000000000000000e+00,5.000000000000000000e+00,5.000000000000000000e+00,5.000000000000000000e+00,5.000000000000000000e+00,5.000000000000000000e+00,5.000000000000000000e+00,5.000000000000000000e+00,1.704927325248718262e+00,1.702656269073486328e+00,1.735618710517883301e+00,1.798118114471435547e+00,1.797144412994384766e+00,1.825017571449279785e+00,1.834488987922668457e+00,1.856206178665161133e+00,1.855179309844970703e+00,1.851456761360168457e+00,3.780557870864868164e+00,3.664081573486328125e+00,3.554568290710449219e+00,3.451411008834838867e+00,3.354072332382202148e+00,3.262073755264282227e+00,3.174987077713012695e+00,3.092429399490356445e+00,3.014056205749511719e+00,2.939557552337646484e+00,2.868652582168579102e+00,2.801087856292724609e+00,2.736632347106933594e+00,2.675076723098754883e+00,2.616229295730590820e+00,2.559915065765380859e+00,2.505974292755126953e+00,2.454259634017944336e+00,2.404636383056640625e+00,2.356979608535766602e+00,2.311175584793090820e+00,2.267117738723754883e+00,2.224708318710327148e+00,2.183856487274169922e+00,2.144477605819702148e+00,2.106493949890136719e+00,2.069832086563110352e+00,2.034425020217895508e+00,2.000208616256713867e+00,1.967124462127685547e+00,1.935116767883300781e+00,1.904133915901184082e+00,1.874127626419067383e+00,1.845052242279052734e+00
5.000000000000000000e+00,5.000000000000000000e+00,5.000000000000000000e+00,5.000000000000000000e+00,5.000000000000000000e+00,5.000000000000000000e+00,5.000000000000000000e+00,5.000000000000000000e+00,5.000000000000000000e+00,5.000000000000000000e+00,5.000000000000000000e+00,5.000000000000000000e+00,5.000000000000000000e+00,5.000000000000000000e+00,5.000000000000000000e+00,5.000000000000000000e+00,5.000000000000000000e+00,5.000000000000000000e+00,5.000000000000000000e+00,5.000000000000000000e+00,5.000000000000000000e+00,5.000000000000000000e+00,5.000000000000000000e+00,5.000000000000000000e+00,5.000000000000000000e+00,5.000000000000000000e+00,5.000000000000000000e+00,5.000000000000000000e+00,5.000000000000000000e+00,5.000000000000000000e+00,5.000000000000000000e+00,5.000000000000000000e+00,5.000000000000000000e+00,5.000000000000000000e+00,5.000000000000000000e+00,5.000000000000000000e+00,1.702257871627807617e+00,1.678436756134033203e+00,1.794454097747802734e+00,1.797200202941894531e+00,1.797826647758483887e+00,1.831046819686889648e+00,1.867934107780456543e+00,1.830668807029724121e+00,1.817664742469787598e+00,1.811568140983581543e+00,1.834534406661987305e+00,3.664160728454589844e+00,3.554642438888549805e+00,3.451481342315673828e+00,3.354138851165771484e+00,3.262136220932006836e+00,3.175046205520629883e+00,3.092485666275024414e+00,3.014109611511230469e+00,2.939608335494995117e+00,2.868701219558715820e+00,2.801134109497070312e+00,2.736676454544067383e+00,2.675118923187255859e+00,2.616269588470458984e+00,2.559953689575195312e+00,2.506011247634887695e+00,2.454295158386230469e+00,2.404670238494873047e+00,2.357012510299682617e+00,2.311207056045532227e+00,2.267148017883300781e+00,2.224737405776977539e+00,2.183884382247924805e+00,2.144504547119140625e+00,2.106519937515258789e+00,2.069857358932495117e+00,2.034449338912963867e+00,2.000232219696044922e+00,1.967147350311279297e+00,1.935138702392578125e+00,1.904155254364013672e+00,1.874148368835449219e+00,1.845072269439697266e+00
5.000000000000000000e+00,5.000000000000000000e+00,5.000000000000000000e+00,5.000000000000000000e+00,5.000000000000000000e+00,5.000000000000000000e+00,5.000000000000000000e+00,5.000000000000000000e+00,5.000000000000000000e+00,5.000000000000000000e+00,5.000000000000000000e+00,5.000000000000000000e+00,5.000000000000000000e+00,5.000000000000000000e+00,5.000000000000000000e+00,5.000000000000000000e+00,5.000000000000000000e+00,5.000000000000000000e+00,5.000000000000000000e+00,5.000000000000000000e+00,5.000000000000000000e+00,5.000000000000000000e+00,5.000000000000000000e+00,5.000000000000000000e+00,5.000000000000000000e+00,5.000000000000000000e+00,5.000000000000000000e+00,5.000000000000000000e+00,5.000000000000000000e+00,5.000000000000000000e+00,5.000000000000000000e+00,5.000000000000000000e+00,5.000000000000000000e+00,5.000000000000000000e+00,5.000000000000000000e+00,5.000000000000000000e+00,1.692429900169372559e+00,1.651193857192993164e+00,1.647969245910644531e+00,1.650340318679809570e+00,1.796421051025390625e+00,1.828264117240905762e+00,1.859133720397949219e+00,1.821356892585754395e+00,1.799282193183898926e+00,1.796835303306579590e+00,1.795200586318969727e+00,1.879540801048278809e+00,3.554717063903808594e+00,3.451551198959350586e+00,3.354204893112182617e+00,3.262199163436889648e+00,3.175105810165405273e+00,3.092541933059692383e+00,3.014163255691528320e+00,2.939659357070922852e+00,2.868749618530273438e+00,2.801180124282836914e+00,2.736720800399780273e+00,2.675161123275756836e+00,2.616309881210327148e+00,2.559992313385009766e+00,2.506048202514648438e+00,2.454330444335937500e+00,2.404704093933105469e+00,2.357045173645019531e+00,2.311238527297973633e+00,2.267178297042846680e+00,2.224766731262207031e+00,2.183912515640258789e+00,2.144531726837158203e+00,2.106546163558959961e+00,2.069882631301879883e+00,2.034473657608032227e+00,2.000255823135375977e+00,1.967169880867004395e+00,1.935160756111145020e+00,1.904176712036132812e+00,1.874168872833251953e+00,1.845092415809631348e+00
5.000000000000000000e+00,5.000000000000000000e+00,5.000000000000000000e+00,5.000000000000000000e+00,5.000000000000000000e+00,5.000000000000000000e+00,5.000000000000000000e+00,5.000000000000000000e+00,5.000000000000000000e+00,5.000000000000000000e+00,5.000000000000000000e+00,5.000000000000000000e+00,5.000000000000000000e+00,5.000000000000000000e+00,5.000000000000000000e+00,5.000000000000000000e+00,5.000000000000000000e+00,5.000000000000000000e+00,5.000000000000000000e+00,5.000000000000000000e+00,5.000000000000000000e+00,5.000000000000000000e+00,5.000000000000000000e+00,5.000000000000000000e+00,5.000000000000000000e+00,5.000000000000000000e+00,5.000000000000000000e+00,5.000000000000000000e+00,5.000000000000000000e+00,5.000000000000000000e+00,5.000000000000000000e+00,5.000000000000000000e+00,5.000000000000000000e+00,5.000000000000000000e+00,5.000000000000000000e+00,5.000000000000000000e+00,1.684080362319946289e+00,1.636626362800598145e+00,1.612606525421142578e+00,1.629951477050781250e+00,1.796238780021667480e+00,1.825833797454833984e+00,1.856519103050231934e+00,1.819789290428161621e+00,1.787638783454895020e+00,1.786805033683776855e+00,1.785487651824951172e+00,1.843752861022949219e+00,3.554791212081909180e+00,3.451621532440185547e+00,3.354271173477172852e+00,3.262261629104614258e+00,3.175165176391601562e+00,3.092598199844360352e+00,3.014216661453247070e+00,2.939710140228271484e+00,2.868798017501831055e+00,2.801226377487182617e+00,2.736764669418334961e+00,2.675203323364257812e+00,2.616350173950195312e+00,2.560030937194824219e+00,2.506084918975830078e+00,2.454365968704223633e+00,2.404738187789916992e+00,2.357077836990356445e+00,2.311269998550415039e+00,2.267208576202392578e+00,2.224795579910278320e+00,2.183940649032592773e+00,2.144558906555175781e+00,2.106572389602661133e+00,2.069907903671264648e+00,2.034498214721679688e+00,2.000279426574707031e+00,1.967192769050598145e+00,1.935182929039001465e+00,1.904198050498962402e+00,1.874189615249633789e+00,1.845112442970275879e+00
5.000000000000000000e+00,5.000000000000000000e+00,5.000000000000000000e+00,5.000000000000000000e+00,5.000000000000000000e+00,5.000000000000000000e+00,5.000000000000000000e+00,5.000000000000000000e+00,5.000000000000000000e+00,5.000000000000000000e+00,5.000000000000000000e+00,5.000000000000000000e+00,5.000000000000000000e+00,5.000000000000000000e+00,5.000000000000000000e+00,5.000000000000000000e+00,5.000000000000000000e+00,5.000000000000000000e+00,5.000000000000000000e+00,5.000000000000000000e+00,5.000000000000000000e+00,5.000000000000000000e+00,5.000000000000000000e+00,5.000000000000000000e+00,5.000000000000000000e+00,5.000000000000000000e+00,5.000000000000000000e+00,5.000000000000000000e+00,5.000000000000000000e+00,5.000000000000000000e+00,5.000000000000000000e+00,5.000000000000000000e+00,5.000000000000000000e+00,5.000000000000000000e+00,5.000000000000000000e+00,5.000000000000000000e+00,1.679546713829040527e+00,1.621556878089904785e+00,1.801537990570068359e+00,1.800666451454162598e+00,1.800215721130371094e+00,1.829443335533142090e+00,1.870010733604431152e+00,1.817200183868408203e+00,1.784651398658752441e+00,1.775811076164245605e+00,1.775879144668579102e+00,1.812928318977355957e+00,3.554865837097167969e+00,3.451691627502441406e+00,3.354337692260742188e+00,3.262324333190917969e+00,3.175224542617797852e+00,3.092654466629028320e+00,3.014270305633544922e+00,2.939761161804199219e+00,2.868846416473388672e+00,2.801272869110107422e+00,2.736808776855468750e+00,2.675245285034179688e+00,2.616390466690063477e+00,2.560069561004638672e+00,2.506121873855590820e+00,2.454401254653930664e+00,2.404772281646728516e+00,2.357110738754272461e+00,2.311301469802856445e+00,2.267238855361938477e+00,2.224824905395507812e+00,2.183968782424926758e+00,2.144585847854614258e+00,2.106598377227783203e+00,2.069933176040649414e+00,2.034522533416748047e+00,2.000302791595458984e+00,1.967215657234191895e+00,1.935204982757568359e+00,1.904219269752502441e+00,1.874210357666015625e+00,1.845132589340209961e+00
5.000000000000000000e+00,5.000000000000000000e+00,5.000000000000000000e+00,5.000000000000000000e+00,5.000000000000000000e+00,5.000000000000000000e+00,5.000000000000000000e+00,5.000000000000000000e+00,5.000000000000000000e+00,5.000000000000000000e+00,5.000000000000000000e+00,5.000000000000000000e+00,5.000000000000000000e+00,5.000000000000000000e+00,5.000000000000000000e+00,5.000000000000000000e+00,5.000000000000000000e+00,5.000000000000000000e+00,5.000000000000000000e+00,5.000000000000000000e+00,5.000000000000000000e+00,5.000000000000000000e+00,5.000000000000000000e+00,5.000000000000000000e+00,5.000000000000000000e+00,5.000000000000000000e+00,5.000000000000000000e+00,5.000000000000000000e+00,5.000000000000000000e+00,5.000000000000000000e+00,5.000000000000000000e+00,5.000000000000000000e+00,5.000000000000000000e+00,5.000000000000000000e+00,5.000000000000000000e+00,5.000000000000000000e+00,1.910228967666625977e+00,1.627226471900939941e+00,1.808132648468017578e+00,1.806937932968139648e+00,1.805897474288940430e+00,1.839255094528198242e+00,1.875655174255371094e+00,1.814214587211608887e+00,1.781673908233642578e+00,1.763261318206787109e+00,1.764655113220214844e+00,1.785128355026245117e+00,3.554940462112426758e+00,3.451761960983276367e+00,3.354403734207153320e+00,3.262387275695800781e+00,3.175283908843994141e+00,3.092710971832275391e+00,3.014323711395263672e+00,2.939811944961547852e+00,2.868895053863525391e+00,2.801318883895874023e+00,2.736853122711181641e+00,2.675287485122680664e+00,2.616430521011352539e+00,2.560107707977294922e+00,2.506159067153930664e+00,2.454436779022216797e+00,2.404806375503540039e+00,2.357143402099609375e+00,2.311332941055297852e+00,2.267269134521484375e+00,2.224853992462158203e+00,2.183996915817260742e+00,2.144613027572631836e+00,2.106624603271484375e+00,2.069958209991455078e+00,2.034546852111816406e+00,2.000326395034790039e+00,1.967238426208496094e+00,1.935227036476135254e+00,1.904240608215332031e+00,1.874230980873107910e+00,1.845152378082275391e+00
5.000000000000000000e+00,5.000000000000000000e+00,5.000000000000000000e+00,5.000000000000000000e+00,5.000000000000000000e+00,5.000000000000000000e+00,5.000000000000000000e+00,5.000000000000000000e+00,5.000000000000000000e+00,5.000000000000000000e+00,5.000000000000000000e+00,5.000000000000000000e+00,5.000000000000000000e+00,5.000000000000000000e+00,5.000000000000000000e+00,5.000000000000000000e+00,5.000000000000000000e+00,5.000000000000000000e+00,5.000000000000000000e+00,5.000000000000000000e+00,5.000000000000000000e+00,5.000000000000000000e+00,5.000000000000000000e+00,5.000000000000000000e+00,5.000000000000000000e+00,5.000000000000000000e+00,5.000000000000000000e+00,5.000000000000000000e+00,5.000000000000000000e+00,5.000000000000000000e+00,5.000000000000000000e+00,5.000000000000000000e+00,5.000000000000000000e+00,5.000000000000000000e+00,5.000000000000000000e+00,5.000000000000000000e+00,5.000000000000000000e+00,1.843801379203796387e+00,1.815507769584655762e+00,1.813418388366699219e+00,1.812370419502258301e+00,1.852429032325744629e+00,4.331965446472167969e+00,1.811238765716552734e+00,1.778706431388854980e+00,1.750594139099121094e+00,1.753118276596069336e+00,1.754781365394592285e+00,3.555014610290527344e+00,3.451832056045532227e+00,3.354470014572143555e+00,3.262449741363525391e+00,3.175343275070190430e+00,3.092767238616943359e+00,3.014377355575561523e+00,2.939862728118896484e+00,2.868943452835083008e+00,2.801365137100219727e+00,2.736896991729736328e+00,2.675329446792602539e+00,2.616471052169799805e+00,2.560146570205688477e+00,2.506195783615112305e+00,2.454472303390502930e+00,2.404840469360351562e+00,2.357176065444946289e+00,2.311364173889160156e+00,2.267299413681030273e+00,2.224883079528808594e+00,2.184024810791015625e+00,2.144639968872070312e+00,2.106650829315185547e+00,2.069983482360839844e+00,2.034571170806884766e+00,2.000349998474121094e+00,1.967261314392089844e+00,1.935248970985412598e+00,1.904262065887451172e+00,1.874251723289489746e+00,1.845172524452209473e+00
5.000000000000000000e+00,5.000000000000000000e+00,5.000000000000000000e+00,5.000000000000000000e+00,5.000000000000000000e+00,5.000000000000000000e+00,5.000000000000000000e+00,5.000000000000000000e+00,5.000000000000000000e+00,5.000000000000000000e+00,5.000000000000000000e+00,5.000000000000000000e+00,5.000000000000000000e+00,5.000000000000000000e+00,5.000000000000000000e+00,5.000000000000000000e+00,5.000000000000000000e+00,5.000000000000000000e+00,5.000000000000000000e+00,5.000000000000000000e+00,5.000000000000000000e+00,5.000000000000000000e+00,5.000000000000000000e+00,5.000000000000000000e+00,5.000000000000000000e+00,5.000000000000000000e+00,5.000000000000000000e+00,5.000000000000000000e+00,5.000000000000000000e+00,5.000000000000000000e+00,5.000000000000000000e+00,5.000000000000000000e+00,5.000000000000000000e+00,5.000000000000000000e+00,5.000000000000000000e+00,5.000000000000000000e+00,5.000000000000000000e+00,1.854111552238464355e+00,1.822943329811096191e+00,1.820109248161315918e+00,1.820442080497741699e+00,1.862479567527770996e+00,4.332076072692871094e+00,1.819039106369018555e+00,1.773508071899414062e+00,1.744451761245727539e+00,1.741144180297851562e+00,1.743781447410583496e+00,3.555089235305786133e+00,3.451902151107788086e+00,3.354536056518554688e+00,3.262512445449829102e+00,3.175402641296386719e+00,3.092823505401611328e+00,3.014430761337280273e+00,2.939913749694824219e+00,2.868991851806640625e+00,2.801411151885986328e+00,2.736941099166870117e+00,2.675371646881103516e+00,2.616511106491088867e+00,2.560185194015502930e+00,2.506232976913452148e+00,2.454507827758789062e+00,2.404874324798583984e+00,2.357208967208862305e+00,2.311395883560180664e+00,2.267329692840576172e+00,2.224912405014038086e+00,2.184052944183349609e+00,2.144667148590087891e+00,2.106676816940307617e+00,2.070008754730224609e+00,2.034595727920532227e+00,2.000373601913452148e+00,1.967283844947814941e+00,1.935271024703979492e+00,1.904283404350280762e+00,1.874272227287292480e+00,1.845192670822143555e+00
5.000000000000000000e+00,5.000000000000000000e+00,5.000000000000000000e+00,5.000000000000000000e+00,5.000000000000000000e+00,5.000000000000000000e+00,5.000000000000000000e+00,5.000000000000000000e+00,5.000000000000000000e+00,5.000000000000000000e+00,5.000000000000000000e+00,5.000000000000000000e+00,5.000000000000000000e+00,5.000000000000000000e+00,5.000000000000000000e+00,5.000000000000000000e+00,5.000000000000000000e+00,5.000000000000000000e+00,5.000000000000000000e+00,5.000000000000000000e+00,5.000000000000000000e+00,5.000000000000000000e+00,5.000000000000000000e+00,5.000000000000000000e+00,5.000000000000000000e+00,5.000000000000000000e+00,5.000000000000000000e+00,5.000000000000000000e+00,5.000000000000000000e+00,5.000000000000000000e+00,5.000000000000000000e+00,5.000000000000000000e+00,5.000000000000000000e+00,5.000000000000000000e+00,5.000000000000000000e+00,5.000000000000000000e+00,5.000000000000000000e+00,1.864531278610229492e+00,1.830388426780700684e+00,1.827582597732543945e+00,1.833135008811950684e+00,1.872614026069641113e+00,4.332186698913574219e+00,1.830236911773681641e+00,1.767907977104187012e+00,1.740438818931579590e+00,1.725493788719177246e+00,1.731795668601989746e+00,1.779082655906677246e+00,3.451972484588623047e+00,3.354602575302124023e+00,3.262574911117553711e+00,3.175462245941162109e+00,3.092880010604858398e+00,3.014484167098999023e+00,2.939964532852172852e+00,2.869040489196777344e+00,2.801457405090332031e+00,2.736984968185424805e+00,2.675413846969604492e+00,2.616551637649536133e+00,2.560223579406738281e+00,2.506269931793212891e+00,2.454543352127075195e+00,2.404908418655395508e+00,2.357241392135620117e+00,2.311427354812622070e+00,2.267359972000122070e+00,2.224941492080688477e+00,2.184081077575683594e+00,2.144694328308105469e+00,2.106703042984008789e+00,2.070034027099609375e+00,2.034620046615600586e+00,2.000397205352783203e+00,1.967306733131408691e+00,1.935293197631835938e+00,1.904304862022399902e+00,1.874292969703674316e+00,1.845212697982788086e+00
5.000000000000000000e+00,5.000000000000000000e+00,5.000000000000000000e+00,5.000000000000000000e+00,5.000000000000000000e+00,5.000000000000000000e+00,5.000000000000000000e+00,5.000000000000000000e+00,5.000000000000000000e+00,5.000000000000000000e+00,5.000000000000000000e+00,5.000000000000000000e+00,5.000000000000000000e+00,5.000000000000000000e+00,5.000000000000000000e+00,5.000000000000000000e+00,5.000000000000000000e+00,5.000000000000000000e+00,5.000000000000000000e+00,5.000000000000000000e+00,5.000000000000000000e+00,5.000000000000000000e+00,5.000000000000000000e+00,5.000000000000000000e+00,5.000000000000000000e+00,5.000000000000000000e+00,5.000000000000000000e+00,5.000000000000000000e+00,5.000000000000000000e+00,5.000000000000000000e+00,5.000000000000000000e+00,5.000000000000000000e+00,5.000000000000000000e+00,5.000000000000000000e+00,5.000000000000000000e+00,5.000000000000000000e+00,5.000000000000000000e+00,1.876283764839172363e+00,1.834837436676025391e+00,1.832628130912780762e+00,1.843210935592651367e+00,4.496079921722412109e+00,4.332296848297119141e+00,4.180027484893798828e+00,1.762343168258666992e+00,1.736444354057312012e+00,1.713753342628479004e+00,1.717292666435241699e+00,1.724070072174072266e+00,3.452042341232299805e+00,3.354668855667114258e+00,3.262637853622436523e+00,3.175521373748779297e+00,3.092936515808105469e+00,3.014537811279296875e+00,2.940015554428100586e+00,2.869088888168334961e+00,2.801503658294677734e+00,2.737029075622558594e+00,2.675455808639526367e+00,2.616591691970825195e+00,2.560262203216552734e+00,2.506306886672973633e+00,2.454578638076782227e+00,2.404942750930786133e+00,2.357274293899536133e+00,2.311458587646484375e+00,2.267390012741088867e+00,2.224970579147338867e+00,2.184109210968017578e+00,2.144721269607543945e+00,2.106729269027709961e+00,2.070059299468994141e+00,2.034644365310668945e+00,2.000420808792114258e+00,1.967329621315002441e+00,1.935315251350402832e+00,1.904326081275939941e+00,1.874313712120056152e+00,1.845232844352722168e+00
5.000000000000000000e+00,5.000000000000000000e+00,5.000000000000000000e+00,5.000000000000000000e+00,5.000000000000000000e+00,5.000000000000000000e+00,5.000000000000000000e+00,5.000000000000000000e+00,5.000000000000000000e+00,5.000000000000000000e+00,5.000000000000000000e+00,5.000000000000000000e+00,5.000000000000000000e+00,5.000000000000000000e+00,5.000000000000000000e+00,5.000000000000000000e+00,5.000000000000000000e+00,5.000000000000000000e+00,5.000000000000000000e+00,5.000000000000000000e+00,5.000000000000000000e+00,5.000000000000000000e+00,5.000000000000000000e+00,5.000000000000000000e+00,5.000000000000000000e+00,5.000000000000000000e+00,5.000000000000000000e+00,5.000000000000000000e+00,5.000000000000000000e+00,5.000000000000000000e+00,5.000000000000000000e+00,5.000000000000000000e+00,5.000000000000000000e+00,5.000000000000000000e+00,5.000000000000000000e+00,5.000000000000000000e+00,5.000000000000000000e+00,1.888432264328002930e+00,1.842232584953308105e+00,1.837088108062744141e+00,1.853584885597229004e+00,4.496198654174804688e+00,4.332407951354980469e+00,4.180130481719970703e+00,1.784994602203369141e+00,1.731630563735961914e+00,1.710681676864624023e+00,1.707633614540100098e+00,1.715713977813720703e+00,3.452112674713134766e+00,3.354734897613525391e+00,3.262700557708740234e+00,3.175580978393554688e+00,3.092992544174194336e+00,3.014591217041015625e+00,2.940066576004028320e+00,2.869137048721313477e+00,2.801549673080444336e+00,2.737073421478271484e+00,2.675498008728027344e+00,2.616632223129272461e+00,2.560300827026367188e+00,2.506344079971313477e+00,2.454614162445068359e+00,2.404976606369018555e+00,2.357306957244873047e+00,2.311490297317504883e+00,2.267420530319213867e+00,2.224999666213989258e+00,2.184137344360351562e+00,2.144748449325561523e+00,2.106755256652832031e+00,2.070084333419799805e+00,2.034668684005737305e+00,2.000444412231445312e+00,1.967352390289306641e+00,1.935337305068969727e+00,1.904347419738769531e+00,1.874334454536437988e+00,1.845252752304077148e+00
5.000000000000000000e+00,5.000000000000000000e+00,5.000000000000000000e+00,5.000000000000000000e+00,5.000000000000000000e+00,5.000000000000000000e+00,5.000000000000000000e+00,5.000000000000000000e+00,5.000000000000000000e+00,5.000000000000000000e+00,5.000000000000000000e+00,5.000000000000000000e+00,5.000000000000000000e+00,5.000000000000000000e+00,5.000000000000000000e+00,5.000000000000000000e+00,5.000000000000000000e+00,5.000000000000000000e+00,5.000000000000000000e+00,5.000000000000000000e+00,5.000000000000000000e+00,5.000000000000000000e+00,5.000000000000000000e+00,5.000000000000000000e+00,5.000000000000000000e+00,5.000000000000000000e+00,5.000000000000000000e+00,5.000000000000000000e+00,5.000000000000000000e+00,5.000000000000000000e+00,5.000000000000000000e+00,5.000000000000000000e+00,5.000000000000000000e+00,5.000000000000000000e+00,5.000000000000000000e+00,5.000000000000000000e+00,5.000000000000000000e+00,1.905855655670166016e+00,1.849822878837585449e+00,1.841569662094116211e+00,1.863409161567687988e+00,4.496317863464355469e+00,4.332518100738525391e+00,4.180233001708984375e+00,4.038290023803710938e+00,1.733749032020568848e+00,1.712347149848937988e+00,1.711669683456420898e+00,1.718343973159790039e+00,3.452183008193969727e+00,3.354801416397094727e+00,3.262763023376464844e+00,3.175640106201171875e+00,3.093049049377441406e+00,3.014644861221313477e+00,2.940117120742797852e+00,2.869185686111450195e+00,2.801595926284790039e+00,2.737117290496826172e+00,2.675539970397949219e+00,2.616672515869140625e+00,2.560339450836181641e+00,2.506380796432495117e+00,2.454649686813354492e+00,2.405010700225830078e+00,2.357339620590209961e+00,2.311521530151367188e+00,2.267450809478759766e+00,2.225028991699218750e+00,2.184165239334106445e+00,2.144775390625000000e+00,2.106781482696533203e+00,2.070109605789184570e+00,2.034693002700805664e+00,2.000468015670776367e+00,1.967375278472900391e+00,1.935359239578247070e+00,1.904368877410888672e+00,1.874355196952819824e+00,1.845272779464721680e+00
5.000000000000000000e+00,5.000000000000000000e+00,5.000000000000000000e+00,5.000000000000000000e+00,5.000000000000000000e+00,5.000000000000000000e+00,5.000000000000000000e+00,5.000000000000000000e+00,5.000000000000000000e+00,5.000000000000000000e+00,5.000000000000000000e+00,5.000000000000000000e+00,5.000000000000000000e+00,5.000000000000000000e+00,5.000000000000000000e+00,5.000000000000000000e+00,5.000000000000000000e+00,5.000000000000000000e+00,5.000000000000000000e+00,5.000000000000000000e+00,5.000000000000000000e+00,5.000000000000000000e+00,5.000000000000000000e+00,5.000000000000000000e+00,5.000000000000000000e+00,5.000000000000000000e+00,5.000000000000000000e+00,5.000000000000000000e+00,5.000000000000000000e+00,5.000000000000000000e+00,5.000000000000000000e+00,5.000000000000000000e+00,5.000000000000000000e+00,5.000000000000000000e+00,5.000000000000000000e+00,5.000000000000000000e+00,5.000000000000000000e+00,1.917135953903198242e+00,1.857475876808166504e+00,1.846073269844055176e+00,1.869797468185424805e+00,4.496437072753906250e+00,4.332628726959228516e+00,4.180335998535156250e+00,4.038386344909667969e+00,1.741040349006652832e+00,1.719419360160827637e+00,1.720930576324462891e+00,3.555461406707763672e+00,3.452253103256225586e+00,3.354867458343505859e+00,3.262825965881347656e+00,3.175699472427368164e+00,3.093105077743530273e+00,3.014698266983032227e+00,2.940168142318725586e+00,2.869234085083007812e+00,2.801641941070556641e+00,2.737161636352539062e+00,2.675582408905029297e+00,2.616712808609008789e+00,2.560378074645996094e+00,2.506417989730834961e+00,2.454685211181640625e+00,2.405044794082641602e+00,2.357372522354125977e+00,2.311553001403808594e+00,2.267481088638305664e+00,2.225058078765869141e+00,2.184193372726440430e+00,2.144802570343017578e+00,2.106807470321655273e+00,2.070134878158569336e+00,2.034717559814453125e+00,2.000491380691528320e+00,1.967397809028625488e+00,1.935381293296813965e+00,1.904390215873718262e+00,1.874375700950622559e+00,1.845292925834655762e+00
5.000000000000000000e+00,5.000000000000000000e+00,5.000000000000000000e+00,5.000000000000000000e+00,5.000000000000000000e+00,5.000000000000000000e+00,5.000000000000000000e+00,5.000000000000000000e+00,5.000000000000000000e+00,5.000000000000000000e+00,5.000000000000000000e+00,5.000000000000000000e+00,5.000000000000000000e+00,5.000000000000000000e+00,5.000000000000000000e+00,5.000000000000000000e+00,5.000000000000000000e+00,5.000000000000000000e+00,5.000000000000000000e+00,5.000000000000000000e+00,5.000000000000000000e+00,5.000000000000000000e+00,5.000000000000000000e+00,5.000000000000000000e+00,5.000000000000000000e+00,5.000000000000000000e+00,5.000000000000000000e+00,5.000000000000000000e+00,5.000000000000000000e+00,5.000000000000000000e+00,5.000000000000000000e+00,5.000000000000000000e+00,5.000000000000000000e+00,5.000000000000000000e+00,5.000000000000000000e+00,5.000000000000000000e+00,5.000000000000000000e+00,1.925688266754150391e+00,1.868577361106872559e+00,1.853854894638061523e+00,1.880955934524536133e+00,4.496556282043457031e+00,4.332739353179931641e+00,4.180438995361328125e+00,1.807333588600158691e+00,1.749398350715637207e+00,1.731146812438964844e+00,1.730526208877563477e+00,3.555536031723022461e+00,3.452323436737060547e+00,3.354933977127075195e+00,3.262888431549072266e+00,3.175759077072143555e+00,3.093161344528198242e+00,3.014751672744750977e+00,2.940218925476074219e+00,2.869282484054565430e+00,2.801688432693481445e+00,2.737205505371093750e+00,2.675624608993530273e+00,2.616753101348876953e+00,2.560416698455810547e+00,2.506454706192016602e+00,2.454720735549926758e+00,2.405078887939453125e+00,2.357405185699462891e+00,2.311584711074829102e+00,2.267511367797851562e+00,2.225087165832519531e+00,2.184221506118774414e+00,2.144829750061035156e+00,2.106833696365356445e+00,2.070160150527954102e+00,2.034741878509521484e+00,2.000514984130859375e+00,1.967420697212219238e+00,1.935403466224670410e+00,1.904411673545837402e+00,1.874396443367004395e+00,1.845312952995300293e+00
5.000000000000000000e+00,5.000000000000000000e+00,5.000000000000000000e+00,5.000000000000000000e+00,5.000000000000000000e+00,5.000000000000000000e+00,5.000000000000000000e+00,5.000000000000000000e+00,5.000000000000000000e+00,5.000000000000000000e+00,5.000000000000000000e+00,5.000000000000000000e+00,5.000000000000000000e+00,5.000000000000000000e+00,5.000000000000000000e+00,5.000000000000000000e+00,5.000000000000000000e+00,5.000000000000000000e+00,5.000000000000000000e+00,5.000000000000000000e+00,5.000000000000000000e+00,5.000000000000000000e+00,5.000000000000000000e+00,5.000000000000000000e+00,5.000000000000000000e+00,5.000000000000000000e+00,5.000000000000000000e+00,5.000000000000000000e+00,5.000000000000000000e+00,5.000000000000000000e+00,5.000000000000000000e+00,5.000000000000000000e+00,5.000000000000000000e+00,5.000000000000000000e+00,5.000000000000000000e+00,5.000000000000000000e+00,1.975145697593688965e+00,1.923851251602172852e+00,1.884969353675842285e+00,1.870840549468994141e+00,1.903255939483642578e+00,4.496675014495849609e+00,4.332849502563476562e+00,4.180541992187500000e+00,1.779812335968017578e+00,1.752953529357910156e+00,1.743035197257995605e+00,1.740229368209838867e+00,3.555610179901123047e+00,3.452393293380737305e+00,3.355000257492065430e+00,3.262951374053955078e+00,3.175817966461181641e+00,3.093217849731445312e+00,3.014805078506469727e+00,2.940269947052001953e+00,2.869330883026123047e+00,2.801734685897827148e+00,2.737249851226806641e+00,2.675666570663452148e+00,2.616793394088745117e+00,2.560455322265625000e+00,2.506491899490356445e+00,2.454756021499633789e+00,2.405112981796264648e+00,2.357437849044799805e+00,2.311615943908691406e+00,2.267541408538818359e+00,2.225116491317749023e+00,2.184249639511108398e+00,2.144856691360473633e+00,2.106859922409057617e+00,2.070185422897338867e+00,2.034766197204589844e+00,2.000538587570190430e+00,1.967443585395812988e+00,1.935425519943237305e+00,1.904432773590087891e+00,1.874417185783386230e+00,1.845333099365234375e+00
5.000000000000000000e+00,5.000000000000000000e+00,5.000000000000000000e+00,5.000000000000000000e+00,5.000000000000000000e+00,5.000000000000000000e+00,5.000000000000000000e+00,5.000000000000000000e+00,5.000000000000000000e+00,5.000000000000000000e+00,5.000000000000000000e+00,5.000000000000000000e+00,5.000000000000000000e+00,5.000000000000000000e+00,5.000000000000000000e+00,5.000000000000000000e+00,5.000000000000000000e+00,5.000000000000000000e+00,5.000000000000000000e+00,5.000000000000000000e+00,5.000000000000000000e+00,5.000000000000000000e+00,5.000000000000000000e+00,5.000000000000000000e+00,5.000000000000000000e+00,5.000000000000000000e+00,5.000000000000000000e+00,5.000000000000000000e+00,5.000000000000000000e+00,5.000000000000000000e+00,5.000000000000000000e+00,5.000000000000000000e+00,5.000000000000000000e+00,5.000000000000000000e+00,5.000000000000000000e+00,5.000000000000000000e+00,1.979297995567321777e+00,1.941076278686523438e+00,1.915322184562683105e+00,1.930228710174560547e+00,4.673504352569580078e+00,4.496794223785400391e+00,4.332960605621337891e+00,4.180644989013671875e+00,1.784871220588684082e+00,1.754229307174682617e+00,1.750467658042907715e+00,1.748012065887451172e+00,3.555684804916381836e+00,3.452463626861572266e+00,3.355066299438476562e+00,3.263013839721679688e+00,3.175877571105957031e+00,3.093274116516113281e+00,3.014858484268188477e+00,2.940320730209350586e+00,2.869379520416259766e+00,2.801780700683593750e+00,2.737293958663940430e+00,2.675708770751953125e+00,2.616833686828613281e+00,2.560493707656860352e+00,2.506528854370117188e+00,2.454791545867919922e+00,2.405146837234497070e+00,2.357470512390136719e+00,2.311647653579711914e+00,2.267571926116943359e+00,2.225145578384399414e+00,2.184277772903442383e+00,2.144883871078491211e+00,2.106885910034179688e+00,2.070210695266723633e+00,2.034790754318237305e+00,2.000562191009521484e+00,1.967466354370117188e+00,1.935447692871093750e+00,1.904454231262207031e+00,1.874437928199768066e+00,1.845353007316589355e+00
5.000000000000000000e+00,5.000000000000000000e+00,5.000000000000000000e+00,5.000000000000000000e+00,5.000000000000000000e+00,5.000000000000000000e+00,5.000000000000000000e+00,5.000000000000000000e+00,5.000000000000000000e+00,5.000000000000000000e+00,5.000000000000000000e+00,5.000000000000000000e+00,5.000000000000000000e+00,5.000000000000000000e+00,5.000000000000000000e+00,5.000000000000000000e+00,5.000000000000000000e+00,5.000000000000000000e+00,5.000000000000000000e+00,5.000000000000000000e+00,5.000000000000000000e+00,5.000000000000000000e+00,5.000000000000000000e+00,5.000000000000000000e+00,5.000000000000000000e+00,5.000000000000000000e+00,5.000000000000000000e+00,5.000000000000000000e+00,5.000000000000000000e+00,5.000000000000000000e+00,5.000000000000000000e+00,5.000000000000000000e+00,5.000000000000000000e+00,5.000000000000000000e+00,5.000000000000000000e+00,2.048046112060546875e+00,2.000976562500000000e+00,1.980147957801818848e+00,1.993553638458251953e+00,4.864809513092041016e+00,4.673633098602294922e+00,4.496913433074951172e+00,4.333070755004882812e+00,4.180747509002685547e+00,1.783386826515197754e+00,1.753543376922607422e+00,1.750272870063781738e+00,1.747817754745483398e+00,3.555758953094482422e+00,3.452533960342407227e+00,3.355132579803466797e+00,3.263076305389404297e+00,3.175936698913574219e+00,3.093330621719360352e+00,3.014912128448486328e+00,2.940371513366699219e+00,2.869428157806396484e+00,2.801827192306518555e+00,2.737338066101074219e+00,2.675750970840454102e+00,2.616874217987060547e+00,2.560532569885253906e+00,2.506565809249877930e+00,2.454827070236206055e+00,2.405181169509887695e+00,2.357503414154052734e+00,2.311678886413574219e+00,2.267602205276489258e+00,2.225174665451049805e+00,2.184305667877197266e+00,2.144910812377929688e+00,2.106912136077880859e+00,2.070235967636108398e+00,2.034815073013305664e+00,2.000585794448852539e+00,1.967489242553710938e+00,1.935469508171081543e+00,1.904475569725036621e+00,1.874458670616149902e+00,1.845373034477233887e+00
5.000000000000000000e+00,5.000000000000000000e+00,5.000000000000000000e+00,5.000000000000000000e+00,5.000000000000000000e+00,5.000000000000000000e+00,5.000000000000000000e+00,5.000000000000000000e+00,5.000000000000000000e+00,5.000000000000000000e+00,5.000000000000000000e+00,5.000000000000000000e+00,5.000000000000000000e+00,5.000000000000000000e+00,5.000000000000000000e+00,5.000000000000000000e+00,5.000000000000000000e+00,5.000000000000000000e+00,5.000000000000000000e+00,5.000000000000000000e+00,5.000000000000000000e+00,5.000000000000000000e+00,5.000000000000000000e+00,5.000000000000000000e+00,5.000000000000000000e+00,5.000000000000000000e+00,5.000000000000000000e+00,5.000000000000000000e+00,5.000000000000000000e+00,5.000000000000000000e+00,5.000000000000000000e+00,5.000000000000000000e+00,5.000000000000000000e+00,5.000000000000000000e+00,5.000000000000000000e+00,2.064825534820556641e+00,2.023205280303955078e+00,2.008733987808227539e+00,5.000000000000000000e+00,4.864948749542236328e+00,4.673760890960693359e+00,4.497032165527343750e+00,4.333181381225585938e+00,4.180850982666015625e+00,1.781904578208923340e+00,1.752858161926269531e+00,1.749778270721435547e+00,1.747623682022094727e+00,3.555833578109741211e+00,3.452603816986083984e+00,3.355198621749877930e+00,3.263139247894287109e+00,3.175996303558349609e+00,3.093386650085449219e+00,3.014965772628784180e+00,2.940422534942626953e+00,2.869476556777954102e+00,2.801873207092285156e+00,2.737382173538208008e+00,2.675793170928955078e+00,2.616914272308349609e+00,2.560571193695068359e+00,2.506603002548217773e+00,2.454862594604492188e+00,2.405215024948120117e+00,2.357536077499389648e+00,2.311710357666015625e+00,2.267632484436035156e+00,2.225203990936279297e+00,2.184333801269531250e+00,2.144937992095947266e+00,2.106938123703002930e+00,2.070261240005493164e+00,2.034839391708374023e+00,2.000609159469604492e+00,1.967512011528015137e+00,1.935491681098937988e+00,1.904497027397155762e+00,1.874479174613952637e+00,1.845393180847167969e+00
5.000000000000000000e+00,5.000000000000000000e+00,5.000000000000000000e+00,5.000000000000000000e+00,5.000000000000000000e+00,5.000000000000000000e+00,5.000000000000000000e+00,5.000000000000000000e+00,5.000000000000000000e+00,5.000000000000000000e+00,5.000000000000000000e+00,5.000000000000000000e+00,5.000000000000000000e+00,5.000000000000000000e+00,5.000000000000000000e+00,5.000000000000000000e+00,5.000000000000000000e+00,5.000000000000000000e+00,5.000000000000000000e+00,5.000000000000000000e+00,5.000000000000000000e+00,5.000000000000000000e+00,5.000000000000000000e+00,5.000000000000000000e+00,5.000000000000000000e+00,5.000000000000000000e+00,5.000000000000000000e+00,5.000000000000000000e+00,5.000000000000000000e+00,5.000000000000000000e+00,5.000000000000000000e+00,5.000000000000000000e+00,5.000000000000000000e+00,5.000000000000000000e+00,5.000000000000000000e+00,2.088440895080566406e+00,2.050547122955322266e+00,2.057081460952758789e+00,5.000000000000000000e+00,4.865088462829589844e+00,4.673889636993408203e+00,4.497151374816894531e+00,4.333292007446289062e+00,4.180953979492187500e+00,1.780425071716308594e+00,1.752173066139221191e+00,1.748760342597961426e+00,1.747429609298706055e+00,3.555907964706420898e+00,3.452674150466918945e+00,3.355265140533447266e+00,3.263201713562011719e+00,3.176055908203125000e+00,3.093443155288696289e+00,3.015019178390502930e+00,2.940473318099975586e+00,2.869524955749511719e+00,2.801919460296630859e+00,2.737426280975341797e+00,2.675835371017456055e+00,2.616954803466796875e+00,2.560609579086303711e+00,2.506639719009399414e+00,2.454898118972778320e+00,2.405249118804931641e+00,2.357568740844726562e+00,2.311742067337036133e+00,2.267662763595581055e+00,2.225233078002929688e+00,2.184361934661865234e+00,2.144965171813964844e+00,2.106964349746704102e+00,2.070286273956298828e+00,2.034863948822021484e+00,2.000632762908935547e+00,1.967534661293029785e+00,1.935513734817504883e+00,1.904518485069274902e+00,1.874499917030334473e+00,1.845413208007812500e+00
5.000000000000000000e+00,5.000000000000000000e+00,5.000000000000000000e+00,5.000000000000000000e+00,5.000000000000000000e+00,5.000000000000000000e+00,5.000000000000000000e+00,5.000000000000000000e+00,5.000000000000000000e+00,5.000000000000000000e+00,5.000000000000000000e+00,5.000000000000000000e+00,5.000000000000000000e+00,5.000000000000000000e+00,5.000000000000000000e+00,5.000000000000000000e+00,5.000000000000000000e+00,5.000000000000000000e+00,5.000000000000000000e+00,5.000000000000000000e+00,5.000000000000000000e+00,5.000000000000000000e+00,5.000000000000000000e+00,5.000000000000000000e+00,5.000000000000000000e+00,5.000000000000000000e+00,5.000000000000000000e+00,5.000000000000000000e+00,5.000000000000000000e+00,5.000000000000000000e+00,5.000000000000000000e+00,5.000000000000000000e+00,5.000000000000000000e+00,5.000000000000000000e+00,2.203531742095947266e+00,2.114975690841674805e+00,2.081725597381591797e+00,2.124852895736694336e+00,5.000000000000000000e+00,4.865228176116943359e+00,4.674018383026123047e+00,4.497270107269287109e+00,4.333402633666992188e+00,4.181056499481201172e+00,1.782293915748596191e+00,1.751997590065002441e+00,1.747771263122558594e+00,1.747175931930541992e+00,3.555982351303100586e+00,3.452744007110595703e+00,3.355331659317016602e+00,3.263264656066894531e+00,3.176115036010742188e+00,3.093499660491943359e+00,3.015072822570800781e+00,2.940524339675903320e+00,2.869573354721069336e+00,2.801965951919555664e+00,2.737470388412475586e+00,2.675877332687377930e+00,2.616995096206665039e+00,2.560648441314697266e+00,2.506676912307739258e+00,2.454933404922485352e+00,2.405283212661743164e+00,2.357601642608642578e+00,2.311773300170898438e+00,2.267692804336547852e+00,2.225262165069580078e+00,2.184390068054199219e+00,2.144992113113403320e+00,2.106990575790405273e+00,2.070311546325683594e+00,2.034888267517089844e+00,2.000656366348266602e+00,1.967557549476623535e+00,1.935535788536071777e+00,1.904539585113525391e+00,1.874520659446716309e+00,1.845433354377746582e+00
5.000000000000000000e+00,5.000000000000000000e+00,5.000000000000000000e+00,5.000000000000000000e+00,5.000000000000000000e+00,5.000000000000000000e+00,5.000000000000000000e+00,5.000000000000000000e+00,5.000000000000000000e+00,5.000000000000000000e+00,5.000000000000000000e+00,5.000000000000000000e+00,5.000000000000000000e+00,5.000000000000000000e+00,5.000000000000000000e+00,5.000000000000000000e+00,5.000000000000000000e+00,5.000000000000000000e+00,5.000000000000000000e+00,5.000000000000000000e+00,5.000000000000000000e+00,5.000000000000000000e+00,5.000000000000000000e+00,5.000000000000000000e+00,5.000000000000000000e+00,5.000000000000000000e+00,5.000000000000000000e+00,5.000000000000000000e+00,5.000000000000000000e+00,5.000000000000000000e+00,5.000000000000000000e+00,5.000000000000000000e+00,5.000000000000000000e+00,5.000000000000000000e+00,2.190859556198120117e+00,2.143318891525268555e+00,2.123251438140869141e+00,5.000000000000000000e+00,5.000000000000000000e+00,4.865367412567138672e+00,4.674147129058837891e+00,4.497389316558837891e+00,4.333512783050537109e+00,4.181159496307373047e+00,1.789632081985473633e+00,1.753879070281982422e+00,1.747659087181091309e+00,1.769080996513366699e+00,3.556056976318359375e+00,3.452814340591430664e+00,3.355397701263427734e+00,3.263327360153198242e+00,3.176174640655517578e+00,3.093555927276611328e+00,3.015126228332519531e+00,2.940575361251831055e+00,2.869621992111206055e+00,2.802011966705322266e+00,2.737514734268188477e+00,2.675919771194458008e+00,2.617035388946533203e+00,2.560686826705932617e+00,2.506713867187500000e+00,2.454969167709350586e+00,2.405317306518554688e+00,2.357634305953979492e+00,2.311805009841918945e+00,2.267723321914672852e+00,2.225291252136230469e+00,2.184418201446533203e+00,2.145019292831420898e+00,2.107016563415527344e+00,2.070336818695068359e+00,2.034912586212158203e+00,2.000679969787597656e+00,1.967580318450927734e+00,1.935557961463928223e+00,1.904561042785644531e+00,1.874541401863098145e+00,1.845453262329101562e+00
5.000000000000000000e+00,5.000000000000000000e+00,5.000000000000000000e+00,5.000000000000000000e+00,5.000000000000000000e+00,5.000000000000000000e+00,5.000000000000000000e+00,5.000000000000000000e+00,5.000000000000000000e+00,5.000000000000000000e+00,5.000000000000000000e+00,5.000000000000000000e+00,5.000000000000000000e+00,5.000000000000000000e+00,5.000000000000000000e+00,5.000000000000000000e+00,5.000000000000000000e+00,5.000000000000000000e+00,5.000000000000000000e+00,5.000000000000000000e+00,5.000000000000000000e+00,5.000000000000000000e+00,5.000000000000000000e+00,5.000000000000000000e+00,5.000000000000000000e+00,5.000000000000000000e+00,5.000000000000000000e+00,5.000000000000000000e+00,5.000000000000000000e+00,5.000000000000000000e+00,5.000000000000000000e+00,5.000000000000000000e+00,5.000000000000000000e+00,5.000000000000000000e+00,2.232961177825927734e+00,2.172590255737304688e+00,5.000000000000000000e+00,5.000000000000000000e+00,5.000000000000000000e+00,4.865506649017333984e+00,4.674275875091552734e+00,4.497508049011230469e+00,4.333623409271240234e+00,4.181262016296386719e+00,1.797031164169311523e+00,1.755692124366760254e+00,1.747547149658203125e+00,1.771009922027587891e+00,3.556131124496459961e+00,3.452884674072265625e+00,3.355463981628417969e+00,3.263389825820922852e+00,3.176233768463134766e+00,3.093612194061279297e+00,3.015179872512817383e+00,2.940626144409179688e+00,2.869670629501342773e+00,2.802058219909667969e+00,2.737558603286743164e+00,2.675961732864379883e+00,2.617075920104980469e+00,2.560725450515747070e+00,2.506750822067260742e+00,2.455004692077636719e+00,2.405351400375366211e+00,2.357666969299316406e+00,2.311836242675781250e+00,2.267753601074218750e+00,2.225320577621459961e+00,2.184446334838867188e+00,2.145046472549438477e+00,2.107042789459228516e+00,2.070362091064453125e+00,2.034936904907226562e+00,2.000703573226928711e+00,1.967603206634521484e+00,1.935579895973205566e+00,1.904582381248474121e+00,1.874562144279479980e+00,1.845473289489746094e+00
4.875338077545166016e+00,4.874126911163330078e+00,4.872916221618652344e+00,4.871706485748291016e+00,4.870497226715087891e+00,4.869288444519042969e+00,4.868080615997314453e+00,4.866872787475585938e+00,4.865666389465332031e+00,4.864459991455078125e+00,4.863254547119140625e+00,4.862049102783203125e+00,4.860844612121582031e+00,4.859640598297119141e+00,4.858437538146972656e+00,4.857234954833984375e+00,4.856032848358154297e+00,4.854831695556640625e+00,4.853630542755126953e+00,4.852430343627929688e+00,4.851230621337890625e+00,4.850031852722167969e+00,4.848833084106445312e+00,4.847635269165039062e+00,4.846437931060791016e+00,4.845241069793701172e+00,4.844045162200927734e+00,4.842849254608154297e+00,4.841654300689697266e+00,4.840460300445556641e+00,4.839266300201416016e+00,4.838073253631591797e+00,4.836880207061767578e+00,4.835688114166259766e+00,2.230733871459960938e+00,2.207237958908081055e+00,4.832115650177001953e+00,4.830925941467285156e+00,4.829737186431884766e+00,4.828548431396484375e+00,4.674404621124267578e+00,4.497627735137939453e+00,4.333734035491943359e+00,4.181365013122558594e+00,1.807816386222839355e+00,1.757509112358093262e+00,1.747434973716735840e+00,3.665821790695190430e+00,3.556205749511718750e+00,3.452954769134521484e+00,3.355530261993408203e+00,3.263452768325805664e+00,3.176293373107910156e+00,3.093668460845947266e+00,3.015233516693115234e+00,2.940677165985107422e+00,2.869719028472900391e+00,2.802104473114013672e+00,2.737602949142456055e+00,2.676003932952880859e+00,2.617115974426269531e+00,2.560764312744140625e+00,2.506788015365600586e+00,2.455039978027343750e+00,2.405385494232177734e+00,2.357699871063232422e+00,2.311867713928222656e+00,2.267783880233764648e+00,2.225349664688110352e+00,2.184474468231201172e+00,2.145073413848876953e+00,2.107068777084350586e+00,2.070387363433837891e+00,2.034961462020874023e+00,2.000727176666259766e+00,1.967626094818115234e+00,1.935601949691772461e+00,1.904603838920593262e+00,1.874582648277282715e+00,1.845493435859680176e+00
3.778126478195190430e+00,3.777399063110351562e+00,3.776672124862670898e+00,3.775945186614990234e+00,3.775218725204467773e+00,3.774492502212524414e+00,3.773766756057739258e+00,3.773041009902954102e+00,3.772315263748168945e+00,3.771590232849121094e+00,3.770865440368652344e+00,3.770140886306762695e+00,3.769416809082031250e+00,3.768692731857299805e+00,3.767969131469726562e+00,3.767245769500732422e+00,3.766522645950317383e+00,3.765799760818481445e+00,3.765077114105224609e+00,3.764354705810546875e+00,3.763632774353027344e+00,3.762911081314086914e+00,3.762189626693725586e+00,3.761468410491943359e+00,3.760747671127319336e+00,3.760026931762695312e+00,3.759306669235229492e+00,3.758586168289184570e+00,3.757866382598876953e+00,3.757146835327148438e+00,3.756427526473999023e+00,3.755708694458007812e+00,3.754989862442016602e+00,3.754271507263183594e+00,2.219429492950439453e+00,2.208320617675781250e+00,2.233499288558959961e+00,3.751400470733642578e+00,3.750683546066284180e+00,3.749966621398925781e+00,3.749250173568725586e+00,3.748533964157104492e+00,3.747817993164062500e+00,3.747102260589599609e+00,1.833930969238281250e+00,1.759329557418823242e+00,1.747323036193847656e+00,3.665900707244873047e+00,3.556280374526977539e+00,3.453025102615356445e+00,3.355596542358398438e+00,3.263515233993530273e+00,3.176352977752685547e+00,3.093724966049194336e+00,3.015286922454833984e+00,2.940727949142456055e+00,2.869767427444458008e+00,2.802150726318359375e+00,2.737646818161010742e+00,2.676046133041381836e+00,2.617156505584716797e+00,2.560802698135375977e+00,2.506824731826782227e+00,2.455075502395629883e+00,2.405419588088989258e+00,2.357732534408569336e+00,2.311899423599243164e+00,2.267814159393310547e+00,2.225378751754760742e+00,2.184502363204956055e+00,2.145100593566894531e+00,2.107095003128051758e+00,2.070412635803222656e+00,2.034985780715942383e+00,2.000750780105590820e+00,1.967648625373840332e+00,1.935624003410339355e+00,1.904625177383422852e+00,1.874603390693664551e+00,1.845513463020324707e+00
3.084050178527832031e+00,3.083565473556518555e+00,3.083081007003784180e+00,3.082596778869628906e+00,3.082112550735473633e+00,3.081628561019897461e+00,3.081144571304321289e+00,3.080660820007324219e+00,3.080177307128906250e+00,3.079694032669067383e+00,3.079210758209228516e+00,3.078727483749389648e+00,3.078244209289550781e+00,3.077761411666870117e+00,3.077278852462768555e+00,3.076796293258666992e+00,3.076313972473144531e+00,3.075831651687622070e+00,3.075349569320678711e+00,3.074867725372314453e+00,3.074385881423950195e+00,3.073904275894165039e+00,3.073422908782958984e+00,3.072941541671752930e+00,3.072460412979125977e+00,3.071979284286499023e+00,3.071498394012451172e+00,3.071017742156982422e+00,3.070537328720092773e+00,3.070056915283203125e+00,3.069576501846313477e+00,3.069096565246582031e+00,3.068616151809692383e+00,3.068136453628540039e+00,2.205437183380126953e+00,2.203448772430419922e+00,2.213644981384277344e+00,3.066218852996826172e+00,3.065739870071411133e+00,3.065260887145996094e+00,3.064782142639160156e+00,3.064303398132324219e+00,3.063825130462646484e+00,3.063346862792968750e+00,3.062868595123291016e+00,1.770856261253356934e+00,1.763293027877807617e+00,3.061434984207153320e+00,3.060957431793212891e+00,3.060480117797851562e+00,3.060002803802490234e+00,3.059525728225708008e+00,3.059048414230346680e+00,3.058571577072143555e+00,3.015340566635131836e+00,2.940778970718383789e+00,2.869815826416015625e+00,2.802196979522705078e+00,2.737691164016723633e+00,2.676088333129882812e+00,2.617196798324584961e+00,2.560841560363769531e+00,2.506861925125122070e+00,2.455111026763916016e+00,2.405453681945800781e+00,2.357765197753906250e+00,2.311930656433105469e+00,2.267844438552856445e+00,2.225408077239990234e+00,2.184530496597290039e+00,2.145127773284912109e+00,2.107121229171752930e+00,2.070437908172607422e+00,2.035010099411010742e+00,2.000774145126342773e+00,1.967671513557434082e+00,1.935646176338195801e+00,1.904646396636962891e+00,1.874624133110046387e+00,1.845533609390258789e+00
2.605412244796752930e+00,2.605066299438476562e+00,2.604720592498779297e+00,2.604374885559082031e+00,2.604029178619384766e+00,2.603683710098266602e+00,2.603338241577148438e+00,2.602993011474609375e+00,2.602647781372070312e+00,2.602302551269531250e+00,2.601957321166992188e+00,2.601612567901611328e+00,2.601267576217651367e+00,2.600922822952270508e+00,2.600578069686889648e+00,2.600233554840087891e+00,2.599889039993286133e+00,2.599544286727905273e+00,2.599200010299682617e+00,2.598855733871459961e+00,2.598511457443237305e+00,2.598167419433593750e+00,2.597823619842529297e+00,2.597479581832885742e+00,2.597135782241821289e+00,2.596792221069335938e+00,2.596448659896850586e+00,2.596105098724365234e+00,2.595761537551879883e+00,2.595418214797973633e+00,2.595075130462646484e+00,2.594731807708740234e+00,2.594388723373413086e+00,2.594045877456665039e+00,2.593703031539916992e+00,2.191502809524536133e+00,2.203560590744018555e+00,2.592674732208251953e+00,2.592332124710083008e+00,2.591989755630493164e+00,2.591647386550903320e+00,2.591305017471313477e+00,2.590962886810302734e+00,2.590620994567871094e+00,2.590278863906860352e+00,1.762237191200256348e+00,1.747877001762390137e+00,2.589253425598144531e+00,2.588912010192871094e+00,2.588570356369018555e+00,2.588228940963745117e+00,2.587887525558471680e+00,2.587546348571777344e+00,2.587205171585083008e+00,2.586864233016967773e+00,2.586523056030273438e+00,2.586182117462158203e+00,2.585841178894042969e+00,2.585500478744506836e+00,2.585160017013549805e+00,2.584819316864013672e+00,2.560879945755004883e+00,2.506898880004882812e+00,2.455146551132202148e+00,2.405487537384033203e+00,2.357798099517822266e+00,2.311962366104125977e+00,2.267874717712402344e+00,2.225437164306640625e+00,2.184558868408203125e+00,2.145154953002929688e+00,2.107147216796875000e+00,2.070462942123413086e+00,2.035034418106079102e+00,2.000797748565673828e+00,1.967694401741027832e+00,1.935668230056762695e+00,1.904667854309082031e+00,1.874644875526428223e+00,1.845553517341613770e+00
2.255402326583862305e+00,2.255142211914062500e+00,2.254882335662841797e+00,2.254622220993041992e+00,2.254362344741821289e+00,2.254102468490600586e+00,2.253842592239379883e+00,2.253582715988159180e+00,2.253323078155517578e+00,2.253063440322875977e+00,2.252803802490234375e+00,2.252544403076171875e+00,2.252285003662109375e+00,2.252025604248046875e+00,2.251766204833984375e+00,2.251506805419921875e+00,2.251247644424438477e+00,2.250988483428955078e+00,2.250729322433471680e+00,2.250470161437988281e+00,2.250211238861083984e+00,2.249952316284179688e+00,2.249693393707275391e+00,2.249435186386108398e+00,2.249177217483520508e+00,2.248919486999511719e+00,2.248661756515502930e+00,2.248404264450073242e+00,2.248146533966064453e+00,2.247889041900634766e+00,2.247631549835205078e+00,2.247374057769775391e+00,2.247116804122924805e+00,2.246859550476074219e+00,2.246602296829223633e+00,2.246345043182373047e+00,2.246088027954101562e+00,2.245830774307250977e+00,2.245573759078979492e+00,2.245316743850708008e+00,2.245059967041015625e+00,2.244803190231323242e+00,2.244546175003051758e+00,2.244289398193359375e+00,1.821565389633178711e+00,1.745481371879577637e+00,1.708969712257385254e+00,2.243263244628906250e+00,2.243006706237792969e+00,2.242750406265258789e+00,2.242494106292724609e+00,2.242237806320190430e+00,2.241981744766235352e+00,2.241725444793701172e+00,2.241469383239746094e+00,2.241213560104370117e+00,2.240957498550415039e+00,2.240701675415039062e+00,2.240445852279663086e+00,2.240190029144287109e+00,2.239934206008911133e+00,2.239678382873535156e+00,2.239422798156738281e+00,2.239167213439941406e+00,2.238911867141723633e+00,2.238656282424926758e+00,2.238400936126708984e+00,2.238145589828491211e+00,2.225466251373291016e+00,2.184586763381958008e+00,2.145181894302368164e+00,2.107173442840576172e+00,2.070488214492797852e+00,2.035058736801147461e+00,2.000821590423583984e+00,1.967717170715332031e+00,1.935690164566040039e+00,1.904689192771911621e+00,1.874665617942810059e+00,1.845573663711547852e+00
1.988336324691772461e+00,1.988134145736694336e+00,1.987931966781616211e+00,1.987729907035827637e+00,1.987527608871459961e+00,1.987325668334960938e+00,1.987123727798461914e+00,1.986921787261962891e+00,1.986719846725463867e+00,1.986518025398254395e+00,1.986316323280334473e+00,1.986114501953125000e+00,1.985912799835205078e+00,1.985711216926574707e+00,1.985509514808654785e+00,1.985307931900024414e+00,1.985106468200683594e+00,1.984904885292053223e+00,1.984703421592712402e+00,1.984502077102661133e+00,1.984300613403320312e+00,1.984099268913269043e+00,1.983897924423217773e+00,1.983696699142456055e+00,1.983495473861694336e+00,1.983294367790222168e+00,1.983093142509460449e+00,1.982891798019409180e+00,1.982690811157226562e+00,1.982489824295043945e+00,1.982288837432861328e+00,1.982087850570678711e+00,1.981886982917785645e+00,1.981686115264892578e+00,1.981485366821289062e+00,1.981284499168395996e+00,1.981083750724792480e+00,1.980883121490478516e+00,1.980682492256164551e+00,1.980481863021850586e+00,1.980281233787536621e+00,1.980080723762512207e+00,1.979880213737487793e+00,1.979679822921752930e+00,1.979479432106018066e+00,1.767670869827270508e+00,1.673432350158691406e+00,1.652659416198730469e+00,1.709285378456115723e+00,1.978477954864501953e+00,1.978277564048767090e+00,1.978077411651611328e+00,1.977877378463745117e+00,1.977677345275878906e+00,1.977477312088012695e+00,1.977277398109436035e+00,1.977077364921569824e+00,1.976877570152282715e+00,1.976677656173706055e+00,1.976477861404418945e+00,1.976278066635131836e+00,1.976078391075134277e+00,1.975878715515136719e+00,1.975679039955139160e+00,1.975479483604431152e+00,1.975279927253723145e+00,1.975080370903015137e+00,1.974880933761596680e+00,1.974681496620178223e+00,1.974482059478759766e+00,1.974282741546630859e+00,1.974083423614501953e+00,1.973883867263793945e+00,1.973684668540954590e+00,1.973485469818115234e+00,1.967740058898925781e+00,1.935712218284606934e+00,1.904710650444030762e+00,1.874686121940612793e+00,1.845593690872192383e+00
1.777821302413940430e+00,1.777659654617309570e+00,1.777497887611389160e+00,1.777336359024047852e+00,1.777174830436706543e+00,1.777013301849365234e+00,1.776851773262023926e+00,1.776690363883972168e+00,1.776528954505920410e+00,1.776367545127868652e+00,1.776206254959106445e+00,1.776044845581054688e+00,1.775883555412292480e+00,1.775722265243530273e+00,1.775561094284057617e+00,1.775399923324584961e+00,1.775238633155822754e+00,1.775077581405639648e+00,1.774916410446166992e+00,1.774755358695983887e+00,1.774594187736511230e+00,1.774433255195617676e+00,1.774272203445434570e+00,1.774111270904541016e+00,1.773950099945068359e+00,1.773789167404174805e+00,1.773628234863281250e+00,1.773467421531677246e+00,1.773306608200073242e+00,1.773145794868469238e+00,1.772984981536865234e+00,1.772824287414550781e+00,1.772663474082946777e+00,1.772502779960632324e+00,1.772342205047607422e+00,1.772181510925292969e+00,1.772020936012268066e+00,1.771860361099243164e+00,1.771699786186218262e+00,1.771539330482482910e+00,1.771378874778747559e+00,1.771218419075012207e+00,1.771057963371276855e+00,1.770897507667541504e+00,1.770737171173095703e+00,1.770576834678649902e+00,1.667007207870483398e+00,1.618891000747680664e+00,1.627453327178955078e+00,1.769935607910156250e+00,1.769775390625000000e+00,1.769615173339843750e+00,1.769455075263977051e+00,1.769294977188110352e+00,1.769134879112243652e+00,1.768974781036376953e+00,1.768814802169799805e+00,1.768654823303222656e+00,1.768494844436645508e+00,1.768334984779357910e+00,1.768175005912780762e+00,1.768015146255493164e+00,1.767855286598205566e+00,1.767695546150207520e+00,1.767535686492919922e+00,1.767375946044921875e+00,1.767216205596923828e+00,1.767056465148925781e+00,1.766896843910217285e+00,1.766737222671508789e+00,1.766577363014221191e+00,1.766417860984802246e+00,1.766258239746093750e+00,1.766098737716674805e+00,1.765939235687255859e+00,1.765779733657836914e+00,1.765620350837707520e+00,1.765460968017578125e+00,1.765301585197448730e+00,1.765142202377319336e+00
1.607614994049072266e+00,1.607482790946960449e+00,1.607350707054138184e+00,1.607218623161315918e+00,1.607086420059204102e+00,1.606954455375671387e+00,1.606822371482849121e+00,1.606690287590026855e+00,1.606558322906494141e+00,1.606426358222961426e+00,1.606294393539428711e+00,1.606162428855895996e+00,1.606030464172363281e+00,1.605898618698120117e+00,1.605766773223876953e+00,1.605634927749633789e+00,1.605503082275390625e+00,1.605371236801147461e+00,1.605239391326904297e+00,1.605107665061950684e+00,1.604975938796997070e+00,1.604844093322753906e+00,1.604712367057800293e+00,1.604580640792846680e+00,1.604449033737182617e+00,1.604317307472229004e+00,1.604185700416564941e+00,1.604054212570190430e+00,1.603922605514526367e+00,1.603790998458862305e+00,1.603659510612487793e+00,1.603528022766113281e+00,1.603396534919738770e+00,1.603265047073364258e+00,1.603133559226989746e+00,1.603002190589904785e+00,1.602870821952819824e+00,1.602739334106445312e+00,1.602608084678649902e+00,1.602476716041564941e+00,1.602345347404479980e+00,1.602214097976684570e+00,1.602082848548889160e+00,1.601951599121093750e+00,1.601820230484008789e+00,1.601688981056213379e+00,1.601557731628417969e+00,1.601426601409912109e+00,1.601295471191406250e+00,1.601164340972900391e+00,1.601033210754394531e+00,1.600902199745178223e+00,1.600771188735961914e+00,1.600640058517456055e+00,1.600509047508239746e+00,1.600378155708312988e+00,1.600247144699096680e+00,1.600116133689880371e+00,1.599985241889953613e+00,1.599854350090026855e+00,1.599723458290100098e+00,1.599592566490173340e+00,1.599461674690246582e+00,1.599330902099609375e+00,1.599200129508972168e+00,1.599069356918334961e+00,1.598938584327697754e+00,1.598807692527770996e+00,1.598676919937133789e+00,1.598546266555786133e+00,1.598415613174438477e+00,1.598284959793090820e+00,1.598154306411743164e+00,1.598023653030395508e+00,1.597893118858337402e+00,1.597762584686279297e+00,1.597632050514221191e+00,1.597501516342163086e+00,1.597370982170104980e+00,1.597240567207336426e+00
1.467151880264282227e+00,1.467041850090026855e+00,1.466931700706481934e+00,1.466821670532226562e+00,1.466711640357971191e+00,1.466601729393005371e+00,1.466491699218750000e+00,1.466381669044494629e+00,1.466271758079528809e+00,1.466161847114562988e+00,1.466051936149597168e+00,1.465942025184631348e+00,1.465832114219665527e+00,1.465722203254699707e+00,1.465612292289733887e+00,1.465502500534057617e+00,1.465392708778381348e+00,1.465282797813415527e+00,1.465172886848449707e+00,1.465063095092773438e+00,1.464953422546386719e+00,1.464843630790710449e+00,1.464733958244323730e+00,1.464624166488647461e+00,1.464514493942260742e+00,1.464404821395874023e+00,1.464295148849487305e+00,1.464185476303100586e+00,1.464075922966003418e+00,1.463966250419616699e+00,1.463856697082519531e+00,1.463747143745422363e+00,1.463637471199035645e+00,1.463527917861938477e+00,1.463418483734130859e+00,1.463308930397033691e+00,1.463199377059936523e+00,1.463089942932128906e+00,1.462980508804321289e+00,1.462871074676513672e+00,1.462761640548706055e+00,1.462652087211608887e+00,1.462542653083801270e+00,1.462433338165283203e+00,1.462323904037475586e+00,1.462214589118957520e+00,1.462105274200439453e+00,1.461995959281921387e+00,1.461886644363403320e+00,1.461777329444885254e+00,1.461668014526367188e+00,1.461558818817138672e+00,1.461449623107910156e+00,1.461340427398681641e+00,1.461231112480163574e+00,1.461122035980224609e+00,1.461012840270996094e+00,1.460903644561767578e+00,1.460794568061828613e+00,1.460685372352600098e+00,1.460576295852661133e+00,1.460467219352722168e+00,1.460358142852783203e+00,1.460249066352844238e+00,1.460139870643615723e+00,1.460030913352966309e+00,1.459921836853027344e+00,1.459812879562377930e+00,1.459703922271728516e+00,1.459594964981079102e+00,1.459486007690429688e+00,1.459377050399780273e+00,1.459268212318420410e+00,1.459159255027770996e+00,1.459050416946411133e+00,1.458941578865051270e+00,1.458832740783691406e+00,1.458723902702331543e+00,1.458615064620971680e+00,1.458506226539611816e+00
1.349261999130249023e+00,1.349168896675109863e+00,1.349075794219970703e+00,1.348982691764831543e+00,1.348889708518981934e+00,1.348796606063842773e+00,1.348703622817993164e+00,1.348610520362854004e+00,1.348517537117004395e+00,1.348424553871154785e+00,1.348331570625305176e+00,1.348238587379455566e+00,1.348145723342895508e+00,1.348052740097045898e+00,1.347959756851196289e+00,1.347866892814636230e+00,1.347773909568786621e+00,1.347681045532226562e+00,1.347588062286376953e+00,1.347495198249816895e+00,1.347402453422546387e+00,1.347309589385986328e+00,1.347216725349426270e+00,1.347123980522155762e+00,1.347031116485595703e+00,1.346938371658325195e+00,1.346845626831054688e+00,1.346752882003784180e+00,1.346660137176513672e+00,1.346567392349243164e+00,1.346474647521972656e+00,1.346381902694702148e+00,1.346289157867431641e+00,1.346196532249450684e+00,1.346103906631469727e+00,1.346011161804199219e+00,1.345918536186218262e+00,1.345825910568237305e+00,1.345733165740966797e+00,1.345640540122985840e+00,1.345548033714294434e+00,1.345455408096313477e+00,1.345362782478332520e+00,1.345270276069641113e+00,1.345177769660949707e+00,1.345085144042968750e+00,1.344992637634277344e+00,1.344900131225585938e+00,1.344807624816894531e+00,1.344715118408203125e+00,1.344622731208801270e+00,1.344530224800109863e+00,1.344437837600708008e+00,1.344345331192016602e+00,1.344252943992614746e+00,1.344160556793212891e+00,1.344068169593811035e+00,1.343975782394409180e+00,1.343883395195007324e+00,1.343791007995605469e+00,1.343698740005493164e+00,1.343606233596801758e+00,1.343513965606689453e+00,1.343421578407287598e+00,1.343329310417175293e+00,1.343237042427062988e+00,1.343144774436950684e+00,1.343052506446838379e+00,1.342960238456726074e+00,1.342868089675903320e+00,1.342775821685791016e+00,1.342683672904968262e+00,1.342591404914855957e+00,1.342499256134033203e+00,1.342407107353210449e+00,1.342314958572387695e+00,1.342222809791564941e+00,1.342130661010742188e+00,1.342038631439208984e+00,1.341946482658386230e+00
1.248908519744873047e+00,1.248828768730163574e+00,1.248749136924743652e+00,1.248669385910034180e+00,1.248589634895324707e+00,1.248509883880615234e+00,1.248430132865905762e+00,1.248350501060485840e+00,1.248270750045776367e+00,1.248191118240356445e+00,1.248111367225646973e+00,1.248031735420227051e+00,1.247952103614807129e+00,1.247872352600097656e+00,1.247792720794677734e+00,1.247713088989257812e+00,1.247633457183837891e+00,1.247553944587707520e+00,1.247474312782287598e+00,1.247394800186157227e+00,1.247315168380737305e+00,1.247235655784606934e+00,1.247156023979187012e+00,1.247076511383056641e+00,1.246996998786926270e+00,1.246917486190795898e+00,1.246837973594665527e+00,1.246758460998535156e+00,1.246678948402404785e+00,1.246599555015563965e+00,1.246520042419433594e+00,1.246440529823303223e+00,1.246361136436462402e+00,1.246281743049621582e+00,1.246202230453491211e+00,1.246122837066650391e+00,1.246043324470520020e+00,1.245963931083679199e+00,1.245884537696838379e+00,1.245805144309997559e+00,1.245725750923156738e+00,1.245646476745605469e+00,1.245567083358764648e+00,1.245487809181213379e+00,1.245408415794372559e+00,1.245329141616821289e+00,1.245249867439270020e+00,1.245170474052429199e+00,1.245091199874877930e+00,1.245011925697326660e+00,1.244932651519775391e+00,1.244853377342224121e+00,1.244774222373962402e+00,1.244694948196411133e+00,1.244615674018859863e+00,1.244536519050598145e+00,1.244457364082336426e+00,1.244378089904785156e+00,1.244298815727233887e+00,1.244219660758972168e+00,1.244140505790710449e+00,1.244061350822448730e+00,1.243982195854187012e+00,1.243903040885925293e+00,1.243823885917663574e+00,1.243744850158691406e+00,1.243665695190429688e+00,1.243586659431457520e+00,1.243507504463195801e+00,1.243428468704223633e+00,1.243349432945251465e+00,1.243270397186279297e+00,1.243191361427307129e+00,1.243112325668334961e+00,1.243033289909362793e+00,1.242954254150390625e+00,1.242875218391418457e+00,1.242796301841735840e+00,1.242717266082763672e+00,1.242638349533081055e+00
1.162449717521667480e+00,1.162380576133728027e+00,1.162311434745788574e+00,1.162242412567138672e+00,1.162173271179199219e+00,1.162104249000549316e+00,1.162035226821899414e+00,1.161966085433959961e+00,1.161897063255310059e+00,1.161828041076660156e+00,1.161758899688720703e+00,1.161689877510070801e+00,1.161620855331420898e+00,1.161551952362060547e+00,1.161482930183410645e+00,1.161413908004760742e+00,1.161344885826110840e+00,1.161275982856750488e+00,1.161206960678100586e+00,1.161138057708740234e+00,1.161069154739379883e+00,1.161000132560729980e+00,1.160931229591369629e+00,1.160862326622009277e+00,1.160793423652648926e+00,1.160724520683288574e+00,1.160655617713928223e+00,1.160586714744567871e+00,1.160517811775207520e+00,1.160448908805847168e+00,1.160380125045776367e+00,1.160311222076416016e+00,1.160242319107055664e+00,1.160173416137695312e+00,1.160104632377624512e+00,1.160035848617553711e+00,1.159966945648193359e+00,1.159898161888122559e+00,1.159829378128051758e+00,1.159760594367980957e+00,1.159691810607910156e+00,1.159623026847839355e+00,1.159554243087768555e+00,1.159485459327697754e+00,1.159416794776916504e+00,1.159348011016845703e+00,1.159279227256774902e+00,1.159210562705993652e+00,1.159141778945922852e+00,1.159073114395141602e+00,1.159004449844360352e+00,1.158935666084289551e+00,1.158867001533508301e+00,1.158798336982727051e+00,1.158729672431945801e+00,1.158661007881164551e+00,1.158592224121093750e+00,1.158523678779602051e+00,1.158455014228820801e+00,1.158386349678039551e+00,1.158317804336547852e+00,1.158249139785766602e+00,1.158180594444274902e+00,1.158111929893493652e+00,1.158043384552001953e+00,1.157974839210510254e+00,1.157906174659729004e+00,1.157837629318237305e+00,1.157769083976745605e+00,1.157700538635253906e+00,1.157631993293762207e+00,1.157563447952270508e+00,1.157495021820068359e+00,1.157426476478576660e+00,1.157357931137084961e+00,1.157289505004882812e+00,1.157220959663391113e+00,1.157152533531188965e+00,1.157083988189697266e+00,1.157015442848205566e+00
1.087186336517333984e+00,1.087125897407531738e+00,1.087065458297729492e+00,1.087005019187927246e+00,1.086944580078125000e+00,1.086884140968322754e+00,1.086823821067810059e+00,1.086763262748718262e+00,1.086702942848205566e+00,1.086642503738403320e+00,1.086582183837890625e+00,1.086521744728088379e+00,1.086461424827575684e+00,1.086400985717773438e+00,1.086340665817260742e+00,1.086280345916748047e+00,1.086220026016235352e+00,1.086159586906433105e+00,1.086099267005920410e+00,1.086038947105407715e+00,1.085978627204895020e+00,1.085918426513671875e+00,1.085858106613159180e+00,1.085797786712646484e+00,1.085737466812133789e+00,1.085677146911621094e+00,1.085616946220397949e+00,1.085556626319885254e+00,1.085496425628662109e+00,1.085436105728149414e+00,1.085375785827636719e+00,1.085315585136413574e+00,1.085255384445190430e+00,1.085195064544677734e+00,1.085134863853454590e+00,1.085074663162231445e+00,1.085014462471008301e+00,1.084954261779785156e+00,1.084894061088562012e+00,1.084833860397338867e+00,1.084773659706115723e+00,1.084713459014892578e+00,1.084653377532958984e+00,1.084593176841735840e+00,1.084532976150512695e+00,1.084472894668579102e+00,1.084412693977355957e+00,1.084352612495422363e+00,1.084292531013488770e+00,1.084232330322265625e+00,1.084172248840332031e+00,1.084112167358398438e+00,1.084051966667175293e+00,1.083991885185241699e+00,1.083931803703308105e+00,1.083871722221374512e+00,1.083811640739440918e+00,1.083751559257507324e+00,1.083691477775573730e+00,1.083631396293640137e+00,1.083571434020996094e+00,1.083511352539062500e+00,1.083451271057128906e+00,1.083391308784484863e+00,1.083331227302551270e+00,1.083271265029907227e+00,1.083211183547973633e+00,1.083151221275329590e+00,1.083091259002685547e+00,1.083031296730041504e+00,1.082971215248107910e+00,1.082911252975463867e+00,1.082851290702819824e+00,1.082791328430175781e+00,1.082731366157531738e+00,1.082671403884887695e+00,1.082611441612243652e+00,1.082551479339599609e+00,1.082491517066955566e+00,1.082431674003601074e+00
1.021076321601867676e+00,1.021023035049438477e+00,1.020969629287719727e+00,1.020916342735290527e+00,1.020863056182861328e+00,1.020809769630432129e+00,1.020756483078002930e+00,1.020703196525573730e+00,1.020649909973144531e+00,1.020596623420715332e+00,1.020543336868286133e+00,1.020490050315856934e+00,1.020436763763427734e+00,1.020383596420288086e+00,1.020330309867858887e+00,1.020277142524719238e+00,1.020223855972290039e+00,1.020170569419860840e+00,1.020117402076721191e+00,1.020064234733581543e+00,1.020010948181152344e+00,1.019957780838012695e+00,1.019904613494873047e+00,1.019851326942443848e+00,1.019798159599304199e+00,1.019744992256164551e+00,1.019691824913024902e+00,1.019638657569885254e+00,1.019585490226745605e+00,1.019532322883605957e+00,1.019479155540466309e+00,1.019425988197326660e+00,1.019372820854187012e+00,1.019319653511047363e+00,1.019266605377197266e+00,1.019213438034057617e+00,1.019160270690917969e+00,1.019107222557067871e+00,1.019054055213928223e+00,1.019001007080078125e+00,1.018947839736938477e+00,1.018894791603088379e+00,1.018841743469238281e+00,1.018788576126098633e+00,1.018735527992248535e+00,1.018682479858398438e+00,1.018629431724548340e+00,1.018576383590698242e+00,1.018523335456848145e+00,1.018470287322998047e+00,1.018417119979858398e+00,1.018364071846008301e+00,1.018311023712158203e+00,1.018257975578308105e+00,1.018205046653747559e+00,1.018151998519897461e+00,1.018098950386047363e+00,1.018046021461486816e+00,1.017992973327636719e+00,1.017939925193786621e+00,1.017886996269226074e+00,1.017833948135375977e+00,1.017781019210815430e+00,1.017728090286254883e+00,1.017675042152404785e+00,1.017622113227844238e+00,1.017569184303283691e+00,1.017516255378723145e+00,1.017463326454162598e+00,1.017410278320312500e+00,1.017357349395751953e+00,1.017304420471191406e+00,1.017251491546630859e+00,1.017198562622070312e+00,1.017145633697509766e+00,1.017092704772949219e+00,1.017039895057678223e+00,1.016986966133117676e+00,1.016934037208557129e+00,1.016881227493286133e+00
9.625455141067504883e-01,9.624981284141540527e-01,9.624507427215576172e-01,9.624033570289611816e-01,9.623559713363647461e-01,9.623086452484130859e-01,9.622612595558166504e-01,9.622139334678649902e-01,9.621666073799133301e-01,9.621192216873168945e-01,9.620718955993652344e-01,9.620245695114135742e-01,9.619772434234619141e-01,9.619299173355102539e-01,9.618825912475585938e-01,9.618353247642517090e-01,9.617879986763000488e-01,9.617406725883483887e-01,9.616934061050415039e-01,9.616460800170898438e-01,9.615988135337829590e-01,9.615515470504760742e-01,9.615042209625244141e-01,9.614569544792175293e-01,9.614095687866210938e-01,9.613623023033142090e-01,9.613150358200073242e-01,9.612677693367004395e-01,9.612205624580383301e-01,9.611732959747314453e-01,9.611260294914245605e-01,9.610788226127624512e-01,9.610315561294555664e-01,9.609843492507934570e-01,9.609371423721313477e-01,9.608898758888244629e-01,9.608426690101623535e-01,9.607954621315002441e-01,9.607482552528381348e-01,9.607010483741760254e-01,9.606538414955139160e-01,9.606066942214965820e-01,9.605594873428344727e-01,9.605122804641723633e-01,9.604651331901550293e-01,9.604179263114929199e-01,9.603707790374755859e-01,9.603236317634582520e-01,9.602764248847961426e-01,9.602292776107788086e-01,9.601821303367614746e-01,9.601349830627441406e-01,9.600878357887268066e-01,9.600406885147094727e-01,9.599936008453369141e-01,9.599464535713195801e-01,9.598993062973022461e-01,9.598522186279296875e-01,9.598050713539123535e-01,9.597579836845397949e-01,9.597108960151672363e-01,9.596637487411499023e-01,9.596166610717773438e-01,9.595695734024047852e-01,9.595224857330322266e-01,9.594753980636596680e-01,9.594283103942871094e-01,9.593812823295593262e-01,9.593341946601867676e-01,9.592871069908142090e-01,9.592399597167968750e-01,9.591929316520690918e-01,9.591458439826965332e-01,9.590988159179687500e-01,9.590517878532409668e-01,9.590047597885131836e-01,9.589576721191406250e-01,9.589106440544128418e-01,9.588636755943298340e-01,9.588166475296020508e-01
9.103611111640930176e-01,9.103187322616577148e-01,9.102763533592224121e-01,9.102339744567871094e-01,9.101915955543518066e-01,9.101492166519165039e-01,9.101068973541259766e-01,9.100645184516906738e-01,9.100221395492553711e-01,9.099798202514648438e-01,9.099375009536743164e-01,9.098951220512390137e-01,9.098528027534484863e-01,9.098104834556579590e-01,9.097681045532226562e-01,9.097257852554321289e-01,9.096834659576416016e-01,9.096411466598510742e-01,9.095988273620605469e-01,9.095565080642700195e-01,9.095142483711242676e-01,9.094719290733337402e-01,9.094296097755432129e-01,9.093873500823974609e-01,9.093450307846069336e-01,9.093027710914611816e-01,9.092604517936706543e-01,9.092181921005249023e-01,9.091759324073791504e-01,9.091336727142333984e-01,9.090913534164428711e-01,9.090490937232971191e-01,9.090068340301513672e-01,9.089645743370056152e-01,9.089223742485046387e-01,9.088801145553588867e-01,9.088378548622131348e-01,9.087955951690673828e-01,9.087533950805664062e-01,9.087111353874206543e-01,9.086689352989196777e-01,9.086266756057739258e-01,9.085844755172729492e-01,9.085422754287719727e-01,9.084999561309814453e-01,9.084577560424804688e-01,9.084155559539794922e-01,9.083733558654785156e-01,9.083311557769775391e-01,9.082889556884765625e-01,9.082467555999755859e-01,9.082045555114746094e-01,9.081624150276184082e-01,9.081202149391174316e-01,9.080780744552612305e-01,9.080358743667602539e-01,9.079937338829040527e-01,9.079515933990478516e-01,9.079093933105468750e-01,9.078672528266906738e-01,9.078251123428344727e-01,9.077829718589782715e-01,9.077408313751220703e-01,9.076986908912658691e-01,9.076565504074096680e-01,9.076144099235534668e-01,9.075722694396972656e-01,9.075301885604858398e-01,9.074880480766296387e-01,9.074459671974182129e-01,9.074038267135620117e-01,9.073617458343505859e-01,9.073196053504943848e-01,9.072775244712829590e-01,9.072354435920715332e-01,9.071933627128601074e-01,9.071512222290039062e-01,9.071091413497924805e-01,9.070670604705810547e-01,9.070250391960144043e-01
8.635441660881042480e-01,8.635060191154479980e-01,8.634679317474365234e-01,8.634297847747802734e-01,8.633916378021240234e-01,8.633535504341125488e-01,8.633154034614562988e-01,8.632773160934448242e-01,8.632391691207885742e-01,8.632010817527770996e-01,8.631629943847656250e-01,8.631249070167541504e-01,8.630867600440979004e-01,8.630486726760864258e-01,8.630105853080749512e-01,8.629724979400634766e-01,8.629344105720520020e-01,8.628963232040405273e-01,8.628581762313842773e-01,8.628200888633728027e-01,8.627820611000061035e-01,8.627439737319946289e-01,8.627058863639831543e-01,8.626678586006164551e-01,8.626297712326049805e-01,8.625917434692382812e-01,8.625536561012268066e-01,8.625156283378601074e-01,8.624776005744934082e-01,8.624395728111267090e-01,8.624014854431152344e-01,8.623634576797485352e-01,8.623254299163818359e-01,8.622874021530151367e-01,8.622493743896484375e-01,8.622114062309265137e-01,8.621733784675598145e-01,8.621353507041931152e-01,8.620973229408264160e-01,8.620593547821044922e-01,8.620213270187377930e-01,8.619832992553710938e-01,8.619453310966491699e-01,8.619073629379272461e-01,8.618693351745605469e-01,8.618313670158386230e-01,8.617933988571166992e-01,8.617553710937500000e-01,8.617174029350280762e-01,8.616794347763061523e-01,8.616414666175842285e-01,8.616034984588623047e-01,8.615655303001403809e-01,8.615275621414184570e-01,8.614896535873413086e-01,8.614516854286193848e-01,8.614137172698974609e-01,8.613757491111755371e-01,8.613378405570983887e-01,8.612998723983764648e-01,8.612619638442993164e-01,8.612240552902221680e-01,8.611860871315002441e-01,8.611481785774230957e-01,8.611101508140563965e-01,8.610722422599792480e-01,8.610343337059020996e-01,8.609964251518249512e-01,8.609585165977478027e-01,8.609206080436706543e-01,8.608826994895935059e-01,8.608447909355163574e-01,8.608068823814392090e-01,8.607689738273620605e-01,8.607311248779296875e-01,8.606932163238525391e-01,8.606553673744201660e-01,8.606174588203430176e-01,8.605796098709106445e-01,8.605417013168334961e-01
8.213069438934326172e-01,8.212724328041076660e-01,8.212379217147827148e-01,8.212034702301025391e-01,8.211689591407775879e-01,8.211344480514526367e-01,8.210999965667724609e-01,8.210654854774475098e-01,8.210310339927673340e-01,8.209965825080871582e-01,8.209621310234069824e-01,8.209276199340820312e-01,8.208931684494018555e-01,8.208587169647216797e-01,8.208242654800415039e-01,8.207898139953613281e-01,8.207553625106811523e-01,8.207209110260009766e-01,8.206864595413208008e-01,8.206520080566406250e-01,8.206175565719604492e-01,8.205831646919250488e-01,8.205487132072448730e-01,8.205142617225646973e-01,8.204798698425292969e-01,8.204454183578491211e-01,8.204110264778137207e-01,8.203765749931335449e-01,8.203421831130981445e-01,8.203077316284179688e-01,8.202733397483825684e-01,8.202389478683471680e-01,8.202045559883117676e-01,8.201701045036315918e-01,8.201357126235961914e-01,8.201013207435607910e-01,8.200669288635253906e-01,8.200325369834899902e-01,8.199980854988098145e-01,8.199636936187744141e-01,8.199293017387390137e-01,8.198949098587036133e-01,8.198605775833129883e-01,8.198261857032775879e-01,8.197917938232421875e-01,8.197574615478515625e-01,8.197230696678161621e-01,8.196887373924255371e-01,8.196543455123901367e-01,8.196200132369995117e-01,8.195856213569641113e-01,8.195512890815734863e-01,8.195169568061828613e-01,8.194825649261474609e-01,8.194482326507568359e-01,8.194139003753662109e-01,8.193795680999755859e-01,8.193452358245849609e-01,8.193109035491943359e-01,8.192765712738037109e-01,8.192422389984130859e-01,8.192079067230224609e-01,8.191736340522766113e-01,8.191393017768859863e-01,8.191049695014953613e-01,8.190706968307495117e-01,8.190363645553588867e-01,8.190020322799682617e-01,8.189677596092224121e-01,8.189334869384765625e-01,8.188991546630859375e-01,8.188648819923400879e-01,8.188305497169494629e-01,8.187962770462036133e-01,8.187620043754577637e-01,8.187277317047119141e-01,8.186934590339660645e-01,8.186591863632202148e-01,8.186249136924743652e-01,8.185906410217285156e-01
7.830088734626770020e-01,7.829775214195251465e-01,7.829461693763732910e-01,7.829148173332214355e-01,7.828834652900695801e-01,7.828521132469177246e-01,7.828207612037658691e-01,7.827894687652587891e-01,7.827581167221069336e-01,7.827267646789550781e-01,7.826954722404479980e-01,7.826641201972961426e-01,7.826327681541442871e-01,7.826014161109924316e-01,7.825700640678405762e-01,7.825387716293334961e-01,7.825074195861816406e-01,7.824761271476745605e-01,7.824448347091674805e-01,7.824134826660156250e-01,7.823821902275085449e-01,7.823508977890014648e-01,7.823196053504943848e-01,7.822883129119873047e-01,7.822570204734802246e-01,7.822257280349731445e-01,7.821944355964660645e-01,7.821631431579589844e-01,7.821318507194519043e-01,7.821005582809448242e-01,7.820692658424377441e-01,7.820379734039306641e-01,7.820067405700683594e-01,7.819754481315612793e-01,7.819441556930541992e-01,7.819129228591918945e-01,7.818816304206848145e-01,7.818503975868225098e-01,7.818191051483154297e-01,7.817878723144531250e-01,7.817565798759460449e-01,7.817253470420837402e-01,7.816941142082214355e-01,7.816628813743591309e-01,7.816315889358520508e-01,7.816003561019897461e-01,7.815691232681274414e-01,7.815378904342651367e-01,7.815066576004028320e-01,7.814754247665405273e-01,7.814441919326782227e-01,7.814129590988159180e-01,7.813817262649536133e-01,7.813504934310913086e-01,7.813192605972290039e-01,7.812880873680114746e-01,7.812568545341491699e-01,7.812256217002868652e-01,7.811943292617797852e-01,7.811631560325622559e-01,7.811319231986999512e-01,7.811007499694824219e-01,7.810695171356201172e-01,7.810383439064025879e-01,7.810071110725402832e-01,7.809759378433227539e-01,7.809447646141052246e-01,7.809135913848876953e-01,7.808823585510253906e-01,7.808511853218078613e-01,7.808200120925903320e-01,7.807888388633728027e-01,7.807576656341552734e-01,7.807264924049377441e-01,7.806953191757202148e-01,7.806641459465026855e-01,7.806329727172851562e-01,7.806017994880676270e-01,7.805706858634948730e-01,7.805395126342773438e-01
7.481233477592468262e-01,7.480946779251098633e-01,7.480660676956176758e-01,7.480374574661254883e-01,7.480088472366333008e-01,7.479802370071411133e-01,7.479516267776489258e-01,7.479230165481567383e-01,7.478944063186645508e-01,7.478657960891723633e-01,7.478371858596801758e-01,7.478086352348327637e-01,7.477800250053405762e-01,7.477514147758483887e-01,7.477228045463562012e-01,7.476942539215087891e-01,7.476656436920166016e-01,7.476370334625244141e-01,7.476084828376770020e-01,7.475798726081848145e-01,7.475513219833374023e-01,7.475227117538452148e-01,7.474941611289978027e-01,7.474655508995056152e-01,7.474370002746582031e-01,7.474084496498107910e-01,7.473798990249633789e-01,7.473512887954711914e-01,7.473227381706237793e-01,7.472941875457763672e-01,7.472656369209289551e-01,7.472370862960815430e-01,7.472085356712341309e-01,7.471798658370971680e-01,7.471513152122497559e-01,7.471228241920471191e-01,7.470942735671997070e-01,7.470657229423522949e-01,7.470371723175048828e-01,7.470086216926574707e-01,7.469800710678100586e-01,7.469515800476074219e-01,7.469230294227600098e-01,7.468944787979125977e-01,7.468659877777099609e-01,7.468374371528625488e-01,7.468088865280151367e-01,7.467803955078125000e-01,7.467518448829650879e-01,7.467233538627624512e-01,7.466948628425598145e-01,7.466663122177124023e-01,7.466378211975097656e-01,7.466093301773071289e-01,7.465807795524597168e-01,7.465522885322570801e-01,7.465237975120544434e-01,7.464953064918518066e-01,7.464668154716491699e-01,7.464383244514465332e-01,7.464098334312438965e-01,7.463813424110412598e-01,7.463528513908386230e-01,7.463243603706359863e-01,7.462958693504333496e-01,7.462673783302307129e-01,7.462388873100280762e-01,7.462103962898254395e-01,7.461819648742675781e-01,7.461534738540649414e-01,7.461249828338623047e-01,7.460965514183044434e-01,7.460680603981018066e-01,7.460395693778991699e-01,7.460111379623413086e-01,7.459826469421386719e-01,7.459542155265808105e-01,7.459257841110229492e-01,7.458972334861755371e-01,7.458688020706176758e-01
7.162137627601623535e-01,7.161875367164611816e-01,7.161613106727600098e-01,7.161350846290588379e-01,7.161088585853576660e-01,7.160826325416564941e-01,7.160564064979553223e-01,7.160301208496093750e-01,7.160038948059082031e-01,7.159776687622070312e-01,7.159515023231506348e-01,7.159252762794494629e-01,7.158990502357482910e-01,7.158728241920471191e-01,7.158466577529907227e-01,7.158204317092895508e-01,7.157942056655883789e-01,7.157680392265319824e-01,7.157418131828308105e-01,7.157156467437744141e-01,7.156894207000732422e-01,7.156632542610168457e-01,7.156370282173156738e-01,7.156108617782592773e-01,7.155846953392028809e-01,7.155584692955017090e-01,7.155323028564453125e-01,7.155061364173889160e-01,7.154799699783325195e-01,7.154537439346313477e-01,7.154275774955749512e-01,7.154014110565185547e-01,7.153752446174621582e-01,7.153490781784057617e-01,7.153229117393493652e-01,7.152967453002929688e-01,7.152705788612365723e-01,7.152444124221801758e-01,7.152182459831237793e-01,7.151920795440673828e-01,7.151659131050109863e-01,7.151397466659545898e-01,7.151136398315429688e-01,7.150874733924865723e-01,7.150613069534301758e-01,7.150352001190185547e-01,7.150090336799621582e-01,7.149828672409057617e-01,7.149567604064941406e-01,7.149305939674377441e-01,7.149044871330261230e-01,7.148783206939697266e-01,7.148521542549133301e-01,7.148259878158569336e-01,7.147998809814453125e-01,7.147737145423889160e-01,7.147476077079772949e-01,7.147215008735656738e-01,7.146953344345092773e-01,7.146692276000976562e-01,7.146431207656860352e-01,7.146170139312744141e-01,7.145909070968627930e-01,7.145648002624511719e-01,7.145386934280395508e-01,7.145125269889831543e-01,7.144864201545715332e-01,7.144603133201599121e-01,7.144342660903930664e-01,7.144081592559814453e-01,7.143820524215698242e-01,7.143559455871582031e-01,7.143298387527465820e-01,7.143037319183349609e-01,7.142776250839233398e-01,7.142515778541564941e-01,7.142254710197448730e-01,7.141993641853332520e-01,7.141733169555664062e-01,7.141472101211547852e-01
