5.000000000000000000e+00,5.000000000000000000e+00,5.000000000000000000e+00,5.000000000000000000e+00,5.000000000000000000e+00,5.000000000000000000e+00,5.000000000000000000e+00,5.000000000000000000e+00,5.000000000000000000e+00,5.000000000000000000e+00,5.000000000000000000e+00,5.000000000000000000e+00,5.000000000000000000e+00,5.000000000000000000e+00,5.000000000000000000e+00,5.000000000000000000e+00,5.000000000000000000e+00,5.000000000000000000e+00,5.000000000000000000e+00,5.000000000000000000e+00,5.000000000000000000e+00,5.000000000000000000e+00,5.000000000000000000e+00,5.000000000000000000e+00,5.000000000000000000e+00,5.000000000000000000e+00,5.000000000000000000e+00,5.000000000000000000e+00,5.000000000000000000e+00,5.000000000000000000e+00,5.000000000000000000e+00,5.000000000000000000e+00,5.000000000000000000e+00,5.000000000000000000e+00,5.000000000000000000e+00,5.000000000000000000e+00,5.000000000000000000e+00,5.000000000000000000e+00,5.000000000000000000e+00,5.000000000000000000e+00,5.000000000000000000e+00,5.000000000000000000e+00,5.000000000000000000e+00,5.000000000000000000e+00,4.181368350982666016e+00,4.038313388824462891e+00,3.904723405838012695e+00,3.779688358306884766e+00,3.662412643432617188e+00,3.552195549011230469e+00,3.448418378829956055e+00,3.350533008575439453e+00,3.258050918579101562e+00,3.170537471771240234e+00,3.087602138519287109e+00,3.008895158767700195e+00,2.934101343154907227e+00,2.862935304641723633e+00,2.795140027999877930e+00,2.730481147766113281e+00,2.668746232986450195e+00,2.609741210937500000e+00,2.553288698196411133e+00,2.499227046966552734e+00,2.447407007217407227e+00,2.397692441940307617e+00,2.349957227706909180e+00,2.304085731506347656e+00,2.259970903396606445e+00,2.217513322830200195e+00,2.176621675491333008e+00,2.137210845947265625e+00,2.099201917648315430e+00,2.062521219253540039e+00,2.027100324630737305e+00,1.992875695228576660e+00,1.959787368774414062e+00,1.927779912948608398e+00,1.896801233291625977e+00,1.866802334785461426e+00
5.000000000000000000e+00,5.000000000000000000e+00,5.000000000000000000e+00,5.000000000000000000e+00,5.000000000000000000e+00,5.000000000000000000e+00,5.000000000000000000e+00,5.000000000000000000e+00,5.000000000000000000e+00,5.000000000000000000e+00,5.000000000000000000e+00,5.000000000000000000e+00,5.000000000000000000e+00,5.000000000000000000e+00,5.000000000000000000e+00,5.000000000000000000e+00,5.000000000000000000e+00,5.000000000000000000e+00,5.000000000000000000e+00,5.000000000000000000e+00,5.000000000000000000e+00,5.000000000000000000e+00,5.000000000000000000e+00,5.000000000000000000e+00,5.000000000000000000e+00,5.000000000000000000e+00,5.000000000000000000e+00,5.000000000000000000e+00,5.000000000000000000e+00,5.000000000000000000e+00,5.000000000000000000e+00,5.000000000000000000e+00,5.000000000000000000e+00,5.000000000000000000e+00,5.000000000000000000e+00,5.000000000000000000e+00,5.000000000000000000e+00,5.000000000000000000e+00,5.000000000000000000e+00,5.000000000000000000e+00,5.000000000000000000e+00,5.000000000000000000e+00,5.000000000000000000e+00,4.335043430328369141e+00,4.181472778320312500e+00,4.038410663604736328e+00,3.904814243316650391e+00,3.779773950576782227e+00,3.662492752075195312e+00,3.552271127700805664e+00,3.448489189147949219e+00,3.350599765777587891e+00,3.258114337921142578e+00,3.170597314834594727e+00,3.087659120559692383e+00,3.008949279785156250e+00,2.934152603149414062e+00,2.862984180450439453e+00,2.795186519622802734e+00,2.730525732040405273e+00,2.668788671493530273e+00,2.609781742095947266e+00,2.553327560424804688e+00,2.499264240264892578e+00,2.447443008422851562e+00,2.397726535797119141e+00,2.349990129470825195e+00,2.304117202758789062e+00,2.260001182556152344e+00,2.217542648315429688e+00,2.176649808883666992e+00,2.137238264083862305e+00,2.099228143692016602e+00,2.062546491622924805e+00,2.027124881744384766e+00,1.992899417877197266e+00,1.959810376167297363e+00,1.927802085876464844e+00,1.896822690963745117e+00,1.866823196411132812e+00
5.000000000000000000e+00,5.000000000000000000e+00,5.000000000000000000e+00,5.000000000000000000e+00,5.000000000000000000e+00,5.000000000000000000e+00,5.000000000000000000e+00,5.000000000000000000e+00,5.000000000000000000e+00,5.000000000000000000e+00,5.000000000000000000e+00,5.000000000000000000e+00,5.000000000000000000e+00,5.000000000000000000e+00,5.000000000000000000e+00,5.000000000000000000e+00,5.000000000000000000e+00,5.000000000000000000e+00,5.000000000000000000e+00,5.000000000000000000e+00,5.000000000000000000e+00,5.000000000000000000e+00,5.000000000000000000e+00,5.000000000000000000e+00,5.000000000000000000e+00,5.000000000000000000e+00,5.000000000000000000e+00,5.000000000000000000e+00,5.000000000000000000e+00,5.000000000000000000e+00,5.000000000000000000e+00,5.000000000000000000e+00,5.000000000000000000e+00,5.000000000000000000e+00,5.000000000000000000e+00,5.000000000000000000e+00,5.000000000000000000e+00,5.000000000000000000e+00,5.000000000000000000e+00,5.000000000000000000e+00,5.000000000000000000e+00,5.000000000000000000e+00,4.500444889068603516e+00,4.335155487060546875e+00,4.181577205657958984e+00,4.038507938385009766e+00,3.904905080795288086e+00,3.779859066009521484e+00,3.662572622299194336e+00,3.552346229553222656e+00,3.448560476303100586e+00,3.350666761398315430e+00,3.258177757263183594e+00,3.170657396316528320e+00,3.087715864181518555e+00,3.009003400802612305e+00,2.934203863143920898e+00,2.863033294677734375e+00,2.795233249664306641e+00,2.730570316314697266e+00,2.668831348419189453e+00,2.609822511672973633e+00,2.553366661071777344e+00,2.499301433563232422e+00,2.447478532791137695e+00,2.397761106491088867e+00,2.350023031234741211e+00,2.304149150848388672e+00,2.260031700134277344e+00,2.217571973800659180e+00,2.176678180694580078e+00,2.137265443801879883e+00,2.099254608154296875e+00,2.062572002410888672e+00,2.027149438858032227e+00,1.992923140525817871e+00,1.959833264350891113e+00,1.927824378013610840e+00,1.896844148635864258e+00,1.866843938827514648e+00
5.000000000000000000e+00,5.000000000000000000e+00,5.000000000000000000e+00,5.000000000000000000e+00,5.000000000000000000e+00,5.000000000000000000e+00,5.000000000000000000e+00,5.000000000000000000e+00,5.000000000000000000e+00,5.000000000000000000e+00,5.000000000000000000e+00,5.000000000000000000e+00,5.000000000000000000e+00,5.000000000000000000e+00,5.000000000000000000e+00,5.000000000000000000e+00,5.000000000000000000e+00,5.000000000000000000e+00,5.000000000000000000e+00,5.000000000000000000e+00,5.000000000000000000e+00,5.000000000000000000e+00,5.000000000000000000e+00,5.000000000000000000e+00,5.000000000000000000e+00,5.000000000000000000e+00,5.000000000000000000e+00,5.000000000000000000e+00,5.000000000000000000e+00,5.000000000000000000e+00,5.000000000000000000e+00,5.000000000000000000e+00,5.000000000000000000e+00,5.000000000000000000e+00,5.000000000000000000e+00,5.000000000000000000e+00,5.000000000000000000e+00,5.000000000000000000e+00,5.000000000000000000e+00,5.000000000000000000e+00,5.000000000000000000e+00,4.678968906402587891e+00,4.500566005706787109e+00,4.335267543792724609e+00,4.181681632995605469e+00,4.038605213165283203e+00,3.904996395111083984e+00,3.779944181442260742e+00,3.662652969360351562e+00,3.552421569824218750e+00,3.448631286621093750e+00,3.350733995437622070e+00,3.258241176605224609e+00,3.170717477798461914e+00,3.087772846221923828e+00,3.009057521820068359e+00,2.934255361557006836e+00,2.863082170486450195e+00,2.795279979705810547e+00,2.730614662170410156e+00,2.668873786926269531e+00,2.609863042831420898e+00,2.553405523300170898e+00,2.499338865280151367e+00,2.447514295578002930e+00,2.397795438766479492e+00,2.350056171417236328e+00,2.304180860519409180e+00,2.260062217712402344e+00,2.217601299285888672e+00,2.176706552505493164e+00,2.137292623519897461e+00,2.099280834197998047e+00,2.062597513198852539e+00,2.027173995971679688e+00,1.992946743965148926e+00,1.959856271743774414e+00,1.927846550941467285e+00,1.896865725517272949e+00,1.866864681243896484e+00
5.000000000000000000e+00,5.000000000000000000e+00,5.000000000000000000e+00,5.000000000000000000e+00,5.000000000000000000e+00,5.000000000000000000e+00,5.000000000000000000e+00,5.000000000000000000e+00,5.000000000000000000e+00,5.000000000000000000e+00,5.000000000000000000e+00,5.000000000000000000e+00,5.000000000000000000e+00,5.000000000000000000e+00,5.000000000000000000e+00,5.000000000000000000e+00,5.000000000000000000e+00,5.000000000000000000e+00,5.000000000000000000e+00,5.000000000000000000e+00,5.000000000000000000e+00,5.000000000000000000e+00,5.000000000000000000e+00,5.000000000000000000e+00,5.000000000000000000e+00,5.000000000000000000e+00,5.000000000000000000e+00,5.000000000000000000e+00,5.000000000000000000e+00,5.000000000000000000e+00,5.000000000000000000e+00,5.000000000000000000e+00,5.000000000000000000e+00,5.000000000000000000e+00,5.000000000000000000e+00,5.000000000000000000e+00,5.000000000000000000e+00,5.000000000000000000e+00,5.000000000000000000e+00,5.000000000000000000e+00,4.872241020202636719e+00,4.679099559783935547e+00,4.500686645507812500e+00,4.335380077362060547e+00,4.181786060333251953e+00,4.038702964782714844e+00,3.905087471008300781e+00,3.780029296875000000e+00,3.662732839584350586e+00,3.552497148513793945e+00,3.448702335357666016e+00,3.350800991058349609e+00,3.258304357528686523e+00,3.170777320861816406e+00,3.087829828262329102e+00,3.009111404418945312e+00,2.934306859970092773e+00,2.863131046295166016e+00,2.795326471328735352e+00,2.730659246444702148e+00,2.668916225433349609e+00,2.609903812408447266e+00,2.553444385528564453e+00,2.499376058578491211e+00,2.447550296783447266e+00,2.397829532623291016e+00,2.350089073181152344e+00,2.304212331771850586e+00,2.260092735290527344e+00,2.217630863189697266e+00,2.176734685897827148e+00,2.137320041656494141e+00,2.099307060241699219e+00,2.062622785568237305e+00,2.027198553085327148e+00,1.992970466613769531e+00,1.959879159927368164e+00,1.927868723869323730e+00,1.896887183189392090e+00,1.866885423660278320e+00
5.000000000000000000e+00,5.000000000000000000e+00,5.000000000000000000e+00,5.000000000000000000e+00,5.000000000000000000e+00,5.000000000000000000e+00,5.000000000000000000e+00,5.000000000000000000e+00,5.000000000000000000e+00,5.000000000000000000e+00,5.000000000000000000e+00,5.000000000000000000e+00,5.000000000000000000e+00,5.000000000000000000e+00,5.000000000000000000e+00,5.000000000000000000e+00,5.000000000000000000e+00,5.000000000000000000e+00,5.000000000000000000e+00,5.000000000000000000e+00,5.000000000000000000e+00,5.000000000000000000e+00,5.000000000000000000e+00,5.000000000000000000e+00,5.000000000000000000e+00,5.000000000000000000e+00,5.000000000000000000e+00,5.000000000000000000e+00,5.000000000000000000e+00,5.000000000000000000e+00,5.000000000000000000e+00,5.000000000000000000e+00,5.000000000000000000e+00,5.000000000000000000e+00,5.000000000000000000e+00,5.000000000000000000e+00,5.000000000000000000e+00,5.000000000000000000e+00,5.000000000000000000e+00,5.000000000000000000e+00,4.872383117675781250e+00,4.679230213165283203e+00,4.500807762145996094e+00,4.335492134094238281e+00,4.181890487670898438e+00,4.038800239562988281e+00,3.905178308486938477e+00,3.780114889144897461e+00,3.662812948226928711e+00,3.552572250366210938e+00,3.448773622512817383e+00,3.350867986679077148e+00,3.258368015289306641e+00,3.170837402343750000e+00,3.087886810302734375e+00,3.009165287017822266e+00,2.934358119964599609e+00,2.863180160522460938e+00,2.795373201370239258e+00,2.730703830718994141e+00,2.668958663940429688e+00,2.609944343566894531e+00,2.553483486175537109e+00,2.499413251876831055e+00,2.447585821151733398e+00,2.397863864898681641e+00,2.350121974945068359e+00,2.304244279861450195e+00,2.260123252868652344e+00,2.217660188674926758e+00,2.176763057708740234e+00,2.137347221374511719e+00,2.099333524703979492e+00,2.062648057937622070e+00,2.027223110198974609e+00,1.992994070053100586e+00,1.959902048110961914e+00,1.927890896797180176e+00,1.896908640861511230e+00,1.866906404495239258e+00
5.000000000000000000e+00,5.000000000000000000e+00,5.000000000000000000e+00,5.000000000000000000e+00,5.000000000000000000e+00,5.000000000000000000e+00,5.000000000000000000e+00,5.000000000000000000e+00,5.000000000000000000e+00,5.000000000000000000e+00,5.000000000000000000e+00,5.000000000000000000e+00,5.000000000000000000e+00,5.000000000000000000e+00,5.000000000000000000e+00,5.000000000000000000e+00,5.000000000000000000e+00,5.000000000000000000e+00,5.000000000000000000e+00,5.000000000000000000e+00,5.000000000000000000e+00,5.000000000000000000e+00,5.000000000000000000e+00,5.000000000000000000e+00,5.000000000000000000e+00,5.000000000000000000e+00,5.000000000000000000e+00,5.000000000000000000e+00,5.000000000000000000e+00,5.000000000000000000e+00,5.000000000000000000e+00,5.000000000000000000e+00,5.000000000000000000e+00,5.000000000000000000e+00,5.000000000000000000e+00,5.000000000000000000e+00,5.000000000000000000e+00,5.000000000000000000e+00,5.000000000000000000e+00,5.000000000000000000e+00,4.872524261474609375e+00,4.679360866546630859e+00,4.500928878784179688e+00,4.335604667663574219e+00,4.181994915008544922e+00,4.038897514343261719e+00,3.905269145965576172e+00,3.780200004577636719e+00,3.662893295288085938e+00,3.552647590637207031e+00,3.448844432830810547e+00,3.350934743881225586e+00,3.258431196212768555e+00,3.170897483825683594e+00,3.087943553924560547e+00,3.009219646453857422e+00,2.934409618377685547e+00,2.863229036331176758e+00,2.795419931411743164e+00,2.730748176574707031e+00,2.669001340866088867e+00,2.609985113143920898e+00,2.553522348403930664e+00,2.499450683593750000e+00,2.447621583938598633e+00,2.397898435592651367e+00,2.350154876708984375e+00,2.304275751113891602e+00,2.260153770446777344e+00,2.217689514160156250e+00,2.176791429519653320e+00,2.137374401092529297e+00,2.099359750747680664e+00,2.062673568725585938e+00,2.027247667312622070e+00,1.993018031120300293e+00,1.959924936294555664e+00,1.927913069725036621e+00,1.896930098533630371e+00,1.866927266120910645e+00
5.000000000000000000e+00,5.000000000000000000e+00,5.000000000000000000e+00,5.000000000000000000e+00,5.000000000000000000e+00,5.000000000000000000e+00,5.000000000000000000e+00,5.000000000000000000e+00,5.000000000000000000e+00,5.000000000000000000e+00,5.000000000000000000e+00,5.000000000000000000e+00,5.000000000000000000e+00,5.000000000000000000e+00,5.000000000000000000e+00,5.000000000000000000e+00,5.000000000000000000e+00,5.000000000000000000e+00,5.000000000000000000e+00,5.000000000000000000e+00,5.000000000000000000e+00,5.000000000000000000e+00,5.000000000000000000e+00,5.000000000000000000e+00,5.000000000000000000e+00,5.000000000000000000e+00,5.000000000000000000e+00,5.000000000000000000e+00,5.000000000000000000e+00,5.000000000000000000e+00,5.000000000000000000e+00,5.000000000000000000e+00,5.000000000000000000e+00,5.000000000000000000e+00,5.000000000000000000e+00,5.000000000000000000e+00,5.000000000000000000e+00,5.000000000000000000e+00,5.000000000000000000e+00,5.000000000000000000e+00,4.872666358947753906e+00,4.679491519927978516e+00,4.501049518585205078e+00,4.335716247558593750e+00,4.182099342346191406e+00,4.038994789123535156e+00,3.905360460281372070e+00,3.780285358428955078e+00,3.662973165512084961e+00,3.552723169326782227e+00,3.448915243148803711e+00,3.351001977920532227e+00,3.258494615554809570e+00,3.170957565307617188e+00,3.088000774383544922e+00,3.009273529052734375e+00,2.934461116790771484e+00,2.863277912139892578e+00,2.795466423034667969e+00,2.730792760848999023e+00,2.669043779373168945e+00,2.610025882720947266e+00,2.553561210632324219e+00,2.499487876892089844e+00,2.447657346725463867e+00,2.397932529449462891e+00,2.350188016891479492e+00,2.304307460784912109e+00,2.260184288024902344e+00,2.217718839645385742e+00,2.176819562911987305e+00,2.137401819229125977e+00,2.099385976791381836e+00,2.062699079513549805e+00,2.027271986007690430e+00,1.993041753768920898e+00,1.959948062896728516e+00,1.927935242652893066e+00,1.896951556205749512e+00,1.866948008537292480e+00
5.000000000000000000e+00,5.000000000000000000e+00,5.000000000000000000e+00,5.000000000000000000e+00,5.000000000000000000e+00,5.000000000000000000e+00,5.000000000000000000e+00,5.000000000000000000e+00,5.000000000000000000e+00,5.000000000000000000e+00,5.000000000000000000e+00,5.000000000000000000e+00,5.000000000000000000e+00,5.000000000000000000e+00,5.000000000000000000e+00,5.000000000000000000e+00,5.000000000000000000e+00,5.000000000000000000e+00,5.000000000000000000e+00,5.000000000000000000e+00,5.000000000000000000e+00,5.000000000000000000e+00,5.000000000000000000e+00,5.000000000000000000e+00,5.000000000000000000e+00,5.000000000000000000e+00,5.000000000000000000e+00,5.000000000000000000e+00,5.000000000000000000e+00,5.000000000000000000e+00,5.000000000000000000e+00,5.000000000000000000e+00,5.000000000000000000e+00,5.000000000000000000e+00,5.000000000000000000e+00,5.000000000000000000e+00,5.000000000000000000e+00,5.000000000000000000e+00,5.000000000000000000e+00,5.000000000000000000e+00,4.872807979583740234e+00,4.679622173309326172e+00,4.501170635223388672e+00,4.335828781127929688e+00,4.182203769683837891e+00,4.039092063903808594e+00,3.905451536178588867e+00,3.780370950698852539e+00,3.663053274154663086e+00,3.552798271179199219e+00,3.448986291885375977e+00,3.351068973541259766e+00,3.258558273315429688e+00,3.171017408370971680e+00,3.088057518005371094e+00,3.009327650070190430e+00,2.934512376785278320e+00,2.863327026367187500e+00,2.795513153076171875e+00,2.730837345123291016e+00,2.669086456298828125e+00,2.610066413879394531e+00,2.553600311279296875e+00,2.499525308609008789e+00,2.447693347930908203e+00,2.397966861724853516e+00,2.350220918655395508e+00,2.304339408874511719e+00,2.260214567184448242e+00,2.217748165130615234e+00,2.176847934722900391e+00,2.137428998947143555e+00,2.099412202835083008e+00,2.062724351882934570e+00,2.027296781539916992e+00,1.993065357208251953e+00,1.959970951080322266e+00,1.927957296371459961e+00,1.896973013877868652e+00,1.866968750953674316e+00
5.000000000000000000e+00,5.000000000000000000e+00,5.000000000000000000e+00,5.000000000000000000e+00,5.000000000000000000e+00,5.000000000000000000e+00,5.000000000000000000e+00,5.000000000000000000e+00,5.000000000000000000e+00,5.000000000000000000e+00,5.000000000000000000e+00,5.000000000000000000e+00,5.000000000000000000e+00,5.000000000000000000e+00,5.000000000000000000e+00,5.000000000000000000e+00,5.000000000000000000e+00,5.000000000000000000e+00,5.000000000000000000e+00,5.000000000000000000e+00,5.000000000000000000e+00,5.000000000000000000e+00,5.000000000000000000e+00,5.000000000000000000e+00,5.000000000000000000e+00,5.000000000000000000e+00,5.000000000000000000e+00,5.000000000000000000e+00,5.000000000000000000e+00,5.000000000000000000e+00,5.000000000000000000e+00,5.000000000000000000e+00,5.000000000000000000e+00,5.000000000000000000e+00,5.000000000000000000e+00,5.000000000000000000e+00,5.000000000000000000e+00,5.000000000000000000e+00,5.000000000000000000e+00,5.000000000000000000e+00,4.872949600219726562e+00,4.679752826690673828e+00,4.501291275024414062e+00,4.335941314697265625e+00,4.182308197021484375e+00,4.039189815521240234e+00,3.905542373657226562e+00,3.780456066131591797e+00,3.663133621215820312e+00,3.552873611450195312e+00,3.449057579040527344e+00,3.351135969161987305e+00,3.258621454238891602e+00,3.171077728271484375e+00,3.088114261627197266e+00,3.009381771087646484e+00,2.934563636779785156e+00,2.863375902175903320e+00,2.795559644699096680e+00,2.730881690979003906e+00,2.669129133224487305e+00,2.610107183456420898e+00,2.553639173507690430e+00,2.499562501907348633e+00,2.447728872299194336e+00,2.398001432418823242e+00,2.350253820419311523e+00,2.304370880126953125e+00,2.260245084762573242e+00,2.217777490615844727e+00,2.176876306533813477e+00,2.137456417083740234e+00,2.099438667297363281e+00,2.062749624252319336e+00,2.027321100234985352e+00,1.993089079856872559e+00,1.959993839263916016e+00,1.927979707717895508e+00,1.896994471549987793e+00,1.866989493370056152e+00
5.000000000000000000e+00,5.000000000000000000e+00,5.000000000000000000e+00,5.000000000000000000e+00,5.000000000000000000e+00,5.000000000000000000e+00,5.000000000000000000e+00,5.000000000000000000e+00,5.000000000000000000e+00,5.000000000000000000e+00,5.000000000000000000e+00,5.000000000000000000e+00,5.000000000000000000e+00,5.000000000000000000e+00,5.000000000000000000e+00,5.000000000000000000e+00,5.000000000000000000e+00,5.000000000000000000e+00,5.000000000000000000e+00,5.000000000000000000e+00,5.000000000000000000e+00,5.000000000000000000e+00,5.000000000000000000e+00,5.000000000000000000e+00,5.000000000000000000e+00,5.000000000000000000e+00,5.000000000000000000e+00,5.000000000000000000e+00,5.000000000000000000e+00,5.000000000000000000e+00,5.000000000000000000e+00,5.000000000000000000e+00,5.000000000000000000e+00,5.000000000000000000e+00,5.000000000000000000e+00,5.000000000000000000e+00,5.000000000000000000e+00,5.000000000000000000e+00,5.000000000000000000e+00,5.000000000000000000e+00,4.873091697692871094e+00,4.679883956909179688e+00,4.501412391662597656e+00,4.336053371429443359e+00,4.182412624359130859e+00,4.039287090301513672e+00,3.905633687973022461e+00,3.780541181564331055e+00,3.663213491439819336e+00,3.552948713302612305e+00,3.449128389358520508e+00,3.351203203201293945e+00,3.258684635162353516e+00,3.171137571334838867e+00,3.088171243667602539e+00,3.009435653686523438e+00,2.934615373611450195e+00,2.863424777984619141e+00,2.795606374740600586e+00,2.730926275253295898e+00,2.669171571731567383e+00,2.610147953033447266e+00,2.553678035736083984e+00,2.499599933624267578e+00,2.447764635086059570e+00,2.398035526275634766e+00,2.350286960601806641e+00,2.304402589797973633e+00,2.260275840759277344e+00,2.217806816101074219e+00,2.176904439926147461e+00,2.137483596801757812e+00,2.099464893341064453e+00,2.062775135040283203e+00,2.027345657348632812e+00,1.993112683296203613e+00,1.960016727447509766e+00,1.928001880645751953e+00,1.897016048431396484e+00,1.867010354995727539e+00
5.000000000000000000e+00,5.000000000000000000e+00,5.000000000000000000e+00,5.000000000000000000e+00,5.000000000000000000e+00,5.000000000000000000e+00,5.000000000000000000e+00,5.000000000000000000e+00,5.000000000000000000e+00,5.000000000000000000e+00,5.000000000000000000e+00,5.000000000000000000e+00,5.000000000000000000e+00,5.000000000000000000e+00,5.000000000000000000e+00,5.000000000000000000e+00,5.000000000000000000e+00,5.000000000000000000e+00,5.000000000000000000e+00,5.000000000000000000e+00,5.000000000000000000e+00,5.000000000000000000e+00,5.000000000000000000e+00,5.000000000000000000e+00,5.000000000000000000e+00,3.970409870147705078e+00,4.051597118377685547e+00,5.000000000000000000e+00,5.000000000000000000e+00,5.000000000000000000e+00,5.000000000000000000e+00,5.000000000000000000e+00,5.000000000000000000e+00,5.000000000000000000e+00,5.000000000000000000e+00,5.000000000000000000e+00,5.000000000000000000e+00,5.000000000000000000e+00,5.000000000000000000e+00,5.000000000000000000e+00,4.873233318328857422e+00,4.680014133453369141e+00,4.501533508300781250e+00,4.336165428161621094e+00,4.182517051696777344e+00,4.039384365081787109e+00,3.905724763870239258e+00,3.780626773834228516e+00,3.663293600082397461e+00,3.553024530410766602e+00,3.449199438095092773e+00,3.351270198822021484e+00,3.258748292922973633e+00,3.171197652816772461e+00,3.088228225708007812e+00,3.009489774703979492e+00,2.934666633605957031e+00,2.863473653793334961e+00,2.795653104782104492e+00,2.730970859527587891e+00,2.669214010238647461e+00,2.610188484191894531e+00,2.553716897964477539e+00,2.499637126922607422e+00,2.447800636291503906e+00,2.398069858551025391e+00,2.350319862365722656e+00,2.304434299468994141e+00,2.260306119918823242e+00,2.217836380004882812e+00,2.176932811737060547e+00,2.137511014938354492e+00,2.099491119384765625e+00,2.062800645828247070e+00,2.027370214462280273e+00,1.993136405944824219e+00,1.960039615631103516e+00,1.928024053573608398e+00,1.897037506103515625e+00,1.867031335830688477e+00
5.000000000000000000e+00,5.000000000000000000e+00,5.000000000000000000e+00,5.000000000000000000e+00,5.000000000000000000e+00,5.000000000000000000e+00,5.000000000000000000e+00,5.000000000000000000e+00,5.000000000000000000e+00,5.000000000000000000e+00,5.000000000000000000e+00,5.000000000000000000e+00,5.000000000000000000e+00,5.000000000000000000e+00,5.000000000000000000e+00,5.000000000000000000e+00,5.000000000000000000e+00,5.000000000000000000e+00,5.000000000000000000e+00,5.000000000000000000e+00,5.000000000000000000e+00,5.000000000000000000e+00,5.000000000000000000e+00,5.000000000000000000e+00,5.000000000000000000e+00,3.978829383850097656e+00,4.041514396667480469e+00,5.000000000000000000e+00,5.000000000000000000e+00,5.000000000000000000e+00,5.000000000000000000e+00,5.000000000000000000e+00,5.000000000000000000e+00,5.000000000000000000e+00,5.000000000000000000e+00,5.000000000000000000e+00,5.000000000000000000e+00,5.000000000000000000e+00,5.000000000000000000e+00,5.000000000000000000e+00,4.873374938964843750e+00,4.680145263671875000e+00,4.501654148101806641e+00,4.336277484893798828e+00,4.182621479034423828e+00,4.039482116699218750e+00,3.905815601348876953e+00,3.780712127685546875e+00,3.663373470306396484e+00,3.553099632263183594e+00,3.449270486831665039e+00,3.351337194442749023e+00,3.258811712265014648e+00,3.171257495880126953e+00,3.088285207748413086e+00,3.009543895721435547e+00,2.934717893600463867e+00,2.863522768020629883e+00,2.795699596405029297e+00,2.731015443801879883e+00,2.669256687164306641e+00,2.610229015350341797e+00,2.553755998611450195e+00,2.499674320220947266e+00,2.447836160659790039e+00,2.398104429244995117e+00,2.350352764129638672e+00,2.304466009140014648e+00,2.260336637496948242e+00,2.217865705490112305e+00,2.176961183547973633e+00,2.137538194656372070e+00,2.099517583847045898e+00,2.062825918197631836e+00,2.027394771575927734e+00,1.993160128593444824e+00,1.960062503814697266e+00,1.928046226501464844e+00,1.897058963775634766e+00,1.867052078247070312e+00
5.000000000000000000e+00,5.000000000000000000e+00,5.000000000000000000e+00,5.000000000000000000e+00,5.000000000000000000e+00,5.000000000000000000e+00,5.000000000000000000e+00,5.000000000000000000e+00,5.000000000000000000e+00,5.000000000000000000e+00,5.000000000000000000e+00,5.000000000000000000e+00,5.000000000000000000e+00,5.000000000000000000e+00,5.000000000000000000e+00,5.000000000000000000e+00,5.000000000000000000e+00,5.000000000000000000e+00,5.000000000000000000e+00,5.000000000000000000e+00,5.000000000000000000e+00,5.000000000000000000e+00,5.000000000000000000e+00,5.000000000000000000e+00,5.000000000000000000e+00,3.990004777908325195e+00,4.077922344207763672e+00,5.000000000000000000e+00,5.000000000000000000e+00,5.000000000000000000e+00,5.000000000000000000e+00,5.000000000000000000e+00,5.000000000000000000e+00,5.000000000000000000e+00,5.000000000000000000e+00,5.000000000000000000e+00,5.000000000000000000e+00,5.000000000000000000e+00,5.000000000000000000e+00,5.000000000000000000e+00,4.873517036437988281e+00,4.680275917053222656e+00,4.501775264739990234e+00,4.336390018463134766e+00,4.182725906372070312e+00,4.039579391479492188e+00,3.905906915664672852e+00,3.780797243118286133e+00,3.663454055786132812e+00,3.553174972534179688e+00,3.449341535568237305e+00,3.351404428482055664e+00,3.258874893188476562e+00,3.171317815780639648e+00,3.088341951370239258e+00,3.009598016738891602e+00,2.934769630432128906e+00,2.863571643829345703e+00,2.795746564865112305e+00,2.731059789657592773e+00,2.669299125671386719e+00,2.610269784927368164e+00,2.553794860839843750e+00,2.499711751937866211e+00,2.447871923446655273e+00,2.398138523101806641e+00,2.350385904312133789e+00,2.304497718811035156e+00,2.260367155075073242e+00,2.217895030975341797e+00,2.176989316940307617e+00,2.137565374374389648e+00,2.099543809890747070e+00,2.062851428985595703e+00,2.027419328689575195e+00,1.993183970451354980e+00,1.960085391998291016e+00,1.928068399429321289e+00,1.897080421447753906e+00,1.867072820663452148e+00
5.000000000000000000e+00,5.000000000000000000e+00,5.000000000000000000e+00,5.000000000000000000e+00,5.000000000000000000e+00,5.000000000000000000e+00,5.000000000000000000e+00,5.000000000000000000e+00,5.000000000000000000e+00,5.000000000000000000e+00,5.000000000000000000e+00,5.000000000000000000e+00,5.000000000000000000e+00,5.000000000000000000e+00,5.000000000000000000e+00,5.000000000000000000e+00,5.000000000000000000e+00,5.000000000000000000e+00,5.000000000000000000e+00,5.000000000000000000e+00,5.000000000000000000e+00,5.000000000000000000e+00,5.000000000000000000e+00,5.000000000000000000e+00,4.123493671417236328e+00,4.065190315246582031e+00,4.020706653594970703e+00,4.059307575225830078e+00,5.000000000000000000e+00,5.000000000000000000e+00,5.000000000000000000e+00,5.000000000000000000e+00,5.000000000000000000e+00,5.000000000000000000e+00,5.000000000000000000e+00,5.000000000000000000e+00,5.000000000000000000e+00,5.000000000000000000e+00,5.000000000000000000e+00,5.000000000000000000e+00,4.873658657073974609e+00,4.680406570434570312e+00,4.501896381378173828e+00,4.336502552032470703e+00,4.182830333709716797e+00,4.039676666259765625e+00,3.905997991561889648e+00,3.780882358551025391e+00,3.663533926010131836e+00,3.553250551223754883e+00,3.449412345886230469e+00,3.351471424102783203e+00,3.258938312530517578e+00,3.171377658843994141e+00,3.088399171829223633e+00,3.009651899337768555e+00,2.934820890426635742e+00,2.863620519638061523e+00,2.795793056488037109e+00,2.731104612350463867e+00,2.669341564178466797e+00,2.610310554504394531e+00,2.553833723068237305e+00,2.499748945236206055e+00,2.447907924652099609e+00,2.398172855377197266e+00,2.350418806076049805e+00,2.304529428482055664e+00,2.260397672653198242e+00,2.217924356460571289e+00,2.177017688751220703e+00,2.137592792510986328e+00,2.099570274353027344e+00,2.062876701354980469e+00,2.027443885803222656e+00,1.993207693099975586e+00,1.960108518600463867e+00,1.928090453147888184e+00,1.897101879119873047e+00,1.867093682289123535e+00
5.000000000000000000e+00,5.000000000000000000e+00,5.000000000000000000e+00,5.000000000000000000e+00,5.000000000000000000e+00,5.000000000000000000e+00,5.000000000000000000e+00,5.000000000000000000e+00,5.000000000000000000e+00,5.000000000000000000e+00,5.000000000000000000e+00,5.000000000000000000e+00,5.000000000000000000e+00,5.000000000000000000e+00,5.000000000000000000e+00,5.000000000000000000e+00,5.000000000000000000e+00,5.000000000000000000e+00,5.000000000000000000e+00,5.000000000000000000e+00,5.000000000000000000e+00,5.000000000000000000e+00,4.026791095733642578e+00,4.007037162780761719e+00,3.990838527679443359e+00,3.983105182647705078e+00,3.990257263183593750e+00,4.012012958526611328e+00,4.043471336364746094e+00,5.000000000000000000e+00,5.000000000000000000e+00,5.000000000000000000e+00,5.000000000000000000e+00,5.000000000000000000e+00,5.000000000000000000e+00,5.000000000000000000e+00,5.000000000000000000e+00,5.000000000000000000e+00,5.000000000000000000e+00,5.000000000000000000e+00,4.873800277709960938e+00,4.680537700653076172e+00,4.502017021179199219e+00,4.336614608764648438e+00,4.182934761047363281e+00,4.039774417877197266e+00,3.906088829040527344e+00,3.780968189239501953e+00,3.663614034652709961e+00,3.553325891494750977e+00,3.449483633041381836e+00,3.351538181304931641e+00,3.259001970291137695e+00,3.171437740325927734e+00,3.088455915451049805e+00,3.009706258773803711e+00,2.934872150421142578e+00,2.863669633865356445e+00,2.795839548110961914e+00,2.731148958206176758e+00,2.669384002685546875e+00,2.610351085662841797e+00,2.553872823715209961e+00,2.499786376953125000e+00,2.447943687438964844e+00,2.398207187652587891e+00,2.350451707839965820e+00,2.304561138153076172e+00,2.260428190231323242e+00,2.217953681945800781e+00,2.177045822143554688e+00,2.137619972229003906e+00,2.099596500396728516e+00,2.062902212142944336e+00,2.027468442916870117e+00,1.993231415748596191e+00,1.960131406784057617e+00,1.928112864494323730e+00,1.897123336791992188e+00,1.867114424705505371e+00
5.000000000000000000e+00,5.000000000000000000e+00,5.000000000000000000e+00,5.000000000000000000e+00,5.000000000000000000e+00,5.000000000000000000e+00,5.000000000000000000e+00,5.000000000000000000e+00,5.000000000000000000e+00,5.000000000000000000e+00,5.000000000000000000e+00,5.000000000000000000e+00,5.000000000000000000e+00,5.000000000000000000e+00,5.000000000000000000e+00,5.000000000000000000e+00,5.000000000000000000e+00,5.000000000000000000e+00,5.000000000000000000e+00,5.000000000000000000e+00,5.000000000000000000e+00,5.000000000000000000e+00,4.042784214019775391e+00,3.996129512786865234e+00,3.959098100662231445e+00,3.961136579513549805e+00,3.967681407928466797e+00,4.013633728027343750e+00,4.059670925140380859e+00,4.130082130432128906e+00,5.000000000000000000e+00,5.000000000000000000e+00,5.000000000000000000e+00,5.000000000000000000e+00,5.000000000000000000e+00,5.000000000000000000e+00,5.000000000000000000e+00,5.000000000000000000e+00,5.000000000000000000e+00,5.000000000000000000e+00,4.873941898345947266e+00,4.680668354034423828e+00,4.502138137817382812e+00,4.336726665496826172e+00,4.183039188385009766e+00,4.039871692657470703e+00,3.906179904937744141e+00,3.781053304672241211e+00,3.663694381713867188e+00,3.553400993347167969e+00,3.449554681777954102e+00,3.351605176925659180e+00,3.259065151214599609e+00,3.171497821807861328e+00,3.088512897491455078e+00,3.009760141372680664e+00,2.934923648834228516e+00,2.863718509674072266e+00,2.795886516571044922e+00,2.731193304061889648e+00,2.669426679611206055e+00,2.610391855239868164e+00,2.553911685943603516e+00,2.499823808670043945e+00,2.447979211807250977e+00,2.398241519927978516e+00,2.350484848022460938e+00,2.304592847824096680e+00,2.260458707809448242e+00,2.217983007431030273e+00,2.177074193954467773e+00,2.137647151947021484e+00,2.099622964859008789e+00,2.062927722930908203e+00,2.027493000030517578e+00,1.993255019187927246e+00,1.960154294967651367e+00,1.928135037422180176e+00,1.897144794464111328e+00,1.867135167121887207e+00
5.000000000000000000e+00,5.000000000000000000e+00,5.000000000000000000e+00,5.000000000000000000e+00,5.000000000000000000e+00,5.000000000000000000e+00,5.000000000000000000e+00,5.000000000000000000e+00,5.000000000000000000e+00,5.000000000000000000e+00,5.000000000000000000e+00,5.000000000000000000e+00,5.000000000000000000e+00,5.000000000000000000e+00,5.000000000000000000e+00,5.000000000000000000e+00,5.000000000000000000e+00,5.000000000000000000e+00,5.000000000000000000e+00,5.000000000000000000e+00,5.000000000000000000e+00,5.000000000000000000e+00,4.044418811798095703e+00,4.022062778472900391e+00,3.961881399154663086e+00,3.950964212417602539e+00,3.975538015365600586e+00,4.025406360626220703e+00,4.069894313812255859e+00,5.000000000000000000e+00,5.000000000000000000e+00,5.000000000000000000e+00,5.000000000000000000e+00,5.000000000000000000e+00,5.000000000000000000e+00,5.000000000000000000e+00,5.000000000000000000e+00,5.000000000000000000e+00,5.000000000000000000e+00,5.000000000000000000e+00,4.874083995819091797e+00,4.680799007415771484e+00,4.502259254455566406e+00,4.336838722229003906e+00,4.183143615722656250e+00,4.039968967437744141e+00,3.906271219253540039e+00,3.781138658523559570e+00,3.663774251937866211e+00,3.553476810455322266e+00,3.449625492095947266e+00,3.351672649383544922e+00,3.259128570556640625e+00,3.171557903289794922e+00,3.088570117950439453e+00,3.009814262390136719e+00,2.934975147247314453e+00,2.863767385482788086e+00,2.795933008193969727e+00,2.731237888336181641e+00,2.669469118118286133e+00,2.610432624816894531e+00,2.553950548171997070e+00,2.499861001968383789e+00,2.448014974594116211e+00,2.398275852203369141e+00,2.350517749786376953e+00,2.304624557495117188e+00,2.260489225387573242e+00,2.218012332916259766e+00,2.177102565765380859e+00,2.137674570083618164e+00,2.099649190902709961e+00,2.062952995300292969e+00,2.027517318725585938e+00,1.993278741836547852e+00,1.960177302360534668e+00,1.928157210350036621e+00,1.897166490554809570e+00,1.867155909538269043e+00
5.000000000000000000e+00,5.000000000000000000e+00,5.000000000000000000e+00,5.000000000000000000e+00,5.000000000000000000e+00,5.000000000000000000e+00,5.000000000000000000e+00,5.000000000000000000e+00,5.000000000000000000e+00,5.000000000000000000e+00,5.000000000000000000e+00,5.000000000000000000e+00,5.000000000000000000e+00,5.000000000000000000e+00,5.000000000000000000e+00,5.000000000000000000e+00,5.000000000000000000e+00,5.000000000000000000e+00,5.000000000000000000e+00,5.000000000000000000e+00,5.000000000000000000e+00,5.000000000000000000e+00,4.038171768188476562e+00,4.050159454345703125e+00,3.963868618011474609e+00,3.954553842544555664e+00,3.972927093505859375e+00,4.037790775299072266e+00,4.073785305023193359e+00,4.143826484680175781e+00,5.000000000000000000e+00,5.000000000000000000e+00,5.000000000000000000e+00,5.000000000000000000e+00,5.000000000000000000e+00,5.000000000000000000e+00,5.000000000000000000e+00,5.000000000000000000e+00,5.000000000000000000e+00,5.000000000000000000e+00,4.874226093292236328e+00,4.680930137634277344e+00,4.502380371093750000e+00,4.336951255798339844e+00,4.183248043060302734e+00,4.040066242218017578e+00,3.906362056732177734e+00,3.781224250793457031e+00,3.663854360580444336e+00,3.553551912307739258e+00,3.449696540832519531e+00,3.351739406585693359e+00,3.259192228317260742e+00,3.171617746353149414e+00,3.088626861572265625e+00,3.009868144989013672e+00,2.935026645660400391e+00,2.863816499710083008e+00,2.795979738235473633e+00,2.731282472610473633e+00,2.669511795043945312e+00,2.610473155975341797e+00,2.553989648818969727e+00,2.499898195266723633e+00,2.448050975799560547e+00,2.398310184478759766e+00,2.350550889968872070e+00,2.304656267166137695e+00,2.260519742965698242e+00,2.218041896820068359e+00,2.177130699157714844e+00,2.137701749801635742e+00,2.099675655364990234e+00,2.062978506088256836e+00,2.027542114257812500e+00,1.993302464485168457e+00,1.960200190544128418e+00,1.928179383277893066e+00,1.897187948226928711e+00,1.867177009582519531e+00
5.000000000000000000e+00,5.000000000000000000e+00,5.000000000000000000e+00,5.000000000000000000e+00,5.000000000000000000e+00,5.000000000000000000e+00,5.000000000000000000e+00,5.000000000000000000e+00,5.000000000000000000e+00,5.000000000000000000e+00,5.000000000000000000e+00,5.000000000000000000e+00,5.000000000000000000e+00,5.000000000000000000e+00,5.000000000000000000e+00,5.000000000000000000e+00,5.000000000000000000e+00,5.000000000000000000e+00,5.000000000000000000e+00,5.000000000000000000e+00,5.000000000000000000e+00,5.000000000000000000e+00,4.037254333496093750e+00,4.062986850738525391e+00,3.956281900405883789e+00,3.950358390808105469e+00,3.963985681533813477e+00,4.027186870574951172e+00,4.097106933593750000e+00,5.000000000000000000e+00,5.000000000000000000e+00,5.000000000000000000e+00,5.000000000000000000e+00,5.000000000000000000e+00,5.000000000000000000e+00,5.000000000000000000e+00,5.000000000000000000e+00,5.000000000000000000e+00,5.000000000000000000e+00,5.000000000000000000e+00,4.874367713928222656e+00,4.681060791015625000e+00,4.502501487731933594e+00,4.337063789367675781e+00,4.183352470397949219e+00,4.040163993835449219e+00,3.906453132629394531e+00,3.781309366226196289e+00,3.663934707641601562e+00,3.553627252578735352e+00,3.449767827987670898e+00,3.351806402206420898e+00,3.259255409240722656e+00,3.171678066253662109e+00,3.088683843612670898e+00,3.009922504425048828e+00,2.935077905654907227e+00,2.863865375518798828e+00,2.796026468276977539e+00,2.731327056884765625e+00,2.669554471969604492e+00,2.610513925552368164e+00,2.554028511047363281e+00,2.499935388565063477e+00,2.448086738586425781e+00,2.398344755172729492e+00,2.350583791732788086e+00,2.304687976837158203e+00,2.260550022125244141e+00,2.218071222305297852e+00,2.177159309387207031e+00,2.137729167938232422e+00,2.099701881408691406e+00,2.063003778457641602e+00,2.027566671371459961e+00,1.993326306343078613e+00,1.960223078727722168e+00,1.928201556205749512e+00,1.897209405899047852e+00,1.867197751998901367e+00
5.000000000000000000e+00,5.000000000000000000e+00,5.000000000000000000e+00,5.000000000000000000e+00,5.000000000000000000e+00,5.000000000000000000e+00,5.000000000000000000e+00,5.000000000000000000e+00,5.000000000000000000e+00,5.000000000000000000e+00,5.000000000000000000e+00,5.000000000000000000e+00,5.000000000000000000e+00,5.000000000000000000e+00,5.000000000000000000e+00,5.000000000000000000e+00,5.000000000000000000e+00,5.000000000000000000e+00,5.000000000000000000e+00,5.000000000000000000e+00,5.000000000000000000e+00,5.000000000000000000e+00,4.000597476959228516e+00,4.023199558258056641e+00,3.966972351074218750e+00,3.958858013153076172e+00,3.977726697921752930e+00,4.032970428466796875e+00,4.088316917419433594e+00,5.000000000000000000e+00,5.000000000000000000e+00,5.000000000000000000e+00,5.000000000000000000e+00,5.000000000000000000e+00,5.000000000000000000e+00,5.000000000000000000e+00,5.000000000000000000e+00,5.000000000000000000e+00,5.000000000000000000e+00,5.000000000000000000e+00,4.874509811401367188e+00,4.681191444396972656e+00,4.502622127532958984e+00,4.337175846099853516e+00,4.183456897735595703e+00,4.040261268615722656e+00,3.906544446945190430e+00,3.781394720077514648e+00,3.664014816284179688e+00,3.553702592849731445e+00,3.449838638305664062e+00,3.351873874664306641e+00,3.259318828582763672e+00,3.171737909317016602e+00,3.088740587234497070e+00,3.009976387023925781e+00,2.935129404067993164e+00,2.863914251327514648e+00,2.796072959899902344e+00,2.731371402740478516e+00,2.669596910476684570e+00,2.610554695129394531e+00,2.554067373275756836e+00,2.499972820281982422e+00,2.448122262954711914e+00,2.398378849029541016e+00,2.350616693496704102e+00,2.304719686508178711e+00,2.260580778121948242e+00,2.218100547790527344e+00,2.177187442779541016e+00,2.137756586074829102e+00,2.099728107452392578e+00,2.063029289245605469e+00,2.027590990066528320e+00,1.993350028991699219e+00,1.960246205329895020e+00,1.928223729133605957e+00,1.897230863571166992e+00,1.867218494415283203e+00
5.000000000000000000e+00,5.000000000000000000e+00,5.000000000000000000e+00,5.000000000000000000e+00,5.000000000000000000e+00,5.000000000000000000e+00,5.000000000000000000e+00,5.000000000000000000e+00,5.000000000000000000e+00,5.000000000000000000e+00,5.000000000000000000e+00,5.000000000000000000e+00,5.000000000000000000e+00,5.000000000000000000e+00,5.000000000000000000e+00,5.000000000000000000e+00,5.000000000000000000e+00,5.000000000000000000e+00,5.000000000000000000e+00,5.000000000000000000e+00,5.000000000000000000e+00,5.000000000000000000e+00,3.968065261840820312e+00,4.017594814300537109e+00,3.990323543548583984e+00,3.989300727844238281e+00,3.963098287582397461e+00,4.034827232360839844e+00,4.076483249664306641e+00,5.000000000000000000e+00,5.000000000000000000e+00,5.000000000000000000e+00,5.000000000000000000e+00,5.000000000000000000e+00,5.000000000000000000e+00,5.000000000000000000e+00,5.000000000000000000e+00,5.000000000000000000e+00,5.000000000000000000e+00,5.000000000000000000e+00,4.874651432037353516e+00,4.681322574615478516e+00,4.502743244171142578e+00,4.337288379669189453e+00,4.183561325073242188e+00,4.040358543395996094e+00,3.906635522842407227e+00,3.781480312347412109e+00,3.664094924926757812e+00,3.553778171539306641e+00,3.449909687042236328e+00,3.351940631866455078e+00,3.259382486343383789e+00,3.171797990798950195e+00,3.088797807693481445e+00,3.010030508041381836e+00,2.935180902481079102e+00,2.863963365554809570e+00,2.796119689941406250e+00,2.731416225433349609e+00,2.669639348983764648e+00,2.610595226287841797e+00,2.554106235504150391e+00,2.500010251998901367e+00,2.448158264160156250e+00,2.398413181304931641e+00,2.350649833679199219e+00,2.304751396179199219e+00,2.260611295700073242e+00,2.218129873275756836e+00,2.177215814590454102e+00,2.137783765792846680e+00,2.099754333496093750e+00,2.063054561614990234e+00,2.027615785598754883e+00,1.993373751640319824e+00,1.960269093513488770e+00,1.928245902061462402e+00,1.897252321243286133e+00,1.867239356040954590e+00
5.000000000000000000e+00,5.000000000000000000e+00,5.000000000000000000e+00,5.000000000000000000e+00,5.000000000000000000e+00,5.000000000000000000e+00,5.000000000000000000e+00,5.000000000000000000e+00,5.000000000000000000e+00,5.000000000000000000e+00,5.000000000000000000e+00,5.000000000000000000e+00,5.000000000000000000e+00,5.000000000000000000e+00,5.000000000000000000e+00,5.000000000000000000e+00,5.000000000000000000e+00,5.000000000000000000e+00,5.000000000000000000e+00,5.000000000000000000e+00,5.000000000000000000e+00,3.919476270675659180e+00,5.000000000000000000e+00,4.022103786468505859e+00,4.005139827728271484e+00,3.903580427169799805e+00,3.907443046569824219e+00,3.981626749038696289e+00,4.069718360900878906e+00,5.000000000000000000e+00,5.000000000000000000e+00,5.000000000000000000e+00,5.000000000000000000e+00,5.000000000000000000e+00,5.000000000000000000e+00,5.000000000000000000e+00,5.000000000000000000e+00,5.000000000000000000e+00,5.000000000000000000e+00,5.000000000000000000e+00,4.874793052673339844e+00,4.681453227996826172e+00,4.502864360809326172e+00,4.337400436401367188e+00,4.183666229248046875e+00,4.040456295013427734e+00,3.906726360321044922e+00,3.781565427780151367e+00,3.664174795150756836e+00,3.553853511810302734e+00,3.449980974197387695e+00,3.352007627487182617e+00,3.259445667266845703e+00,3.171858072280883789e+00,3.088854551315307617e+00,3.010084867477416992e+00,2.935232162475585938e+00,2.864012241363525391e+00,2.796166181564331055e+00,2.731460571289062500e+00,2.669682025909423828e+00,2.610635757446289062e+00,2.554145336151123047e+00,2.500047445297241211e+00,2.448194026947021484e+00,2.398447751998901367e+00,2.350682735443115234e+00,2.304783105850219727e+00,2.260641574859619141e+00,2.218159198760986328e+00,2.177244186401367188e+00,2.137810945510864258e+00,2.099780797958374023e+00,2.063080072402954102e+00,2.027640104293823242e+00,1.993397355079650879e+00,1.960291981697082520e+00,1.928268194198608398e+00,1.897273778915405273e+00,1.867260098457336426e+00
5.000000000000000000e+00,5.000000000000000000e+00,5.000000000000000000e+00,5.000000000000000000e+00,5.000000000000000000e+00,5.000000000000000000e+00,5.000000000000000000e+00,5.000000000000000000e+00,5.000000000000000000e+00,5.000000000000000000e+00,5.000000000000000000e+00,5.000000000000000000e+00,5.000000000000000000e+00,5.000000000000000000e+00,5.000000000000000000e+00,5.000000000000000000e+00,5.000000000000000000e+00,5.000000000000000000e+00,5.000000000000000000e+00,5.000000000000000000e+00,5.000000000000000000e+00,3.865280866622924805e+00,5.000000000000000000e+00,4.037427902221679688e+00,4.007464885711669922e+00,3.865639448165893555e+00,3.877132892608642578e+00,3.980782270431518555e+00,4.047832965850830078e+00,5.000000000000000000e+00,5.000000000000000000e+00,5.000000000000000000e+00,5.000000000000000000e+00,5.000000000000000000e+00,5.000000000000000000e+00,5.000000000000000000e+00,5.000000000000000000e+00,5.000000000000000000e+00,5.000000000000000000e+00,5.000000000000000000e+00,4.874935150146484375e+00,4.681583881378173828e+00,4.502985477447509766e+00,4.337512969970703125e+00,4.183770179748535156e+00,4.040554046630859375e+00,3.906817913055419922e+00,3.781650781631469727e+00,3.664255142211914062e+00,3.553928613662719727e+00,3.450051784515380859e+00,3.352075099945068359e+00,3.259509086608886719e+00,3.171918153762817383e+00,3.088911533355712891e+00,3.010138750076293945e+00,2.935283899307250977e+00,2.864061117172241211e+00,2.796213150024414062e+00,2.731505155563354492e+00,2.669724464416503906e+00,2.610676765441894531e+00,2.554184198379516602e+00,2.500084877014160156e+00,2.448229789733886719e+00,2.398481845855712891e+00,2.350715637207031250e+00,2.304814815521240234e+00,2.260672330856323242e+00,2.218188524246215820e+00,2.177272319793701172e+00,2.137838125228881836e+00,2.099807024002075195e+00,2.063105583190917969e+00,2.027664661407470703e+00,1.993421077728271484e+00,1.960314869880676270e+00,1.928290367126464844e+00,1.897295355796813965e+00,1.867280840873718262e+00
5.000000000000000000e+00,5.000000000000000000e+00,5.000000000000000000e+00,5.000000000000000000e+00,5.000000000000000000e+00,5.000000000000000000e+00,5.000000000000000000e+00,5.000000000000000000e+00,5.000000000000000000e+00,5.000000000000000000e+00,5.000000000000000000e+00,5.000000000000000000e+00,5.000000000000000000e+00,5.000000000000000000e+00,5.000000000000000000e+00,5.000000000000000000e+00,5.000000000000000000e+00,5.000000000000000000e+00,5.000000000000000000e+00,5.000000000000000000e+00,5.000000000000000000e+00,5.000000000000000000e+00,5.000000000000000000e+00,5.000000000000000000e+00,4.023954868316650391e+00,3.825255393981933594e+00,3.847571611404418945e+00,5.000000000000000000e+00,5.000000000000000000e+00,5.000000000000000000e+00,5.000000000000000000e+00,5.000000000000000000e+00,5.000000000000000000e+00,5.000000000000000000e+00,5.000000000000000000e+00,5.000000000000000000e+00,5.000000000000000000e+00,5.000000000000000000e+00,5.000000000000000000e+00,5.000000000000000000e+00,4.875076770782470703e+00,4.681714534759521484e+00,4.503106594085693359e+00,4.337625026702880859e+00,4.183875083923339844e+00,4.040651321411132812e+00,3.906908750534057617e+00,3.781735897064208984e+00,3.664335250854492188e+00,3.554004430770874023e+00,3.450122833251953125e+00,3.352141857147216797e+00,3.259572267532348633e+00,3.171978235244750977e+00,3.088968753814697266e+00,3.010192871093750000e+00,2.935335159301757812e+00,2.864109992980957031e+00,2.796259641647338867e+00,2.731549739837646484e+00,2.669766902923583984e+00,2.610717296600341797e+00,2.554223060607910156e+00,2.500122070312500000e+00,2.448265552520751953e+00,2.398516178131103516e+00,2.350748777389526367e+00,2.304846525192260742e+00,2.260702848434448242e+00,2.218218088150024414e+00,2.177300691604614258e+00,2.137865543365478516e+00,2.099833250045776367e+00,2.063130855560302734e+00,2.027689218521118164e+00,1.993444800376892090e+00,1.960337758064270020e+00,1.928312540054321289e+00,1.897316813468933105e+00,1.867301702499389648e+00
5.000000000000000000e+00,5.000000000000000000e+00,5.000000000000000000e+00,5.000000000000000000e+00,5.000000000000000000e+00,5.000000000000000000e+00,5.000000000000000000e+00,5.000000000000000000e+00,5.000000000000000000e+00,5.000000000000000000e+00,5.000000000000000000e+00,5.000000000000000000e+00,5.000000000000000000e+00,5.000000000000000000e+00,5.000000000000000000e+00,5.000000000000000000e+00,5.000000000000000000e+00,5.000000000000000000e+00,5.000000000000000000e+00,5.000000000000000000e+00,5.000000000000000000e+00,5.000000000000000000e+00,5.000000000000000000e+00,5.000000000000000000e+00,4.051024436950683594e+00,3.784868001937866211e+00,3.846426963806152344e+00,5.000000000000000000e+00,5.000000000000000000e+00,5.000000000000000000e+00,5.000000000000000000e+00,5.000000000000000000e+00,5.000000000000000000e+00,5.000000000000000000e+00,5.000000000000000000e+00,5.000000000000000000e+00,5.000000000000000000e+00,5.000000000000000000e+00,5.000000000000000000e+00,5.000000000000000000e+00,4.875218868255615234e+00,4.681845664978027344e+00,4.503227233886718750e+00,4.337737083435058594e+00,4.183979511260986328e+00,4.040748596191406250e+00,3.906999826431274414e+00,3.781821727752685547e+00,3.664415359497070312e+00,3.554079771041870117e+00,3.450194120407104492e+00,3.352208852767944336e+00,3.259635925292968750e+00,3.172038078308105469e+00,3.089025497436523438e+00,3.010246992111206055e+00,2.935386419296264648e+00,2.864159107208251953e+00,2.796306371688842773e+00,2.731594324111938477e+00,2.669809579849243164e+00,2.610758066177368164e+00,2.554262161254882812e+00,2.500159263610839844e+00,2.448301315307617188e+00,2.398550510406494141e+00,2.350781679153442383e+00,2.304878234863281250e+00,2.260733127593994141e+00,2.218247413635253906e+00,2.177328824996948242e+00,2.137892723083496094e+00,2.099859714508056641e+00,2.063156127929687500e+00,2.027713775634765625e+00,1.993468403816223145e+00,1.960360765457153320e+00,1.928334712982177734e+00,1.897338271141052246e+00,1.867322683334350586e+00
5.000000000000000000e+00,5.000000000000000000e+00,5.000000000000000000e+00,5.000000000000000000e+00,5.000000000000000000e+00,5.000000000000000000e+00,5.000000000000000000e+00,5.000000000000000000e+00,5.000000000000000000e+00,5.000000000000000000e+00,5.000000000000000000e+00,5.000000000000000000e+00,5.000000000000000000e+00,5.000000000000000000e+00,5.000000000000000000e+00,5.000000000000000000e+00,5.000000000000000000e+00,5.000000000000000000e+00,5.000000000000000000e+00,5.000000000000000000e+00,5.000000000000000000e+00,5.000000000000000000e+00,5.000000000000000000e+00,5.000000000000000000e+00,4.076110839843750000e+00,3.771316289901733398e+00,3.851435422897338867e+00,5.000000000000000000e+00,5.000000000000000000e+00,5.000000000000000000e+00,5.000000000000000000e+00,5.000000000000000000e+00,5.000000000000000000e+00,5.000000000000000000e+00,5.000000000000000000e+00,5.000000000000000000e+00,5.000000000000000000e+00,5.000000000000000000e+00,5.000000000000000000e+00,5.000000000000000000e+00,4.875360488891601562e+00,4.681976795196533203e+00,4.503348827362060547e+00,4.337849617004394531e+00,4.184083938598632812e+00,4.040845870971679688e+00,3.907091379165649414e+00,3.781906843185424805e+00,3.664495706558227539e+00,3.554154872894287109e+00,3.450265169143676758e+00,3.352275848388671875e+00,3.259699344635009766e+00,3.172098398208618164e+00,3.089082479476928711e+00,3.010301113128662109e+00,2.935437917709350586e+00,2.864207983016967773e+00,2.796353101730346680e+00,2.731638669967651367e+00,2.669852256774902344e+00,2.610798597335815430e+00,2.554301023483276367e+00,2.500196933746337891e+00,2.448337078094482422e+00,2.398585081100463867e+00,2.350814580917358398e+00,2.304909944534301758e+00,2.260763883590698242e+00,2.218276739120483398e+00,2.177357196807861328e+00,2.137920141220092773e+00,2.099886178970336914e+00,2.063181638717651367e+00,2.027738332748413086e+00,1.993492364883422852e+00,1.960383653640747070e+00,1.928356885910034180e+00,1.897359728813171387e+00,1.867343425750732422e+00
5.000000000000000000e+00,5.000000000000000000e+00,5.000000000000000000e+00,5.000000000000000000e+00,5.000000000000000000e+00,5.000000000000000000e+00,5.000000000000000000e+00,5.000000000000000000e+00,5.000000000000000000e+00,5.000000000000000000e+00,5.000000000000000000e+00,5.000000000000000000e+00,5.000000000000000000e+00,5.000000000000000000e+00,5.000000000000000000e+00,5.000000000000000000e+00,5.000000000000000000e+00,5.000000000000000000e+00,5.000000000000000000e+00,5.000000000000000000e+00,5.000000000000000000e+00,5.000000000000000000e+00,5.000000000000000000e+00,5.000000000000000000e+00,5.000000000000000000e+00,3.783934354782104492e+00,3.822520256042480469e+00,5.000000000000000000e+00,5.000000000000000000e+00,5.000000000000000000e+00,5.000000000000000000e+00,5.000000000000000000e+00,5.000000000000000000e+00,5.000000000000000000e+00,5.000000000000000000e+00,5.000000000000000000e+00,5.000000000000000000e+00,5.000000000000000000e+00,5.000000000000000000e+00,5.000000000000000000e+00,4.875500679016113281e+00,4.682107448577880859e+00,4.503469467163085938e+00,4.337962150573730469e+00,4.184188365936279297e+00,4.040943622589111328e+00,3.907182216644287109e+00,3.781992197036743164e+00,3.664575815200805664e+00,3.554230690002441406e+00,3.450335979461669922e+00,3.352343320846557617e+00,3.259762763977050781e+00,3.172158479690551758e+00,3.089139461517333984e+00,3.010354995727539062e+00,2.935489416122436523e+00,2.864256858825683594e+00,2.796399831771850586e+00,2.731683492660522461e+00,2.669894695281982422e+00,2.610839366912841797e+00,2.554339885711669922e+00,2.500234127044677734e+00,2.448372840881347656e+00,2.398619174957275391e+00,2.350847721099853516e+00,2.304941654205322266e+00,2.260794401168823242e+00,2.218306064605712891e+00,2.177385568618774414e+00,2.137947320938110352e+00,2.099912405014038086e+00,2.063207149505615234e+00,2.027762889862060547e+00,1.993516087532043457e+00,1.960406780242919922e+00,1.928379058837890625e+00,1.897381186485290527e+00,1.867364168167114258e+00
5.000000000000000000e+00,5.000000000000000000e+00,5.000000000000000000e+00,5.000000000000000000e+00,5.000000000000000000e+00,5.000000000000000000e+00,5.000000000000000000e+00,5.000000000000000000e+00,5.000000000000000000e+00,5.000000000000000000e+00,5.000000000000000000e+00,5.000000000000000000e+00,5.000000000000000000e+00,5.000000000000000000e+00,5.000000000000000000e+00,5.000000000000000000e+00,5.000000000000000000e+00,5.000000000000000000e+00,5.000000000000000000e+00,5.000000000000000000e+00,5.000000000000000000e+00,5.000000000000000000e+00,5.000000000000000000e+00,5.000000000000000000e+00,5.000000000000000000e+00,3.794075489044189453e+00,3.818296194076538086e+00,5.000000000000000000e+00,5.000000000000000000e+00,5.000000000000000000e+00,5.000000000000000000e+00,5.000000000000000000e+00,5.000000000000000000e+00,5.000000000000000000e+00,5.000000000000000000e+00,5.000000000000000000e+00,5.000000000000000000e+00,5.000000000000000000e+00,5.000000000000000000e+00,5.000000000000000000e+00,4.875640392303466797e+00,4.682237148284912109e+00,4.503590583801269531e+00,4.338074207305908203e+00,4.184292793273925781e+00,4.041041374206542969e+00,3.907273292541503906e+00,3.782077789306640625e+00,3.664655923843383789e+00,3.554305791854858398e+00,3.450407028198242188e+00,3.352410316467285156e+00,3.259826421737670898e+00,3.172218322753906250e+00,3.089196443557739258e+00,3.010409116744995117e+00,2.935540914535522461e+00,2.864306211471557617e+00,2.796446323394775391e+00,2.731727838516235352e+00,2.669937133789062500e+00,2.610880136489868164e+00,2.554378986358642578e+00,2.500271320343017578e+00,2.448408603668212891e+00,2.398653507232666016e+00,2.350880622863769531e+00,2.304973363876342773e+00,2.260824680328369141e+00,2.218335628509521484e+00,2.177413702011108398e+00,2.137974739074707031e+00,2.099938869476318359e+00,2.063232421875000000e+00,2.027787446975708008e+00,1.993539690971374512e+00,1.960429668426513672e+00,1.928401470184326172e+00,1.897402644157409668e+00,1.867385029792785645e+00
5.000000000000000000e+00,5.000000000000000000e+00,5.000000000000000000e+00,5.000000000000000000e+00,5.000000000000000000e+00,5.000000000000000000e+00,5.000000000000000000e+00,5.000000000000000000e+00,5.000000000000000000e+00,5.000000000000000000e+00,5.000000000000000000e+00,5.000000000000000000e+00,5.000000000000000000e+00,5.000000000000000000e+00,5.000000000000000000e+00,5.000000000000000000e+00,5.000000000000000000e+00,5.000000000000000000e+00,5.000000000000000000e+00,5.000000000000000000e+00,5.000000000000000000e+00,5.000000000000000000e+00,5.000000000000000000e+00,5.000000000000000000e+00,5.000000000000000000e+00,3.780807018280029297e+00,3.812674522399902344e+00,5.000000000000000000e+00,5.000000000000000000e+00,5.000000000000000000e+00,5.000000000000000000e+00,5.000000000000000000e+00,5.000000000000000000e+00,5.000000000000000000e+00,5.000000000000000000e+00,5.000000000000000000e+00,5.000000000000000000e+00,5.000000000000000000e+00,5.000000000000000000e+00,5.000000000000000000e+00,4.875780105590820312e+00,4.682365894317626953e+00,4.503711700439453125e+00,4.338186740875244141e+00,4.184397697448730469e+00,4.041138648986816406e+00,3.907364130020141602e+00,3.782163143157958984e+00,3.664736270904541016e+00,3.554381132125854492e+00,3.450478315353393555e+00,3.352477312088012695e+00,3.259889602661132812e+00,3.172278642654418945e+00,3.089253425598144531e+00,3.010463476181030273e+00,2.935592174530029297e+00,2.864355087280273438e+00,2.796493291854858398e+00,2.731772422790527344e+00,2.669979810714721680e+00,2.610920667648315430e+00,2.554417848587036133e+00,2.500308752059936523e+00,2.448444366455078125e+00,2.398688077926635742e+00,2.350913524627685547e+00,2.305005073547363281e+00,2.260855197906494141e+00,2.218364953994750977e+00,2.177442073822021484e+00,2.138001918792724609e+00,2.099965095520019531e+00,2.063257932662963867e+00,2.027812004089355469e+00,1.993563413619995117e+00,1.960452556610107422e+00,1.928423643112182617e+00,1.897424101829528809e+00,1.867405772209167480e+00
5.000000000000000000e+00,5.000000000000000000e+00,5.000000000000000000e+00,5.000000000000000000e+00,5.000000000000000000e+00,5.000000000000000000e+00,5.000000000000000000e+00,5.000000000000000000e+00,5.000000000000000000e+00,5.000000000000000000e+00,5.000000000000000000e+00,5.000000000000000000e+00,5.000000000000000000e+00,5.000000000000000000e+00,5.000000000000000000e+00,5.000000000000000000e+00,5.000000000000000000e+00,5.000000000000000000e+00,5.000000000000000000e+00,5.000000000000000000e+00,5.000000000000000000e+00,5.000000000000000000e+00,5.000000000000000000e+00,5.000000000000000000e+00,5.000000000000000000e+00,3.766108751296997070e+00,3.807588338851928711e+00,5.000000000000000000e+00,5.000000000000000000e+00,5.000000000000000000e+00,5.000000000000000000e+00,5.000000000000000000e+00,5.000000000000000000e+00,5.000000000000000000e+00,5.000000000000000000e+00,5.000000000000000000e+00,5.000000000000000000e+00,5.000000000000000000e+00,5.000000000000000000e+00,5.000000000000000000e+00,4.875919342041015625e+00,4.682494640350341797e+00,4.503830909729003906e+00,4.338298797607421875e+00,4.184502124786376953e+00,4.041235923767089844e+00,3.907455682754516602e+00,3.782248497009277344e+00,3.664816379547119141e+00,3.554456949234008789e+00,3.450549364089965820e+00,3.352544546127319336e+00,3.259953022003173828e+00,3.172338724136352539e+00,3.089310169219970703e+00,3.010517358779907227e+00,2.935643911361694336e+00,2.864403963088989258e+00,2.796539783477783203e+00,2.731817007064819336e+00,2.670022249221801758e+00,2.610961437225341797e+00,2.554456710815429688e+00,2.500345945358276367e+00,2.448480129241943359e+00,2.398722410202026367e+00,2.350946664810180664e+00,2.305036783218383789e+00,2.260885953903198242e+00,2.218394279479980469e+00,2.177470445632934570e+00,2.138029336929321289e+00,2.099991321563720703e+00,2.063283443450927734e+00,2.027836561203002930e+00,1.993587136268615723e+00,1.960475444793701172e+00,1.928445816040039062e+00,1.897445797920227051e+00,1.867426514625549316e+00
5.000000000000000000e+00,5.000000000000000000e+00,5.000000000000000000e+00,5.000000000000000000e+00,5.000000000000000000e+00,5.000000000000000000e+00,5.000000000000000000e+00,5.000000000000000000e+00,5.000000000000000000e+00,5.000000000000000000e+00,5.000000000000000000e+00,5.000000000000000000e+00,5.000000000000000000e+00,5.000000000000000000e+00,5.000000000000000000e+00,5.000000000000000000e+00,5.000000000000000000e+00,5.000000000000000000e+00,5.000000000000000000e+00,5.000000000000000000e+00,5.000000000000000000e+00,5.000000000000000000e+00,5.000000000000000000e+00,5.000000000000000000e+00,5.000000000000000000e+00,3.756346702575683594e+00,3.804179906845092773e+00,5.000000000000000000e+00,5.000000000000000000e+00,5.000000000000000000e+00,5.000000000000000000e+00,5.000000000000000000e+00,5.000000000000000000e+00,5.000000000000000000e+00,5.000000000000000000e+00,5.000000000000000000e+00,5.000000000000000000e+00,5.000000000000000000e+00,5.000000000000000000e+00,5.000000000000000000e+00,4.876058578491210938e+00,4.682623386383056641e+00,4.503949642181396484e+00,4.338410377502441406e+00,4.184606552124023438e+00,4.041333675384521484e+00,3.907546758651733398e+00,3.782334089279174805e+00,3.664896488189697266e+00,3.554532289505004883e+00,3.450620174407958984e+00,3.352611541748046875e+00,3.260016679763793945e+00,3.172398567199707031e+00,3.089367389678955078e+00,3.010571479797363281e+00,2.935695171356201172e+00,2.864453077316284180e+00,2.796586513519287109e+00,2.731861591339111328e+00,2.670064926147460938e+00,2.611002206802368164e+00,2.554495811462402344e+00,2.500383377075195312e+00,2.448516130447387695e+00,2.398756742477416992e+00,2.350979566574096680e+00,2.305068492889404297e+00,2.260916233062744141e+00,2.218423604965209961e+00,2.177498817443847656e+00,2.138056516647338867e+00,2.100017547607421875e+00,2.063308715820312500e+00,2.027861118316650391e+00,1.993610858917236328e+00,1.960498452186584473e+00,1.928467869758605957e+00,1.897467255592346191e+00,1.867447495460510254e+00
5.000000000000000000e+00,5.000000000000000000e+00,5.000000000000000000e+00,5.000000000000000000e+00,5.000000000000000000e+00,5.000000000000000000e+00,5.000000000000000000e+00,5.000000000000000000e+00,5.000000000000000000e+00,5.000000000000000000e+00,5.000000000000000000e+00,5.000000000000000000e+00,5.000000000000000000e+00,5.000000000000000000e+00,5.000000000000000000e+00,5.000000000000000000e+00,5.000000000000000000e+00,5.000000000000000000e+00,5.000000000000000000e+00,5.000000000000000000e+00,5.000000000000000000e+00,5.000000000000000000e+00,5.000000000000000000e+00,5.000000000000000000e+00,5.000000000000000000e+00,3.760981321334838867e+00,4.334639072418212891e+00,5.000000000000000000e+00,5.000000000000000000e+00,5.000000000000000000e+00,5.000000000000000000e+00,5.000000000000000000e+00,5.000000000000000000e+00,5.000000000000000000e+00,5.000000000000000000e+00,5.000000000000000000e+00,5.000000000000000000e+00,5.000000000000000000e+00,5.000000000000000000e+00,5.000000000000000000e+00,4.876197814941406250e+00,4.682752132415771484e+00,4.504068851470947266e+00,4.338520526885986328e+00,4.184710502624511719e+00,4.041430950164794922e+00,3.907637834548950195e+00,3.782419443130493164e+00,3.664976835250854492e+00,3.554607391357421875e+00,3.450691699981689453e+00,3.352678537368774414e+00,3.260080099105834961e+00,3.172458648681640625e+00,3.089424371719360352e+00,3.010625839233398438e+00,2.935746669769287109e+00,2.864501953125000000e+00,2.796633005142211914e+00,2.731906175613403320e+00,2.670107603073120117e+00,2.611042737960815430e+00,2.554534673690795898e+00,2.500420570373535156e+00,2.448551893234252930e+00,2.398791074752807617e+00,2.351012468338012695e+00,2.305100202560424805e+00,2.260946750640869141e+00,2.218452930450439453e+00,2.177527189254760742e+00,2.138083696365356445e+00,2.100044012069702148e+00,2.063333988189697266e+00,2.027885675430297852e+00,1.993634700775146484e+00,1.960521340370178223e+00,1.928490042686462402e+00,1.897488713264465332e+00,1.867468357086181641e+00
4.871049404144287109e+00,4.869843482971191406e+00,4.868638515472412109e+00,4.867434024810791016e+00,4.866230010986328125e+00,4.865026473999023438e+00,4.863823890686035156e+00,4.862621784210205078e+00,4.861420154571533203e+00,4.860219478607177734e+00,4.859018802642822266e+00,4.857819080352783203e+00,4.856620311737060547e+00,4.855421543121337891e+00,4.854223728179931641e+00,4.853026390075683594e+00,4.851830005645751953e+00,4.850633621215820312e+00,4.849438190460205078e+00,4.848243236541748047e+00,4.847048759460449219e+00,4.845854759216308594e+00,4.844661712646484375e+00,4.843468666076660156e+00,4.842276573181152344e+00,3.624577999114990234e+00,4.262848377227783203e+00,4.838704109191894531e+00,4.837514400482177734e+00,4.836325168609619141e+00,4.835136413574218750e+00,4.833948612213134766e+00,4.832760810852050781e+00,4.831573963165283203e+00,4.830388069152832031e+00,4.829202175140380859e+00,4.828017234802246094e+00,4.826832771301269531e+00,4.825648784637451172e+00,4.824465274810791016e+00,4.823282718658447266e+00,4.682880878448486328e+00,4.504187583923339844e+00,4.338631153106689453e+00,4.184813022613525391e+00,4.041528701782226562e+00,3.907729148864746094e+00,3.782504558563232422e+00,3.665056943893432617e+00,3.554682731628417969e+00,3.450762510299682617e+00,3.352745771408081055e+00,3.260143280029296875e+00,3.172518968582153320e+00,3.089481115341186523e+00,3.010679721832275391e+00,2.935798168182373047e+00,2.864550828933715820e+00,2.796679973602294922e+00,2.731950521469116211e+00,2.670150041580200195e+00,2.611083507537841797e+00,2.554573774337768555e+00,2.500458002090454102e+00,2.448587656021118164e+00,2.398825407028198242e+00,2.351045608520507812e+00,2.305131912231445312e+00,2.260977506637573242e+00,2.218482494354248047e+00,2.177555322647094727e+00,2.138111114501953125e+00,2.100070238113403320e+00,2.063359498977661133e+00,2.027910232543945312e+00,1.993658423423767090e+00,1.960544228553771973e+00,1.928512215614318848e+00,1.897510170936584473e+00,1.867489099502563477e+00
3.775765180587768555e+00,3.775040864944458008e+00,3.774316310882568359e+00,3.773592710494995117e+00,3.772868871688842773e+00,3.772145748138427734e+00,3.771422386169433594e+00,3.770699739456176758e+00,3.769977092742919922e+00,3.769254922866821289e+00,3.768532752990722656e+00,3.767811298370361328e+00,3.767089605331420898e+00,3.766368627548217773e+00,3.765647649765014648e+00,3.764927148818969727e+00,3.764206647872924805e+00,3.763486862182617188e+00,3.762766838073730469e+00,3.762047529220581055e+00,3.761327981948852539e+00,3.760609388351440430e+00,3.759890794754028320e+00,3.759172201156616211e+00,3.758454322814941406e+00,3.757736206054687500e+00,3.757018804550170898e+00,3.756301403045654297e+00,3.755584478378295898e+00,3.754867553710937500e+00,3.754151344299316406e+00,3.753434896469116211e+00,3.752719163894653320e+00,3.752003192901611328e+00,3.751288175582885742e+00,3.750572681427001953e+00,3.749858140945434570e+00,3.749143362045288086e+00,3.748429298400878906e+00,3.747714996337890625e+00,3.747001409530639648e+00,3.746287822723388672e+00,3.745574712753295898e+00,3.744861602783203125e+00,3.744149208068847656e+00,3.743436574935913086e+00,3.742724657058715820e+00,3.742012977600097656e+00,3.665137052536010742e+00,3.554758548736572266e+00,3.450833559036254883e+00,3.352812767028808594e+00,3.260206699371337891e+00,3.172578811645507812e+00,3.089538335800170898e+00,3.010733842849731445e+00,2.935849666595458984e+00,2.864599704742431641e+00,2.796726465225219727e+00,2.731995344161987305e+00,2.670192480087280273e+00,2.611124277114868164e+00,2.554612636566162109e+00,2.500495195388793945e+00,2.448623418807983398e+00,2.398859739303588867e+00,2.351078748703002930e+00,2.305163621902465820e+00,2.261007785797119141e+00,2.218511819839477539e+00,2.177583694458007812e+00,2.138138532638549805e+00,2.100096702575683594e+00,2.063385009765625000e+00,2.027934789657592773e+00,1.993682146072387695e+00,1.960567355155944824e+00,1.928534388542175293e+00,1.897531628608703613e+00,1.867509961128234863e+00
3.082619905471801758e+00,3.082137107849121094e+00,3.081654310226440430e+00,3.081171751022338867e+00,3.080689191818237305e+00,3.080207109451293945e+00,3.079724788665771484e+00,3.079242944717407227e+00,3.078760862350463867e+00,3.078279256820678711e+00,3.077797651290893555e+00,3.077316284179687500e+00,3.076834917068481445e+00,3.076354026794433594e+00,3.075872898101806641e+00,3.075392246246337891e+00,3.074911355972290039e+00,3.074430942535400391e+00,3.073950529098510742e+00,3.073470354080200195e+00,3.072990179061889648e+00,3.072510480880737305e+00,3.072030544281005859e+00,3.071551084518432617e+00,3.071071386337280273e+00,3.070592403411865234e+00,3.070112943649291992e+00,3.069634199142456055e+00,3.069155454635620117e+00,3.068676471710205078e+00,3.068198204040527344e+00,3.067719697952270508e+00,3.067241430282592773e+00,3.066763162612915039e+00,3.066285371780395508e+00,3.065807580947875977e+00,3.065330028533935547e+00,3.064852476119995117e+00,3.064375162124633789e+00,3.063897848129272461e+00,3.063420772552490234e+00,3.062943696975708008e+00,3.062467098236083984e+00,3.061990499496459961e+00,3.061514139175415039e+00,3.061037540435791016e+00,3.060561656951904297e+00,3.060085296630859375e+00,3.059609651565551758e+00,3.059133768081665039e+00,3.058658361434936523e+00,3.058182716369628906e+00,3.057707548141479492e+00,3.057232141494750977e+00,3.056757450103759766e+00,3.010787963867187500e+00,2.935900926589965820e+00,2.864648818969726562e+00,2.796773195266723633e+00,2.732039690017700195e+00,2.670235157012939453e+00,2.611164808273315430e+00,2.554651737213134766e+00,2.500532627105712891e+00,2.448659181594848633e+00,2.398894071578979492e+00,2.351111650466918945e+00,2.305195569992065430e+00,2.261038303375244141e+00,2.218541145324707031e+00,2.177611827850341797e+00,2.138165712356567383e+00,2.100122928619384766e+00,2.063410282135009766e+00,2.027959346771240234e+00,1.993705749511718750e+00,1.960590243339538574e+00,1.928556799888610840e+00,1.897553086280822754e+00,1.867530703544616699e+00
2.604493618011474609e+00,2.604148864746093750e+00,2.603804349899291992e+00,2.603459596633911133e+00,2.603115320205688477e+00,2.602770805358886719e+00,2.602426528930664062e+00,2.602082490921020508e+00,2.601738452911376953e+00,2.601394414901733398e+00,2.601050376892089844e+00,2.600706577301025391e+00,2.600362777709960938e+00,2.600019216537475586e+00,2.599675655364990234e+00,2.599332332611083984e+00,2.598988771438598633e+00,2.598645687103271484e+00,2.598302364349365234e+00,2.597959280014038086e+00,2.597616195678710938e+00,2.597273349761962891e+00,2.596930503845214844e+00,2.596587896347045898e+00,2.596245050430297852e+00,2.595902681350708008e+00,2.595560073852539062e+00,2.595217704772949219e+00,2.594875335693359375e+00,2.594533205032348633e+00,2.594191074371337891e+00,2.593849182128906250e+00,2.593507051467895508e+00,2.593165397644042969e+00,2.592823743820190430e+00,2.592481851577758789e+00,2.592140436172485352e+00,2.591798782348632812e+00,2.591457605361938477e+00,2.591116189956665039e+00,2.590775012969970703e+00,2.590433835983276367e+00,2.590092897415161133e+00,2.589751958847045898e+00,2.589411258697509766e+00,2.589070320129394531e+00,2.588729858398437500e+00,2.588389158248901367e+00,2.588048696517944336e+00,2.587708234786987305e+00,2.587368011474609375e+00,2.587027788162231445e+00,2.586687564849853516e+00,2.586347579956054688e+00,2.586007595062255859e+00,2.585667610168457031e+00,2.585328102111816406e+00,2.584988355636596680e+00,2.584648847579956055e+00,2.584309101104736328e+00,2.583969831466674805e+00,2.583630561828613281e+00,2.554690599441528320e+00,2.500570058822631836e+00,2.448694944381713867e+00,2.398928403854370117e+00,2.351144552230834961e+00,2.305227041244506836e+00,2.261069059371948242e+00,2.218570470809936523e+00,2.177640199661254883e+00,2.138192892074584961e+00,2.100149393081665039e+00,2.063435792922973633e+00,2.027983903884887695e+00,1.993729472160339355e+00,1.960613131523132324e+00,1.928578972816467285e+00,1.897574782371520996e+00,1.867551445960998535e+00
2.254770040512084961e+00,2.254511594772338867e+00,2.254253387451171875e+00,2.253995180130004883e+00,2.253736972808837891e+00,2.253479003906250000e+00,2.253220796585083008e+00,2.252962827682495117e+00,2.252704858779907227e+00,2.252446889877319336e+00,2.252189159393310547e+00,2.251931190490722656e+00,2.251673460006713867e+00,2.251415729522705078e+00,2.251158237457275391e+00,2.250900745391845703e+00,2.250643253326416016e+00,2.250385999679565430e+00,2.250128507614135742e+00,2.249871253967285156e+00,2.249613761901855469e+00,2.249356746673583984e+00,2.249099493026733398e+00,2.248842477798461914e+00,2.248585462570190430e+00,2.248328447341918945e+00,2.248071670532226562e+00,2.247814893722534180e+00,2.247557878494262695e+00,2.247301340103149414e+00,2.247044563293457031e+00,2.246788024902343750e+00,2.246531486511230469e+00,2.246274948120117188e+00,2.246018409729003906e+00,2.245762109756469727e+00,2.245505809783935547e+00,2.245249509811401367e+00,2.244993209838867188e+00,2.244737148284912109e+00,2.244481086730957031e+00,2.244225025177001953e+00,2.243969202041625977e+00,2.243713140487670898e+00,2.243457317352294922e+00,2.243201494216918945e+00,2.242945909500122070e+00,2.242690086364746094e+00,2.242434501647949219e+00,2.242178916931152344e+00,2.241923570632934570e+00,2.241667985916137695e+00,2.241412639617919922e+00,2.241157293319702148e+00,2.240902185440063477e+00,2.240646839141845703e+00,2.240391731262207031e+00,2.240136623382568359e+00,2.239881515502929688e+00,2.239626646041870117e+00,2.239371776580810547e+00,2.239116907119750977e+00,2.238862037658691406e+00,2.238607168197631836e+00,2.238352537155151367e+00,2.238097906112670898e+00,2.237843513488769531e+00,2.237588882446289062e+00,2.237334489822387695e+00,2.218599796295166016e+00,2.177668571472167969e+00,2.138220310211181641e+00,2.100175619125366211e+00,2.063461303710937500e+00,2.028008222579956055e+00,1.993753194808959961e+00,1.960636138916015625e+00,1.928601145744323730e+00,1.897596240043640137e+00,1.867572307586669922e+00
1.987847208976745605e+00,1.987646341323852539e+00,1.987445473670959473e+00,1.987244963645935059e+00,1.987044095993041992e+00,1.986843466758728027e+00,1.986642956733703613e+00,1.986442327499389648e+00,1.986241698265075684e+00,1.986041426658630371e+00,1.985840916633605957e+00,1.985640406608581543e+00,1.985440015792846680e+00,1.985239863395690918e+00,1.985039472579956055e+00,1.984839200973510742e+00,1.984639167785644531e+00,1.984438896179199219e+00,1.984238624572753906e+00,1.984038710594177246e+00,1.983838677406311035e+00,1.983638525009155273e+00,1.983438491821289062e+00,1.983238816261291504e+00,1.983038783073425293e+00,1.982838869094848633e+00,1.982639193534851074e+00,1.982439398765563965e+00,1.982239603996276855e+00,1.982040047645568848e+00,1.981840372085571289e+00,1.981640696525573730e+00,1.981441020965576172e+00,1.981241703033447266e+00,1.981042146682739258e+00,1.980842709541320801e+00,1.980643391609191895e+00,1.980443954467773438e+00,1.980244636535644531e+00,1.980045437812805176e+00,1.979846119880676270e+00,1.979646921157836914e+00,1.979447603225708008e+00,1.979248642921447754e+00,1.979049563407897949e+00,1.978850364685058594e+00,1.978651523590087891e+00,1.978452563285827637e+00,1.978253483772277832e+00,1.978054761886596680e+00,1.977855920791625977e+00,1.977657079696655273e+00,1.977458238601684570e+00,1.977259635925292969e+00,1.977060914039611816e+00,1.976862192153930664e+00,1.976663708686828613e+00,1.976465106010437012e+00,1.976266503334045410e+00,1.976068139076232910e+00,1.975869655609130859e+00,1.975671172142028809e+00,1.975472688674926758e+00,1.975274562835693359e+00,1.975076198577880859e+00,1.974877953529357910e+00,1.974679827690124512e+00,1.974481582641601562e+00,1.974283456802368164e+00,1.974085450172424316e+00,1.973887324333190918e+00,1.973689317703247070e+00,1.973491311073303223e+00,1.973293542861938477e+00,1.973095536231994629e+00,1.972897648811340332e+00,1.960659027099609375e+00,1.928623318672180176e+00,1.897617697715759277e+00,1.867593288421630859e+00
1.777432203292846680e+00,1.777271509170532227e+00,1.777111172676086426e+00,1.776950597763061523e+00,1.776790142059326172e+00,1.776629805564880371e+00,1.776469349861145020e+00,1.776308894157409668e+00,1.776148676872253418e+00,1.775988340377807617e+00,1.775828003883361816e+00,1.775667667388916016e+00,1.775507569313049316e+00,1.775347232818603516e+00,1.775187015533447266e+00,1.775027036666870117e+00,1.774866819381713867e+00,1.774706721305847168e+00,1.774546742439270020e+00,1.774386644363403320e+00,1.774226546287536621e+00,1.774066567420959473e+00,1.773906707763671875e+00,1.773746728897094727e+00,1.773586869239807129e+00,1.773427128791809082e+00,1.773267149925231934e+00,1.773107290267944336e+00,1.772947669029235840e+00,1.772787928581237793e+00,1.772628068923950195e+00,1.772468328475952148e+00,1.772308826446533203e+00,1.772149205207824707e+00,1.771989464759826660e+00,1.771830081939697266e+00,1.771670460700988770e+00,1.771510839462280273e+00,1.771351456642150879e+00,1.771191954612731934e+00,1.771032571792602539e+00,1.770873069763183594e+00,1.770713806152343750e+00,1.770554423332214355e+00,1.770395040512084961e+00,1.770235896110534668e+00,1.770076513290405273e+00,1.769917249679565430e+00,1.769758224487304688e+00,1.769598960876464844e+00,1.769439816474914551e+00,1.769280552864074707e+00,1.769121646881103516e+00,1.768962502479553223e+00,1.768803477287292480e+00,1.768644571304321289e+00,1.768485546112060547e+00,1.768326520919799805e+00,1.768167734146118164e+00,1.768008828163146973e+00,1.767849922180175781e+00,1.767691016197204590e+00,1.767532348632812500e+00,1.767373561859130859e+00,1.767214775085449219e+00,1.767056107521057129e+00,1.766897439956665039e+00,1.766738653182983398e+00,1.766580224037170410e+00,1.766421556472778320e+00,1.766262888908386230e+00,1.766104459762573242e+00,1.765945911407470703e+00,1.765787363052368164e+00,1.765628814697265625e+00,1.765470623970031738e+00,1.765312194824218750e+00,1.765153765678405762e+00,1.764995574951171875e+00,1.764837145805358887e+00
1.607298493385314941e+00,1.607167243957519531e+00,1.607035994529724121e+00,1.606904745101928711e+00,1.606773614883422852e+00,1.606642365455627441e+00,1.606511116027832031e+00,1.606379985809326172e+00,1.606248855590820312e+00,1.606117725372314453e+00,1.605986595153808594e+00,1.605855584144592285e+00,1.605724453926086426e+00,1.605593442916870117e+00,1.605462431907653809e+00,1.605331420898437500e+00,1.605200409889221191e+00,1.605069637298583984e+00,1.604938626289367676e+00,1.604807615280151367e+00,1.604676723480224609e+00,1.604545950889587402e+00,1.604415059089660645e+00,1.604284286499023438e+00,1.604153513908386230e+00,1.604022741317749023e+00,1.603891968727111816e+00,1.603761315345764160e+00,1.603630542755126953e+00,1.603499770164489746e+00,1.603369116783142090e+00,1.603238582611083984e+00,1.603107810020446777e+00,1.602977156639099121e+00,1.602846741676330566e+00,1.602716088294982910e+00,1.602585554122924805e+00,1.602455139160156250e+00,1.602324604988098145e+00,1.602194070816040039e+00,1.602063536643981934e+00,1.601933240890502930e+00,1.601802706718444824e+00,1.601672291755676270e+00,1.601541996002197266e+00,1.601411700248718262e+00,1.601281285285949707e+00,1.601151108741760254e+00,1.601020693778991699e+00,1.600890398025512695e+00,1.600760102272033691e+00,1.600630044937133789e+00,1.600499749183654785e+00,1.600369572639465332e+00,1.600239515304565430e+00,1.600109338760375977e+00,1.599979043006896973e+00,1.599849104881286621e+00,1.599718928337097168e+00,1.599588871002197266e+00,1.599458813667297363e+00,1.599328875541687012e+00,1.599198818206787109e+00,1.599068880081176758e+00,1.598939061164855957e+00,1.598809003829956055e+00,1.598679065704345703e+00,1.598549365997314453e+00,1.598419427871704102e+00,1.598289489746093750e+00,1.598159790039062500e+00,1.598029971122741699e+00,1.597900152206420898e+00,1.597770333290100098e+00,1.597640633583068848e+00,1.597510933876037598e+00,1.597381234169006348e+00,1.597251653671264648e+00,1.597121953964233398e+00,1.596992254257202148e+00
1.466889739036560059e+00,1.466780304908752441e+00,1.466670870780944824e+00,1.466561675071716309e+00,1.466452360153198242e+00,1.466343045234680176e+00,1.466233849525451660e+00,1.466124534606933594e+00,1.466015219688415527e+00,1.465906023979187012e+00,1.465796828269958496e+00,1.465687632560729980e+00,1.465578436851501465e+00,1.465469360351562500e+00,1.465360164642333984e+00,1.465250968933105469e+00,1.465142011642456055e+00,1.465032815933227539e+00,1.464923739433288574e+00,1.464814662933349609e+00,1.464705705642700195e+00,1.464596629142761230e+00,1.464487552642822266e+00,1.464378595352172852e+00,1.464269638061523438e+00,1.464160561561584473e+00,1.464051723480224609e+00,1.463942766189575195e+00,1.463833808898925781e+00,1.463724851608276367e+00,1.463616132736206055e+00,1.463507175445556641e+00,1.463398218154907227e+00,1.463289499282836914e+00,1.463180661201477051e+00,1.463071823120117188e+00,1.462963104248046875e+00,1.462854385375976562e+00,1.462745547294616699e+00,1.462636709213256836e+00,1.462528109550476074e+00,1.462419390678405762e+00,1.462310671806335449e+00,1.462202072143554688e+00,1.462093353271484375e+00,1.461984753608703613e+00,1.461876153945922852e+00,1.461767554283142090e+00,1.461658954620361328e+00,1.461550474166870117e+00,1.461441874504089355e+00,1.461333274841308594e+00,1.461224675178527832e+00,1.461116194725036621e+00,1.461007714271545410e+00,1.460899233818054199e+00,1.460790872573852539e+00,1.460682392120361328e+00,1.460573911666870117e+00,1.460465550422668457e+00,1.460357069969177246e+00,1.460248708724975586e+00,1.460140228271484375e+00,1.460031986236572266e+00,1.459923624992370605e+00,1.459815263748168945e+00,1.459707021713256836e+00,1.459598779678344727e+00,1.459490418434143066e+00,1.459382295608520508e+00,1.459274053573608398e+00,1.459165692329406738e+00,1.459057450294494629e+00,1.458949446678161621e+00,1.458841204643249512e+00,1.458732962608337402e+00,1.458624958992004395e+00,1.458516716957092285e+00,1.458408594131469727e+00,1.458300590515136719e+00
1.349041342735290527e+00,1.348948836326599121e+00,1.348856329917907715e+00,1.348763823509216309e+00,1.348671436309814453e+00,1.348579049110412598e+00,1.348486542701721191e+00,1.348394155502319336e+00,1.348301649093627930e+00,1.348209381103515625e+00,1.348116993904113770e+00,1.348024606704711914e+00,1.347932338714599609e+00,1.347839951515197754e+00,1.347747564315795898e+00,1.347655296325683594e+00,1.347563028335571289e+00,1.347470641136169434e+00,1.347378373146057129e+00,1.347286224365234375e+00,1.347193956375122070e+00,1.347101688385009766e+00,1.347009539604187012e+00,1.346917271614074707e+00,1.346825003623962402e+00,1.346732974052429199e+00,1.346640706062316895e+00,1.346548557281494141e+00,1.346456408500671387e+00,1.346364259719848633e+00,1.346272110939025879e+00,1.346179962158203125e+00,1.346087932586669922e+00,1.345995903015136719e+00,1.345903754234313965e+00,1.345811724662780762e+00,1.345719695091247559e+00,1.345627665519714355e+00,1.345535516738891602e+00,1.345443606376647949e+00,1.345351576805114746e+00,1.345259547233581543e+00,1.345167636871337891e+00,1.345075726509094238e+00,1.344983696937561035e+00,1.344891905784606934e+00,1.344799876213073730e+00,1.344707965850830078e+00,1.344616174697875977e+00,1.344524264335632324e+00,1.344432353973388672e+00,1.344340443611145020e+00,1.344248652458190918e+00,1.344156742095947266e+00,1.344064950942993164e+00,1.343973159790039062e+00,1.343881368637084961e+00,1.343789577484130859e+00,1.343697786331176758e+00,1.343605995178222656e+00,1.343514204025268555e+00,1.343422532081604004e+00,1.343330860137939453e+00,1.343239068984985352e+00,1.343147397041320801e+00,1.343055725097656250e+00,1.342964053153991699e+00,1.342872381210327148e+00,1.342780828475952148e+00,1.342689156532287598e+00,1.342597484588623047e+00,1.342505812644958496e+00,1.342414259910583496e+00,1.342322707176208496e+00,1.342231035232543945e+00,1.342139601707458496e+00,1.342048048973083496e+00,1.341956496238708496e+00,1.341864943504333496e+00,1.341773509979248047e+00
1.248720407485961914e+00,1.248641252517700195e+00,1.248561978340148926e+00,1.248482704162597656e+00,1.248403549194335938e+00,1.248324394226074219e+00,1.248245120048522949e+00,1.248165965080261230e+00,1.248086810111999512e+00,1.248007655143737793e+00,1.247928380966186523e+00,1.247849345207214355e+00,1.247770190238952637e+00,1.247691035270690918e+00,1.247611999511718750e+00,1.247532844543457031e+00,1.247453689575195312e+00,1.247374653816223145e+00,1.247295618057250977e+00,1.247216463088989258e+00,1.247137427330017090e+00,1.247058391571044922e+00,1.246979355812072754e+00,1.246900320053100586e+00,1.246821403503417969e+00,1.246742367744445801e+00,1.246663331985473633e+00,1.246584415435791016e+00,1.246505379676818848e+00,1.246426463127136230e+00,1.246347427368164062e+00,1.246268510818481445e+00,1.246189594268798828e+00,1.246110677719116211e+00,1.246031761169433594e+00,1.245952844619750977e+00,1.245873928070068359e+00,1.245795130729675293e+00,1.245716214179992676e+00,1.245637297630310059e+00,1.245558381080627441e+00,1.245479583740234375e+00,1.245400786399841309e+00,1.245321869850158691e+00,1.245243191719055176e+00,1.245164275169372559e+00,1.245085477828979492e+00,1.245006799697875977e+00,1.244928002357482910e+00,1.244849205017089844e+00,1.244770407676696777e+00,1.244691729545593262e+00,1.244612932205200195e+00,1.244534254074096680e+00,1.244455575942993164e+00,1.244376778602600098e+00,1.244298100471496582e+00,1.244219422340393066e+00,1.244140744209289551e+00,1.244062066078186035e+00,1.243983387947082520e+00,1.243904829025268555e+00,1.243826150894165039e+00,1.243747472763061523e+00,1.243668913841247559e+00,1.243590354919433594e+00,1.243511676788330078e+00,1.243433117866516113e+00,1.243354558944702148e+00,1.243276000022888184e+00,1.243197441101074219e+00,1.243118882179260254e+00,1.243040323257446289e+00,1.242961764335632324e+00,1.242883324623107910e+00,1.242804765701293945e+00,1.242726325988769531e+00,1.242647886276245117e+00,1.242569327354431152e+00,1.242490887641906738e+00
1.162287592887878418e+00,1.162218928337097168e+00,1.162150144577026367e+00,1.162081599235534668e+00,1.162012934684753418e+00,1.161944270133972168e+00,1.161875724792480469e+00,1.161807179450988770e+00,1.161738514900207520e+00,1.161669850349426270e+00,1.161601305007934570e+00,1.161532759666442871e+00,1.161464214324951172e+00,1.161395668983459473e+00,1.161327123641967773e+00,1.161258578300476074e+00,1.161189913749694824e+00,1.161121487617492676e+00,1.161052942276000977e+00,1.160984396934509277e+00,1.160915970802307129e+00,1.160847425460815430e+00,1.160778999328613281e+00,1.160710573196411133e+00,1.160642027854919434e+00,1.160573482513427734e+00,1.160505175590515137e+00,1.160436630249023438e+00,1.160368204116821289e+00,1.160299777984619141e+00,1.160231351852416992e+00,1.160162925720214844e+00,1.160094499588012695e+00,1.160026192665100098e+00,1.159957766532897949e+00,1.159889340400695801e+00,1.159821033477783203e+00,1.159752607345581055e+00,1.159684300422668457e+00,1.159615874290466309e+00,1.159547567367553711e+00,1.159479260444641113e+00,1.159410834312438965e+00,1.159342646598815918e+00,1.159274339675903320e+00,1.159205913543701172e+00,1.159137725830078125e+00,1.159069418907165527e+00,1.159001111984252930e+00,1.158932805061340332e+00,1.158864617347717285e+00,1.158796310424804688e+00,1.158728122711181641e+00,1.158659934997558594e+00,1.158591628074645996e+00,1.158523440361022949e+00,1.158455252647399902e+00,1.158386945724487305e+00,1.158318758010864258e+00,1.158250570297241211e+00,1.158182501792907715e+00,1.158114314079284668e+00,1.158046126365661621e+00,1.157978057861328125e+00,1.157909870147705078e+00,1.157841682434082031e+00,1.157773613929748535e+00,1.157705426216125488e+00,1.157637357711791992e+00,1.157569169998168945e+00,1.157501101493835449e+00,1.157433032989501953e+00,1.157364964485168457e+00,1.157296895980834961e+00,1.157228827476501465e+00,1.157160758972167969e+00,1.157092690467834473e+00,1.157024621963500977e+00,1.156956553459167480e+00,1.156888484954833984e+00
1.087045192718505859e+00,1.086985111236572266e+00,1.086925148963928223e+00,1.086865067481994629e+00,1.086805105209350586e+00,1.086745023727416992e+00,1.086685061454772949e+00,1.086624979972839355e+00,1.086565017700195312e+00,1.086505055427551270e+00,1.086444973945617676e+00,1.086385011672973633e+00,1.086325049400329590e+00,1.086265087127685547e+00,1.086205124855041504e+00,1.086145162582397461e+00,1.086085200309753418e+00,1.086025238037109375e+00,1.085965275764465332e+00,1.085905313491821289e+00,1.085845470428466797e+00,1.085785508155822754e+00,1.085725665092468262e+00,1.085665702819824219e+00,1.085605740547180176e+00,1.085545897483825684e+00,1.085486054420471191e+00,1.085426092147827148e+00,1.085366249084472656e+00,1.085306406021118164e+00,1.085246562957763672e+00,1.085186600685119629e+00,1.085126876831054688e+00,1.085066914558410645e+00,1.085007071495056152e+00,1.084947347640991211e+00,1.084887504577636719e+00,1.084827661514282227e+00,1.084767818450927734e+00,1.084708094596862793e+00,1.084648251533508301e+00,1.084588408470153809e+00,1.084528684616088867e+00,1.084468841552734375e+00,1.084409117698669434e+00,1.084349393844604492e+00,1.084289550781250000e+00,1.084229826927185059e+00,1.084170103073120117e+00,1.084110379219055176e+00,1.084050655364990234e+00,1.083990931510925293e+00,1.083931207656860352e+00,1.083871483802795410e+00,1.083811759948730469e+00,1.083752155303955078e+00,1.083692431449890137e+00,1.083632707595825195e+00,1.083572983741760254e+00,1.083513379096984863e+00,1.083453655242919922e+00,1.083394050598144531e+00,1.083334445953369141e+00,1.083274722099304199e+00,1.083215117454528809e+00,1.083155512809753418e+00,1.083095908164978027e+00,1.083036184310913086e+00,1.082976579666137695e+00,1.082916975021362305e+00,1.082857370376586914e+00,1.082797765731811523e+00,1.082738280296325684e+00,1.082678675651550293e+00,1.082619071006774902e+00,1.082559585571289062e+00,1.082499980926513672e+00,1.082440376281738281e+00,1.082380771636962891e+00,1.082321286201477051e+00
1.020952463150024414e+00,1.020899534225463867e+00,1.020846605300903320e+00,1.020793557167053223e+00,1.020740628242492676e+00,1.020687699317932129e+00,1.020634770393371582e+00,1.020581722259521484e+00,1.020528912544250488e+00,1.020475864410400391e+00,1.020422935485839844e+00,1.020370125770568848e+00,1.020317196846008301e+00,1.020264267921447754e+00,1.020211338996887207e+00,1.020158529281616211e+00,1.020105600357055664e+00,1.020052671432495117e+00,1.019999861717224121e+00,1.019946932792663574e+00,1.019894003868103027e+00,1.019841194152832031e+00,1.019788384437561035e+00,1.019735455513000488e+00,1.019682645797729492e+00,1.019629836082458496e+00,1.019576907157897949e+00,1.019524097442626953e+00,1.019471287727355957e+00,1.019418478012084961e+00,1.019365668296813965e+00,1.019312858581542969e+00,1.019260048866271973e+00,1.019207239151000977e+00,1.019154548645019531e+00,1.019101738929748535e+00,1.019048929214477539e+00,1.018996119499206543e+00,1.018943309783935547e+00,1.018890619277954102e+00,1.018837809562683105e+00,1.018785119056701660e+00,1.018732309341430664e+00,1.018679499626159668e+00,1.018626809120178223e+00,1.018574118614196777e+00,1.018521308898925781e+00,1.018468618392944336e+00,1.018415927886962891e+00,1.018363237380981445e+00,1.018310546875000000e+00,1.018257856369018555e+00,1.018205165863037109e+00,1.018152475357055664e+00,1.018099784851074219e+00,1.018047094345092773e+00,1.017994403839111328e+00,1.017941713333129883e+00,1.017889142036437988e+00,1.017836451530456543e+00,1.017783761024475098e+00,1.017731189727783203e+00,1.017678499221801758e+00,1.017625808715820312e+00,1.017573237419128418e+00,1.017520546913146973e+00,1.017467975616455078e+00,1.017415285110473633e+00,1.017362713813781738e+00,1.017310142517089844e+00,1.017257571220397949e+00,1.017204999923706055e+00,1.017152428627014160e+00,1.017099738121032715e+00,1.017047286033630371e+00,1.016994595527648926e+00,1.016942024230957031e+00,1.016889572143554688e+00,1.016837000846862793e+00,1.016784429550170898e+00
