5.000000000000000000e+00,5.000000000000000000e+00,5.000000000000000000e+00,5.000000000000000000e+00,5.000000000000000000e+00,5.000000000000000000e+00,5.000000000000000000e+00,5.000000000000000000e+00,5.000000000000000000e+00,5.000000000000000000e+00,5.000000000000000000e+00,5.000000000000000000e+00,5.000000000000000000e+00,5.000000000000000000e+00,5.000000000000000000e+00,5.000000000000000000e+00,5.000000000000000000e+00,5.000000000000000000e+00,5.000000000000000000e+00,5.000000000000000000e+00,5.000000000000000000e+00,5.000000000000000000e+00,5.000000000000000000e+00,5.000000000000000000e+00,5.000000000000000000e+00,5.000000000000000000e+00,5.000000000000000000e+00,5.000000000000000000e+00,5.000000000000000000e+00,5.000000000000000000e+00,5.000000000000000000e+00,5.000000000000000000e+00,5.000000000000000000e+00,5.000000000000000000e+00,5.000000000000000000e+00,5.000000000000000000e+00,5.000000000000000000e+00,5.000000000000000000e+00,5.000000000000000000e+00,5.000000000000000000e+00,5.000000000000000000e+00,4.497026443481445312e+00,4.333156585693359375e+00,4.180809497833251953e+00,4.038811206817626953e+00,3.906141996383666992e+00,3.781911134719848633e+00,3.665339231491088867e+00,3.555738687515258789e+00,3.452502012252807617e+00,3.355091333389282227e+00,3.263026475906372070e+00,3.175879001617431641e+00,3.093265771865844727e+00,3.014841556549072266e+00,2.940295219421386719e+00,2.869346857070922852e+00,2.801741838455200195e+00,2.737248659133911133e+00,2.675658226013183594e+00,2.616778612136840820e+00,2.560434103012084961e+00,2.506465196609497070e+00,2.454724311828613281e+00,2.405076265335083008e+00,2.357397079467773438e+00,2.311571359634399414e+00,2.267493247985839844e+00,2.225064754486083984e+00,2.184195041656494141e+00,2.144799232482910156e+00,2.106799840927124023e+00,2.070123195648193359e+00,2.034701824188232422e+00,2.000472068786621094e+00,1.967375159263610840e+00,1.935355305671691895e+00,1.904361367225646973e+00,1.874344229698181152e+00,1.845258712768554688e+00
5.000000000000000000e+00,5.000000000000000000e+00,5.000000000000000000e+00,5.000000000000000000e+00,5.000000000000000000e+00,5.000000000000000000e+00,5.000000000000000000e+00,5.000000000000000000e+00,5.000000000000000000e+00,5.000000000000000000e+00,5.000000000000000000e+00,5.000000000000000000e+00,5.000000000000000000e+00,5.000000000000000000e+00,5.000000000000000000e+00,5.000000000000000000e+00,5.000000000000000000e+00,5.000000000000000000e+00,5.000000000000000000e+00,5.000000000000000000e+00,5.000000000000000000e+00,5.000000000000000000e+00,5.000000000000000000e+00,5.000000000000000000e+00,5.000000000000000000e+00,5.000000000000000000e+00,5.000000000000000000e+00,5.000000000000000000e+00,5.000000000000000000e+00,5.000000000000000000e+00,5.000000000000000000e+00,5.000000000000000000e+00,5.000000000000000000e+00,5.000000000000000000e+00,5.000000000000000000e+00,5.000000000000000000e+00,5.000000000000000000e+00,5.000000000000000000e+00,5.000000000000000000e+00,5.000000000000000000e+00,4.673907279968261719e+00,4.497146606445312500e+00,4.333268165588378906e+00,4.180912971496582031e+00,4.038908004760742188e+00,3.906232595443725586e+00,3.781996011734008789e+00,3.665418863296508789e+00,3.555813550949096680e+00,3.452572584152221680e+00,3.355158090591430664e+00,3.263089656829833984e+00,3.175938844680786133e+00,3.093322515487670898e+00,3.014895439147949219e+00,2.940346479415893555e+00,2.869395732879638672e+00,2.801788330078125000e+00,2.737293004989624023e+00,2.675700664520263672e+00,2.616819143295288086e+00,2.560472965240478516e+00,2.506502389907836914e+00,2.454760074615478516e+00,2.405110597610473633e+00,2.357429981231689453e+00,2.311603069305419922e+00,2.267523765563964844e+00,2.225094079971313477e+00,2.184223175048828125e+00,2.144826650619506836e+00,2.106826066970825195e+00,2.070148468017578125e+00,2.034726381301879883e+00,2.000495910644531250e+00,1.967397928237915039e+00,1.935377717018127441e+00,1.904382824897766113e+00,1.874364972114562988e+00,1.845278978347778320e+00
5.000000000000000000e+00,5.000000000000000000e+00,5.000000000000000000e+00,5.000000000000000000e+00,5.000000000000000000e+00,5.000000000000000000e+00,5.000000000000000000e+00,5.000000000000000000e+00,5.000000000000000000e+00,5.000000000000000000e+00,5.000000000000000000e+00,5.000000000000000000e+00,5.000000000000000000e+00,5.000000000000000000e+00,5.000000000000000000e+00,5.000000000000000000e+00,5.000000000000000000e+00,5.000000000000000000e+00,5.000000000000000000e+00,5.000000000000000000e+00,5.000000000000000000e+00,5.000000000000000000e+00,5.000000000000000000e+00,5.000000000000000000e+00,5.000000000000000000e+00,5.000000000000000000e+00,5.000000000000000000e+00,5.000000000000000000e+00,5.000000000000000000e+00,5.000000000000000000e+00,5.000000000000000000e+00,5.000000000000000000e+00,5.000000000000000000e+00,5.000000000000000000e+00,5.000000000000000000e+00,5.000000000000000000e+00,5.000000000000000000e+00,5.000000000000000000e+00,5.000000000000000000e+00,4.865272045135498047e+00,4.674036502838134766e+00,4.497266292572021484e+00,4.333379268646240234e+00,4.181016921997070312e+00,4.039004802703857422e+00,3.906322956085205078e+00,3.782080888748168945e+00,3.665498495101928711e+00,3.555888652801513672e+00,3.452643394470214844e+00,3.355224847793579102e+00,3.263152837753295898e+00,3.175998687744140625e+00,3.093379259109497070e+00,3.014949321746826172e+00,2.940397977828979492e+00,2.869444608688354492e+00,2.801834821701049805e+00,2.737337589263916016e+00,2.675743103027343750e+00,2.616859674453735352e+00,2.560511827468872070e+00,2.506539583206176758e+00,2.454795598983764648e+00,2.405144929885864258e+00,2.357462882995605469e+00,2.311634540557861328e+00,2.267554044723510742e+00,2.225123405456542969e+00,2.184251308441162109e+00,2.144853830337524414e+00,2.106852293014526367e+00,2.070173740386962891e+00,2.034750699996948242e+00,2.000519514083862305e+00,1.967421054840087891e+00,1.935399770736694336e+00,1.904404401779174805e+00,1.874385833740234375e+00,1.845299124717712402e+00
5.000000000000000000e+00,5.000000000000000000e+00,5.000000000000000000e+00,5.000000000000000000e+00,5.000000000000000000e+00,5.000000000000000000e+00,5.000000000000000000e+00,5.000000000000000000e+00,5.000000000000000000e+00,5.000000000000000000e+00,5.000000000000000000e+00,5.000000000000000000e+00,5.000000000000000000e+00,5.000000000000000000e+00,5.000000000000000000e+00,5.000000000000000000e+00,5.000000000000000000e+00,5.000000000000000000e+00,5.000000000000000000e+00,5.000000000000000000e+00,5.000000000000000000e+00,5.000000000000000000e+00,5.000000000000000000e+00,5.000000000000000000e+00,5.000000000000000000e+00,5.000000000000000000e+00,5.000000000000000000e+00,5.000000000000000000e+00,5.000000000000000000e+00,5.000000000000000000e+00,5.000000000000000000e+00,5.000000000000000000e+00,5.000000000000000000e+00,5.000000000000000000e+00,5.000000000000000000e+00,5.000000000000000000e+00,5.000000000000000000e+00,5.000000000000000000e+00,5.000000000000000000e+00,4.865412712097167969e+00,4.674166202545166016e+00,4.497385978698730469e+00,4.333490848541259766e+00,4.181120395660400391e+00,4.039101123809814453e+00,3.906413555145263672e+00,3.782165765762329102e+00,3.665578126907348633e+00,3.555963754653930664e+00,3.452714204788208008e+00,3.355291604995727539e+00,3.263216018676757812e+00,3.176058530807495117e+00,3.093436002731323242e+00,3.015002965927124023e+00,2.940449237823486328e+00,2.869493484497070312e+00,2.801881074905395508e+00,2.737381935119628906e+00,2.675785779953002930e+00,2.616900205612182617e+00,2.560550689697265625e+00,2.506577014923095703e+00,2.454831361770629883e+00,2.405179262161254883e+00,2.357496023178100586e+00,2.311666250228881836e+00,2.267584562301635742e+00,2.225152730941772461e+00,2.184279680252075195e+00,2.144881010055541992e+00,2.106878757476806641e+00,2.070199251174926758e+00,2.034775257110595703e+00,2.000543355941772461e+00,1.967443823814392090e+00,1.935422062873840332e+00,1.904425859451293945e+00,1.874406576156616211e+00,1.845319390296936035e+00
5.000000000000000000e+00,5.000000000000000000e+00,5.000000000000000000e+00,5.000000000000000000e+00,5.000000000000000000e+00,5.000000000000000000e+00,5.000000000000000000e+00,5.000000000000000000e+00,5.000000000000000000e+00,5.000000000000000000e+00,5.000000000000000000e+00,5.000000000000000000e+00,5.000000000000000000e+00,5.000000000000000000e+00,5.000000000000000000e+00,5.000000000000000000e+00,5.000000000000000000e+00,5.000000000000000000e+00,5.000000000000000000e+00,5.000000000000000000e+00,5.000000000000000000e+00,5.000000000000000000e+00,5.000000000000000000e+00,5.000000000000000000e+00,5.000000000000000000e+00,5.000000000000000000e+00,5.000000000000000000e+00,5.000000000000000000e+00,5.000000000000000000e+00,5.000000000000000000e+00,5.000000000000000000e+00,5.000000000000000000e+00,5.000000000000000000e+00,5.000000000000000000e+00,5.000000000000000000e+00,5.000000000000000000e+00,5.000000000000000000e+00,5.000000000000000000e+00,5.000000000000000000e+00,4.865552902221679688e+00,4.674295902252197266e+00,4.497506141662597656e+00,4.333601951599121094e+00,4.181224346160888672e+00,4.039197921752929688e+00,3.906504154205322266e+00,3.782250642776489258e+00,3.665657997131347656e+00,3.556038141250610352e+00,3.452784776687622070e+00,3.355358362197875977e+00,3.263278722763061523e+00,3.176118373870849609e+00,3.093492746353149414e+00,3.015056848526000977e+00,2.940500497817993164e+00,2.869542121887207031e+00,2.801927804946899414e+00,2.737426519393920898e+00,2.675828218460083008e+00,2.616940736770629883e+00,2.560589551925659180e+00,2.506614208221435547e+00,2.454867124557495117e+00,2.405213594436645508e+00,2.357528924942016602e+00,2.311697959899902344e+00,2.267615079879760742e+00,2.225182056427001953e+00,2.184308052062988281e+00,2.144908428192138672e+00,2.106904983520507812e+00,2.070224523544311523e+00,2.034799814224243164e+00,2.000566959381103516e+00,1.967466950416564941e+00,1.935444235801696777e+00,1.904447436332702637e+00,1.874427556991577148e+00,1.845339417457580566e+00
5.000000000000000000e+00,5.000000000000000000e+00,5.000000000000000000e+00,5.000000000000000000e+00,5.000000000000000000e+00,5.000000000000000000e+00,5.000000000000000000e+00,5.000000000000000000e+00,5.000000000000000000e+00,5.000000000000000000e+00,5.000000000000000000e+00,5.000000000000000000e+00,5.000000000000000000e+00,5.000000000000000000e+00,5.000000000000000000e+00,5.000000000000000000e+00,5.000000000000000000e+00,5.000000000000000000e+00,5.000000000000000000e+00,5.000000000000000000e+00,5.000000000000000000e+00,5.000000000000000000e+00,5.000000000000000000e+00,5.000000000000000000e+00,5.000000000000000000e+00,5.000000000000000000e+00,5.000000000000000000e+00,5.000000000000000000e+00,5.000000000000000000e+00,5.000000000000000000e+00,5.000000000000000000e+00,5.000000000000000000e+00,5.000000000000000000e+00,5.000000000000000000e+00,5.000000000000000000e+00,5.000000000000000000e+00,5.000000000000000000e+00,5.000000000000000000e+00,5.000000000000000000e+00,4.865693569183349609e+00,4.674425601959228516e+00,4.497625827789306641e+00,4.333713054656982422e+00,4.181327819824218750e+00,4.039294719696044922e+00,3.906594038009643555e+00,3.782335281372070312e+00,3.665737628936767578e+00,3.556113243103027344e+00,3.452855587005615234e+00,3.355425119400024414e+00,3.263341903686523438e+00,3.176178216934204102e+00,3.093549489974975586e+00,3.015110731124877930e+00,2.940551757812500000e+00,2.869590997695922852e+00,2.801974296569824219e+00,2.737470865249633789e+00,2.675870656967163086e+00,2.616981267929077148e+00,2.560628414154052734e+00,2.506651401519775391e+00,2.454902887344360352e+00,2.405247926712036133e+00,2.357561826705932617e+00,2.311729669570922852e+00,2.267645597457885742e+00,2.225211620330810547e+00,2.184336185455322266e+00,2.144935607910156250e+00,2.106931447982788086e+00,2.070250034332275391e+00,2.034824371337890625e+00,2.000590562820434570e+00,1.967489838600158691e+00,1.935466527938842773e+00,1.904468774795532227e+00,1.874448299407958984e+00,1.845359802246093750e+00
5.000000000000000000e+00,5.000000000000000000e+00,5.000000000000000000e+00,5.000000000000000000e+00,5.000000000000000000e+00,5.000000000000000000e+00,5.000000000000000000e+00,5.000000000000000000e+00,5.000000000000000000e+00,5.000000000000000000e+00,5.000000000000000000e+00,5.000000000000000000e+00,5.000000000000000000e+00,5.000000000000000000e+00,5.000000000000000000e+00,5.000000000000000000e+00,5.000000000000000000e+00,5.000000000000000000e+00,5.000000000000000000e+00,5.000000000000000000e+00,5.000000000000000000e+00,5.000000000000000000e+00,5.000000000000000000e+00,5.000000000000000000e+00,5.000000000000000000e+00,5.000000000000000000e+00,5.000000000000000000e+00,5.000000000000000000e+00,5.000000000000000000e+00,5.000000000000000000e+00,5.000000000000000000e+00,5.000000000000000000e+00,5.000000000000000000e+00,5.000000000000000000e+00,5.000000000000000000e+00,5.000000000000000000e+00,5.000000000000000000e+00,5.000000000000000000e+00,5.000000000000000000e+00,4.865833282470703125e+00,4.674554824829101562e+00,4.497745990753173828e+00,4.333824634552001953e+00,4.181431293487548828e+00,4.039391517639160156e+00,3.906684637069702148e+00,3.782420158386230469e+00,3.665817260742187500e+00,3.556188344955444336e+00,3.452926158905029297e+00,3.355491876602172852e+00,3.263405084609985352e+00,3.176238059997558594e+00,3.093606233596801758e+00,3.015164613723754883e+00,2.940603017807006836e+00,2.869639873504638672e+00,2.802020788192749023e+00,2.737515211105346680e+00,2.675913095474243164e+00,2.617022037506103516e+00,2.560667276382446289e+00,2.506688833236694336e+00,2.454938650131225586e+00,2.405282258987426758e+00,2.357594728469848633e+00,2.311761379241943359e+00,2.267676115036010742e+00,2.225240707397460938e+00,2.184364557266235352e+00,2.144963026046752930e+00,2.106957674026489258e+00,2.070275545120239258e+00,2.034848928451538086e+00,2.000614404678344727e+00,1.967512845993041992e+00,1.935488581657409668e+00,1.904490232467651367e+00,1.874469280242919922e+00,1.845379829406738281e+00
5.000000000000000000e+00,5.000000000000000000e+00,5.000000000000000000e+00,5.000000000000000000e+00,5.000000000000000000e+00,5.000000000000000000e+00,5.000000000000000000e+00,5.000000000000000000e+00,5.000000000000000000e+00,5.000000000000000000e+00,5.000000000000000000e+00,5.000000000000000000e+00,5.000000000000000000e+00,5.000000000000000000e+00,5.000000000000000000e+00,5.000000000000000000e+00,5.000000000000000000e+00,5.000000000000000000e+00,5.000000000000000000e+00,5.000000000000000000e+00,5.000000000000000000e+00,5.000000000000000000e+00,5.000000000000000000e+00,5.000000000000000000e+00,5.000000000000000000e+00,5.000000000000000000e+00,5.000000000000000000e+00,5.000000000000000000e+00,5.000000000000000000e+00,5.000000000000000000e+00,5.000000000000000000e+00,5.000000000000000000e+00,5.000000000000000000e+00,5.000000000000000000e+00,5.000000000000000000e+00,5.000000000000000000e+00,5.000000000000000000e+00,5.000000000000000000e+00,5.000000000000000000e+00,4.865973949432373047e+00,4.674684524536132812e+00,4.497866153717041016e+00,4.333935737609863281e+00,4.181534767150878906e+00,4.039488315582275391e+00,3.906774997711181641e+00,3.782505035400390625e+00,3.665896892547607422e+00,3.556263208389282227e+00,3.452996969223022461e+00,3.355558633804321289e+00,3.263468265533447266e+00,3.176297903060913086e+00,3.093662977218627930e+00,3.015218496322631836e+00,2.940654277801513672e+00,2.869688749313354492e+00,2.802067518234252930e+00,2.737559795379638672e+00,2.675955295562744141e+00,2.617062568664550781e+00,2.560706138610839844e+00,2.506725788116455078e+00,2.454974412918090820e+00,2.405316591262817383e+00,2.357627630233764648e+00,2.311793088912963867e+00,2.267706632614135742e+00,2.225270032882690430e+00,2.184392929077148438e+00,2.144990205764770508e+00,2.106983900070190430e+00,2.070300817489624023e+00,2.034873485565185547e+00,2.000638246536254883e+00,1.967535734176635742e+00,1.935510993003845215e+00,1.904511809349060059e+00,1.874490022659301758e+00,1.845400214195251465e+00
5.000000000000000000e+00,5.000000000000000000e+00,5.000000000000000000e+00,5.000000000000000000e+00,5.000000000000000000e+00,5.000000000000000000e+00,5.000000000000000000e+00,5.000000000000000000e+00,5.000000000000000000e+00,5.000000000000000000e+00,5.000000000000000000e+00,5.000000000000000000e+00,5.000000000000000000e+00,5.000000000000000000e+00,5.000000000000000000e+00,5.000000000000000000e+00,5.000000000000000000e+00,5.000000000000000000e+00,5.000000000000000000e+00,5.000000000000000000e+00,5.000000000000000000e+00,5.000000000000000000e+00,5.000000000000000000e+00,5.000000000000000000e+00,5.000000000000000000e+00,5.000000000000000000e+00,5.000000000000000000e+00,5.000000000000000000e+00,5.000000000000000000e+00,5.000000000000000000e+00,5.000000000000000000e+00,5.000000000000000000e+00,5.000000000000000000e+00,5.000000000000000000e+00,5.000000000000000000e+00,5.000000000000000000e+00,5.000000000000000000e+00,5.000000000000000000e+00,5.000000000000000000e+00,4.866114139556884766e+00,4.674813747406005859e+00,4.497985839843750000e+00,4.334047317504882812e+00,4.181638717651367188e+00,4.039585113525390625e+00,3.906865596771240234e+00,3.782589912414550781e+00,3.665976762771606445e+00,3.556338310241699219e+00,3.453067541122436523e+00,3.355625391006469727e+00,3.263531446456909180e+00,3.176357746124267578e+00,3.093719482421875000e+00,3.015272378921508789e+00,2.940705537796020508e+00,2.869737386703491211e+00,2.802114009857177734e+00,2.737604141235351562e+00,2.675997734069824219e+00,2.617103338241577148e+00,2.560745239257812500e+00,2.506762981414794922e+00,2.455010175704956055e+00,2.405350685119628906e+00,2.357660531997680664e+00,2.311824798583984375e+00,2.267737150192260742e+00,2.225299596786499023e+00,2.184421300888061523e+00,2.145017623901367188e+00,2.107010126113891602e+00,2.070326328277587891e+00,2.034898042678833008e+00,2.000661849975585938e+00,1.967558741569519043e+00,1.935533046722412109e+00,1.904533267021179199e+00,1.874510884284973145e+00,1.845420241355895996e+00
5.000000000000000000e+00,5.000000000000000000e+00,5.000000000000000000e+00,5.000000000000000000e+00,5.000000000000000000e+00,5.000000000000000000e+00,5.000000000000000000e+00,5.000000000000000000e+00,5.000000000000000000e+00,5.000000000000000000e+00,5.000000000000000000e+00,5.000000000000000000e+00,5.000000000000000000e+00,5.000000000000000000e+00,5.000000000000000000e+00,5.000000000000000000e+00,5.000000000000000000e+00,5.000000000000000000e+00,5.000000000000000000e+00,5.000000000000000000e+00,5.000000000000000000e+00,5.000000000000000000e+00,5.000000000000000000e+00,5.000000000000000000e+00,5.000000000000000000e+00,5.000000000000000000e+00,5.000000000000000000e+00,5.000000000000000000e+00,5.000000000000000000e+00,5.000000000000000000e+00,5.000000000000000000e+00,5.000000000000000000e+00,5.000000000000000000e+00,5.000000000000000000e+00,5.000000000000000000e+00,5.000000000000000000e+00,5.000000000000000000e+00,5.000000000000000000e+00,5.000000000000000000e+00,4.866254806518554688e+00,4.674943447113037109e+00,4.498106002807617188e+00,4.334158897399902344e+00,4.181742191314697266e+00,4.039681434631347656e+00,3.906956195831298828e+00,3.782674789428710938e+00,3.666055917739868164e+00,3.556413173675537109e+00,3.453138351440429688e+00,3.355691909790039062e+00,3.263594627380371094e+00,3.176417589187622070e+00,3.093776226043701172e+00,3.015326499938964844e+00,2.940756797790527344e+00,2.869786262512207031e+00,2.802160501480102539e+00,2.737648725509643555e+00,2.676040172576904297e+00,2.617143869400024414e+00,2.560784101486206055e+00,2.506800413131713867e+00,2.455045938491821289e+00,2.405385017395019531e+00,2.357693672180175781e+00,2.311856508255004883e+00,2.267767667770385742e+00,2.225328922271728516e+00,2.184449434280395508e+00,2.145044803619384766e+00,2.107036590576171875e+00,2.070351839065551758e+00,2.034922599792480469e+00,2.000685691833496094e+00,1.967581629753112793e+00,1.935555219650268555e+00,1.904554843902587891e+00,1.874531626701354980e+00,1.845440387725830078e+00
5.000000000000000000e+00,5.000000000000000000e+00,5.000000000000000000e+00,5.000000000000000000e+00,5.000000000000000000e+00,5.000000000000000000e+00,5.000000000000000000e+00,5.000000000000000000e+00,5.000000000000000000e+00,5.000000000000000000e+00,5.000000000000000000e+00,5.000000000000000000e+00,5.000000000000000000e+00,5.000000000000000000e+00,5.000000000000000000e+00,5.000000000000000000e+00,5.000000000000000000e+00,5.000000000000000000e+00,5.000000000000000000e+00,5.000000000000000000e+00,5.000000000000000000e+00,5.000000000000000000e+00,5.000000000000000000e+00,5.000000000000000000e+00,5.000000000000000000e+00,5.000000000000000000e+00,5.000000000000000000e+00,5.000000000000000000e+00,5.000000000000000000e+00,5.000000000000000000e+00,5.000000000000000000e+00,5.000000000000000000e+00,5.000000000000000000e+00,5.000000000000000000e+00,5.000000000000000000e+00,5.000000000000000000e+00,5.000000000000000000e+00,5.000000000000000000e+00,5.000000000000000000e+00,4.866394996643066406e+00,4.675073146820068359e+00,4.498225688934326172e+00,4.334270000457763672e+00,4.181846141815185547e+00,4.039778232574462891e+00,3.907046794891357422e+00,3.782759666442871094e+00,3.666135787963867188e+00,3.556488275527954102e+00,3.453209161758422852e+00,3.355758666992187500e+00,3.263657808303833008e+00,3.176477432250976562e+00,3.093832969665527344e+00,3.015380382537841797e+00,2.940808057785034180e+00,2.869834899902343750e+00,2.802207231521606445e+00,2.737693071365356445e+00,2.676082849502563477e+00,2.617184400558471680e+00,2.560822963714599609e+00,2.506837606430053711e+00,2.455081462860107422e+00,2.405419349670410156e+00,2.357726573944091797e+00,2.311888217926025391e+00,2.267798185348510742e+00,2.225358247756958008e+00,2.184477806091308594e+00,2.145071983337402344e+00,2.107062816619873047e+00,2.070377111434936523e+00,2.034947156906127930e+00,2.000709295272827148e+00,1.967604756355285645e+00,1.935577511787414551e+00,1.904576301574707031e+00,1.874552607536315918e+00,1.845460653305053711e+00
5.000000000000000000e+00,5.000000000000000000e+00,5.000000000000000000e+00,5.000000000000000000e+00,5.000000000000000000e+00,5.000000000000000000e+00,5.000000000000000000e+00,5.000000000000000000e+00,5.000000000000000000e+00,5.000000000000000000e+00,5.000000000000000000e+00,5.000000000000000000e+00,5.000000000000000000e+00,5.000000000000000000e+00,5.000000000000000000e+00,5.000000000000000000e+00,5.000000000000000000e+00,5.000000000000000000e+00,5.000000000000000000e+00,5.000000000000000000e+00,5.000000000000000000e+00,5.000000000000000000e+00,5.000000000000000000e+00,5.000000000000000000e+00,4.568038463592529297e+00,4.569965839385986328e+00,5.000000000000000000e+00,5.000000000000000000e+00,5.000000000000000000e+00,5.000000000000000000e+00,5.000000000000000000e+00,5.000000000000000000e+00,5.000000000000000000e+00,5.000000000000000000e+00,5.000000000000000000e+00,5.000000000000000000e+00,5.000000000000000000e+00,5.000000000000000000e+00,5.000000000000000000e+00,4.866535663604736328e+00,4.675202846527099609e+00,4.498345375061035156e+00,4.334381580352783203e+00,4.181949615478515625e+00,4.039875030517578125e+00,3.907137155532836914e+00,3.782844543457031250e+00,3.666215419769287109e+00,3.556563377380371094e+00,3.453279733657836914e+00,3.355825424194335938e+00,3.263720989227294922e+00,3.176537275314331055e+00,3.093889713287353516e+00,3.015434265136718750e+00,2.940859317779541016e+00,2.869883775711059570e+00,2.802253723144531250e+00,2.737737655639648438e+00,2.676125288009643555e+00,2.617225170135498047e+00,2.560861825942993164e+00,2.506874799728393555e+00,2.455117225646972656e+00,2.405453681945800781e+00,2.357759475708007812e+00,2.311919927597045898e+00,2.267828464508056641e+00,2.225387573242187500e+00,2.184506177902221680e+00,2.145099163055419922e+00,2.107089281082153320e+00,2.070402622222900391e+00,2.034971714019775391e+00,2.000733137130737305e+00,1.967627525329589844e+00,1.935599565505981445e+00,1.904597878456115723e+00,1.874573349952697754e+00,1.845480799674987793e+00
5.000000000000000000e+00,5.000000000000000000e+00,5.000000000000000000e+00,5.000000000000000000e+00,5.000000000000000000e+00,5.000000000000000000e+00,5.000000000000000000e+00,5.000000000000000000e+00,5.000000000000000000e+00,5.000000000000000000e+00,5.000000000000000000e+00,5.000000000000000000e+00,5.000000000000000000e+00,5.000000000000000000e+00,5.000000000000000000e+00,5.000000000000000000e+00,5.000000000000000000e+00,5.000000000000000000e+00,5.000000000000000000e+00,5.000000000000000000e+00,5.000000000000000000e+00,5.000000000000000000e+00,5.000000000000000000e+00,5.000000000000000000e+00,4.580392837524414062e+00,4.576364517211914062e+00,5.000000000000000000e+00,5.000000000000000000e+00,5.000000000000000000e+00,5.000000000000000000e+00,5.000000000000000000e+00,5.000000000000000000e+00,5.000000000000000000e+00,5.000000000000000000e+00,5.000000000000000000e+00,5.000000000000000000e+00,5.000000000000000000e+00,5.000000000000000000e+00,5.000000000000000000e+00,4.866675853729248047e+00,4.675332546234130859e+00,4.498465538024902344e+00,4.334492683410644531e+00,4.182053565979003906e+00,4.039971828460693359e+00,3.907227754592895508e+00,3.782929420471191406e+00,3.666295051574707031e+00,3.556638240814208984e+00,3.453350543975830078e+00,3.355892181396484375e+00,3.263784170150756836e+00,3.176597118377685547e+00,3.093946456909179688e+00,3.015488147735595703e+00,2.940910816192626953e+00,2.869932651519775391e+00,2.802300214767456055e+00,2.737781763076782227e+00,2.676167726516723633e+00,2.617265701293945312e+00,2.560900449752807617e+00,2.506912231445312500e+00,2.455152988433837891e+00,2.405487775802612305e+00,2.357792377471923828e+00,2.311951637268066406e+00,2.267858982086181641e+00,2.225416898727416992e+00,2.184534311294555664e+00,2.145126581192016602e+00,2.107115507125854492e+00,2.070427894592285156e+00,2.034996271133422852e+00,2.000756740570068359e+00,1.967650651931762695e+00,1.935621976852416992e+00,1.904619336128234863e+00,1.874594330787658691e+00,1.845501065254211426e+00
5.000000000000000000e+00,5.000000000000000000e+00,5.000000000000000000e+00,5.000000000000000000e+00,5.000000000000000000e+00,5.000000000000000000e+00,5.000000000000000000e+00,5.000000000000000000e+00,5.000000000000000000e+00,5.000000000000000000e+00,5.000000000000000000e+00,5.000000000000000000e+00,5.000000000000000000e+00,5.000000000000000000e+00,5.000000000000000000e+00,5.000000000000000000e+00,5.000000000000000000e+00,5.000000000000000000e+00,5.000000000000000000e+00,5.000000000000000000e+00,5.000000000000000000e+00,5.000000000000000000e+00,5.000000000000000000e+00,5.000000000000000000e+00,5.000000000000000000e+00,4.595898628234863281e+00,5.000000000000000000e+00,5.000000000000000000e+00,5.000000000000000000e+00,5.000000000000000000e+00,5.000000000000000000e+00,5.000000000000000000e+00,5.000000000000000000e+00,5.000000000000000000e+00,5.000000000000000000e+00,5.000000000000000000e+00,5.000000000000000000e+00,5.000000000000000000e+00,5.000000000000000000e+00,4.866816043853759766e+00,4.675461769104003906e+00,4.498585700988769531e+00,4.334604263305664062e+00,4.182157039642333984e+00,4.040068626403808594e+00,3.907318353652954102e+00,3.783014297485351562e+00,3.666374921798706055e+00,3.556713342666625977e+00,3.453420877456665039e+00,3.355958938598632812e+00,3.263847351074218750e+00,3.176656484603881836e+00,3.094003438949584961e+00,3.015542030334472656e+00,2.940961837768554688e+00,2.869981527328491211e+00,2.802346944808959961e+00,2.737826108932495117e+00,2.676210165023803711e+00,2.617306232452392578e+00,2.560939311981201172e+00,2.506949424743652344e+00,2.455188751220703125e+00,2.405522108078002930e+00,2.357825517654418945e+00,2.311983108520507812e+00,2.267889499664306641e+00,2.225446224212646484e+00,2.184562683105468750e+00,2.145153760910034180e+00,2.107141733169555664e+00,2.070453405380249023e+00,2.035020828247070312e+00,2.000780582427978516e+00,1.967673420906066895e+00,1.935644030570983887e+00,1.904640913009643555e+00,1.874614953994750977e+00,1.845521092414855957e+00
5.000000000000000000e+00,5.000000000000000000e+00,5.000000000000000000e+00,5.000000000000000000e+00,5.000000000000000000e+00,5.000000000000000000e+00,5.000000000000000000e+00,5.000000000000000000e+00,5.000000000000000000e+00,5.000000000000000000e+00,5.000000000000000000e+00,5.000000000000000000e+00,5.000000000000000000e+00,5.000000000000000000e+00,5.000000000000000000e+00,5.000000000000000000e+00,5.000000000000000000e+00,5.000000000000000000e+00,5.000000000000000000e+00,5.000000000000000000e+00,5.000000000000000000e+00,5.000000000000000000e+00,4.582807064056396484e+00,4.600090980529785156e+00,4.563135147094726562e+00,4.608382225036621094e+00,4.648346900939941406e+00,4.672002315521240234e+00,5.000000000000000000e+00,5.000000000000000000e+00,5.000000000000000000e+00,5.000000000000000000e+00,5.000000000000000000e+00,5.000000000000000000e+00,5.000000000000000000e+00,5.000000000000000000e+00,5.000000000000000000e+00,5.000000000000000000e+00,5.000000000000000000e+00,4.866956710815429688e+00,4.675591468811035156e+00,4.498705863952636719e+00,4.334715366363525391e+00,4.182260513305664062e+00,4.040165424346923828e+00,3.907408952713012695e+00,3.783098697662353516e+00,3.666454553604125977e+00,3.556788444519042969e+00,3.453491687774658203e+00,3.356025695800781250e+00,3.263910293579101562e+00,3.176716327667236328e+00,3.094060182571411133e+00,3.015596151351928711e+00,2.941013097763061523e+00,2.870030403137207031e+00,2.802393436431884766e+00,2.737870693206787109e+00,2.676252603530883789e+00,2.617347002029418945e+00,2.560978412628173828e+00,2.506986618041992188e+00,2.455224514007568359e+00,2.405556440353393555e+00,2.357858419418334961e+00,2.312014818191528320e+00,2.267920017242431641e+00,2.225475788116455078e+00,2.184591054916381836e+00,2.145181179046630859e+00,2.107168197631835938e+00,2.070478916168212891e+00,2.035045385360717773e+00,2.000804185867309570e+00,1.967696309089660645e+00,1.935666441917419434e+00,1.904662370681762695e+00,1.874635696411132812e+00,1.845541477203369141e+00
5.000000000000000000e+00,5.000000000000000000e+00,5.000000000000000000e+00,5.000000000000000000e+00,5.000000000000000000e+00,5.000000000000000000e+00,5.000000000000000000e+00,5.000000000000000000e+00,5.000000000000000000e+00,5.000000000000000000e+00,5.000000000000000000e+00,5.000000000000000000e+00,5.000000000000000000e+00,5.000000000000000000e+00,5.000000000000000000e+00,5.000000000000000000e+00,5.000000000000000000e+00,5.000000000000000000e+00,5.000000000000000000e+00,5.000000000000000000e+00,5.000000000000000000e+00,5.000000000000000000e+00,4.572295188903808594e+00,4.549762725830078125e+00,4.531577110290527344e+00,4.547225475311279297e+00,4.587525367736816406e+00,4.678277015686035156e+00,4.736044883728027344e+00,5.000000000000000000e+00,5.000000000000000000e+00,5.000000000000000000e+00,5.000000000000000000e+00,5.000000000000000000e+00,5.000000000000000000e+00,5.000000000000000000e+00,5.000000000000000000e+00,5.000000000000000000e+00,5.000000000000000000e+00,4.867097377777099609e+00,4.675721168518066406e+00,4.498825550079345703e+00,4.334826946258544922e+00,4.182364463806152344e+00,4.040262222290039062e+00,3.907499313354492188e+00,3.783183574676513672e+00,3.666534423828125000e+00,3.556863307952880859e+00,3.453562259674072266e+00,3.356092691421508789e+00,3.263973712921142578e+00,3.176776170730590820e+00,3.094116926193237305e+00,3.015650033950805664e+00,2.941064357757568359e+00,2.870079278945922852e+00,2.802439928054809570e+00,2.737915039062500000e+00,2.676295042037963867e+00,2.617387533187866211e+00,2.561017274856567383e+00,2.507024049758911133e+00,2.455260276794433594e+00,2.405590772628784180e+00,2.357891321182250977e+00,2.312046527862548828e+00,2.267950534820556641e+00,2.225505113601684570e+00,2.184619188308715820e+00,2.145208358764648438e+00,2.107194423675537109e+00,2.070504188537597656e+00,2.035069942474365234e+00,2.000828027725219727e+00,1.967719435691833496e+00,1.935688495635986328e+00,1.904683947563171387e+00,1.874656677246093750e+00,1.845561504364013672e+00
5.000000000000000000e+00,5.000000000000000000e+00,5.000000000000000000e+00,5.000000000000000000e+00,5.000000000000000000e+00,5.000000000000000000e+00,5.000000000000000000e+00,5.000000000000000000e+00,5.000000000000000000e+00,5.000000000000000000e+00,5.000000000000000000e+00,5.000000000000000000e+00,5.000000000000000000e+00,5.000000000000000000e+00,5.000000000000000000e+00,5.000000000000000000e+00,5.000000000000000000e+00,5.000000000000000000e+00,5.000000000000000000e+00,5.000000000000000000e+00,5.000000000000000000e+00,5.000000000000000000e+00,4.598121643066406250e+00,4.561594009399414062e+00,4.535040855407714844e+00,4.546792507171630859e+00,4.598606586456298828e+00,4.699451446533203125e+00,5.000000000000000000e+00,5.000000000000000000e+00,5.000000000000000000e+00,5.000000000000000000e+00,5.000000000000000000e+00,5.000000000000000000e+00,5.000000000000000000e+00,5.000000000000000000e+00,5.000000000000000000e+00,5.000000000000000000e+00,5.000000000000000000e+00,4.867237567901611328e+00,4.675850391387939453e+00,4.498945713043212891e+00,4.334938526153564453e+00,4.182468414306640625e+00,4.040359020233154297e+00,3.907589912414550781e+00,3.783268451690673828e+00,3.666614055633544922e+00,3.556938409805297852e+00,3.453633069992065430e+00,3.356159448623657227e+00,3.264036893844604492e+00,3.176836013793945312e+00,3.094173669815063477e+00,3.015703916549682617e+00,2.941115617752075195e+00,2.870128154754638672e+00,2.802486658096313477e+00,2.737959623336791992e+00,2.676337480545043945e+00,2.617428064346313477e+00,2.561056137084960938e+00,2.507061243057250977e+00,2.455295801162719727e+00,2.405625104904174805e+00,2.357924461364746094e+00,2.312078237533569336e+00,2.267981052398681641e+00,2.225534439086914062e+00,2.184647560119628906e+00,2.145235776901245117e+00,2.107220888137817383e+00,2.070529460906982422e+00,2.035094499588012695e+00,2.000851869583129883e+00,1.967742204666137695e+00,1.935710787773132324e+00,1.904705405235290527e+00,1.874677419662475586e+00,1.845581889152526855e+00
5.000000000000000000e+00,5.000000000000000000e+00,5.000000000000000000e+00,5.000000000000000000e+00,5.000000000000000000e+00,5.000000000000000000e+00,5.000000000000000000e+00,5.000000000000000000e+00,5.000000000000000000e+00,5.000000000000000000e+00,5.000000000000000000e+00,5.000000000000000000e+00,5.000000000000000000e+00,5.000000000000000000e+00,5.000000000000000000e+00,5.000000000000000000e+00,5.000000000000000000e+00,5.000000000000000000e+00,5.000000000000000000e+00,5.000000000000000000e+00,5.000000000000000000e+00,5.000000000000000000e+00,4.607354640960693359e+00,4.596234798431396484e+00,4.533892631530761719e+00,4.544090270996093750e+00,4.590150356292724609e+00,4.705229759216308594e+00,5.000000000000000000e+00,5.000000000000000000e+00,5.000000000000000000e+00,5.000000000000000000e+00,5.000000000000000000e+00,5.000000000000000000e+00,5.000000000000000000e+00,5.000000000000000000e+00,5.000000000000000000e+00,5.000000000000000000e+00,5.000000000000000000e+00,4.867378234863281250e+00,4.675980091094970703e+00,4.499065399169921875e+00,4.335050106048583984e+00,4.182571887969970703e+00,4.040455818176269531e+00,3.907680511474609375e+00,3.783353328704833984e+00,3.666693687438964844e+00,3.557013511657714844e+00,3.453703880310058594e+00,3.356226205825805664e+00,3.264100074768066406e+00,3.176895856857299805e+00,3.094230413436889648e+00,3.015757560729980469e+00,2.941166877746582031e+00,2.870177030563354492e+00,2.802532911300659180e+00,2.738004207611083984e+00,2.676380157470703125e+00,2.617468595504760742e+00,2.561094999313354492e+00,2.507098436355590820e+00,2.455331563949584961e+00,2.405659437179565430e+00,2.357957363128662109e+00,2.312109947204589844e+00,2.268011569976806641e+00,2.225563764572143555e+00,2.184675693511962891e+00,2.145262956619262695e+00,2.107247114181518555e+00,2.070554971694946289e+00,2.035119056701660156e+00,2.000875473022460938e+00,1.967765331268310547e+00,1.935732960700988770e+00,1.904726982116699219e+00,1.874698400497436523e+00,1.845601916313171387e+00
5.000000000000000000e+00,5.000000000000000000e+00,5.000000000000000000e+00,5.000000000000000000e+00,5.000000000000000000e+00,5.000000000000000000e+00,5.000000000000000000e+00,5.000000000000000000e+00,5.000000000000000000e+00,5.000000000000000000e+00,5.000000000000000000e+00,5.000000000000000000e+00,5.000000000000000000e+00,5.000000000000000000e+00,5.000000000000000000e+00,5.000000000000000000e+00,5.000000000000000000e+00,5.000000000000000000e+00,5.000000000000000000e+00,5.000000000000000000e+00,5.000000000000000000e+00,5.000000000000000000e+00,4.623637676239013672e+00,4.575923919677734375e+00,4.523971080780029297e+00,4.536266326904296875e+00,4.577008724212646484e+00,4.737611770629882812e+00,5.000000000000000000e+00,5.000000000000000000e+00,5.000000000000000000e+00,5.000000000000000000e+00,5.000000000000000000e+00,5.000000000000000000e+00,5.000000000000000000e+00,5.000000000000000000e+00,5.000000000000000000e+00,5.000000000000000000e+00,5.000000000000000000e+00,4.867518424987792969e+00,4.676109790802001953e+00,4.499185562133789062e+00,4.335161209106445312e+00,4.182675838470458984e+00,4.040552616119384766e+00,3.907771110534667969e+00,3.783438205718994141e+00,3.666773557662963867e+00,3.557088136672973633e+00,3.453774452209472656e+00,3.356292963027954102e+00,3.264162778854370117e+00,3.176955699920654297e+00,3.094287157058715820e+00,3.015811443328857422e+00,2.941218137741088867e+00,2.870225906372070312e+00,2.802579402923583984e+00,2.738048553466796875e+00,2.676422595977783203e+00,2.617509365081787109e+00,2.561133861541748047e+00,2.507135868072509766e+00,2.455367326736450195e+00,2.405693769454956055e+00,2.357990264892578125e+00,2.312141656875610352e+00,2.268042087554931641e+00,2.225593090057373047e+00,2.184704065322875977e+00,2.145290374755859375e+00,2.107273578643798828e+00,2.070580482482910156e+00,2.035143613815307617e+00,2.000899314880371094e+00,1.967788219451904297e+00,1.935755252838134766e+00,1.904748439788818359e+00,1.874719142913818359e+00,1.845622301101684570e+00
5.000000000000000000e+00,5.000000000000000000e+00,5.000000000000000000e+00,5.000000000000000000e+00,5.000000000000000000e+00,5.000000000000000000e+00,5.000000000000000000e+00,5.000000000000000000e+00,5.000000000000000000e+00,5.000000000000000000e+00,5.000000000000000000e+00,5.000000000000000000e+00,5.000000000000000000e+00,5.000000000000000000e+00,5.000000000000000000e+00,5.000000000000000000e+00,5.000000000000000000e+00,5.000000000000000000e+00,5.000000000000000000e+00,5.000000000000000000e+00,5.000000000000000000e+00,5.000000000000000000e+00,4.588805198669433594e+00,4.568415164947509766e+00,4.533613204956054688e+00,4.540760040283203125e+00,4.582502841949462891e+00,4.735164165496826172e+00,4.769666671752929688e+00,5.000000000000000000e+00,5.000000000000000000e+00,5.000000000000000000e+00,5.000000000000000000e+00,5.000000000000000000e+00,5.000000000000000000e+00,5.000000000000000000e+00,5.000000000000000000e+00,5.000000000000000000e+00,5.000000000000000000e+00,4.867658615112304688e+00,4.676239490509033203e+00,4.499305725097656250e+00,4.335272312164306641e+00,4.182779312133789062e+00,4.040649414062500000e+00,3.907861232757568359e+00,3.783523082733154297e+00,3.666853189468383789e+00,3.557163238525390625e+00,3.453845262527465820e+00,3.356359720230102539e+00,3.264225959777832031e+00,3.177015781402587891e+00,3.094343900680541992e+00,3.015865564346313477e+00,2.941269636154174805e+00,2.870274782180786133e+00,2.802626132965087891e+00,2.738093137741088867e+00,2.676465034484863281e+00,2.617549896240234375e+00,2.561172723770141602e+00,2.507173061370849609e+00,2.455403089523315430e+00,2.405728101730346680e+00,2.358023405075073242e+00,2.312173366546630859e+00,2.268072605133056641e+00,2.225622653961181641e+00,2.184732437133789062e+00,2.145317554473876953e+00,2.107299804687500000e+00,2.070605754852294922e+00,2.035168170928955078e+00,2.000922918319702148e+00,1.967811226844787598e+00,1.935777425765991211e+00,1.904769778251647949e+00,1.874740123748779297e+00,1.845642328262329102e+00
5.000000000000000000e+00,5.000000000000000000e+00,5.000000000000000000e+00,5.000000000000000000e+00,5.000000000000000000e+00,5.000000000000000000e+00,5.000000000000000000e+00,5.000000000000000000e+00,5.000000000000000000e+00,5.000000000000000000e+00,5.000000000000000000e+00,5.000000000000000000e+00,5.000000000000000000e+00,5.000000000000000000e+00,5.000000000000000000e+00,5.000000000000000000e+00,5.000000000000000000e+00,5.000000000000000000e+00,5.000000000000000000e+00,5.000000000000000000e+00,5.000000000000000000e+00,5.000000000000000000e+00,4.537035465240478516e+00,4.533167362213134766e+00,4.541178226470947266e+00,4.575226306915283203e+00,4.556552886962890625e+00,5.000000000000000000e+00,4.747096538543701172e+00,5.000000000000000000e+00,5.000000000000000000e+00,5.000000000000000000e+00,5.000000000000000000e+00,5.000000000000000000e+00,5.000000000000000000e+00,5.000000000000000000e+00,5.000000000000000000e+00,5.000000000000000000e+00,5.000000000000000000e+00,4.867799282073974609e+00,4.676369190216064453e+00,4.499425411224365234e+00,4.335383892059326172e+00,4.182883262634277344e+00,4.040746212005615234e+00,3.907951831817626953e+00,3.783607959747314453e+00,3.666933059692382812e+00,3.557238101959228516e+00,3.453916072845458984e+00,3.356426715850830078e+00,3.264289140701293945e+00,3.177075624465942383e+00,3.094400882720947266e+00,3.015919446945190430e+00,2.941320896148681641e+00,2.870323419570922852e+00,2.802672624588012695e+00,2.738137483596801758e+00,2.676507472991943359e+00,2.617590665817260742e+00,2.561211585998535156e+00,2.507210254669189453e+00,2.455438852310180664e+00,2.405762434005737305e+00,2.358056068420410156e+00,2.312205076217651367e+00,2.268103122711181641e+00,2.225651741027832031e+00,2.184760570526123047e+00,2.145344972610473633e+00,2.107326030731201172e+00,2.070631265640258789e+00,2.035192728042602539e+00,2.000946521759033203e+00,1.967834115028381348e+00,1.935799717903137207e+00,1.904791474342346191e+00,1.874760866165161133e+00,1.845662713050842285e+00
5.000000000000000000e+00,5.000000000000000000e+00,5.000000000000000000e+00,5.000000000000000000e+00,5.000000000000000000e+00,5.000000000000000000e+00,5.000000000000000000e+00,5.000000000000000000e+00,5.000000000000000000e+00,5.000000000000000000e+00,5.000000000000000000e+00,5.000000000000000000e+00,5.000000000000000000e+00,5.000000000000000000e+00,5.000000000000000000e+00,5.000000000000000000e+00,5.000000000000000000e+00,5.000000000000000000e+00,5.000000000000000000e+00,5.000000000000000000e+00,5.000000000000000000e+00,5.000000000000000000e+00,4.501553535461425781e+00,4.497651100158691406e+00,4.505187034606933594e+00,4.530710697174072266e+00,4.524622917175292969e+00,5.000000000000000000e+00,4.741680622100830078e+00,5.000000000000000000e+00,5.000000000000000000e+00,5.000000000000000000e+00,5.000000000000000000e+00,5.000000000000000000e+00,5.000000000000000000e+00,5.000000000000000000e+00,5.000000000000000000e+00,5.000000000000000000e+00,5.000000000000000000e+00,4.867939949035644531e+00,4.676498889923095703e+00,4.499545574188232422e+00,4.335495471954345703e+00,4.182986736297607422e+00,4.040843009948730469e+00,3.908042430877685547e+00,3.783692836761474609e+00,3.667012691497802734e+00,3.557313203811645508e+00,3.453986883163452148e+00,3.356493473052978516e+00,3.264352321624755859e+00,3.177135467529296875e+00,3.094457626342773438e+00,3.015973329544067383e+00,2.941372156143188477e+00,2.870372295379638672e+00,2.802719354629516602e+00,2.738182067871093750e+00,2.676549911499023438e+00,2.617631196975708008e+00,2.561250686645507812e+00,2.507247447967529297e+00,2.455474615097045898e+00,2.405796766281127930e+00,2.358088970184326172e+00,2.312236785888671875e+00,2.268133640289306641e+00,2.225681066513061523e+00,2.184788942337036133e+00,2.145372152328491211e+00,2.107352495193481445e+00,2.070656776428222656e+00,2.035217285156250000e+00,2.000970363616943359e+00,1.967857122421264648e+00,1.935821771621704102e+00,1.904812812805175781e+00,1.874781727790832520e+00,1.845682740211486816e+00
5.000000000000000000e+00,5.000000000000000000e+00,5.000000000000000000e+00,5.000000000000000000e+00,5.000000000000000000e+00,5.000000000000000000e+00,5.000000000000000000e+00,5.000000000000000000e+00,5.000000000000000000e+00,5.000000000000000000e+00,5.000000000000000000e+00,5.000000000000000000e+00,5.000000000000000000e+00,5.000000000000000000e+00,5.000000000000000000e+00,5.000000000000000000e+00,5.000000000000000000e+00,5.000000000000000000e+00,5.000000000000000000e+00,5.000000000000000000e+00,5.000000000000000000e+00,5.000000000000000000e+00,4.437374114990234375e+00,4.483023166656494141e+00,4.494125366210937500e+00,4.517429351806640625e+00,4.512619018554687500e+00,5.000000000000000000e+00,4.711554050445556641e+00,5.000000000000000000e+00,5.000000000000000000e+00,5.000000000000000000e+00,5.000000000000000000e+00,5.000000000000000000e+00,5.000000000000000000e+00,5.000000000000000000e+00,5.000000000000000000e+00,5.000000000000000000e+00,5.000000000000000000e+00,4.868080615997314453e+00,4.676628112792968750e+00,4.499665737152099609e+00,4.335607051849365234e+00,4.183090686798095703e+00,4.040939807891845703e+00,3.908132791519165039e+00,3.783777952194213867e+00,3.667092561721801758e+00,3.557388305664062500e+00,3.454057455062866211e+00,3.356559991836547852e+00,3.264415502548217773e+00,3.177195310592651367e+00,3.094514131546020508e+00,3.016027212142944336e+00,2.941423416137695312e+00,2.870420932769775391e+00,2.802765846252441406e+00,2.738226413726806641e+00,2.676592350006103516e+00,2.617671728134155273e+00,2.561289548873901367e+00,2.507284641265869141e+00,2.455510377883911133e+00,2.405831098556518555e+00,2.358122110366821289e+00,2.312268495559692383e+00,2.268164157867431641e+00,2.225710630416870117e+00,2.184817314147949219e+00,2.145399570465087891e+00,2.107378721237182617e+00,2.070682048797607422e+00,2.035241842269897461e+00,2.000994205474853516e+00,1.967880010604858398e+00,1.935844182968139648e+00,1.904834508895874023e+00,1.874802470207214355e+00,1.845703005790710449e+00
5.000000000000000000e+00,5.000000000000000000e+00,5.000000000000000000e+00,5.000000000000000000e+00,5.000000000000000000e+00,5.000000000000000000e+00,5.000000000000000000e+00,5.000000000000000000e+00,5.000000000000000000e+00,5.000000000000000000e+00,5.000000000000000000e+00,5.000000000000000000e+00,5.000000000000000000e+00,5.000000000000000000e+00,5.000000000000000000e+00,5.000000000000000000e+00,5.000000000000000000e+00,5.000000000000000000e+00,5.000000000000000000e+00,5.000000000000000000e+00,5.000000000000000000e+00,5.000000000000000000e+00,5.000000000000000000e+00,4.469257354736328125e+00,4.482481002807617188e+00,4.502759456634521484e+00,4.498396396636962891e+00,5.000000000000000000e+00,4.700585365295410156e+00,5.000000000000000000e+00,5.000000000000000000e+00,5.000000000000000000e+00,5.000000000000000000e+00,5.000000000000000000e+00,5.000000000000000000e+00,5.000000000000000000e+00,5.000000000000000000e+00,5.000000000000000000e+00,5.000000000000000000e+00,4.868220806121826172e+00,4.676757812500000000e+00,4.499785900115966797e+00,4.335718631744384766e+00,4.183194160461425781e+00,4.041036605834960938e+00,3.908223390579223633e+00,3.783862829208374023e+00,3.667171955108642578e+00,3.557463407516479492e+00,3.454128265380859375e+00,3.356626749038696289e+00,3.264478921890258789e+00,3.177255153656005859e+00,3.094570875167846680e+00,3.016081333160400391e+00,2.941474676132202148e+00,2.870469808578491211e+00,2.802812337875366211e+00,2.738270998001098633e+00,2.676634788513183594e+00,2.617712497711181641e+00,2.561328411102294922e+00,2.507322072982788086e+00,2.455546140670776367e+00,2.405865430831909180e+00,2.358155012130737305e+00,2.312300205230712891e+00,2.268194675445556641e+00,2.225739955902099609e+00,2.184845685958862305e+00,2.145426750183105469e+00,2.107404947280883789e+00,2.070707559585571289e+00,2.035266399383544922e+00,2.001017808914184570e+00,1.967903137207031250e+00,1.935866236686706543e+00,1.904855847358703613e+00,1.874823451042175293e+00,1.845723152160644531e+00
5.000000000000000000e+00,5.000000000000000000e+00,5.000000000000000000e+00,5.000000000000000000e+00,5.000000000000000000e+00,5.000000000000000000e+00,5.000000000000000000e+00,5.000000000000000000e+00,5.000000000000000000e+00,5.000000000000000000e+00,5.000000000000000000e+00,5.000000000000000000e+00,5.000000000000000000e+00,5.000000000000000000e+00,5.000000000000000000e+00,5.000000000000000000e+00,5.000000000000000000e+00,5.000000000000000000e+00,5.000000000000000000e+00,5.000000000000000000e+00,5.000000000000000000e+00,5.000000000000000000e+00,5.000000000000000000e+00,4.453372001647949219e+00,4.467978954315185547e+00,4.492725372314453125e+00,4.481943607330322266e+00,5.000000000000000000e+00,5.000000000000000000e+00,5.000000000000000000e+00,5.000000000000000000e+00,5.000000000000000000e+00,5.000000000000000000e+00,5.000000000000000000e+00,5.000000000000000000e+00,5.000000000000000000e+00,5.000000000000000000e+00,5.000000000000000000e+00,5.000000000000000000e+00,4.868361473083496094e+00,4.676887512207031250e+00,4.499905586242675781e+00,4.335829734802246094e+00,4.183298110961914062e+00,4.041133403778076172e+00,3.908313989639282227e+00,3.783947706222534180e+00,3.667251586914062500e+00,3.557538509368896484e+00,3.454199075698852539e+00,3.356693506240844727e+00,3.264542102813720703e+00,3.177314996719360352e+00,3.094627618789672852e+00,3.016135215759277344e+00,2.941526174545288086e+00,2.870518684387207031e+00,2.802859067916870117e+00,2.738315343856811523e+00,2.676677227020263672e+00,2.617753028869628906e+00,2.561367273330688477e+00,2.507359266281127930e+00,2.455581903457641602e+00,2.405899763107299805e+00,2.358187913894653320e+00,2.312331914901733398e+00,2.268225193023681641e+00,2.225769281387329102e+00,2.184873819351196289e+00,2.145453929901123047e+00,2.107431411743164062e+00,2.070733070373535156e+00,2.035290956497192383e+00,2.001041650772094727e+00,1.967926025390625000e+00,1.935888409614562988e+00,1.904877543449401855e+00,1.874844193458557129e+00,1.845743298530578613e+00
5.000000000000000000e+00,5.000000000000000000e+00,5.000000000000000000e+00,5.000000000000000000e+00,5.000000000000000000e+00,5.000000000000000000e+00,5.000000000000000000e+00,5.000000000000000000e+00,5.000000000000000000e+00,5.000000000000000000e+00,5.000000000000000000e+00,5.000000000000000000e+00,5.000000000000000000e+00,5.000000000000000000e+00,5.000000000000000000e+00,5.000000000000000000e+00,5.000000000000000000e+00,5.000000000000000000e+00,5.000000000000000000e+00,5.000000000000000000e+00,5.000000000000000000e+00,5.000000000000000000e+00,5.000000000000000000e+00,4.459358692169189453e+00,4.471389770507812500e+00,4.503980636596679688e+00,4.498856544494628906e+00,5.000000000000000000e+00,5.000000000000000000e+00,5.000000000000000000e+00,5.000000000000000000e+00,5.000000000000000000e+00,5.000000000000000000e+00,5.000000000000000000e+00,5.000000000000000000e+00,5.000000000000000000e+00,5.000000000000000000e+00,5.000000000000000000e+00,5.000000000000000000e+00,4.868500709533691406e+00,4.677017688751220703e+00,4.500025749206542969e+00,4.335941314697265625e+00,4.183402061462402344e+00,4.041230201721191406e+00,3.908404588699340820e+00,3.784032583236694336e+00,3.667331457138061523e+00,3.557613372802734375e+00,3.454269886016845703e+00,3.356760501861572266e+00,3.264605283737182617e+00,3.177374839782714844e+00,3.094684362411499023e+00,3.016189098358154297e+00,2.941577434539794922e+00,2.870567560195922852e+00,2.802905559539794922e+00,2.738359928131103516e+00,2.676719665527343750e+00,2.617793798446655273e+00,2.561406135559082031e+00,2.507396697998046875e+00,2.455617666244506836e+00,2.405933856964111328e+00,2.358221054077148438e+00,2.312363624572753906e+00,2.268255472183227539e+00,2.225798606872558594e+00,2.184902191162109375e+00,2.145481348037719727e+00,2.107457637786865234e+00,2.070758342742919922e+00,2.035315513610839844e+00,2.001065254211425781e+00,1.967949032783508301e+00,1.935910701751708984e+00,1.904898881912231445e+00,1.874865174293518066e+00,1.845763564109802246e+00
5.000000000000000000e+00,5.000000000000000000e+00,5.000000000000000000e+00,5.000000000000000000e+00,5.000000000000000000e+00,5.000000000000000000e+00,5.000000000000000000e+00,5.000000000000000000e+00,5.000000000000000000e+00,5.000000000000000000e+00,5.000000000000000000e+00,5.000000000000000000e+00,5.000000000000000000e+00,5.000000000000000000e+00,5.000000000000000000e+00,5.000000000000000000e+00,5.000000000000000000e+00,5.000000000000000000e+00,5.000000000000000000e+00,5.000000000000000000e+00,5.000000000000000000e+00,5.000000000000000000e+00,5.000000000000000000e+00,5.000000000000000000e+00,4.597622871398925781e+00,4.541177272796630859e+00,4.544902324676513672e+00,5.000000000000000000e+00,5.000000000000000000e+00,5.000000000000000000e+00,5.000000000000000000e+00,5.000000000000000000e+00,5.000000000000000000e+00,5.000000000000000000e+00,5.000000000000000000e+00,5.000000000000000000e+00,5.000000000000000000e+00,5.000000000000000000e+00,5.000000000000000000e+00,4.868638992309570312e+00,4.677146434783935547e+00,4.500145912170410156e+00,4.336052417755126953e+00,4.183505535125732422e+00,4.041326999664306641e+00,3.908495187759399414e+00,3.784117460250854492e+00,3.667411088943481445e+00,3.557688474655151367e+00,3.454340696334838867e+00,3.356827259063720703e+00,3.264668464660644531e+00,3.177434682846069336e+00,3.094741344451904297e+00,3.016243219375610352e+00,2.941628456115722656e+00,2.870616436004638672e+00,2.802952289581298828e+00,2.738404035568237305e+00,2.676762342453002930e+00,2.617834329605102539e+00,2.561444997787475586e+00,2.507433891296386719e+00,2.455653429031372070e+00,2.405968189239501953e+00,2.358253955841064453e+00,2.312395334243774414e+00,2.268285989761352539e+00,2.225828170776367188e+00,2.184930562973022461e+00,2.145508527755737305e+00,2.107484102249145508e+00,2.070783853530883789e+00,2.035340070724487305e+00,2.001089096069335938e+00,1.967971920967102051e+00,1.935932874679565430e+00,1.904920578002929688e+00,1.874885916709899902e+00,1.845783710479736328e+00
5.000000000000000000e+00,5.000000000000000000e+00,5.000000000000000000e+00,5.000000000000000000e+00,5.000000000000000000e+00,5.000000000000000000e+00,5.000000000000000000e+00,5.000000000000000000e+00,5.000000000000000000e+00,5.000000000000000000e+00,5.000000000000000000e+00,5.000000000000000000e+00,5.000000000000000000e+00,5.000000000000000000e+00,5.000000000000000000e+00,5.000000000000000000e+00,5.000000000000000000e+00,5.000000000000000000e+00,5.000000000000000000e+00,5.000000000000000000e+00,5.000000000000000000e+00,5.000000000000000000e+00,5.000000000000000000e+00,5.000000000000000000e+00,4.695071697235107422e+00,4.550145149230957031e+00,4.567522525787353516e+00,5.000000000000000000e+00,5.000000000000000000e+00,5.000000000000000000e+00,5.000000000000000000e+00,5.000000000000000000e+00,5.000000000000000000e+00,5.000000000000000000e+00,5.000000000000000000e+00,5.000000000000000000e+00,5.000000000000000000e+00,5.000000000000000000e+00,5.000000000000000000e+00,4.868777751922607422e+00,4.677274227142333984e+00,4.500266075134277344e+00,4.336163997650146484e+00,4.183609485626220703e+00,4.041423797607421875e+00,3.908585786819458008e+00,3.784202575683593750e+00,3.667490959167480469e+00,3.557763576507568359e+00,3.454411029815673828e+00,3.356894016265869141e+00,3.264731645584106445e+00,3.177494287490844727e+00,3.094798088073730469e+00,3.016297101974487305e+00,2.941679716110229492e+00,2.870665311813354492e+00,2.802998781204223633e+00,2.738448619842529297e+00,2.676804780960083008e+00,2.617875099182128906e+00,2.561483860015869141e+00,2.507471084594726562e+00,2.455689191818237305e+00,2.406002521514892578e+00,2.358286857604980469e+00,2.312427043914794922e+00,2.268316507339477539e+00,2.225857496261596680e+00,2.184958934783935547e+00,2.145535945892333984e+00,2.107510328292846680e+00,2.070809364318847656e+00,2.035364627838134766e+00,2.001112937927246094e+00,1.967994928359985352e+00,1.935955166816711426e+00,1.904941916465759277e+00,1.874906897544860840e+00,1.845803976058959961e+00
5.000000000000000000e+00,5.000000000000000000e+00,5.000000000000000000e+00,5.000000000000000000e+00,5.000000000000000000e+00,5.000000000000000000e+00,5.000000000000000000e+00,5.000000000000000000e+00,5.000000000000000000e+00,5.000000000000000000e+00,5.000000000000000000e+00,5.000000000000000000e+00,5.000000000000000000e+00,5.000000000000000000e+00,5.000000000000000000e+00,5.000000000000000000e+00,5.000000000000000000e+00,5.000000000000000000e+00,5.000000000000000000e+00,5.000000000000000000e+00,5.000000000000000000e+00,5.000000000000000000e+00,5.000000000000000000e+00,5.000000000000000000e+00,4.842827796936035156e+00,4.558021068572998047e+00,4.604799270629882812e+00,5.000000000000000000e+00,5.000000000000000000e+00,5.000000000000000000e+00,5.000000000000000000e+00,5.000000000000000000e+00,5.000000000000000000e+00,5.000000000000000000e+00,5.000000000000000000e+00,5.000000000000000000e+00,5.000000000000000000e+00,5.000000000000000000e+00,5.000000000000000000e+00,4.868916511535644531e+00,4.677402019500732422e+00,4.500384330749511719e+00,4.336275577545166016e+00,4.183712959289550781e+00,4.041521072387695312e+00,3.908676385879516602e+00,3.784286975860595703e+00,3.667570590972900391e+00,3.557838678359985352e+00,3.454481840133666992e+00,3.356960773468017578e+00,3.264794826507568359e+00,3.177554130554199219e+00,3.094854831695556641e+00,3.016350984573364258e+00,2.941731214523315430e+00,2.870714187622070312e+00,2.803045272827148438e+00,2.738493204116821289e+00,2.676847219467163086e+00,2.617915630340576172e+00,2.561522722244262695e+00,2.507508516311645508e+00,2.455724954605102539e+00,2.406036853790283203e+00,2.358319997787475586e+00,2.312458753585815430e+00,2.268347024917602539e+00,2.225886821746826172e+00,2.184987068176269531e+00,2.145563125610351562e+00,2.107536792755126953e+00,2.070834636688232422e+00,2.035389184951782227e+00,2.001136541366577148e+00,1.968017816543579102e+00,1.935977339744567871e+00,1.904963612556457520e+00,1.874927639961242676e+00,1.845824122428894043e+00
5.000000000000000000e+00,5.000000000000000000e+00,5.000000000000000000e+00,5.000000000000000000e+00,5.000000000000000000e+00,5.000000000000000000e+00,5.000000000000000000e+00,5.000000000000000000e+00,5.000000000000000000e+00,5.000000000000000000e+00,5.000000000000000000e+00,5.000000000000000000e+00,5.000000000000000000e+00,5.000000000000000000e+00,5.000000000000000000e+00,5.000000000000000000e+00,5.000000000000000000e+00,5.000000000000000000e+00,5.000000000000000000e+00,5.000000000000000000e+00,5.000000000000000000e+00,5.000000000000000000e+00,5.000000000000000000e+00,5.000000000000000000e+00,4.865592002868652344e+00,4.569764137268066406e+00,5.000000000000000000e+00,5.000000000000000000e+00,5.000000000000000000e+00,5.000000000000000000e+00,5.000000000000000000e+00,5.000000000000000000e+00,5.000000000000000000e+00,5.000000000000000000e+00,5.000000000000000000e+00,5.000000000000000000e+00,5.000000000000000000e+00,5.000000000000000000e+00,5.000000000000000000e+00,4.869054794311523438e+00,4.677530288696289062e+00,4.500502586364746094e+00,4.336386203765869141e+00,4.183816909790039062e+00,4.041617870330810547e+00,3.908766984939575195e+00,3.784371852874755859e+00,3.667650461196899414e+00,3.557913780212402344e+00,3.454552650451660156e+00,3.357027769088745117e+00,3.264858007431030273e+00,3.177614212036132812e+00,3.094911575317382812e+00,3.016404867172241211e+00,2.941782474517822266e+00,2.870763063430786133e+00,2.803092002868652344e+00,2.738537549972534180e+00,2.676889657974243164e+00,2.617956399917602539e+00,2.561561584472656250e+00,2.507545709609985352e+00,2.455760717391967773e+00,2.406071186065673828e+00,2.358352899551391602e+00,2.312490224838256836e+00,2.268377542495727539e+00,2.225916147232055664e+00,2.185015439987182617e+00,2.145590543746948242e+00,2.107563018798828125e+00,2.070859909057617188e+00,2.035413742065429688e+00,2.001160383224487305e+00,1.968040704727172852e+00,1.935999631881713867e+00,1.904984951019287109e+00,1.874948382377624512e+00,1.845844388008117676e+00
5.000000000000000000e+00,5.000000000000000000e+00,5.000000000000000000e+00,5.000000000000000000e+00,5.000000000000000000e+00,5.000000000000000000e+00,5.000000000000000000e+00,5.000000000000000000e+00,5.000000000000000000e+00,5.000000000000000000e+00,5.000000000000000000e+00,5.000000000000000000e+00,5.000000000000000000e+00,5.000000000000000000e+00,5.000000000000000000e+00,5.000000000000000000e+00,5.000000000000000000e+00,5.000000000000000000e+00,5.000000000000000000e+00,5.000000000000000000e+00,5.000000000000000000e+00,5.000000000000000000e+00,5.000000000000000000e+00,5.000000000000000000e+00,5.000000000000000000e+00,4.581246376037597656e+00,5.000000000000000000e+00,5.000000000000000000e+00,5.000000000000000000e+00,5.000000000000000000e+00,5.000000000000000000e+00,5.000000000000000000e+00,5.000000000000000000e+00,5.000000000000000000e+00,5.000000000000000000e+00,5.000000000000000000e+00,5.000000000000000000e+00,5.000000000000000000e+00,5.000000000000000000e+00,4.869193553924560547e+00,4.677658081054687500e+00,4.500621318817138672e+00,4.336495876312255859e+00,4.183919906616210938e+00,4.041714191436767578e+00,3.908857822418212891e+00,3.784456729888916016e+00,3.667730331420898438e+00,3.557988882064819336e+00,3.454623460769653320e+00,3.357094526290893555e+00,3.264921188354492188e+00,3.177674055099487305e+00,3.094968557357788086e+00,3.016458988189697266e+00,2.941833734512329102e+00,2.870811939239501953e+00,2.803138494491577148e+00,2.738582134246826172e+00,2.676932334899902344e+00,2.617996692657470703e+00,2.561600685119628906e+00,2.507583141326904297e+00,2.455796241760253906e+00,2.406105518341064453e+00,2.358385801315307617e+00,2.312521934509277344e+00,2.268408060073852539e+00,2.225945711135864258e+00,2.185043573379516602e+00,2.145617723464965820e+00,2.107589483261108398e+00,2.070885419845581055e+00,2.035438299179077148e+00,2.001183986663818359e+00,1.968063831329345703e+00,1.936021804809570312e+00,1.905006647109985352e+00,1.874969244003295898e+00,1.845864534378051758e+00
4.871744632720947266e+00,4.870522975921630859e+00,4.869301319122314453e+00,4.868081092834472656e+00,4.866860866546630859e+00,4.865642070770263672e+00,4.864422798156738281e+00,4.863204956054687500e+00,4.861987590789794922e+00,4.860770702362060547e+00,4.859554767608642578e+00,4.858338832855224609e+00,4.857123851776123047e+00,4.855909347534179688e+00,4.854695796966552734e+00,4.853482723236083984e+00,4.852269649505615234e+00,4.851058006286621094e+00,4.849846363067626953e+00,4.848635673522949219e+00,4.847425460815429688e+00,4.846215724945068359e+00,4.845006942749023438e+00,4.843798637390136719e+00,4.842590808868408203e+00,4.472895145416259766e+00,4.840177059173583984e+00,4.838970661163330078e+00,4.837765693664550781e+00,4.836561203002929688e+00,4.835356712341308594e+00,4.834153175354003906e+00,4.832950115203857422e+00,4.831747531890869141e+00,4.830545902252197266e+00,4.829344749450683594e+00,4.828144073486328125e+00,4.826944351196289062e+00,4.825745105743408203e+00,4.824545860290527344e+00,4.677785873413085938e+00,4.500739574432373047e+00,4.336606025695800781e+00,4.184022426605224609e+00,4.041811466217041016e+00,3.908948421478271484e+00,3.784541845321655273e+00,3.667809963226318359e+00,3.558063983917236328e+00,3.454694032669067383e+00,3.357161521911621094e+00,3.264984130859375000e+00,3.177733898162841797e+00,3.095025300979614258e+00,3.016512632369995117e+00,2.941884994506835938e+00,2.870860815048217773e+00,2.803184986114501953e+00,2.738626480102539062e+00,2.676974773406982422e+00,2.618037462234497070e+00,2.561639547348022461e+00,2.507620334625244141e+00,2.455832004547119141e+00,2.406139850616455078e+00,2.358418941497802734e+00,2.312553644180297852e+00,2.268438577651977539e+00,2.225975036621093750e+00,2.185071945190429688e+00,2.145645141601562500e+00,2.107615709304809570e+00,2.070910930633544922e+00,2.035462856292724609e+00,2.001207828521728516e+00,1.968086600303649902e+00,1.936044096946716309e+00,1.905028104782104492e+00,1.874989986419677734e+00,1.845884799957275391e+00
3.776564836502075195e+00,3.775830507278442383e+00,3.775096893310546875e+00,3.774363040924072266e+00,3.773629665374755859e+00,3.772896289825439453e+00,3.772163867950439453e+00,3.771431207656860352e+00,3.770699024200439453e+00,3.769967317581176758e+00,3.769235372543334961e+00,3.768503904342651367e+00,3.767772674560546875e+00,3.767042160034179688e+00,3.766311645507812500e+00,3.765581369400024414e+00,3.764851570129394531e+00,3.764121770858764648e+00,3.763392210006713867e+00,3.762662887573242188e+00,3.761934518814086914e+00,3.761205911636352539e+00,3.760477542877197266e+00,3.759749650955200195e+00,3.759021997451782227e+00,3.758294343948364258e+00,3.757567167282104492e+00,3.756840467453002930e+00,3.756113767623901367e+00,3.755387544631958008e+00,3.754661798477172852e+00,3.753935813903808594e+00,3.753210306167602539e+00,3.752485036849975586e+00,3.751760482788085938e+00,3.751035690307617188e+00,3.750311136245727539e+00,3.749587297439575195e+00,3.748863458633422852e+00,3.748139858245849609e+00,3.747416496276855469e+00,3.746693849563598633e+00,3.745971202850341797e+00,3.745248556137084961e+00,3.744526863098144531e+00,3.743804931640625000e+00,3.743083238601684570e+00,3.667889833450317383e+00,3.558138608932495117e+00,3.454764842987060547e+00,3.357228279113769531e+00,3.265047311782836914e+00,3.177793741226196289e+00,3.095082044601440430e+00,3.016566514968872070e+00,2.941936492919921875e+00,2.870909690856933594e+00,2.803231477737426758e+00,2.738671064376831055e+00,2.677017211914062500e+00,2.618077993392944336e+00,2.561678409576416016e+00,2.507657527923583984e+00,2.455868005752563477e+00,2.406174182891845703e+00,2.358451843261718750e+00,2.312585353851318359e+00,2.268469095230102539e+00,2.226004362106323242e+00,2.185100317001342773e+00,2.145672321319580078e+00,2.107642173767089844e+00,2.070936441421508789e+00,2.035487413406372070e+00,2.001231670379638672e+00,1.968109726905822754e+00,1.936066269874572754e+00,1.905049443244934082e+00,1.875010967254638672e+00,1.845904946327209473e+00
3.083407640457153320e+00,3.082918167114257812e+00,3.082428932189941406e+00,3.081939935684204102e+00,3.081450700759887695e+00,3.080961942672729492e+00,3.080473184585571289e+00,3.079984903335571289e+00,3.079496383666992188e+00,3.079008102416992188e+00,3.078520298004150391e+00,3.078032255172729492e+00,3.077544450759887695e+00,3.077056646347045898e+00,3.076569557189941406e+00,3.076081991195678711e+00,3.075594902038574219e+00,3.075108051300048828e+00,3.074621200561523438e+00,3.074134349822998047e+00,3.073647737503051758e+00,3.073161602020263672e+00,3.072675228118896484e+00,3.072189092636108398e+00,3.071703433990478516e+00,3.071217536926269531e+00,3.070731878280639648e+00,3.070246458053588867e+00,3.069761276245117188e+00,3.069276094436645508e+00,3.068791151046752930e+00,3.068306446075439453e+00,3.067821741104125977e+00,3.067337036132812500e+00,3.066852569580078125e+00,3.066368579864501953e+00,3.065884590148925781e+00,3.065400600433349609e+00,3.064917087554931641e+00,3.064433336257934570e+00,3.063949823379516602e+00,3.063466548919677734e+00,3.062983512878417969e+00,3.062500476837158203e+00,3.062017440795898438e+00,3.061535120010375977e+00,3.061052322387695312e+00,3.060570001602172852e+00,3.060087680816650391e+00,3.059605598449707031e+00,3.059123754501342773e+00,3.058641910552978516e+00,3.058160305023193359e+00,3.057678937911987305e+00,3.016620635986328125e+00,2.941987752914428711e+00,2.870958566665649414e+00,2.803278207778930664e+00,2.738715410232543945e+00,2.677059650421142578e+00,2.618118762969970703e+00,2.561717271804809570e+00,2.507694959640502930e+00,2.455903768539428711e+00,2.406208515167236328e+00,2.358484983444213867e+00,2.312617063522338867e+00,2.268499612808227539e+00,2.226033687591552734e+00,2.185128688812255859e+00,2.145699739456176758e+00,2.107668399810791016e+00,2.070961713790893555e+00,2.035511970520019531e+00,2.001255273818969727e+00,1.968132615089416504e+00,1.936088562011718750e+00,1.905071139335632324e+00,1.875031709671020508e+00,1.845925211906433105e+00
2.605237722396850586e+00,2.604888439178466797e+00,2.604538917541503906e+00,2.604189634323120117e+00,2.603840589523315430e+00,2.603491544723510742e+00,2.603142499923706055e+00,2.602793693542480469e+00,2.602444887161254883e+00,2.602096319198608398e+00,2.601747512817382812e+00,2.601399183273315430e+00,2.601050853729248047e+00,2.600702524185180664e+00,2.600354194641113281e+00,2.600006103515625000e+00,2.599658012390136719e+00,2.599310159683227539e+00,2.598962306976318359e+00,2.598614692687988281e+00,2.598266839981079102e+00,2.597919225692749023e+00,2.597571849822998047e+00,2.597224473953247070e+00,2.596877098083496094e+00,2.596530199050903320e+00,2.596183061599731445e+00,2.595835924148559570e+00,2.595489025115966797e+00,2.595142364501953125e+00,2.594795465469360352e+00,2.594448804855346680e+00,2.594102382659912109e+00,2.593755960464477539e+00,2.593409538269042969e+00,2.593063116073608398e+00,2.592717170715332031e+00,2.592370986938476562e+00,2.592025041580200195e+00,2.591679096221923828e+00,2.591333389282226562e+00,2.590987443923950195e+00,2.590641975402832031e+00,2.590296506881713867e+00,2.589951038360595703e+00,2.589605569839477539e+00,2.589260578155517578e+00,2.588915348052978516e+00,2.588570117950439453e+00,2.588225126266479492e+00,2.587880373001098633e+00,2.587535619735717773e+00,2.587190866470336914e+00,2.586846351623535156e+00,2.586501836776733398e+00,2.586157321929931641e+00,2.585813045501708984e+00,2.585468769073486328e+00,2.585124731063842773e+00,2.584780454635620117e+00,2.584436655044555664e+00,2.561756372451782227e+00,2.507732152938842773e+00,2.455939531326293945e+00,2.406242847442626953e+00,2.358517646789550781e+00,2.312648773193359375e+00,2.268530130386352539e+00,2.226063013076782227e+00,2.185156822204589844e+00,2.145726919174194336e+00,2.107694625854492188e+00,2.070987224578857422e+00,2.035536527633666992e+00,2.001278877258300781e+00,1.968155622482299805e+00,1.936110615730285645e+00,1.905092477798461914e+00,1.875052690505981445e+00,1.845945358276367188e+00
2.255424261093139648e+00,2.255164146423339844e+00,2.254904031753540039e+00,2.254644155502319336e+00,2.254384279251098633e+00,2.254124402999877930e+00,2.253864526748657227e+00,2.253604888916015625e+00,2.253345251083374023e+00,2.253085613250732422e+00,2.252826213836669922e+00,2.252566576004028320e+00,2.252307176589965820e+00,2.252047777175903320e+00,2.251788377761840820e+00,2.251529216766357422e+00,2.251270055770874023e+00,2.251010894775390625e+00,2.250751733779907227e+00,2.250492811203002930e+00,2.250233888626098633e+00,2.249974966049194336e+00,2.249716043472290039e+00,2.249455690383911133e+00,2.249195098876953125e+00,2.248934507369995117e+00,2.248674392700195312e+00,2.248414039611816406e+00,2.248153686523437500e+00,2.247893571853637695e+00,2.247633457183837891e+00,2.247373342514038086e+00,2.247113227844238281e+00,2.246853351593017578e+00,2.246593475341796875e+00,2.246333360671997070e+00,2.246073722839355469e+00,2.245814085006713867e+00,2.245554208755493164e+00,2.245294570922851562e+00,2.245035171508789062e+00,2.244775533676147461e+00,2.244516134262084961e+00,2.244256734848022461e+00,2.243997573852539062e+00,2.243738174438476562e+00,2.243479013442993164e+00,2.243220090866088867e+00,2.242960929870605469e+00,2.242701768875122070e+00,2.242442846298217773e+00,2.242184162139892578e+00,2.241925239562988281e+00,2.241666316986083984e+00,2.241407871246337891e+00,2.241149187088012695e+00,2.240890502929687500e+00,2.240631818771362305e+00,2.240373611450195312e+00,2.240115165710449219e+00,2.239856719970703125e+00,2.239598512649536133e+00,2.239340305328369141e+00,2.239082098007202148e+00,2.238823890686035156e+00,2.238565921783447266e+00,2.238307952880859375e+00,2.238049745559692383e+00,2.226092576980590820e+00,2.185185194015502930e+00,2.145754337310791016e+00,2.107721090316772461e+00,2.071012735366821289e+00,2.035561084747314453e+00,2.001302719116210938e+00,1.968178510665893555e+00,1.936133027076721191e+00,1.905114173889160156e+00,1.875073432922363281e+00,1.845965623855590820e+00
1.988351583480834961e+00,1.988149404525756836e+00,1.987947344779968262e+00,1.987745285034179688e+00,1.987543225288391113e+00,1.987341165542602539e+00,1.987139225006103516e+00,1.986937284469604492e+00,1.986735701560974121e+00,1.986533880233764648e+00,1.986332058906555176e+00,1.986130237579345703e+00,1.985928535461425781e+00,1.985726952552795410e+00,1.985525250434875488e+00,1.985323667526245117e+00,1.985122203826904297e+00,1.984920620918273926e+00,1.984719157218933105e+00,1.984517812728881836e+00,1.984316349029541016e+00,1.984115242958068848e+00,1.983913898468017578e+00,1.983712673187255859e+00,1.983511447906494141e+00,1.983310222625732422e+00,1.983109116554260254e+00,1.982908010482788086e+00,1.982706904411315918e+00,1.982505917549133301e+00,1.982304930686950684e+00,1.982104063034057617e+00,1.981903076171875000e+00,1.981702327728271484e+00,1.981501698493957520e+00,1.981300950050354004e+00,1.981100201606750488e+00,1.980899453163146973e+00,1.980698823928833008e+00,1.980498194694519043e+00,1.980297684669494629e+00,1.980097055435180664e+00,1.979896664619445801e+00,1.979696154594421387e+00,1.979495763778686523e+00,1.979295372962951660e+00,1.979095101356506348e+00,1.978894710540771484e+00,1.978694796562194824e+00,1.978494524955749512e+00,1.978294372558593750e+00,1.978094220161437988e+00,1.977894186973571777e+00,1.977694034576416016e+00,1.977494120597839355e+00,1.977294087409973145e+00,1.977094173431396484e+00,1.976894259452819824e+00,1.976694464683532715e+00,1.976494669914245605e+00,1.976294875144958496e+00,1.976095438003540039e+00,1.975895643234252930e+00,1.975696086883544922e+00,1.975496411323547363e+00,1.975296854972839355e+00,1.975097417831420898e+00,1.974897861480712891e+00,1.974698424339294434e+00,1.974498987197875977e+00,1.974299669265747070e+00,1.974100351333618164e+00,1.973901033401489258e+00,1.973701834678649902e+00,1.973502874374389648e+00,1.968201637268066406e+00,1.936155200004577637e+00,1.905135512351989746e+00,1.875094413757324219e+00,1.845985770225524902e+00
1.777832269668579102e+00,1.777670621871948242e+00,1.777508974075317383e+00,1.777347445487976074e+00,1.777185916900634766e+00,1.777024388313293457e+00,1.776863098144531250e+00,1.776701688766479492e+00,1.776540279388427734e+00,1.776378870010375977e+00,1.776217460632324219e+00,1.776056170463562012e+00,1.775894880294799805e+00,1.775733590126037598e+00,1.775572299957275391e+00,1.775411128997802734e+00,1.775249958038330078e+00,1.775088787078857422e+00,1.774927616119384766e+00,1.774766802787780762e+00,1.774605631828308105e+00,1.774444699287414551e+00,1.774283647537231445e+00,1.774122595787048340e+00,1.773961663246154785e+00,1.773800730705261230e+00,1.773639917373657227e+00,1.773478984832763672e+00,1.773318171501159668e+00,1.773157358169555664e+00,1.772996544837951660e+00,1.772835850715637207e+00,1.772675156593322754e+00,1.772514581680297852e+00,1.772354006767272949e+00,1.772193312644958496e+00,1.772032737731933594e+00,1.771872162818908691e+00,1.771711587905883789e+00,1.771551132202148438e+00,1.771390557289123535e+00,1.771230101585388184e+00,1.771069765090942383e+00,1.770909309387207031e+00,1.770748972892761230e+00,1.770588636398315430e+00,1.770428419113159180e+00,1.770268201828002930e+00,1.770107984542846680e+00,1.769947767257690430e+00,1.769787549972534180e+00,1.769627332687377930e+00,1.769467234611511230e+00,1.769307136535644531e+00,1.769147038459777832e+00,1.768986940383911133e+00,1.768826961517333984e+00,1.768666982650756836e+00,1.768507003784179688e+00,1.768347263336181641e+00,1.768187284469604492e+00,1.768027424812316895e+00,1.767867565155029297e+00,1.767707824707031250e+00,1.767547965049743652e+00,1.767388224601745605e+00,1.767228484153747559e+00,1.767068743705749512e+00,1.766909122467041016e+00,1.766749501228332520e+00,1.766589879989624023e+00,1.766430258750915527e+00,1.766270756721496582e+00,1.766111373901367188e+00,1.765951871871948242e+00,1.765792369842529297e+00,1.765632987022399902e+00,1.765473604202270508e+00,1.765314221382141113e+00,1.765154838562011719e+00
1.607622981071472168e+00,1.607490777969360352e+00,1.607358694076538086e+00,1.607226610183715820e+00,1.607094645500183105e+00,1.606962561607360840e+00,1.606830477714538574e+00,1.606698513031005859e+00,1.606566429138183594e+00,1.606434464454650879e+00,1.606302499771118164e+00,1.606170535087585449e+00,1.606038689613342285e+00,1.605906724929809570e+00,1.605774879455566406e+00,1.605643033981323242e+00,1.605511188507080078e+00,1.605379343032836914e+00,1.605247735977172852e+00,1.605116009712219238e+00,1.604984283447265625e+00,1.604852437973022461e+00,1.604720830917358398e+00,1.604589104652404785e+00,1.604457497596740723e+00,1.604325771331787109e+00,1.604194164276123047e+00,1.604062557220458984e+00,1.603931069374084473e+00,1.603799462318420410e+00,1.603667974472045898e+00,1.603536605834960938e+00,1.603405117988586426e+00,1.603273630142211914e+00,1.603142142295837402e+00,1.603010773658752441e+00,1.602879285812377930e+00,1.602747917175292969e+00,1.602616548538208008e+00,1.602485299110412598e+00,1.602353930473327637e+00,1.602222681045532227e+00,1.602091431617736816e+00,1.601960182189941406e+00,1.601829051971435547e+00,1.601697802543640137e+00,1.601566672325134277e+00,1.601435542106628418e+00,1.601304292678833008e+00,1.601173281669616699e+00,1.601042151451110840e+00,1.600911021232604980e+00,1.600780010223388672e+00,1.600648999214172363e+00,1.600517988204956055e+00,1.600386977195739746e+00,1.600255966186523438e+00,1.600125074386596680e+00,1.599994182586669922e+00,1.599863290786743164e+00,1.599732398986816406e+00,1.599601507186889648e+00,1.599470734596252441e+00,1.599339842796325684e+00,1.599209070205688477e+00,1.599078297615051270e+00,1.598947525024414062e+00,1.598816871643066406e+00,1.598686099052429199e+00,1.598555445671081543e+00,1.598424673080444336e+00,1.598294258117675781e+00,1.598163604736328125e+00,1.598032951354980469e+00,1.597902417182922363e+00,1.597771883010864258e+00,1.597641348838806152e+00,1.597510814666748047e+00,1.597380280494689941e+00,1.597249746322631836e+00
1.467157602310180664e+00,1.467047572135925293e+00,1.466937541961669922e+00,1.466827630996704102e+00,1.466717600822448730e+00,1.466607570648193359e+00,1.466497540473937988e+00,1.466387629508972168e+00,1.466277599334716797e+00,1.466167688369750977e+00,1.466057777404785156e+00,1.465947866439819336e+00,1.465837955474853516e+00,1.465728044509887695e+00,1.465618252754211426e+00,1.465508341789245605e+00,1.465398669242858887e+00,1.465288877487182617e+00,1.465179085731506348e+00,1.465069293975830078e+00,1.464959502220153809e+00,1.464849829673767090e+00,1.464740037918090820e+00,1.464630365371704102e+00,1.464520692825317383e+00,1.464410901069641113e+00,1.464301347732543945e+00,1.464191675186157227e+00,1.464082002639770508e+00,1.463972568511962891e+00,1.463862895965576172e+00,1.463753342628479004e+00,1.463643789291381836e+00,1.463534235954284668e+00,1.463424682617187500e+00,1.463315129280090332e+00,1.463205695152282715e+00,1.463096141815185547e+00,1.462986707687377930e+00,1.462877273559570312e+00,1.462767839431762695e+00,1.462658405303955078e+00,1.462549090385437012e+00,1.462439775466918945e+00,1.462330460548400879e+00,1.462221026420593262e+00,1.462111711502075195e+00,1.462002396583557129e+00,1.461893081665039062e+00,1.461783885955810547e+00,1.461674571037292480e+00,1.461565256118774414e+00,1.461456060409545898e+00,1.461346864700317383e+00,1.461237668991088867e+00,1.461128473281860352e+00,1.461019396781921387e+00,1.460910320281982422e+00,1.460801124572753906e+00,1.460692048072814941e+00,1.460582852363586426e+00,1.460473775863647461e+00,1.460364699363708496e+00,1.460255622863769531e+00,1.460146665573120117e+00,1.460037589073181152e+00,1.459928631782531738e+00,1.459819555282592773e+00,1.459710597991943359e+00,1.459601759910583496e+00,1.459492802619934082e+00,1.459383964538574219e+00,1.459275007247924805e+00,1.459166169166564941e+00,1.459057211875915527e+00,1.458948373794555664e+00,1.458839535713195801e+00,1.458730697631835938e+00,1.458621859550476074e+00,1.458513140678405762e+00
1.349266052246093750e+00,1.349173069000244141e+00,1.349080085754394531e+00,1.348986983299255371e+00,1.348893880844116211e+00,1.348800897598266602e+00,1.348707795143127441e+00,1.348614811897277832e+00,1.348521828651428223e+00,1.348428845405578613e+00,1.348335862159729004e+00,1.348242878913879395e+00,1.348149895668029785e+00,1.348056912422180176e+00,1.347964167594909668e+00,1.347871184349060059e+00,1.347778320312500000e+00,1.347685456275939941e+00,1.347592592239379883e+00,1.347499728202819824e+00,1.347406864166259766e+00,1.347314000129699707e+00,1.347221255302429199e+00,1.347128391265869141e+00,1.347035646438598633e+00,1.346942782402038574e+00,1.346850037574768066e+00,1.346757292747497559e+00,1.346664667129516602e+00,1.346571922302246094e+00,1.346479177474975586e+00,1.346386432647705078e+00,1.346293807029724121e+00,1.346201062202453613e+00,1.346108436584472656e+00,1.346015691757202148e+00,1.345923066139221191e+00,1.345830440521240234e+00,1.345737814903259277e+00,1.345645189285278320e+00,1.345552563667297363e+00,1.345460176467895508e+00,1.345367550849914551e+00,1.345275044441223145e+00,1.345182418823242188e+00,1.345089912414550781e+00,1.344997406005859375e+00,1.344904899597167969e+00,1.344812393188476562e+00,1.344719886779785156e+00,1.344627499580383301e+00,1.344534993171691895e+00,1.344442486763000488e+00,1.344350099563598633e+00,1.344257831573486328e+00,1.344165444374084473e+00,1.344072937965393066e+00,1.343980669975280762e+00,1.343888282775878906e+00,1.343795895576477051e+00,1.343703508377075195e+00,1.343611240386962891e+00,1.343518853187561035e+00,1.343426585197448730e+00,1.343334317207336426e+00,1.343242049217224121e+00,1.343149781227111816e+00,1.343057513236999512e+00,1.342965364456176758e+00,1.342873096466064453e+00,1.342780947685241699e+00,1.342688679695129395e+00,1.342596530914306641e+00,1.342504382133483887e+00,1.342412114143371582e+00,1.342319965362548828e+00,1.342227816581726074e+00,1.342135787010192871e+00,1.342043638229370117e+00,1.341951489448547363e+00
1.248911499977111816e+00,1.248831748962402344e+00,1.248751997947692871e+00,1.248672366142272949e+00,1.248592615127563477e+00,1.248512864112854004e+00,1.248433113098144531e+00,1.248353481292724609e+00,1.248273730278015137e+00,1.248194098472595215e+00,1.248114347457885742e+00,1.248034715652465820e+00,1.247955083847045898e+00,1.247875571250915527e+00,1.247795939445495605e+00,1.247716307640075684e+00,1.247636675834655762e+00,1.247557044029235840e+00,1.247477531433105469e+00,1.247397899627685547e+00,1.247318267822265625e+00,1.247238755226135254e+00,1.247159242630004883e+00,1.247079730033874512e+00,1.247000098228454590e+00,1.246920585632324219e+00,1.246841192245483398e+00,1.246761679649353027e+00,1.246682167053222656e+00,1.246602773666381836e+00,1.246523261070251465e+00,1.246443867683410645e+00,1.246364355087280273e+00,1.246284961700439453e+00,1.246205449104309082e+00,1.246126055717468262e+00,1.246046662330627441e+00,1.245967268943786621e+00,1.245887875556945801e+00,1.245808601379394531e+00,1.245729207992553711e+00,1.245649814605712891e+00,1.245570540428161621e+00,1.245491147041320801e+00,1.245411872863769531e+00,1.245332598686218262e+00,1.245253205299377441e+00,1.245173931121826172e+00,1.245094656944274902e+00,1.245015382766723633e+00,1.244936108589172363e+00,1.244856834411621094e+00,1.244777560234069824e+00,1.244698405265808105e+00,1.244619250297546387e+00,1.244539976119995117e+00,1.244460821151733398e+00,1.244381666183471680e+00,1.244302392005920410e+00,1.244223237037658691e+00,1.244144082069396973e+00,1.244064927101135254e+00,1.243985772132873535e+00,1.243906617164611816e+00,1.243827581405639648e+00,1.243748426437377930e+00,1.243669390678405762e+00,1.243590354919433594e+00,1.243511199951171875e+00,1.243432164192199707e+00,1.243353128433227539e+00,1.243274092674255371e+00,1.243194937705993652e+00,1.243116021156311035e+00,1.243036985397338867e+00,1.242957949638366699e+00,1.242878913879394531e+00,1.242799878120422363e+00,1.242720961570739746e+00,1.242642045021057129e+00
1.162451624870300293e+00,1.162382602691650391e+00,1.162313461303710938e+00,1.162244439125061035e+00,1.162175297737121582e+00,1.162106275558471680e+00,1.162037134170532227e+00,1.161968111991882324e+00,1.161899089813232422e+00,1.161830067634582520e+00,1.161761045455932617e+00,1.161692142486572266e+00,1.161623120307922363e+00,1.161554098129272461e+00,1.161485075950622559e+00,1.161416053771972656e+00,1.161347150802612305e+00,1.161278128623962402e+00,1.161209225654602051e+00,1.161140203475952148e+00,1.161071300506591797e+00,1.161002278327941895e+00,1.160933375358581543e+00,1.160864472389221191e+00,1.160795688629150391e+00,1.160726785659790039e+00,1.160657882690429688e+00,1.160588979721069336e+00,1.160520076751708984e+00,1.160451173782348633e+00,1.160382270812988281e+00,1.160313487052917480e+00,1.160244584083557129e+00,1.160175800323486328e+00,1.160106897354125977e+00,1.160038113594055176e+00,1.159969329833984375e+00,1.159900546073913574e+00,1.159831762313842773e+00,1.159762978553771973e+00,1.159694194793701172e+00,1.159625411033630371e+00,1.159556627273559570e+00,1.159487843513488770e+00,1.159419178962707520e+00,1.159350395202636719e+00,1.159281611442565918e+00,1.159212946891784668e+00,1.159144163131713867e+00,1.159075498580932617e+00,1.159006834030151367e+00,1.158938169479370117e+00,1.158869504928588867e+00,1.158800840377807617e+00,1.158732175827026367e+00,1.158663511276245117e+00,1.158594846725463867e+00,1.158526182174682617e+00,1.158457517623901367e+00,1.158388972282409668e+00,1.158320307731628418e+00,1.158251762390136719e+00,1.158183097839355469e+00,1.158114552497863770e+00,1.158046007156372070e+00,1.157977461814880371e+00,1.157908916473388672e+00,1.157840251922607422e+00,1.157771706581115723e+00,1.157703161239624023e+00,1.157634615898132324e+00,1.157566189765930176e+00,1.157497644424438477e+00,1.157429099082946777e+00,1.157360553741455078e+00,1.157292127609252930e+00,1.157223582267761230e+00,1.157155156135559082e+00,1.157086730003356934e+00,1.157018303871154785e+00
1.087187647819519043e+00,1.087127208709716797e+00,1.087066769599914551e+00,1.087006330490112305e+00,1.086945891380310059e+00,1.086885452270507812e+00,1.086825013160705566e+00,1.086764693260192871e+00,1.086704254150390625e+00,1.086643934249877930e+00,1.086583495140075684e+00,1.086523175239562988e+00,1.086462855339050293e+00,1.086402416229248047e+00,1.086342096328735352e+00,1.086281776428222656e+00,1.086221337318420410e+00,1.086161017417907715e+00,1.086100697517395020e+00,1.086040377616882324e+00,1.085980057716369629e+00,1.085919737815856934e+00,1.085859417915344238e+00,1.085799217224121094e+00,1.085739016532897949e+00,1.085678696632385254e+00,1.085618376731872559e+00,1.085558176040649414e+00,1.085497856140136719e+00,1.085437655448913574e+00,1.085377335548400879e+00,1.085317134857177734e+00,1.085256934165954590e+00,1.085196614265441895e+00,1.085136413574218750e+00,1.085076212882995605e+00,1.085016131401062012e+00,1.084955930709838867e+00,1.084895730018615723e+00,1.084835529327392578e+00,1.084775328636169434e+00,1.084715127944946289e+00,1.084654927253723145e+00,1.084594845771789551e+00,1.084534645080566406e+00,1.084474444389343262e+00,1.084414362907409668e+00,1.084354162216186523e+00,1.084294080734252930e+00,1.084233999252319336e+00,1.084173917770385742e+00,1.084113836288452148e+00,1.084053754806518555e+00,1.083993673324584961e+00,1.083933472633361816e+00,1.083873391151428223e+00,1.083813428878784180e+00,1.083753347396850586e+00,1.083693265914916992e+00,1.083633184432983398e+00,1.083573102951049805e+00,1.083513140678405762e+00,1.083453059196472168e+00,1.083393096923828125e+00,1.083333134651184082e+00,1.083273053169250488e+00,1.083213090896606445e+00,1.083153009414672852e+00,1.083093047142028809e+00,1.083033084869384766e+00,1.082973122596740723e+00,1.082913160324096680e+00,1.082853078842163086e+00,1.082793116569519043e+00,1.082733154296875000e+00,1.082673311233520508e+00,1.082613348960876465e+00,1.082553505897521973e+00,1.082493543624877930e+00,1.082433581352233887e+00
1.021077036857604980e+00,1.021023631095886230e+00,1.020970344543457031e+00,1.020917057991027832e+00,1.020863771438598633e+00,1.020810484886169434e+00,1.020757198333740234e+00,1.020703911781311035e+00,1.020650625228881836e+00,1.020597457885742188e+00,1.020544171333312988e+00,1.020490884780883789e+00,1.020437598228454590e+00,1.020384430885314941e+00,1.020331144332885742e+00,1.020277857780456543e+00,1.020224690437316895e+00,1.020171403884887695e+00,1.020118236541748047e+00,1.020064949989318848e+00,1.020011782646179199e+00,1.019958615303039551e+00,1.019905447959899902e+00,1.019852280616760254e+00,1.019799113273620605e+00,1.019745826721191406e+00,1.019692659378051758e+00,1.019639492034912109e+00,1.019586324691772461e+00,1.019533157348632812e+00,1.019480109214782715e+00,1.019426941871643066e+00,1.019373774528503418e+00,1.019320607185363770e+00,1.019267559051513672e+00,1.019214391708374023e+00,1.019161343574523926e+00,1.019108176231384277e+00,1.019055128097534180e+00,1.019001960754394531e+00,1.018948912620544434e+00,1.018895745277404785e+00,1.018842697143554688e+00,1.018789649009704590e+00,1.018736481666564941e+00,1.018683433532714844e+00,1.018630385398864746e+00,1.018577337265014648e+00,1.018524289131164551e+00,1.018471240997314453e+00,1.018418192863464355e+00,1.018365144729614258e+00,1.018312215805053711e+00,1.018259167671203613e+00,1.018206119537353516e+00,1.018153071403503418e+00,1.018100142478942871e+00,1.018047094345092773e+00,1.017994046211242676e+00,1.017941117286682129e+00,1.017888069152832031e+00,1.017835140228271484e+00,1.017782211303710938e+00,1.017729163169860840e+00,1.017676234245300293e+00,1.017623305320739746e+00,1.017570376396179199e+00,1.017517328262329102e+00,1.017464399337768555e+00,1.017411470413208008e+00,1.017358541488647461e+00,1.017305612564086914e+00,1.017252683639526367e+00,1.017199754714965820e+00,1.017146944999694824e+00,1.017094016075134277e+00,1.017041087150573730e+00,1.016988277435302734e+00,1.016935348510742188e+00,1.016882419586181641e+00
9.625457525253295898e-01,9.624983668327331543e-01,9.624509811401367188e-01,9.624035954475402832e-01,9.623562097549438477e-01,9.623088836669921875e-01,9.622616171836853027e-01,9.622142910957336426e-01,9.621669054031372070e-01,9.621195793151855469e-01,9.620722532272338867e-01,9.620249271392822266e-01,9.619776010513305664e-01,9.619302749633789062e-01,9.618829488754272461e-01,9.618356227874755859e-01,9.617882966995239258e-01,9.617410302162170410e-01,9.616937041282653809e-01,9.616464376449584961e-01,9.615991115570068359e-01,9.615518450736999512e-01,9.615045785903930664e-01,9.614573121070861816e-01,9.614100456237792969e-01,9.613627791404724121e-01,9.613155126571655273e-01,9.612682461738586426e-01,9.612209796905517578e-01,9.611737132072448730e-01,9.611265063285827637e-01,9.610792398452758789e-01,9.610320329666137695e-01,9.609848856925964355e-01,9.609376788139343262e-01,9.608904719352722168e-01,9.608432054519653320e-01,9.607959985733032227e-01,9.607487916946411133e-01,9.607015848159790039e-01,9.606544375419616699e-01,9.606072306632995605e-01,9.605600237846374512e-01,9.605128765106201172e-01,9.604656696319580078e-01,9.604184627532958984e-01,9.603713154792785645e-01,9.603241682052612305e-01,9.602770209312438965e-01,9.602298140525817871e-01,9.601826667785644531e-01,9.601355195045471191e-01,9.600883722305297852e-01,9.600412845611572266e-01,9.599941372871398926e-01,9.599469900131225586e-01,9.598999023437500000e-01,9.598527550697326660e-01,9.598056077957153320e-01,9.597586393356323242e-01,9.597115516662597656e-01,9.596644043922424316e-01,9.596173167228698730e-01,9.595702290534973145e-01,9.595231413841247559e-01,9.594760537147521973e-01,9.594289660453796387e-01,9.593819379806518555e-01,9.593348503112792969e-01,9.592877626419067383e-01,9.592407345771789551e-01,9.591936469078063965e-01,9.591466188430786133e-01,9.590995907783508301e-01,9.590525627136230469e-01,9.590054750442504883e-01,9.589584469795227051e-01,9.589114189147949219e-01,9.588643908500671387e-01,9.588174223899841309e-01
9.103609919548034668e-01,9.103186130523681641e-01,9.102762341499328613e-01,9.102338552474975586e-01,9.101915955543518066e-01,9.101492166519165039e-01,9.101068973541259766e-01,9.100645184516906738e-01,9.100221395492553711e-01,9.099798202514648438e-01,9.099375009536743164e-01,9.098951220512390137e-01,9.098528027534484863e-01,9.098104834556579590e-01,9.097681045532226562e-01,9.097257852554321289e-01,9.096834659576416016e-01,9.096411466598510742e-01,9.095988273620605469e-01,9.095565080642700195e-01,9.095142483711242676e-01,9.094719290733337402e-01,9.094296097755432129e-01,9.093873500823974609e-01,9.093450307846069336e-01,9.093027710914611816e-01,9.092604517936706543e-01,9.092181921005249023e-01,9.091759324073791504e-01,9.091336727142333984e-01,9.090913534164428711e-01,9.090492129325866699e-01,9.090069532394409180e-01,9.089646935462951660e-01,9.089224338531494141e-01,9.088801741600036621e-01,9.088379740715026855e-01,9.087957143783569336e-01,9.087534546852111816e-01,9.087112545967102051e-01,9.086690545082092285e-01,9.086267948150634766e-01,9.085845947265625000e-01,9.085423946380615234e-01,9.085001349449157715e-01,9.084579348564147949e-01,9.084157347679138184e-01,9.083735346794128418e-01,9.083313345909118652e-01,9.082891345024108887e-01,9.082469940185546875e-01,9.082047939300537109e-01,9.081625938415527344e-01,9.081204533576965332e-01,9.080782532691955566e-01,9.080361127853393555e-01,9.079939126968383789e-01,9.079517722129821777e-01,9.079096913337707520e-01,9.078675508499145508e-01,9.078254103660583496e-01,9.077832698822021484e-01,9.077411293983459473e-01,9.076989889144897461e-01,9.076568484306335449e-01,9.076147079467773438e-01,9.075725674629211426e-01,9.075304865837097168e-01,9.074883460998535156e-01,9.074462056159973145e-01,9.074041247367858887e-01,9.073620438575744629e-01,9.073199033737182617e-01,9.072778224945068359e-01,9.072357416152954102e-01,9.071936607360839844e-01,9.071515202522277832e-01,9.071094393730163574e-01,9.070673584938049316e-01,9.070253372192382812e-01
