5.000000000000000000e+00,5.000000000000000000e+00,5.000000000000000000e+00,5.000000000000000000e+00,5.000000000000000000e+00,5.000000000000000000e+00,5.000000000000000000e+00,5.000000000000000000e+00,5.000000000000000000e+00,5.000000000000000000e+00,5.000000000000000000e+00,5.000000000000000000e+00,5.000000000000000000e+00,5.000000000000000000e+00,5.000000000000000000e+00,5.000000000000000000e+00,5.000000000000000000e+00,5.000000000000000000e+00,5.000000000000000000e+00,5.000000000000000000e+00,5.000000000000000000e+00,5.000000000000000000e+00,5.000000000000000000e+00,5.000000000000000000e+00,5.000000000000000000e+00,5.000000000000000000e+00,5.000000000000000000e+00,5.000000000000000000e+00,5.000000000000000000e+00,5.000000000000000000e+00,5.000000000000000000e+00,5.000000000000000000e+00,5.000000000000000000e+00,5.000000000000000000e+00,5.000000000000000000e+00,5.000000000000000000e+00,5.000000000000000000e+00,5.000000000000000000e+00,5.000000000000000000e+00,4.867575645446777344e+00,4.676153659820556641e+00,4.499217987060546875e+00,4.335183143615722656e+00,4.182689189910888672e+00,4.040558338165283203e+00,3.907770156860351562e+00,3.783431529998779297e+00,3.666761398315429688e+00,3.557071924209594727e+00,3.453754425048828125e+00,3.356269121170043945e+00,3.264136075973510742e+00,3.176926374435424805e+00,3.094255208969116211e+00,3.015777349472045898e+00,2.941182136535644531e+00,2.870187997817993164e+00,2.802540302276611328e+00,2.738008260726928711e+00,2.676380872726440430e+00,2.617466926574707031e+00,2.561090469360351562e+00,2.507091522216796875e+00,2.455322504043579102e+00,2.405648231506347656e+00,2.357944250106811523e+00,2.312095165252685547e+00,2.267995357513427734e+00,2.225546121597290039e+00,2.184656858444213867e+00,2.145242691040039062e+00,2.107225656509399414e+00,2.070532560348510742e+00,2.035095691680908203e+00,2.000851392745971680e+00,1.967740416526794434e+00,1.935707211494445801e+00,1.904700636863708496e+00,1.874671339988708496e+00,1.845574378967285156e+00
5.000000000000000000e+00,5.000000000000000000e+00,5.000000000000000000e+00,5.000000000000000000e+00,5.000000000000000000e+00,5.000000000000000000e+00,5.000000000000000000e+00,5.000000000000000000e+00,5.000000000000000000e+00,5.000000000000000000e+00,5.000000000000000000e+00,5.000000000000000000e+00,5.000000000000000000e+00,5.000000000000000000e+00,5.000000000000000000e+00,5.000000000000000000e+00,5.000000000000000000e+00,5.000000000000000000e+00,5.000000000000000000e+00,5.000000000000000000e+00,5.000000000000000000e+00,5.000000000000000000e+00,5.000000000000000000e+00,5.000000000000000000e+00,5.000000000000000000e+00,5.000000000000000000e+00,5.000000000000000000e+00,5.000000000000000000e+00,5.000000000000000000e+00,5.000000000000000000e+00,5.000000000000000000e+00,5.000000000000000000e+00,5.000000000000000000e+00,5.000000000000000000e+00,5.000000000000000000e+00,5.000000000000000000e+00,5.000000000000000000e+00,5.000000000000000000e+00,5.000000000000000000e+00,4.867714405059814453e+00,4.676281452178955078e+00,4.499336242675781250e+00,4.335293292999267578e+00,4.182791233062744141e+00,4.040654182434082031e+00,3.907859325408935547e+00,3.783515453338623047e+00,3.666840553283691406e+00,3.557146072387695312e+00,3.453824281692504883e+00,3.356334924697875977e+00,3.264198303222656250e+00,3.176985263824462891e+00,3.094311237335205078e+00,3.015830755233764648e+00,2.941232919692993164e+00,2.870236396789550781e+00,2.802586555480957031e+00,2.738051891326904297e+00,2.676422834396362305e+00,2.617506742477416992e+00,2.561128854751586914e+00,2.507128238677978516e+00,2.455357789993286133e+00,2.405682325363159180e+00,2.357976913452148438e+00,2.312126398086547852e+00,2.268025398254394531e+00,2.225574970245361328e+00,2.184684753417968750e+00,2.145269632339477539e+00,2.107251882553100586e+00,2.070557832717895508e+00,2.035120010375976562e+00,2.000874757766723633e+00,1.967763066291809082e+00,1.935729146003723145e+00,1.904721856117248535e+00,1.874691843986511230e+00,1.845594406127929688e+00
5.000000000000000000e+00,5.000000000000000000e+00,5.000000000000000000e+00,5.000000000000000000e+00,5.000000000000000000e+00,5.000000000000000000e+00,5.000000000000000000e+00,5.000000000000000000e+00,5.000000000000000000e+00,5.000000000000000000e+00,5.000000000000000000e+00,5.000000000000000000e+00,5.000000000000000000e+00,5.000000000000000000e+00,5.000000000000000000e+00,5.000000000000000000e+00,5.000000000000000000e+00,5.000000000000000000e+00,5.000000000000000000e+00,5.000000000000000000e+00,5.000000000000000000e+00,5.000000000000000000e+00,5.000000000000000000e+00,5.000000000000000000e+00,5.000000000000000000e+00,5.000000000000000000e+00,5.000000000000000000e+00,5.000000000000000000e+00,5.000000000000000000e+00,5.000000000000000000e+00,5.000000000000000000e+00,5.000000000000000000e+00,5.000000000000000000e+00,5.000000000000000000e+00,5.000000000000000000e+00,5.000000000000000000e+00,5.000000000000000000e+00,5.000000000000000000e+00,5.000000000000000000e+00,4.867853164672851562e+00,4.676409721374511719e+00,4.499454975128173828e+00,4.335403442382812500e+00,4.182893753051757812e+00,4.040749549865722656e+00,3.907948970794677734e+00,3.783599615097045898e+00,3.666918992996215820e+00,3.557220220565795898e+00,3.453894138336181641e+00,3.356401205062866211e+00,3.264261007308959961e+00,3.177044630050659180e+00,3.094367504119873047e+00,3.015884160995483398e+00,2.941283464431762695e+00,2.870284557342529297e+00,2.802632331848144531e+00,2.738095998764038086e+00,2.676464796066284180e+00,2.617547035217285156e+00,2.561167240142822266e+00,2.507165193557739258e+00,2.455393075942993164e+00,2.405715942382812500e+00,2.358009338378906250e+00,2.312157869338989258e+00,2.268055438995361328e+00,2.225604057312011719e+00,2.184712648391723633e+00,2.145296812057495117e+00,2.107277631759643555e+00,2.070582866668701172e+00,2.035144329071044922e+00,2.000898122787475586e+00,1.967785596847534180e+00,1.935751199722290039e+00,1.904742956161499023e+00,1.874712586402893066e+00,1.845614314079284668e+00
5.000000000000000000e+00,5.000000000000000000e+00,5.000000000000000000e+00,5.000000000000000000e+00,5.000000000000000000e+00,5.000000000000000000e+00,5.000000000000000000e+00,5.000000000000000000e+00,5.000000000000000000e+00,5.000000000000000000e+00,5.000000000000000000e+00,5.000000000000000000e+00,5.000000000000000000e+00,5.000000000000000000e+00,5.000000000000000000e+00,5.000000000000000000e+00,5.000000000000000000e+00,5.000000000000000000e+00,5.000000000000000000e+00,5.000000000000000000e+00,5.000000000000000000e+00,5.000000000000000000e+00,5.000000000000000000e+00,5.000000000000000000e+00,5.000000000000000000e+00,5.000000000000000000e+00,5.000000000000000000e+00,5.000000000000000000e+00,5.000000000000000000e+00,5.000000000000000000e+00,5.000000000000000000e+00,5.000000000000000000e+00,5.000000000000000000e+00,5.000000000000000000e+00,5.000000000000000000e+00,5.000000000000000000e+00,5.000000000000000000e+00,5.000000000000000000e+00,5.000000000000000000e+00,4.867991924285888672e+00,4.676537513732910156e+00,4.499573230743408203e+00,4.335513591766357422e+00,4.182996273040771484e+00,4.040845394134521484e+00,3.908038139343261719e+00,3.783683061599731445e+00,3.666997909545898438e+00,3.557294368743896484e+00,3.453963994979858398e+00,3.356467247009277344e+00,3.264323234558105469e+00,3.177103519439697266e+00,3.094423294067382812e+00,3.015937328338623047e+00,2.941334247589111328e+00,2.870332956314086914e+00,2.802678585052490234e+00,2.738140106201171875e+00,2.676506757736206055e+00,2.617587089538574219e+00,2.561205625534057617e+00,2.507201910018920898e+00,2.455428600311279297e+00,2.405750036239624023e+00,2.358042001724243164e+00,2.312189102172851562e+00,2.268085479736328125e+00,2.225633144378662109e+00,2.184740543365478516e+00,2.145323753356933594e+00,2.107303857803344727e+00,2.070608139038085938e+00,2.035168647766113281e+00,2.000921726226806641e+00,1.967808246612548828e+00,1.935773134231567383e+00,1.904764175415039062e+00,1.874733209609985352e+00,1.845634222030639648e+00
5.000000000000000000e+00,4.952827453613281250e+00,5.000000000000000000e+00,5.000000000000000000e+00,5.000000000000000000e+00,5.000000000000000000e+00,5.000000000000000000e+00,5.000000000000000000e+00,5.000000000000000000e+00,5.000000000000000000e+00,5.000000000000000000e+00,5.000000000000000000e+00,5.000000000000000000e+00,5.000000000000000000e+00,5.000000000000000000e+00,5.000000000000000000e+00,5.000000000000000000e+00,5.000000000000000000e+00,5.000000000000000000e+00,5.000000000000000000e+00,5.000000000000000000e+00,5.000000000000000000e+00,5.000000000000000000e+00,5.000000000000000000e+00,5.000000000000000000e+00,5.000000000000000000e+00,5.000000000000000000e+00,5.000000000000000000e+00,5.000000000000000000e+00,5.000000000000000000e+00,5.000000000000000000e+00,5.000000000000000000e+00,5.000000000000000000e+00,5.000000000000000000e+00,5.000000000000000000e+00,5.000000000000000000e+00,5.000000000000000000e+00,5.000000000000000000e+00,5.000000000000000000e+00,4.868131160736083984e+00,4.676665782928466797e+00,4.499691963195800781e+00,4.335623741149902344e+00,4.183099269866943359e+00,4.040940761566162109e+00,3.908127784729003906e+00,3.783767223358154297e+00,3.667076826095581055e+00,3.557368278503417969e+00,3.454033851623535156e+00,3.356533050537109375e+00,3.264385700225830078e+00,3.177162885665893555e+00,3.094479560852050781e+00,3.015990734100341797e+00,2.941385030746459961e+00,2.870380878448486328e+00,2.802724361419677734e+00,2.738183736801147461e+00,2.676548719406127930e+00,2.617627382278442383e+00,2.561244249343872070e+00,2.507238864898681641e+00,2.455463886260986328e+00,2.405783891677856445e+00,2.358074426651000977e+00,2.312220335006713867e+00,2.268115758895874023e+00,2.225662231445312500e+00,2.184768676757812500e+00,2.145350694656372070e+00,2.107329845428466797e+00,2.070633172988891602e+00,2.035192728042602539e+00,2.000945091247558594e+00,1.967831134796142578e+00,1.935795068740844727e+00,1.904785633087158203e+00,1.874753713607788086e+00,1.845654368400573730e+00
5.000000000000000000e+00,4.953830242156982422e+00,4.990297317504882812e+00,5.000000000000000000e+00,5.000000000000000000e+00,5.000000000000000000e+00,5.000000000000000000e+00,5.000000000000000000e+00,5.000000000000000000e+00,5.000000000000000000e+00,5.000000000000000000e+00,5.000000000000000000e+00,5.000000000000000000e+00,5.000000000000000000e+00,5.000000000000000000e+00,5.000000000000000000e+00,5.000000000000000000e+00,5.000000000000000000e+00,5.000000000000000000e+00,5.000000000000000000e+00,5.000000000000000000e+00,5.000000000000000000e+00,5.000000000000000000e+00,5.000000000000000000e+00,5.000000000000000000e+00,5.000000000000000000e+00,5.000000000000000000e+00,5.000000000000000000e+00,5.000000000000000000e+00,5.000000000000000000e+00,5.000000000000000000e+00,5.000000000000000000e+00,5.000000000000000000e+00,5.000000000000000000e+00,5.000000000000000000e+00,5.000000000000000000e+00,5.000000000000000000e+00,5.000000000000000000e+00,5.000000000000000000e+00,4.868269920349121094e+00,4.676794052124023438e+00,4.499810695648193359e+00,4.335733890533447266e+00,4.183201789855957031e+00,4.041036605834960938e+00,3.908217191696166992e+00,3.783850908279418945e+00,3.667155504226684570e+00,3.557442665100097656e+00,3.454103708267211914e+00,3.356599330902099609e+00,3.264448404312133789e+00,3.177221775054931641e+00,3.094535589218139648e+00,3.016043901443481445e+00,2.941435575485229492e+00,2.870429277420043945e+00,2.802770614624023438e+00,2.738227844238281250e+00,2.676590681076049805e+00,2.617667436599731445e+00,2.561282396316528320e+00,2.507275581359863281e+00,2.455499172210693359e+00,2.405817747116088867e+00,2.358107089996337891e+00,2.312251806259155273e+00,2.268146038055419922e+00,2.225691080093383789e+00,2.184796571731567383e+00,2.145377635955810547e+00,2.107355833053588867e+00,2.070658206939697266e+00,2.035217046737670898e+00,2.000968694686889648e+00,1.967853665351867676e+00,1.935816884040832520e+00,1.904806733131408691e+00,1.874774217605590820e+00,1.845674276351928711e+00
5.000000000000000000e+00,4.971125602722167969e+00,5.000000000000000000e+00,5.000000000000000000e+00,5.000000000000000000e+00,5.000000000000000000e+00,5.000000000000000000e+00,5.000000000000000000e+00,5.000000000000000000e+00,5.000000000000000000e+00,5.000000000000000000e+00,5.000000000000000000e+00,5.000000000000000000e+00,5.000000000000000000e+00,5.000000000000000000e+00,5.000000000000000000e+00,5.000000000000000000e+00,5.000000000000000000e+00,5.000000000000000000e+00,5.000000000000000000e+00,5.000000000000000000e+00,5.000000000000000000e+00,5.000000000000000000e+00,5.000000000000000000e+00,5.000000000000000000e+00,5.000000000000000000e+00,5.000000000000000000e+00,5.000000000000000000e+00,5.000000000000000000e+00,5.000000000000000000e+00,5.000000000000000000e+00,5.000000000000000000e+00,5.000000000000000000e+00,5.000000000000000000e+00,5.000000000000000000e+00,5.000000000000000000e+00,5.000000000000000000e+00,5.000000000000000000e+00,5.000000000000000000e+00,4.868408679962158203e+00,4.676921844482421875e+00,4.499928951263427734e+00,4.335844039916992188e+00,4.183303833007812500e+00,4.041131973266601562e+00,3.908306837081909180e+00,3.783934831619262695e+00,3.667234420776367188e+00,3.557516574859619141e+00,3.454173564910888672e+00,3.356665134429931641e+00,3.264510631561279297e+00,3.177280902862548828e+00,3.094591617584228516e+00,3.016097307205200195e+00,2.941486358642578125e+00,2.870477437973022461e+00,2.802816390991210938e+00,2.738271713256835938e+00,2.676632642745971680e+00,2.617707490921020508e+00,2.561321020126342773e+00,2.507312536239624023e+00,2.455534458160400391e+00,2.405851602554321289e+00,2.358139514923095703e+00,2.312283039093017578e+00,2.268176078796386719e+00,2.225720167160034180e+00,2.184824466705322266e+00,2.145404577255249023e+00,2.107381820678710938e+00,2.070683240890502930e+00,2.035241365432739258e+00,2.000992059707641602e+00,1.967876315116882324e+00,1.935839056968688965e+00,1.904827952384948730e+00,1.874794960021972656e+00,1.845694184303283691e+00
4.953908443450927734e+00,4.998616218566894531e+00,4.995831012725830078e+00,5.000000000000000000e+00,5.000000000000000000e+00,5.000000000000000000e+00,5.000000000000000000e+00,5.000000000000000000e+00,5.000000000000000000e+00,5.000000000000000000e+00,5.000000000000000000e+00,5.000000000000000000e+00,5.000000000000000000e+00,5.000000000000000000e+00,5.000000000000000000e+00,5.000000000000000000e+00,5.000000000000000000e+00,5.000000000000000000e+00,5.000000000000000000e+00,5.000000000000000000e+00,5.000000000000000000e+00,5.000000000000000000e+00,5.000000000000000000e+00,5.000000000000000000e+00,5.000000000000000000e+00,5.000000000000000000e+00,5.000000000000000000e+00,5.000000000000000000e+00,5.000000000000000000e+00,5.000000000000000000e+00,5.000000000000000000e+00,5.000000000000000000e+00,5.000000000000000000e+00,5.000000000000000000e+00,5.000000000000000000e+00,5.000000000000000000e+00,5.000000000000000000e+00,5.000000000000000000e+00,5.000000000000000000e+00,4.868547439575195312e+00,4.677050590515136719e+00,4.500047683715820312e+00,4.335954189300537109e+00,4.183406352996826172e+00,4.041228294372558594e+00,3.908396005630493164e+00,3.784018516540527344e+00,3.667312860488891602e+00,3.557590723037719727e+00,3.454243421554565430e+00,3.356731176376342773e+00,3.264573097229003906e+00,3.177340269088745117e+00,3.094647645950317383e+00,3.016150474548339844e+00,2.941536903381347656e+00,2.870525836944580078e+00,2.802862405776977539e+00,2.738315582275390625e+00,2.676674604415893555e+00,2.617747783660888672e+00,2.561359405517578125e+00,2.507349252700805664e+00,2.455569744110107422e+00,2.405885696411132812e+00,2.358172178268432617e+00,2.312314510345458984e+00,2.268206119537353516e+00,2.225749254226684570e+00,2.184852361679077148e+00,2.145431518554687500e+00,2.107407808303833008e+00,2.070708513259887695e+00,2.035265684127807617e+00,2.001015424728393555e+00,1.967899203300476074e+00,1.935860872268676758e+00,1.904849171638488770e+00,1.874815464019775391e+00,1.845714092254638672e+00
4.916755199432373047e+00,4.938006877899169922e+00,4.960141181945800781e+00,5.000000000000000000e+00,5.000000000000000000e+00,5.000000000000000000e+00,5.000000000000000000e+00,5.000000000000000000e+00,5.000000000000000000e+00,5.000000000000000000e+00,5.000000000000000000e+00,5.000000000000000000e+00,5.000000000000000000e+00,5.000000000000000000e+00,5.000000000000000000e+00,5.000000000000000000e+00,5.000000000000000000e+00,5.000000000000000000e+00,5.000000000000000000e+00,5.000000000000000000e+00,5.000000000000000000e+00,5.000000000000000000e+00,5.000000000000000000e+00,5.000000000000000000e+00,5.000000000000000000e+00,5.000000000000000000e+00,5.000000000000000000e+00,5.000000000000000000e+00,5.000000000000000000e+00,5.000000000000000000e+00,5.000000000000000000e+00,5.000000000000000000e+00,5.000000000000000000e+00,5.000000000000000000e+00,5.000000000000000000e+00,5.000000000000000000e+00,5.000000000000000000e+00,5.000000000000000000e+00,5.000000000000000000e+00,4.868686199188232422e+00,4.677178382873535156e+00,4.500166416168212891e+00,4.336064338684082031e+00,4.183508872985839844e+00,4.041323661804199219e+00,3.908485651016235352e+00,3.784102678298950195e+00,3.667391777038574219e+00,3.557665109634399414e+00,3.454313278198242188e+00,3.356796979904174805e+00,3.264635324478149414e+00,3.177399158477783203e+00,3.094703912734985352e+00,3.016203880310058594e+00,2.941587686538696289e+00,2.870574235916137695e+00,2.802908420562744141e+00,2.738359451293945312e+00,2.676716566085815430e+00,2.617787837982177734e+00,2.561397790908813477e+00,2.507386207580566406e+00,2.455605030059814453e+00,2.405919551849365234e+00,2.358204841613769531e+00,2.312345743179321289e+00,2.268236398696899414e+00,2.225778102874755859e+00,2.184880495071411133e+00,2.145458459854125977e+00,2.107434034347534180e+00,2.070733547210693359e+00,2.035289764404296875e+00,2.001038789749145508e+00,1.967921853065490723e+00,1.935882806777954102e+00,1.904870629310607910e+00,1.874835968017578125e+00,1.845734119415283203e+00
4.929181098937988281e+00,4.928796768188476562e+00,4.963265419006347656e+00,5.000000000000000000e+00,5.000000000000000000e+00,5.000000000000000000e+00,5.000000000000000000e+00,5.000000000000000000e+00,5.000000000000000000e+00,5.000000000000000000e+00,5.000000000000000000e+00,5.000000000000000000e+00,5.000000000000000000e+00,5.000000000000000000e+00,5.000000000000000000e+00,5.000000000000000000e+00,5.000000000000000000e+00,5.000000000000000000e+00,5.000000000000000000e+00,5.000000000000000000e+00,5.000000000000000000e+00,5.000000000000000000e+00,5.000000000000000000e+00,5.000000000000000000e+00,5.000000000000000000e+00,5.000000000000000000e+00,5.000000000000000000e+00,5.000000000000000000e+00,5.000000000000000000e+00,5.000000000000000000e+00,5.000000000000000000e+00,5.000000000000000000e+00,5.000000000000000000e+00,5.000000000000000000e+00,5.000000000000000000e+00,5.000000000000000000e+00,5.000000000000000000e+00,5.000000000000000000e+00,5.000000000000000000e+00,4.868824958801269531e+00,4.677306652069091797e+00,4.500285148620605469e+00,4.336174011230468750e+00,4.183611392974853516e+00,4.041419506072998047e+00,3.908575296401977539e+00,3.784186124801635742e+00,3.667470455169677734e+00,3.557739019393920898e+00,3.454383373260498047e+00,3.356863260269165039e+00,3.264698028564453125e+00,3.177458524703979492e+00,3.094760179519653320e+00,3.016256809234619141e+00,2.941638231277465820e+00,2.870622396469116211e+00,2.802954435348510742e+00,2.738403558731079102e+00,2.676758527755737305e+00,2.617828130722045898e+00,2.561436414718627930e+00,2.507422924041748047e+00,2.455640316009521484e+00,2.405953407287597656e+00,2.358237504959106445e+00,2.312376976013183594e+00,2.268266439437866211e+00,2.225807189941406250e+00,2.184908390045166016e+00,2.145485401153564453e+00,2.107459783554077148e+00,2.070758581161499023e+00,2.035314083099365234e+00,2.001062393188476562e+00,1.967944383621215820e+00,1.935904979705810547e+00,1.904891729354858398e+00,1.874856591224670410e+00,1.845754027366638184e+00
4.923218727111816406e+00,4.926971435546875000e+00,4.961859703063964844e+00,5.000000000000000000e+00,5.000000000000000000e+00,5.000000000000000000e+00,5.000000000000000000e+00,5.000000000000000000e+00,5.000000000000000000e+00,5.000000000000000000e+00,5.000000000000000000e+00,5.000000000000000000e+00,5.000000000000000000e+00,5.000000000000000000e+00,5.000000000000000000e+00,5.000000000000000000e+00,5.000000000000000000e+00,5.000000000000000000e+00,5.000000000000000000e+00,5.000000000000000000e+00,5.000000000000000000e+00,5.000000000000000000e+00,5.000000000000000000e+00,5.000000000000000000e+00,5.000000000000000000e+00,5.000000000000000000e+00,5.000000000000000000e+00,5.000000000000000000e+00,5.000000000000000000e+00,5.000000000000000000e+00,5.000000000000000000e+00,5.000000000000000000e+00,5.000000000000000000e+00,5.000000000000000000e+00,5.000000000000000000e+00,5.000000000000000000e+00,5.000000000000000000e+00,5.000000000000000000e+00,5.000000000000000000e+00,4.868963718414306641e+00,4.677434921264648438e+00,4.500403881072998047e+00,4.336284160614013672e+00,4.183713912963867188e+00,4.041514873504638672e+00,3.908664703369140625e+00,3.784270286560058594e+00,3.667549371719360352e+00,3.557813405990600586e+00,3.454453229904174805e+00,3.356929063796997070e+00,3.264760255813598633e+00,3.177517414093017578e+00,3.094815969467163086e+00,3.016310453414916992e+00,2.941689014434814453e+00,2.870670795440673828e+00,2.803000688552856445e+00,2.738447189331054688e+00,2.676800489425659180e+00,2.617868185043334961e+00,2.561474561691284180e+00,2.507459640502929688e+00,2.455675840377807617e+00,2.405987501144409180e+00,2.358270168304443359e+00,2.312408208847045898e+00,2.268296480178833008e+00,2.225836277008056641e+00,2.184936285018920898e+00,2.145512342453002930e+00,2.107486009597778320e+00,2.070783853530883789e+00,2.035338401794433594e+00,2.001085758209228516e+00,1.967967033386230469e+00,1.935926795005798340e+00,1.904912948608398438e+00,1.874877333641052246e+00,1.845773935317993164e+00
4.903577327728271484e+00,4.917619228363037109e+00,4.950583457946777344e+00,5.000000000000000000e+00,5.000000000000000000e+00,5.000000000000000000e+00,5.000000000000000000e+00,5.000000000000000000e+00,5.000000000000000000e+00,5.000000000000000000e+00,5.000000000000000000e+00,5.000000000000000000e+00,5.000000000000000000e+00,5.000000000000000000e+00,5.000000000000000000e+00,5.000000000000000000e+00,5.000000000000000000e+00,5.000000000000000000e+00,5.000000000000000000e+00,5.000000000000000000e+00,5.000000000000000000e+00,5.000000000000000000e+00,5.000000000000000000e+00,5.000000000000000000e+00,5.000000000000000000e+00,5.000000000000000000e+00,5.000000000000000000e+00,5.000000000000000000e+00,5.000000000000000000e+00,5.000000000000000000e+00,5.000000000000000000e+00,5.000000000000000000e+00,5.000000000000000000e+00,5.000000000000000000e+00,5.000000000000000000e+00,5.000000000000000000e+00,5.000000000000000000e+00,5.000000000000000000e+00,5.000000000000000000e+00,4.869102478027343750e+00,4.677562713623046875e+00,4.500522613525390625e+00,4.336394309997558594e+00,4.183816432952880859e+00,4.041610717773437500e+00,3.908754348754882812e+00,3.784353971481323242e+00,3.667628049850463867e+00,3.557887315750122070e+00,3.454523086547851562e+00,3.356995105743408203e+00,3.264822721481323242e+00,3.177576780319213867e+00,3.094872236251831055e+00,3.016363382339477539e+00,2.941739559173583984e+00,2.870718955993652344e+00,2.803046464920043945e+00,2.738491296768188477e+00,2.676842451095581055e+00,2.617908239364624023e+00,2.561513185501098633e+00,2.507496356964111328e+00,2.455710887908935547e+00,2.406021118164062500e+00,2.358302593231201172e+00,2.312439680099487305e+00,2.268326759338378906e+00,2.225865364074707031e+00,2.184964418411254883e+00,2.145539283752441406e+00,2.107511997222900391e+00,2.070808887481689453e+00,2.035362720489501953e+00,2.001109361648559570e+00,1.967989921569824219e+00,1.935948729515075684e+00,1.904934406280517578e+00,1.874897837638854980e+00,1.845793843269348145e+00
4.918198108673095703e+00,4.928964614868164062e+00,4.959742546081542969e+00,5.000000000000000000e+00,5.000000000000000000e+00,5.000000000000000000e+00,5.000000000000000000e+00,5.000000000000000000e+00,5.000000000000000000e+00,5.000000000000000000e+00,5.000000000000000000e+00,5.000000000000000000e+00,5.000000000000000000e+00,5.000000000000000000e+00,5.000000000000000000e+00,5.000000000000000000e+00,5.000000000000000000e+00,5.000000000000000000e+00,5.000000000000000000e+00,5.000000000000000000e+00,5.000000000000000000e+00,5.000000000000000000e+00,5.000000000000000000e+00,5.000000000000000000e+00,5.000000000000000000e+00,5.000000000000000000e+00,5.000000000000000000e+00,5.000000000000000000e+00,5.000000000000000000e+00,5.000000000000000000e+00,5.000000000000000000e+00,5.000000000000000000e+00,5.000000000000000000e+00,5.000000000000000000e+00,5.000000000000000000e+00,5.000000000000000000e+00,5.000000000000000000e+00,5.000000000000000000e+00,5.000000000000000000e+00,4.869241237640380859e+00,4.677690982818603516e+00,4.500640869140625000e+00,4.336504936218261719e+00,4.183918952941894531e+00,4.041706562042236328e+00,3.908843517303466797e+00,3.784438133239746094e+00,3.667706966400146484e+00,3.557961702346801758e+00,3.454593181610107422e+00,3.357061386108398438e+00,3.264884948730468750e+00,3.177635669708251953e+00,3.094928264617919922e+00,3.016417026519775391e+00,2.941790342330932617e+00,2.870767354965209961e+00,2.803092718124389648e+00,2.738535404205322266e+00,2.676884412765502930e+00,2.617948293685913086e+00,2.561551570892333984e+00,2.507533311843872070e+00,2.455746412277221680e+00,2.406055212020874023e+00,2.358335256576538086e+00,2.312471151351928711e+00,2.268356800079345703e+00,2.225894212722778320e+00,2.184992313385009766e+00,2.145566225051879883e+00,2.107537984848022461e+00,2.070834159851074219e+00,2.035387039184570312e+00,2.001132726669311523e+00,1.968012571334838867e+00,1.935970544815063477e+00,1.904955625534057617e+00,1.874918341636657715e+00,1.845813989639282227e+00
4.861401081085205078e+00,4.933102130889892578e+00,4.955348491668701172e+00,4.988149642944335938e+00,5.000000000000000000e+00,5.000000000000000000e+00,5.000000000000000000e+00,5.000000000000000000e+00,5.000000000000000000e+00,5.000000000000000000e+00,5.000000000000000000e+00,5.000000000000000000e+00,5.000000000000000000e+00,5.000000000000000000e+00,5.000000000000000000e+00,5.000000000000000000e+00,5.000000000000000000e+00,5.000000000000000000e+00,5.000000000000000000e+00,5.000000000000000000e+00,5.000000000000000000e+00,5.000000000000000000e+00,5.000000000000000000e+00,5.000000000000000000e+00,5.000000000000000000e+00,5.000000000000000000e+00,5.000000000000000000e+00,5.000000000000000000e+00,5.000000000000000000e+00,5.000000000000000000e+00,5.000000000000000000e+00,5.000000000000000000e+00,5.000000000000000000e+00,5.000000000000000000e+00,5.000000000000000000e+00,5.000000000000000000e+00,5.000000000000000000e+00,5.000000000000000000e+00,5.000000000000000000e+00,4.869380474090576172e+00,4.677819252014160156e+00,4.500759601593017578e+00,4.336615085601806641e+00,4.184021472930908203e+00,4.041801929473876953e+00,3.908933401107788086e+00,3.784522056579589844e+00,3.667785644531250000e+00,3.558035612106323242e+00,3.454662799835205078e+00,3.357127189636230469e+00,3.264947652816772461e+00,3.177695035934448242e+00,3.094984531402587891e+00,3.016470432281494141e+00,2.941840887069702148e+00,2.870815515518188477e+00,2.803138494491577148e+00,2.738579034805297852e+00,2.676926374435424805e+00,2.617988586425781250e+00,2.561589956283569336e+00,2.507570266723632812e+00,2.455781698226928711e+00,2.406089067459106445e+00,2.358367681503295898e+00,2.312502384185791016e+00,2.268387079238891602e+00,2.225923299789428711e+00,2.185020208358764648e+00,2.145593404769897461e+00,2.107563972473144531e+00,2.070859193801879883e+00,2.035411119461059570e+00,2.001156091690063477e+00,1.968035101890563965e+00,1.935992717742919922e+00,1.904976844787597656e+00,1.874939084053039551e+00,1.845833897590637207e+00
4.838212966918945312e+00,4.923151969909667969e+00,4.933254241943359375e+00,4.976716041564941406e+00,5.000000000000000000e+00,5.000000000000000000e+00,5.000000000000000000e+00,5.000000000000000000e+00,5.000000000000000000e+00,5.000000000000000000e+00,5.000000000000000000e+00,5.000000000000000000e+00,5.000000000000000000e+00,5.000000000000000000e+00,5.000000000000000000e+00,5.000000000000000000e+00,5.000000000000000000e+00,5.000000000000000000e+00,5.000000000000000000e+00,5.000000000000000000e+00,5.000000000000000000e+00,5.000000000000000000e+00,5.000000000000000000e+00,5.000000000000000000e+00,5.000000000000000000e+00,5.000000000000000000e+00,5.000000000000000000e+00,5.000000000000000000e+00,5.000000000000000000e+00,5.000000000000000000e+00,5.000000000000000000e+00,5.000000000000000000e+00,5.000000000000000000e+00,5.000000000000000000e+00,5.000000000000000000e+00,5.000000000000000000e+00,5.000000000000000000e+00,5.000000000000000000e+00,5.000000000000000000e+00,4.869519710540771484e+00,4.677947521209716797e+00,4.500878334045410156e+00,4.336725234985351562e+00,4.184124469757080078e+00,4.041897773742675781e+00,3.909022569656372070e+00,3.784605741500854492e+00,3.667864561080932617e+00,3.558109998703002930e+00,3.454732894897460938e+00,3.357193231582641602e+00,3.265010356903076172e+00,3.177753925323486328e+00,3.095040559768676758e+00,3.016523599624633789e+00,2.941891670227050781e+00,2.870863676071166992e+00,2.803184747695922852e+00,2.738623142242431641e+00,2.676968574523925781e+00,2.618028640747070312e+00,2.561628341674804688e+00,2.507606983184814453e+00,2.455816984176635742e+00,2.406122922897338867e+00,2.358400344848632812e+00,2.312533855438232422e+00,2.268417119979858398e+00,2.225952148437500000e+00,2.185048103332519531e+00,2.145620346069335938e+00,2.107589960098266602e+00,2.070884227752685547e+00,2.035435438156127930e+00,2.001179695129394531e+00,1.968057990074157715e+00,1.936014652252197266e+00,1.904997944831848145e+00,1.874959588050842285e+00,1.845853805541992188e+00
4.815310955047607422e+00,4.929617404937744141e+00,4.925459861755371094e+00,4.973846435546875000e+00,5.000000000000000000e+00,5.000000000000000000e+00,5.000000000000000000e+00,5.000000000000000000e+00,5.000000000000000000e+00,5.000000000000000000e+00,5.000000000000000000e+00,5.000000000000000000e+00,5.000000000000000000e+00,5.000000000000000000e+00,5.000000000000000000e+00,5.000000000000000000e+00,5.000000000000000000e+00,5.000000000000000000e+00,5.000000000000000000e+00,5.000000000000000000e+00,5.000000000000000000e+00,5.000000000000000000e+00,5.000000000000000000e+00,5.000000000000000000e+00,5.000000000000000000e+00,5.000000000000000000e+00,5.000000000000000000e+00,5.000000000000000000e+00,5.000000000000000000e+00,5.000000000000000000e+00,5.000000000000000000e+00,5.000000000000000000e+00,5.000000000000000000e+00,5.000000000000000000e+00,5.000000000000000000e+00,5.000000000000000000e+00,5.000000000000000000e+00,5.000000000000000000e+00,5.000000000000000000e+00,4.869658470153808594e+00,4.678075313568115234e+00,4.500997066497802734e+00,4.336835384368896484e+00,4.184226989746093750e+00,4.041993141174316406e+00,3.909112215042114258e+00,3.784689903259277344e+00,3.667943477630615234e+00,3.558183908462524414e+00,3.454802513122558594e+00,3.357259035110473633e+00,3.265072584152221680e+00,3.177813291549682617e+00,3.095096588134765625e+00,3.016577005386352539e+00,2.941942691802978516e+00,2.870911836624145508e+00,2.803230524063110352e+00,2.738667011260986328e+00,2.677010297775268555e+00,2.618068933486938477e+00,2.561666965484619141e+00,2.507643938064575195e+00,2.455852508544921875e+00,2.406156778335571289e+00,2.358432769775390625e+00,2.312565088272094727e+00,2.268447399139404297e+00,2.225981235504150391e+00,2.185076236724853516e+00,2.145647287368774414e+00,2.107615947723388672e+00,2.070909261703491211e+00,2.035459756851196289e+00,2.001203060150146484e+00,1.968080639839172363e+00,1.936036467552185059e+00,1.905019402503967285e+00,1.874980211257934570e+00,1.845873832702636719e+00
4.790760517120361328e+00,5.000000000000000000e+00,4.916966915130615234e+00,4.979405403137207031e+00,5.000000000000000000e+00,5.000000000000000000e+00,5.000000000000000000e+00,5.000000000000000000e+00,5.000000000000000000e+00,5.000000000000000000e+00,5.000000000000000000e+00,5.000000000000000000e+00,5.000000000000000000e+00,5.000000000000000000e+00,5.000000000000000000e+00,5.000000000000000000e+00,5.000000000000000000e+00,5.000000000000000000e+00,5.000000000000000000e+00,5.000000000000000000e+00,5.000000000000000000e+00,5.000000000000000000e+00,5.000000000000000000e+00,5.000000000000000000e+00,5.000000000000000000e+00,5.000000000000000000e+00,5.000000000000000000e+00,5.000000000000000000e+00,5.000000000000000000e+00,5.000000000000000000e+00,5.000000000000000000e+00,5.000000000000000000e+00,5.000000000000000000e+00,5.000000000000000000e+00,5.000000000000000000e+00,5.000000000000000000e+00,5.000000000000000000e+00,5.000000000000000000e+00,5.000000000000000000e+00,4.869797229766845703e+00,4.678203582763671875e+00,4.501115798950195312e+00,4.336945533752441406e+00,4.184329509735107422e+00,4.042088985443115234e+00,3.909201622009277344e+00,3.784773588180541992e+00,3.668022155761718750e+00,3.558258295059204102e+00,3.454872608184814453e+00,3.357325315475463867e+00,3.265135049819946289e+00,3.177872419357299805e+00,3.095152616500854492e+00,3.016630172729492188e+00,2.941993236541748047e+00,2.870960235595703125e+00,2.803276777267456055e+00,2.738711118698120117e+00,2.677052497863769531e+00,2.618108987808227539e+00,2.561705112457275391e+00,2.507680654525756836e+00,2.455887556076049805e+00,2.406190872192382812e+00,2.358465433120727539e+00,2.312596321105957031e+00,2.268477439880371094e+00,2.226010322570800781e+00,2.185104131698608398e+00,2.145674228668212891e+00,2.107641935348510742e+00,2.070934534072875977e+00,2.035484075546264648e+00,2.001226663589477539e+00,1.968103289604187012e+00,1.936058402061462402e+00,1.905040621757507324e+00,1.875000715255737305e+00,1.845893740653991699e+00
4.791120529174804688e+00,5.000000000000000000e+00,4.907913684844970703e+00,5.000000000000000000e+00,5.000000000000000000e+00,5.000000000000000000e+00,5.000000000000000000e+00,5.000000000000000000e+00,5.000000000000000000e+00,5.000000000000000000e+00,5.000000000000000000e+00,5.000000000000000000e+00,5.000000000000000000e+00,5.000000000000000000e+00,5.000000000000000000e+00,5.000000000000000000e+00,5.000000000000000000e+00,5.000000000000000000e+00,5.000000000000000000e+00,5.000000000000000000e+00,5.000000000000000000e+00,5.000000000000000000e+00,5.000000000000000000e+00,5.000000000000000000e+00,5.000000000000000000e+00,5.000000000000000000e+00,5.000000000000000000e+00,5.000000000000000000e+00,5.000000000000000000e+00,5.000000000000000000e+00,5.000000000000000000e+00,5.000000000000000000e+00,5.000000000000000000e+00,5.000000000000000000e+00,5.000000000000000000e+00,5.000000000000000000e+00,5.000000000000000000e+00,5.000000000000000000e+00,5.000000000000000000e+00,4.869935512542724609e+00,4.678332328796386719e+00,4.501234054565429688e+00,4.337055683135986328e+00,4.184432029724121094e+00,4.042184829711914062e+00,3.909291267395019531e+00,3.784857749938964844e+00,3.668101072311401367e+00,3.558332443237304688e+00,3.454942464828491211e+00,3.357391119003295898e+00,3.265197277069091797e+00,3.177931547164916992e+00,3.095208883285522461e+00,3.016683578491210938e+00,2.942044019699096680e+00,2.871008634567260742e+00,2.803322553634643555e+00,2.738754749298095703e+00,2.677094221115112305e+00,2.618149042129516602e+00,2.561743736267089844e+00,2.507717609405517578e+00,2.455923080444335938e+00,2.406224727630615234e+00,2.358497858047485352e+00,2.312627553939819336e+00,2.268507480621337891e+00,2.226039409637451172e+00,2.185132265090942383e+00,2.145701169967651367e+00,2.107668161392211914e+00,2.070959806442260742e+00,2.035508155822753906e+00,2.001250028610229492e+00,1.968125939369201660e+00,1.936080455780029297e+00,1.905061841011047363e+00,1.875021457672119141e+00,1.845913648605346680e+00
4.870092868804931641e+00,4.966170787811279297e+00,4.948322772979736328e+00,5.000000000000000000e+00,5.000000000000000000e+00,5.000000000000000000e+00,5.000000000000000000e+00,5.000000000000000000e+00,5.000000000000000000e+00,5.000000000000000000e+00,5.000000000000000000e+00,5.000000000000000000e+00,5.000000000000000000e+00,5.000000000000000000e+00,5.000000000000000000e+00,5.000000000000000000e+00,5.000000000000000000e+00,5.000000000000000000e+00,5.000000000000000000e+00,5.000000000000000000e+00,5.000000000000000000e+00,5.000000000000000000e+00,5.000000000000000000e+00,5.000000000000000000e+00,5.000000000000000000e+00,5.000000000000000000e+00,5.000000000000000000e+00,5.000000000000000000e+00,5.000000000000000000e+00,5.000000000000000000e+00,5.000000000000000000e+00,5.000000000000000000e+00,5.000000000000000000e+00,5.000000000000000000e+00,5.000000000000000000e+00,5.000000000000000000e+00,5.000000000000000000e+00,5.000000000000000000e+00,5.000000000000000000e+00,4.870074272155761719e+00,4.678459644317626953e+00,4.501352787017822266e+00,4.337165832519531250e+00,4.184534549713134766e+00,4.042280673980712891e+00,3.909380435943603516e+00,3.784941434860229492e+00,3.668179750442504883e+00,3.558406591415405273e+00,3.455012559890747070e+00,3.357457399368286133e+00,3.265259981155395508e+00,3.177990913391113281e+00,3.095264911651611328e+00,3.016736745834350586e+00,2.942094564437866211e+00,2.871056795120239258e+00,2.803368806838989258e+00,2.738798856735229492e+00,2.677136421203613281e+00,2.618189334869384766e+00,2.561782121658325195e+00,2.507754325866699219e+00,2.455958366394042969e+00,2.406258583068847656e+00,2.358530521392822266e+00,2.312659025192260742e+00,2.268537759780883789e+00,2.226068496704101562e+00,2.185160160064697266e+00,2.145728111267089844e+00,2.107694149017333984e+00,2.070984840393066406e+00,2.035532474517822266e+00,2.001273393630981445e+00,1.968148708343505859e+00,1.936102390289306641e+00,1.905082941055297852e+00,1.875041961669921875e+00,1.845933556556701660e+00
4.937430858612060547e+00,4.998129367828369141e+00,4.985262393951416016e+00,5.000000000000000000e+00,5.000000000000000000e+00,5.000000000000000000e+00,5.000000000000000000e+00,5.000000000000000000e+00,5.000000000000000000e+00,5.000000000000000000e+00,5.000000000000000000e+00,5.000000000000000000e+00,5.000000000000000000e+00,5.000000000000000000e+00,5.000000000000000000e+00,5.000000000000000000e+00,5.000000000000000000e+00,5.000000000000000000e+00,5.000000000000000000e+00,5.000000000000000000e+00,5.000000000000000000e+00,5.000000000000000000e+00,5.000000000000000000e+00,5.000000000000000000e+00,5.000000000000000000e+00,5.000000000000000000e+00,5.000000000000000000e+00,5.000000000000000000e+00,5.000000000000000000e+00,5.000000000000000000e+00,5.000000000000000000e+00,5.000000000000000000e+00,5.000000000000000000e+00,5.000000000000000000e+00,5.000000000000000000e+00,5.000000000000000000e+00,5.000000000000000000e+00,5.000000000000000000e+00,5.000000000000000000e+00,4.870213031768798828e+00,4.678587913513183594e+00,4.501471996307373047e+00,4.337275981903076172e+00,4.184637069702148438e+00,4.042376518249511719e+00,3.909470319747924805e+00,3.785025358200073242e+00,3.668258666992187500e+00,3.558480739593505859e+00,3.455082654953002930e+00,3.357523202896118164e+00,3.265322208404541016e+00,3.178049802780151367e+00,3.095321178436279297e+00,3.016790151596069336e+00,2.942145347595214844e+00,2.871105194091796875e+00,2.803415060043334961e+00,2.738842725753784180e+00,2.677178382873535156e+00,2.618229389190673828e+00,2.561820507049560547e+00,2.507791280746459961e+00,2.455993652343750000e+00,2.406292676925659180e+00,2.358563184738159180e+00,2.312690258026123047e+00,2.268567800521850586e+00,2.226097583770751953e+00,2.185188055038452148e+00,2.145755052566528320e+00,2.107720136642456055e+00,2.071009874343872070e+00,2.035556793212890625e+00,2.001296997070312500e+00,1.968171358108520508e+00,1.936124324798583984e+00,1.905104398727416992e+00,1.875062584877014160e+00,1.845953702926635742e+00
5.000000000000000000e+00,5.000000000000000000e+00,5.000000000000000000e+00,5.000000000000000000e+00,5.000000000000000000e+00,5.000000000000000000e+00,5.000000000000000000e+00,5.000000000000000000e+00,5.000000000000000000e+00,5.000000000000000000e+00,5.000000000000000000e+00,5.000000000000000000e+00,5.000000000000000000e+00,5.000000000000000000e+00,5.000000000000000000e+00,5.000000000000000000e+00,5.000000000000000000e+00,5.000000000000000000e+00,5.000000000000000000e+00,5.000000000000000000e+00,5.000000000000000000e+00,5.000000000000000000e+00,5.000000000000000000e+00,5.000000000000000000e+00,5.000000000000000000e+00,5.000000000000000000e+00,5.000000000000000000e+00,5.000000000000000000e+00,5.000000000000000000e+00,5.000000000000000000e+00,5.000000000000000000e+00,5.000000000000000000e+00,5.000000000000000000e+00,5.000000000000000000e+00,5.000000000000000000e+00,5.000000000000000000e+00,5.000000000000000000e+00,5.000000000000000000e+00,5.000000000000000000e+00,4.870352268218994141e+00,4.678716182708740234e+00,4.501589775085449219e+00,4.337386131286621094e+00,4.184739589691162109e+00,4.042471885681152344e+00,3.909559965133666992e+00,3.785109043121337891e+00,3.668337345123291016e+00,3.558554887771606445e+00,3.455152273178100586e+00,3.357589483261108398e+00,3.265384912490844727e+00,3.178109169006347656e+00,3.095377445220947266e+00,3.016843318939208984e+00,2.942195892333984375e+00,2.871153354644775391e+00,2.803460836410522461e+00,2.738886594772338867e+00,2.677220344543457031e+00,2.618269681930541992e+00,2.561859130859375000e+00,2.507827997207641602e+00,2.456028938293457031e+00,2.406326532363891602e+00,2.358595848083496094e+00,2.312721729278564453e+00,2.268598079681396484e+00,2.226126670837402344e+00,2.185216188430786133e+00,2.145781993865966797e+00,2.107746124267578125e+00,2.071034908294677734e+00,2.035581111907958984e+00,2.001320362091064453e+00,1.968194007873535156e+00,1.936146378517150879e+00,1.905125617980957031e+00,1.875083088874816895e+00,1.845973610877990723e+00
5.000000000000000000e+00,5.000000000000000000e+00,5.000000000000000000e+00,5.000000000000000000e+00,5.000000000000000000e+00,5.000000000000000000e+00,5.000000000000000000e+00,5.000000000000000000e+00,5.000000000000000000e+00,5.000000000000000000e+00,5.000000000000000000e+00,5.000000000000000000e+00,5.000000000000000000e+00,5.000000000000000000e+00,5.000000000000000000e+00,5.000000000000000000e+00,5.000000000000000000e+00,5.000000000000000000e+00,5.000000000000000000e+00,5.000000000000000000e+00,5.000000000000000000e+00,5.000000000000000000e+00,5.000000000000000000e+00,5.000000000000000000e+00,5.000000000000000000e+00,5.000000000000000000e+00,5.000000000000000000e+00,5.000000000000000000e+00,5.000000000000000000e+00,5.000000000000000000e+00,5.000000000000000000e+00,5.000000000000000000e+00,5.000000000000000000e+00,5.000000000000000000e+00,5.000000000000000000e+00,5.000000000000000000e+00,5.000000000000000000e+00,5.000000000000000000e+00,5.000000000000000000e+00,4.870491504669189453e+00,4.678843975067138672e+00,4.501708507537841797e+00,4.337495803833007812e+00,4.184842109680175781e+00,4.042567729949951172e+00,3.909649372100830078e+00,3.785193204879760742e+00,3.668416261672973633e+00,3.558629035949707031e+00,3.455222368240356445e+00,3.357655286788940430e+00,3.265447139739990234e+00,3.178168296813964844e+00,3.095433235168457031e+00,3.016896724700927734e+00,2.942246675491333008e+00,2.871201753616333008e+00,2.803507089614868164e+00,2.738930463790893555e+00,2.677262306213378906e+00,2.618309736251831055e+00,2.561897516250610352e+00,2.507864952087402344e+00,2.456064462661743164e+00,2.406360387802124023e+00,2.358628511428833008e+00,2.312752962112426758e+00,2.268628120422363281e+00,2.226155519485473633e+00,2.185244083404541016e+00,2.145808935165405273e+00,2.107772111892700195e+00,2.071060180664062500e+00,2.035605430603027344e+00,2.001343727111816406e+00,1.968216657638549805e+00,1.936168313026428223e+00,1.905146837234497070e+00,1.875103831291198730e+00,1.845993518829345703e+00
5.000000000000000000e+00,5.000000000000000000e+00,5.000000000000000000e+00,5.000000000000000000e+00,5.000000000000000000e+00,5.000000000000000000e+00,5.000000000000000000e+00,5.000000000000000000e+00,5.000000000000000000e+00,5.000000000000000000e+00,5.000000000000000000e+00,5.000000000000000000e+00,5.000000000000000000e+00,5.000000000000000000e+00,5.000000000000000000e+00,5.000000000000000000e+00,5.000000000000000000e+00,5.000000000000000000e+00,5.000000000000000000e+00,5.000000000000000000e+00,5.000000000000000000e+00,5.000000000000000000e+00,5.000000000000000000e+00,5.000000000000000000e+00,5.000000000000000000e+00,5.000000000000000000e+00,5.000000000000000000e+00,5.000000000000000000e+00,5.000000000000000000e+00,5.000000000000000000e+00,5.000000000000000000e+00,5.000000000000000000e+00,5.000000000000000000e+00,5.000000000000000000e+00,5.000000000000000000e+00,5.000000000000000000e+00,5.000000000000000000e+00,5.000000000000000000e+00,5.000000000000000000e+00,4.870630264282226562e+00,4.678972244262695312e+00,4.501827239990234375e+00,4.337605953216552734e+00,4.184944629669189453e+00,4.042663574218750000e+00,3.909739017486572266e+00,3.785277366638183594e+00,3.668494939804077148e+00,3.558703184127807617e+00,3.455292224884033203e+00,3.357721328735351562e+00,3.265509843826293945e+00,3.178227424621582031e+00,3.095489501953125000e+00,3.016950130462646484e+00,2.942297220230102539e+00,2.871249914169311523e+00,2.803552865982055664e+00,2.738974571228027344e+00,2.677304267883300781e+00,2.618350028991699219e+00,2.561935901641845703e+00,2.507901906967163086e+00,2.456099510192871094e+00,2.406394243240356445e+00,2.358660936355590820e+00,2.312784433364868164e+00,2.268658399581909180e+00,2.226184606552124023e+00,2.185271978378295898e+00,2.145836114883422852e+00,2.107798099517822266e+00,2.071085214614868164e+00,2.035629510879516602e+00,2.001367330551147461e+00,1.968239426612854004e+00,1.936190247535705566e+00,1.905168175697326660e+00,1.875124335289001465e+00,1.846013426780700684e+00
4.874150753021240234e+00,4.872952938079833984e+00,4.871755599975585938e+00,4.870558738708496094e+00,4.869362354278564453e+00,4.868166446685791016e+00,4.866971492767333984e+00,4.865777015686035156e+00,4.864583015441894531e+00,4.863389968872070312e+00,4.862197399139404297e+00,4.861005306243896484e+00,4.859813690185546875e+00,4.858622550964355469e+00,4.857432365417480469e+00,4.856242179870605469e+00,4.855052947998046875e+00,4.853864669799804688e+00,4.852676391601562500e+00,4.851489067077636719e+00,4.850302219390869141e+00,4.849115848541259766e+00,4.847930431365966797e+00,4.846745014190673828e+00,4.845560550689697266e+00,4.844376564025878906e+00,4.843193054199218750e+00,4.842010021209716797e+00,4.840827941894531250e+00,4.839646339416503906e+00,4.838464736938476562e+00,4.837284564971923828e+00,4.836104393005371094e+00,4.834925174713134766e+00,4.833745956420898438e+00,4.832568168640136719e+00,4.831390380859375000e+00,4.830213546752929688e+00,4.829036712646484375e+00,4.827860832214355469e+00,4.679100513458251953e+00,4.501945972442626953e+00,4.337716102600097656e+00,4.185047149658203125e+00,4.042758941650390625e+00,3.909828186035156250e+00,3.785361051559448242e+00,3.668573856353759766e+00,3.558777570724487305e+00,3.455362319946289062e+00,3.357787609100341797e+00,3.265572071075439453e+00,3.178286552429199219e+00,3.095545530319213867e+00,3.017003297805786133e+00,2.942348241806030273e+00,2.871298313140869141e+00,2.803599119186401367e+00,2.739018678665161133e+00,2.677346229553222656e+00,2.618390083312988281e+00,2.561974287033081055e+00,2.507938623428344727e+00,2.456135034561157227e+00,2.406428337097167969e+00,2.358693599700927734e+00,2.312815666198730469e+00,2.268688440322875977e+00,2.226213693618774414e+00,2.185299873352050781e+00,2.145863056182861328e+00,2.107824087142944336e+00,2.071110486984252930e+00,2.035653829574584961e+00,2.001390933990478516e+00,1.968262076377868652e+00,1.936212062835693359e+00,1.905189394950866699e+00,1.875144839286804199e+00,1.846033453941345215e+00
3.777126550674438477e+00,3.776407241821289062e+00,3.775687694549560547e+00,3.774969100952148438e+00,3.774250507354736328e+00,3.773531913757324219e+00,3.772814035415649414e+00,3.772096157073974609e+00,3.771378755569458008e+00,3.770661115646362305e+00,3.769944429397583008e+00,3.769227504730224609e+00,3.768511056900024414e+00,3.767794847488403320e+00,3.767079114913940430e+00,3.766363620758056641e+00,3.765648126602172852e+00,3.764933109283447266e+00,3.764218091964721680e+00,3.763503551483154297e+00,3.762789249420166016e+00,3.762075424194335938e+00,3.761361360549926758e+00,3.760648012161254883e+00,3.759934663772583008e+00,3.759222030639648438e+00,3.758509159088134766e+00,3.757797002792358398e+00,3.757085084915161133e+00,3.756372928619384766e+00,3.755661487579345703e+00,3.754950046539306641e+00,3.754239082336425781e+00,3.753528118133544922e+00,3.752817869186401367e+00,3.752107381820678711e+00,3.751397609710693359e+00,3.750687599182128906e+00,3.749978303909301758e+00,3.749269008636474609e+00,3.748560190200805664e+00,3.747851848602294922e+00,3.747143268585205078e+00,3.746435403823852539e+00,3.745727300643920898e+00,3.745019912719726562e+00,3.744312524795532227e+00,3.668652534484863281e+00,3.558851480484008789e+00,3.455431938171386719e+00,3.357853412628173828e+00,3.265634536743164062e+00,3.178345918655395508e+00,3.095601797103881836e+00,3.017056703567504883e+00,2.942398786544799805e+00,2.871346473693847656e+00,2.803644895553588867e+00,2.739062547683715820e+00,2.677388191223144531e+00,2.618430376052856445e+00,2.562012910842895508e+00,2.507975578308105469e+00,2.456170320510864258e+00,2.406462192535400391e+00,2.358726024627685547e+00,2.312846899032592773e+00,2.268718719482421875e+00,2.226242780685424805e+00,2.185328006744384766e+00,2.145889997482299805e+00,2.107850074768066406e+00,2.071135520935058594e+00,2.035678148269653320e+00,2.001414299011230469e+00,1.968284726142883301e+00,1.936234235763549805e+00,1.905210614204406738e+00,1.875165700912475586e+00,1.846053361892700195e+00
3.083193063735961914e+00,3.082713603973388672e+00,3.082234382629394531e+00,3.081755399703979492e+00,3.081276178359985352e+00,3.080797433853149414e+00,3.080318689346313477e+00,3.079840421676635742e+00,3.079361915588378906e+00,3.078883647918701172e+00,3.078405857086181641e+00,3.077927827835083008e+00,3.077450037002563477e+00,3.076972246170043945e+00,3.076494932174682617e+00,3.076017379760742188e+00,3.075540542602539062e+00,3.075063228607177734e+00,3.074586391448974609e+00,3.074109554290771484e+00,3.073633193969726562e+00,3.073156595230102539e+00,3.072680473327636719e+00,3.072204351425170898e+00,3.071728229522705078e+00,3.071252584457397461e+00,3.070776700973510742e+00,3.070301294326782227e+00,3.069825649261474609e+00,3.069350481033325195e+00,3.068875312805175781e+00,3.068400382995605469e+00,3.067925453186035156e+00,3.067451000213623047e+00,3.066976308822631836e+00,3.066502094268798828e+00,3.066027879714965820e+00,3.065553665161132812e+00,3.065079927444458008e+00,3.064605951309204102e+00,3.064132452011108398e+00,3.063658952713012695e+00,3.063185691833496094e+00,3.062712430953979492e+00,3.062239408493041992e+00,3.061766386032104492e+00,3.061293601989746094e+00,3.060821294784545898e+00,3.060348510742187500e+00,3.059876441955566406e+00,3.059404134750366211e+00,3.058932065963745117e+00,3.058459997177124023e+00,3.057988405227661133e+00,3.017109870910644531e+00,2.942449569702148438e+00,2.871394872665405273e+00,2.803691148757934570e+00,2.739106416702270508e+00,2.677430391311645508e+00,2.618470430374145508e+00,2.562051296234130859e+00,2.508012294769287109e+00,2.456205606460571289e+00,2.406496047973632812e+00,2.358758687973022461e+00,2.312878370285034180e+00,2.268748760223388672e+00,2.226271629333496094e+00,2.185355901718139648e+00,2.145916938781738281e+00,2.107876300811767578e+00,2.071160554885864258e+00,2.035702466964721680e+00,2.001437664031982422e+00,1.968307614326477051e+00,1.936256170272827148e+00,1.905231833457946777e+00,1.875186204910278320e+00,1.846073269844055176e+00
2.604664087295532227e+00,2.604321956634521484e+00,2.603979825973510742e+00,2.603637933731079102e+00,2.603296041488647461e+00,2.602954387664794922e+00,2.602612495422363281e+00,2.602271080017089844e+00,2.601929426193237305e+00,2.601588010787963867e+00,2.601246595382690430e+00,2.600905418395996094e+00,2.600564241409301758e+00,2.600223302841186523e+00,2.599882125854492188e+00,2.599541425704956055e+00,2.599200487136840820e+00,2.598859786987304688e+00,2.598519086837768555e+00,2.598178625106811523e+00,2.597838163375854492e+00,2.597497701644897461e+00,2.597157478332519531e+00,2.596817255020141602e+00,2.596477270126342773e+00,2.596137285232543945e+00,2.595797300338745117e+00,2.595457315444946289e+00,2.595117807388305664e+00,2.594778299331665039e+00,2.594438552856445312e+00,2.594099283218383789e+00,2.593759775161743164e+00,2.593420505523681641e+00,2.593081235885620117e+00,2.592742204666137695e+00,2.592402935028076172e+00,2.592064142227172852e+00,2.591725349426269531e+00,2.591386556625366211e+00,2.591047763824462891e+00,2.590709209442138672e+00,2.590370893478393555e+00,2.590032339096069336e+00,2.589694261550903320e+00,2.589355707168579102e+00,2.589017868041992188e+00,2.588679552078247070e+00,2.588341712951660156e+00,2.588003873825073242e+00,2.587666034698486328e+00,2.587328195571899414e+00,2.586990833282470703e+00,2.586653232574462891e+00,2.586315870285034180e+00,2.585978507995605469e+00,2.585641145706176758e+00,2.585304021835327148e+00,2.584966897964477539e+00,2.584630012512207031e+00,2.584293127059936523e+00,2.562089681625366211e+00,2.508049249649047852e+00,2.456241130828857422e+00,2.406529903411865234e+00,2.358791351318359375e+00,2.312909603118896484e+00,2.268778800964355469e+00,2.226300716400146484e+00,2.185384035110473633e+00,2.145943880081176758e+00,2.107902288436889648e+00,2.071185827255249023e+00,2.035726547241210938e+00,2.001461029052734375e+00,1.968330264091491699e+00,1.936277985572814941e+00,1.905253291130065918e+00,1.875206708908081055e+00,1.846093416213989258e+00
2.254770517349243164e+00,2.254511594772338867e+00,2.254253149032592773e+00,2.253994464874267578e+00,2.253736019134521484e+00,2.253477573394775391e+00,2.253219127655029297e+00,2.252960681915283203e+00,2.252702474594116211e+00,2.252444267272949219e+00,2.252186059951782227e+00,2.251927852630615234e+00,2.251669883728027344e+00,2.251411914825439453e+00,2.251153945922851562e+00,2.250896215438842773e+00,2.250638246536254883e+00,2.250380516052246094e+00,2.250122785568237305e+00,2.249865055084228516e+00,2.249607563018798828e+00,2.249350070953369141e+00,2.249092578887939453e+00,2.248836755752563477e+00,2.248581886291503906e+00,2.248326778411865234e+00,2.248071908950805664e+00,2.247816801071166992e+00,2.247562170028686523e+00,2.247307300567626953e+00,2.247052669525146484e+00,2.246798038482666016e+00,2.246543407440185547e+00,2.246288776397705078e+00,2.246034383773803711e+00,2.245779991149902344e+00,2.245525598526000977e+00,2.245271205902099609e+00,2.245017051696777344e+00,2.244762897491455078e+00,2.244508743286132812e+00,2.244254589080810547e+00,2.244000673294067383e+00,2.243746757507324219e+00,2.243492603302001953e+00,2.243238925933837891e+00,2.242985010147094727e+00,2.242731332778930664e+00,2.242477655410766602e+00,2.242223978042602539e+00,2.241970539093017578e+00,2.241717100143432617e+00,2.241463661193847656e+00,2.241210222244262695e+00,2.240956783294677734e+00,2.240703582763671875e+00,2.240450382232666016e+00,2.240197181701660156e+00,2.239944219589233398e+00,2.239691019058227539e+00,2.239438056945800781e+00,2.239185333251953125e+00,2.238932371139526367e+00,2.238679647445678711e+00,2.238426685333251953e+00,2.238173961639404297e+00,2.237921237945556641e+00,2.237668752670288086e+00,2.226329803466796875e+00,2.185411930084228516e+00,2.145970821380615234e+00,2.107928276062011719e+00,2.071210861206054688e+00,2.035751104354858398e+00,2.001484632492065430e+00,1.968352913856506348e+00,1.936300158500671387e+00,1.905274510383605957e+00,1.875227212905883789e+00,1.846113324165344238e+00
1.987851262092590332e+00,1.987650036811828613e+00,1.987449049949645996e+00,1.987247943878173828e+00,1.987047195434570312e+00,1.986846208572387695e+00,1.986645340919494629e+00,1.986444473266601562e+00,1.986243605613708496e+00,1.986042857170104980e+00,1.985842108726501465e+00,1.985641598701477051e+00,1.985440969467163086e+00,1.985240340232849121e+00,1.985039710998535156e+00,1.984839200973510742e+00,1.984638690948486328e+00,1.984438419342041016e+00,1.984237909317016602e+00,1.984037518501281738e+00,1.983837246894836426e+00,1.983636856079101562e+00,1.983436584472656250e+00,1.983236432075500488e+00,1.983036518096923828e+00,1.982836365699768066e+00,1.982636213302612305e+00,1.982436180114746094e+00,1.982236146926879883e+00,1.982036113739013672e+00,1.981836438179016113e+00,1.981636524200439453e+00,1.981436610221862793e+00,1.981236815452575684e+00,1.981037020683288574e+00,1.980837225914001465e+00,1.980637550354003906e+00,1.980438113212585449e+00,1.980238556861877441e+00,1.980038881301879883e+00,1.979839324951171875e+00,1.979639887809753418e+00,1.979440450668334961e+00,1.979241251945495605e+00,1.979041814804077148e+00,1.978842496871948242e+00,1.978643178939819336e+00,1.978443861007690430e+00,1.978244662284851074e+00,1.978045463562011719e+00,1.977846622467041016e+00,1.977647423744201660e+00,1.977448344230651855e+00,1.977249383926391602e+00,1.977050423622131348e+00,1.976851463317871094e+00,1.976652741432189941e+00,1.976453900337219238e+00,1.976255059242248535e+00,1.976056337356567383e+00,1.975857496261596680e+00,1.975658774375915527e+00,1.975460171699523926e+00,1.975261807441711426e+00,1.975063204765319824e+00,1.974864602088928223e+00,1.974666118621826172e+00,1.974467635154724121e+00,1.974269270896911621e+00,1.974071145057678223e+00,1.973872780799865723e+00,1.973674416542053223e+00,1.973476171493530273e+00,1.973277926445007324e+00,1.973079800605773926e+00,1.968375444412231445e+00,1.936322093009948730e+00,1.905295729637145996e+00,1.875247955322265625e+00,1.846133232116699219e+00
1.777438402175903320e+00,1.777277588844299316e+00,1.777116775512695312e+00,1.776956319808959961e+00,1.776795506477355957e+00,1.776634812355041504e+00,1.776474237442016602e+00,1.776313543319702148e+00,1.776152968406677246e+00,1.775992393493652344e+00,1.775832056999206543e+00,1.775671601295471191e+00,1.775511145591735840e+00,1.775350689888000488e+00,1.775190234184265137e+00,1.775029778480529785e+00,1.774869680404663086e+00,1.774709343910217285e+00,1.774549007415771484e+00,1.774388670921325684e+00,1.774228453636169434e+00,1.774068236351013184e+00,1.773908019065856934e+00,1.773748040199279785e+00,1.773587942123413086e+00,1.773427844047546387e+00,1.773267745971679688e+00,1.773107767105102539e+00,1.772947669029235840e+00,1.772787928581237793e+00,1.772627949714660645e+00,1.772467970848083496e+00,1.772308111190795898e+00,1.772148251533508301e+00,1.771988391876220703e+00,1.771828532218933105e+00,1.771668910980224609e+00,1.771509170532226562e+00,1.771349430084228516e+00,1.771189808845520020e+00,1.771030068397521973e+00,1.770870447158813477e+00,1.770711064338684082e+00,1.770551443099975586e+00,1.770391821861267090e+00,1.770232319831848145e+00,1.770072817802429199e+00,1.769913315773010254e+00,1.769753932952880859e+00,1.769594669342041016e+00,1.769435286521911621e+00,1.769275903701782227e+00,1.769116640090942383e+00,1.768957257270812988e+00,1.768797993659973145e+00,1.768638968467712402e+00,1.768479824066162109e+00,1.768320560455322266e+00,1.768161416053771973e+00,1.768002271652221680e+00,1.767843246459960938e+00,1.767684102058410645e+00,1.767525315284729004e+00,1.767366290092468262e+00,1.767207264900207520e+00,1.767048358917236328e+00,1.766889452934265137e+00,1.766730546951293945e+00,1.766571760177612305e+00,1.766412973403930664e+00,1.766254186630249023e+00,1.766095399856567383e+00,1.765936613082885742e+00,1.765777945518493652e+00,1.765619158744812012e+00,1.765460729598999023e+00,1.765302181243896484e+00,1.765143513679504395e+00,1.764984965324401855e+00,1.764826416969299316e+00
1.607306003570556641e+00,1.607174515724182129e+00,1.607043266296386719e+00,1.606911778450012207e+00,1.606780290603637695e+00,1.606648921966552734e+00,1.606517553329467773e+00,1.606386184692382812e+00,1.606255054473876953e+00,1.606123685836791992e+00,1.605992436408996582e+00,1.605861067771911621e+00,1.605729818344116211e+00,1.605598568916320801e+00,1.605467438697814941e+00,1.605336308479309082e+00,1.605205178260803223e+00,1.605074048042297363e+00,1.604942917823791504e+00,1.604811787605285645e+00,1.604680776596069336e+00,1.604549765586853027e+00,1.604418754577636719e+00,1.604287743568420410e+00,1.604156732559204102e+00,1.604025840759277344e+00,1.603894829750061035e+00,1.603763937950134277e+00,1.603633165359497070e+00,1.603502273559570312e+00,1.603371381759643555e+00,1.603240489959716797e+00,1.603109717369079590e+00,1.602978825569152832e+00,1.602848291397094727e+00,1.602717518806457520e+00,1.602586746215820312e+00,1.602455973625183105e+00,1.602325320243835449e+00,1.602194666862487793e+00,1.602064013481140137e+00,1.601933479309082031e+00,1.601802945137023926e+00,1.601672291755676270e+00,1.601541757583618164e+00,1.601411223411560059e+00,1.601280689239501953e+00,1.601150274276733398e+00,1.601019859313964844e+00,1.600889325141906738e+00,1.600758910179138184e+00,1.600628495216369629e+00,1.600498080253601074e+00,1.600367665290832520e+00,1.600237488746643066e+00,1.600107192993164062e+00,1.599976778030395508e+00,1.599846482276916504e+00,1.599716186523437500e+00,1.599586009979248047e+00,1.599455952644348145e+00,1.599325656890869141e+00,1.599195480346679688e+00,1.599065303802490234e+00,1.598935246467590332e+00,1.598805069923400879e+00,1.598675012588500977e+00,1.598545074462890625e+00,1.598415017127990723e+00,1.598284959793090820e+00,1.598154902458190918e+00,1.598024964332580566e+00,1.597894906997680664e+00,1.597765088081359863e+00,1.597635269165039062e+00,1.597505331039428711e+00,1.597375392913818359e+00,1.597245573997497559e+00,1.597115635871887207e+00,1.596985816955566406e+00
1.466897845268249512e+00,1.466788530349731445e+00,1.466678977012634277e+00,1.466569542884826660e+00,1.466459989547729492e+00,1.466350555419921875e+00,1.466241121292114258e+00,1.466131806373596191e+00,1.466022372245788574e+00,1.465913057327270508e+00,1.465803623199462891e+00,1.465694308280944824e+00,1.465584993362426758e+00,1.465475559234619141e+00,1.465366363525390625e+00,1.465257167816162109e+00,1.465147852897644043e+00,1.465038537979125977e+00,1.464929342269897461e+00,1.464820146560668945e+00,1.464711070060729980e+00,1.464601874351501465e+00,1.464492678642272949e+00,1.464383482933044434e+00,1.464274287223815918e+00,1.464165210723876953e+00,1.464056134223937988e+00,1.463947057723999023e+00,1.463837981224060059e+00,1.463728904724121094e+00,1.463619947433471680e+00,1.463510870933532715e+00,1.463401794433593750e+00,1.463292956352233887e+00,1.463183999061584473e+00,1.463075041770935059e+00,1.462966084480285645e+00,1.462857127189636230e+00,1.462748169898986816e+00,1.462639331817626953e+00,1.462530612945556641e+00,1.462421655654907227e+00,1.462312817573547363e+00,1.462203979492187500e+00,1.462095141410827637e+00,1.461986422538757324e+00,1.461877703666687012e+00,1.461768984794616699e+00,1.461660146713256836e+00,1.461551427841186523e+00,1.461442708969116211e+00,1.461333990097045898e+00,1.461225271224975586e+00,1.461116790771484375e+00,1.461008071899414062e+00,1.460899472236633301e+00,1.460790872573852539e+00,1.460682272911071777e+00,1.460573673248291016e+00,1.460465192794799805e+00,1.460356593132019043e+00,1.460248112678527832e+00,1.460139513015747070e+00,1.460031032562255859e+00,1.459922552108764648e+00,1.459814071655273438e+00,1.459705710411071777e+00,1.459597229957580566e+00,1.459488749504089355e+00,1.459380388259887695e+00,1.459272027015686035e+00,1.459163546562194824e+00,1.459055304527282715e+00,1.458946943283081055e+00,1.458838701248168945e+00,1.458730340003967285e+00,1.458621978759765625e+00,1.458513736724853516e+00,1.458405494689941406e+00,1.458297371864318848e+00
1.349050045013427734e+00,1.348957419395446777e+00,1.348864793777465820e+00,1.348772168159484863e+00,1.348679661750793457e+00,1.348587036132812500e+00,1.348494529724121094e+00,1.348402023315429688e+00,1.348309516906738281e+00,1.348217010498046875e+00,1.348124384880065918e+00,1.348031878471374512e+00,1.347939610481262207e+00,1.347847104072570801e+00,1.347754597663879395e+00,1.347662210464477539e+00,1.347569704055786133e+00,1.347477316856384277e+00,1.347384929656982422e+00,1.347292661666870117e+00,1.347200274467468262e+00,1.347107887268066406e+00,1.347015500068664551e+00,1.346923112869262695e+00,1.346830725669860840e+00,1.346738576889038086e+00,1.346646308898925781e+00,1.346553921699523926e+00,1.346461653709411621e+00,1.346369385719299316e+00,1.346277117729187012e+00,1.346184849739074707e+00,1.346092700958251953e+00,1.346000552177429199e+00,1.345908284187316895e+00,1.345816135406494141e+00,1.345723867416381836e+00,1.345631718635559082e+00,1.345539689064025879e+00,1.345447540283203125e+00,1.345355391502380371e+00,1.345263242721557617e+00,1.345171093940734863e+00,1.345079064369201660e+00,1.344986915588378906e+00,1.344895005226135254e+00,1.344802856445312500e+00,1.344710826873779297e+00,1.344618797302246094e+00,1.344526767730712891e+00,1.344434738159179688e+00,1.344342947006225586e+00,1.344250917434692383e+00,1.344158887863159180e+00,1.344066977500915527e+00,1.343975067138671875e+00,1.343883037567138672e+00,1.343791127204895020e+00,1.343699336051940918e+00,1.343607425689697266e+00,1.343515515327453613e+00,1.343423724174499512e+00,1.343331813812255859e+00,1.343240022659301758e+00,1.343148231506347656e+00,1.343056440353393555e+00,1.342964649200439453e+00,1.342872738838195801e+00,1.342781066894531250e+00,1.342689275741577148e+00,1.342597484588623047e+00,1.342505812644958496e+00,1.342414140701293945e+00,1.342322349548339844e+00,1.342230677604675293e+00,1.342139005661010742e+00,1.342047214508056641e+00,1.341955661773681641e+00,1.341863989830017090e+00,1.341772437095642090e+00
1.248729467391967773e+00,1.248650074005126953e+00,1.248570799827575684e+00,1.248491406440734863e+00,1.248412013053894043e+00,1.248332858085632324e+00,1.248253464698791504e+00,1.248174190521240234e+00,1.248094916343688965e+00,1.248015642166137695e+00,1.247936367988586426e+00,1.247857213020324707e+00,1.247777938842773438e+00,1.247698664665222168e+00,1.247619390487670898e+00,1.247540235519409180e+00,1.247460961341857910e+00,1.247381806373596191e+00,1.247302651405334473e+00,1.247223496437072754e+00,1.247144341468811035e+00,1.247065067291259766e+00,1.246985912322998047e+00,1.246906876564025879e+00,1.246827721595764160e+00,1.246748685836791992e+00,1.246669530868530273e+00,1.246590375900268555e+00,1.246511340141296387e+00,1.246432185173034668e+00,1.246353149414062500e+00,1.246274232864379883e+00,1.246195077896118164e+00,1.246116042137145996e+00,1.246037006378173828e+00,1.245957970619201660e+00,1.245879054069519043e+00,1.245800137519836426e+00,1.245721101760864258e+00,1.245642066001892090e+00,1.245563149452209473e+00,1.245484113693237305e+00,1.245405197143554688e+00,1.245326280593872070e+00,1.245247364044189453e+00,1.245168447494506836e+00,1.245089530944824219e+00,1.245010614395141602e+00,1.244931817054748535e+00,1.244852900505065918e+00,1.244774103164672852e+00,1.244695186614990234e+00,1.244616389274597168e+00,1.244537472724914551e+00,1.244458675384521484e+00,1.244379878044128418e+00,1.244301080703735352e+00,1.244222283363342285e+00,1.244143486022949219e+00,1.244064807891845703e+00,1.243986010551452637e+00,1.243907213211059570e+00,1.243828415870666504e+00,1.243749856948852539e+00,1.243671059608459473e+00,1.243592381477355957e+00,1.243513584136962891e+00,1.243434906005859375e+00,1.243356227874755859e+00,1.243277549743652344e+00,1.243198990821838379e+00,1.243120312690734863e+00,1.243041634559631348e+00,1.242962956428527832e+00,1.242884397506713867e+00,1.242805719375610352e+00,1.242727160453796387e+00,1.242648601531982422e+00,1.242570042610168457e+00,1.242491364479064941e+00
1.162296533584594727e+00,1.162227869033813477e+00,1.162159085273742676e+00,1.162090420722961426e+00,1.162021636962890625e+00,1.161952972412109375e+00,1.161884188652038574e+00,1.161815524101257324e+00,1.161746740341186523e+00,1.161678075790405273e+00,1.161609530448913574e+00,1.161540746688842773e+00,1.161472082138061523e+00,1.161403417587280273e+00,1.161334753036499023e+00,1.161266207695007324e+00,1.161197543144226074e+00,1.161128997802734375e+00,1.161060333251953125e+00,1.160991787910461426e+00,1.160923123359680176e+00,1.160854578018188477e+00,1.160785913467407227e+00,1.160717368125915527e+00,1.160648822784423828e+00,1.160580277442932129e+00,1.160511732101440430e+00,1.160443186759948730e+00,1.160374641418457031e+00,1.160306215286254883e+00,1.160237669944763184e+00,1.160169124603271484e+00,1.160100579261779785e+00,1.160032153129577637e+00,1.159963607788085938e+00,1.159895181655883789e+00,1.159826755523681641e+00,1.159758210182189941e+00,1.159689784049987793e+00,1.159621357917785645e+00,1.159552931785583496e+00,1.159484505653381348e+00,1.159416079521179199e+00,1.159347653388977051e+00,1.159279227256774902e+00,1.159210801124572754e+00,1.159142494201660156e+00,1.159074068069458008e+00,1.159005641937255859e+00,1.158937335014343262e+00,1.158869028091430664e+00,1.158800721168518066e+00,1.158732295036315918e+00,1.158663988113403320e+00,1.158595681190490723e+00,1.158527374267578125e+00,1.158459067344665527e+00,1.158390760421752930e+00,1.158322453498840332e+00,1.158254146575927734e+00,1.158185958862304688e+00,1.158117651939392090e+00,1.158049464225769043e+00,1.157981157302856445e+00,1.157912969589233398e+00,1.157844662666320801e+00,1.157776474952697754e+00,1.157708287239074707e+00,1.157639980316162109e+00,1.157571911811828613e+00,1.157503724098205566e+00,1.157435536384582520e+00,1.157367348670959473e+00,1.157299160957336426e+00,1.157230973243713379e+00,1.157162904739379883e+00,1.157094717025756836e+00,1.157026529312133789e+00,1.156958460807800293e+00,1.156890273094177246e+00
1.087054252624511719e+00,1.086994171142578125e+00,1.086934089660644531e+00,1.086873888969421387e+00,1.086813807487487793e+00,1.086753606796264648e+00,1.086693525314331055e+00,1.086633443832397461e+00,1.086573362350463867e+00,1.086513280868530273e+00,1.086453199386596680e+00,1.086393117904663086e+00,1.086333036422729492e+00,1.086272954940795898e+00,1.086212992668151855e+00,1.086152911186218262e+00,1.086092948913574219e+00,1.086032867431640625e+00,1.085972785949707031e+00,1.085912823677062988e+00,1.085852742195129395e+00,1.085792779922485352e+00,1.085732817649841309e+00,1.085672855377197266e+00,1.085612893104553223e+00,1.085552811622619629e+00,1.085492849349975586e+00,1.085432887077331543e+00,1.085373044013977051e+00,1.085313081741333008e+00,1.085253119468688965e+00,1.085193157196044922e+00,1.085133194923400879e+00,1.085073232650756836e+00,1.085013389587402344e+00,1.084953546524047852e+00,1.084893584251403809e+00,1.084833741188049316e+00,1.084773778915405273e+00,1.084713816642761230e+00,1.084653973579406738e+00,1.084594130516052246e+00,1.084534287452697754e+00,1.084474444389343262e+00,1.084414601325988770e+00,1.084354758262634277e+00,1.084294915199279785e+00,1.084235072135925293e+00,1.084175229072570801e+00,1.084115386009216309e+00,1.084055662155151367e+00,1.083995819091796875e+00,1.083935976028442383e+00,1.083876132965087891e+00,1.083816409111022949e+00,1.083756685256958008e+00,1.083696842193603516e+00,1.083637118339538574e+00,1.083577394485473633e+00,1.083517551422119141e+00,1.083457827568054199e+00,1.083398103713989258e+00,1.083338379859924316e+00,1.083278656005859375e+00,1.083218932151794434e+00,1.083159208297729492e+00,1.083099484443664551e+00,1.083039879798889160e+00,1.082980155944824219e+00,1.082920432090759277e+00,1.082860708236694336e+00,1.082801103591918945e+00,1.082741379737854004e+00,1.082681655883789062e+00,1.082622170448303223e+00,1.082562446594238281e+00,1.082502841949462891e+00,1.082443118095397949e+00,1.082383513450622559e+00,1.082323908805847168e+00
1.020961403846740723e+00,1.020908474922180176e+00,1.020855426788330078e+00,1.020802378654479980e+00,1.020749330520629883e+00,1.020696282386779785e+00,1.020643234252929688e+00,1.020590186119079590e+00,1.020537257194519043e+00,1.020484209060668945e+00,1.020431280136108398e+00,1.020378232002258301e+00,1.020325183868408203e+00,1.020272254943847656e+00,1.020219326019287109e+00,1.020166397094726562e+00,1.020113348960876465e+00,1.020060420036315918e+00,1.020007491111755371e+00,1.019954442977905273e+00,1.019901514053344727e+00,1.019848704338073730e+00,1.019795775413513184e+00,1.019742727279663086e+00,1.019689798355102539e+00,1.019636988639831543e+00,1.019584059715270996e+00,1.019531130790710449e+00,1.019478201866149902e+00,1.019425392150878906e+00,1.019372463226318359e+00,1.019319534301757812e+00,1.019266724586486816e+00,1.019213795661926270e+00,1.019160985946655273e+00,1.019108176231384277e+00,1.019055247306823730e+00,1.019002437591552734e+00,1.018949508666992188e+00,1.018896698951721191e+00,1.018843889236450195e+00,1.018791079521179199e+00,1.018738269805908203e+00,1.018685460090637207e+00,1.018632650375366211e+00,1.018579840660095215e+00,1.018527030944824219e+00,1.018474221229553223e+00,1.018421411514282227e+00,1.018368601799011230e+00,1.018315911293029785e+00,1.018263101577758789e+00,1.018210291862487793e+00,1.018157601356506348e+00,1.018104791641235352e+00,1.018052101135253906e+00,1.017999291419982910e+00,1.017946600914001465e+00,1.017893791198730469e+00,1.017841100692749023e+00,1.017788410186767578e+00,1.017735719680786133e+00,1.017683029174804688e+00,1.017630219459533691e+00,1.017577528953552246e+00,1.017524838447570801e+00,1.017472267150878906e+00,1.017419576644897461e+00,1.017366886138916016e+00,1.017314195632934570e+00,1.017261505126953125e+00,1.017208814620971680e+00,1.017156124114990234e+00,1.017103552818298340e+00,1.017050862312316895e+00,1.016998171806335449e+00,1.016945600509643555e+00,1.016892910003662109e+00,1.016840338706970215e+00,1.016787767410278320e+00
9.624449014663696289e-01,9.623977541923522949e-01,9.623506069183349609e-01,9.623034596443176270e-01,9.622563123703002930e-01,9.622091650962829590e-01,9.621621966361999512e-01,9.621150493621826172e-01,9.620679616928100586e-01,9.620208144187927246e-01,9.619737267494201660e-01,9.619266390800476074e-01,9.618795514106750488e-01,9.618324041366577148e-01,9.617853164672851562e-01,9.617382884025573730e-01,9.616912007331848145e-01,9.616441130638122559e-01,9.615970253944396973e-01,9.615500569343566895e-01,9.615030288696289062e-01,9.614559412002563477e-01,9.614089131355285645e-01,9.613618850708007812e-01,9.613148570060729980e-01,9.612677693367004395e-01,9.612207412719726562e-01,9.611737132072448730e-01,9.611266851425170898e-01,9.610796570777893066e-01,9.610326886177062988e-01,9.609856605529785156e-01,9.609387516975402832e-01,9.608917832374572754e-01,9.608447551727294922e-01,9.607977867126464844e-01,9.607508182525634766e-01,9.607037901878356934e-01,9.606568217277526855e-01,9.606098532676696777e-01,9.605628848075866699e-01,9.605159163475036621e-01,9.604689478874206543e-01,9.604220390319824219e-01,9.603750705718994141e-01,9.603282213211059570e-01,9.602812528610229492e-01,9.602343440055847168e-01,9.601874351501464844e-01,9.601404666900634766e-01,9.600935578346252441e-01,9.600466489791870117e-01,9.599997401237487793e-01,9.599528312683105469e-01,9.599059224128723145e-01,9.598590135574340820e-01,9.598121047019958496e-01,9.597651958465576172e-01,9.597184658050537109e-01,9.596715569496154785e-01,9.596247076988220215e-01,9.595777988433837891e-01,9.595309495925903320e-01,9.594841003417968750e-01,9.594372510910034180e-01,9.593903422355651855e-01,9.593434929847717285e-01,9.592966437339782715e-01,9.592498540878295898e-01,9.592030048370361328e-01,9.591561555862426758e-01,9.591094255447387695e-01,9.590626358985900879e-01,9.590157866477966309e-01,9.589689970016479492e-01,9.589222073554992676e-01,9.588753581047058105e-01,9.588285684585571289e-01,9.587817788124084473e-01,9.587349891662597656e-01
9.102724790573120117e-01,9.102303385734558105e-01,9.101881384849548340e-01,9.101459980010986328e-01,9.101037979125976562e-01,9.100616574287414551e-01,9.100195169448852539e-01,9.099773764610290527e-01,9.099351763725280762e-01,9.098930358886718750e-01,9.098508954048156738e-01,9.098087549209594727e-01,9.097667336463928223e-01,9.097245931625366211e-01,9.096825122833251953e-01,9.096403717994689941e-01,9.095982313156127930e-01,9.095561504364013672e-01,9.095140099525451660e-01,9.094719290733337402e-01,9.094298481941223145e-01,9.093877077102661133e-01,9.093456268310546875e-01,9.093035459518432617e-01,9.092614650726318359e-01,9.092195034027099609e-01,9.091774225234985352e-01,9.091353416442871094e-01,9.090932607650756836e-01,9.090511798858642578e-01,9.090090990066528320e-01,9.089670777320861816e-01,9.089249968528747559e-01,9.088829755783081055e-01,9.088408946990966797e-01,9.087988734245300293e-01,9.087568521499633789e-01,9.087147712707519531e-01,9.086728692054748535e-01,9.086308479309082031e-01,9.085888266563415527e-01,9.085468053817749023e-01,9.085047841072082520e-01,9.084627628326416016e-01,9.084207415580749512e-01,9.083787798881530762e-01,9.083367586135864258e-01,9.082947373390197754e-01,9.082527756690979004e-01,9.082107543945312500e-01,9.081687927246093750e-01,9.081268906593322754e-01,9.080849289894104004e-01,9.080429673194885254e-01,9.080010056495666504e-01,9.079590439796447754e-01,9.079170823097229004e-01,9.078751206398010254e-01,9.078331589698791504e-01,9.077911972999572754e-01,9.077492356300354004e-01,9.077073335647583008e-01,9.076653718948364258e-01,9.076234698295593262e-01,9.075816273689270020e-01,9.075396656990051270e-01,9.074977636337280273e-01,9.074558615684509277e-01,9.074139595031738281e-01,9.073719978332519531e-01,9.073300957679748535e-01,9.072881937026977539e-01,9.072462916374206543e-01,9.072044491767883301e-01,9.071625471115112305e-01,9.071206450462341309e-01,9.070787429809570312e-01,9.070369601249694824e-01,9.069951176643371582e-01,9.069532155990600586e-01
8.634654879570007324e-01,8.634275794029235840e-01,8.633896112442016602e-01,8.633516430854797363e-01,8.633137941360473633e-01,8.632758855819702148e-01,8.632379174232482910e-01,8.632000088691711426e-01,8.631621003150939941e-01,8.631241917610168457e-01,8.630862236022949219e-01,8.630483150482177734e-01,8.630104064941406250e-01,8.629724979400634766e-01,8.629345893859863281e-01,8.628966808319091797e-01,8.628587722778320312e-01,8.628209829330444336e-01,8.627830743789672852e-01,8.627452254295349121e-01,8.627073168754577637e-01,8.626694679260253906e-01,8.626315593719482422e-01,8.625937104225158691e-01,8.625558018684387207e-01,8.625179529190063477e-01,8.624800443649291992e-01,8.624421954154968262e-01,8.624043464660644531e-01,8.623664975166320801e-01,8.623287081718444824e-01,8.622908592224121094e-01,8.622530102729797363e-01,8.622151613235473633e-01,8.621773719787597656e-01,8.621395230293273926e-01,8.621016740798950195e-01,8.620638251304626465e-01,8.620260357856750488e-01,8.619881868362426758e-01,8.619503974914550781e-01,8.619125485420227051e-01,8.618747591972351074e-01,8.618370294570922852e-01,8.617992401123046875e-01,8.617613911628723145e-01,8.617236018180847168e-01,8.616858124732971191e-01,8.616480231285095215e-01,8.616102337837219238e-01,8.615724444389343262e-01,8.615346550941467285e-01,8.614968657493591309e-01,8.614590764045715332e-01,8.614213466644287109e-01,8.613835573196411133e-01,8.613458871841430664e-01,8.613080978393554688e-01,8.612703680992126465e-01,8.612325787544250488e-01,8.611948490142822266e-01,8.611571192741394043e-01,8.611193299293518066e-01,8.610816001892089844e-01,8.610438704490661621e-01,8.610061407089233398e-01,8.609684109687805176e-01,8.609306812286376953e-01,8.608929514884948730e-01,8.608552813529968262e-01,8.608176112174987793e-01,8.607798814773559570e-01,8.607421517372131348e-01,8.607044219970703125e-01,8.606667518615722656e-01,8.606290221214294434e-01,8.605913519859313965e-01,8.605536222457885742e-01,8.605159521102905273e-01,8.604782223701477051e-01
8.212369084358215332e-01,8.212025761604309082e-01,8.211682438850402832e-01,8.211339116096496582e-01,8.210995793342590332e-01,8.210652470588684082e-01,8.210309743881225586e-01,8.209966421127319336e-01,8.209623694419860840e-01,8.209280967712402344e-01,8.208938241004943848e-01,8.208594918251037598e-01,8.208252191543579102e-01,8.207909464836120605e-01,8.207566142082214355e-01,8.207223415374755859e-01,8.206880688667297363e-01,8.206537961959838867e-01,8.206195235252380371e-01,8.205852508544921875e-01,8.205509781837463379e-01,8.205167055130004883e-01,8.204824924468994141e-01,8.204482197761535645e-01,8.204139471054077148e-01,8.203797340393066406e-01,8.203454613685607910e-01,8.203111886978149414e-01,8.202769756317138672e-01,8.202427029609680176e-01,8.202084302902221680e-01,8.201742172241210938e-01,8.201399445533752441e-01,8.201057314872741699e-01,8.200715184211730957e-01,8.200373649597167969e-01,8.200031518936157227e-01,8.199688792228698730e-01,8.199346661567687988e-01,8.199004530906677246e-01,8.198662400245666504e-01,8.198320269584655762e-01,8.197978138923645020e-01,8.197636008262634277e-01,8.197293877601623535e-01,8.196951746940612793e-01,8.196610212326049805e-01,8.196268081665039062e-01,8.195926547050476074e-01,8.195585012435913086e-01,8.195242881774902344e-01,8.194901347160339355e-01,8.194559216499328613e-01,8.194217681884765625e-01,8.193875551223754883e-01,8.193534016609191895e-01,8.193192481994628906e-01,8.192850351333618164e-01,8.192508816719055176e-01,8.192167282104492188e-01,8.191825747489929199e-01,8.191484808921813965e-01,8.191143274307250977e-01,8.190801739692687988e-01,8.190460205078125000e-01,8.190119266510009766e-01,8.189777731895446777e-01,8.189436197280883789e-01,8.189094662666320801e-01,8.188753128051757812e-01,8.188412189483642578e-01,8.188070654869079590e-01,8.187729716300964355e-01,8.187388181686401367e-01,8.187047839164733887e-01,8.186706900596618652e-01,8.186365365982055664e-01,8.186024427413940430e-01,8.185683488845825195e-01,8.185342550277709961e-01
7.829461097717285156e-01,7.829149365425109863e-01,7.828837633132934570e-01,7.828525900840759277e-01,7.828213572502136230e-01,7.827901840209960938e-01,7.827590107917785645e-01,7.827277779579162598e-01,7.826966047286987305e-01,7.826654314994812012e-01,7.826342582702636719e-01,7.826030850410461426e-01,7.825719118118286133e-01,7.825407385826110840e-01,7.825096249580383301e-01,7.824784517288208008e-01,7.824472784996032715e-01,7.824161052703857422e-01,7.823849916458129883e-01,7.823538184165954590e-01,7.823226451873779297e-01,7.822915315628051758e-01,7.822603583335876465e-01,7.822291851043701172e-01,7.821980714797973633e-01,7.821668982505798340e-01,7.821357846260070801e-01,7.821047306060791016e-01,7.820735573768615723e-01,7.820424437522888184e-01,7.820113301277160645e-01,7.819802165031433105e-01,7.819490432739257812e-01,7.819179296493530273e-01,7.818868160247802734e-01,7.818557024002075195e-01,7.818245887756347656e-01,7.817934751510620117e-01,7.817623615264892578e-01,7.817312479019165039e-01,7.817001938819885254e-01,7.816691398620605469e-01,7.816380262374877930e-01,7.816069126129150391e-01,7.815757989883422852e-01,7.815447449684143066e-01,7.815136313438415527e-01,7.814825773239135742e-01,7.814514636993408203e-01,7.814203500747680664e-01,7.813892960548400879e-01,7.813582420349121094e-01,7.813271284103393555e-01,7.812961339950561523e-01,7.812650799751281738e-01,7.812340259552001953e-01,7.812029123306274414e-01,7.811718583106994629e-01,7.811408042907714844e-01,7.811097502708435059e-01,7.810786962509155273e-01,7.810476422309875488e-01,7.810165882110595703e-01,7.809855341911315918e-01,7.809544801712036133e-01,7.809234261512756348e-01,7.808924913406372070e-01,7.808614373207092285e-01,7.808303833007812500e-01,7.807993888854980469e-01,7.807683348655700684e-01,7.807373404502868652e-01,7.807062864303588867e-01,7.806752324104309082e-01,7.806442379951477051e-01,7.806132435798645020e-01,7.805821895599365234e-01,7.805511951446533203e-01,7.805202007293701172e-01,7.804892659187316895e-01
7.480669617652893066e-01,7.480384707450866699e-01,7.480099797248840332e-01,7.479814887046813965e-01,7.479530572891235352e-01,7.479245662689208984e-01,7.478960752487182617e-01,7.478677034378051758e-01,7.478392124176025391e-01,7.478107213973999023e-01,7.477822899818420410e-01,7.477537989616394043e-01,7.477253675460815430e-01,7.476968765258789062e-01,7.476684451103210449e-01,7.476400136947631836e-01,7.476115226745605469e-01,7.475830912590026855e-01,7.475546598434448242e-01,7.475261688232421875e-01,7.474977970123291016e-01,7.474693655967712402e-01,7.474409341812133789e-01,7.474125027656555176e-01,7.473840713500976562e-01,7.473556399345397949e-01,7.473272085189819336e-01,7.472987771034240723e-01,7.472703456878662109e-01,7.472419142723083496e-01,7.472134828567504883e-01,7.471851110458374023e-01,7.471566796302795410e-01,7.471283078193664551e-01,7.470999360084533691e-01,7.470715045928955078e-01,7.470430731773376465e-01,7.470147013664245605e-01,7.469862699508666992e-01,7.469578981399536133e-01,7.469294667243957520e-01,7.469010949134826660e-01,7.468726634979248047e-01,7.468442916870117188e-01,7.468159198760986328e-01,7.467874884605407715e-01,7.467591762542724609e-01,7.467308044433593750e-01,7.467024326324462891e-01,7.466740608215332031e-01,7.466456294059753418e-01,7.466172575950622559e-01,7.465888857841491699e-01,7.465605139732360840e-01,7.465321421623229980e-01,7.465037703514099121e-01,7.464754581451416016e-01,7.464470863342285156e-01,7.464187145233154297e-01,7.463904023170471191e-01,7.463620305061340332e-01,7.463337182998657227e-01,7.463053464889526367e-01,7.462769746780395508e-01,7.462486624717712402e-01,7.462202906608581543e-01,7.461919784545898438e-01,7.461636066436767578e-01,7.461352944374084473e-01,7.461069226264953613e-01,7.460786104202270508e-01,7.460502982139587402e-01,7.460219860076904297e-01,7.459936738014221191e-01,7.459653615951538086e-01,7.459370493888854980e-01,7.459087371826171875e-01,7.458803653717041016e-01,7.458520531654357910e-01,7.458237409591674805e-01
7.161629199981689453e-01,7.161368131637573242e-01,7.161107063293457031e-01,7.160845994949340820e-01,7.160584926605224609e-01,7.160323858261108398e-01,7.160062789916992188e-01,7.159801721572875977e-01,7.159541249275207520e-01,7.159280180931091309e-01,7.159019112586975098e-01,7.158758640289306641e-01,7.158498167991638184e-01,7.158237099647521973e-01,7.157976627349853516e-01,7.157715559005737305e-01,7.157455086708068848e-01,7.157194018363952637e-01,7.156933546066284180e-01,7.156672477722167969e-01,7.156412005424499512e-01,7.156151533126831055e-01,7.155890464782714844e-01,7.155629992485046387e-01,7.155369520187377930e-01,7.155109643936157227e-01,7.154848575592041016e-01,7.154588103294372559e-01,7.154327630996704102e-01,7.154067158699035645e-01,7.153806686401367188e-01,7.153546214103698730e-01,7.153285741806030273e-01,7.153025269508361816e-01,7.152764797210693359e-01,7.152504324913024902e-01,7.152243852615356445e-01,7.151983380317687988e-01,7.151724100112915039e-01,7.151463627815246582e-01,7.151203155517578125e-01,7.150942683219909668e-01,7.150682806968688965e-01,7.150422334671020508e-01,7.150162458419799805e-01,7.149901986122131348e-01,7.149641513824462891e-01,7.149381637573242188e-01,7.149121165275573730e-01,7.148861289024353027e-01,7.148600816726684570e-01,7.148341536521911621e-01,7.148081660270690918e-01,7.147821187973022461e-01,7.147561311721801758e-01,7.147301435470581055e-01,7.147041559219360352e-01,7.146781086921691895e-01,7.146521210670471191e-01,7.146261334419250488e-01,7.146001458168029785e-01,7.145741581916809082e-01,7.145481705665588379e-01,7.145221829414367676e-01,7.144962549209594727e-01,7.144702672958374023e-01,7.144442796707153320e-01,7.144182920455932617e-01,7.143923044204711914e-01,7.143663167953491211e-01,7.143403887748718262e-01,7.143144011497497559e-01,7.142884135246276855e-01,7.142624258995056152e-01,7.142364978790283203e-01,7.142105102539062500e-01,7.141845226287841797e-01,7.141586542129516602e-01,7.141326665878295898e-01,7.141067385673522949e-01
6.868688464164733887e-01,6.868448257446289062e-01,6.868208050727844238e-01,6.867967844009399414e-01,6.867728233337402344e-01,6.867488026618957520e-01,6.867248415946960449e-01,6.867008209228515625e-01,6.866768002510070801e-01,6.866528391838073730e-01,6.866288185119628906e-01,6.866047978401184082e-01,6.865808367729187012e-01,6.865568161010742188e-01,6.865328550338745117e-01,6.865088343620300293e-01,6.864848732948303223e-01,6.864609122276306152e-01,6.864369511604309082e-01,6.864129304885864258e-01,6.863889694213867188e-01,6.863650083541870117e-01,6.863409876823425293e-01,6.863170266151428223e-01,6.862930655479431152e-01,6.862691044807434082e-01,6.862450838088989258e-01,6.862211227416992188e-01,6.861971616744995117e-01,6.861732006072998047e-01,6.861492991447448730e-01,6.861253380775451660e-01,6.861013770103454590e-01,6.860774159431457520e-01,6.860534548759460449e-01,6.860294938087463379e-01,6.860055327415466309e-01,6.859815716743469238e-01,6.859576106071472168e-01,6.859337091445922852e-01,6.859097480773925781e-01,6.858857870101928711e-01,6.858618259429931641e-01,6.858379244804382324e-01,6.858140230178833008e-01,6.857900619506835938e-01,6.857661008834838867e-01,6.857421994209289551e-01,6.857182383537292480e-01,6.856943368911743164e-01,6.856703758239746094e-01,6.856464743614196777e-01,6.856225132942199707e-01,6.855986118316650391e-01,6.855746507644653320e-01,6.855507493019104004e-01,6.855269074440002441e-01,6.855029463768005371e-01,6.854790449142456055e-01,6.854551434516906738e-01,6.854312419891357422e-01,6.854072809219360352e-01,6.853833794593811035e-01,6.853594779968261719e-01,6.853355765342712402e-01,6.853116750717163086e-01,6.852877736091613770e-01,6.852638721466064453e-01,6.852399706840515137e-01,6.852161288261413574e-01,6.851922273635864258e-01,6.851683259010314941e-01,6.851444244384765625e-01,6.851205229759216309e-01,6.850966215133666992e-01,6.850727200508117676e-01,6.850488781929016113e-01,6.850249767303466797e-01,6.850010752677917480e-01,6.849771738052368164e-01
6.598771214485168457e-01,6.598549485206604004e-01,6.598327755928039551e-01,6.598106622695922852e-01,6.597884893417358398e-01,6.597663164138793945e-01,6.597441434860229492e-01,6.597220301628112793e-01,6.596998572349548340e-01,6.596776843070983887e-01,6.596556305885314941e-01,6.596334576606750488e-01,6.596112847328186035e-01,6.595891714096069336e-01,6.595669984817504883e-01,6.595448851585388184e-01,6.595227122306823730e-01,6.595005989074707031e-01,6.594784855842590332e-01,6.594563126564025879e-01,6.594341993331909180e-01,6.594120264053344727e-01,6.593899130821228027e-01,6.593678593635559082e-01,6.593456864356994629e-01,6.593235731124877930e-01,6.593014597892761230e-01,6.592793464660644531e-01,6.592572331428527832e-01,6.592350602149963379e-01,6.592129468917846680e-01,6.591908335685729980e-01,6.591687202453613281e-01,6.591466069221496582e-01,6.591244935989379883e-01,6.591023802757263184e-01,6.590803265571594238e-01,6.590582132339477539e-01,6.590360999107360840e-01,6.590139865875244141e-01,6.589918732643127441e-01,6.589697599411010742e-01,6.589477062225341797e-01,6.589255928993225098e-01,6.589034795761108398e-01,6.588813662528991699e-01,6.588593125343322754e-01,6.588371992111206055e-01,6.588150858879089355e-01,6.587930321693420410e-01,6.587709784507751465e-01,6.587488651275634766e-01,6.587268114089965820e-01,6.587046980857849121e-01,6.586825847625732422e-01,6.586605310440063477e-01,6.586384177207946777e-01,6.586163640022277832e-01,6.585943102836608887e-01,6.585721969604492188e-01,6.585501432418823242e-01,6.585280299186706543e-01,6.585060358047485352e-01,6.584839820861816406e-01,6.584618687629699707e-01,6.584398150444030762e-01,6.584177613258361816e-01,6.583957076072692871e-01,6.583735942840576172e-01,6.583515405654907227e-01,6.583294868469238281e-01,6.583074331283569336e-01,6.582853794097900391e-01,6.582633256912231445e-01,6.582412719726562500e-01,6.582192778587341309e-01,6.581972241401672363e-01,6.581751704216003418e-01,6.581531167030334473e-01,6.581310629844665527e-01
6.349264979362487793e-01,6.349059939384460449e-01,6.348855495452880859e-01,6.348649859428405762e-01,6.348444819450378418e-01,6.348239779472351074e-01,6.348034739494323730e-01,6.347829699516296387e-01,6.347624659538269043e-01,6.347419619560241699e-01,6.347214579582214355e-01,6.347009539604187012e-01,6.346804499626159668e-01,6.346599459648132324e-01,6.346394419670104980e-01,6.346189379692077637e-01,6.345984339714050293e-01,6.345779895782470703e-01,6.345574855804443359e-01,6.345369815826416016e-01,6.345164775848388672e-01,6.344959735870361328e-01,6.344754695892333984e-01,6.344550251960754395e-01,6.344345211982727051e-01,6.344140172004699707e-01,6.343935132026672363e-01,6.343730688095092773e-01,6.343526244163513184e-01,6.343321204185485840e-01,6.343116760253906250e-01,6.342911720275878906e-01,6.342706680297851562e-01,6.342502236366271973e-01,6.342297196388244629e-01,6.342092752456665039e-01,6.341887712478637695e-01,6.341683268547058105e-01,6.341478228569030762e-01,6.341273784637451172e-01,6.341069340705871582e-01,6.340864896774291992e-01,6.340660452842712402e-01,6.340455412864685059e-01,6.340250968933105469e-01,6.340046525001525879e-01,6.339842081069946289e-01,6.339637041091918945e-01,6.339432597160339355e-01,6.339228153228759766e-01,6.339023709297180176e-01,6.338819265365600586e-01,6.338614225387573242e-01,6.338409781455993652e-01,6.338205933570861816e-01,6.338001489639282227e-01,6.337797045707702637e-01,6.337592601776123047e-01,6.337388157844543457e-01,6.337183713912963867e-01,6.336979269981384277e-01,6.336774826049804688e-01,6.336570382118225098e-01,6.336365938186645508e-01,6.336161494255065918e-01,6.335957050323486328e-01,6.335753202438354492e-01,6.335549354553222656e-01,6.335344910621643066e-01,6.335140466690063477e-01,6.334936022758483887e-01,6.334732174873352051e-01,6.334527730941772461e-01,6.334323287010192871e-01,6.334119439125061035e-01,6.333914995193481445e-01,6.333711147308349609e-01,6.333506703376770020e-01,6.333302259445190430e-01,6.333098411560058594e-01
