5.000000000000000000e+00,5.000000000000000000e+00,5.000000000000000000e+00,5.000000000000000000e+00,5.000000000000000000e+00,5.000000000000000000e+00,5.000000000000000000e+00,5.000000000000000000e+00,5.000000000000000000e+00,5.000000000000000000e+00,5.000000000000000000e+00,5.000000000000000000e+00,5.000000000000000000e+00,5.000000000000000000e+00,5.000000000000000000e+00,5.000000000000000000e+00,5.000000000000000000e+00,5.000000000000000000e+00,5.000000000000000000e+00,5.000000000000000000e+00,5.000000000000000000e+00,5.000000000000000000e+00,5.000000000000000000e+00,5.000000000000000000e+00,5.000000000000000000e+00,5.000000000000000000e+00,5.000000000000000000e+00,5.000000000000000000e+00,5.000000000000000000e+00,5.000000000000000000e+00,5.000000000000000000e+00,5.000000000000000000e+00,5.000000000000000000e+00,5.000000000000000000e+00,5.000000000000000000e+00,5.000000000000000000e+00,5.000000000000000000e+00,5.000000000000000000e+00,5.000000000000000000e+00,4.862182617187500000e+00,4.671209335327148438e+00,4.494670867919921875e+00,4.330990314483642578e+00,4.178812503814697266e+00,4.036965370178222656e+00,3.904432058334350586e+00,3.780324459075927734e+00,1.294899344444274902e+00,1.288809537887573242e+00,1.288469552993774414e+00,3.353892326354980469e+00,1.242228031158447266e+00,1.207172751426696777e+00,1.177724957466125488e+00,1.156611204147338867e+00,1.134574532508850098e+00,1.121212005615234375e+00,1.117239236831665039e+00,1.113294601440429688e+00,1.109377741813659668e+00,1.123162388801574707e+00,1.289646029472351074e+00,1.324860811233520508e+00,2.454169273376464844e+00,2.404549837112426758e+00,2.356897592544555664e+00,2.311096906661987305e+00,2.267042398452758789e+00,2.224636077880859375e+00,2.183787107467651367e+00,1.319635510444641113e+00,1.288497090339660645e+00,1.274645209312438965e+00,1.240959167480468750e+00,1.198351144790649414e+00,1.967070221900939941e+00,1.935064435005187988e+00,1.904083490371704102e+00,1.874078989028930664e+00,1.845005393028259277e+00
5.000000000000000000e+00,5.000000000000000000e+00,5.000000000000000000e+00,5.000000000000000000e+00,5.000000000000000000e+00,5.000000000000000000e+00,5.000000000000000000e+00,5.000000000000000000e+00,5.000000000000000000e+00,5.000000000000000000e+00,5.000000000000000000e+00,5.000000000000000000e+00,5.000000000000000000e+00,5.000000000000000000e+00,5.000000000000000000e+00,5.000000000000000000e+00,5.000000000000000000e+00,5.000000000000000000e+00,5.000000000000000000e+00,5.000000000000000000e+00,5.000000000000000000e+00,5.000000000000000000e+00,5.000000000000000000e+00,5.000000000000000000e+00,5.000000000000000000e+00,5.000000000000000000e+00,5.000000000000000000e+00,5.000000000000000000e+00,5.000000000000000000e+00,5.000000000000000000e+00,5.000000000000000000e+00,5.000000000000000000e+00,5.000000000000000000e+00,5.000000000000000000e+00,5.000000000000000000e+00,5.000000000000000000e+00,5.000000000000000000e+00,5.000000000000000000e+00,5.000000000000000000e+00,4.862322807312011719e+00,4.671339035034179688e+00,4.494790554046630859e+00,4.331101894378662109e+00,4.178915977478027344e+00,4.037062168121337891e+00,3.904522657394409180e+00,3.780409097671508789e+00,1.300698876380920410e+00,1.286691308021545410e+00,3.451289892196655273e+00,3.353959083557128906e+00,1.248726725578308105e+00,1.214969873428344727e+00,1.182974457740783691e+00,1.159507393836975098e+00,1.137492656707763672e+00,1.116171598434448242e+00,1.112098932266235352e+00,1.108096837997436523e+00,1.103774428367614746e+00,1.099485516548156738e+00,1.149149417877197266e+00,1.336553096771240234e+00,2.454205036163330078e+00,2.404584169387817383e+00,2.356930494308471680e+00,2.311128616333007812e+00,2.267072916030883789e+00,2.224665403366088867e+00,2.183815479278564453e+00,2.144438505172729492e+00,1.312742829322814941e+00,1.297145962715148926e+00,1.260235428810119629e+00,1.225298047065734863e+00,1.967092990875244141e+00,1.935086607933044434e+00,1.904105067253112793e+00,1.874099850654602051e+00,1.845025777816772461e+00
5.000000000000000000e+00,5.000000000000000000e+00,5.000000000000000000e+00,5.000000000000000000e+00,5.000000000000000000e+00,5.000000000000000000e+00,5.000000000000000000e+00,5.000000000000000000e+00,5.000000000000000000e+00,5.000000000000000000e+00,5.000000000000000000e+00,5.000000000000000000e+00,5.000000000000000000e+00,5.000000000000000000e+00,5.000000000000000000e+00,5.000000000000000000e+00,5.000000000000000000e+00,5.000000000000000000e+00,5.000000000000000000e+00,5.000000000000000000e+00,5.000000000000000000e+00,5.000000000000000000e+00,5.000000000000000000e+00,5.000000000000000000e+00,5.000000000000000000e+00,5.000000000000000000e+00,5.000000000000000000e+00,5.000000000000000000e+00,5.000000000000000000e+00,5.000000000000000000e+00,5.000000000000000000e+00,5.000000000000000000e+00,5.000000000000000000e+00,5.000000000000000000e+00,5.000000000000000000e+00,5.000000000000000000e+00,5.000000000000000000e+00,5.000000000000000000e+00,5.000000000000000000e+00,4.862462997436523438e+00,4.671467781066894531e+00,4.494910717010498047e+00,4.331212997436523438e+00,4.179019451141357422e+00,4.037158489227294922e+00,3.904613018035888672e+00,3.780493974685668945e+00,1.293867588043212891e+00,1.274717450141906738e+00,1.270650625228881836e+00,3.354025840759277344e+00,3.262030363082885742e+00,1.222494721412658691e+00,1.190461158752441406e+00,1.162404894828796387e+00,1.140425801277160645e+00,1.119298577308654785e+00,1.104589700698852539e+00,1.100294470787048340e+00,1.096032619476318359e+00,1.091803550720214844e+00,1.123791694641113281e+00,1.348833918571472168e+00,2.454240560531616211e+00,2.404618501663208008e+00,2.356963396072387695e+00,2.311160326004028320e+00,2.267103433609008789e+00,2.224694728851318359e+00,2.183843612670898438e+00,2.144465684890747070e+00,2.106482744216918945e+00,1.293514490127563477e+00,2.034415483474731445e+00,1.245767354965209961e+00,1.967116117477416992e+00,1.935108661651611328e+00,1.904126405715942383e+00,1.874120593070983887e+00,1.845045804977416992e+00
5.000000000000000000e+00,5.000000000000000000e+00,5.000000000000000000e+00,5.000000000000000000e+00,5.000000000000000000e+00,5.000000000000000000e+00,5.000000000000000000e+00,5.000000000000000000e+00,5.000000000000000000e+00,5.000000000000000000e+00,5.000000000000000000e+00,5.000000000000000000e+00,5.000000000000000000e+00,5.000000000000000000e+00,5.000000000000000000e+00,5.000000000000000000e+00,5.000000000000000000e+00,5.000000000000000000e+00,5.000000000000000000e+00,5.000000000000000000e+00,5.000000000000000000e+00,5.000000000000000000e+00,5.000000000000000000e+00,5.000000000000000000e+00,5.000000000000000000e+00,5.000000000000000000e+00,5.000000000000000000e+00,5.000000000000000000e+00,5.000000000000000000e+00,5.000000000000000000e+00,5.000000000000000000e+00,5.000000000000000000e+00,5.000000000000000000e+00,5.000000000000000000e+00,5.000000000000000000e+00,5.000000000000000000e+00,5.000000000000000000e+00,5.000000000000000000e+00,5.000000000000000000e+00,4.862603187561035156e+00,4.671597480773925781e+00,4.495030403137207031e+00,4.331324100494384766e+00,4.179122924804687500e+00,4.037255287170410156e+00,3.904703378677368164e+00,3.780578613281250000e+00,1.286752462387084961e+00,1.263177633285522461e+00,1.264519691467285156e+00,1.260597705841064453e+00,3.262093544006347656e+00,1.229373574256896973e+00,1.197342038154602051e+00,1.166921615600585938e+00,1.143672466278076172e+00,1.122648596763610840e+00,1.101356744766235352e+00,1.092856287956237793e+00,1.088398575782775879e+00,1.084228277206420898e+00,1.100015997886657715e+00,2.505991220474243164e+00,2.454276323318481445e+00,2.404652833938598633e+00,2.356996297836303711e+00,2.311192035675048828e+00,2.267133951187133789e+00,2.224724054336547852e+00,2.183871984481811523e+00,2.144493103027343750e+00,2.106509208679199219e+00,2.069847345352172852e+00,2.034440040588378906e+00,2.000223398208618164e+00,1.967138886451721191e+00,1.935130953788757324e+00,1.904148101806640625e+00,1.874141573905944824e+00,1.845066070556640625e+00
5.000000000000000000e+00,5.000000000000000000e+00,5.000000000000000000e+00,5.000000000000000000e+00,5.000000000000000000e+00,5.000000000000000000e+00,5.000000000000000000e+00,5.000000000000000000e+00,5.000000000000000000e+00,5.000000000000000000e+00,5.000000000000000000e+00,5.000000000000000000e+00,5.000000000000000000e+00,5.000000000000000000e+00,5.000000000000000000e+00,5.000000000000000000e+00,5.000000000000000000e+00,5.000000000000000000e+00,5.000000000000000000e+00,5.000000000000000000e+00,5.000000000000000000e+00,5.000000000000000000e+00,5.000000000000000000e+00,5.000000000000000000e+00,5.000000000000000000e+00,5.000000000000000000e+00,5.000000000000000000e+00,5.000000000000000000e+00,5.000000000000000000e+00,5.000000000000000000e+00,5.000000000000000000e+00,5.000000000000000000e+00,5.000000000000000000e+00,5.000000000000000000e+00,5.000000000000000000e+00,5.000000000000000000e+00,5.000000000000000000e+00,5.000000000000000000e+00,5.000000000000000000e+00,4.862743377685546875e+00,4.671726703643798828e+00,4.495150089263916016e+00,4.331435680389404297e+00,4.179226398468017578e+00,4.037352085113525391e+00,3.904793739318847656e+00,3.780663490295410156e+00,1.278550505638122559e+00,1.256979703903198242e+00,1.277323603630065918e+00,1.253004312515258789e+00,3.262156724929809570e+00,3.175066232681274414e+00,1.203940033912658691e+00,1.173560976982116699e+00,1.147170305252075195e+00,1.126018762588500977e+00,1.104963421821594238e+00,1.089905142784118652e+00,1.081579685211181641e+00,1.076757192611694336e+00,1.077225565910339355e+00,1.117593646049499512e+00,2.454312086105346680e+00,2.404687166213989258e+00,2.357029199600219727e+00,2.311223506927490234e+00,2.267164468765258789e+00,2.224753379821777344e+00,2.183900356292724609e+00,2.144520282745361328e+00,2.106535434722900391e+00,2.069872617721557617e+00,2.034464359283447266e+00,2.000247240066528320e+00,1.967162013053894043e+00,1.935153126716613770e+00,1.904169440269470215e+00,1.874162316322326660e+00,1.845086216926574707e+00
5.000000000000000000e+00,5.000000000000000000e+00,5.000000000000000000e+00,5.000000000000000000e+00,5.000000000000000000e+00,5.000000000000000000e+00,5.000000000000000000e+00,5.000000000000000000e+00,5.000000000000000000e+00,5.000000000000000000e+00,5.000000000000000000e+00,5.000000000000000000e+00,5.000000000000000000e+00,5.000000000000000000e+00,5.000000000000000000e+00,5.000000000000000000e+00,5.000000000000000000e+00,5.000000000000000000e+00,5.000000000000000000e+00,5.000000000000000000e+00,5.000000000000000000e+00,5.000000000000000000e+00,5.000000000000000000e+00,5.000000000000000000e+00,5.000000000000000000e+00,5.000000000000000000e+00,5.000000000000000000e+00,5.000000000000000000e+00,5.000000000000000000e+00,5.000000000000000000e+00,5.000000000000000000e+00,5.000000000000000000e+00,5.000000000000000000e+00,5.000000000000000000e+00,5.000000000000000000e+00,5.000000000000000000e+00,5.000000000000000000e+00,5.000000000000000000e+00,5.000000000000000000e+00,4.862883090972900391e+00,4.671856403350830078e+00,4.495270252227783203e+00,4.331546783447265625e+00,4.179329872131347656e+00,4.037448406219482422e+00,3.904884338378906250e+00,3.780748367309570312e+00,1.275590896606445312e+00,1.252263545989990234e+00,3.451572656631469727e+00,1.250845670700073242e+00,3.262219429016113281e+00,3.175125837326049805e+00,3.092561721801757812e+00,1.180878043174743652e+00,1.152821779251098633e+00,1.129409193992614746e+00,1.108658313751220703e+00,1.086969733238220215e+00,1.078689098358154297e+00,1.070533514022827148e+00,1.065362215042114258e+00,1.094180345535278320e+00,2.454347848892211914e+00,2.404721498489379883e+00,2.357062339782714844e+00,2.311255216598510742e+00,2.267194747924804688e+00,2.224782705307006836e+00,2.183928489685058594e+00,2.144547700881958008e+00,2.106561899185180664e+00,2.069898128509521484e+00,2.034488916397094727e+00,2.000270843505859375e+00,1.967184782028198242e+00,1.935175418853759766e+00,1.904191017150878906e+00,1.874183177947998047e+00,1.845106482505798340e+00
5.000000000000000000e+00,5.000000000000000000e+00,5.000000000000000000e+00,5.000000000000000000e+00,5.000000000000000000e+00,5.000000000000000000e+00,5.000000000000000000e+00,5.000000000000000000e+00,5.000000000000000000e+00,5.000000000000000000e+00,5.000000000000000000e+00,5.000000000000000000e+00,5.000000000000000000e+00,5.000000000000000000e+00,5.000000000000000000e+00,5.000000000000000000e+00,5.000000000000000000e+00,5.000000000000000000e+00,5.000000000000000000e+00,5.000000000000000000e+00,5.000000000000000000e+00,5.000000000000000000e+00,5.000000000000000000e+00,5.000000000000000000e+00,5.000000000000000000e+00,5.000000000000000000e+00,5.000000000000000000e+00,5.000000000000000000e+00,5.000000000000000000e+00,5.000000000000000000e+00,5.000000000000000000e+00,5.000000000000000000e+00,5.000000000000000000e+00,5.000000000000000000e+00,5.000000000000000000e+00,5.000000000000000000e+00,5.000000000000000000e+00,5.000000000000000000e+00,5.000000000000000000e+00,4.863023281097412109e+00,4.671985626220703125e+00,4.495389938354492188e+00,4.331657886505126953e+00,4.179433345794677734e+00,4.037545204162597656e+00,3.904974699020385742e+00,3.780833005905151367e+00,1.271149158477783203e+00,1.247054576873779297e+00,3.451643228530883789e+00,3.354292631149291992e+00,3.262282609939575195e+00,3.175185680389404297e+00,3.092618465423583984e+00,1.187575578689575195e+00,1.159881830215454102e+00,1.132820010185241699e+00,1.112189531326293945e+00,1.090410828590393066e+00,1.075813770294189453e+00,1.067701458930969238e+00,1.059710621833801270e+00,1.071727871894836426e+00,2.454383611679077148e+00,2.404755830764770508e+00,2.357095241546630859e+00,2.311286926269531250e+00,2.267225265502929688e+00,2.224812030792236328e+00,2.183956861495971680e+00,2.144574880599975586e+00,2.106588125228881836e+00,2.069923400878906250e+00,2.034513473510742188e+00,2.000294685363769531e+00,1.967207670211791992e+00,1.935197472572326660e+00,1.904212474822998047e+00,1.874203920364379883e+00,1.845126628875732422e+00
5.000000000000000000e+00,5.000000000000000000e+00,5.000000000000000000e+00,5.000000000000000000e+00,5.000000000000000000e+00,5.000000000000000000e+00,5.000000000000000000e+00,5.000000000000000000e+00,5.000000000000000000e+00,5.000000000000000000e+00,5.000000000000000000e+00,5.000000000000000000e+00,5.000000000000000000e+00,5.000000000000000000e+00,5.000000000000000000e+00,5.000000000000000000e+00,5.000000000000000000e+00,5.000000000000000000e+00,5.000000000000000000e+00,5.000000000000000000e+00,5.000000000000000000e+00,5.000000000000000000e+00,5.000000000000000000e+00,5.000000000000000000e+00,5.000000000000000000e+00,5.000000000000000000e+00,5.000000000000000000e+00,5.000000000000000000e+00,5.000000000000000000e+00,5.000000000000000000e+00,5.000000000000000000e+00,5.000000000000000000e+00,5.000000000000000000e+00,5.000000000000000000e+00,5.000000000000000000e+00,5.000000000000000000e+00,5.000000000000000000e+00,5.000000000000000000e+00,5.000000000000000000e+00,4.863163948059082031e+00,4.672115325927734375e+00,4.495509624481201172e+00,4.331769466400146484e+00,4.179537296295166016e+00,4.037642002105712891e+00,3.905065059661865234e+00,3.780917882919311523e+00,1.269370198249816895e+00,1.243040919303894043e+00,3.451713800430297852e+00,3.354359388351440430e+00,3.262345552444458008e+00,3.175245523452758789e+00,3.092675209045410156e+00,1.392468094825744629e+00,1.165643930435180664e+00,1.139619231224060059e+00,1.115497112274169922e+00,1.094008803367614746e+00,1.072984337806701660e+00,1.064533114433288574e+00,1.056274890899658203e+00,1.057476043701171875e+00,1.083313226699829102e+00,2.404789924621582031e+00,2.357128143310546875e+00,2.311318635940551758e+00,2.267255783081054688e+00,2.224841594696044922e+00,2.183985233306884766e+00,2.144602060317993164e+00,2.106614351272583008e+00,2.069948911666870117e+00,2.034538030624389648e+00,2.000318288803100586e+00,1.967230677604675293e+00,1.935219883918762207e+00,1.904234051704406738e+00,1.874224901199340820e+00,1.845146894454956055e+00
5.000000000000000000e+00,5.000000000000000000e+00,5.000000000000000000e+00,5.000000000000000000e+00,5.000000000000000000e+00,5.000000000000000000e+00,5.000000000000000000e+00,5.000000000000000000e+00,5.000000000000000000e+00,5.000000000000000000e+00,5.000000000000000000e+00,5.000000000000000000e+00,5.000000000000000000e+00,5.000000000000000000e+00,5.000000000000000000e+00,5.000000000000000000e+00,5.000000000000000000e+00,5.000000000000000000e+00,5.000000000000000000e+00,5.000000000000000000e+00,5.000000000000000000e+00,5.000000000000000000e+00,5.000000000000000000e+00,5.000000000000000000e+00,5.000000000000000000e+00,5.000000000000000000e+00,5.000000000000000000e+00,5.000000000000000000e+00,5.000000000000000000e+00,5.000000000000000000e+00,5.000000000000000000e+00,5.000000000000000000e+00,5.000000000000000000e+00,5.000000000000000000e+00,5.000000000000000000e+00,5.000000000000000000e+00,5.000000000000000000e+00,5.000000000000000000e+00,5.000000000000000000e+00,4.863304138183593750e+00,4.672244548797607422e+00,4.495629787445068359e+00,4.331880092620849609e+00,4.179640769958496094e+00,4.037738800048828125e+00,3.905155658721923828e+00,3.781002521514892578e+00,1.264272570610046387e+00,3.554963350296020508e+00,3.451784610748291016e+00,3.354425668716430664e+00,3.262408733367919922e+00,3.175305366516113281e+00,3.092731952667236328e+00,1.390465736389160156e+00,1.169595837593078613e+00,1.144507884979248047e+00,1.120052337646484375e+00,1.097630620002746582e+00,1.076744556427001953e+00,1.063663721084594727e+00,1.054113388061523438e+00,1.047757148742675781e+00,1.069612264633178711e+00,2.404824256896972656e+00,2.357161045074462891e+00,2.311350107192993164e+00,2.267286062240600586e+00,2.224870920181274414e+00,2.184013366699218750e+00,2.144629478454589844e+00,2.106640815734863281e+00,2.069974422454833984e+00,2.034562587738037109e+00,2.000341892242431641e+00,1.967253565788269043e+00,1.935241937637329102e+00,1.904255509376525879e+00,1.874245643615722656e+00,1.845166921615600586e+00
5.000000000000000000e+00,5.000000000000000000e+00,5.000000000000000000e+00,5.000000000000000000e+00,5.000000000000000000e+00,5.000000000000000000e+00,5.000000000000000000e+00,5.000000000000000000e+00,5.000000000000000000e+00,5.000000000000000000e+00,5.000000000000000000e+00,5.000000000000000000e+00,5.000000000000000000e+00,5.000000000000000000e+00,5.000000000000000000e+00,5.000000000000000000e+00,5.000000000000000000e+00,5.000000000000000000e+00,5.000000000000000000e+00,5.000000000000000000e+00,5.000000000000000000e+00,5.000000000000000000e+00,5.000000000000000000e+00,5.000000000000000000e+00,5.000000000000000000e+00,5.000000000000000000e+00,5.000000000000000000e+00,5.000000000000000000e+00,5.000000000000000000e+00,5.000000000000000000e+00,5.000000000000000000e+00,5.000000000000000000e+00,5.000000000000000000e+00,5.000000000000000000e+00,5.000000000000000000e+00,5.000000000000000000e+00,5.000000000000000000e+00,5.000000000000000000e+00,5.000000000000000000e+00,4.863444328308105469e+00,4.672374248504638672e+00,4.495749473571777344e+00,4.331991672515869141e+00,4.179744243621826172e+00,4.037835121154785156e+00,3.905246019363403320e+00,3.781087398529052734e+00,3.664580106735229492e+00,3.555038213729858398e+00,3.451855182647705078e+00,3.354492425918579102e+00,3.262471914291381836e+00,3.175365209579467773e+00,3.092788696289062500e+00,1.390978336334228516e+00,1.366627454757690430e+00,1.148317575454711914e+00,1.124124646186828613e+00,1.101675033569335938e+00,1.080735683441162109e+00,1.064314961433410645e+00,1.054934382438659668e+00,1.050360918045043945e+00,1.069532275199890137e+00,2.404858589172363281e+00,2.357193946838378906e+00,2.311381816864013672e+00,2.267316579818725586e+00,2.224900245666503906e+00,2.184041738510131836e+00,2.144656658172607422e+00,2.106667041778564453e+00,2.069999694824218750e+00,2.034587144851684570e+00,2.000365734100341797e+00,1.967276573181152344e+00,1.935264229774475098e+00,1.904277086257934570e+00,1.874266505241394043e+00,1.845187306404113770e+00
5.000000000000000000e+00,5.000000000000000000e+00,5.000000000000000000e+00,5.000000000000000000e+00,5.000000000000000000e+00,5.000000000000000000e+00,5.000000000000000000e+00,5.000000000000000000e+00,5.000000000000000000e+00,5.000000000000000000e+00,5.000000000000000000e+00,5.000000000000000000e+00,5.000000000000000000e+00,5.000000000000000000e+00,5.000000000000000000e+00,5.000000000000000000e+00,5.000000000000000000e+00,5.000000000000000000e+00,5.000000000000000000e+00,5.000000000000000000e+00,5.000000000000000000e+00,5.000000000000000000e+00,5.000000000000000000e+00,5.000000000000000000e+00,5.000000000000000000e+00,5.000000000000000000e+00,5.000000000000000000e+00,5.000000000000000000e+00,5.000000000000000000e+00,5.000000000000000000e+00,5.000000000000000000e+00,5.000000000000000000e+00,5.000000000000000000e+00,5.000000000000000000e+00,5.000000000000000000e+00,5.000000000000000000e+00,5.000000000000000000e+00,5.000000000000000000e+00,5.000000000000000000e+00,4.863584518432617188e+00,4.672503471374511719e+00,4.495869159698486328e+00,4.332102775573730469e+00,4.179848194122314453e+00,4.037931919097900391e+00,3.905336380004882812e+00,3.781172275543212891e+00,3.664659738540649414e+00,3.555113315582275391e+00,3.451925992965698242e+00,3.354559183120727539e+00,3.262535095214843750e+00,3.175424814224243164e+00,3.092845439910888672e+00,1.391491532325744629e+00,1.367122769355773926e+00,1.152598500251770020e+00,1.128810763359069824e+00,1.105311512947082520e+00,1.081035494804382324e+00,1.067067861557006836e+00,1.057264328002929688e+00,1.054661393165588379e+00,1.074480772018432617e+00,2.404892921447753906e+00,2.357227087020874023e+00,2.311413526535034180e+00,2.267347097396850586e+00,2.224929571151733398e+00,2.184069871902465820e+00,2.144684076309204102e+00,2.106693506240844727e+00,2.070025205612182617e+00,2.034611701965332031e+00,2.000389575958251953e+00,1.967299461364746094e+00,1.935286402702331543e+00,1.904298424720764160e+00,1.874287247657775879e+00,1.845207333564758301e+00
5.000000000000000000e+00,5.000000000000000000e+00,5.000000000000000000e+00,5.000000000000000000e+00,5.000000000000000000e+00,5.000000000000000000e+00,5.000000000000000000e+00,5.000000000000000000e+00,5.000000000000000000e+00,5.000000000000000000e+00,5.000000000000000000e+00,5.000000000000000000e+00,5.000000000000000000e+00,5.000000000000000000e+00,5.000000000000000000e+00,5.000000000000000000e+00,5.000000000000000000e+00,5.000000000000000000e+00,5.000000000000000000e+00,5.000000000000000000e+00,5.000000000000000000e+00,5.000000000000000000e+00,5.000000000000000000e+00,5.000000000000000000e+00,5.000000000000000000e+00,5.000000000000000000e+00,5.000000000000000000e+00,5.000000000000000000e+00,5.000000000000000000e+00,5.000000000000000000e+00,5.000000000000000000e+00,5.000000000000000000e+00,5.000000000000000000e+00,5.000000000000000000e+00,5.000000000000000000e+00,5.000000000000000000e+00,5.000000000000000000e+00,5.000000000000000000e+00,5.000000000000000000e+00,4.863724708557128906e+00,4.672633171081542969e+00,4.495988845825195312e+00,4.332214355468750000e+00,4.179951667785644531e+00,4.038028717041015625e+00,3.905426979064941406e+00,3.781256914138793945e+00,3.664739370346069336e+00,3.555188179016113281e+00,3.451996326446533203e+00,3.354625940322875977e+00,3.262598037719726562e+00,3.175484657287597656e+00,3.092902183532714844e+00,1.392005085945129395e+00,1.370687723159790039e+00,1.351892352104187012e+00,1.128466367721557617e+00,1.101081252098083496e+00,1.082026958465576172e+00,1.071893930435180664e+00,1.062341690063476562e+00,1.062192320823669434e+00,1.082298517227172852e+00,2.404927253723144531e+00,2.357259750366210938e+00,2.311445236206054688e+00,2.267377614974975586e+00,2.224958896636962891e+00,2.184098243713378906e+00,2.144711256027221680e+00,2.106719732284545898e+00,2.070050477981567383e+00,2.034636259078979492e+00,2.000413179397583008e+00,1.967322587966918945e+00,1.935308694839477539e+00,1.904320120811462402e+00,1.874308228492736816e+00,1.845227599143981934e+00
5.000000000000000000e+00,5.000000000000000000e+00,5.000000000000000000e+00,5.000000000000000000e+00,5.000000000000000000e+00,5.000000000000000000e+00,5.000000000000000000e+00,5.000000000000000000e+00,5.000000000000000000e+00,5.000000000000000000e+00,5.000000000000000000e+00,5.000000000000000000e+00,5.000000000000000000e+00,5.000000000000000000e+00,5.000000000000000000e+00,5.000000000000000000e+00,5.000000000000000000e+00,5.000000000000000000e+00,5.000000000000000000e+00,5.000000000000000000e+00,5.000000000000000000e+00,5.000000000000000000e+00,5.000000000000000000e+00,5.000000000000000000e+00,5.000000000000000000e+00,5.000000000000000000e+00,5.000000000000000000e+00,5.000000000000000000e+00,5.000000000000000000e+00,5.000000000000000000e+00,5.000000000000000000e+00,5.000000000000000000e+00,5.000000000000000000e+00,5.000000000000000000e+00,5.000000000000000000e+00,5.000000000000000000e+00,5.000000000000000000e+00,5.000000000000000000e+00,5.000000000000000000e+00,4.863865375518798828e+00,4.672762393951416016e+00,4.496109008789062500e+00,4.332325458526611328e+00,4.180055141448974609e+00,4.038125514984130859e+00,3.905517339706420898e+00,3.781341791152954102e+00,3.664819240570068359e+00,3.555263280868530273e+00,3.452066898345947266e+00,3.354692697525024414e+00,3.262661218643188477e+00,3.175544500350952148e+00,3.092958927154541016e+00,1.393798828125000000e+00,1.374368786811828613e+00,1.355472922325134277e+00,1.126039028167724609e+00,1.100300908088684082e+00,1.083025217056274414e+00,1.076512217521667480e+00,1.067467808723449707e+00,1.069831490516662598e+00,1.099650502204895020e+00,2.404961585998535156e+00,2.357292652130126953e+00,2.311476945877075195e+00,2.267408132553100586e+00,2.224988222122192383e+00,2.184126615524291992e+00,2.144738435745239258e+00,2.106745958328247070e+00,2.070075988769531250e+00,2.034660816192626953e+00,2.000437021255493164e+00,1.967345356941223145e+00,1.935330748558044434e+00,1.904341459274291992e+00,1.874328970909118652e+00,1.845247745513916016e+00
5.000000000000000000e+00,5.000000000000000000e+00,5.000000000000000000e+00,5.000000000000000000e+00,5.000000000000000000e+00,5.000000000000000000e+00,5.000000000000000000e+00,5.000000000000000000e+00,5.000000000000000000e+00,5.000000000000000000e+00,5.000000000000000000e+00,5.000000000000000000e+00,5.000000000000000000e+00,5.000000000000000000e+00,5.000000000000000000e+00,5.000000000000000000e+00,5.000000000000000000e+00,5.000000000000000000e+00,5.000000000000000000e+00,5.000000000000000000e+00,5.000000000000000000e+00,5.000000000000000000e+00,5.000000000000000000e+00,5.000000000000000000e+00,5.000000000000000000e+00,5.000000000000000000e+00,5.000000000000000000e+00,5.000000000000000000e+00,5.000000000000000000e+00,5.000000000000000000e+00,5.000000000000000000e+00,5.000000000000000000e+00,5.000000000000000000e+00,5.000000000000000000e+00,5.000000000000000000e+00,5.000000000000000000e+00,5.000000000000000000e+00,5.000000000000000000e+00,5.000000000000000000e+00,4.864005565643310547e+00,4.672892093658447266e+00,4.496228694915771484e+00,4.332437038421630859e+00,4.180159091949462891e+00,4.038222312927246094e+00,3.905607700347900391e+00,3.781426668167114258e+00,3.664898872375488281e+00,3.555338144302368164e+00,3.452137470245361328e+00,3.354759454727172852e+00,3.262724399566650391e+00,3.175604343414306641e+00,1.476013660430908203e+00,1.396947622299194336e+00,1.377856254577636719e+00,1.155076265335083008e+00,1.122274398803710938e+00,1.099283218383789062e+00,1.085107564926147461e+00,1.079818606376647949e+00,1.072643876075744629e+00,1.077581405639648438e+00,2.454633712768554688e+00,2.404995918273925781e+00,2.357325792312622070e+00,2.311508655548095703e+00,2.267438650131225586e+00,2.225017547607421875e+00,2.184154748916625977e+00,2.144765853881835938e+00,2.106772422790527344e+00,2.070101499557495117e+00,2.034685373306274414e+00,2.000460624694824219e+00,1.967368483543395996e+00,1.935353159904479980e+00,1.904363155364990234e+00,1.874349832534790039e+00,1.845268011093139648e+00
5.000000000000000000e+00,5.000000000000000000e+00,5.000000000000000000e+00,5.000000000000000000e+00,5.000000000000000000e+00,5.000000000000000000e+00,5.000000000000000000e+00,5.000000000000000000e+00,5.000000000000000000e+00,5.000000000000000000e+00,5.000000000000000000e+00,5.000000000000000000e+00,5.000000000000000000e+00,5.000000000000000000e+00,5.000000000000000000e+00,5.000000000000000000e+00,5.000000000000000000e+00,5.000000000000000000e+00,5.000000000000000000e+00,5.000000000000000000e+00,5.000000000000000000e+00,5.000000000000000000e+00,5.000000000000000000e+00,5.000000000000000000e+00,5.000000000000000000e+00,5.000000000000000000e+00,5.000000000000000000e+00,5.000000000000000000e+00,5.000000000000000000e+00,5.000000000000000000e+00,5.000000000000000000e+00,5.000000000000000000e+00,5.000000000000000000e+00,5.000000000000000000e+00,5.000000000000000000e+00,5.000000000000000000e+00,5.000000000000000000e+00,5.000000000000000000e+00,5.000000000000000000e+00,4.864145755767822266e+00,4.673021316528320312e+00,4.496348381042480469e+00,4.332548141479492188e+00,4.180262565612792969e+00,4.038318634033203125e+00,3.905698299407958984e+00,3.781511306762695312e+00,3.664978504180908203e+00,3.555412769317626953e+00,3.452208280563354492e+00,3.354826211929321289e+00,3.262787580490112305e+00,3.175664186477661133e+00,1.439777016639709473e+00,1.402910590171813965e+00,1.382057547569274902e+00,1.152552127838134766e+00,1.118534922599792480e+00,1.100399851799011230e+00,1.087197780609130859e+00,1.083145260810852051e+00,1.077870130538940430e+00,1.086119413375854492e+00,2.454669475555419922e+00,2.405030012130737305e+00,2.357358694076538086e+00,2.311540365219116211e+00,2.267469167709350586e+00,2.225047111511230469e+00,2.184183120727539062e+00,2.144793033599853516e+00,2.106798648834228516e+00,2.070126771926879883e+00,2.034709930419921875e+00,2.000484466552734375e+00,1.967391252517700195e+00,1.935375213623046875e+00,1.904384493827819824e+00,1.874370574951171875e+00,1.845288157463073730e+00
5.000000000000000000e+00,5.000000000000000000e+00,5.000000000000000000e+00,5.000000000000000000e+00,5.000000000000000000e+00,5.000000000000000000e+00,5.000000000000000000e+00,5.000000000000000000e+00,5.000000000000000000e+00,5.000000000000000000e+00,5.000000000000000000e+00,5.000000000000000000e+00,5.000000000000000000e+00,5.000000000000000000e+00,5.000000000000000000e+00,5.000000000000000000e+00,5.000000000000000000e+00,5.000000000000000000e+00,5.000000000000000000e+00,5.000000000000000000e+00,5.000000000000000000e+00,5.000000000000000000e+00,5.000000000000000000e+00,5.000000000000000000e+00,5.000000000000000000e+00,5.000000000000000000e+00,5.000000000000000000e+00,5.000000000000000000e+00,5.000000000000000000e+00,5.000000000000000000e+00,5.000000000000000000e+00,5.000000000000000000e+00,5.000000000000000000e+00,5.000000000000000000e+00,5.000000000000000000e+00,5.000000000000000000e+00,5.000000000000000000e+00,5.000000000000000000e+00,5.000000000000000000e+00,4.864285945892333984e+00,4.673150539398193359e+00,4.496468544006347656e+00,4.332659244537353516e+00,4.180366039276123047e+00,4.038415431976318359e+00,3.905788660049438477e+00,3.781596183776855469e+00,3.665058135986328125e+00,3.555487632751464844e+00,3.452278852462768555e+00,3.354892969131469727e+00,3.262850761413574219e+00,1.499517321586608887e+00,1.439536809921264648e+00,1.412693500518798828e+00,1.389765977859497070e+00,1.150038957595825195e+00,1.117098808288574219e+00,1.102549552917480469e+00,1.090039014816284180e+00,1.086492538452148438e+00,1.082969069480895996e+00,1.111190319061279297e+00,2.454705238342285156e+00,2.405064344406127930e+00,2.357391595840454102e+00,2.311572074890136719e+00,2.267499685287475586e+00,2.225076436996459961e+00,2.184211492538452148e+00,2.144820451736450195e+00,2.106825113296508789e+00,2.070152044296264648e+00,2.034734487533569336e+00,2.000508069992065430e+00,1.967414379119873047e+00,1.935397505760192871e+00,1.904406070709228516e+00,1.874391555786132812e+00,1.845308423042297363e+00
5.000000000000000000e+00,5.000000000000000000e+00,5.000000000000000000e+00,5.000000000000000000e+00,5.000000000000000000e+00,5.000000000000000000e+00,5.000000000000000000e+00,5.000000000000000000e+00,5.000000000000000000e+00,5.000000000000000000e+00,5.000000000000000000e+00,5.000000000000000000e+00,5.000000000000000000e+00,5.000000000000000000e+00,5.000000000000000000e+00,5.000000000000000000e+00,5.000000000000000000e+00,5.000000000000000000e+00,5.000000000000000000e+00,5.000000000000000000e+00,5.000000000000000000e+00,5.000000000000000000e+00,5.000000000000000000e+00,5.000000000000000000e+00,5.000000000000000000e+00,5.000000000000000000e+00,5.000000000000000000e+00,5.000000000000000000e+00,5.000000000000000000e+00,5.000000000000000000e+00,5.000000000000000000e+00,5.000000000000000000e+00,5.000000000000000000e+00,5.000000000000000000e+00,5.000000000000000000e+00,5.000000000000000000e+00,5.000000000000000000e+00,5.000000000000000000e+00,5.000000000000000000e+00,4.864426612854003906e+00,4.673280239105224609e+00,4.496588230133056641e+00,4.332770824432373047e+00,4.180469989776611328e+00,4.038512229919433594e+00,3.905879259109497070e+00,3.781681060791015625e+00,3.665137767791748047e+00,3.555562734603881836e+00,3.452349662780761719e+00,3.354959726333618164e+00,1.551682829856872559e+00,1.482881903648376465e+00,1.454413652420043945e+00,1.426021218299865723e+00,1.404965519905090332e+00,1.147536754608154297e+00,1.118340969085693359e+00,1.104707598686218262e+00,1.093429088592529297e+00,1.089613199234008789e+00,1.085578680038452148e+00,1.125321269035339355e+00,2.454740762710571289e+00,2.405098676681518555e+00,2.357424497604370117e+00,2.311603784561157227e+00,2.267530202865600586e+00,2.225105762481689453e+00,2.184239864349365234e+00,2.144847631454467773e+00,2.106851339340209961e+00,2.070177555084228516e+00,2.034759044647216797e+00,2.000531911849975586e+00,1.967437148094177246e+00,1.935419678688049316e+00,1.904427528381347656e+00,1.874412298202514648e+00,1.845328569412231445e+00
5.000000000000000000e+00,5.000000000000000000e+00,5.000000000000000000e+00,5.000000000000000000e+00,5.000000000000000000e+00,5.000000000000000000e+00,5.000000000000000000e+00,5.000000000000000000e+00,5.000000000000000000e+00,5.000000000000000000e+00,5.000000000000000000e+00,5.000000000000000000e+00,5.000000000000000000e+00,5.000000000000000000e+00,5.000000000000000000e+00,5.000000000000000000e+00,5.000000000000000000e+00,5.000000000000000000e+00,5.000000000000000000e+00,5.000000000000000000e+00,5.000000000000000000e+00,5.000000000000000000e+00,5.000000000000000000e+00,5.000000000000000000e+00,5.000000000000000000e+00,5.000000000000000000e+00,5.000000000000000000e+00,5.000000000000000000e+00,5.000000000000000000e+00,5.000000000000000000e+00,5.000000000000000000e+00,5.000000000000000000e+00,5.000000000000000000e+00,5.000000000000000000e+00,5.000000000000000000e+00,5.000000000000000000e+00,5.000000000000000000e+00,5.000000000000000000e+00,5.000000000000000000e+00,4.864566326141357422e+00,4.673409938812255859e+00,4.496708393096923828e+00,4.332881927490234375e+00,4.180573463439941406e+00,4.038608551025390625e+00,3.905969619750976562e+00,3.781765937805175781e+00,3.665217161178588867e+00,3.555637598037719727e+00,3.452420234680175781e+00,3.355026483535766602e+00,1.525597095489501953e+00,1.494251966476440430e+00,1.463051199913024902e+00,1.445533752441406250e+00,1.433693289756774902e+00,1.148030400276184082e+00,1.120359063148498535e+00,1.106555700302124023e+00,1.093455314636230469e+00,1.088835000991821289e+00,1.084805965423583984e+00,1.119143843650817871e+00,2.454776525497436523e+00,2.405132770538330078e+00,2.357457637786865234e+00,2.311635255813598633e+00,2.267560482025146484e+00,2.225135087966918945e+00,2.184267997741699219e+00,2.144875049591064453e+00,2.106877565383911133e+00,2.070202827453613281e+00,2.034783601760864258e+00,2.000555515289306641e+00,1.967460274696350098e+00,1.935441970825195312e+00,1.904449105262756348e+00,1.874433279037475586e+00,1.845348596572875977e+00
5.000000000000000000e+00,5.000000000000000000e+00,5.000000000000000000e+00,5.000000000000000000e+00,5.000000000000000000e+00,5.000000000000000000e+00,5.000000000000000000e+00,5.000000000000000000e+00,5.000000000000000000e+00,5.000000000000000000e+00,5.000000000000000000e+00,5.000000000000000000e+00,5.000000000000000000e+00,5.000000000000000000e+00,5.000000000000000000e+00,5.000000000000000000e+00,5.000000000000000000e+00,5.000000000000000000e+00,5.000000000000000000e+00,5.000000000000000000e+00,5.000000000000000000e+00,5.000000000000000000e+00,5.000000000000000000e+00,5.000000000000000000e+00,5.000000000000000000e+00,5.000000000000000000e+00,5.000000000000000000e+00,5.000000000000000000e+00,5.000000000000000000e+00,5.000000000000000000e+00,5.000000000000000000e+00,5.000000000000000000e+00,5.000000000000000000e+00,5.000000000000000000e+00,5.000000000000000000e+00,5.000000000000000000e+00,5.000000000000000000e+00,5.000000000000000000e+00,5.000000000000000000e+00,4.864706993103027344e+00,4.673539161682128906e+00,4.496828079223632812e+00,4.332993507385253906e+00,4.180676937103271484e+00,4.038705348968505859e+00,3.906060218811035156e+00,3.781850576400756836e+00,3.665296792984008789e+00,3.555712699890136719e+00,3.452491044998168945e+00,3.355093240737915039e+00,1.529345750808715820e+00,1.499526381492614746e+00,1.488375306129455566e+00,1.473259806632995605e+00,1.463620424270629883e+00,1.157041430473327637e+00,1.122123003005981445e+00,1.108276486396789551e+00,1.095001816749572754e+00,1.088057637214660645e+00,1.084034442901611328e+00,1.113033890724182129e+00,2.454812049865722656e+00,2.405167102813720703e+00,2.357490539550781250e+00,2.311666965484619141e+00,2.267590999603271484e+00,2.225164413452148438e+00,2.184296369552612305e+00,2.144902229309082031e+00,2.106903791427612305e+00,2.070228338241577148e+00,2.034808158874511719e+00,2.000579357147216797e+00,1.967483043670654297e+00,1.935464024543762207e+00,1.904470562934875488e+00,1.874453902244567871e+00,1.845368862152099609e+00
5.000000000000000000e+00,5.000000000000000000e+00,5.000000000000000000e+00,5.000000000000000000e+00,5.000000000000000000e+00,5.000000000000000000e+00,5.000000000000000000e+00,5.000000000000000000e+00,5.000000000000000000e+00,5.000000000000000000e+00,5.000000000000000000e+00,5.000000000000000000e+00,5.000000000000000000e+00,5.000000000000000000e+00,5.000000000000000000e+00,5.000000000000000000e+00,5.000000000000000000e+00,5.000000000000000000e+00,5.000000000000000000e+00,5.000000000000000000e+00,5.000000000000000000e+00,5.000000000000000000e+00,5.000000000000000000e+00,5.000000000000000000e+00,5.000000000000000000e+00,5.000000000000000000e+00,5.000000000000000000e+00,5.000000000000000000e+00,5.000000000000000000e+00,5.000000000000000000e+00,5.000000000000000000e+00,5.000000000000000000e+00,5.000000000000000000e+00,5.000000000000000000e+00,5.000000000000000000e+00,5.000000000000000000e+00,5.000000000000000000e+00,5.000000000000000000e+00,5.000000000000000000e+00,4.864845752716064453e+00,4.673668861389160156e+00,4.496948242187500000e+00,4.333104610443115234e+00,4.180780410766601562e+00,4.038802146911621094e+00,3.906150579452514648e+00,3.781935453414916992e+00,3.665376424789428711e+00,3.555787563323974609e+00,3.452561616897583008e+00,1.582479000091552734e+00,1.533112764358520508e+00,1.510127544403076172e+00,1.502878069877624512e+00,1.494944691658020020e+00,2.940396070480346680e+00,1.164966106414794922e+00,1.123892664909362793e+00,1.110002636909484863e+00,1.096762895584106445e+00,1.087614536285400391e+00,1.083264112472534180e+00,1.106739521026611328e+00,2.454847812652587891e+00,2.405201435089111328e+00,2.357523441314697266e+00,2.311698675155639648e+00,2.267621517181396484e+00,2.225193738937377930e+00,2.184324741363525391e+00,2.144929409027099609e+00,2.106930255889892578e+00,2.070253849029541016e+00,2.034832715988159180e+00,2.000602960586547852e+00,1.967506170272827148e+00,1.935486435890197754e+00,1.904492139816284180e+00,1.874474883079528809e+00,1.845389008522033691e+00
5.000000000000000000e+00,5.000000000000000000e+00,5.000000000000000000e+00,5.000000000000000000e+00,5.000000000000000000e+00,5.000000000000000000e+00,5.000000000000000000e+00,5.000000000000000000e+00,5.000000000000000000e+00,5.000000000000000000e+00,5.000000000000000000e+00,5.000000000000000000e+00,5.000000000000000000e+00,5.000000000000000000e+00,5.000000000000000000e+00,5.000000000000000000e+00,5.000000000000000000e+00,5.000000000000000000e+00,5.000000000000000000e+00,5.000000000000000000e+00,5.000000000000000000e+00,5.000000000000000000e+00,5.000000000000000000e+00,5.000000000000000000e+00,5.000000000000000000e+00,5.000000000000000000e+00,5.000000000000000000e+00,5.000000000000000000e+00,5.000000000000000000e+00,5.000000000000000000e+00,5.000000000000000000e+00,5.000000000000000000e+00,5.000000000000000000e+00,5.000000000000000000e+00,5.000000000000000000e+00,5.000000000000000000e+00,5.000000000000000000e+00,5.000000000000000000e+00,5.000000000000000000e+00,4.864984512329101562e+00,4.673797607421875000e+00,4.497067928314208984e+00,4.333215713500976562e+00,4.180884361267089844e+00,4.038898944854736328e+00,3.906241178512573242e+00,3.782019853591918945e+00,3.665456056594848633e+00,3.555862665176391602e+00,3.452632427215576172e+00,1.568238019943237305e+00,1.538359045982360840e+00,1.524983763694763184e+00,1.517666220664978027e+00,1.527519941329956055e+00,2.940447330474853516e+00,1.170300006866455078e+00,1.125667929649353027e+00,1.111734151840209961e+00,1.098529577255249023e+00,1.088130116462707520e+00,1.082494735717773438e+00,1.100431323051452637e+00,2.454883575439453125e+00,2.405235767364501953e+00,2.357556343078613281e+00,2.311730384826660156e+00,2.267652034759521484e+00,2.225223064422607422e+00,2.184352874755859375e+00,2.144956588745117188e+00,2.106956481933593750e+00,2.070279121398925781e+00,2.034857273101806641e+00,2.000626802444458008e+00,1.967529058456420898e+00,1.935508489608764648e+00,1.904513597488403320e+00,1.874495625495910645e+00,1.845409274101257324e+00
5.000000000000000000e+00,5.000000000000000000e+00,5.000000000000000000e+00,5.000000000000000000e+00,5.000000000000000000e+00,5.000000000000000000e+00,5.000000000000000000e+00,5.000000000000000000e+00,5.000000000000000000e+00,5.000000000000000000e+00,5.000000000000000000e+00,5.000000000000000000e+00,5.000000000000000000e+00,5.000000000000000000e+00,5.000000000000000000e+00,5.000000000000000000e+00,5.000000000000000000e+00,5.000000000000000000e+00,5.000000000000000000e+00,5.000000000000000000e+00,5.000000000000000000e+00,5.000000000000000000e+00,5.000000000000000000e+00,5.000000000000000000e+00,5.000000000000000000e+00,5.000000000000000000e+00,5.000000000000000000e+00,5.000000000000000000e+00,5.000000000000000000e+00,5.000000000000000000e+00,5.000000000000000000e+00,5.000000000000000000e+00,5.000000000000000000e+00,5.000000000000000000e+00,5.000000000000000000e+00,5.000000000000000000e+00,5.000000000000000000e+00,5.000000000000000000e+00,5.000000000000000000e+00,4.865122795104980469e+00,4.673925399780273438e+00,4.497188091278076172e+00,4.333327293395996094e+00,4.180987834930419922e+00,4.038995742797851562e+00,3.906331777572631836e+00,3.782104730606079102e+00,3.665535688400268555e+00,3.555937767028808594e+00,3.452702999114990234e+00,1.573548078536987305e+00,1.546519756317138672e+00,1.540135383605957031e+00,1.532748460769653320e+00,3.015044927597045898e+00,2.940498590469360352e+00,2.869549512863159180e+00,1.127448678016662598e+00,1.113532662391662598e+00,1.100301980972290039e+00,1.088646292686462402e+00,1.081835865974426270e+00,1.094194769859313965e+00,2.454919338226318359e+00,2.405270099639892578e+00,2.357589483261108398e+00,2.311762094497680664e+00,2.267682552337646484e+00,2.225252628326416016e+00,2.184381246566772461e+00,2.144984006881713867e+00,2.106982946395874023e+00,2.070304632186889648e+00,2.034881830215454102e+00,2.000650644302368164e+00,1.967552065849304199e+00,1.935530781745910645e+00,1.904535174369812012e+00,1.874516367912292480e+00,1.845429420471191406e+00
5.000000000000000000e+00,5.000000000000000000e+00,5.000000000000000000e+00,5.000000000000000000e+00,5.000000000000000000e+00,5.000000000000000000e+00,5.000000000000000000e+00,5.000000000000000000e+00,5.000000000000000000e+00,5.000000000000000000e+00,5.000000000000000000e+00,5.000000000000000000e+00,5.000000000000000000e+00,5.000000000000000000e+00,5.000000000000000000e+00,5.000000000000000000e+00,5.000000000000000000e+00,5.000000000000000000e+00,5.000000000000000000e+00,5.000000000000000000e+00,5.000000000000000000e+00,5.000000000000000000e+00,5.000000000000000000e+00,5.000000000000000000e+00,5.000000000000000000e+00,5.000000000000000000e+00,5.000000000000000000e+00,5.000000000000000000e+00,5.000000000000000000e+00,5.000000000000000000e+00,5.000000000000000000e+00,5.000000000000000000e+00,5.000000000000000000e+00,5.000000000000000000e+00,5.000000000000000000e+00,5.000000000000000000e+00,5.000000000000000000e+00,5.000000000000000000e+00,5.000000000000000000e+00,4.865261554718017578e+00,4.674053192138671875e+00,4.497305870056152344e+00,4.333438873291015625e+00,4.181091785430908203e+00,4.039092540740966797e+00,3.906422138214111328e+00,3.782189607620239258e+00,3.665615558624267578e+00,3.556012630462646484e+00,1.620900034904479980e+00,1.581288218498229980e+00,1.562159657478332520e+00,1.555590867996215820e+00,3.093526363372802734e+00,3.015098810195922852e+00,2.940549850463867188e+00,2.869598388671875000e+00,1.131784439086914062e+00,1.115353822708129883e+00,1.102080106735229492e+00,1.089162826538085938e+00,1.082346081733703613e+00,1.088028311729431152e+00,2.454955101013183594e+00,2.405304431915283203e+00,2.357622385025024414e+00,2.311793804168701172e+00,2.267713069915771484e+00,2.225281953811645508e+00,2.184409618377685547e+00,2.145011186599731445e+00,2.107009172439575195e+00,2.070329904556274414e+00,2.034906387329101562e+00,2.000674247741699219e+00,1.967574954032897949e+00,1.935552954673767090e+00,1.904556632041931152e+00,1.874537348747253418e+00,1.845449686050415039e+00
5.000000000000000000e+00,5.000000000000000000e+00,5.000000000000000000e+00,5.000000000000000000e+00,5.000000000000000000e+00,5.000000000000000000e+00,5.000000000000000000e+00,5.000000000000000000e+00,5.000000000000000000e+00,5.000000000000000000e+00,5.000000000000000000e+00,5.000000000000000000e+00,5.000000000000000000e+00,5.000000000000000000e+00,5.000000000000000000e+00,5.000000000000000000e+00,5.000000000000000000e+00,5.000000000000000000e+00,5.000000000000000000e+00,5.000000000000000000e+00,5.000000000000000000e+00,5.000000000000000000e+00,5.000000000000000000e+00,5.000000000000000000e+00,5.000000000000000000e+00,5.000000000000000000e+00,5.000000000000000000e+00,5.000000000000000000e+00,5.000000000000000000e+00,5.000000000000000000e+00,5.000000000000000000e+00,5.000000000000000000e+00,5.000000000000000000e+00,5.000000000000000000e+00,5.000000000000000000e+00,5.000000000000000000e+00,5.000000000000000000e+00,5.000000000000000000e+00,5.000000000000000000e+00,4.865400791168212891e+00,4.674181461334228516e+00,4.497424602508544922e+00,4.333549022674560547e+00,4.181195259094238281e+00,4.039189338684082031e+00,3.906512260437011719e+00,3.782274484634399414e+00,3.665695190429687500e+00,3.556087732315063477e+00,1.623453378677368164e+00,1.589117765426635742e+00,1.579035639762878418e+00,1.571878790855407715e+00,3.093582868576049805e+00,3.015152692794799805e+00,2.940601110458374023e+00,2.869647264480590820e+00,1.138759255409240723e+00,1.117181062698364258e+00,1.103863954544067383e+00,1.090869545936584473e+00,1.083242297172546387e+00,1.082522869110107422e+00,2.454990863800048828e+00,2.405338764190673828e+00,2.357655286788940430e+00,2.311825513839721680e+00,2.267743587493896484e+00,2.225311279296875000e+00,2.184437751770019531e+00,2.145038604736328125e+00,2.107035398483276367e+00,2.070355415344238281e+00,2.034930944442749023e+00,2.000698089599609375e+00,1.967597961425781250e+00,1.935575246810913086e+00,1.904577970504760742e+00,1.874558091163635254e+00,1.845469832420349121e+00
5.000000000000000000e+00,5.000000000000000000e+00,5.000000000000000000e+00,5.000000000000000000e+00,5.000000000000000000e+00,5.000000000000000000e+00,5.000000000000000000e+00,5.000000000000000000e+00,5.000000000000000000e+00,5.000000000000000000e+00,5.000000000000000000e+00,5.000000000000000000e+00,5.000000000000000000e+00,5.000000000000000000e+00,5.000000000000000000e+00,5.000000000000000000e+00,5.000000000000000000e+00,5.000000000000000000e+00,5.000000000000000000e+00,5.000000000000000000e+00,5.000000000000000000e+00,5.000000000000000000e+00,5.000000000000000000e+00,5.000000000000000000e+00,5.000000000000000000e+00,5.000000000000000000e+00,5.000000000000000000e+00,5.000000000000000000e+00,5.000000000000000000e+00,5.000000000000000000e+00,5.000000000000000000e+00,5.000000000000000000e+00,5.000000000000000000e+00,5.000000000000000000e+00,5.000000000000000000e+00,5.000000000000000000e+00,5.000000000000000000e+00,5.000000000000000000e+00,5.000000000000000000e+00,4.865539073944091797e+00,4.674309253692626953e+00,4.497543334960937500e+00,4.333658695220947266e+00,4.181298255920410156e+00,4.039286136627197266e+00,3.906602621078491211e+00,3.782359361648559570e+00,3.665774822235107422e+00,3.556162595748901367e+00,1.631819128990173340e+00,1.604281187057495117e+00,1.596280336380004883e+00,3.176262378692626953e+00,3.093639612197875977e+00,3.015206575393676758e+00,2.940652370452880859e+00,2.869696140289306641e+00,1.145050525665283203e+00,1.119262933731079102e+00,1.106069445610046387e+00,1.093205451965332031e+00,1.086467742919921875e+00,1.079922556877136230e+00,2.455026626586914062e+00,2.405373096466064453e+00,2.357688188552856445e+00,2.311857223510742188e+00,2.267774105072021484e+00,2.225340604782104492e+00,2.184465885162353516e+00,2.145065784454345703e+00,2.107061862945556641e+00,2.070380926132202148e+00,2.034955501556396484e+00,2.000721693038940430e+00,1.967620849609375000e+00,1.935597419738769531e+00,1.904599666595458984e+00,1.874578952789306641e+00,1.845490097999572754e+00
4.874732494354248047e+00,4.873521327972412109e+00,4.872310638427734375e+00,4.871100902557373047e+00,4.869891643524169922e+00,4.868682384490966797e+00,4.867474555969238281e+00,4.866267204284667969e+00,4.865060329437255859e+00,4.863853931427001953e+00,4.862648010253906250e+00,4.861443042755126953e+00,4.860238552093505859e+00,4.859034538269042969e+00,4.857831001281738281e+00,4.856628417968750000e+00,4.855426311492919922e+00,4.854224681854248047e+00,4.853024005889892578e+00,4.851823329925537109e+00,4.850623607635498047e+00,4.849424839019775391e+00,4.848226070404052734e+00,4.847027778625488281e+00,4.845830440521240234e+00,4.844634056091308594e+00,4.843437671661376953e+00,4.842241764068603516e+00,4.841046810150146484e+00,4.839852333068847656e+00,4.838658809661865234e+00,4.837465286254882812e+00,4.836272239685058594e+00,4.835080146789550781e+00,4.833889007568359375e+00,4.832697868347167969e+00,4.831507682800292969e+00,4.830317974090576172e+00,4.829128742218017578e+00,4.827939987182617188e+00,4.674437522888183594e+00,4.497661590576171875e+00,4.333768844604492188e+00,4.181400299072265625e+00,4.039382457733154297e+00,3.906693220138549805e+00,3.782444000244140625e+00,3.665854454040527344e+00,1.701622247695922852e+00,1.639924764633178711e+00,1.621451497077941895e+00,1.638843297958374023e+00,3.176321983337402344e+00,3.093696355819702148e+00,3.015260457992553711e+00,2.940703630447387695e+00,2.869745016098022461e+00,1.153579592704772949e+00,1.121698856353759766e+00,1.108448266983032227e+00,1.095608472824096680e+00,1.089712500572204590e+00,1.083128213882446289e+00,2.455062389373779297e+00,2.405407428741455078e+00,2.357721328735351562e+00,2.311888933181762695e+00,2.267804622650146484e+00,2.225369930267333984e+00,2.184494256973266602e+00,2.145093202590942383e+00,2.107088088989257812e+00,2.070406198501586914e+00,2.034980058670043945e+00,2.000745534896850586e+00,1.967643976211547852e+00,1.935619473457336426e+00,1.904621005058288574e+00,1.874599695205688477e+00,1.845510244369506836e+00
3.777493476867675781e+00,3.776766061782836914e+00,3.776039123535156250e+00,3.775312185287475586e+00,3.774585962295532227e+00,3.773859739303588867e+00,3.773133516311645508e+00,3.772408246994018555e+00,3.771682739257812500e+00,3.770957708358764648e+00,3.770232915878295898e+00,3.769508600234985352e+00,3.768784284591674805e+00,3.768059968948364258e+00,3.767336606979370117e+00,3.766613006591796875e+00,3.765890121459960938e+00,3.765167236328125000e+00,3.764444351196289062e+00,3.763722419738769531e+00,3.763000249862670898e+00,3.762278556823730469e+00,3.761557102203369141e+00,3.760835647583007812e+00,3.760115146636962891e+00,3.759394168853759766e+00,3.758674144744873047e+00,3.757953882217407227e+00,3.757233858108520508e+00,3.756514549255371094e+00,3.755795240402221680e+00,3.755076408386230469e+00,3.754357576370239258e+00,3.753639459609985352e+00,3.752921104431152344e+00,3.752202987670898438e+00,3.751485586166381836e+00,3.750768184661865234e+00,3.750051259994506836e+00,3.749334335327148438e+00,3.748617649078369141e+00,3.747901678085327148e+00,3.747185468673706055e+00,3.746469974517822266e+00,3.745754480361938477e+00,3.745039224624633789e+00,3.744324684143066406e+00,1.766745567321777344e+00,1.688597798347473145e+00,1.665686607360839844e+00,1.649485230445861816e+00,3.263545274734497070e+00,3.176381826400756836e+00,3.093753099441528320e+00,3.015314579010009766e+00,2.940755128860473633e+00,2.869793653488159180e+00,1.161257505416870117e+00,1.124145388603210449e+00,1.110837221145629883e+00,1.098021984100341797e+00,1.089844942092895508e+00,1.086352944374084473e+00,2.455098152160644531e+00,2.405441761016845703e+00,2.357754230499267578e+00,2.311920642852783203e+00,2.267835140228271484e+00,2.225399255752563477e+00,2.184522628784179688e+00,2.145120382308959961e+00,2.107114553451538086e+00,2.070431709289550781e+00,2.035004615783691406e+00,2.000769138336181641e+00,1.967666745185852051e+00,1.935641765594482422e+00,1.904642701148986816e+00,1.874620676040649414e+00,1.845530509948730469e+00
3.083449125289916992e+00,3.082964658737182617e+00,3.082480192184448242e+00,3.081995725631713867e+00,3.081511735916137695e+00,3.081027507781982422e+00,3.080543756484985352e+00,3.080060005187988281e+00,3.079576253890991211e+00,3.079093217849731445e+00,3.078609704971313477e+00,3.078126907348632812e+00,3.077643632888793945e+00,3.077161073684692383e+00,3.076678276062011719e+00,3.076195716857910156e+00,3.075713634490966797e+00,3.075231313705444336e+00,3.074749469757080078e+00,3.074267387390136719e+00,3.073785543441772461e+00,3.073304176330566406e+00,3.072822570800781250e+00,3.072341442108154297e+00,3.071860074996948242e+00,3.071378946304321289e+00,3.070898294448852539e+00,3.070417642593383789e+00,3.069937229156494141e+00,3.069456577301025391e+00,3.068976402282714844e+00,3.068496465682983398e+00,3.068016290664672852e+00,3.067536830902099609e+00,3.067056894302368164e+00,3.066577434539794922e+00,3.066098213195800781e+00,3.065618991851806641e+00,3.065140247344970703e+00,3.064661264419555664e+00,3.064182281494140625e+00,3.063704013824462891e+00,3.063225269317626953e+00,3.062747240066528320e+00,3.062268972396850586e+00,3.061791181564331055e+00,3.061313152313232422e+00,1.748506665229797363e+00,1.681325912475585938e+00,1.664736032485961914e+00,3.059403419494628906e+00,3.058926343917846680e+00,3.058449268341064453e+00,3.057972431182861328e+00,3.015368461608886719e+00,2.940806388854980469e+00,2.869842529296875000e+00,1.167533755302429199e+00,1.126602649688720703e+00,1.113236665725708008e+00,1.100446343421936035e+00,1.089544773101806641e+00,1.089596986770629883e+00,2.455133914947509766e+00,2.405476093292236328e+00,2.357787132263183594e+00,2.311952352523803711e+00,2.267865657806396484e+00,2.225428581237792969e+00,2.184551000595092773e+00,2.145147562026977539e+00,2.107140779495239258e+00,2.070457220077514648e+00,2.035029172897338867e+00,2.000792980194091797e+00,1.967689871788024902e+00,1.935663938522338867e+00,1.904664039611816406e+00,1.874641418457031250e+00,1.845550537109375000e+00
2.604855298995971680e+00,2.604509592056274414e+00,2.604163646697998047e+00,2.603818178176879883e+00,2.603472471237182617e+00,2.603126764297485352e+00,2.602781534194946289e+00,2.602436065673828125e+00,2.602091073989868164e+00,2.601745843887329102e+00,2.601400613784790039e+00,2.601055860519409180e+00,2.600710868835449219e+00,2.600366353988647461e+00,2.600021600723266602e+00,2.599676847457885742e+00,2.599332571029663086e+00,2.598988056182861328e+00,2.598643779754638672e+00,2.598299503326416016e+00,2.597955226898193359e+00,2.597611427307128906e+00,2.597267389297485352e+00,2.596923589706420898e+00,2.596579790115356445e+00,2.596236228942871094e+00,2.595892429351806641e+00,2.595548868179321289e+00,2.595205783843994141e+00,2.594862222671508789e+00,2.594519138336181641e+00,2.594176054000854492e+00,2.593832969665527344e+00,2.593490123748779297e+00,2.593147039413452148e+00,2.592804431915283203e+00,2.592461824417114258e+00,2.592118978500366211e+00,2.591776609420776367e+00,2.591434240341186523e+00,2.591092109680175781e+00,2.590749740600585938e+00,2.590407371520996094e+00,2.590065479278564453e+00,2.589723587036132812e+00,2.589381694793701172e+00,2.589040040969848633e+00,2.588698387145996094e+00,1.662897348403930664e+00,1.649432659149169922e+00,2.587673902511596680e+00,2.587332487106323242e+00,2.586991310119628906e+00,2.586650133132934570e+00,2.586308956146240234e+00,2.585968255996704102e+00,2.585627317428588867e+00,2.585286617279052734e+00,1.131240844726562500e+00,1.115646362304687500e+00,1.102881312370300293e+00,1.090406537055969238e+00,1.092169761657714844e+00,2.455169677734375000e+00,2.405510187149047852e+00,2.357820034027099609e+00,2.311984062194824219e+00,2.267895936965942383e+00,2.225457906723022461e+00,2.184579133987426758e+00,2.145174980163574219e+00,2.107167005538940430e+00,2.070482492446899414e+00,2.035053730010986328e+00,2.000816822052001953e+00,1.967712640762329102e+00,1.935686230659484863e+00,1.904685735702514648e+00,1.874662399291992188e+00,1.845570921897888184e+00
2.254917860031127930e+00,2.254656553268432617e+00,2.254395246505737305e+00,2.254133939743041992e+00,2.253872871398925781e+00,2.253611803054809570e+00,2.253350734710693359e+00,2.253089666366577148e+00,2.252828598022460938e+00,2.252567768096923828e+00,2.252306938171386719e+00,2.252046346664428711e+00,2.251785516738891602e+00,2.251524925231933594e+00,2.251264333724975586e+00,2.251003742218017578e+00,2.250743389129638672e+00,2.250483036041259766e+00,2.250222682952880859e+00,2.249962329864501953e+00,2.249702215194702148e+00,2.249441862106323242e+00,2.249181747436523438e+00,2.248922824859619141e+00,2.248664855957031250e+00,2.248407125473022461e+00,2.248149394989013672e+00,2.247891664505004883e+00,2.247634172439575195e+00,2.247376680374145508e+00,2.247119426727294922e+00,2.246861934661865234e+00,2.246604442596435547e+00,2.246347188949584961e+00,2.246089935302734375e+00,2.245832920074462891e+00,2.245575666427612305e+00,2.245318889617919922e+00,2.245061635971069336e+00,2.244804859161376953e+00,2.244548082351684570e+00,2.244291067123413086e+00,2.244034528732299805e+00,2.243777751922607422e+00,2.243520975112915039e+00,2.243264436721801758e+00,2.243007898330688477e+00,2.242751598358154297e+00,1.641326189041137695e+00,1.631868839263916016e+00,1.662241935729980469e+00,2.241726398468017578e+00,2.241470098495483398e+00,2.241214036941528320e+00,2.240957975387573242e+00,2.240702152252197266e+00,2.240446090698242188e+00,2.240190267562866211e+00,1.139100074768066406e+00,1.118147492408752441e+00,1.105327010154724121e+00,1.092797279357910156e+00,1.091868281364440918e+00,2.238656282424926758e+00,2.238400936126708984e+00,2.238145351409912109e+00,2.237890005111694336e+00,2.237634897232055664e+00,2.225487470626831055e+00,2.184607505798339844e+00,2.145202159881591797e+00,2.107193470001220703e+00,2.070508003234863281e+00,2.035078287124633789e+00,2.000840425491333008e+00,1.967735528945922852e+00,1.935708403587341309e+00,1.904707074165344238e+00,1.874683141708374023e+00,1.845590949058532715e+00
1.987963080406188965e+00,1.987759828567504883e+00,1.987556815147399902e+00,1.987353682518005371e+00,1.987150788307189941e+00,1.986947655677795410e+00,1.986744880676269531e+00,1.986541867256164551e+00,1.986339092254638672e+00,1.986136198043823242e+00,1.985933542251586914e+00,1.985730648040771484e+00,1.985528111457824707e+00,1.985325336456298828e+00,1.985122799873352051e+00,1.984920144081115723e+00,1.984717845916748047e+00,1.984515190124511719e+00,1.984312772750854492e+00,1.984110474586486816e+00,1.983908057212829590e+00,1.983705878257751465e+00,1.983503460884094238e+00,1.983301401138305664e+00,1.983098983764648438e+00,1.982897043228149414e+00,1.982694745063781738e+00,1.982492804527282715e+00,1.982290625572204590e+00,1.982088804244995117e+00,1.981886744499206543e+00,1.981684923171997070e+00,1.981482982635498047e+00,1.981281280517578125e+00,1.981079339981079102e+00,1.980877757072448730e+00,1.980675935745239258e+00,1.980474352836608887e+00,1.980272650718688965e+00,1.980071187019348145e+00,1.979869484901428223e+00,1.979668140411376953e+00,1.979466557502746582e+00,1.979265213012695312e+00,1.979063749313354492e+00,1.978862524032592773e+00,1.978661179542541504e+00,1.978459954261779785e+00,1.625450491905212402e+00,1.614580154418945312e+00,1.637049317359924316e+00,1.977655410766601562e+00,1.977454185485839844e+00,1.977253317832946777e+00,1.977052211761474609e+00,1.976851463317871094e+00,1.976650476455688477e+00,1.976449728012084961e+00,1.145138144493103027e+00,1.120661497116088867e+00,1.107783675193786621e+00,1.095198392868041992e+00,1.091567039489746094e+00,1.975245475769042969e+00,1.975044846534729004e+00,1.974844455718994141e+00,1.974643826484680176e+00,1.974443554878234863e+00,1.974243044853210449e+00,1.974042773246765137e+00,1.973842263221740723e+00,1.973642110824584961e+00,1.973441839218139648e+00,1.973241686820983887e+00,1.973041415214538574e+00,1.967758655548095703e+00,1.935730695724487305e+00,1.904728770256042480e+00,1.874704003334045410e+00,1.845611333847045898e+00
1.777525782585144043e+00,1.777363300323486328e+00,1.777200937271118164e+00,1.777038455009460449e+00,1.776876330375671387e+00,1.776713848114013672e+00,1.776551723480224609e+00,1.776389360427856445e+00,1.776227235794067383e+00,1.776064991950988770e+00,1.775902986526489258e+00,1.775740742683410645e+00,1.775578737258911133e+00,1.775416612625122070e+00,1.775254607200622559e+00,1.775092601776123047e+00,1.774930715560913086e+00,1.774768590927124023e+00,1.774606823921203613e+00,1.774444818496704102e+00,1.774283051490783691e+00,1.774121165275573730e+00,1.773959398269653320e+00,1.773797631263732910e+00,1.773635983467102051e+00,1.773474097251892090e+00,1.773312568664550781e+00,1.773150801658630371e+00,1.772989273071289062e+00,1.772827625274658203e+00,1.772666096687316895e+00,1.772504568099975586e+00,1.772343158721923828e+00,1.772181510925292969e+00,1.772020220756530762e+00,1.771858692169189453e+00,1.771697402000427246e+00,1.771535992622375488e+00,1.771374702453613281e+00,1.771213293075561523e+00,1.771052122116088867e+00,1.770890831947326660e+00,1.770729660987854004e+00,1.770568370819091797e+00,1.770407319068908691e+00,1.770246148109436035e+00,1.770085096359252930e+00,1.769924044609069824e+00,1.769763112068176270e+00,1.573078989982604980e+00,1.591023921966552734e+00,1.769280076026916504e+00,1.769119262695312500e+00,1.768958210945129395e+00,1.768797516822814941e+00,1.768636584281921387e+00,1.768475890159606934e+00,1.768315196037292480e+00,1.768154382705688477e+00,1.139365434646606445e+00,1.116597890853881836e+00,1.107838034629821777e+00,1.102617383003234863e+00,1.767351150512695312e+00,1.767190575599670410e+00,1.767030119895935059e+00,1.766869425773620605e+00,1.766709089279174805e+00,1.766548514366149902e+00,1.766388297080993652e+00,1.766227722167968750e+00,1.766067504882812500e+00,1.765907049179077148e+00,1.765746831893920898e+00,1.765586495399475098e+00,1.765426397323608398e+00,1.765266060829162598e+00,1.765105962753295898e+00,1.764945745468139648e+00,1.764785766601562500e+00
1.607375621795654297e+00,1.607242941856384277e+00,1.607110023498535156e+00,1.606977343559265137e+00,1.606844544410705566e+00,1.606711864471435547e+00,1.606579065322875977e+00,1.606446504592895508e+00,1.606313705444335938e+00,1.606181144714355469e+00,1.606048464775085449e+00,1.605916023254394531e+00,1.605783343315124512e+00,1.605650901794433594e+00,1.605518221855163574e+00,1.605385780334472656e+00,1.605253219604492188e+00,1.605120897293090820e+00,1.604988336563110352e+00,1.604856014251708984e+00,1.604723572731018066e+00,1.604591250419616699e+00,1.604458808898925781e+00,1.604326605796813965e+00,1.604194164276123047e+00,1.604061961174011230e+00,1.603929638862609863e+00,1.603797435760498047e+00,1.603665113449096680e+00,1.603533029556274414e+00,1.603400826454162598e+00,1.603268742561340332e+00,1.603136539459228516e+00,1.603004455566406250e+00,1.602872490882873535e+00,1.602740287780761719e+00,1.602608323097229004e+00,1.602476239204406738e+00,1.602344274520874023e+00,1.602212190628051758e+00,1.602080345153808594e+00,1.601948380470275879e+00,1.601816534996032715e+00,1.601684570312500000e+00,1.601552724838256836e+00,1.601420760154724121e+00,1.601289033889770508e+00,1.601157188415527344e+00,1.601025462150573730e+00,1.600893616676330566e+00,1.600762009620666504e+00,1.600630164146423340e+00,1.600498557090759277e+00,1.600366830825805664e+00,1.600235223770141602e+00,1.600103497505187988e+00,1.599971890449523926e+00,1.599840283393859863e+00,1.599708795547485352e+00,1.142947793006896973e+00,1.116767764091491699e+00,1.106570482254028320e+00,1.097924590110778809e+00,1.099540829658508301e+00,1.598919868469238281e+00,1.598788380622863770e+00,1.598657011985778809e+00,1.598525524139404297e+00,1.598394274711608887e+00,1.598262906074523926e+00,1.598131656646728516e+00,1.598000288009643555e+00,1.597869038581848145e+00,1.597737789154052734e+00,1.597606658935546875e+00,1.597475290298461914e+00,1.597344279289245605e+00,1.597213029861450195e+00,1.597081899642944336e+00,1.596950769424438477e+00
1.466954469680786133e+00,1.466843724250793457e+00,1.466733217239379883e+00,1.466622591018676758e+00,1.466512084007263184e+00,1.466401457786560059e+00,1.466290950775146484e+00,1.466180324554443359e+00,1.466069936752319336e+00,1.465959429740905762e+00,1.465848922729492188e+00,1.465738534927368164e+00,1.465628027915954590e+00,1.465517759323120117e+00,1.465407252311706543e+00,1.465296983718872070e+00,1.465186476707458496e+00,1.465076208114624023e+00,1.464965820312500000e+00,1.464855551719665527e+00,1.464745163917541504e+00,1.464634895324707031e+00,1.464524626731872559e+00,1.464414358139038086e+00,1.464304089546203613e+00,1.464193940162658691e+00,1.464083671569824219e+00,1.463973522186279297e+00,1.463863253593444824e+00,1.463753223419189453e+00,1.463642954826354980e+00,1.463532924652099609e+00,1.463422775268554688e+00,1.463312745094299316e+00,1.463202595710754395e+00,1.463092684745788574e+00,1.462982535362243652e+00,1.462872505187988281e+00,1.462762475013732910e+00,1.462652564048767090e+00,1.462542533874511719e+00,1.462432622909545898e+00,1.462322592735290527e+00,1.462212800979614258e+00,1.462102770805358887e+00,1.461992979049682617e+00,1.461883068084716797e+00,1.461773276329040527e+00,1.461663365364074707e+00,1.461553573608398438e+00,1.461443781852722168e+00,1.461333990097045898e+00,1.461224198341369629e+00,1.461114525794982910e+00,1.461004614830017090e+00,1.460895061492919922e+00,1.460785269737243652e+00,1.460675597190856934e+00,1.460565924644470215e+00,1.144793272018432617e+00,1.116197109222412109e+00,1.099199652671813965e+00,1.086592674255371094e+00,1.077924251556396484e+00,1.077898025512695312e+00,1.459798693656921387e+00,1.459689021110534668e+00,1.459579586982727051e+00,1.459470033645629883e+00,1.459360599517822266e+00,1.459251046180725098e+00,1.459141612052917480e+00,1.459032297134399414e+00,1.458922743797302246e+00,1.458813428878784180e+00,1.458703994750976562e+00,1.458594679832458496e+00,1.458485245704650879e+00,1.458375930786132812e+00,1.458266496658325195e+00
1.349096655845642090e+00,1.349002957344055176e+00,1.348909497261047363e+00,1.348815917968750000e+00,1.348722457885742188e+00,1.348628878593444824e+00,1.348535418510437012e+00,1.348441958427429199e+00,1.348348498344421387e+00,1.348255038261413574e+00,1.348161578178405762e+00,1.348068118095397949e+00,1.347974777221679688e+00,1.347881317138671875e+00,1.347787976264953613e+00,1.347694516181945801e+00,1.347601175308227539e+00,1.347507834434509277e+00,1.347414493560791016e+00,1.347321152687072754e+00,1.347227931022644043e+00,1.347134590148925781e+00,1.347041368484497070e+00,1.346948027610778809e+00,1.346854805946350098e+00,1.346761465072631836e+00,1.346668243408203125e+00,1.346575021743774414e+00,1.346481919288635254e+00,1.346388578414916992e+00,1.346295475959777832e+00,1.346202254295349121e+00,1.346109151840209961e+00,1.346015930175781250e+00,1.345922827720642090e+00,1.345829725265502930e+00,1.345736622810363770e+00,1.345643520355224609e+00,1.345550417900085449e+00,1.345457315444946289e+00,1.345364332199096680e+00,1.345271229743957520e+00,1.345178246498107910e+00,1.345085144042968750e+00,1.344992280006408691e+00,1.344899177551269531e+00,1.344806313514709473e+00,1.344713211059570312e+00,1.344620347023010254e+00,1.344527482986450195e+00,1.344434499740600586e+00,1.344341635704040527e+00,1.344248652458190918e+00,1.344155788421630859e+00,1.344062924385070801e+00,1.343970060348510742e+00,1.343877196311950684e+00,1.343784332275390625e+00,1.343691468238830566e+00,1.145814538002014160e+00,1.114260911941528320e+00,1.092007637023925781e+00,1.076415538787841797e+00,1.065384149551391602e+00,1.058934807777404785e+00,1.057525753974914551e+00,1.342949390411376953e+00,1.342856645584106445e+00,1.342763900756835938e+00,1.342671275138854980e+00,1.342578530311584473e+00,1.342485904693603516e+00,1.342393279075622559e+00,1.342300653457641602e+00,1.342208027839660645e+00,1.342115402221679688e+00,1.342022776603698730e+00,1.341930270195007324e+00,1.341837644577026367e+00,1.341745138168334961e+00
1.248768210411071777e+00,1.248688101768493652e+00,1.248607873916625977e+00,1.248527765274047852e+00,1.248447656631469727e+00,1.248367547988891602e+00,1.248287439346313477e+00,1.248207330703735352e+00,1.248127222061157227e+00,1.248047113418579102e+00,1.247967004776000977e+00,1.247887015342712402e+00,1.247806906700134277e+00,1.247726917266845703e+00,1.247646927833557129e+00,1.247566938400268555e+00,1.247486829757690430e+00,1.247406840324401855e+00,1.247326850891113281e+00,1.247246980667114258e+00,1.247166872024536133e+00,1.247087001800537109e+00,1.247007012367248535e+00,1.246927142143249512e+00,1.246847152709960938e+00,1.246767282485961914e+00,1.246687293052673340e+00,1.246607422828674316e+00,1.246527671813964844e+00,1.246447682380676270e+00,1.246367931365966797e+00,1.246287941932678223e+00,1.246208190917968750e+00,1.246128320693969727e+00,1.246048569679260254e+00,1.245968699455261230e+00,1.245888948440551758e+00,1.245809078216552734e+00,1.245729327201843262e+00,1.245649456977844238e+00,1.245569825172424316e+00,1.245489954948425293e+00,1.245410323143005371e+00,1.245330452919006348e+00,1.245250821113586426e+00,1.245171070098876953e+00,1.245091438293457031e+00,1.245011687278747559e+00,1.244932055473327637e+00,1.244852304458618164e+00,1.244772672653198242e+00,1.244693040847778320e+00,1.244613409042358398e+00,1.244533777236938477e+00,1.244454145431518555e+00,1.244374513626098633e+00,1.244295001029968262e+00,1.244215369224548340e+00,1.244135737419128418e+00,1.147351145744323730e+00,1.111232638359069824e+00,1.082306385040283203e+00,1.065819382667541504e+00,1.053171515464782715e+00,1.044624805450439453e+00,1.037938475608825684e+00,1.036576151847839355e+00,1.037206053733825684e+00,1.243340611457824707e+00,1.243261098861694336e+00,1.243181586265563965e+00,1.243102192878723145e+00,1.243022799491882324e+00,1.242943286895751953e+00,1.242863893508911133e+00,1.242784500122070312e+00,1.242705106735229492e+00,1.242625713348388672e+00,1.242546319961547852e+00,1.242466926574707031e+00
1.162329316139221191e+00,1.162259817123413086e+00,1.162190318107604980e+00,1.162120938301086426e+00,1.162051558494567871e+00,1.161982178688049316e+00,1.161912679672241211e+00,1.161843299865722656e+00,1.161773920059204102e+00,1.161704540252685547e+00,1.161635160446166992e+00,1.161565780639648438e+00,1.161496400833129883e+00,1.161427140235900879e+00,1.161357760429382324e+00,1.161288380622863770e+00,1.161219000816345215e+00,1.161149740219116211e+00,1.161080479621887207e+00,1.161011219024658203e+00,1.160941839218139648e+00,1.160872578620910645e+00,1.160803318023681641e+00,1.160734057426452637e+00,1.160664796829223633e+00,1.160595536231994629e+00,1.160526275634765625e+00,1.160457015037536621e+00,1.160387754440307617e+00,1.160318613052368164e+00,1.160249352455139160e+00,1.160180211067199707e+00,1.160110950469970703e+00,1.160041809082031250e+00,1.159972548484802246e+00,1.159903407096862793e+00,1.159834265708923340e+00,1.159765124320983887e+00,1.159695982933044434e+00,1.159626841545104980e+00,1.159557700157165527e+00,1.159488558769226074e+00,1.159419417381286621e+00,1.159350395202636719e+00,1.159281253814697266e+00,1.159212231636047363e+00,1.159143090248107910e+00,1.159074068069458008e+00,1.159004926681518555e+00,1.158935904502868652e+00,1.158866882324218750e+00,1.158797860145568848e+00,1.158728837966918945e+00,1.158659815788269043e+00,1.158590793609619141e+00,1.158521771430969238e+00,1.158452749252319336e+00,1.158383846282958984e+00,1.158314824104309082e+00,1.158245921134948730e+00,1.158176898956298828e+00,1.085113525390625000e+00,1.050345540046691895e+00,1.035600066184997559e+00,1.027160048484802246e+00,1.021000742912292480e+00,1.016929864883422852e+00,1.009297966957092285e+00,1.011633872985839844e+00,1.001868128776550293e+00,1.157487750053405762e+00,1.157418847084045410e+00,1.157350063323974609e+00,1.157281160354614258e+00,1.157212376594543457e+00,1.157143473625183105e+00,1.157074689865112305e+00,1.157005786895751953e+00,1.156937003135681152e+00,1.156868219375610352e+00
1.087082028388977051e+00,1.087021350860595703e+00,1.086960554122924805e+00,1.086899876594543457e+00,1.086839079856872559e+00,1.086778402328491211e+00,1.086717724800109863e+00,1.086656928062438965e+00,1.086596250534057617e+00,1.086535573005676270e+00,1.086474895477294922e+00,1.086414217948913574e+00,1.086353540420532227e+00,1.086292862892150879e+00,1.086232185363769531e+00,1.086171507835388184e+00,1.086110949516296387e+00,1.086050271987915039e+00,1.085989594459533691e+00,1.085929036140441895e+00,1.085868358612060547e+00,1.085807800292968750e+00,1.085747122764587402e+00,1.085686564445495605e+00,1.085626006126403809e+00,1.085565328598022461e+00,1.085504770278930664e+00,1.085444211959838867e+00,1.085383653640747070e+00,1.085323095321655273e+00,1.085262537002563477e+00,1.085201978683471680e+00,1.085141539573669434e+00,1.085080981254577637e+00,1.085020422935485840e+00,1.084959864616394043e+00,1.084899425506591797e+00,1.084838867187500000e+00,1.084778428077697754e+00,1.084717869758605957e+00,1.084657430648803711e+00,1.084596991539001465e+00,1.084536433219909668e+00,1.084475994110107422e+00,1.084415555000305176e+00,1.084355115890502930e+00,1.084294676780700684e+00,1.084234237670898438e+00,1.084173798561096191e+00,1.084113359451293945e+00,1.084052920341491699e+00,1.083992600440979004e+00,1.083932161331176758e+00,1.083871722221374512e+00,1.083811402320861816e+00,1.083750963211059570e+00,1.083690524101257324e+00,1.083630204200744629e+00,1.083569884300231934e+00,1.083509564399719238e+00,1.083449125289916992e+00,1.083388805389404297e+00,1.083328485488891602e+00,1.027616977691650391e+00,1.013463377952575684e+00,1.001701712608337402e+00,9.930078983306884766e-01,9.887074232101440430e-01,9.877508878707885742e-01,9.812189936637878418e-01,9.757034182548522949e-01,1.082785725593566895e+00,1.082725405693054199e+00,1.082665205001831055e+00,1.082604885101318359e+00,1.082544684410095215e+00,1.082484483718872070e+00,1.082424283027648926e+00,1.082363963127136230e+00,1.082303762435913086e+00
1.020985245704650879e+00,1.020931601524353027e+00,1.020878076553344727e+00,1.020824551582336426e+00,1.020770907402038574e+00,1.020717382431030273e+00,1.020663738250732422e+00,1.020610213279724121e+00,1.020556688308715820e+00,1.020503163337707520e+00,1.020449638366699219e+00,1.020396113395690918e+00,1.020342588424682617e+00,1.020289063453674316e+00,1.020235538482666016e+00,1.020182013511657715e+00,1.020128488540649414e+00,1.020075082778930664e+00,1.020021557807922363e+00,1.019968032836914062e+00,1.019914627075195312e+00,1.019861102104187012e+00,1.019807696342468262e+00,1.019754171371459961e+00,1.019700765609741211e+00,1.019647240638732910e+00,1.019593834877014160e+00,1.019540429115295410e+00,1.019487023353576660e+00,1.019433498382568359e+00,1.019380092620849609e+00,1.019326686859130859e+00,1.019273281097412109e+00,1.019219875335693359e+00,1.019166469573974609e+00,1.019113063812255859e+00,1.019059658050537109e+00,1.019006252288818359e+00,1.018952965736389160e+00,1.018899559974670410e+00,1.018846154212951660e+00,1.018792867660522461e+00,1.018739461898803711e+00,1.018686056137084961e+00,1.018632769584655762e+00,1.018579483032226562e+00,1.018526077270507812e+00,1.018472790718078613e+00,1.018419504165649414e+00,1.018366098403930664e+00,1.018312811851501465e+00,1.018259525299072266e+00,1.018206238746643066e+00,1.018152952194213867e+00,1.018099665641784668e+00,1.018046379089355469e+00,1.017993092536926270e+00,1.017939805984497070e+00,1.017886519432067871e+00,1.017833232879638672e+00,1.017780065536499023e+00,1.017726778984069824e+00,1.017673492431640625e+00,1.017620325088500977e+00,1.017567038536071777e+00,9.978290200233459473e-01,9.865183830261230469e-01,1.017407417297363281e+00,1.017354130744934082e+00,1.017300963401794434e+00,1.017247796058654785e+00,1.017194509506225586e+00,1.017141342163085938e+00,1.017088174819946289e+00,1.017035007476806641e+00,1.016981840133666992e+00,1.016928672790527344e+00,1.016875505447387695e+00,1.016822338104248047e+00,1.016769289970397949e+00
9.624654650688171387e-01,9.624178409576416016e-01,9.623701572418212891e-01,9.623225331306457520e-01,9.622749686241149902e-01,9.622274041175842285e-01,9.621797204017639160e-01,9.621321558952331543e-01,9.620845913887023926e-01,9.620370268821716309e-01,9.619894027709960938e-01,9.619418382644653320e-01,9.618943333625793457e-01,9.618467688560485840e-01,9.617991447448730469e-01,9.617515802383422852e-01,9.617040753364562988e-01,9.616565704345703125e-01,9.616089463233947754e-01,9.615614414215087891e-01,9.615139365196228027e-01,9.614664316177368164e-01,9.614188075065612793e-01,9.613713622093200684e-01,9.613238573074340820e-01,9.612764120101928711e-01,9.612287878990173340e-01,9.611813426017761230e-01,9.611338376998901367e-01,9.610863924026489258e-01,9.610388278961181641e-01,9.609913825988769531e-01,9.609439373016357422e-01,9.608964920043945312e-01,9.608489274978637695e-01,9.608015418052673340e-01,9.607540965080261230e-01,9.607066512107849121e-01,9.606591463088989258e-01,9.606117010116577148e-01,9.605643153190612793e-01,9.605169296264648438e-01,9.604694247245788574e-01,9.604220390319824219e-01,9.603745937347412109e-01,9.603272080421447754e-01,9.602797627449035645e-01,9.602323770523071289e-01,9.601849913597106934e-01,9.601376056671142578e-01,9.600901603698730469e-01,9.600427746772766113e-01,9.599954485893249512e-01,9.599481225013732910e-01,9.599006175994873047e-01,9.598532915115356445e-01,9.598059654235839844e-01,9.597586393356323242e-01,9.597113132476806641e-01,9.596638679504394531e-01,9.596165418624877930e-01,9.595692753791809082e-01,9.595219492912292480e-01,9.594745635986328125e-01,9.594272375106811523e-01,9.593799710273742676e-01,9.593326449394226074e-01,9.592852592468261719e-01,9.592379927635192871e-01,9.591907262802124023e-01,9.591434597969055176e-01,9.590960741043090820e-01,9.590488076210021973e-01,9.590015411376953125e-01,9.589542746543884277e-01,9.589069485664367676e-01,9.588596820831298828e-01,9.588124752044677734e-01,9.587652087211608887e-01,9.587178826332092285e-01
9.102903008460998535e-01,9.102476239204406738e-01,9.102050662040710449e-01,9.101624488830566406e-01,9.101198911666870117e-01,9.100772738456726074e-01,9.100347161293029785e-01,9.099921584129333496e-01,9.099496006965637207e-01,9.099069833755493164e-01,9.098644256591796875e-01,9.098219275474548340e-01,9.097793698310852051e-01,9.097367525100708008e-01,9.096942543983459473e-01,9.096516966819763184e-01,9.096091985702514648e-01,9.095665812492370605e-01,9.095240831375122070e-01,9.094815850257873535e-01,9.094390869140625000e-01,9.093965291976928711e-01,9.093540310859680176e-01,9.093115329742431641e-01,9.092690348625183105e-01,9.092264771461486816e-01,9.091839790344238281e-01,9.091415405273437500e-01,9.090990424156188965e-01,9.090564846992492676e-01,9.090140461921691895e-01,9.089716076850891113e-01,9.089291691780090332e-01,9.088867306709289551e-01,9.088441729545593262e-01,9.088017344474792480e-01,9.087592959403991699e-01,9.087168574333190918e-01,9.086743593215942383e-01,9.086319208145141602e-01,9.085894823074340820e-01,9.085471034049987793e-01,9.085046052932739258e-01,9.084621667861938477e-01,9.084197878837585449e-01,9.083774089813232422e-01,9.083349108695983887e-01,9.082924723625183105e-01,9.082500934600830078e-01,9.082077145576477051e-01,9.081652760505676270e-01,9.081228971481323242e-01,9.080805182456970215e-01,9.080381393432617188e-01,9.079957008361816406e-01,9.079533219337463379e-01,9.079110026359558105e-01,9.078686237335205078e-01,9.078261852264404297e-01,9.077838659286499023e-01,9.077414870262145996e-01,9.076991677284240723e-01,9.076567292213439941e-01,9.076144099235534668e-01,9.075720906257629395e-01,9.075297713279724121e-01,9.074873328208923340e-01,9.074450731277465820e-01,9.074027538299560547e-01,9.073604345321655273e-01,9.073180556297302246e-01,9.072757363319396973e-01,9.072334766387939453e-01,9.071911573410034180e-01,9.071487784385681152e-01,9.071065187454223633e-01,9.070642590522766113e-01,9.070219993591308594e-01,9.069796204566955566e-01,9.069373607635498047e-01
8.634809851646423340e-01,8.634426593780517578e-01,8.634043931961059570e-01,8.633660674095153809e-01,8.633276820182800293e-01,8.632893562316894531e-01,8.632510900497436523e-01,8.632128238677978516e-01,8.631744384765625000e-01,8.631361722946166992e-01,8.630979061126708984e-01,8.630595803260803223e-01,8.630213141441345215e-01,8.629829883575439453e-01,8.629447221755981445e-01,8.629064559936523438e-01,8.628681898117065430e-01,8.628298640251159668e-01,8.627915978431701660e-01,8.627533912658691406e-01,8.627151250839233398e-01,8.626767992973327637e-01,8.626385927200317383e-01,8.626003265380859375e-01,8.625621199607849121e-01,8.625237941741943359e-01,8.624855875968933105e-01,8.624473810195922852e-01,8.624091148376464844e-01,8.623708486557006836e-01,8.623326420783996582e-01,8.622944355010986328e-01,8.622562289237976074e-01,8.622179627418518066e-01,8.621797561645507812e-01,8.621415495872497559e-01,8.621033430099487305e-01,8.620650768280029297e-01,8.620269298553466797e-01,8.619887232780456543e-01,8.619505763053894043e-01,8.619123101234436035e-01,8.618741035461425781e-01,8.618359565734863281e-01,8.617978096008300781e-01,8.617595434188842773e-01,8.617213964462280273e-01,8.616832494735717773e-01,8.616451025009155273e-01,8.616068959236145020e-01,8.615687489509582520e-01,8.615306019783020020e-01,8.614924550056457520e-01,8.614542484283447266e-01,8.614161014556884766e-01,8.613780140876770020e-01,8.613398671150207520e-01,8.613016605377197266e-01,8.612635731697082520e-01,8.612254261970520020e-01,8.611873388290405273e-01,8.611491322517395020e-01,8.611110448837280273e-01,8.610729575157165527e-01,8.610348701477050781e-01,8.609966635704040527e-01,8.609585762023925781e-01,8.609204888343811035e-01,8.608824014663696289e-01,8.608442544937133789e-01,8.608061671257019043e-01,8.607681393623352051e-01,8.607300519943237305e-01,8.606919646263122559e-01,8.606538176536560059e-01,8.606157898902893066e-01,8.605777025222778320e-01,8.605396747589111328e-01,8.605015277862548828e-01,8.604635000228881836e-01
8.212503790855407715e-01,8.212157487869262695e-01,8.211811184883117676e-01,8.211464285850524902e-01,8.211117386817932129e-01,8.210771083831787109e-01,8.210424780845642090e-01,8.210077881813049316e-01,8.209730982780456543e-01,8.209384679794311523e-01,8.209038376808166504e-01,8.208692073822021484e-01,8.208345174789428711e-01,8.207999467849731445e-01,8.207653164863586426e-01,8.207306861877441406e-01,8.206959962844848633e-01,8.206614255905151367e-01,8.206267952919006348e-01,8.205922245979309082e-01,8.205575346946716309e-01,8.205229640007019043e-01,8.204883337020874023e-01,8.204537630081176758e-01,8.204191327095031738e-01,8.203845024108886719e-01,8.203499317169189453e-01,8.203153610229492188e-01,8.202807307243347168e-01,8.202461600303649902e-01,8.202115893363952637e-01,8.201770186424255371e-01,8.201423883438110352e-01,8.201078176498413086e-01,8.200732469558715820e-01,8.200387358665466309e-01,8.200041055679321289e-01,8.199695348739624023e-01,8.199350237846374512e-01,8.199004530906677246e-01,8.198658227920532227e-01,8.198313117027282715e-01,8.197968006134033203e-01,8.197622299194335938e-01,8.197276592254638672e-01,8.196930885314941406e-01,8.196585774421691895e-01,8.196240663528442383e-01,8.195894956588745117e-01,8.195549845695495605e-01,8.195204734802246094e-01,8.194859623908996582e-01,8.194514513015747070e-01,8.194168806076049805e-01,8.193823695182800293e-01,8.193478584289550781e-01,8.193134069442749023e-01,8.192788362503051758e-01,8.192443251609802246e-01,8.192098736763000488e-01,8.191753625869750977e-01,8.191407918930053711e-01,8.191063404083251953e-01,8.190718889236450195e-01,8.190373778343200684e-01,8.190028667449951172e-01,8.189684152603149414e-01,8.189339637756347656e-01,8.188994526863098145e-01,8.188649415969848633e-01,8.188304901123046875e-01,8.187960386276245117e-01,8.187615871429443359e-01,8.187270760536193848e-01,8.186926245689392090e-01,8.186582326889038086e-01,8.186237812042236328e-01,8.185892701148986816e-01,8.185548186302185059e-01,8.185204267501831055e-01
7.829580307006835938e-01,7.829264998435974121e-01,7.828950285911560059e-01,7.828634381294250488e-01,7.828319668769836426e-01,7.828004956245422363e-01,7.827690243721008301e-01,7.827374339103698730e-01,7.827059626579284668e-01,7.826744914054870605e-01,7.826430201530456543e-01,7.826114892959594727e-01,7.825800180435180664e-01,7.825485467910766602e-01,7.825170755386352539e-01,7.824855446815490723e-01,7.824540734291076660e-01,7.824226021766662598e-01,7.823911905288696289e-01,7.823596596717834473e-01,7.823281884193420410e-01,7.822967767715454102e-01,7.822653055191040039e-01,7.822338342666625977e-01,7.822023630142211914e-01,7.821709513664245605e-01,7.821394801139831543e-01,7.821080684661865234e-01,7.820765972137451172e-01,7.820451259613037109e-01,7.820137143135070801e-01,7.819823026657104492e-01,7.819508314132690430e-01,7.819194197654724121e-01,7.818880081176757812e-01,7.818565964698791504e-01,7.818251252174377441e-01,7.817937135696411133e-01,7.817623019218444824e-01,7.817308902740478516e-01,7.816994190216064453e-01,7.816680073738098145e-01,7.816366553306579590e-01,7.816052436828613281e-01,7.815737724304199219e-01,7.815424203872680664e-01,7.815110087394714355e-01,7.814796566963195801e-01,7.814481854438781738e-01,7.814168334007263184e-01,7.813854217529296875e-01,7.813540697097778320e-01,7.813226580619812012e-01,7.812912464141845703e-01,7.812598943710327148e-01,7.812285423278808594e-01,7.811971306800842285e-01,7.811657786369323730e-01,7.811344265937805176e-01,7.811030745506286621e-01,7.810716629028320312e-01,7.810403108596801758e-01,7.810089588165283203e-01,7.809776067733764648e-01,7.809461951255798340e-01,7.809149026870727539e-01,7.808835506439208984e-01,7.808521986007690430e-01,7.808207869529724121e-01,7.807894945144653320e-01,7.807581424713134766e-01,7.807268500328063965e-01,7.806954383850097656e-01,7.806641459465026855e-01,7.806328535079956055e-01,7.806015014648437500e-01,7.805701494216918945e-01,7.805388569831848145e-01,7.805075645446777344e-01,7.804762721061706543e-01
7.480774521827697754e-01,7.480486631393432617e-01,7.480198740959167480e-01,7.479910850524902344e-01,7.479623556137084961e-01,7.479336261749267578e-01,7.479048967361450195e-01,7.478761076927185059e-01,7.478473186492919922e-01,7.478185892105102539e-01,7.477898597717285156e-01,7.477610707283020020e-01,7.477323412895202637e-01,7.477036118507385254e-01,7.476748824119567871e-01,7.476460933685302734e-01,7.476174235343933105e-01,7.475886940956115723e-01,7.475599646568298340e-01,7.475311756134033203e-01,7.475025057792663574e-01,7.474737763404846191e-01,7.474450469017028809e-01,7.474163174629211426e-01,7.473875880241394043e-01,7.473589181900024414e-01,7.473301887512207031e-01,7.473014593124389648e-01,7.472727298736572266e-01,7.472440600395202637e-01,7.472153902053833008e-01,7.471866011619567871e-01,7.471579313278198242e-01,7.471292614936828613e-01,7.471005916595458984e-01,7.470718026161193848e-01,7.470431327819824219e-01,7.470144629478454590e-01,7.469857931137084961e-01,7.469570636749267578e-01,7.469283938407897949e-01,7.468997240066528320e-01,7.468711137771606445e-01,7.468423843383789062e-01,7.468137145042419434e-01,7.467850446701049805e-01,7.467563748359680176e-01,7.467277050018310547e-01,7.466990351676940918e-01,7.466703653335571289e-01,7.466417551040649414e-01,7.466130256652832031e-01,7.465844154357910156e-01,7.465557456016540527e-01,7.465271353721618652e-01,7.464984059333801270e-01,7.464697957038879395e-01,7.464411854743957520e-01,7.464125156402587891e-01,7.463838458061218262e-01,7.463552355766296387e-01,7.463266253471374512e-01,7.462979555130004883e-01,7.462693452835083008e-01,7.462406754493713379e-01,7.462120652198791504e-01,7.461834549903869629e-01,7.461548447608947754e-01,7.461261749267578125e-01,7.460975646972656250e-01,7.460690140724182129e-01,7.460404038429260254e-01,7.460117340087890625e-01,7.459831237792968750e-01,7.459545135498046875e-01,7.459259629249572754e-01,7.458972930908203125e-01,7.458687424659729004e-01,7.458401322364807129e-01,7.458115816116333008e-01
7.161721587181091309e-01,7.161458134651184082e-01,7.161193490028381348e-01,7.160930037498474121e-01,7.160666584968566895e-01,7.160403132438659668e-01,7.160139083862304688e-01,7.159876227378845215e-01,7.159612774848937988e-01,7.159349322319030762e-01,7.159085273742675781e-01,7.158821821212768555e-01,7.158558368682861328e-01,7.158295512199401855e-01,7.158031463623046875e-01,7.157768011093139648e-01,7.157505154609680176e-01,7.157241702079772949e-01,7.156978249549865723e-01,7.156714797019958496e-01,7.156451940536499023e-01,7.156188488006591797e-01,7.155925035476684570e-01,7.155661582946777344e-01,7.155398726463317871e-01,7.155135869979858398e-01,7.154871821403503418e-01,7.154608964920043945e-01,7.154346108436584473e-01,7.154083251953125000e-01,7.153819203376770020e-01,7.153556346893310547e-01,7.153293490409851074e-01,7.153030633926391602e-01,7.152767181396484375e-01,7.152504324913024902e-01,7.152241468429565430e-01,7.151978611946105957e-01,7.151715159416198730e-01,7.151452302932739258e-01,7.151190042495727539e-01,7.150927186012268066e-01,7.150664329528808594e-01,7.150400876998901367e-01,7.150138616561889648e-01,7.149875760078430176e-01,7.149612903594970703e-01,7.149350047111511230e-01,7.149087190628051758e-01,7.148824930191040039e-01,7.148562073707580566e-01,7.148299217224121094e-01,7.148036360740661621e-01,7.147774100303649902e-01,7.147511243820190430e-01,7.147248387336730957e-01,7.146986126899719238e-01,7.146723270416259766e-01,7.146461009979248047e-01,7.146198153495788574e-01,7.145935893058776855e-01,7.145673036575317383e-01,7.145410776138305664e-01,7.145147919654846191e-01,7.144885659217834473e-01,7.144623398780822754e-01,7.144361138343811035e-01,7.144098281860351562e-01,7.143836021423339844e-01,7.143573760986328125e-01,7.143311500549316406e-01,7.143049240112304688e-01,7.142786979675292969e-01,7.142524719238281250e-01,7.142262458801269531e-01,7.142000198364257812e-01,7.141737937927246094e-01,7.141475677490234375e-01,7.141214013099670410e-01,7.140951156616210938e-01
6.868770122528076172e-01,6.868527531623840332e-01,6.868284940719604492e-01,6.868042945861816406e-01,6.867800354957580566e-01,6.867557764053344727e-01,6.867315173149108887e-01,6.867072582244873047e-01,6.866830587387084961e-01,6.866587996482849121e-01,6.866345405578613281e-01,6.866103410720825195e-01,6.865860819816589355e-01,6.865618228912353516e-01,6.865376234054565430e-01,6.865134239196777344e-01,6.864891648292541504e-01,6.864649057388305664e-01,6.864407062530517578e-01,6.864165067672729492e-01,6.863923072814941406e-01,6.863681077957153320e-01,6.863438487052917480e-01,6.863196492195129395e-01,6.862953901290893555e-01,6.862711906433105469e-01,6.862469911575317383e-01,6.862227916717529297e-01,6.861985921859741211e-01,6.861743927001953125e-01,6.861501336097717285e-01,6.861259341239929199e-01,6.861017346382141113e-01,6.860775947570800781e-01,6.860533356666564941e-01,6.860291361808776855e-01,6.860049962997436523e-01,6.859807968139648438e-01,6.859565377235412598e-01,6.859323978424072266e-01,6.859081983566284180e-01,6.858840584754943848e-01,6.858597993850708008e-01,6.858356595039367676e-01,6.858114600181579590e-01,6.857873201370239258e-01,6.857631206512451172e-01,6.857389211654663086e-01,6.857147812843322754e-01,6.856906414031982422e-01,6.856663823127746582e-01,6.856422424316406250e-01,6.856181025505065918e-01,6.855939626693725586e-01,6.855697631835937500e-01,6.855456233024597168e-01,6.855214238166809082e-01,6.854972839355468750e-01,6.854730844497680664e-01,6.854489445686340332e-01,6.854248046875000000e-01,6.854006648063659668e-01,6.853765249252319336e-01,6.853523850440979004e-01,6.853282451629638672e-01,6.853041052818298340e-01,6.852799057960510254e-01,6.852557659149169922e-01,6.852316856384277344e-01,6.852075457572937012e-01,6.851833462715148926e-01,6.851592659950256348e-01,6.851351261138916016e-01,6.851109862327575684e-01,6.850868463516235352e-01,6.850627064704895020e-01,6.850386261940002441e-01,6.850144863128662109e-01,6.849903464317321777e-01,6.849662065505981445e-01
