5.000000000000000000e+00,5.000000000000000000e+00,5.000000000000000000e+00,5.000000000000000000e+00,5.000000000000000000e+00,5.000000000000000000e+00,5.000000000000000000e+00,5.000000000000000000e+00,5.000000000000000000e+00,5.000000000000000000e+00,5.000000000000000000e+00,5.000000000000000000e+00,5.000000000000000000e+00,5.000000000000000000e+00,5.000000000000000000e+00,5.000000000000000000e+00,5.000000000000000000e+00,5.000000000000000000e+00,5.000000000000000000e+00,5.000000000000000000e+00,5.000000000000000000e+00,5.000000000000000000e+00,5.000000000000000000e+00,5.000000000000000000e+00,5.000000000000000000e+00,5.000000000000000000e+00,5.000000000000000000e+00,5.000000000000000000e+00,5.000000000000000000e+00,5.000000000000000000e+00,5.000000000000000000e+00,5.000000000000000000e+00,5.000000000000000000e+00,5.000000000000000000e+00,5.000000000000000000e+00,5.000000000000000000e+00,5.000000000000000000e+00,5.000000000000000000e+00,5.000000000000000000e+00,4.849334239959716797e+00,4.659431934356689453e+00,4.483842849731445312e+00,4.321006774902343750e+00,4.169583797454833984e+00,4.028414249420166016e+00,3.896490812301635742e+00,3.772933721542358398e+00,3.656971454620361328e+00,3.547925233840942383e+00,3.445194005966186523e+00,3.348244428634643555e+00,3.256602048873901367e+00,3.169842481613159180e+00,3.087585926055908203e+00,3.009490251541137695e+00,2.935247898101806641e+00,2.864580154418945312e+00,2.797235250473022461e+00,2.732984066009521484e+00,2.671618461608886719e+00,2.612947940826416016e+00,2.556798934936523438e+00,2.503012418746948242e+00,2.451442003250122070e+00,2.401953697204589844e+00,2.354424238204956055e+00,2.308739185333251953e+00,2.264793395996093750e+00,2.222489118576049805e+00,2.181736469268798828e+00,2.142451286315917969e+00,2.104556083679199219e+00,2.067977666854858398e+00,2.032649278640747070e+00,1.998507976531982422e+00,1.965494513511657715e+00,1.933553934097290039e+00,1.902634859085083008e+00,1.872689008712768555e+00,1.843671083450317383e+00
5.000000000000000000e+00,5.000000000000000000e+00,5.000000000000000000e+00,5.000000000000000000e+00,5.000000000000000000e+00,5.000000000000000000e+00,5.000000000000000000e+00,5.000000000000000000e+00,5.000000000000000000e+00,5.000000000000000000e+00,5.000000000000000000e+00,5.000000000000000000e+00,5.000000000000000000e+00,5.000000000000000000e+00,5.000000000000000000e+00,5.000000000000000000e+00,5.000000000000000000e+00,5.000000000000000000e+00,5.000000000000000000e+00,5.000000000000000000e+00,5.000000000000000000e+00,5.000000000000000000e+00,5.000000000000000000e+00,5.000000000000000000e+00,5.000000000000000000e+00,5.000000000000000000e+00,5.000000000000000000e+00,5.000000000000000000e+00,5.000000000000000000e+00,5.000000000000000000e+00,5.000000000000000000e+00,5.000000000000000000e+00,5.000000000000000000e+00,5.000000000000000000e+00,5.000000000000000000e+00,5.000000000000000000e+00,5.000000000000000000e+00,5.000000000000000000e+00,5.000000000000000000e+00,4.849472999572753906e+00,4.659560203552246094e+00,4.483961105346679688e+00,4.321116924285888672e+00,4.169686317443847656e+00,4.028509616851806641e+00,3.896579980850219727e+00,3.773017406463623047e+00,3.657050371170043945e+00,3.547999620437622070e+00,3.445263862609863281e+00,3.348310470581054688e+00,3.256664752960205078e+00,3.169901847839355469e+00,3.087642192840576172e+00,3.009543657302856445e+00,2.935298681259155273e+00,2.864628553390502930e+00,2.797281265258789062e+00,2.733027935028076172e+00,2.671660423278808594e+00,2.612987995147705078e+00,2.556837320327758789e+00,2.503049135208129883e+00,2.451477289199829102e+00,2.401987791061401367e+00,2.354456901550292969e+00,2.308770656585693359e+00,2.264823675155639648e+00,2.222518205642700195e+00,2.181764602661132812e+00,2.142478466033935547e+00,2.104581832885742188e+00,2.068002700805664062e+00,2.032673597335815430e+00,1.998531341552734375e+00,1.965517044067382812e+00,1.933575749397277832e+00,1.902655959129333496e+00,1.872709512710571289e+00,1.843691110610961914e+00
5.000000000000000000e+00,5.000000000000000000e+00,5.000000000000000000e+00,5.000000000000000000e+00,5.000000000000000000e+00,5.000000000000000000e+00,5.000000000000000000e+00,5.000000000000000000e+00,5.000000000000000000e+00,5.000000000000000000e+00,5.000000000000000000e+00,5.000000000000000000e+00,5.000000000000000000e+00,5.000000000000000000e+00,5.000000000000000000e+00,5.000000000000000000e+00,5.000000000000000000e+00,5.000000000000000000e+00,5.000000000000000000e+00,5.000000000000000000e+00,5.000000000000000000e+00,5.000000000000000000e+00,5.000000000000000000e+00,5.000000000000000000e+00,5.000000000000000000e+00,5.000000000000000000e+00,5.000000000000000000e+00,5.000000000000000000e+00,5.000000000000000000e+00,5.000000000000000000e+00,5.000000000000000000e+00,5.000000000000000000e+00,5.000000000000000000e+00,5.000000000000000000e+00,5.000000000000000000e+00,5.000000000000000000e+00,5.000000000000000000e+00,5.000000000000000000e+00,5.000000000000000000e+00,4.849611759185791016e+00,4.659687995910644531e+00,4.484079837799072266e+00,4.321226596832275391e+00,4.169788360595703125e+00,4.028604984283447266e+00,3.896669626235961914e+00,3.773101329803466797e+00,3.657129287719726562e+00,3.548073768615722656e+00,3.445333957672119141e+00,3.348376512527465820e+00,3.256726980209350586e+00,3.169960737228393555e+00,3.087697982788085938e+00,3.009596824645996094e+00,2.935349225997924805e+00,2.864676713943481445e+00,2.797327280044555664e+00,2.733072042465209961e+00,2.671702384948730469e+00,2.613028287887573242e+00,2.556875944137573242e+00,2.503086090087890625e+00,2.451512813568115234e+00,2.402021884918212891e+00,2.354489803314208984e+00,2.308801889419555664e+00,2.264853715896606445e+00,2.222547292709350586e+00,2.181792497634887695e+00,2.142505168914794922e+00,2.104607820510864258e+00,2.068027973175048828e+00,2.032697916030883789e+00,1.998554944992065430e+00,1.965539813041687012e+00,1.933597803115844727e+00,1.902677297592163086e+00,1.872730135917663574e+00,1.843711137771606445e+00
5.000000000000000000e+00,5.000000000000000000e+00,5.000000000000000000e+00,5.000000000000000000e+00,5.000000000000000000e+00,5.000000000000000000e+00,5.000000000000000000e+00,5.000000000000000000e+00,5.000000000000000000e+00,5.000000000000000000e+00,5.000000000000000000e+00,5.000000000000000000e+00,5.000000000000000000e+00,5.000000000000000000e+00,5.000000000000000000e+00,5.000000000000000000e+00,5.000000000000000000e+00,5.000000000000000000e+00,5.000000000000000000e+00,5.000000000000000000e+00,5.000000000000000000e+00,5.000000000000000000e+00,5.000000000000000000e+00,5.000000000000000000e+00,5.000000000000000000e+00,5.000000000000000000e+00,5.000000000000000000e+00,5.000000000000000000e+00,5.000000000000000000e+00,5.000000000000000000e+00,5.000000000000000000e+00,5.000000000000000000e+00,5.000000000000000000e+00,5.000000000000000000e+00,5.000000000000000000e+00,5.000000000000000000e+00,5.000000000000000000e+00,5.000000000000000000e+00,5.000000000000000000e+00,4.849750041961669922e+00,4.659815788269042969e+00,4.484198093414306641e+00,4.321336746215820312e+00,4.169890880584716797e+00,4.028700828552246094e+00,3.896758794784545898e+00,3.773184776306152344e+00,3.657207965850830078e+00,3.548147678375244141e+00,3.445403814315795898e+00,3.348442554473876953e+00,3.256789684295654297e+00,3.170020103454589844e+00,3.087754249572753906e+00,3.009650468826293945e+00,2.935400247573852539e+00,2.864725351333618164e+00,2.797373533248901367e+00,2.733116149902343750e+00,2.671744585037231445e+00,2.613068342208862305e+00,2.556914329528808594e+00,2.503122806549072266e+00,2.451548099517822266e+00,2.402055740356445312e+00,2.354522228240966797e+00,2.308833360671997070e+00,2.264883995056152344e+00,2.222576379776000977e+00,2.181820392608642578e+00,2.142532348632812500e+00,2.104634046554565430e+00,2.068053245544433594e+00,2.032722473144531250e+00,1.998578429222106934e+00,1.965562701225280762e+00,1.933619856834411621e+00,1.902698636054992676e+00,1.872750878334045410e+00,1.843731164932250977e+00
5.000000000000000000e+00,5.000000000000000000e+00,5.000000000000000000e+00,5.000000000000000000e+00,5.000000000000000000e+00,5.000000000000000000e+00,5.000000000000000000e+00,5.000000000000000000e+00,5.000000000000000000e+00,5.000000000000000000e+00,5.000000000000000000e+00,5.000000000000000000e+00,5.000000000000000000e+00,5.000000000000000000e+00,5.000000000000000000e+00,5.000000000000000000e+00,5.000000000000000000e+00,5.000000000000000000e+00,5.000000000000000000e+00,5.000000000000000000e+00,5.000000000000000000e+00,5.000000000000000000e+00,5.000000000000000000e+00,5.000000000000000000e+00,5.000000000000000000e+00,5.000000000000000000e+00,5.000000000000000000e+00,5.000000000000000000e+00,5.000000000000000000e+00,5.000000000000000000e+00,5.000000000000000000e+00,5.000000000000000000e+00,5.000000000000000000e+00,5.000000000000000000e+00,5.000000000000000000e+00,5.000000000000000000e+00,5.000000000000000000e+00,5.000000000000000000e+00,5.000000000000000000e+00,4.849888324737548828e+00,4.659943580627441406e+00,4.484316825866699219e+00,4.321446895599365234e+00,4.169993400573730469e+00,4.028796195983886719e+00,3.896848201751708984e+00,3.773268938064575195e+00,3.657286882400512695e+00,3.548222064971923828e+00,3.445473670959472656e+00,3.348508834838867188e+00,3.256852149963378906e+00,3.170079469680786133e+00,3.087810277938842773e+00,3.009703636169433594e+00,2.935450792312622070e+00,2.864773511886596680e+00,2.797419548034667969e+00,2.733160018920898438e+00,2.671786546707153320e+00,2.613108634948730469e+00,2.556952953338623047e+00,2.503159761428833008e+00,2.451583623886108398e+00,2.402089834213256836e+00,2.354554891586303711e+00,2.308864831924438477e+00,2.264914274215698242e+00,2.222605466842651367e+00,2.181848287582397461e+00,2.142559289932250977e+00,2.104660034179687500e+00,2.068078279495239258e+00,2.032746553421020508e+00,1.998602032661437988e+00,1.965585470199584961e+00,1.933641910552978516e+00,1.902720093727111816e+00,1.872771501541137695e+00,1.843751311302185059e+00
5.000000000000000000e+00,5.000000000000000000e+00,5.000000000000000000e+00,5.000000000000000000e+00,5.000000000000000000e+00,5.000000000000000000e+00,5.000000000000000000e+00,5.000000000000000000e+00,5.000000000000000000e+00,5.000000000000000000e+00,5.000000000000000000e+00,5.000000000000000000e+00,5.000000000000000000e+00,5.000000000000000000e+00,5.000000000000000000e+00,5.000000000000000000e+00,5.000000000000000000e+00,5.000000000000000000e+00,5.000000000000000000e+00,5.000000000000000000e+00,5.000000000000000000e+00,5.000000000000000000e+00,5.000000000000000000e+00,5.000000000000000000e+00,5.000000000000000000e+00,5.000000000000000000e+00,3.648096561431884766e+00,3.654957056045532227e+00,5.000000000000000000e+00,5.000000000000000000e+00,5.000000000000000000e+00,5.000000000000000000e+00,5.000000000000000000e+00,5.000000000000000000e+00,5.000000000000000000e+00,5.000000000000000000e+00,5.000000000000000000e+00,5.000000000000000000e+00,5.000000000000000000e+00,4.850027084350585938e+00,4.660071372985839844e+00,4.484435081481933594e+00,4.321556568145751953e+00,4.170095920562744141e+00,4.028892040252685547e+00,3.896937847137451172e+00,3.773352861404418945e+00,3.657365322113037109e+00,3.548295974731445312e+00,3.445543527603149414e+00,3.348574638366699219e+00,3.256914377212524414e+00,3.170138359069824219e+00,3.087866544723510742e+00,3.009757041931152344e+00,2.935501575469970703e+00,2.864821910858154297e+00,2.797465562820434570e+00,2.733204126358032227e+00,2.671828746795654297e+00,2.613148927688598633e+00,2.556991577148437500e+00,2.503196716308593750e+00,2.451618909835815430e+00,2.402123689651489258e+00,2.354587554931640625e+00,2.308896064758300781e+00,2.264944076538085938e+00,2.222634315490722656e+00,2.181876420974731445e+00,2.142586231231689453e+00,2.104686260223388672e+00,2.068103551864624023e+00,2.032771110534667969e+00,1.998625636100769043e+00,1.965608239173889160e+00,1.933663964271545410e+00,1.902741432189941406e+00,1.872792243957519531e+00,1.843771100044250488e+00
5.000000000000000000e+00,5.000000000000000000e+00,5.000000000000000000e+00,5.000000000000000000e+00,5.000000000000000000e+00,5.000000000000000000e+00,5.000000000000000000e+00,5.000000000000000000e+00,5.000000000000000000e+00,5.000000000000000000e+00,5.000000000000000000e+00,5.000000000000000000e+00,5.000000000000000000e+00,5.000000000000000000e+00,5.000000000000000000e+00,5.000000000000000000e+00,5.000000000000000000e+00,5.000000000000000000e+00,5.000000000000000000e+00,5.000000000000000000e+00,5.000000000000000000e+00,5.000000000000000000e+00,5.000000000000000000e+00,5.000000000000000000e+00,5.000000000000000000e+00,5.000000000000000000e+00,3.642396688461303711e+00,3.646932840347290039e+00,5.000000000000000000e+00,5.000000000000000000e+00,5.000000000000000000e+00,5.000000000000000000e+00,5.000000000000000000e+00,5.000000000000000000e+00,5.000000000000000000e+00,5.000000000000000000e+00,5.000000000000000000e+00,5.000000000000000000e+00,5.000000000000000000e+00,4.850165843963623047e+00,4.660199165344238281e+00,4.484553337097167969e+00,4.321666717529296875e+00,4.170197963714599609e+00,4.028987407684326172e+00,3.897027015686035156e+00,3.773436546325683594e+00,3.657444238662719727e+00,3.548370361328125000e+00,3.445613622665405273e+00,3.348640680313110352e+00,3.256977081298828125e+00,3.170197725296020508e+00,3.087922811508178711e+00,3.009810447692871094e+00,2.935552358627319336e+00,2.864870071411132812e+00,2.797511577606201172e+00,2.733247995376586914e+00,2.671870470046997070e+00,2.613189220428466797e+00,2.557029962539672852e+00,2.503233671188354492e+00,2.451654434204101562e+00,2.402157783508300781e+00,2.354620218276977539e+00,2.308927297592163086e+00,2.264974355697631836e+00,2.222663640975952148e+00,2.181904554367065430e+00,2.142613410949707031e+00,2.104712247848510742e+00,2.068128585815429688e+00,2.032795190811157227e+00,1.998648881912231445e+00,1.965630888938903809e+00,1.933685779571533203e+00,1.902762532234191895e+00,1.872812747955322266e+00,1.843791127204895020e+00
5.000000000000000000e+00,5.000000000000000000e+00,5.000000000000000000e+00,5.000000000000000000e+00,5.000000000000000000e+00,5.000000000000000000e+00,5.000000000000000000e+00,5.000000000000000000e+00,5.000000000000000000e+00,5.000000000000000000e+00,5.000000000000000000e+00,5.000000000000000000e+00,5.000000000000000000e+00,5.000000000000000000e+00,5.000000000000000000e+00,5.000000000000000000e+00,5.000000000000000000e+00,5.000000000000000000e+00,5.000000000000000000e+00,5.000000000000000000e+00,5.000000000000000000e+00,5.000000000000000000e+00,5.000000000000000000e+00,5.000000000000000000e+00,5.000000000000000000e+00,5.000000000000000000e+00,3.663019418716430664e+00,3.653590917587280273e+00,5.000000000000000000e+00,5.000000000000000000e+00,5.000000000000000000e+00,5.000000000000000000e+00,5.000000000000000000e+00,5.000000000000000000e+00,5.000000000000000000e+00,5.000000000000000000e+00,5.000000000000000000e+00,5.000000000000000000e+00,5.000000000000000000e+00,4.850304126739501953e+00,4.660327434539794922e+00,4.484672069549560547e+00,4.321776390075683594e+00,4.170300483703613281e+00,4.029083251953125000e+00,3.897116661071777344e+00,3.773520469665527344e+00,3.657523155212402344e+00,3.548444509506225586e+00,3.445683479309082031e+00,3.348706483840942383e+00,3.257039308547973633e+00,3.170256853103637695e+00,3.087978839874267578e+00,3.009863615036010742e+00,2.935602903366088867e+00,2.864918470382690430e+00,2.797557830810546875e+00,2.733292102813720703e+00,2.671912670135498047e+00,2.613229513168334961e+00,2.557068347930908203e+00,2.503270626068115234e+00,2.451689720153808594e+00,2.402191638946533203e+00,2.354652643203735352e+00,2.308958530426025391e+00,2.265004634857177734e+00,2.222692489624023438e+00,2.181932449340820312e+00,2.142640352249145508e+00,2.104738235473632812e+00,2.068153858184814453e+00,2.032819747924804688e+00,1.998672485351562500e+00,1.965653657913208008e+00,1.933707833290100098e+00,1.902783870697021484e+00,1.872833490371704102e+00,1.843811273574829102e+00
5.000000000000000000e+00,5.000000000000000000e+00,5.000000000000000000e+00,5.000000000000000000e+00,5.000000000000000000e+00,5.000000000000000000e+00,5.000000000000000000e+00,5.000000000000000000e+00,5.000000000000000000e+00,5.000000000000000000e+00,5.000000000000000000e+00,5.000000000000000000e+00,5.000000000000000000e+00,5.000000000000000000e+00,5.000000000000000000e+00,5.000000000000000000e+00,5.000000000000000000e+00,5.000000000000000000e+00,5.000000000000000000e+00,5.000000000000000000e+00,5.000000000000000000e+00,5.000000000000000000e+00,5.000000000000000000e+00,5.000000000000000000e+00,5.000000000000000000e+00,5.000000000000000000e+00,3.722057580947875977e+00,3.682411432266235352e+00,5.000000000000000000e+00,5.000000000000000000e+00,5.000000000000000000e+00,5.000000000000000000e+00,5.000000000000000000e+00,5.000000000000000000e+00,5.000000000000000000e+00,5.000000000000000000e+00,5.000000000000000000e+00,5.000000000000000000e+00,5.000000000000000000e+00,4.850442409515380859e+00,4.660455226898193359e+00,4.484790325164794922e+00,4.321886539459228516e+00,4.170403003692626953e+00,4.029178619384765625e+00,3.897205829620361328e+00,3.773604154586791992e+00,3.657601833343505859e+00,3.548518419265747070e+00,3.445753335952758789e+00,3.348772764205932617e+00,3.257102012634277344e+00,3.170315980911254883e+00,3.088035106658935547e+00,3.009917020797729492e+00,2.935653924942016602e+00,2.864966869354248047e+00,2.797604084014892578e+00,2.733336210250854492e+00,2.671954870223999023e+00,2.613269567489624023e+00,2.557106733322143555e+00,2.503307342529296875e+00,2.451725006103515625e+00,2.402225494384765625e+00,2.354685306549072266e+00,2.308990001678466797e+00,2.265034914016723633e+00,2.222721576690673828e+00,2.181960582733154297e+00,2.142667531967163086e+00,2.104764461517333984e+00,2.068179130554199219e+00,2.032844066619873047e+00,1.998696088790893555e+00,1.965676426887512207e+00,1.933729887008666992e+00,1.902805328369140625e+00,1.872854113578796387e+00,1.843831300735473633e+00
5.000000000000000000e+00,5.000000000000000000e+00,5.000000000000000000e+00,5.000000000000000000e+00,5.000000000000000000e+00,5.000000000000000000e+00,5.000000000000000000e+00,5.000000000000000000e+00,5.000000000000000000e+00,5.000000000000000000e+00,5.000000000000000000e+00,5.000000000000000000e+00,5.000000000000000000e+00,5.000000000000000000e+00,5.000000000000000000e+00,5.000000000000000000e+00,5.000000000000000000e+00,5.000000000000000000e+00,5.000000000000000000e+00,5.000000000000000000e+00,5.000000000000000000e+00,5.000000000000000000e+00,5.000000000000000000e+00,3.622809410095214844e+00,3.628242015838623047e+00,3.659294366836547852e+00,3.641431808471679688e+00,3.728024482727050781e+00,3.730024576187133789e+00,3.801252841949462891e+00,5.000000000000000000e+00,5.000000000000000000e+00,5.000000000000000000e+00,5.000000000000000000e+00,5.000000000000000000e+00,5.000000000000000000e+00,5.000000000000000000e+00,5.000000000000000000e+00,5.000000000000000000e+00,4.850581169128417969e+00,4.660583019256591797e+00,4.484908580780029297e+00,4.321996688842773438e+00,4.170505523681640625e+00,4.029274463653564453e+00,3.897295475006103516e+00,3.773688077926635742e+00,3.657680749893188477e+00,3.548592805862426758e+00,3.445823431015014648e+00,3.348838806152343750e+00,3.257164478302001953e+00,3.170375347137451172e+00,3.088091135025024414e+00,3.009970188140869141e+00,2.935704469680786133e+00,2.865015029907226562e+00,2.797649860382080078e+00,2.733380079269409180e+00,2.671996831893920898e+00,2.613309860229492188e+00,2.557145357131958008e+00,2.503344297409057617e+00,2.451760292053222656e+00,2.402259349822998047e+00,2.354717969894409180e+00,2.309021472930908203e+00,2.265065193176269531e+00,2.222750902175903320e+00,2.181988477706909180e+00,2.142694473266601562e+00,2.104790449142456055e+00,2.068204164505004883e+00,2.032868385314941406e+00,1.998719692230224609e+00,1.965699195861816406e+00,1.933752059936523438e+00,1.902826666831970215e+00,1.872874855995178223e+00,1.843851327896118164e+00
5.000000000000000000e+00,5.000000000000000000e+00,5.000000000000000000e+00,5.000000000000000000e+00,5.000000000000000000e+00,5.000000000000000000e+00,5.000000000000000000e+00,5.000000000000000000e+00,5.000000000000000000e+00,5.000000000000000000e+00,5.000000000000000000e+00,5.000000000000000000e+00,5.000000000000000000e+00,5.000000000000000000e+00,5.000000000000000000e+00,5.000000000000000000e+00,5.000000000000000000e+00,5.000000000000000000e+00,5.000000000000000000e+00,5.000000000000000000e+00,5.000000000000000000e+00,5.000000000000000000e+00,5.000000000000000000e+00,3.600535392761230469e+00,3.616517782211303711e+00,3.608771800994873047e+00,3.629716157913208008e+00,3.658087253570556641e+00,3.699997901916503906e+00,3.764100074768066406e+00,3.819254159927368164e+00,5.000000000000000000e+00,5.000000000000000000e+00,5.000000000000000000e+00,5.000000000000000000e+00,5.000000000000000000e+00,5.000000000000000000e+00,5.000000000000000000e+00,5.000000000000000000e+00,4.850719451904296875e+00,4.660710811614990234e+00,4.485027313232421875e+00,4.322106838226318359e+00,4.170608043670654297e+00,4.029369831085205078e+00,3.897385120391845703e+00,3.773772239685058594e+00,3.657759189605712891e+00,3.548666715621948242e+00,3.445893049240112305e+00,3.348904848098754883e+00,3.257226705551147461e+00,3.170434474945068359e+00,3.088147401809692383e+00,3.010023832321166992e+00,2.935755252838134766e+00,2.865063428878784180e+00,2.797696113586425781e+00,2.733424186706542969e+00,2.672038793563842773e+00,2.613350152969360352e+00,2.557183980941772461e+00,2.503381013870239258e+00,2.451795578002929688e+00,2.402293205261230469e+00,2.354750633239746094e+00,2.309052705764770508e+00,2.265095233917236328e+00,2.222779750823974609e+00,2.182016611099243164e+00,2.142721414566040039e+00,2.104816675186157227e+00,2.068229436874389648e+00,2.032892704010009766e+00,1.998743176460266113e+00,1.965722084045410156e+00,1.933774113655090332e+00,1.902848005294799805e+00,1.872895479202270508e+00,1.843871235847473145e+00
5.000000000000000000e+00,5.000000000000000000e+00,5.000000000000000000e+00,5.000000000000000000e+00,5.000000000000000000e+00,5.000000000000000000e+00,5.000000000000000000e+00,5.000000000000000000e+00,5.000000000000000000e+00,5.000000000000000000e+00,5.000000000000000000e+00,5.000000000000000000e+00,5.000000000000000000e+00,5.000000000000000000e+00,5.000000000000000000e+00,5.000000000000000000e+00,5.000000000000000000e+00,5.000000000000000000e+00,5.000000000000000000e+00,5.000000000000000000e+00,5.000000000000000000e+00,5.000000000000000000e+00,5.000000000000000000e+00,3.630322933197021484e+00,3.648437023162841797e+00,3.607653856277465820e+00,3.610560894012451172e+00,3.641081809997558594e+00,3.674185752868652344e+00,3.767938852310180664e+00,3.830813884735107422e+00,5.000000000000000000e+00,5.000000000000000000e+00,5.000000000000000000e+00,5.000000000000000000e+00,5.000000000000000000e+00,5.000000000000000000e+00,5.000000000000000000e+00,5.000000000000000000e+00,4.850858211517333984e+00,4.660838603973388672e+00,4.485145568847656250e+00,4.322216510772705078e+00,4.170710086822509766e+00,4.029465675354003906e+00,3.897474288940429688e+00,3.773855924606323242e+00,3.657838106155395508e+00,3.548741102218627930e+00,3.445963144302368164e+00,3.348970890045166016e+00,3.257289409637451172e+00,3.170493602752685547e+00,3.088203668594360352e+00,3.010077238082885742e+00,2.935806274414062500e+00,2.865111827850341797e+00,2.797742128372192383e+00,2.733468055725097656e+00,2.672080755233764648e+00,2.613390207290649414e+00,2.557222366333007812e+00,2.503417968750000000e+00,2.451831102371215820e+00,2.402327299118041992e+00,2.354783296585083008e+00,2.309084177017211914e+00,2.265125513076782227e+00,2.222809076309204102e+00,2.182044744491577148e+00,2.142748594284057617e+00,2.104842662811279297e+00,2.068254470825195312e+00,2.032917022705078125e+00,1.998766541481018066e+00,1.965744614601135254e+00,1.933795928955078125e+00,1.902869224548339844e+00,1.872915983200073242e+00,1.843891263008117676e+00
5.000000000000000000e+00,5.000000000000000000e+00,5.000000000000000000e+00,5.000000000000000000e+00,5.000000000000000000e+00,5.000000000000000000e+00,5.000000000000000000e+00,5.000000000000000000e+00,5.000000000000000000e+00,5.000000000000000000e+00,5.000000000000000000e+00,5.000000000000000000e+00,5.000000000000000000e+00,5.000000000000000000e+00,5.000000000000000000e+00,5.000000000000000000e+00,5.000000000000000000e+00,5.000000000000000000e+00,5.000000000000000000e+00,5.000000000000000000e+00,5.000000000000000000e+00,5.000000000000000000e+00,5.000000000000000000e+00,3.660433053970336914e+00,3.648441791534423828e+00,3.618075370788574219e+00,3.613644123077392578e+00,3.630409240722656250e+00,3.678725481033325195e+00,3.825776338577270508e+00,3.830320596694946289e+00,5.000000000000000000e+00,5.000000000000000000e+00,5.000000000000000000e+00,5.000000000000000000e+00,5.000000000000000000e+00,5.000000000000000000e+00,5.000000000000000000e+00,5.000000000000000000e+00,4.850996971130371094e+00,4.660966873168945312e+00,4.485264301300048828e+00,4.322326660156250000e+00,4.170812606811523438e+00,4.029561042785644531e+00,3.897563934326171875e+00,3.773939847946166992e+00,3.657917261123657227e+00,3.548815250396728516e+00,3.446033239364624023e+00,3.349036693572998047e+00,3.257351636886596680e+00,3.170552730560302734e+00,3.088259696960449219e+00,3.010130405426025391e+00,2.935856819152832031e+00,2.865160226821899414e+00,2.797788143157958984e+00,2.733512163162231445e+00,2.672122955322265625e+00,2.613430261611938477e+00,2.557260751724243164e+00,2.503454923629760742e+00,2.451866626739501953e+00,2.402361392974853516e+00,2.354815959930419922e+00,2.309115648269653320e+00,2.265155553817749023e+00,2.222837924957275391e+00,2.182072639465332031e+00,2.142775535583496094e+00,2.104868888854980469e+00,2.068279743194580078e+00,2.032941341400146484e+00,1.998790144920349121e+00,1.965767383575439453e+00,1.933817982673645020e+00,1.902890563011169434e+00,1.872936725616455078e+00,1.843911290168762207e+00
5.000000000000000000e+00,5.000000000000000000e+00,5.000000000000000000e+00,5.000000000000000000e+00,5.000000000000000000e+00,5.000000000000000000e+00,5.000000000000000000e+00,5.000000000000000000e+00,5.000000000000000000e+00,5.000000000000000000e+00,5.000000000000000000e+00,5.000000000000000000e+00,5.000000000000000000e+00,5.000000000000000000e+00,5.000000000000000000e+00,5.000000000000000000e+00,5.000000000000000000e+00,5.000000000000000000e+00,5.000000000000000000e+00,5.000000000000000000e+00,5.000000000000000000e+00,5.000000000000000000e+00,5.000000000000000000e+00,3.674933195114135742e+00,3.651994943618774414e+00,3.629256248474121094e+00,3.613149642944335938e+00,3.632315397262573242e+00,3.676866292953491211e+00,5.000000000000000000e+00,3.823562622070312500e+00,5.000000000000000000e+00,5.000000000000000000e+00,5.000000000000000000e+00,5.000000000000000000e+00,5.000000000000000000e+00,5.000000000000000000e+00,5.000000000000000000e+00,5.000000000000000000e+00,4.851135253906250000e+00,4.661094665527343750e+00,4.485382556915283203e+00,4.322436809539794922e+00,4.170915126800537109e+00,4.029656887054443359e+00,3.897653102874755859e+00,3.774023532867431641e+00,3.657995700836181641e+00,3.548889398574829102e+00,3.446102857589721680e+00,3.349102973937988281e+00,3.257414340972900391e+00,3.170612096786499023e+00,3.088315963745117188e+00,3.010183811187744141e+00,2.935907602310180664e+00,2.865208625793457031e+00,2.797834634780883789e+00,2.733556032180786133e+00,2.672164916992187500e+00,2.613470315933227539e+00,2.557299137115478516e+00,2.503491640090942383e+00,2.451901912689208984e+00,2.402395248413085938e+00,2.354848623275756836e+00,2.309147119522094727e+00,2.265185832977294922e+00,2.222867250442504883e+00,2.182100772857666016e+00,2.142802715301513672e+00,2.104894876480102539e+00,2.068305015563964844e+00,2.032965660095214844e+00,1.998813748359680176e+00,1.965790152549743652e+00,1.933840036392211914e+00,1.902911901473999023e+00,1.872957468032836914e+00,1.843931436538696289e+00
5.000000000000000000e+00,5.000000000000000000e+00,5.000000000000000000e+00,5.000000000000000000e+00,5.000000000000000000e+00,5.000000000000000000e+00,5.000000000000000000e+00,5.000000000000000000e+00,5.000000000000000000e+00,5.000000000000000000e+00,5.000000000000000000e+00,5.000000000000000000e+00,5.000000000000000000e+00,5.000000000000000000e+00,5.000000000000000000e+00,5.000000000000000000e+00,5.000000000000000000e+00,5.000000000000000000e+00,5.000000000000000000e+00,5.000000000000000000e+00,5.000000000000000000e+00,5.000000000000000000e+00,5.000000000000000000e+00,5.000000000000000000e+00,3.675697088241577148e+00,3.612352609634399414e+00,3.599868297576904297e+00,3.630363464355468750e+00,3.671459913253784180e+00,5.000000000000000000e+00,3.838507890701293945e+00,5.000000000000000000e+00,5.000000000000000000e+00,5.000000000000000000e+00,5.000000000000000000e+00,5.000000000000000000e+00,5.000000000000000000e+00,5.000000000000000000e+00,5.000000000000000000e+00,4.851274013519287109e+00,4.661222934722900391e+00,4.485501289367675781e+00,4.322546958923339844e+00,4.171017646789550781e+00,4.029752254486083984e+00,3.897742748260498047e+00,3.774107456207275391e+00,3.658074617385864258e+00,3.548963546752929688e+00,3.446172952651977539e+00,3.349169254302978516e+00,3.257477045059204102e+00,3.170671463012695312e+00,3.088371992111206055e+00,3.010236978530883789e+00,2.935958147048950195e+00,2.865256786346435547e+00,2.797880411148071289e+00,2.733599662780761719e+00,2.672206640243530273e+00,2.613510608673095703e+00,2.557337760925292969e+00,2.503528594970703125e+00,2.451937437057495117e+00,2.402429342269897461e+00,2.354881286621093750e+00,2.309178590774536133e+00,2.265216112136840820e+00,2.222896337509155273e+00,2.182128667831420898e+00,2.142829656600952148e+00,2.104920864105224609e+00,2.068330049514770508e+00,2.032989978790283203e+00,1.998837232589721680e+00,1.965813040733337402e+00,1.933862090110778809e+00,1.902933239936828613e+00,1.872978091239929199e+00,1.843951463699340820e+00
5.000000000000000000e+00,5.000000000000000000e+00,5.000000000000000000e+00,5.000000000000000000e+00,5.000000000000000000e+00,5.000000000000000000e+00,5.000000000000000000e+00,5.000000000000000000e+00,5.000000000000000000e+00,5.000000000000000000e+00,5.000000000000000000e+00,5.000000000000000000e+00,5.000000000000000000e+00,5.000000000000000000e+00,5.000000000000000000e+00,5.000000000000000000e+00,5.000000000000000000e+00,5.000000000000000000e+00,5.000000000000000000e+00,5.000000000000000000e+00,5.000000000000000000e+00,5.000000000000000000e+00,5.000000000000000000e+00,5.000000000000000000e+00,3.689239263534545898e+00,3.613215684890747070e+00,3.612449407577514648e+00,3.632093667984008789e+00,3.680291175842285156e+00,5.000000000000000000e+00,3.816297054290771484e+00,3.824972152709960938e+00,5.000000000000000000e+00,5.000000000000000000e+00,5.000000000000000000e+00,5.000000000000000000e+00,5.000000000000000000e+00,5.000000000000000000e+00,5.000000000000000000e+00,4.851412296295166016e+00,4.661350727081298828e+00,4.485619544982910156e+00,4.322656631469726562e+00,4.171120166778564453e+00,4.029848098754882812e+00,3.897832393646240234e+00,3.774191141128540039e+00,3.658153295516967773e+00,3.549037456512451172e+00,3.446242809295654297e+00,3.349235057830810547e+00,3.257539272308349609e+00,3.170730352401733398e+00,3.088428258895874023e+00,3.010290622711181641e+00,2.936009168624877930e+00,2.865305185317993164e+00,2.797926664352416992e+00,2.733643770217895508e+00,2.672248840332031250e+00,2.613550901412963867e+00,2.557376384735107422e+00,2.503565549850463867e+00,2.451972723007202148e+00,2.402463197708129883e+00,2.354913711547851562e+00,2.309209823608398438e+00,2.265246391296386719e+00,2.222925424575805664e+00,2.182156801223754883e+00,2.142856597900390625e+00,2.104947090148925781e+00,2.068355321884155273e+00,2.033014297485351562e+00,1.998860836029052734e+00,1.965835809707641602e+00,1.933884143829345703e+00,1.902954697608947754e+00,1.872998595237731934e+00,1.843971371650695801e+00
5.000000000000000000e+00,5.000000000000000000e+00,5.000000000000000000e+00,5.000000000000000000e+00,5.000000000000000000e+00,5.000000000000000000e+00,5.000000000000000000e+00,5.000000000000000000e+00,5.000000000000000000e+00,5.000000000000000000e+00,5.000000000000000000e+00,5.000000000000000000e+00,5.000000000000000000e+00,5.000000000000000000e+00,5.000000000000000000e+00,5.000000000000000000e+00,5.000000000000000000e+00,5.000000000000000000e+00,5.000000000000000000e+00,5.000000000000000000e+00,5.000000000000000000e+00,5.000000000000000000e+00,5.000000000000000000e+00,5.000000000000000000e+00,3.672635078430175781e+00,3.606130361557006836e+00,3.611717700958251953e+00,3.649092674255371094e+00,3.686283111572265625e+00,5.000000000000000000e+00,5.000000000000000000e+00,3.766778707504272461e+00,5.000000000000000000e+00,5.000000000000000000e+00,5.000000000000000000e+00,5.000000000000000000e+00,5.000000000000000000e+00,5.000000000000000000e+00,5.000000000000000000e+00,4.851551532745361328e+00,4.661478519439697266e+00,4.485737800598144531e+00,4.322766780853271484e+00,4.171222686767578125e+00,4.029943466186523438e+00,3.897921562194824219e+00,3.774275302886962891e+00,3.658232212066650391e+00,3.549111843109130859e+00,3.446312904357910156e+00,3.349301099777221680e+00,3.257601737976074219e+00,3.170789718627929688e+00,3.088484525680541992e+00,3.010344028472900391e+00,2.936059951782226562e+00,2.865353345870971680e+00,2.797972440719604492e+00,2.733687639236450195e+00,2.672290802001953125e+00,2.613591194152832031e+00,2.557414770126342773e+00,2.503602504730224609e+00,2.452008008956909180e+00,2.402497291564941406e+00,2.354946613311767578e+00,2.309241294860839844e+00,2.265276670455932617e+00,2.222954511642456055e+00,2.182184934616088867e+00,2.142883777618408203e+00,2.104973316192626953e+00,2.068380594253540039e+00,2.033038616180419922e+00,1.998884201049804688e+00,1.965858340263366699e+00,1.933906078338623047e+00,1.902975797653198242e+00,1.873019337654113770e+00,1.843991398811340332e+00
5.000000000000000000e+00,5.000000000000000000e+00,5.000000000000000000e+00,5.000000000000000000e+00,5.000000000000000000e+00,5.000000000000000000e+00,5.000000000000000000e+00,5.000000000000000000e+00,5.000000000000000000e+00,5.000000000000000000e+00,5.000000000000000000e+00,5.000000000000000000e+00,5.000000000000000000e+00,5.000000000000000000e+00,5.000000000000000000e+00,5.000000000000000000e+00,5.000000000000000000e+00,5.000000000000000000e+00,5.000000000000000000e+00,5.000000000000000000e+00,5.000000000000000000e+00,5.000000000000000000e+00,5.000000000000000000e+00,5.000000000000000000e+00,3.665407180786132812e+00,3.552550792694091797e+00,3.554756164550781250e+00,3.618733406066894531e+00,3.713735818862915039e+00,3.776496887207031250e+00,5.000000000000000000e+00,3.789748430252075195e+00,5.000000000000000000e+00,5.000000000000000000e+00,5.000000000000000000e+00,5.000000000000000000e+00,5.000000000000000000e+00,5.000000000000000000e+00,5.000000000000000000e+00,4.851689815521240234e+00,4.661606788635253906e+00,4.485856533050537109e+00,4.322876930236816406e+00,4.171324729919433594e+00,4.030039310455322266e+00,3.898011207580566406e+00,3.774359226226806641e+00,3.658311128616333008e+00,3.549186229705810547e+00,3.446382999420166016e+00,3.349367141723632812e+00,3.257664203643798828e+00,3.170848846435546875e+00,3.088540554046630859e+00,3.010397195816040039e+00,2.936110496520996094e+00,2.865401744842529297e+00,2.798018693923950195e+00,2.733731746673583984e+00,2.672333002090454102e+00,2.613631486892700195e+00,2.557453393936157227e+00,2.503639459609985352e+00,2.452043533325195312e+00,2.402531385421752930e+00,2.354979276657104492e+00,2.309272527694702148e+00,2.265306711196899414e+00,2.222983598709106445e+00,2.182212829589843750e+00,2.142910718917846680e+00,2.104999303817749023e+00,2.068405866622924805e+00,2.033063173294067383e+00,1.998907804489135742e+00,1.965881228446960449e+00,1.933928132057189941e+00,1.902997136116027832e+00,1.873039960861206055e+00,1.844011425971984863e+00
5.000000000000000000e+00,5.000000000000000000e+00,5.000000000000000000e+00,5.000000000000000000e+00,5.000000000000000000e+00,5.000000000000000000e+00,5.000000000000000000e+00,5.000000000000000000e+00,5.000000000000000000e+00,5.000000000000000000e+00,5.000000000000000000e+00,5.000000000000000000e+00,5.000000000000000000e+00,5.000000000000000000e+00,5.000000000000000000e+00,5.000000000000000000e+00,5.000000000000000000e+00,5.000000000000000000e+00,5.000000000000000000e+00,5.000000000000000000e+00,5.000000000000000000e+00,5.000000000000000000e+00,5.000000000000000000e+00,5.000000000000000000e+00,3.660404682159423828e+00,3.547164916992187500e+00,3.530844926834106445e+00,3.568179368972778320e+00,3.715791702270507812e+00,3.781015872955322266e+00,5.000000000000000000e+00,5.000000000000000000e+00,3.689896345138549805e+00,5.000000000000000000e+00,5.000000000000000000e+00,5.000000000000000000e+00,5.000000000000000000e+00,5.000000000000000000e+00,5.000000000000000000e+00,4.851828575134277344e+00,4.661734580993652344e+00,4.485975265502929688e+00,4.322987079620361328e+00,4.171427249908447266e+00,4.030134677886962891e+00,3.898100614547729492e+00,3.774442911148071289e+00,3.658389806747436523e+00,3.549260139465332031e+00,3.446452617645263672e+00,3.349433183670043945e+00,3.257726669311523438e+00,3.170907974243164062e+00,3.088596820831298828e+00,3.010450601577758789e+00,2.936161279678344727e+00,2.865450143814086914e+00,2.798064708709716797e+00,2.733775854110717773e+00,2.672374963760375977e+00,2.613671541213989258e+00,2.557491779327392578e+00,2.503676176071166992e+00,2.452078819274902344e+00,2.402565240859985352e+00,2.355011701583862305e+00,2.309303998947143555e+00,2.265336990356445312e+00,2.223012685775756836e+00,2.182240962982177734e+00,2.142937898635864258e+00,2.105025291442871094e+00,2.068430900573730469e+00,2.033087491989135742e+00,1.998931407928466797e+00,1.965903997421264648e+00,1.933950185775756836e+00,1.903018474578857422e+00,1.873060703277587891e+00,1.844031572341918945e+00
5.000000000000000000e+00,5.000000000000000000e+00,5.000000000000000000e+00,5.000000000000000000e+00,5.000000000000000000e+00,5.000000000000000000e+00,5.000000000000000000e+00,5.000000000000000000e+00,5.000000000000000000e+00,5.000000000000000000e+00,5.000000000000000000e+00,5.000000000000000000e+00,5.000000000000000000e+00,5.000000000000000000e+00,5.000000000000000000e+00,5.000000000000000000e+00,5.000000000000000000e+00,5.000000000000000000e+00,5.000000000000000000e+00,5.000000000000000000e+00,5.000000000000000000e+00,5.000000000000000000e+00,5.000000000000000000e+00,5.000000000000000000e+00,3.638051986694335938e+00,3.558305025100708008e+00,3.510858297348022461e+00,3.532061815261840820e+00,3.725637674331665039e+00,5.000000000000000000e+00,5.000000000000000000e+00,5.000000000000000000e+00,5.000000000000000000e+00,5.000000000000000000e+00,5.000000000000000000e+00,5.000000000000000000e+00,5.000000000000000000e+00,5.000000000000000000e+00,5.000000000000000000e+00,4.851966857910156250e+00,4.661862373352050781e+00,4.486093521118164062e+00,4.323097229003906250e+00,4.171530246734619141e+00,4.030230522155761719e+00,3.898190259933471680e+00,3.774527072906494141e+00,3.658468723297119141e+00,3.549334526062011719e+00,3.446522712707519531e+00,3.349499464035034180e+00,3.257789373397827148e+00,3.170967340469360352e+00,3.088652849197387695e+00,3.010503768920898438e+00,2.936211824417114258e+00,2.865498304367065430e+00,2.798110723495483398e+00,2.733819723129272461e+00,2.672416925430297852e+00,2.613711833953857422e+00,2.557530403137207031e+00,2.503713130950927734e+00,2.452114343643188477e+00,2.402599334716796875e+00,2.355044603347778320e+00,2.309335470199584961e+00,2.265367269515991211e+00,2.223041772842407227e+00,2.182268857955932617e+00,2.142964839935302734e+00,2.105051517486572266e+00,2.068456172943115234e+00,2.033111810684204102e+00,1.998954892158508301e+00,1.965926766395568848e+00,1.933972239494323730e+00,1.903039932250976562e+00,1.873081445693969727e+00,1.844051599502563477e+00
5.000000000000000000e+00,5.000000000000000000e+00,5.000000000000000000e+00,5.000000000000000000e+00,5.000000000000000000e+00,5.000000000000000000e+00,5.000000000000000000e+00,5.000000000000000000e+00,5.000000000000000000e+00,5.000000000000000000e+00,5.000000000000000000e+00,5.000000000000000000e+00,5.000000000000000000e+00,5.000000000000000000e+00,5.000000000000000000e+00,5.000000000000000000e+00,5.000000000000000000e+00,5.000000000000000000e+00,5.000000000000000000e+00,5.000000000000000000e+00,5.000000000000000000e+00,5.000000000000000000e+00,5.000000000000000000e+00,5.000000000000000000e+00,5.000000000000000000e+00,5.000000000000000000e+00,3.489186763763427734e+00,3.495423316955566406e+00,3.749095916748046875e+00,5.000000000000000000e+00,5.000000000000000000e+00,5.000000000000000000e+00,5.000000000000000000e+00,5.000000000000000000e+00,5.000000000000000000e+00,5.000000000000000000e+00,5.000000000000000000e+00,5.000000000000000000e+00,5.000000000000000000e+00,4.852105617523193359e+00,4.661990642547607422e+00,4.486212253570556641e+00,4.323206901550292969e+00,4.171632289886474609e+00,4.030326366424560547e+00,3.898279905319213867e+00,3.774610757827758789e+00,3.658547401428222656e+00,3.549408435821533203e+00,3.446592330932617188e+00,3.349565267562866211e+00,3.257851600646972656e+00,3.171026468276977539e+00,3.088708877563476562e+00,3.010557174682617188e+00,2.936262845993041992e+00,2.865546703338623047e+00,2.798156976699829102e+00,2.733863830566406250e+00,2.672459125518798828e+00,2.613752126693725586e+00,2.557569026947021484e+00,2.503750085830688477e+00,2.452149629592895508e+00,2.402633190155029297e+00,2.355077028274536133e+00,2.309366941452026367e+00,2.265397310256958008e+00,2.223070859909057617e+00,2.182296991348266602e+00,2.142991781234741211e+00,2.105077505111694336e+00,2.068481445312500000e+00,2.033136129379272461e+00,1.998978495597839355e+00,1.965949654579162598e+00,1.933994293212890625e+00,1.903061270713806152e+00,1.873101949691772461e+00,1.844071507453918457e+00
5.000000000000000000e+00,5.000000000000000000e+00,5.000000000000000000e+00,5.000000000000000000e+00,5.000000000000000000e+00,5.000000000000000000e+00,5.000000000000000000e+00,5.000000000000000000e+00,5.000000000000000000e+00,5.000000000000000000e+00,5.000000000000000000e+00,5.000000000000000000e+00,5.000000000000000000e+00,5.000000000000000000e+00,5.000000000000000000e+00,5.000000000000000000e+00,5.000000000000000000e+00,5.000000000000000000e+00,5.000000000000000000e+00,5.000000000000000000e+00,5.000000000000000000e+00,5.000000000000000000e+00,5.000000000000000000e+00,5.000000000000000000e+00,5.000000000000000000e+00,5.000000000000000000e+00,3.496873855590820312e+00,3.460633516311645508e+00,3.781929016113281250e+00,5.000000000000000000e+00,5.000000000000000000e+00,5.000000000000000000e+00,5.000000000000000000e+00,5.000000000000000000e+00,5.000000000000000000e+00,5.000000000000000000e+00,5.000000000000000000e+00,5.000000000000000000e+00,5.000000000000000000e+00,4.852244377136230469e+00,4.662118434906005859e+00,4.486330509185791016e+00,4.323317050933837891e+00,4.171734809875488281e+00,4.030421733856201172e+00,3.898369073867797852e+00,3.774694681167602539e+00,3.658626317977905273e+00,3.549482822418212891e+00,3.446662664413452148e+00,3.349631547927856445e+00,3.257914304733276367e+00,3.171085596084594727e+00,3.088765144348144531e+00,3.010610580444335938e+00,2.936313629150390625e+00,2.865594863891601562e+00,2.798202991485595703e+00,2.733907699584960938e+00,2.672501087188720703e+00,2.613792181015014648e+00,2.557607412338256836e+00,2.503787040710449219e+00,2.452185153961181641e+00,2.402667284011840820e+00,2.355109930038452148e+00,2.309398412704467773e+00,2.265427589416503906e+00,2.223099946975708008e+00,2.182325124740600586e+00,2.143018960952758789e+00,2.105103731155395508e+00,2.068506479263305664e+00,2.033160448074340820e+00,1.999001860618591309e+00,1.965972185134887695e+00,1.934016108512878418e+00,1.903082489967346191e+00,1.873122572898864746e+00,1.844091534614562988e+00
5.000000000000000000e+00,5.000000000000000000e+00,5.000000000000000000e+00,5.000000000000000000e+00,5.000000000000000000e+00,5.000000000000000000e+00,5.000000000000000000e+00,5.000000000000000000e+00,5.000000000000000000e+00,5.000000000000000000e+00,5.000000000000000000e+00,5.000000000000000000e+00,5.000000000000000000e+00,5.000000000000000000e+00,5.000000000000000000e+00,5.000000000000000000e+00,5.000000000000000000e+00,5.000000000000000000e+00,5.000000000000000000e+00,5.000000000000000000e+00,5.000000000000000000e+00,5.000000000000000000e+00,5.000000000000000000e+00,5.000000000000000000e+00,5.000000000000000000e+00,5.000000000000000000e+00,3.518081188201904297e+00,3.453982830047607422e+00,3.810028314590454102e+00,5.000000000000000000e+00,5.000000000000000000e+00,5.000000000000000000e+00,5.000000000000000000e+00,5.000000000000000000e+00,5.000000000000000000e+00,5.000000000000000000e+00,5.000000000000000000e+00,5.000000000000000000e+00,5.000000000000000000e+00,4.852383136749267578e+00,4.662246704101562500e+00,4.486449241638183594e+00,4.323427200317382812e+00,4.171837329864501953e+00,4.030517578125000000e+00,3.898458719253540039e+00,3.774778842926025391e+00,3.658705234527587891e+00,3.549557209014892578e+00,3.446732282638549805e+00,3.349697351455688477e+00,3.257976531982421875e+00,3.171144485473632812e+00,3.088821172714233398e+00,3.010663747787475586e+00,2.936364173889160156e+00,2.865643501281738281e+00,2.798249244689941406e+00,2.733951807022094727e+00,2.672543287277221680e+00,2.613832473754882812e+00,2.557645797729492188e+00,2.503823995590209961e+00,2.452220678329467773e+00,2.402701377868652344e+00,2.355142354965209961e+00,2.309429645538330078e+00,2.265457868576049805e+00,2.223129034042358398e+00,2.182353019714355469e+00,2.143045902252197266e+00,2.105129718780517578e+00,2.068531751632690430e+00,2.033184766769409180e+00,1.999025464057922363e+00,1.965994954109191895e+00,1.934038281440734863e+00,1.903103828430175781e+00,1.873143315315246582e+00,1.844111561775207520e+00
5.000000000000000000e+00,5.000000000000000000e+00,5.000000000000000000e+00,5.000000000000000000e+00,5.000000000000000000e+00,5.000000000000000000e+00,5.000000000000000000e+00,5.000000000000000000e+00,5.000000000000000000e+00,5.000000000000000000e+00,5.000000000000000000e+00,5.000000000000000000e+00,5.000000000000000000e+00,5.000000000000000000e+00,5.000000000000000000e+00,5.000000000000000000e+00,5.000000000000000000e+00,5.000000000000000000e+00,5.000000000000000000e+00,5.000000000000000000e+00,5.000000000000000000e+00,5.000000000000000000e+00,5.000000000000000000e+00,5.000000000000000000e+00,5.000000000000000000e+00,5.000000000000000000e+00,3.498224973678588867e+00,3.470474243164062500e+00,5.000000000000000000e+00,5.000000000000000000e+00,5.000000000000000000e+00,5.000000000000000000e+00,5.000000000000000000e+00,5.000000000000000000e+00,5.000000000000000000e+00,5.000000000000000000e+00,5.000000000000000000e+00,5.000000000000000000e+00,5.000000000000000000e+00,4.852520942687988281e+00,4.662374496459960938e+00,4.486567974090576172e+00,4.323537349700927734e+00,4.171939849853515625e+00,4.030612945556640625e+00,3.898547887802124023e+00,3.774862527847290039e+00,3.658783912658691406e+00,3.549631118774414062e+00,3.446802377700805664e+00,3.349763393402099609e+00,3.258038997650146484e+00,3.171203851699829102e+00,3.088877439498901367e+00,3.010717391967773438e+00,2.936415195465087891e+00,2.865691900253295898e+00,2.798295259475708008e+00,2.733995914459228516e+00,2.672585248947143555e+00,2.613872766494750977e+00,2.557684421539306641e+00,2.503860712051391602e+00,2.452255964279174805e+00,2.402735233306884766e+00,2.355175018310546875e+00,2.309461116790771484e+00,2.265487909317016602e+00,2.223158121109008789e+00,2.182381153106689453e+00,2.143073081970214844e+00,2.105155944824218750e+00,2.068557024002075195e+00,2.033209085464477539e+00,1.999048948287963867e+00,1.966017842292785645e+00,1.934060335159301758e+00,1.903125166893005371e+00,1.873164057731628418e+00,1.844131708145141602e+00
5.000000000000000000e+00,5.000000000000000000e+00,5.000000000000000000e+00,5.000000000000000000e+00,5.000000000000000000e+00,5.000000000000000000e+00,5.000000000000000000e+00,5.000000000000000000e+00,5.000000000000000000e+00,5.000000000000000000e+00,5.000000000000000000e+00,5.000000000000000000e+00,5.000000000000000000e+00,5.000000000000000000e+00,5.000000000000000000e+00,5.000000000000000000e+00,5.000000000000000000e+00,5.000000000000000000e+00,5.000000000000000000e+00,5.000000000000000000e+00,5.000000000000000000e+00,5.000000000000000000e+00,5.000000000000000000e+00,5.000000000000000000e+00,5.000000000000000000e+00,5.000000000000000000e+00,3.498534917831420898e+00,3.478729963302612305e+00,5.000000000000000000e+00,5.000000000000000000e+00,5.000000000000000000e+00,5.000000000000000000e+00,5.000000000000000000e+00,5.000000000000000000e+00,5.000000000000000000e+00,5.000000000000000000e+00,5.000000000000000000e+00,5.000000000000000000e+00,5.000000000000000000e+00,4.852659225463867188e+00,4.662502765655517578e+00,4.486686229705810547e+00,4.323647499084472656e+00,4.172042369842529297e+00,4.030708789825439453e+00,3.898637771606445312e+00,3.774946451187133789e+00,3.658862829208374023e+00,3.549705505371093750e+00,3.446872234344482422e+00,3.349829673767089844e+00,3.258101701736450195e+00,3.171263217926025391e+00,3.088933467864990234e+00,3.010770559310913086e+00,2.936465740203857422e+00,2.865740060806274414e+00,2.798341274261474609e+00,2.734040021896362305e+00,2.672627210617065430e+00,2.613913059234619141e+00,2.557722806930541992e+00,2.503897905349731445e+00,2.452291488647460938e+00,2.402769327163696289e+00,2.355207920074462891e+00,2.309492588043212891e+00,2.265518188476562500e+00,2.223187446594238281e+00,2.182409048080444336e+00,2.143100023269653320e+00,2.105181932449340820e+00,2.068582057952880859e+00,2.033233404159545898e+00,1.999072551727294922e+00,1.966040611267089844e+00,1.934082388877868652e+00,1.903146505355834961e+00,1.873184680938720703e+00,1.844151735305786133e+00
5.000000000000000000e+00,5.000000000000000000e+00,5.000000000000000000e+00,5.000000000000000000e+00,5.000000000000000000e+00,5.000000000000000000e+00,5.000000000000000000e+00,5.000000000000000000e+00,5.000000000000000000e+00,5.000000000000000000e+00,5.000000000000000000e+00,5.000000000000000000e+00,5.000000000000000000e+00,5.000000000000000000e+00,5.000000000000000000e+00,5.000000000000000000e+00,5.000000000000000000e+00,5.000000000000000000e+00,5.000000000000000000e+00,5.000000000000000000e+00,5.000000000000000000e+00,5.000000000000000000e+00,5.000000000000000000e+00,5.000000000000000000e+00,5.000000000000000000e+00,5.000000000000000000e+00,3.502153158187866211e+00,3.471601963043212891e+00,5.000000000000000000e+00,5.000000000000000000e+00,5.000000000000000000e+00,5.000000000000000000e+00,5.000000000000000000e+00,5.000000000000000000e+00,5.000000000000000000e+00,5.000000000000000000e+00,5.000000000000000000e+00,5.000000000000000000e+00,5.000000000000000000e+00,4.852797508239746094e+00,4.662629604339599609e+00,4.486804962158203125e+00,4.323757648468017578e+00,4.172144889831542969e+00,4.030804634094238281e+00,3.898727416992187500e+00,3.775030136108398438e+00,3.658941507339477539e+00,3.549779176712036133e+00,3.446942090988159180e+00,3.349895477294921875e+00,3.258163928985595703e+00,3.171322345733642578e+00,3.088989734649658203e+00,3.010823965072631836e+00,2.936516523361206055e+00,2.865788459777832031e+00,2.798387527465820312e+00,2.734084129333496094e+00,2.672669410705566406e+00,2.613953351974487305e+00,2.557761430740356445e+00,2.503934621810913086e+00,2.452326774597167969e+00,2.402803182601928711e+00,2.355240345001220703e+00,2.309523820877075195e+00,2.265548467636108398e+00,2.223216295242309570e+00,2.182437181472778320e+00,2.143127202987670898e+00,2.105208158493041992e+00,2.068607330322265625e+00,2.033257722854614258e+00,1.999096155166625977e+00,1.966063380241394043e+00,1.934104442596435547e+00,1.903167963027954102e+00,1.873205184936523438e+00,1.844171643257141113e+00
5.000000000000000000e+00,5.000000000000000000e+00,5.000000000000000000e+00,5.000000000000000000e+00,5.000000000000000000e+00,5.000000000000000000e+00,5.000000000000000000e+00,5.000000000000000000e+00,5.000000000000000000e+00,5.000000000000000000e+00,5.000000000000000000e+00,5.000000000000000000e+00,5.000000000000000000e+00,5.000000000000000000e+00,5.000000000000000000e+00,5.000000000000000000e+00,5.000000000000000000e+00,5.000000000000000000e+00,5.000000000000000000e+00,5.000000000000000000e+00,5.000000000000000000e+00,5.000000000000000000e+00,5.000000000000000000e+00,5.000000000000000000e+00,5.000000000000000000e+00,5.000000000000000000e+00,3.932996034622192383e+00,3.468772172927856445e+00,5.000000000000000000e+00,5.000000000000000000e+00,5.000000000000000000e+00,5.000000000000000000e+00,5.000000000000000000e+00,5.000000000000000000e+00,5.000000000000000000e+00,5.000000000000000000e+00,5.000000000000000000e+00,5.000000000000000000e+00,5.000000000000000000e+00,4.852935791015625000e+00,4.662757396697998047e+00,4.486922740936279297e+00,4.323867321014404297e+00,4.172247409820556641e+00,4.030900478363037109e+00,3.898816585540771484e+00,3.775114297866821289e+00,3.659020185470581055e+00,3.549853563308715820e+00,3.447012186050415039e+00,3.349961757659912109e+00,3.258226633071899414e+00,3.171381711959838867e+00,3.089046001434326172e+00,3.010877609252929688e+00,2.936567544937133789e+00,2.865836858749389648e+00,2.798433542251586914e+00,2.734127998352050781e+00,2.672711372375488281e+00,2.613993406295776367e+00,2.557800054550170898e+00,2.503971576690673828e+00,2.452362298965454102e+00,2.402837276458740234e+00,2.355273246765136719e+00,2.309555292129516602e+00,2.265578746795654297e+00,2.223245620727539062e+00,2.182465314865112305e+00,2.143154144287109375e+00,2.105234146118164062e+00,2.068632602691650391e+00,2.033282041549682617e+00,1.999119520187377930e+00,1.966086030006408691e+00,1.934126257896423340e+00,1.903189063072204590e+00,1.873225927352905273e+00,1.844191670417785645e+00
5.000000000000000000e+00,5.000000000000000000e+00,5.000000000000000000e+00,5.000000000000000000e+00,5.000000000000000000e+00,5.000000000000000000e+00,5.000000000000000000e+00,5.000000000000000000e+00,5.000000000000000000e+00,5.000000000000000000e+00,5.000000000000000000e+00,5.000000000000000000e+00,5.000000000000000000e+00,5.000000000000000000e+00,5.000000000000000000e+00,5.000000000000000000e+00,5.000000000000000000e+00,5.000000000000000000e+00,5.000000000000000000e+00,5.000000000000000000e+00,5.000000000000000000e+00,5.000000000000000000e+00,5.000000000000000000e+00,5.000000000000000000e+00,5.000000000000000000e+00,3.988804101943969727e+00,3.983407974243164062e+00,3.470549106597900391e+00,5.000000000000000000e+00,5.000000000000000000e+00,5.000000000000000000e+00,5.000000000000000000e+00,5.000000000000000000e+00,5.000000000000000000e+00,5.000000000000000000e+00,5.000000000000000000e+00,5.000000000000000000e+00,5.000000000000000000e+00,5.000000000000000000e+00,4.853073596954345703e+00,4.662884712219238281e+00,4.487040519714355469e+00,4.323976993560791016e+00,4.172349929809570312e+00,4.030995845794677734e+00,3.898906230926513672e+00,3.775198221206665039e+00,3.659099102020263672e+00,3.549927949905395508e+00,3.447081804275512695e+00,3.350027561187744141e+00,3.258288860321044922e+00,3.171440601348876953e+00,3.089102029800415039e+00,3.010930776596069336e+00,2.936618089675903320e+00,2.865885257720947266e+00,2.798479795455932617e+00,2.734172105789184570e+00,2.672753572463989258e+00,2.614033699035644531e+00,2.557838439941406250e+00,2.504008531570434570e+00,2.452397823333740234e+00,2.402871370315551758e+00,2.355305671691894531e+00,2.309586763381958008e+00,2.265608787536621094e+00,2.223274469375610352e+00,2.182493209838867188e+00,2.143181085586547852e+00,2.105260133743286133e+00,2.068657636642456055e+00,2.033306598663330078e+00,1.999143123626708984e+00,1.966108798980712891e+00,1.934148430824279785e+00,1.903210401535034180e+00,1.873246669769287109e+00,1.844211697578430176e+00
5.000000000000000000e+00,5.000000000000000000e+00,5.000000000000000000e+00,5.000000000000000000e+00,5.000000000000000000e+00,5.000000000000000000e+00,5.000000000000000000e+00,5.000000000000000000e+00,5.000000000000000000e+00,5.000000000000000000e+00,5.000000000000000000e+00,5.000000000000000000e+00,5.000000000000000000e+00,5.000000000000000000e+00,5.000000000000000000e+00,5.000000000000000000e+00,5.000000000000000000e+00,5.000000000000000000e+00,5.000000000000000000e+00,5.000000000000000000e+00,5.000000000000000000e+00,5.000000000000000000e+00,5.000000000000000000e+00,5.000000000000000000e+00,5.000000000000000000e+00,4.013842582702636719e+00,5.000000000000000000e+00,3.476717233657836914e+00,5.000000000000000000e+00,5.000000000000000000e+00,5.000000000000000000e+00,5.000000000000000000e+00,5.000000000000000000e+00,5.000000000000000000e+00,5.000000000000000000e+00,5.000000000000000000e+00,5.000000000000000000e+00,5.000000000000000000e+00,5.000000000000000000e+00,4.853211879730224609e+00,4.663012504577636719e+00,4.487158775329589844e+00,4.324086666107177734e+00,4.172452449798583984e+00,4.031091690063476562e+00,3.898995399475097656e+00,3.775281906127929688e+00,3.659177780151367188e+00,3.550001859664916992e+00,3.447151899337768555e+00,3.350093841552734375e+00,3.258351564407348633e+00,3.171499967575073242e+00,3.089158296585083008e+00,3.010984182357788086e+00,2.936669111251831055e+00,2.865933656692504883e+00,2.798526048660278320e+00,2.734216213226318359e+00,2.672795534133911133e+00,2.614073753356933594e+00,2.557877063751220703e+00,2.504045486450195312e+00,2.452433109283447266e+00,2.402905225753784180e+00,2.355338573455810547e+00,2.309618234634399414e+00,2.265639066696166992e+00,2.223303794860839844e+00,2.182521343231201172e+00,2.143208265304565430e+00,2.105286359786987305e+00,2.068682909011840820e+00,2.033330917358398438e+00,1.999166727066040039e+00,1.966131567955017090e+00,1.934170484542846680e+00,1.903231859207153320e+00,1.873267292976379395e+00,1.844231843948364258e+00
4.875297069549560547e+00,4.874086856842041016e+00,4.872877120971679688e+00,4.871667861938476562e+00,4.870459079742431641e+00,4.869251251220703125e+00,4.868043899536132812e+00,4.866837024688720703e+00,4.865631103515625000e+00,4.864425659179687500e+00,4.863220691680908203e+00,4.862015724182128906e+00,4.860812187194824219e+00,4.859609127044677734e+00,4.858406543731689453e+00,4.857204437255859375e+00,4.856002807617187500e+00,4.854802131652832031e+00,4.853601932525634766e+00,4.852402210235595703e+00,4.851203441619873047e+00,4.850005149841308594e+00,4.848806858062744141e+00,4.847609996795654297e+00,4.846413135528564453e+00,3.947238445281982422e+00,4.844021320343017578e+00,3.489346742630004883e+00,3.454512834548950195e+00,4.840438842773437500e+00,4.839245319366455078e+00,4.838053226470947266e+00,4.836861133575439453e+00,4.835669517517089844e+00,4.834478855133056641e+00,4.833288669586181641e+00,4.832098960876464844e+00,4.830909729003906250e+00,4.829721450805664062e+00,4.828533649444580078e+00,4.663139820098876953e+00,4.487277030944824219e+00,4.324196815490722656e+00,4.172554492950439453e+00,4.031187057495117188e+00,3.899085044860839844e+00,3.775365829467773438e+00,3.659256935119628906e+00,3.550076246261596680e+00,3.447222232818603516e+00,3.350160121917724609e+00,3.258414268493652344e+00,3.171559095382690430e+00,3.089214324951171875e+00,3.011037588119506836e+00,2.936719655990600586e+00,2.865982055664062500e+00,2.798571825027465820e+00,2.734260082244873047e+00,2.672837734222412109e+00,2.614114284515380859e+00,2.557915449142456055e+00,2.504082441329956055e+00,2.452468395233154297e+00,2.402939319610595703e+00,2.355371236801147461e+00,2.309649705886840820e+00,2.265669345855712891e+00,2.223332643508911133e+00,2.182549476623535156e+00,2.143235206604003906e+00,2.105312347412109375e+00,2.068708181381225586e+00,2.033355236053466797e+00,1.999190211296081543e+00,1.966154456138610840e+00,1.934192538261413574e+00,1.903253197669982910e+00,1.873288035392761230e+00,1.844251871109008789e+00
3.778135776519775391e+00,3.777408838272094727e+00,3.776681900024414062e+00,3.775955438613891602e+00,3.775229454040527344e+00,3.774503707885742188e+00,3.773778200149536133e+00,3.773052930831909180e+00,3.772327899932861328e+00,3.771603345870971680e+00,3.770878553390502930e+00,3.770154476165771484e+00,3.769430637359619141e+00,3.768707036972045898e+00,3.767983913421630859e+00,3.767261028289794922e+00,3.766538143157958984e+00,3.765815258026123047e+00,3.765093326568603516e+00,3.764371395111083984e+00,3.763649702072143555e+00,3.762928485870361328e+00,3.762207269668579102e+00,3.761486530303955078e+00,3.760766029357910156e+00,3.760045528411865234e+00,3.759325504302978516e+00,3.493712902069091797e+00,3.361965417861938477e+00,3.757167339324951172e+00,3.756448507308959961e+00,3.755729913711547852e+00,3.755011320114135742e+00,3.754293203353881836e+00,3.753575563430786133e+00,3.752858161926269531e+00,3.752140998840332031e+00,3.751424074172973633e+00,3.750707387924194336e+00,3.749990940093994141e+00,3.749274492263793945e+00,3.748558521270751953e+00,3.747843027114868164e+00,3.747127771377563477e+00,3.746412754058837891e+00,3.745697975158691406e+00,3.744983673095703125e+00,3.659335374832153320e+00,3.550150394439697266e+00,3.447291851043701172e+00,3.350225925445556641e+00,3.258476495742797852e+00,3.171618461608886719e+00,3.089270830154418945e+00,3.011090993881225586e+00,2.936770439147949219e+00,2.866030454635620117e+00,2.798618078231811523e+00,2.734304189682006836e+00,2.672879695892333984e+00,2.614154577255249023e+00,2.557954072952270508e+00,2.504119157791137695e+00,2.452503919601440430e+00,2.402973175048828125e+00,2.355403661727905273e+00,2.309680938720703125e+00,2.265699625015258789e+00,2.223361968994140625e+00,2.182577610015869141e+00,2.143262386322021484e+00,2.105338573455810547e+00,2.068733453750610352e+00,2.033379554748535156e+00,1.999213814735412598e+00,1.966177225112915039e+00,1.934214591979980469e+00,1.903274536132812500e+00,1.873308539390563965e+00,1.844271779060363770e+00
3.084078788757324219e+00,3.083594560623168945e+00,3.083110332489013672e+00,3.082626104354858398e+00,3.082142353057861328e+00,3.081658363342285156e+00,3.081174612045288086e+00,3.080691099166870117e+00,3.080207824707031250e+00,3.079724788665771484e+00,3.079241752624511719e+00,3.078758955001831055e+00,3.078276157379150391e+00,3.077793359756469727e+00,3.077311038970947266e+00,3.076828718185424805e+00,3.076346635818481445e+00,3.075864553451538086e+00,3.075382947921752930e+00,3.074901342391967773e+00,3.074419498443603516e+00,3.073938131332397461e+00,3.073457002639770508e+00,3.072975873947143555e+00,3.072494983673095703e+00,3.072014331817626953e+00,3.071533679962158203e+00,3.071053266525268555e+00,3.070572614669799805e+00,3.070092439651489258e+00,3.069612503051757812e+00,3.069132804870605469e+00,3.068653106689453125e+00,3.068173408508300781e+00,3.067694187164306641e+00,3.067214488983154297e+00,3.066735506057739258e+00,3.066256523132324219e+00,3.065777778625488281e+00,3.065299272537231445e+00,3.064820766448974609e+00,3.064342498779296875e+00,3.063864231109619141e+00,3.063385963439941406e+00,3.062907934188842773e+00,3.062430143356323242e+00,3.061952590942382812e+00,3.061475276947021484e+00,3.060997962951660156e+00,3.060520887374877930e+00,3.060043573379516602e+00,3.059566736221313477e+00,3.059089899063110352e+00,3.058613300323486328e+00,3.011144399642944336e+00,2.936821222305297852e+00,2.866078615188598633e+00,2.798664093017578125e+00,2.734348058700561523e+00,2.672921657562255859e+00,2.614194631576538086e+00,2.557992696762084961e+00,2.504156112670898438e+00,2.452539205551147461e+00,2.403007268905639648e+00,2.355436563491821289e+00,2.309712409973144531e+00,2.265729904174804688e+00,2.223391056060791016e+00,2.182605504989624023e+00,2.143289566040039062e+00,2.105364561080932617e+00,2.068758487701416016e+00,2.033403873443603516e+00,1.999237179756164551e+00,1.966199874877929688e+00,1.934236407279968262e+00,1.903295755386352539e+00,1.873329281806945801e+00,1.844291806221008301e+00
2.605448961257934570e+00,2.605103015899658203e+00,2.604757308959960938e+00,2.604411840438842773e+00,2.604066371917724609e+00,2.603721141815185547e+00,2.603375911712646484e+00,2.603030681610107422e+00,2.602685451507568359e+00,2.602340459823608398e+00,2.601995468139648438e+00,2.601650714874267578e+00,2.601306200027465820e+00,2.600961446762084961e+00,2.600616931915283203e+00,2.600272655487060547e+00,2.599928140640258789e+00,2.599583864212036133e+00,2.599239587783813477e+00,2.598895549774169922e+00,2.598551511764526367e+00,2.598207712173461914e+00,2.597863912582397461e+00,2.597520112991333008e+00,2.597176551818847656e+00,2.596832990646362305e+00,2.596489429473876953e+00,2.596146106719970703e+00,2.595803022384643555e+00,2.595459938049316406e+00,2.595116615295410156e+00,2.594773530960083008e+00,2.594430685043334961e+00,2.594087839126586914e+00,2.593745231628417969e+00,2.593402624130249023e+00,2.593060255050659180e+00,2.592717647552490234e+00,2.592375278472900391e+00,2.592032909393310547e+00,2.591690778732299805e+00,2.591348648071289062e+00,2.591006755828857422e+00,2.590664863586425781e+00,2.590323209762573242e+00,2.589981317520141602e+00,2.589639663696289062e+00,2.589298009872436523e+00,2.588956594467163086e+00,2.588615417480468750e+00,2.588274002075195312e+00,2.587932825088500977e+00,2.587591886520385742e+00,2.587250709533691406e+00,2.586909770965576172e+00,2.586569070816040039e+00,2.586228370666503906e+00,2.585887670516967773e+00,2.585547208786010742e+00,2.585206747055053711e+00,2.584866285324096680e+00,2.558031082153320312e+00,2.504193305969238281e+00,2.452574729919433594e+00,2.403041362762451172e+00,2.355468988418579102e+00,2.309743881225585938e+00,2.265759944915771484e+00,2.223420143127441406e+00,2.182633638381958008e+00,2.143316507339477539e+00,2.105390787124633789e+00,2.068783760070800781e+00,2.033428192138671875e+00,1.999260783195495605e+00,1.966222643852233887e+00,1.934258580207824707e+00,1.903317093849182129e+00,1.873350024223327637e+00,1.844311833381652832e+00
2.255439519882202148e+00,2.255179405212402344e+00,2.254919767379760742e+00,2.254660129547119141e+00,2.254400491714477539e+00,2.254140853881835938e+00,2.253881216049194336e+00,2.253621578216552734e+00,2.253362178802490234e+00,2.253103017807006836e+00,2.252843618392944336e+00,2.252584218978881836e+00,2.252325057983398438e+00,2.252066135406494141e+00,2.251806974411010742e+00,2.251548051834106445e+00,2.251288890838623047e+00,2.251029968261718750e+00,2.250771284103393555e+00,2.250512599945068359e+00,2.250253915786743164e+00,2.249994993209838867e+00,2.249736547470092773e+00,2.249478101730346680e+00,2.249219894409179688e+00,2.248962163925170898e+00,2.248704433441162109e+00,2.248446941375732422e+00,2.248189449310302734e+00,2.247932195663452148e+00,2.247674703598022461e+00,2.247417449951171875e+00,2.247160196304321289e+00,2.246902942657470703e+00,2.246645927429199219e+00,2.246388912200927734e+00,2.246131896972656250e+00,2.245874881744384766e+00,2.245618104934692383e+00,2.245361089706420898e+00,2.245104312896728516e+00,2.244847536087036133e+00,2.244590997695922852e+00,2.244334459304809570e+00,2.244077920913696289e+00,2.243821382522583008e+00,2.243565082550048828e+00,2.243308544158935547e+00,2.243052244186401367e+00,2.242795944213867188e+00,2.242539882659912109e+00,2.242283821105957031e+00,2.242027759552001953e+00,2.241771697998046875e+00,2.241515636444091797e+00,2.241259813308715820e+00,2.241003990173339844e+00,2.240748167037963867e+00,2.240492343902587891e+00,2.240236759185791016e+00,2.239981174468994141e+00,2.239725589752197266e+00,2.239470243453979492e+00,2.239214658737182617e+00,2.238959312438964844e+00,2.238703966140747070e+00,2.238448858261108398e+00,2.238193511962890625e+00,2.223449230194091797e+00,2.182661771774291992e+00,2.143343448638916016e+00,2.105417013168334961e+00,2.068809032440185547e+00,2.033452749252319336e+00,1.999284386634826660e+00,1.966245412826538086e+00,1.934280633926391602e+00,1.903338551521301270e+00,1.873370647430419922e+00,1.844331979751586914e+00
1.988365292549133301e+00,1.988163352012634277e+00,1.987961411476135254e+00,1.987759590148925781e+00,1.987557768821716309e+00,1.987356066703796387e+00,1.987154245376586914e+00,1.986952543258666992e+00,1.986750960350036621e+00,1.986549139022827148e+00,1.986347556114196777e+00,1.986146092414855957e+00,1.985944509506225586e+00,1.985743165016174316e+00,1.985541701316833496e+00,1.985340356826782227e+00,1.985139012336730957e+00,1.984937787055969238e+00,1.984736561775207520e+00,1.984535098075866699e+00,1.984333992004394531e+00,1.984132885932922363e+00,1.983931779861450195e+00,1.983730673789978027e+00,1.983529686927795410e+00,1.983328819274902344e+00,1.983127832412719727e+00,1.982926964759826660e+00,1.982726216316223145e+00,1.982525110244750977e+00,1.982324361801147461e+00,1.982123732566833496e+00,1.981922984123229980e+00,1.981722354888916016e+00,1.981521844863891602e+00,1.981321215629577637e+00,1.981120824813842773e+00,1.980920314788818359e+00,1.980719923973083496e+00,1.980519294738769531e+00,1.980318903923034668e+00,1.980118632316589355e+00,1.979918360710144043e+00,1.979718089103698730e+00,1.979517936706542969e+00,1.979317784309387207e+00,1.979117631912231445e+00,1.978917598724365234e+00,1.978717327117919922e+00,1.978517413139343262e+00,1.978317499160766602e+00,1.978117585182189941e+00,1.977917671203613281e+00,1.977717876434326172e+00,1.977518081665039062e+00,1.977318286895751953e+00,1.977118611335754395e+00,1.976918935775756836e+00,1.976719141006469727e+00,1.976519584655761719e+00,1.976320028305053711e+00,1.976120471954345703e+00,1.975921034812927246e+00,1.975721597671508789e+00,1.975522279739379883e+00,1.975322961807250977e+00,1.975123643875122070e+00,1.974924445152282715e+00,1.974724888801574707e+00,1.974525809288024902e+00,1.974326610565185547e+00,1.974127531051635742e+00,1.973928451538085938e+00,1.973729491233825684e+00,1.973530530929565430e+00,1.966268301010131836e+00,1.934302687644958496e+00,1.903359889984130859e+00,1.873391389846801758e+00,1.844352006912231445e+00
1.777844905853271484e+00,1.777683377265930176e+00,1.777521967887878418e+00,1.777360558509826660e+00,1.777199268341064453e+00,1.777037978172302246e+00,1.776876688003540039e+00,1.776715159416198730e+00,1.776553988456726074e+00,1.776392817497253418e+00,1.776231646537780762e+00,1.776070475578308105e+00,1.775909304618835449e+00,1.775748252868652344e+00,1.775587201118469238e+00,1.775426149368286133e+00,1.775265216827392578e+00,1.775104045867919922e+00,1.774943113327026367e+00,1.774782180786132812e+00,1.774621248245239258e+00,1.774460434913635254e+00,1.774299621582031250e+00,1.774138808250427246e+00,1.773977994918823242e+00,1.773817300796508789e+00,1.773656606674194336e+00,1.773495674133300781e+00,1.773335099220275879e+00,1.773174405097961426e+00,1.773013830184936523e+00,1.772853255271911621e+00,1.772692680358886719e+00,1.772532224655151367e+00,1.772371768951416016e+00,1.772211313247680664e+00,1.772050857543945312e+00,1.771890282630920410e+00,1.771729946136474609e+00,1.771569609642028809e+00,1.771409273147583008e+00,1.771249055862426758e+00,1.771088838577270508e+00,1.770928621292114258e+00,1.770768404006958008e+00,1.770608186721801758e+00,1.770448088645935059e+00,1.770287752151489258e+00,1.770127773284912109e+00,1.769967675209045410e+00,1.769807696342468262e+00,1.769647717475891113e+00,1.769487738609313965e+00,1.769327759742736816e+00,1.769167900085449219e+00,1.769008040428161621e+00,1.768848061561584473e+00,1.768688201904296875e+00,1.768528461456298828e+00,1.768368721008300781e+00,1.768208980560302734e+00,1.768049240112304688e+00,1.767889618873596191e+00,1.767729997634887695e+00,1.767570376396179199e+00,1.767410755157470703e+00,1.767251014709472656e+00,1.767091512680053711e+00,1.766932010650634766e+00,1.766772508621215820e+00,1.766613125801086426e+00,1.766453742980957031e+00,1.766294360160827637e+00,1.766134977340698242e+00,1.765975713729858398e+00,1.765816330909729004e+00,1.765656948089599609e+00,1.765497684478759766e+00,1.765338540077209473e+00,1.765179395675659180e+00
1.607634663581848145e+00,1.607502698898315430e+00,1.607370734214782715e+00,1.607238769531250000e+00,1.607106804847717285e+00,1.606974720954895020e+00,1.606842875480651855e+00,1.606710910797119141e+00,1.606579065322875977e+00,1.606447219848632812e+00,1.606315493583679199e+00,1.606183648109436035e+00,1.606051921844482422e+00,1.605920195579528809e+00,1.605788350105285645e+00,1.605656504631042480e+00,1.605524897575378418e+00,1.605393171310424805e+00,1.605261564254760742e+00,1.605129957199096680e+00,1.604998350143432617e+00,1.604866743087768555e+00,1.604735255241394043e+00,1.604603648185729980e+00,1.604472160339355469e+00,1.604340553283691406e+00,1.604209065437316895e+00,1.604077577590942383e+00,1.603946208953857422e+00,1.603814840316772461e+00,1.603683352470397949e+00,1.603552103042602539e+00,1.603420734405517578e+00,1.603289365768432617e+00,1.603158116340637207e+00,1.603026628494262695e+00,1.602895379066467285e+00,1.602764129638671875e+00,1.602632999420166016e+00,1.602501749992370605e+00,1.602370619773864746e+00,1.602239489555358887e+00,1.602108359336853027e+00,1.601977229118347168e+00,1.601846218109130859e+00,1.601714968681335449e+00,1.601583957672119141e+00,1.601452946662902832e+00,1.601321935653686523e+00,1.601190924644470215e+00,1.601060032844543457e+00,1.600929021835327148e+00,1.600798130035400391e+00,1.600667238235473633e+00,1.600536465644836426e+00,1.600405454635620117e+00,1.600274562835693359e+00,1.600143790245056152e+00,1.600013017654418945e+00,1.599882245063781738e+00,1.599751472473144531e+00,1.599620819091796875e+00,1.599490046501159668e+00,1.599359393119812012e+00,1.599228620529174805e+00,1.599097967147827148e+00,1.598967313766479492e+00,1.598836779594421387e+00,1.598706245422363281e+00,1.598575711250305176e+00,1.598445177078247070e+00,1.598314642906188965e+00,1.598184108734130859e+00,1.598053693771362305e+00,1.597923159599304199e+00,1.597792744636535645e+00,1.597662329673767090e+00,1.597531914710998535e+00,1.597401618957519531e+00,1.597271203994750977e+00
1.467168569564819336e+00,1.467058658599853516e+00,1.466948628425598145e+00,1.466838598251342773e+00,1.466728687286376953e+00,1.466618895530700684e+00,1.466508984565734863e+00,1.466399192810058594e+00,1.466289281845092773e+00,1.466179490089416504e+00,1.466069698333740234e+00,1.465959906578063965e+00,1.465850114822387695e+00,1.465740203857421875e+00,1.465630531311035156e+00,1.465520739555358887e+00,1.465411067008972168e+00,1.465301394462585449e+00,1.465191721916198730e+00,1.465082049369812012e+00,1.464972496032714844e+00,1.464862823486328125e+00,1.464753270149230957e+00,1.464643478393554688e+00,1.464533925056457520e+00,1.464424371719360352e+00,1.464314818382263184e+00,1.464205265045166016e+00,1.464095830917358398e+00,1.463986277580261230e+00,1.463876843452453613e+00,1.463767409324645996e+00,1.463657975196838379e+00,1.463548421859741211e+00,1.463438987731933594e+00,1.463329553604125977e+00,1.463220238685607910e+00,1.463110923767089844e+00,1.463001489639282227e+00,1.462892174720764160e+00,1.462782859802246094e+00,1.462673664093017578e+00,1.462564349174499512e+00,1.462454915046691895e+00,1.462345719337463379e+00,1.462236523628234863e+00,1.462127327919006348e+00,1.462018132209777832e+00,1.461908936500549316e+00,1.461799740791320801e+00,1.461690664291381836e+00,1.461581468582153320e+00,1.461472392082214355e+00,1.461363196372985840e+00,1.461254119873046875e+00,1.461145043373107910e+00,1.461035966873168945e+00,1.460926890373229980e+00,1.460817933082580566e+00,1.460708975791931152e+00,1.460599899291992188e+00,1.460490942001342773e+00,1.460381984710693359e+00,1.460272908210754395e+00,1.460164070129394531e+00,1.460055112838745117e+00,1.459946274757385254e+00,1.459837436676025391e+00,1.459728598594665527e+00,1.459619760513305664e+00,1.459510922431945801e+00,1.459402084350585938e+00,1.459293127059936523e+00,1.459184408187866211e+00,1.459075689315795898e+00,1.458966851234436035e+00,1.458858132362365723e+00,1.458749532699584961e+00,1.458640813827514648e+00,1.458532094955444336e+00
1.349276304244995117e+00,1.349183320999145508e+00,1.349090218544006348e+00,1.348997235298156738e+00,1.348904252052307129e+00,1.348811388015747070e+00,1.348718404769897461e+00,1.348625540733337402e+00,1.348532676696777344e+00,1.348439693450927734e+00,1.348346829414367676e+00,1.348253965377807617e+00,1.348161101341247559e+00,1.348068237304687500e+00,1.347975373268127441e+00,1.347882628440856934e+00,1.347789764404296875e+00,1.347697019577026367e+00,1.347604274749755859e+00,1.347511529922485352e+00,1.347418785095214844e+00,1.347325921058654785e+00,1.347233176231384277e+00,1.347140550613403320e+00,1.347047805786132812e+00,1.346955180168151855e+00,1.346862435340881348e+00,1.346769809722900391e+00,1.346677184104919434e+00,1.346584558486938477e+00,1.346491932868957520e+00,1.346399188041687012e+00,1.346306562423706055e+00,1.346214056015014648e+00,1.346121430397033691e+00,1.346028923988342285e+00,1.345936417579650879e+00,1.345843791961669922e+00,1.345751285552978516e+00,1.345658779144287109e+00,1.345566272735595703e+00,1.345473766326904297e+00,1.345381259918212891e+00,1.345288872718811035e+00,1.345196366310119629e+00,1.345103979110717773e+00,1.345011472702026367e+00,1.344919085502624512e+00,1.344826698303222656e+00,1.344734311103820801e+00,1.344642043113708496e+00,1.344549536705017090e+00,1.344457149505615234e+00,1.344364881515502930e+00,1.344272494316101074e+00,1.344180226325988770e+00,1.344087958335876465e+00,1.343995690345764160e+00,1.343903422355651855e+00,1.343811154365539551e+00,1.343718886375427246e+00,1.343626618385314941e+00,1.343534350395202637e+00,1.343442201614379883e+00,1.343350052833557129e+00,1.343257784843444824e+00,1.343165636062622070e+00,1.343073487281799316e+00,1.342981338500976562e+00,1.342889189720153809e+00,1.342797160148620605e+00,1.342704892158508301e+00,1.342612862586975098e+00,1.342520713806152344e+00,1.342428684234619141e+00,1.342336654663085938e+00,1.342244625091552734e+00,1.342152595520019531e+00,1.342060565948486328e+00,1.341968536376953125e+00
1.248920917510986328e+00,1.248841285705566406e+00,1.248761653900146484e+00,1.248682022094726562e+00,1.248602390289306641e+00,1.248522758483886719e+00,1.248443126678466797e+00,1.248363494873046875e+00,1.248283863067626953e+00,1.248204231262207031e+00,1.248124599456787109e+00,1.248045086860656738e+00,1.247965455055236816e+00,1.247885942459106445e+00,1.247806429862976074e+00,1.247726917266845703e+00,1.247647285461425781e+00,1.247567772865295410e+00,1.247488379478454590e+00,1.247408747673034668e+00,1.247329235076904297e+00,1.247249841690063477e+00,1.247170329093933105e+00,1.247090935707092285e+00,1.247011423110961914e+00,1.246932029724121094e+00,1.246852636337280273e+00,1.246773242950439453e+00,1.246693849563598633e+00,1.246614336967468262e+00,1.246534943580627441e+00,1.246455550193786621e+00,1.246376156806945801e+00,1.246296882629394531e+00,1.246217489242553711e+00,1.246138215065002441e+00,1.246058940887451172e+00,1.245979547500610352e+00,1.245900273323059082e+00,1.245820879936218262e+00,1.245741605758666992e+00,1.245662331581115723e+00,1.245583057403564453e+00,1.245503902435302734e+00,1.245424628257751465e+00,1.245345354080200195e+00,1.245266199111938477e+00,1.245186924934387207e+00,1.245107769966125488e+00,1.245028495788574219e+00,1.244949340820312500e+00,1.244870185852050781e+00,1.244791030883789062e+00,1.244711875915527344e+00,1.244632720947265625e+00,1.244553565979003906e+00,1.244474530220031738e+00,1.244395375251770020e+00,1.244316339492797852e+00,1.244237065315246582e+00,1.244158029556274414e+00,1.244078993797302246e+00,1.243999958038330078e+00,1.243920922279357910e+00,1.243841886520385742e+00,1.243762850761413574e+00,1.243683815002441406e+00,1.243604779243469238e+00,1.243525743484497070e+00,1.243446707725524902e+00,1.243367791175842285e+00,1.243288755416870117e+00,1.243209838867187500e+00,1.243130922317504883e+00,1.243052005767822266e+00,1.242972970008850098e+00,1.242894172668457031e+00,1.242815256118774414e+00,1.242736339569091797e+00,1.242657303810119629e+00
1.162460565567016602e+00,1.162391543388366699e+00,1.162322521209716797e+00,1.162253499031066895e+00,1.162184476852416992e+00,1.162115454673767090e+00,1.162046551704406738e+00,1.161977529525756836e+00,1.161908507347106934e+00,1.161839604377746582e+00,1.161770582199096680e+00,1.161701679229736328e+00,1.161632776260375977e+00,1.161563754081726074e+00,1.161494851112365723e+00,1.161425948143005371e+00,1.161357045173645020e+00,1.161288142204284668e+00,1.161219239234924316e+00,1.161150336265563965e+00,1.161081433296203613e+00,1.161012649536132812e+00,1.160943746566772461e+00,1.160874962806701660e+00,1.160806059837341309e+00,1.160737276077270508e+00,1.160668492317199707e+00,1.160599589347839355e+00,1.160530805587768555e+00,1.160461902618408203e+00,1.160393118858337402e+00,1.160324335098266602e+00,1.160255670547485352e+00,1.160186886787414551e+00,1.160118103027343750e+00,1.160049319267272949e+00,1.159980654716491699e+00,1.159911751747131348e+00,1.159843087196350098e+00,1.159774422645568848e+00,1.159705638885498047e+00,1.159636974334716797e+00,1.159568309783935547e+00,1.159499645233154297e+00,1.159430980682373047e+00,1.159362316131591797e+00,1.159293651580810547e+00,1.159224867820739746e+00,1.159156203269958496e+00,1.159087657928466797e+00,1.159018993377685547e+00,1.158950328826904297e+00,1.158881783485412598e+00,1.158813118934631348e+00,1.158744573593139648e+00,1.158676028251647949e+00,1.158607363700866699e+00,1.158538699150085449e+00,1.158470153808593750e+00,1.158401608467102051e+00,1.158333182334899902e+00,1.158264636993408203e+00,1.158196091651916504e+00,1.158127546310424805e+00,1.158059000968933105e+00,1.157990574836730957e+00,1.157922029495239258e+00,1.157853484153747559e+00,1.157785058021545410e+00,1.157716512680053711e+00,1.157648086547851562e+00,1.157579660415649414e+00,1.157511234283447266e+00,1.157442808151245117e+00,1.157374382019042969e+00,1.157305955886840820e+00,1.157237529754638672e+00,1.157168984413146973e+00,1.157100677490234375e+00,1.157032251358032227e+00
1.087195992469787598e+00,1.087135672569274902e+00,1.087075233459472656e+00,1.087014913558959961e+00,1.086954474449157715e+00,1.086894154548645020e+00,1.086833715438842773e+00,1.086773395538330078e+00,1.086713075637817383e+00,1.086652755737304688e+00,1.086592435836791992e+00,1.086532115936279297e+00,1.086471915245056152e+00,1.086411595344543457e+00,1.086351275444030762e+00,1.086290955543518066e+00,1.086230635643005371e+00,1.086170434951782227e+00,1.086110115051269531e+00,1.086049914360046387e+00,1.085989594459533691e+00,1.085929393768310547e+00,1.085869193077087402e+00,1.085808992385864258e+00,1.085748672485351562e+00,1.085688471794128418e+00,1.085628271102905273e+00,1.085568070411682129e+00,1.085507869720458984e+00,1.085447669029235840e+00,1.085387468338012695e+00,1.085327267646789551e+00,1.085267186164855957e+00,1.085206985473632812e+00,1.085146784782409668e+00,1.085086703300476074e+00,1.085026502609252930e+00,1.084966301918029785e+00,1.084906220436096191e+00,1.084846138954162598e+00,1.084785938262939453e+00,1.084725856781005859e+00,1.084665775299072266e+00,1.084605693817138672e+00,1.084545612335205078e+00,1.084485411643981934e+00,1.084425330162048340e+00,1.084365248680114746e+00,1.084305286407470703e+00,1.084245204925537109e+00,1.084185123443603516e+00,1.084125041961669922e+00,1.084065079689025879e+00,1.084004998207092285e+00,1.083945035934448242e+00,1.083884954452514648e+00,1.083824872970581055e+00,1.083764910697937012e+00,1.083704948425292969e+00,1.083644986152648926e+00,1.083585023880004883e+00,1.083524942398071289e+00,1.083464980125427246e+00,1.083405017852783203e+00,1.083345055580139160e+00,1.083285093307495117e+00,1.083225131034851074e+00,1.083165168762207031e+00,1.083105325698852539e+00,1.083045363426208496e+00,1.082985401153564453e+00,1.082925558090209961e+00,1.082865595817565918e+00,1.082805752754211426e+00,1.082745909690856934e+00,1.082685947418212891e+00,1.082625985145568848e+00,1.082566142082214355e+00,1.082506299018859863e+00,1.082446455955505371e+00
1.021084904670715332e+00,1.021031737327575684e+00,1.020978450775146484e+00,1.020925164222717285e+00,1.020871877670288086e+00,1.020818710327148438e+00,1.020765423774719238e+00,1.020712256431579590e+00,1.020658969879150391e+00,1.020605802536010742e+00,1.020552635192871094e+00,1.020499348640441895e+00,1.020446181297302246e+00,1.020393013954162598e+00,1.020339727401733398e+00,1.020286560058593750e+00,1.020233392715454102e+00,1.020180225372314453e+00,1.020127058029174805e+00,1.020073890686035156e+00,1.020020723342895508e+00,1.019967675209045410e+00,1.019914507865905762e+00,1.019861340522766113e+00,1.019808173179626465e+00,1.019755005836486816e+00,1.019701957702636719e+00,1.019648790359497070e+00,1.019595742225646973e+00,1.019542574882507324e+00,1.019489526748657227e+00,1.019436478614807129e+00,1.019383311271667480e+00,1.019330263137817383e+00,1.019277095794677734e+00,1.019224047660827637e+00,1.019170999526977539e+00,1.019117951393127441e+00,1.019064903259277344e+00,1.019011855125427246e+00,1.018958806991577148e+00,1.018905758857727051e+00,1.018852829933166504e+00,1.018799781799316406e+00,1.018746614456176758e+00,1.018693685531616211e+00,1.018640637397766113e+00,1.018587708473205566e+00,1.018534660339355469e+00,1.018481612205505371e+00,1.018428683280944824e+00,1.018375754356384277e+00,1.018322706222534180e+00,1.018269658088684082e+00,1.018216729164123535e+00,1.018163800239562988e+00,1.018110871315002441e+00,1.018057942390441895e+00,1.018004894256591797e+00,1.017951965332031250e+00,1.017899036407470703e+00,1.017846107482910156e+00,1.017793297767639160e+00,1.017740249633789062e+00,1.017687320709228516e+00,1.017634510993957520e+00,1.017581582069396973e+00,1.017528653144836426e+00,1.017475843429565430e+00,1.017422914505004883e+00,1.017369985580444336e+00,1.017317175865173340e+00,1.017264366149902344e+00,1.017211437225341797e+00,1.017158508300781250e+00,1.017105698585510254e+00,1.017052888870239258e+00,1.016999959945678711e+00,1.016947150230407715e+00,1.016894340515136719e+00
9.625533223152160645e-01,9.625059962272644043e-01,9.624586105346679688e-01,9.624113440513610840e-01,9.623639583587646484e-01,9.623166918754577637e-01,9.622693657875061035e-01,9.622220993041992188e-01,9.621747732162475586e-01,9.621275067329406738e-01,9.620801806449890137e-01,9.620329737663269043e-01,9.619856476783752441e-01,9.619383215904235840e-01,9.618911147117614746e-01,9.618437886238098145e-01,9.617965817451477051e-01,9.617493152618408203e-01,9.617021083831787109e-01,9.616547822952270508e-01,9.616076350212097168e-01,9.615603089332580566e-01,9.615130424499511719e-01,9.614658951759338379e-01,9.614186286926269531e-01,9.613714814186096191e-01,9.613242149353027344e-01,9.612770676612854004e-01,9.612298011779785156e-01,9.611826539039611816e-01,9.611353874206542969e-01,9.610882997512817383e-01,9.610410332679748535e-01,9.609938263893127441e-01,9.609466791152954102e-01,9.608994722366333008e-01,9.608523845672607422e-01,9.608051776885986328e-01,9.607580304145812988e-01,9.607108235359191895e-01,9.606637358665466309e-01,9.606165885925292969e-01,9.605693817138671875e-01,9.605222940444946289e-01,9.604751467704772949e-01,9.604280591011047363e-01,9.603809118270874023e-01,9.603338241577148438e-01,9.602866768836975098e-01,9.602396488189697266e-01,9.601924419403076172e-01,9.601454138755798340e-01,9.600982666015625000e-01,9.600511193275451660e-01,9.600041508674621582e-01,9.599570035934448242e-01,9.599099755287170410e-01,9.598628878593444824e-01,9.598158597946166992e-01,9.597687125205993652e-01,9.597217440605163574e-01,9.596746563911437988e-01,9.596275687217712402e-01,9.595805406570434570e-01,9.595334529876708984e-01,9.594864845275878906e-01,9.594393968582153320e-01,9.593924283981323242e-01,9.593454003334045410e-01,9.592984318733215332e-01,9.592513442039489746e-01,9.592043161392211914e-01,9.591573476791381836e-01,9.591103196144104004e-01,9.590634107589721680e-01,9.590163826942443848e-01,9.589694142341613770e-01,9.589223861694335938e-01,9.588754773139953613e-01,9.588284492492675781e-01
9.103682041168212891e-01,9.103258252143859863e-01,9.102835655212402344e-01,9.102411866188049316e-01,9.101989269256591797e-01,9.101565480232238770e-01,9.101142883300781250e-01,9.100719094276428223e-01,9.100296497344970703e-01,9.099873304367065430e-01,9.099449515342712402e-01,9.099027514457702637e-01,9.098603725433349609e-01,9.098181724548339844e-01,9.097757935523986816e-01,9.097335934638977051e-01,9.096912741661071777e-01,9.096490740776062012e-01,9.096067547798156738e-01,9.095645546913146973e-01,9.095222353935241699e-01,9.094799160957336426e-01,9.094377160072326660e-01,9.093953967094421387e-01,9.093531966209411621e-01,9.093109369277954102e-01,9.092687368392944336e-01,9.092264771461486816e-01,9.091842770576477051e-01,9.091420173645019531e-01,9.090997576713562012e-01,9.090576171875000000e-01,9.090153574943542480e-01,9.089731574058532715e-01,9.089308977127075195e-01,9.088887572288513184e-01,9.088464975357055664e-01,9.088043570518493652e-01,9.087621569633483887e-01,9.087200164794921875e-01,9.086778163909912109e-01,9.086355566978454590e-01,9.085934162139892578e-01,9.085512161254882812e-01,9.085091352462768555e-01,9.084668755531311035e-01,9.084247946739196777e-01,9.083825945854187012e-01,9.083405137062072754e-01,9.082983136177062988e-01,9.082561135292053223e-01,9.082140326499938965e-01,9.081718325614929199e-01,9.081297516822814941e-01,9.080876111984252930e-01,9.080455303192138672e-01,9.080033302307128906e-01,9.079613089561462402e-01,9.079191088676452637e-01,9.078770875930786133e-01,9.078349471092224121e-01,9.077928066253662109e-01,9.077507257461547852e-01,9.077085852622985840e-01,9.076665639877319336e-01,9.076244235038757324e-01,9.075824022293090820e-01,9.075402617454528809e-01,9.074982404708862305e-01,9.074561595916748047e-01,9.074140191078186035e-01,9.073719978332519531e-01,9.073299169540405273e-01,9.072878956794738770e-01,9.072458148002624512e-01,9.072038531303405762e-01,9.071617722511291504e-01,9.071197509765625000e-01,9.070776700973510742e-01,9.070355892181396484e-01
8.635505437850952148e-01,8.635125160217285156e-01,8.634743690490722656e-01,8.634363412857055664e-01,8.633982539176940918e-01,8.633602261543273926e-01,8.633220791816711426e-01,8.632840514183044434e-01,8.632459640502929688e-01,8.632078170776367188e-01,8.631697893142700195e-01,8.631317019462585449e-01,8.630937337875366211e-01,8.630555868148803711e-01,8.630176186561584473e-01,8.629795312881469727e-01,8.629415035247802734e-01,8.629034161567687988e-01,8.628653883934020996e-01,8.628273606300354004e-01,8.627893328666687012e-01,8.627513051033020020e-01,8.627132773399353027e-01,8.626753091812133789e-01,8.626372218132019043e-01,8.625992536544799805e-01,8.625612258911132812e-01,8.625232577323913574e-01,8.624852299690246582e-01,8.624472022056579590e-01,8.624092340469360352e-01,8.623712062835693359e-01,8.623332381248474121e-01,8.622952103614807129e-01,8.622573018074035645e-01,8.622192740440368652e-01,8.621813058853149414e-01,8.621433377265930176e-01,8.621053099632263184e-01,8.620674014091491699e-01,8.620293736457824707e-01,8.619914650917053223e-01,8.619534969329833984e-01,8.619155883789062500e-01,8.618775606155395508e-01,8.618397116661071777e-01,8.618016839027404785e-01,8.617638349533081055e-01,8.617258071899414062e-01,8.616878390312194824e-01,8.616499900817871094e-01,8.616120219230651855e-01,8.615741133689880371e-01,8.615361452102661133e-01,8.614982962608337402e-01,8.614603281021118164e-01,8.614224791526794434e-01,8.613845109939575195e-01,8.613466024398803711e-01,8.613087534904479980e-01,8.612707853317260742e-01,8.612329363822937012e-01,8.611950278282165527e-01,8.611571788787841797e-01,8.611192703247070312e-01,8.610814213752746582e-01,8.610435128211975098e-01,8.610056638717651367e-01,8.609677553176879883e-01,8.609298467636108398e-01,8.608920574188232422e-01,8.608541488647460938e-01,8.608163595199584961e-01,8.607784509658813477e-01,8.607406616210937500e-01,8.607027530670166016e-01,8.606649637222290039e-01,8.606271147727966309e-01,8.605892062187194824e-01,8.605514168739318848e-01
8.213128447532653809e-01,8.212783932685852051e-01,8.212439417839050293e-01,8.212094902992248535e-01,8.211750388145446777e-01,8.211405873298645020e-01,8.211060762405395508e-01,8.210716843605041504e-01,8.210372328758239746e-01,8.210028409957885742e-01,8.209683895111083984e-01,8.209339976310729980e-01,8.208995461463928223e-01,8.208651542663574219e-01,8.208307027816772461e-01,8.207963109016418457e-01,8.207618594169616699e-01,8.207274079322814941e-01,8.206930160522460938e-01,8.206586241722106934e-01,8.206242322921752930e-01,8.205897808074951172e-01,8.205554485321044922e-01,8.205209970474243164e-01,8.204866647720336914e-01,8.204522728919982910e-01,8.204178214073181152e-01,8.203834891319274902e-01,8.203490376472473145e-01,8.203147053718566895e-01,8.202803134918212891e-01,8.202459812164306641e-01,8.202115893363952637e-01,8.201772570610046387e-01,8.201428651809692383e-01,8.201085329055786133e-01,8.200741410255432129e-01,8.200397491455078125e-01,8.200054764747619629e-01,8.199710845947265625e-01,8.199367523193359375e-01,8.199023604393005371e-01,8.198680877685546875e-01,8.198336958885192871e-01,8.197994232177734375e-01,8.197650313377380371e-01,8.197306990623474121e-01,8.196963667869567871e-01,8.196620345115661621e-01,8.196277618408203125e-01,8.195934295654296875e-01,8.195591568946838379e-01,8.195247650146484375e-01,8.194904923439025879e-01,8.194561600685119629e-01,8.194218873977661133e-01,8.193875551223754883e-01,8.193532228469848633e-01,8.193190097808837891e-01,8.192846775054931641e-01,8.192504048347473145e-01,8.192160725593566895e-01,8.191818594932556152e-01,8.191475272178649902e-01,8.191133141517639160e-01,8.190789818763732910e-01,8.190447092056274414e-01,8.190104365348815918e-01,8.189761638641357422e-01,8.189419507980346680e-01,8.189076185226440430e-01,8.188734054565429688e-01,8.188391327857971191e-01,8.188049197196960449e-01,8.187706470489501953e-01,8.187364339828491211e-01,8.187021613121032715e-01,8.186678886413574219e-01,8.186336755752563477e-01,8.185994029045104980e-01
