5.000000000000000000e+00,5.000000000000000000e+00,5.000000000000000000e+00,5.000000000000000000e+00,5.000000000000000000e+00,5.000000000000000000e+00,5.000000000000000000e+00,5.000000000000000000e+00,5.000000000000000000e+00,5.000000000000000000e+00,5.000000000000000000e+00,5.000000000000000000e+00,5.000000000000000000e+00,5.000000000000000000e+00,5.000000000000000000e+00,5.000000000000000000e+00,5.000000000000000000e+00,5.000000000000000000e+00,5.000000000000000000e+00,5.000000000000000000e+00,5.000000000000000000e+00,5.000000000000000000e+00,5.000000000000000000e+00,5.000000000000000000e+00,5.000000000000000000e+00,5.000000000000000000e+00,5.000000000000000000e+00,5.000000000000000000e+00,5.000000000000000000e+00,5.000000000000000000e+00,5.000000000000000000e+00,5.000000000000000000e+00,5.000000000000000000e+00,5.000000000000000000e+00,5.000000000000000000e+00,5.000000000000000000e+00,5.000000000000000000e+00,5.000000000000000000e+00,5.000000000000000000e+00,4.861764907836914062e+00,4.670824050903320312e+00,4.494314670562744141e+00,4.330659389495849609e+00,4.178503990173339844e+00,4.036677837371826172e+00,3.904163122177124023e+00,1.336889624595642090e+00,1.311359643936157227e+00,1.307542562484741211e+00,1.313200116157531738e+00,1.265996336936950684e+00,1.225363373756408691e+00,1.200973629951477051e+00,1.171929955482482910e+00,1.160271525382995605e+00,1.157280206680297852e+00,1.154312014579772949e+00,1.151358962059020996e+00,1.148420929908752441e+00,1.214445948600769043e+00,1.302177190780639648e+00,1.319518208503723145e+00,2.505768775939941406e+00,2.454062938690185547e+00,2.404448032379150391e+00,2.356799602508544922e+00,1.362631559371948242e+00,1.337575912475585938e+00,1.315195202827453613e+00,1.272951006889343262e+00,1.272755146026611328e+00,2.106351852416992188e+00,2.069695472717285156e+00,2.034293174743652344e+00,2.000081777572631836e+00,1.967001676559448242e+00,1.934998154640197754e+00,1.904019474983215332e+00,1.874017000198364258e+00,1.844945430755615234e+00
5.000000000000000000e+00,5.000000000000000000e+00,5.000000000000000000e+00,5.000000000000000000e+00,5.000000000000000000e+00,5.000000000000000000e+00,5.000000000000000000e+00,5.000000000000000000e+00,5.000000000000000000e+00,5.000000000000000000e+00,5.000000000000000000e+00,5.000000000000000000e+00,5.000000000000000000e+00,5.000000000000000000e+00,5.000000000000000000e+00,5.000000000000000000e+00,5.000000000000000000e+00,5.000000000000000000e+00,5.000000000000000000e+00,5.000000000000000000e+00,5.000000000000000000e+00,5.000000000000000000e+00,5.000000000000000000e+00,5.000000000000000000e+00,5.000000000000000000e+00,5.000000000000000000e+00,5.000000000000000000e+00,5.000000000000000000e+00,5.000000000000000000e+00,5.000000000000000000e+00,5.000000000000000000e+00,5.000000000000000000e+00,5.000000000000000000e+00,5.000000000000000000e+00,5.000000000000000000e+00,5.000000000000000000e+00,5.000000000000000000e+00,5.000000000000000000e+00,5.000000000000000000e+00,4.861905097961425781e+00,4.670953273773193359e+00,4.494433879852294922e+00,4.330770015716552734e+00,4.178607463836669922e+00,4.036774158477783203e+00,3.904253244400024414e+00,1.331355810165405273e+00,1.304562807083129883e+00,1.299404859542846680e+00,1.313292622566223145e+00,1.270277380943298340e+00,1.226459622383117676e+00,1.195956826210021973e+00,1.174707651138305664e+00,1.154601812362670898e+00,1.150720477104187012e+00,1.147475600242614746e+00,1.144557476043701172e+00,1.141654014587402344e+00,1.176474809646606445e+00,1.303093552589416504e+00,1.326925516128540039e+00,2.505805730819702148e+00,2.454098463058471680e+00,2.404482126235961914e+00,2.356832265853881836e+00,2.311034202575683594e+00,1.364472985267639160e+00,1.289973378181457520e+00,1.260625958442687988e+00,1.243210554122924805e+00,1.259578704833984375e+00,2.069720745086669922e+00,2.034317731857299805e+00,2.000105381011962891e+00,1.967024803161621094e+00,1.935020565986633301e+00,1.904040813446044922e+00,1.874037742614746094e+00,1.844965457916259766e+00
5.000000000000000000e+00,5.000000000000000000e+00,5.000000000000000000e+00,5.000000000000000000e+00,5.000000000000000000e+00,5.000000000000000000e+00,5.000000000000000000e+00,5.000000000000000000e+00,5.000000000000000000e+00,5.000000000000000000e+00,5.000000000000000000e+00,5.000000000000000000e+00,5.000000000000000000e+00,5.000000000000000000e+00,5.000000000000000000e+00,5.000000000000000000e+00,5.000000000000000000e+00,5.000000000000000000e+00,5.000000000000000000e+00,5.000000000000000000e+00,5.000000000000000000e+00,5.000000000000000000e+00,5.000000000000000000e+00,5.000000000000000000e+00,5.000000000000000000e+00,5.000000000000000000e+00,5.000000000000000000e+00,5.000000000000000000e+00,5.000000000000000000e+00,5.000000000000000000e+00,5.000000000000000000e+00,5.000000000000000000e+00,5.000000000000000000e+00,5.000000000000000000e+00,5.000000000000000000e+00,5.000000000000000000e+00,5.000000000000000000e+00,5.000000000000000000e+00,5.000000000000000000e+00,4.862044811248779297e+00,4.671082019805908203e+00,4.494553089141845703e+00,4.330881118774414062e+00,4.178710460662841797e+00,4.036870479583740234e+00,3.904343605041503906e+00,1.327261090278625488e+00,1.300974607467651367e+00,1.293774008750915527e+00,1.315067052841186523e+00,1.273931741714477539e+00,1.229287743568420410e+00,1.198849678039550781e+00,1.177498579025268555e+00,1.155743002891540527e+00,1.145143508911132812e+00,1.141325354576110840e+00,1.137835741043090820e+00,1.134966373443603516e+00,1.149698853492736816e+00,1.302964925765991211e+00,1.331166028976440430e+00,2.505842924118041992e+00,2.454134225845336914e+00,2.404516220092773438e+00,2.356865167617797852e+00,2.311065673828125000e+00,2.267012357711791992e+00,2.224607229232788086e+00,1.321986675262451172e+00,1.239827990531921387e+00,1.227587103843688965e+00,1.238627433776855469e+00,2.034342050552368164e+00,2.000128984451293945e+00,1.967047572135925293e+00,1.935042619705200195e+00,1.904062509536743164e+00,1.874058604240417480e+00,1.844985723495483398e+00
5.000000000000000000e+00,5.000000000000000000e+00,5.000000000000000000e+00,5.000000000000000000e+00,5.000000000000000000e+00,5.000000000000000000e+00,5.000000000000000000e+00,5.000000000000000000e+00,5.000000000000000000e+00,5.000000000000000000e+00,5.000000000000000000e+00,5.000000000000000000e+00,5.000000000000000000e+00,5.000000000000000000e+00,5.000000000000000000e+00,5.000000000000000000e+00,5.000000000000000000e+00,5.000000000000000000e+00,5.000000000000000000e+00,5.000000000000000000e+00,5.000000000000000000e+00,5.000000000000000000e+00,5.000000000000000000e+00,5.000000000000000000e+00,5.000000000000000000e+00,5.000000000000000000e+00,5.000000000000000000e+00,5.000000000000000000e+00,5.000000000000000000e+00,5.000000000000000000e+00,5.000000000000000000e+00,5.000000000000000000e+00,5.000000000000000000e+00,5.000000000000000000e+00,5.000000000000000000e+00,5.000000000000000000e+00,5.000000000000000000e+00,5.000000000000000000e+00,5.000000000000000000e+00,4.862184047698974609e+00,4.671211242675781250e+00,4.494672775268554688e+00,4.330992221832275391e+00,4.178813457489013672e+00,4.036966800689697266e+00,3.904433488845825195e+00,1.327476859092712402e+00,1.299018383026123047e+00,1.291955828666687012e+00,3.451220512390136719e+00,1.277375936508178711e+00,1.235240221023559570e+00,1.202821254730224609e+00,1.180302739143371582e+00,1.158595323562622070e+00,1.139620304107666016e+00,1.135838866233825684e+00,1.132082343101501465e+00,1.128356575965881348e+00,1.125534772872924805e+00,1.183364510536193848e+00,1.331843614578247070e+00,2.505880117416381836e+00,2.454169750213623047e+00,2.404550552368164062e+00,2.356898069381713867e+00,2.311097383499145508e+00,2.267042636871337891e+00,2.224636554718017578e+00,1.339014887809753418e+00,1.311423659324645996e+00,1.286062240600585938e+00,1.262084960937500000e+00,1.218347668647766113e+00,2.000152587890625000e+00,1.967070460319519043e+00,1.935064673423767090e+00,1.904083847999572754e+00,1.874079346656799316e+00,1.845005869865417480e+00
5.000000000000000000e+00,5.000000000000000000e+00,5.000000000000000000e+00,5.000000000000000000e+00,5.000000000000000000e+00,5.000000000000000000e+00,5.000000000000000000e+00,5.000000000000000000e+00,5.000000000000000000e+00,5.000000000000000000e+00,5.000000000000000000e+00,5.000000000000000000e+00,5.000000000000000000e+00,5.000000000000000000e+00,5.000000000000000000e+00,5.000000000000000000e+00,5.000000000000000000e+00,5.000000000000000000e+00,5.000000000000000000e+00,5.000000000000000000e+00,5.000000000000000000e+00,5.000000000000000000e+00,5.000000000000000000e+00,5.000000000000000000e+00,5.000000000000000000e+00,5.000000000000000000e+00,5.000000000000000000e+00,5.000000000000000000e+00,5.000000000000000000e+00,5.000000000000000000e+00,5.000000000000000000e+00,5.000000000000000000e+00,5.000000000000000000e+00,5.000000000000000000e+00,5.000000000000000000e+00,5.000000000000000000e+00,5.000000000000000000e+00,5.000000000000000000e+00,5.000000000000000000e+00,4.862324237823486328e+00,4.671339988708496094e+00,4.494792461395263672e+00,4.331102848052978516e+00,4.178916931152343750e+00,4.037063121795654297e+00,3.904523849487304688e+00,1.340355038642883301e+00,1.308851122856140137e+00,1.306007146835327148e+00,3.451290607452392578e+00,3.353959798812866211e+00,1.243161916732788086e+00,1.210331439971923828e+00,1.183120250701904297e+00,1.161461949348449707e+00,1.139691352844238281e+00,1.130404829978942871e+00,1.126684069633483887e+00,1.122987866401672363e+00,1.119315743446350098e+00,1.155652523040771484e+00,1.339645624160766602e+00,2.505917072296142578e+00,2.454205274581909180e+00,2.404584646224975586e+00,2.356930732727050781e+00,2.311128854751586914e+00,2.267073154449462891e+00,2.224665880203247070e+00,2.183815717697143555e+00,1.331301212310791016e+00,1.314456582069396973e+00,1.280305266380310059e+00,1.244799494743347168e+00,2.000176191329956055e+00,1.967093229293823242e+00,1.935086846351623535e+00,1.904105305671691895e+00,1.874100089073181152e+00,1.845025897026062012e+00
5.000000000000000000e+00,5.000000000000000000e+00,5.000000000000000000e+00,5.000000000000000000e+00,5.000000000000000000e+00,5.000000000000000000e+00,5.000000000000000000e+00,5.000000000000000000e+00,5.000000000000000000e+00,5.000000000000000000e+00,5.000000000000000000e+00,5.000000000000000000e+00,5.000000000000000000e+00,5.000000000000000000e+00,5.000000000000000000e+00,5.000000000000000000e+00,5.000000000000000000e+00,5.000000000000000000e+00,5.000000000000000000e+00,5.000000000000000000e+00,5.000000000000000000e+00,5.000000000000000000e+00,5.000000000000000000e+00,5.000000000000000000e+00,5.000000000000000000e+00,5.000000000000000000e+00,5.000000000000000000e+00,5.000000000000000000e+00,5.000000000000000000e+00,5.000000000000000000e+00,5.000000000000000000e+00,5.000000000000000000e+00,5.000000000000000000e+00,5.000000000000000000e+00,5.000000000000000000e+00,5.000000000000000000e+00,5.000000000000000000e+00,5.000000000000000000e+00,5.000000000000000000e+00,4.862463951110839844e+00,4.671468734741210938e+00,4.494911670684814453e+00,4.331213951110839844e+00,4.179020404815673828e+00,4.037159442901611328e+00,3.904613971710205078e+00,3.780494928359985352e+00,1.300573825836181641e+00,1.293386459350585938e+00,1.297806739807128906e+00,3.354026079177856445e+00,1.250722646713256836e+00,1.217935919761657715e+00,1.186407446861267090e+00,1.164342641830444336e+00,1.142465114593505859e+00,1.123885869979858398e+00,1.119426608085632324e+00,1.115342617034912109e+00,1.111288428306579590e+00,1.129468083381652832e+00,1.352332353591918945e+00,2.505954265594482422e+00,2.454241037368774414e+00,2.404618740081787109e+00,2.356963634490966797e+00,2.311160326004028320e+00,2.267103672027587891e+00,2.224694967269897461e+00,2.183844089508056641e+00,2.144466161727905273e+00,1.314673662185668945e+00,2.069822072982788086e+00,1.264823794364929199e+00,1.233098387718200684e+00,1.967116117477416992e+00,1.935108900070190430e+00,1.904126644134521484e+00,1.874120831489562988e+00,1.845046043395996094e+00
5.000000000000000000e+00,5.000000000000000000e+00,5.000000000000000000e+00,5.000000000000000000e+00,5.000000000000000000e+00,5.000000000000000000e+00,5.000000000000000000e+00,5.000000000000000000e+00,5.000000000000000000e+00,5.000000000000000000e+00,5.000000000000000000e+00,5.000000000000000000e+00,5.000000000000000000e+00,5.000000000000000000e+00,5.000000000000000000e+00,5.000000000000000000e+00,5.000000000000000000e+00,5.000000000000000000e+00,5.000000000000000000e+00,5.000000000000000000e+00,5.000000000000000000e+00,5.000000000000000000e+00,5.000000000000000000e+00,5.000000000000000000e+00,5.000000000000000000e+00,5.000000000000000000e+00,5.000000000000000000e+00,5.000000000000000000e+00,5.000000000000000000e+00,5.000000000000000000e+00,5.000000000000000000e+00,5.000000000000000000e+00,5.000000000000000000e+00,5.000000000000000000e+00,5.000000000000000000e+00,5.000000000000000000e+00,5.000000000000000000e+00,5.000000000000000000e+00,5.000000000000000000e+00,4.862603664398193359e+00,4.671597957611083984e+00,4.495030879974365234e+00,4.331324577331542969e+00,4.179123401641845703e+00,4.037255764007568359e+00,3.904703855514526367e+00,1.327233314514160156e+00,1.290434122085571289e+00,1.280998110771179199e+00,1.279501676559448242e+00,3.354092836380004883e+00,3.262093544006347656e+00,1.224819660186767578e+00,1.193666219711303711e+00,1.167237639427185059e+00,1.145709514617919922e+00,1.124755501747131348e+00,1.112171769142150879e+00,1.107325553894042969e+00,1.103329300880432129e+00,1.104915618896484375e+00,1.154252290725708008e+00,2.505991458892822266e+00,2.454276561737060547e+00,2.404653072357177734e+00,2.356996536254882812e+00,2.311192035675048828e+00,2.267133951187133789e+00,2.224724292755126953e+00,2.183872222900390625e+00,2.144493103027343750e+00,2.106509208679199219e+00,2.069847345352172852e+00,2.034440040588378906e+00,2.000223636627197266e+00,1.967138886451721191e+00,1.935130953788757324e+00,1.904148101806640625e+00,1.874141573905944824e+00,1.845066070556640625e+00
5.000000000000000000e+00,5.000000000000000000e+00,5.000000000000000000e+00,5.000000000000000000e+00,5.000000000000000000e+00,5.000000000000000000e+00,5.000000000000000000e+00,5.000000000000000000e+00,5.000000000000000000e+00,5.000000000000000000e+00,5.000000000000000000e+00,5.000000000000000000e+00,5.000000000000000000e+00,5.000000000000000000e+00,5.000000000000000000e+00,5.000000000000000000e+00,5.000000000000000000e+00,5.000000000000000000e+00,5.000000000000000000e+00,5.000000000000000000e+00,5.000000000000000000e+00,5.000000000000000000e+00,5.000000000000000000e+00,5.000000000000000000e+00,5.000000000000000000e+00,5.000000000000000000e+00,5.000000000000000000e+00,5.000000000000000000e+00,5.000000000000000000e+00,5.000000000000000000e+00,5.000000000000000000e+00,5.000000000000000000e+00,5.000000000000000000e+00,5.000000000000000000e+00,5.000000000000000000e+00,5.000000000000000000e+00,5.000000000000000000e+00,5.000000000000000000e+00,5.000000000000000000e+00,4.862743377685546875e+00,4.671727180480957031e+00,4.495150566101074219e+00,4.331435680389404297e+00,4.179226398468017578e+00,4.037352085113525391e+00,3.904794216156005859e+00,1.319559216499328613e+00,1.281890988349914551e+00,1.276307106018066406e+00,1.277070283889770508e+00,3.354159116744995117e+00,3.262156724929809570e+00,1.231455564498901367e+00,1.199967741966247559e+00,1.171002984046936035e+00,1.149045586585998535e+00,1.128261923789978027e+00,1.108997941017150879e+00,1.100699305534362793e+00,1.095483303070068359e+00,1.091571927070617676e+00,1.128838300704956055e+00,2.506028413772583008e+00,2.454312086105346680e+00,2.404687166213989258e+00,2.357029199600219727e+00,2.311223506927490234e+00,2.267164468765258789e+00,2.224753618240356445e+00,2.183900356292724609e+00,2.144520282745361328e+00,2.106535434722900391e+00,2.069872617721557617e+00,2.034464359283447266e+00,2.000247240066528320e+00,1.967162013053894043e+00,1.935153365135192871e+00,1.904169678688049316e+00,1.874162316322326660e+00,1.845086216926574707e+00
5.000000000000000000e+00,5.000000000000000000e+00,5.000000000000000000e+00,5.000000000000000000e+00,5.000000000000000000e+00,5.000000000000000000e+00,5.000000000000000000e+00,5.000000000000000000e+00,5.000000000000000000e+00,5.000000000000000000e+00,5.000000000000000000e+00,5.000000000000000000e+00,5.000000000000000000e+00,5.000000000000000000e+00,5.000000000000000000e+00,5.000000000000000000e+00,5.000000000000000000e+00,5.000000000000000000e+00,5.000000000000000000e+00,5.000000000000000000e+00,5.000000000000000000e+00,5.000000000000000000e+00,5.000000000000000000e+00,5.000000000000000000e+00,5.000000000000000000e+00,5.000000000000000000e+00,5.000000000000000000e+00,5.000000000000000000e+00,5.000000000000000000e+00,5.000000000000000000e+00,5.000000000000000000e+00,5.000000000000000000e+00,5.000000000000000000e+00,5.000000000000000000e+00,5.000000000000000000e+00,5.000000000000000000e+00,5.000000000000000000e+00,5.000000000000000000e+00,5.000000000000000000e+00,4.862883090972900391e+00,4.671855926513671875e+00,4.495269775390625000e+00,4.331546306610107422e+00,4.179329872131347656e+00,4.037448406219482422e+00,3.904884338378906250e+00,1.314414739608764648e+00,1.289400815963745117e+00,1.269814848899841309e+00,1.272947669029235840e+00,3.354225635528564453e+00,3.262219429016113281e+00,3.175125837326049805e+00,1.206716418266296387e+00,1.178032517433166504e+00,1.152401208877563477e+00,1.131497025489807129e+00,1.109788417816162109e+00,1.097590565681457520e+00,1.089461207389831543e+00,1.083891749382019043e+00,1.104519367218017578e+00,2.506065607070922852e+00,2.454347848892211914e+00,2.404721260070800781e+00,2.357062101364135742e+00,2.311255216598510742e+00,2.267194747924804688e+00,2.224782705307006836e+00,2.183928489685058594e+00,2.144547700881958008e+00,2.106561899185180664e+00,2.069897890090942383e+00,2.034488916397094727e+00,2.000270843505859375e+00,1.967184782028198242e+00,1.935175418853759766e+00,1.904191017150878906e+00,1.874183177947998047e+00,1.845106482505798340e+00
5.000000000000000000e+00,5.000000000000000000e+00,5.000000000000000000e+00,5.000000000000000000e+00,5.000000000000000000e+00,5.000000000000000000e+00,5.000000000000000000e+00,5.000000000000000000e+00,5.000000000000000000e+00,5.000000000000000000e+00,5.000000000000000000e+00,5.000000000000000000e+00,5.000000000000000000e+00,5.000000000000000000e+00,5.000000000000000000e+00,5.000000000000000000e+00,5.000000000000000000e+00,5.000000000000000000e+00,5.000000000000000000e+00,5.000000000000000000e+00,5.000000000000000000e+00,5.000000000000000000e+00,5.000000000000000000e+00,5.000000000000000000e+00,5.000000000000000000e+00,5.000000000000000000e+00,5.000000000000000000e+00,5.000000000000000000e+00,5.000000000000000000e+00,5.000000000000000000e+00,5.000000000000000000e+00,5.000000000000000000e+00,5.000000000000000000e+00,5.000000000000000000e+00,5.000000000000000000e+00,5.000000000000000000e+00,5.000000000000000000e+00,5.000000000000000000e+00,5.000000000000000000e+00,4.863022804260253906e+00,4.671985149383544922e+00,4.495389461517333984e+00,4.331657409667968750e+00,4.179432868957519531e+00,4.037544727325439453e+00,3.904974222183227539e+00,1.314492106437683105e+00,1.287533760070800781e+00,1.260237693786621094e+00,3.451642990112304688e+00,3.354292392730712891e+00,3.262282133102416992e+00,3.175185441970825195e+00,1.212974905967712402e+00,1.185146808624267578e+00,1.157467246055603027e+00,1.134750843048095703e+00,1.113347530364990234e+00,1.094499349594116211e+00,1.086415410041809082e+00,1.078450202941894531e+00,1.081226110458374023e+00,1.114479541778564453e+00,2.454383373260498047e+00,2.404755592346191406e+00,2.357095003128051758e+00,2.311286687850952148e+00,2.267225027084350586e+00,2.224812030792236328e+00,2.183956623077392578e+00,2.144574642181396484e+00,2.106587886810302734e+00,2.069923400878906250e+00,2.034513473510742188e+00,2.000294446945190430e+00,1.967207670211791992e+00,1.935197472572326660e+00,1.904212474822998047e+00,1.874203920364379883e+00,1.845126628875732422e+00
5.000000000000000000e+00,5.000000000000000000e+00,5.000000000000000000e+00,5.000000000000000000e+00,5.000000000000000000e+00,5.000000000000000000e+00,5.000000000000000000e+00,5.000000000000000000e+00,5.000000000000000000e+00,5.000000000000000000e+00,5.000000000000000000e+00,5.000000000000000000e+00,5.000000000000000000e+00,5.000000000000000000e+00,5.000000000000000000e+00,5.000000000000000000e+00,5.000000000000000000e+00,5.000000000000000000e+00,5.000000000000000000e+00,5.000000000000000000e+00,5.000000000000000000e+00,5.000000000000000000e+00,5.000000000000000000e+00,5.000000000000000000e+00,5.000000000000000000e+00,5.000000000000000000e+00,5.000000000000000000e+00,5.000000000000000000e+00,5.000000000000000000e+00,5.000000000000000000e+00,5.000000000000000000e+00,5.000000000000000000e+00,5.000000000000000000e+00,5.000000000000000000e+00,5.000000000000000000e+00,5.000000000000000000e+00,5.000000000000000000e+00,5.000000000000000000e+00,5.000000000000000000e+00,4.863162517547607422e+00,4.672114372253417969e+00,4.495508670806884766e+00,4.331768035888671875e+00,4.179536342620849609e+00,4.037641048431396484e+00,3.905064582824707031e+00,1.312327146530151367e+00,1.282581090927124023e+00,1.252982258796691895e+00,3.451713085174560547e+00,3.354358673095703125e+00,3.262345314025878906e+00,3.175245285034179688e+00,1.435683965682983398e+00,1.190457820892333984e+00,1.164334654808044434e+00,1.138023257255554199e+00,1.116929531097412109e+00,1.095214486122131348e+00,1.083344936370849609e+00,1.075088024139404297e+00,1.066956162452697754e+00,1.092652559280395508e+00,2.454418897628784180e+00,2.404789686203002930e+00,2.357127904891967773e+00,2.311318397521972656e+00,2.267255544662475586e+00,2.224841356277465820e+00,2.183984994888305664e+00,2.144601821899414062e+00,2.106614112854003906e+00,2.069948673248291016e+00,2.034537792205810547e+00,2.000318050384521484e+00,1.967230439186096191e+00,1.935219645500183105e+00,1.904233813285827637e+00,1.874224662780761719e+00,1.845146656036376953e+00
5.000000000000000000e+00,5.000000000000000000e+00,5.000000000000000000e+00,5.000000000000000000e+00,5.000000000000000000e+00,5.000000000000000000e+00,5.000000000000000000e+00,5.000000000000000000e+00,5.000000000000000000e+00,5.000000000000000000e+00,5.000000000000000000e+00,5.000000000000000000e+00,5.000000000000000000e+00,5.000000000000000000e+00,5.000000000000000000e+00,5.000000000000000000e+00,5.000000000000000000e+00,5.000000000000000000e+00,5.000000000000000000e+00,5.000000000000000000e+00,5.000000000000000000e+00,5.000000000000000000e+00,5.000000000000000000e+00,5.000000000000000000e+00,5.000000000000000000e+00,5.000000000000000000e+00,5.000000000000000000e+00,5.000000000000000000e+00,5.000000000000000000e+00,5.000000000000000000e+00,5.000000000000000000e+00,5.000000000000000000e+00,5.000000000000000000e+00,5.000000000000000000e+00,5.000000000000000000e+00,5.000000000000000000e+00,5.000000000000000000e+00,5.000000000000000000e+00,5.000000000000000000e+00,4.863302707672119141e+00,4.672243118286132812e+00,4.495627880096435547e+00,4.331879138946533203e+00,4.179639816284179688e+00,4.037737369537353516e+00,3.905154705047607422e+00,1.307411313056945801e+00,1.277971625328063965e+00,1.253347873687744141e+00,3.451783418655395508e+00,3.354425191879272461e+00,3.262408256530761719e+00,3.175304651260375977e+00,1.434538841247558594e+00,1.194381713867187500e+00,1.168761491775512695e+00,1.144217133522033691e+00,1.120534658432006836e+00,1.098847746849060059e+00,1.082040429115295410e+00,1.072463512420654297e+00,1.063054561614990234e+00,1.079784512519836426e+00,2.454454660415649414e+00,2.404823780059814453e+00,2.357160568237304688e+00,2.311349868774414062e+00,2.267285823822021484e+00,2.224870443344116211e+00,2.184013128280639648e+00,2.144629240036010742e+00,2.106640577316284180e+00,2.069973945617675781e+00,2.034562349319458008e+00,2.000341653823852539e+00,1.967253327369689941e+00,1.935241699218750000e+00,1.904255270957946777e+00,1.874245405197143555e+00,1.845166802406311035e+00
5.000000000000000000e+00,5.000000000000000000e+00,5.000000000000000000e+00,5.000000000000000000e+00,5.000000000000000000e+00,5.000000000000000000e+00,5.000000000000000000e+00,5.000000000000000000e+00,5.000000000000000000e+00,5.000000000000000000e+00,5.000000000000000000e+00,5.000000000000000000e+00,5.000000000000000000e+00,5.000000000000000000e+00,5.000000000000000000e+00,5.000000000000000000e+00,5.000000000000000000e+00,5.000000000000000000e+00,5.000000000000000000e+00,5.000000000000000000e+00,5.000000000000000000e+00,5.000000000000000000e+00,5.000000000000000000e+00,5.000000000000000000e+00,5.000000000000000000e+00,5.000000000000000000e+00,5.000000000000000000e+00,5.000000000000000000e+00,5.000000000000000000e+00,5.000000000000000000e+00,5.000000000000000000e+00,5.000000000000000000e+00,5.000000000000000000e+00,5.000000000000000000e+00,5.000000000000000000e+00,5.000000000000000000e+00,5.000000000000000000e+00,5.000000000000000000e+00,5.000000000000000000e+00,4.863442420959472656e+00,4.672371864318847656e+00,4.495747566223144531e+00,4.331990242004394531e+00,4.179742813110351562e+00,4.037833690643310547e+00,3.905244588851928711e+00,1.306159138679504395e+00,3.664578914642333984e+00,3.555037260055541992e+00,3.451854228973388672e+00,3.354491949081420898e+00,3.262470960617065430e+00,3.175364255905151367e+00,1.431046128273010254e+00,1.394785165786743164e+00,1.172543406486511230e+00,1.147841811180114746e+00,1.124315261840820312e+00,1.102807164192199707e+00,1.082373619079589844e+00,1.072973251342773438e+00,1.063780903816223145e+00,1.077670931816101074e+00,2.454490184783935547e+00,2.404858112335205078e+00,2.357193470001220703e+00,2.311381578445434570e+00,2.267316102981567383e+00,2.224899768829345703e+00,2.184041261672973633e+00,2.144656181335449219e+00,2.106666803359985352e+00,2.069999456405639648e+00,2.034586906433105469e+00,2.000365495681762695e+00,1.967276215553283691e+00,1.935263752937316895e+00,1.904276609420776367e+00,1.874266147613525391e+00,1.845186829566955566e+00
5.000000000000000000e+00,5.000000000000000000e+00,5.000000000000000000e+00,5.000000000000000000e+00,5.000000000000000000e+00,5.000000000000000000e+00,5.000000000000000000e+00,5.000000000000000000e+00,5.000000000000000000e+00,5.000000000000000000e+00,5.000000000000000000e+00,5.000000000000000000e+00,5.000000000000000000e+00,5.000000000000000000e+00,5.000000000000000000e+00,5.000000000000000000e+00,5.000000000000000000e+00,5.000000000000000000e+00,5.000000000000000000e+00,5.000000000000000000e+00,5.000000000000000000e+00,5.000000000000000000e+00,5.000000000000000000e+00,5.000000000000000000e+00,5.000000000000000000e+00,5.000000000000000000e+00,5.000000000000000000e+00,5.000000000000000000e+00,5.000000000000000000e+00,5.000000000000000000e+00,5.000000000000000000e+00,5.000000000000000000e+00,5.000000000000000000e+00,5.000000000000000000e+00,5.000000000000000000e+00,5.000000000000000000e+00,5.000000000000000000e+00,5.000000000000000000e+00,5.000000000000000000e+00,4.863582134246826172e+00,4.672501087188720703e+00,4.495867252349853516e+00,4.332100868225097656e+00,4.179846286773681641e+00,4.037930488586425781e+00,3.905335187911987305e+00,3.781170606613159180e+00,3.664658308029174805e+00,3.555111885070800781e+00,3.451924562454223633e+00,3.354558229446411133e+00,3.262534141540527344e+00,3.175424098968505859e+00,1.427570462226867676e+00,1.395451307296752930e+00,1.373870253562927246e+00,1.151988744735717773e+00,1.128701925277709961e+00,1.103963613510131836e+00,1.085026144981384277e+00,1.074936747550964355e+00,1.065375328063964844e+00,1.081685185432434082e+00,2.454525709152221680e+00,2.404892206192016602e+00,2.357226371765136719e+00,2.311413049697875977e+00,2.267346620559692383e+00,2.224929094314575195e+00,2.184069633483886719e+00,2.144683361053466797e+00,2.106692790985107422e+00,2.070024728775024414e+00,2.034611225128173828e+00,2.000389099121093750e+00,1.967299222946166992e+00,1.935286164283752441e+00,1.904298305511474609e+00,1.874286890029907227e+00,1.845206975936889648e+00
5.000000000000000000e+00,5.000000000000000000e+00,5.000000000000000000e+00,5.000000000000000000e+00,5.000000000000000000e+00,5.000000000000000000e+00,5.000000000000000000e+00,5.000000000000000000e+00,5.000000000000000000e+00,5.000000000000000000e+00,5.000000000000000000e+00,5.000000000000000000e+00,5.000000000000000000e+00,5.000000000000000000e+00,5.000000000000000000e+00,5.000000000000000000e+00,5.000000000000000000e+00,5.000000000000000000e+00,5.000000000000000000e+00,5.000000000000000000e+00,5.000000000000000000e+00,5.000000000000000000e+00,5.000000000000000000e+00,5.000000000000000000e+00,5.000000000000000000e+00,5.000000000000000000e+00,5.000000000000000000e+00,5.000000000000000000e+00,5.000000000000000000e+00,5.000000000000000000e+00,5.000000000000000000e+00,5.000000000000000000e+00,5.000000000000000000e+00,5.000000000000000000e+00,5.000000000000000000e+00,5.000000000000000000e+00,5.000000000000000000e+00,5.000000000000000000e+00,5.000000000000000000e+00,4.863721847534179688e+00,4.672630310058593750e+00,4.495986461639404297e+00,4.332211971282958984e+00,4.179949760437011719e+00,4.038026332855224609e+00,3.905425071716308594e+00,3.781255245208740234e+00,3.664737939834594727e+00,3.555186271667480469e+00,3.451994895935058594e+00,3.354624748229980469e+00,3.262596845626831055e+00,3.175483465194702148e+00,1.424111485481262207e+00,1.396880388259887695e+00,1.377698421478271484e+00,1.155246496200561523e+00,1.126713395118713379e+00,1.103950738906860352e+00,1.088293790817260742e+00,1.079657554626464844e+00,1.070281147956848145e+00,1.089139342308044434e+00,2.454561471939086914e+00,2.404926300048828125e+00,2.357259035110473633e+00,2.311444520950317383e+00,2.267377138137817383e+00,2.224958419799804688e+00,2.184097766876220703e+00,2.144710779190063477e+00,2.106719255447387695e+00,2.070050001144409180e+00,2.034635782241821289e+00,2.000412702560424805e+00,1.967322111129760742e+00,1.935308218002319336e+00,1.904319643974304199e+00,1.874307751655578613e+00,1.845227241516113281e+00
5.000000000000000000e+00,5.000000000000000000e+00,5.000000000000000000e+00,5.000000000000000000e+00,5.000000000000000000e+00,5.000000000000000000e+00,5.000000000000000000e+00,5.000000000000000000e+00,5.000000000000000000e+00,5.000000000000000000e+00,5.000000000000000000e+00,5.000000000000000000e+00,5.000000000000000000e+00,5.000000000000000000e+00,5.000000000000000000e+00,5.000000000000000000e+00,5.000000000000000000e+00,5.000000000000000000e+00,5.000000000000000000e+00,5.000000000000000000e+00,5.000000000000000000e+00,5.000000000000000000e+00,5.000000000000000000e+00,5.000000000000000000e+00,5.000000000000000000e+00,5.000000000000000000e+00,5.000000000000000000e+00,5.000000000000000000e+00,5.000000000000000000e+00,5.000000000000000000e+00,5.000000000000000000e+00,5.000000000000000000e+00,5.000000000000000000e+00,5.000000000000000000e+00,5.000000000000000000e+00,5.000000000000000000e+00,5.000000000000000000e+00,5.000000000000000000e+00,5.000000000000000000e+00,4.863861560821533203e+00,4.672759056091308594e+00,4.496106147766113281e+00,4.332323074340820312e+00,4.180052757263183594e+00,4.038123130798339844e+00,3.905515193939208984e+00,3.781339645385742188e+00,3.664817094802856445e+00,3.555261373519897461e+00,3.452065467834472656e+00,3.354691505432128906e+00,3.262659788131713867e+00,3.175543069839477539e+00,1.421737670898437500e+00,1.400838136672973633e+00,1.381548047065734863e+00,1.153340339660644531e+00,1.123084187507629395e+00,1.102781772613525391e+00,1.091384768486022949e+00,1.084696054458618164e+00,1.075805664062500000e+00,1.096696972846984863e+00,2.454596996307373047e+00,2.404960632324218750e+00,2.357292175292968750e+00,2.311476230621337891e+00,2.267407417297363281e+00,2.224987506866455078e+00,2.184125900268554688e+00,2.144737958908081055e+00,2.106745481491088867e+00,2.070075273513793945e+00,2.034660339355468750e+00,2.000436544418334961e+00,1.967344880104064941e+00,1.935330390930175781e+00,1.904341101646423340e+00,1.874328494071960449e+00,1.845247268676757812e+00
5.000000000000000000e+00,5.000000000000000000e+00,5.000000000000000000e+00,5.000000000000000000e+00,5.000000000000000000e+00,5.000000000000000000e+00,5.000000000000000000e+00,5.000000000000000000e+00,5.000000000000000000e+00,5.000000000000000000e+00,5.000000000000000000e+00,5.000000000000000000e+00,5.000000000000000000e+00,5.000000000000000000e+00,5.000000000000000000e+00,5.000000000000000000e+00,5.000000000000000000e+00,5.000000000000000000e+00,5.000000000000000000e+00,5.000000000000000000e+00,5.000000000000000000e+00,5.000000000000000000e+00,5.000000000000000000e+00,5.000000000000000000e+00,5.000000000000000000e+00,5.000000000000000000e+00,5.000000000000000000e+00,5.000000000000000000e+00,5.000000000000000000e+00,5.000000000000000000e+00,5.000000000000000000e+00,5.000000000000000000e+00,5.000000000000000000e+00,5.000000000000000000e+00,5.000000000000000000e+00,5.000000000000000000e+00,5.000000000000000000e+00,5.000000000000000000e+00,5.000000000000000000e+00,4.864001750946044922e+00,4.672888278961181641e+00,4.496225833892822266e+00,4.332433700561523438e+00,4.180156230926513672e+00,4.038219451904296875e+00,3.905605554580688477e+00,3.781424045562744141e+00,3.664896488189697266e+00,3.555335998535156250e+00,3.452135801315307617e+00,3.354757785797119141e+00,3.262722730636596680e+00,3.175602912902832031e+00,1.424039125442504883e+00,1.404612779617309570e+00,1.385419130325317383e+00,1.149325489997863770e+00,1.121215224266052246e+00,1.103808760643005371e+00,1.094493389129638672e+00,1.089781880378723145e+00,1.083178877830505371e+00,1.113849639892578125e+00,2.454632520675659180e+00,2.404994726181030273e+00,2.357324838638305664e+00,2.311507701873779297e+00,2.267437934875488281e+00,2.225016832351684570e+00,2.184154272079467773e+00,2.144764900207519531e+00,2.106771469116210938e+00,2.070100545883178711e+00,2.034684658050537109e+00,2.000460147857666016e+00,1.967367768287658691e+00,1.935352444648742676e+00,1.904362440109252930e+00,1.874349236488342285e+00,1.845267415046691895e+00
5.000000000000000000e+00,5.000000000000000000e+00,5.000000000000000000e+00,5.000000000000000000e+00,5.000000000000000000e+00,5.000000000000000000e+00,5.000000000000000000e+00,5.000000000000000000e+00,5.000000000000000000e+00,5.000000000000000000e+00,5.000000000000000000e+00,5.000000000000000000e+00,5.000000000000000000e+00,5.000000000000000000e+00,5.000000000000000000e+00,5.000000000000000000e+00,5.000000000000000000e+00,5.000000000000000000e+00,5.000000000000000000e+00,5.000000000000000000e+00,5.000000000000000000e+00,5.000000000000000000e+00,5.000000000000000000e+00,5.000000000000000000e+00,5.000000000000000000e+00,5.000000000000000000e+00,5.000000000000000000e+00,5.000000000000000000e+00,5.000000000000000000e+00,5.000000000000000000e+00,5.000000000000000000e+00,5.000000000000000000e+00,5.000000000000000000e+00,5.000000000000000000e+00,5.000000000000000000e+00,5.000000000000000000e+00,5.000000000000000000e+00,5.000000000000000000e+00,5.000000000000000000e+00,4.864141464233398438e+00,4.673017501831054688e+00,4.496345043182373047e+00,4.332544803619384766e+00,4.180259227752685547e+00,4.038315773010253906e+00,3.905695676803588867e+00,3.781508922576904297e+00,3.664976119995117188e+00,3.555410385131835938e+00,3.452206134796142578e+00,3.354824304580688477e+00,3.262785673141479492e+00,1.503472328186035156e+00,1.430201411247253418e+00,1.408628225326538086e+00,1.389751791954040527e+00,1.145338416099548340e+00,1.120009303092956543e+00,1.105754017829895020e+00,1.097619652748107910e+00,1.094303488731384277e+00,1.090653777122497559e+00,2.506399869918823242e+00,2.454668283462524414e+00,2.405028820037841797e+00,2.357357740402221680e+00,2.311539411544799805e+00,2.267468214035034180e+00,2.225046157836914062e+00,2.184182405471801758e+00,2.144792318344116211e+00,2.106797933578491211e+00,2.070125818252563477e+00,2.034709215164184570e+00,2.000483751296997070e+00,1.967390537261962891e+00,1.935374498367309570e+00,1.904383897781372070e+00,1.874369978904724121e+00,1.845287561416625977e+00
5.000000000000000000e+00,5.000000000000000000e+00,5.000000000000000000e+00,5.000000000000000000e+00,5.000000000000000000e+00,5.000000000000000000e+00,5.000000000000000000e+00,5.000000000000000000e+00,5.000000000000000000e+00,5.000000000000000000e+00,5.000000000000000000e+00,5.000000000000000000e+00,5.000000000000000000e+00,5.000000000000000000e+00,5.000000000000000000e+00,5.000000000000000000e+00,5.000000000000000000e+00,5.000000000000000000e+00,5.000000000000000000e+00,5.000000000000000000e+00,5.000000000000000000e+00,5.000000000000000000e+00,5.000000000000000000e+00,5.000000000000000000e+00,5.000000000000000000e+00,5.000000000000000000e+00,5.000000000000000000e+00,5.000000000000000000e+00,5.000000000000000000e+00,5.000000000000000000e+00,5.000000000000000000e+00,5.000000000000000000e+00,5.000000000000000000e+00,5.000000000000000000e+00,5.000000000000000000e+00,5.000000000000000000e+00,5.000000000000000000e+00,5.000000000000000000e+00,5.000000000000000000e+00,4.864281177520751953e+00,4.673146247863769531e+00,4.496464729309082031e+00,4.332655906677246094e+00,4.180362701416015625e+00,4.038412094116210938e+00,3.905785560607910156e+00,3.781593322753906250e+00,3.665055274963378906e+00,3.555485486984252930e+00,3.452276706695556641e+00,3.354891061782836914e+00,3.262848377227783203e+00,1.468145966529846191e+00,1.441049933433532715e+00,1.417059302330017090e+00,1.398318767547607422e+00,1.141378998756408691e+00,1.121053099632263184e+00,1.107706308364868164e+00,1.100763916969299316e+00,1.097428679466247559e+00,1.098232388496398926e+00,2.506436824798583984e+00,2.454703807830810547e+00,2.405063152313232422e+00,2.357390642166137695e+00,2.311571121215820312e+00,2.267498493194580078e+00,2.225075244903564453e+00,2.184210538864135742e+00,2.144819498062133789e+00,2.106824159622192383e+00,2.070151329040527344e+00,2.034733772277832031e+00,2.000507354736328125e+00,1.967413425445556641e+00,1.935396671295166016e+00,1.904405236244201660e+00,1.874390721321105957e+00,1.845307588577270508e+00
5.000000000000000000e+00,5.000000000000000000e+00,5.000000000000000000e+00,5.000000000000000000e+00,5.000000000000000000e+00,5.000000000000000000e+00,5.000000000000000000e+00,5.000000000000000000e+00,5.000000000000000000e+00,5.000000000000000000e+00,5.000000000000000000e+00,5.000000000000000000e+00,5.000000000000000000e+00,5.000000000000000000e+00,5.000000000000000000e+00,5.000000000000000000e+00,5.000000000000000000e+00,5.000000000000000000e+00,5.000000000000000000e+00,5.000000000000000000e+00,5.000000000000000000e+00,5.000000000000000000e+00,5.000000000000000000e+00,5.000000000000000000e+00,5.000000000000000000e+00,5.000000000000000000e+00,5.000000000000000000e+00,5.000000000000000000e+00,5.000000000000000000e+00,5.000000000000000000e+00,5.000000000000000000e+00,5.000000000000000000e+00,5.000000000000000000e+00,5.000000000000000000e+00,5.000000000000000000e+00,5.000000000000000000e+00,5.000000000000000000e+00,5.000000000000000000e+00,5.000000000000000000e+00,4.864421367645263672e+00,4.673275470733642578e+00,4.496584415435791016e+00,4.332766532897949219e+00,4.180466175079345703e+00,4.038508415222167969e+00,3.905876159667968750e+00,3.781677722930908203e+00,3.665134668350219727e+00,3.555560111999511719e+00,3.452347040176391602e+00,3.354957342147827148e+00,1.520984292030334473e+00,1.483065843582153320e+00,1.455421566963195801e+00,1.427943468093872070e+00,1.421864032745361328e+00,1.137783646583557129e+00,1.123059868812561035e+00,1.109665393829345703e+00,1.103926181793212891e+00,1.100251793861389160e+00,1.115805268287658691e+00,2.506474018096923828e+00,2.454739332199096680e+00,2.405097246170043945e+00,2.357423305511474609e+00,2.311602592468261719e+00,2.267529010772705078e+00,2.225104808807373047e+00,2.184238672256469727e+00,2.144846677780151367e+00,2.106850385665893555e+00,2.070176601409912109e+00,2.034758090972900391e+00,2.000530958175659180e+00,1.967436552047729492e+00,1.935418963432312012e+00,1.904426932334899902e+00,1.874411463737487793e+00,1.845327734947204590e+00
5.000000000000000000e+00,5.000000000000000000e+00,5.000000000000000000e+00,5.000000000000000000e+00,5.000000000000000000e+00,5.000000000000000000e+00,5.000000000000000000e+00,5.000000000000000000e+00,5.000000000000000000e+00,5.000000000000000000e+00,5.000000000000000000e+00,5.000000000000000000e+00,5.000000000000000000e+00,5.000000000000000000e+00,5.000000000000000000e+00,5.000000000000000000e+00,5.000000000000000000e+00,5.000000000000000000e+00,5.000000000000000000e+00,5.000000000000000000e+00,5.000000000000000000e+00,5.000000000000000000e+00,5.000000000000000000e+00,5.000000000000000000e+00,5.000000000000000000e+00,5.000000000000000000e+00,5.000000000000000000e+00,5.000000000000000000e+00,5.000000000000000000e+00,5.000000000000000000e+00,5.000000000000000000e+00,5.000000000000000000e+00,5.000000000000000000e+00,5.000000000000000000e+00,5.000000000000000000e+00,5.000000000000000000e+00,5.000000000000000000e+00,5.000000000000000000e+00,5.000000000000000000e+00,4.864561080932617188e+00,4.673404693603515625e+00,4.496703624725341797e+00,4.332877635955810547e+00,4.180569171905517578e+00,4.038605213165283203e+00,3.905966043472290039e+00,3.781762361526489258e+00,3.665214300155639648e+00,3.555634975433349609e+00,3.452417373657226562e+00,1.592722415924072266e+00,1.525226831436157227e+00,1.493569016456604004e+00,1.468334913253784180e+00,1.454136967658996582e+00,1.188442587852478027e+00,1.138729929924011230e+00,1.124830484390258789e+00,1.111266255378723145e+00,1.103057026863098145e+00,1.099185705184936523e+00,1.108827471733093262e+00,2.506511211395263672e+00,2.454775094985961914e+00,2.405131578445434570e+00,2.357456207275390625e+00,2.311634063720703125e+00,2.267559289932250977e+00,2.225133895874023438e+00,2.184266805648803711e+00,2.144873857498168945e+00,2.106876611709594727e+00,2.070202112197875977e+00,2.034782409667968750e+00,2.000554561614990234e+00,1.967459321022033691e+00,1.935441017150878906e+00,1.904448270797729492e+00,1.874432325363159180e+00,1.845348000526428223e+00
5.000000000000000000e+00,5.000000000000000000e+00,5.000000000000000000e+00,5.000000000000000000e+00,5.000000000000000000e+00,5.000000000000000000e+00,5.000000000000000000e+00,5.000000000000000000e+00,5.000000000000000000e+00,5.000000000000000000e+00,5.000000000000000000e+00,5.000000000000000000e+00,5.000000000000000000e+00,5.000000000000000000e+00,5.000000000000000000e+00,5.000000000000000000e+00,5.000000000000000000e+00,5.000000000000000000e+00,5.000000000000000000e+00,5.000000000000000000e+00,5.000000000000000000e+00,5.000000000000000000e+00,5.000000000000000000e+00,5.000000000000000000e+00,5.000000000000000000e+00,5.000000000000000000e+00,5.000000000000000000e+00,5.000000000000000000e+00,5.000000000000000000e+00,5.000000000000000000e+00,5.000000000000000000e+00,5.000000000000000000e+00,5.000000000000000000e+00,5.000000000000000000e+00,5.000000000000000000e+00,5.000000000000000000e+00,5.000000000000000000e+00,5.000000000000000000e+00,5.000000000000000000e+00,4.864700794219970703e+00,4.673533916473388672e+00,4.496823310852050781e+00,4.332988739013671875e+00,4.180672645568847656e+00,4.038701534271240234e+00,3.906056165695190430e+00,3.781846761703491211e+00,3.665293455123901367e+00,3.555709600448608398e+00,3.452488183975219727e+00,1.563079714775085449e+00,1.529855608940124512e+00,1.509107232093811035e+00,1.496045589447021484e+00,1.482055902481079102e+00,2.940342664718627930e+00,1.140315890312194824e+00,1.126377940177917480e+00,1.112824678421020508e+00,1.102249383926391602e+00,1.098121523857116699e+00,1.101936459541320801e+00,2.506548166275024414e+00,2.454810619354248047e+00,2.405165910720825195e+00,2.357489109039306641e+00,2.311665773391723633e+00,2.267589807510375977e+00,2.225163221359252930e+00,2.184294939041137695e+00,2.144901037216186523e+00,2.106902837753295898e+00,2.070227384567260742e+00,2.034806966781616211e+00,2.000578403472900391e+00,1.967482209205627441e+00,1.935463190078735352e+00,1.904469728469848633e+00,1.874453067779541016e+00,1.845368146896362305e+00
5.000000000000000000e+00,5.000000000000000000e+00,5.000000000000000000e+00,5.000000000000000000e+00,5.000000000000000000e+00,5.000000000000000000e+00,5.000000000000000000e+00,5.000000000000000000e+00,5.000000000000000000e+00,5.000000000000000000e+00,5.000000000000000000e+00,5.000000000000000000e+00,5.000000000000000000e+00,5.000000000000000000e+00,5.000000000000000000e+00,5.000000000000000000e+00,5.000000000000000000e+00,5.000000000000000000e+00,5.000000000000000000e+00,5.000000000000000000e+00,5.000000000000000000e+00,5.000000000000000000e+00,5.000000000000000000e+00,5.000000000000000000e+00,5.000000000000000000e+00,5.000000000000000000e+00,5.000000000000000000e+00,5.000000000000000000e+00,5.000000000000000000e+00,5.000000000000000000e+00,5.000000000000000000e+00,5.000000000000000000e+00,5.000000000000000000e+00,5.000000000000000000e+00,5.000000000000000000e+00,5.000000000000000000e+00,5.000000000000000000e+00,5.000000000000000000e+00,5.000000000000000000e+00,4.864839553833007812e+00,4.673663139343261719e+00,4.496942520141601562e+00,4.333099365234375000e+00,4.180775642395019531e+00,4.038797855377197266e+00,3.906146526336669922e+00,3.781931161880493164e+00,3.665372848510742188e+00,3.555784225463867188e+00,3.452558517456054688e+00,1.563772320747375488e+00,1.534062147140502930e+00,1.523330569267272949e+00,1.515753626823425293e+00,1.537231802940368652e+00,2.940393686294555664e+00,1.145414829254150391e+00,1.127929568290710449e+00,1.114416480064392090e+00,1.102527976036071777e+00,1.097059607505798340e+00,1.095130562782287598e+00,2.506585359573364258e+00,2.454846382141113281e+00,2.405200004577636719e+00,2.357522010803222656e+00,2.311697244644165039e+00,2.267620086669921875e+00,2.225192546844482422e+00,2.184323310852050781e+00,2.144928216934204102e+00,2.106929063796997070e+00,2.070252656936645508e+00,2.034831523895263672e+00,2.000602006912231445e+00,1.967504978179931641e+00,1.935485243797302246e+00,1.904491066932678223e+00,1.874473810195922852e+00,1.845388174057006836e+00
5.000000000000000000e+00,5.000000000000000000e+00,5.000000000000000000e+00,5.000000000000000000e+00,5.000000000000000000e+00,5.000000000000000000e+00,5.000000000000000000e+00,5.000000000000000000e+00,5.000000000000000000e+00,5.000000000000000000e+00,5.000000000000000000e+00,5.000000000000000000e+00,5.000000000000000000e+00,5.000000000000000000e+00,5.000000000000000000e+00,5.000000000000000000e+00,5.000000000000000000e+00,5.000000000000000000e+00,5.000000000000000000e+00,5.000000000000000000e+00,5.000000000000000000e+00,5.000000000000000000e+00,5.000000000000000000e+00,5.000000000000000000e+00,5.000000000000000000e+00,5.000000000000000000e+00,5.000000000000000000e+00,5.000000000000000000e+00,5.000000000000000000e+00,5.000000000000000000e+00,5.000000000000000000e+00,5.000000000000000000e+00,5.000000000000000000e+00,5.000000000000000000e+00,5.000000000000000000e+00,5.000000000000000000e+00,5.000000000000000000e+00,5.000000000000000000e+00,5.000000000000000000e+00,4.864977836608886719e+00,4.673790931701660156e+00,4.497062206268310547e+00,4.333210468292236328e+00,4.180879116058349609e+00,4.038894176483154297e+00,3.906236648559570312e+00,3.782016038894653320e+00,3.665452480316162109e+00,3.555859327316284180e+00,1.630390882492065430e+00,1.567939996719360352e+00,1.543953776359558105e+00,1.537824511528015137e+00,1.530102968215942383e+00,3.014988660812377930e+00,2.940444946289062500e+00,1.154204368591308594e+00,1.129485607147216797e+00,1.116012930870056152e+00,1.103077411651611328e+00,1.096080183982849121e+00,1.092177629470825195e+00,2.506622552871704102e+00,2.454881906509399414e+00,2.405234336853027344e+00,2.357554674148559570e+00,2.311728954315185547e+00,2.267650604248046875e+00,2.225221633911132812e+00,2.184351444244384766e+00,2.144955396652221680e+00,2.106955289840698242e+00,2.070277929306030273e+00,2.034855842590332031e+00,2.000625610351562500e+00,1.967527866363525391e+00,1.935507416725158691e+00,1.904512524604797363e+00,1.874494552612304688e+00,1.845408320426940918e+00
5.000000000000000000e+00,5.000000000000000000e+00,5.000000000000000000e+00,5.000000000000000000e+00,5.000000000000000000e+00,5.000000000000000000e+00,5.000000000000000000e+00,5.000000000000000000e+00,5.000000000000000000e+00,5.000000000000000000e+00,5.000000000000000000e+00,5.000000000000000000e+00,5.000000000000000000e+00,5.000000000000000000e+00,5.000000000000000000e+00,5.000000000000000000e+00,5.000000000000000000e+00,5.000000000000000000e+00,5.000000000000000000e+00,5.000000000000000000e+00,5.000000000000000000e+00,5.000000000000000000e+00,5.000000000000000000e+00,5.000000000000000000e+00,5.000000000000000000e+00,5.000000000000000000e+00,5.000000000000000000e+00,5.000000000000000000e+00,5.000000000000000000e+00,5.000000000000000000e+00,5.000000000000000000e+00,5.000000000000000000e+00,5.000000000000000000e+00,5.000000000000000000e+00,5.000000000000000000e+00,5.000000000000000000e+00,5.000000000000000000e+00,5.000000000000000000e+00,5.000000000000000000e+00,4.865117073059082031e+00,4.673919200897216797e+00,4.497181892395019531e+00,4.333321571350097656e+00,4.180982589721679688e+00,4.038990497589111328e+00,3.906326770782470703e+00,3.782100439071655273e+00,3.665531873703002930e+00,3.555933952331542969e+00,1.603780627250671387e+00,1.573308348655700684e+00,1.558752417564392090e+00,1.552596688270568848e+00,3.093466520309448242e+00,3.015042304992675781e+00,2.940495967864990234e+00,1.161901712417602539e+00,1.131045818328857422e+00,1.117613792419433594e+00,1.104641437530517578e+00,1.096355676651000977e+00,1.091127157211303711e+00,1.134082078933715820e+00,2.454917669296264648e+00,2.405268430709838867e+00,2.357587814331054688e+00,2.311760425567626953e+00,2.267680883407592773e+00,2.225250959396362305e+00,2.184379577636718750e+00,2.144982576370239258e+00,2.106981515884399414e+00,2.070303440093994141e+00,2.034880399703979492e+00,2.000649452209472656e+00,1.967550754547119141e+00,1.935529470443725586e+00,1.904533863067626953e+00,1.874515295028686523e+00,1.845428347587585449e+00
5.000000000000000000e+00,5.000000000000000000e+00,5.000000000000000000e+00,5.000000000000000000e+00,5.000000000000000000e+00,5.000000000000000000e+00,5.000000000000000000e+00,5.000000000000000000e+00,5.000000000000000000e+00,5.000000000000000000e+00,5.000000000000000000e+00,5.000000000000000000e+00,5.000000000000000000e+00,5.000000000000000000e+00,5.000000000000000000e+00,5.000000000000000000e+00,5.000000000000000000e+00,5.000000000000000000e+00,5.000000000000000000e+00,5.000000000000000000e+00,5.000000000000000000e+00,5.000000000000000000e+00,5.000000000000000000e+00,5.000000000000000000e+00,5.000000000000000000e+00,5.000000000000000000e+00,5.000000000000000000e+00,5.000000000000000000e+00,5.000000000000000000e+00,5.000000000000000000e+00,5.000000000000000000e+00,5.000000000000000000e+00,5.000000000000000000e+00,5.000000000000000000e+00,5.000000000000000000e+00,5.000000000000000000e+00,5.000000000000000000e+00,5.000000000000000000e+00,5.000000000000000000e+00,4.865255355834960938e+00,4.674046993255615234e+00,4.497299671173095703e+00,4.333432674407958984e+00,4.181085586547851562e+00,4.039087295532226562e+00,3.906417131423950195e+00,3.782184839248657227e+00,3.665611028671264648e+00,3.556008577346801758e+00,1.611832499504089355e+00,1.580125927925109863e+00,1.573837161064147949e+00,1.567655801773071289e+00,3.093523263931274414e+00,3.015095710754394531e+00,2.940546989440917969e+00,1.167091488838195801e+00,1.132610440254211426e+00,1.119219422340393066e+00,1.106209874153137207e+00,1.096631288528442383e+00,1.090078592300415039e+00,1.126632094383239746e+00,2.454953193664550781e+00,2.405302524566650391e+00,2.357620477676391602e+00,2.311792135238647461e+00,2.267711400985717773e+00,2.225280284881591797e+00,2.184407949447631836e+00,2.145009756088256836e+00,2.107007741928100586e+00,2.070328712463378906e+00,2.034904956817626953e+00,2.000673055648803711e+00,1.967573761940002441e+00,1.935551881790161133e+00,1.904555559158325195e+00,1.874536037445068359e+00,1.845448493957519531e+00
5.000000000000000000e+00,5.000000000000000000e+00,5.000000000000000000e+00,5.000000000000000000e+00,5.000000000000000000e+00,5.000000000000000000e+00,5.000000000000000000e+00,5.000000000000000000e+00,5.000000000000000000e+00,5.000000000000000000e+00,5.000000000000000000e+00,5.000000000000000000e+00,5.000000000000000000e+00,5.000000000000000000e+00,5.000000000000000000e+00,5.000000000000000000e+00,5.000000000000000000e+00,5.000000000000000000e+00,5.000000000000000000e+00,5.000000000000000000e+00,5.000000000000000000e+00,5.000000000000000000e+00,5.000000000000000000e+00,5.000000000000000000e+00,5.000000000000000000e+00,5.000000000000000000e+00,5.000000000000000000e+00,5.000000000000000000e+00,5.000000000000000000e+00,5.000000000000000000e+00,5.000000000000000000e+00,5.000000000000000000e+00,5.000000000000000000e+00,5.000000000000000000e+00,5.000000000000000000e+00,5.000000000000000000e+00,5.000000000000000000e+00,5.000000000000000000e+00,5.000000000000000000e+00,4.865394592285156250e+00,4.674175262451171875e+00,4.497418403625488281e+00,4.333542346954345703e+00,4.181189060211181641e+00,4.039183616638183594e+00,3.906507253646850586e+00,3.782269716262817383e+00,3.665690660476684570e+00,1.677463293075561523e+00,1.619965791702270508e+00,1.596610426902770996e+00,1.589876532554626465e+00,3.176198959350585938e+00,3.093579769134521484e+00,3.015149831771850586e+00,2.940598249435424805e+00,1.172327637672424316e+00,1.134187340736389160e+00,1.120829582214355469e+00,1.107782721519470215e+00,1.097264170646667480e+00,1.090867996215820312e+00,1.120647788047790527e+00,2.454988956451416016e+00,2.405336856842041016e+00,2.357653379440307617e+00,2.311823606491088867e+00,2.267741680145263672e+00,2.225309610366821289e+00,2.184436082839965820e+00,2.145036935806274414e+00,2.107033967971801758e+00,2.070353984832763672e+00,2.034929275512695312e+00,2.000696659088134766e+00,1.967596650123596191e+00,1.935573935508728027e+00,1.904576897621154785e+00,1.874557018280029297e+00,1.845468759536743164e+00
5.000000000000000000e+00,5.000000000000000000e+00,5.000000000000000000e+00,5.000000000000000000e+00,5.000000000000000000e+00,5.000000000000000000e+00,5.000000000000000000e+00,5.000000000000000000e+00,5.000000000000000000e+00,5.000000000000000000e+00,5.000000000000000000e+00,5.000000000000000000e+00,5.000000000000000000e+00,5.000000000000000000e+00,5.000000000000000000e+00,5.000000000000000000e+00,5.000000000000000000e+00,5.000000000000000000e+00,5.000000000000000000e+00,5.000000000000000000e+00,5.000000000000000000e+00,5.000000000000000000e+00,5.000000000000000000e+00,5.000000000000000000e+00,5.000000000000000000e+00,5.000000000000000000e+00,5.000000000000000000e+00,5.000000000000000000e+00,5.000000000000000000e+00,5.000000000000000000e+00,5.000000000000000000e+00,5.000000000000000000e+00,5.000000000000000000e+00,5.000000000000000000e+00,5.000000000000000000e+00,5.000000000000000000e+00,5.000000000000000000e+00,5.000000000000000000e+00,5.000000000000000000e+00,4.865533351898193359e+00,4.674303054809570312e+00,4.497536659240722656e+00,4.333652496337890625e+00,4.181291580200195312e+00,4.039279937744140625e+00,3.906597375869750977e+00,3.782354116439819336e+00,3.665770053863525391e+00,1.662905454635620117e+00,1.627739787101745605e+00,1.613442420959472656e+00,1.606566071510314941e+00,3.176258325576782227e+00,3.093636274337768555e+00,3.015203475952148438e+00,2.940649271011352539e+00,1.179457902908325195e+00,1.135998368263244629e+00,1.122779607772827148e+00,1.109864950180053711e+00,1.099524497985839844e+00,1.093858122825622559e+00,1.115467548370361328e+00,2.455024480819702148e+00,2.405370950698852539e+00,2.357686281204223633e+00,2.311855316162109375e+00,2.267772197723388672e+00,2.225338697433471680e+00,2.184464216232299805e+00,2.145064115524291992e+00,2.107060194015502930e+00,2.070379257202148438e+00,2.034953832626342773e+00,2.000720262527465820e+00,1.967619419097900391e+00,1.935595989227294922e+00,1.904598355293273926e+00,1.874577760696411133e+00,1.845488905906677246e+00
4.875249385833740234e+00,4.874038219451904297e+00,4.872827053070068359e+00,4.871617317199707031e+00,4.870408058166503906e+00,4.869199275970458984e+00,4.867990970611572266e+00,4.866783142089843750e+00,4.865576267242431641e+00,4.864369869232177734e+00,4.863163948059082031e+00,4.861958980560302734e+00,4.860754013061523438e+00,4.859550476074218750e+00,4.858346939086914062e+00,4.857143878936767578e+00,4.855941772460937500e+00,4.854740142822265625e+00,4.853538990020751953e+00,4.852338790893554688e+00,4.851139068603515625e+00,4.849939346313476562e+00,4.848741054534912109e+00,4.847542762756347656e+00,4.846345424652099609e+00,4.845148563385009766e+00,4.843952178955078125e+00,4.842756271362304688e+00,4.841561794281005859e+00,4.840366840362548828e+00,4.839172840118408203e+00,4.837979793548583984e+00,4.836786746978759766e+00,4.835594654083251953e+00,4.834403038024902344e+00,4.833211898803710938e+00,4.832021713256835938e+00,4.830832004547119141e+00,4.829642772674560547e+00,4.828454017639160156e+00,4.674431800842285156e+00,4.497655391693115234e+00,4.333762645721435547e+00,4.181394100189208984e+00,4.039376258850097656e+00,3.906687736511230469e+00,3.782438516616821289e+00,3.665849447250366211e+00,1.671218752861022949e+00,1.640376210212707520e+00,1.630633115768432617e+00,3.263478040695190430e+00,3.176318168640136719e+00,3.093693017959594727e+00,3.015257120132446289e+00,2.940700292587280273e+00,2.869741678237915039e+00,1.140198349952697754e+00,1.124982595443725586e+00,1.112017512321472168e+00,1.099625825881958008e+00,1.096864581108093262e+00,1.110335111618041992e+00,2.455060005187988281e+00,2.405405044555664062e+00,2.357719182968139648e+00,2.311886787414550781e+00,2.267802476882934570e+00,2.225368022918701172e+00,2.184492588043212891e+00,2.145091295242309570e+00,2.107086420059204102e+00,2.070404529571533203e+00,2.034978389739990234e+00,2.000743865966796875e+00,1.967642307281494141e+00,1.935618162155151367e+00,1.904619693756103516e+00,1.874598503112792969e+00,1.845508933067321777e+00
3.778035402297973633e+00,3.777307987213134766e+00,3.776580572128295898e+00,3.775853872299194336e+00,3.775127410888671875e+00,3.774400949478149414e+00,3.773674964904785156e+00,3.772949457168579102e+00,3.772223711013793945e+00,3.771498680114746094e+00,3.770773887634277344e+00,3.770049095153808594e+00,3.769324779510498047e+00,3.768600940704345703e+00,3.767876863479614258e+00,3.767153501510620117e+00,3.766429901123046875e+00,3.765707254409790039e+00,3.764984607696533203e+00,3.764262437820434570e+00,3.763540029525756836e+00,3.762818336486816406e+00,3.762096405029296875e+00,3.761375188827514648e+00,3.760654449462890625e+00,3.759933471679687500e+00,3.759213209152221680e+00,3.758493185043334961e+00,3.757772922515869141e+00,3.757053375244140625e+00,3.756334304809570312e+00,3.755614757537841797e+00,3.754896163940429688e+00,3.754177808761596680e+00,3.753459215164184570e+00,3.752741336822509766e+00,3.752023935317993164e+00,3.751306056976318359e+00,3.750589132308959961e+00,3.749872446060180664e+00,3.749155521392822266e+00,3.748439311981201172e+00,3.747723340988159180e+00,3.747007369995117188e+00,3.746291875839233398e+00,3.745576858520507812e+00,3.744861602783203125e+00,1.745644688606262207e+00,1.690027832984924316e+00,1.656808853149414062e+00,3.355622768402099609e+00,3.263540983200073242e+00,3.176377773284912109e+00,3.093749523162841797e+00,3.015311002731323242e+00,2.940751791000366211e+00,2.869790554046630859e+00,1.148433566093444824e+00,1.127194166183471680e+00,1.114189624786376953e+00,1.101816534996032715e+00,1.099887728691101074e+00,1.105249643325805664e+00,2.455095767974853516e+00,2.405439376831054688e+00,2.357751846313476562e+00,2.311918497085571289e+00,2.267832994461059570e+00,2.225397348403930664e+00,2.184520721435546875e+00,2.145118713378906250e+00,2.107112646102905273e+00,2.070430040359497070e+00,2.035002708435058594e+00,2.000767469406127930e+00,1.967665195465087891e+00,1.935640215873718262e+00,1.904641151428222656e+00,1.874619245529174805e+00,1.845529079437255859e+00
3.083964347839355469e+00,3.083479642868041992e+00,3.082995176315307617e+00,3.082510709762573242e+00,3.082026481628417969e+00,3.081542491912841797e+00,3.081058263778686523e+00,3.080574750900268555e+00,3.080091238021850586e+00,3.079607486724853516e+00,3.079124212265014648e+00,3.078641176223754883e+00,3.078157901763916016e+00,3.077675104141235352e+00,3.077192544937133789e+00,3.076709747314453125e+00,3.076227426528930664e+00,3.075745105743408203e+00,3.075262784957885742e+00,3.074780941009521484e+00,3.074299097061157227e+00,3.073817253112792969e+00,3.073335886001586914e+00,3.072854518890380859e+00,3.072373151779174805e+00,3.071892261505126953e+00,3.071411132812500000e+00,3.070930480957031250e+00,3.070449829101562500e+00,3.069969177246093750e+00,3.069489002227783203e+00,3.069008827209472656e+00,3.068528652191162109e+00,3.068048954010009766e+00,3.067569255828857422e+00,3.067089557647705078e+00,3.066610097885131836e+00,3.066131114959716797e+00,3.065651893615722656e+00,3.065172910690307617e+00,3.064694166183471680e+00,3.064215421676635742e+00,3.063736915588378906e+00,3.063258647918701172e+00,3.062780141830444336e+00,3.062302350997924805e+00,3.061824321746826172e+00,1.726671695709228516e+00,1.682036519050598145e+00,1.688143730163574219e+00,3.059914112091064453e+00,3.059437036514282227e+00,3.058959960937500000e+00,3.058482885360717773e+00,3.015364646911621094e+00,2.940802812576293945e+00,2.869839191436767578e+00,1.156788587570190430e+00,1.129414677619934082e+00,1.116438746452331543e+00,1.104015827178955078e+00,1.100858926773071289e+00,1.100210547447204590e+00,2.455131292343139648e+00,2.405473470687866211e+00,2.357784748077392578e+00,2.311950206756591797e+00,2.267863273620605469e+00,2.225426435470581055e+00,2.184548854827880859e+00,2.145145654678344727e+00,2.107138872146606445e+00,2.070455312728881836e+00,2.035027265548706055e+00,2.000791311264038086e+00,1.967687964439392090e+00,1.935662388801574707e+00,1.904662489891052246e+00,1.874639987945556641e+00,1.845549106597900391e+00
2.605333089828491211e+00,2.604987144470214844e+00,2.604641199111938477e+00,2.604295492172241211e+00,2.603949785232543945e+00,2.603604316711425781e+00,2.603258848190307617e+00,2.602913379669189453e+00,2.602568149566650391e+00,2.602222919464111328e+00,2.601877689361572266e+00,2.601532697677612305e+00,2.601187944412231445e+00,2.600842952728271484e+00,2.600498199462890625e+00,2.600153684616088867e+00,2.599808931350708008e+00,2.599464654922485352e+00,2.599120378494262695e+00,2.598775863647460938e+00,2.598431587219238281e+00,2.598087549209594727e+00,2.597743511199951172e+00,2.597399711608886719e+00,2.597055912017822266e+00,2.596711874008178711e+00,2.596368312835693359e+00,2.596024990081787109e+00,2.595681190490722656e+00,2.595337867736816406e+00,2.594994783401489258e+00,2.594651460647583008e+00,2.594308376312255859e+00,2.593965530395507812e+00,2.593622446060180664e+00,2.593279600143432617e+00,2.592936754226684570e+00,2.592594146728515625e+00,2.592251539230346680e+00,2.591908931732177734e+00,2.591566801071166992e+00,2.591224431991577148e+00,2.590882062911987305e+00,2.590540170669555664e+00,2.590198040008544922e+00,2.589856147766113281e+00,2.589514255523681641e+00,1.728924632072448730e+00,1.664719343185424805e+00,1.669480800628662109e+00,2.588147878646850586e+00,2.587806463241577148e+00,2.587465047836303711e+00,2.587124109268188477e+00,2.586782693862915039e+00,2.586441755294799805e+00,2.586100816726684570e+00,1.163138270378112793e+00,1.131643772125244141e+00,1.118696928024291992e+00,1.106224060058593750e+00,1.100222229957580566e+00,1.099486231803894043e+00,2.455166816711425781e+00,2.405507802963256836e+00,2.357817649841308594e+00,2.311981678009033203e+00,2.267893791198730469e+00,2.225455999374389648e+00,2.184577226638793945e+00,2.145172834396362305e+00,2.107165098190307617e+00,2.070480585098266602e+00,2.035051822662353516e+00,2.000814914703369141e+00,1.967711091041564941e+00,1.935684680938720703e+00,1.904684185981750488e+00,1.874660730361938477e+00,1.845569252967834473e+00
2.255333900451660156e+00,2.255073785781860352e+00,2.254813432693481445e+00,2.254553079605102539e+00,2.254292726516723633e+00,2.254032850265502930e+00,2.253772735595703125e+00,2.253512620925903320e+00,2.253252983093261719e+00,2.252992868423461914e+00,2.252732992172241211e+00,2.252473354339599609e+00,2.252213716506958008e+00,2.251954078674316406e+00,2.251694440841674805e+00,2.251435041427612305e+00,2.251175403594970703e+00,2.250916004180908203e+00,2.250656843185424805e+00,2.250397443771362305e+00,2.250138282775878906e+00,2.249879121780395508e+00,2.249619960784912109e+00,2.249361753463745117e+00,2.249104022979736328e+00,2.248846054077148438e+00,2.248588323593139648e+00,2.248330593109130859e+00,2.248073101043701172e+00,2.247815370559692383e+00,2.247557878494262695e+00,2.247300624847412109e+00,2.247043132781982422e+00,2.246785640716552734e+00,2.246528625488281250e+00,2.246271133422851562e+00,2.246014118194580078e+00,2.245757102966308594e+00,2.245499849319458008e+00,2.245242834091186523e+00,2.244985818862915039e+00,2.244729042053222656e+00,2.244472265243530273e+00,2.244215488433837891e+00,2.243958950042724609e+00,2.243702173233032227e+00,2.243445634841918945e+00,2.243189096450805664e+00,1.644633889198303223e+00,1.650503277778625488e+00,2.242419958114624023e+00,2.242163658142089844e+00,2.241907358169555664e+00,2.241651296615600586e+00,2.241395235061645508e+00,2.241139173507690430e+00,2.240883111953735352e+00,1.169281959533691406e+00,1.133881688117980957e+00,1.120964288711547852e+00,1.108441233634948730e+00,1.099586367607116699e+00,1.102523922920227051e+00,2.239092826843261719e+00,2.238837242126464844e+00,2.238581895828247070e+00,2.238326549530029297e+00,2.238070964813232422e+00,2.225485086441040039e+00,2.184605360031127930e+00,2.145200252532958984e+00,2.107191562652587891e+00,2.070506095886230469e+00,2.035076141357421875e+00,2.000838518142700195e+00,1.967733979225158691e+00,1.935706853866577148e+00,1.904705524444580078e+00,1.874681591987609863e+00,1.845589518547058105e+00
1.988284945487976074e+00,1.988082528114318848e+00,1.987880229949951172e+00,1.987677812576293945e+00,1.987475872039794922e+00,1.987273573875427246e+00,1.987071394920349121e+00,1.986869335174560547e+00,1.986667156219482422e+00,1.986465096473693848e+00,1.986263155937194824e+00,1.986061453819274902e+00,1.985859513282775879e+00,1.985657572746276855e+00,1.985455751419067383e+00,1.985253930091857910e+00,1.985052227973937988e+00,1.984850406646728516e+00,1.984648942947387695e+00,1.984447240829467773e+00,1.984245657920837402e+00,1.984044075012207031e+00,1.983842611312866211e+00,1.983641147613525391e+00,1.983439922332763672e+00,1.983238577842712402e+00,1.983037114143371582e+00,1.982835888862609863e+00,1.982634544372558594e+00,1.982433319091796875e+00,1.982232093811035156e+00,1.982031226158142090e+00,1.981830120086669922e+00,1.981629014015197754e+00,1.981428027153015137e+00,1.981226921081542969e+00,1.981026053428649902e+00,1.980825066566467285e+00,1.980624437332153320e+00,1.980423688888549805e+00,1.980222821235656738e+00,1.980022072792053223e+00,1.979821324348449707e+00,1.979620695114135742e+00,1.979420065879821777e+00,1.979219675064086914e+00,1.979019165039062500e+00,1.978818655014038086e+00,1.626016855239868164e+00,1.631986141204833984e+00,1.662441134452819824e+00,1.978017091751098633e+00,1.977816939353942871e+00,1.977616667747497559e+00,1.977416515350341797e+00,1.977216243743896484e+00,1.977016091346740723e+00,1.976816058158874512e+00,1.136128544807434082e+00,1.123240947723388672e+00,1.110667109489440918e+00,1.099539518356323242e+00,1.102196455001831055e+00,1.975616455078125000e+00,1.975416660308837891e+00,1.975217103958129883e+00,1.975017428398132324e+00,1.974817633628845215e+00,1.974618077278137207e+00,1.974418401718139648e+00,1.974218845367431641e+00,1.974019289016723633e+00,1.973819971084594727e+00,1.973620533943176270e+00,1.973421096801757812e+00,1.967756748199462891e+00,1.935728907585144043e+00,1.904726982116699219e+00,1.874702334403991699e+00,1.845609664916992188e+00
1.777781724929809570e+00,1.777619957923889160e+00,1.777458190917968750e+00,1.777296543121337891e+00,1.777134895324707031e+00,1.776973247528076172e+00,1.776811599731445312e+00,1.776649951934814453e+00,1.776488304138183594e+00,1.776326775550842285e+00,1.776165366172790527e+00,1.776003956794738770e+00,1.775842428207397461e+00,1.775681018829345703e+00,1.775519490242004395e+00,1.775358200073242188e+00,1.775196790695190430e+00,1.775035619735717773e+00,1.774874329566955566e+00,1.774713039398193359e+00,1.774551868438720703e+00,1.774390578269958496e+00,1.774229407310485840e+00,1.774068474769592285e+00,1.773907303810119629e+00,1.773746252059936523e+00,1.773585081100463867e+00,1.773424148559570312e+00,1.773263096809387207e+00,1.773102045059204102e+00,1.772941350936889648e+00,1.772780418395996094e+00,1.772619485855102539e+00,1.772458672523498535e+00,1.772297739982604980e+00,1.772136926651000977e+00,1.771976232528686523e+00,1.771815657615661621e+00,1.771654963493347168e+00,1.771494269371032715e+00,1.771333575248718262e+00,1.771172881126403809e+00,1.771012306213378906e+00,1.770851731300354004e+00,1.770691394805908203e+00,1.770530819892883301e+00,1.770370364189147949e+00,1.770209908485412598e+00,1.770049452781677246e+00,1.575489878654479980e+00,1.608235001564025879e+00,1.769568562507629395e+00,1.769408226013183594e+00,1.769247889518737793e+00,1.769087672233581543e+00,1.768927454948425293e+00,1.768767237663269043e+00,1.768607139587402344e+00,1.768447160720825195e+00,1.134275078773498535e+00,1.120806455612182617e+00,1.112570881843566895e+00,1.110850572586059570e+00,1.767646908760070801e+00,1.767486929893493652e+00,1.767327189445495605e+00,1.767167210578918457e+00,1.767007350921630859e+00,1.766847491264343262e+00,1.766687750816345215e+00,1.766527891159057617e+00,1.766368389129638672e+00,1.766208648681640625e+00,1.766048908233642578e+00,1.765889286994934082e+00,1.765729546546936035e+00,1.765569925308227539e+00,1.765410423278808594e+00,1.765251040458679199e+00,1.765091538429260254e+00
1.607583999633789062e+00,1.607451677322387695e+00,1.607319593429565430e+00,1.607187271118164062e+00,1.607055068016052246e+00,1.606922864913940430e+00,1.606790661811828613e+00,1.606658458709716797e+00,1.606526374816894531e+00,1.606394290924072266e+00,1.606262207031250000e+00,1.606130123138427734e+00,1.605998039245605469e+00,1.605866074562072754e+00,1.605733990669250488e+00,1.605602025985717773e+00,1.605470180511474609e+00,1.605338215827941895e+00,1.605206251144409180e+00,1.605074405670166016e+00,1.604942440986633301e+00,1.604810595512390137e+00,1.604678750038146973e+00,1.604547023773193359e+00,1.604415297508239746e+00,1.604283452033996582e+00,1.604151725769042969e+00,1.604019999504089355e+00,1.603888273239135742e+00,1.603756666183471680e+00,1.603625059127807617e+00,1.603493332862854004e+00,1.603361725807189941e+00,1.603230118751525879e+00,1.603098511695861816e+00,1.602966904640197754e+00,1.602835536003112793e+00,1.602704048156738281e+00,1.602572560310363770e+00,1.602441072463989258e+00,1.602309584617614746e+00,1.602178096771240234e+00,1.602046728134155273e+00,1.601915478706359863e+00,1.601784110069274902e+00,1.601652741432189941e+00,1.601521372795104980e+00,1.601390123367309570e+00,1.601258754730224609e+00,1.601127505302429199e+00,1.600996494293212891e+00,1.600865244865417480e+00,1.600733995437622070e+00,1.600602865219116211e+00,1.600471735000610352e+00,1.600340485572814941e+00,1.600209474563598633e+00,1.600078463554382324e+00,1.599947333335876465e+00,1.135453581809997559e+00,1.118322372436523438e+00,1.110350251197814941e+00,1.104129672050476074e+00,1.599292278289794922e+00,1.599161505699157715e+00,1.599030613899230957e+00,1.598899722099304199e+00,1.598768830299377441e+00,1.598637938499450684e+00,1.598507165908813477e+00,1.598376274108886719e+00,1.598245620727539062e+00,1.598114848136901855e+00,1.597984075546264648e+00,1.597853422164916992e+00,1.597722649574279785e+00,1.597591996192932129e+00,1.597461462020874023e+00,1.597330808639526367e+00,1.597200155258178711e+00
1.467127084732055664e+00,1.467017054557800293e+00,1.466906905174255371e+00,1.466796755790710449e+00,1.466686606407165527e+00,1.466576457023620605e+00,1.466466307640075684e+00,1.466356158256530762e+00,1.466246247291564941e+00,1.466136217117309570e+00,1.466026067733764648e+00,1.465916037559509277e+00,1.465806126594543457e+00,1.465696096420288086e+00,1.465586066246032715e+00,1.465476274490356445e+00,1.465366244316101074e+00,1.465256333351135254e+00,1.465146422386169434e+00,1.465036511421203613e+00,1.464926600456237793e+00,1.464816808700561523e+00,1.464707016944885254e+00,1.464597225189208984e+00,1.464487433433532715e+00,1.464377641677856445e+00,1.464267849922180176e+00,1.464158058166503906e+00,1.464048266410827637e+00,1.463938713073730469e+00,1.463828921318054199e+00,1.463719248771667480e+00,1.463609576225280762e+00,1.463499903678894043e+00,1.463390231132507324e+00,1.463280677795410156e+00,1.463171124458312988e+00,1.463061451911926270e+00,1.462951898574829102e+00,1.462842345237731934e+00,1.462732791900634766e+00,1.462623238563537598e+00,1.462513804435729980e+00,1.462404370307922363e+00,1.462294816970825195e+00,1.462185382843017578e+00,1.462075948715209961e+00,1.461966514587402344e+00,1.461857080459594727e+00,1.461747765541076660e+00,1.461638450622558594e+00,1.461529016494750977e+00,1.461419701576232910e+00,1.461310267448425293e+00,1.461200952529907227e+00,1.461091637611389160e+00,1.460982561111450195e+00,1.460873246192932129e+00,1.188085317611694336e+00,1.135904192924499512e+00,1.115063071250915527e+00,1.099422574043273926e+00,1.087986588478088379e+00,1.083400130271911621e+00,1.460108876228332520e+00,1.459999799728393555e+00,1.459890604019165039e+00,1.459781527519226074e+00,1.459672451019287109e+00,1.459563374519348145e+00,1.459454417228698730e+00,1.459345340728759766e+00,1.459236264228820801e+00,1.459127306938171387e+00,1.459018349647521973e+00,1.458909273147583008e+00,1.458800315856933594e+00,1.458691477775573730e+00,1.458582520484924316e+00,1.458473682403564453e+00
1.349241971969604492e+00,1.349148750305175781e+00,1.349055647850036621e+00,1.348962426185607910e+00,1.348869323730468750e+00,1.348776102066040039e+00,1.348682999610900879e+00,1.348590016365051270e+00,1.348496913909912109e+00,1.348403811454772949e+00,1.348310708999633789e+00,1.348217606544494629e+00,1.348124504089355469e+00,1.348031520843505859e+00,1.347938537597656250e+00,1.347845554351806641e+00,1.347752571105957031e+00,1.347659587860107422e+00,1.347566604614257812e+00,1.347473621368408203e+00,1.347380638122558594e+00,1.347287893295288086e+00,1.347194910049438477e+00,1.347102046012878418e+00,1.347009062767028809e+00,1.346916198730468750e+00,1.346823334693908691e+00,1.346730470657348633e+00,1.346637725830078125e+00,1.346544861793518066e+00,1.346451997756958008e+00,1.346359252929687500e+00,1.346266388893127441e+00,1.346173644065856934e+00,1.346080899238586426e+00,1.345988154411315918e+00,1.345895409584045410e+00,1.345802664756774902e+00,1.345709919929504395e+00,1.345617294311523438e+00,1.345524549484252930e+00,1.345431923866271973e+00,1.345339298248291016e+00,1.345246672630310059e+00,1.345154047012329102e+00,1.345061302185058594e+00,1.344968676567077637e+00,1.344876170158386230e+00,1.344783663749694824e+00,1.344691038131713867e+00,1.344598412513732910e+00,1.344505906105041504e+00,1.344413399696350098e+00,1.344320774078369141e+00,1.344228267669677734e+00,1.344135880470275879e+00,1.344043374061584473e+00,1.343950867652893066e+00,1.179587483406066895e+00,1.138254523277282715e+00,1.109431266784667969e+00,1.091246247291564941e+00,1.077271461486816406e+00,1.068088889122009277e+00,1.062740802764892578e+00,1.063746213912963867e+00,1.343119144439697266e+00,1.343026876449584961e+00,1.342934489250183105e+00,1.342842221260070801e+00,1.342749953269958496e+00,1.342657685279846191e+00,1.342565298080444336e+00,1.342473030090332031e+00,1.342380762100219727e+00,1.342288494110107422e+00,1.342196345329284668e+00,1.342104196548461914e+00,1.342011928558349609e+00,1.341919779777526855e+00
1.248892188072204590e+00,1.248812317848205566e+00,1.248732566833496094e+00,1.248652696609497070e+00,1.248572826385498047e+00,1.248493075370788574e+00,1.248413324356079102e+00,1.248333573341369629e+00,1.248253822326660156e+00,1.248173952102661133e+00,1.248094201087951660e+00,1.248014450073242188e+00,1.247934699058532715e+00,1.247855067253112793e+00,1.247775435447692871e+00,1.247695684432983398e+00,1.247615933418273926e+00,1.247536301612854004e+00,1.247456550598144531e+00,1.247376918792724609e+00,1.247297406196594238e+00,1.247217774391174316e+00,1.247138023376464844e+00,1.247058391571044922e+00,1.246978878974914551e+00,1.246899247169494629e+00,1.246819615364074707e+00,1.246740102767944336e+00,1.246660590171813965e+00,1.246580958366394043e+00,1.246501445770263672e+00,1.246421813964843750e+00,1.246342301368713379e+00,1.246262788772583008e+00,1.246183395385742188e+00,1.246103882789611816e+00,1.246024370193481445e+00,1.245944857597351074e+00,1.245865345001220703e+00,1.245785951614379883e+00,1.245706439018249512e+00,1.245627164840698242e+00,1.245547652244567871e+00,1.245468258857727051e+00,1.245388865470886230e+00,1.245309472084045410e+00,1.245230078697204590e+00,1.245150685310363770e+00,1.245071411132812500e+00,1.244992017745971680e+00,1.244912624359130859e+00,1.244833350181579590e+00,1.244753956794738770e+00,1.244674682617187500e+00,1.244595408439636230e+00,1.244516134262084961e+00,1.244436860084533691e+00,1.244357585906982422e+00,1.244278311729431152e+00,1.138743400573730469e+00,1.104588031768798828e+00,1.079500198364257812e+00,1.064370155334472656e+00,1.054018020629882812e+00,1.046152234077453613e+00,1.040951848030090332e+00,1.041128873825073242e+00,1.243565320968627930e+00,1.243486285209655762e+00,1.243407130241394043e+00,1.243327975273132324e+00,1.243248820304870605e+00,1.243169665336608887e+00,1.243090510368347168e+00,1.243011474609375000e+00,1.242932438850402832e+00,1.242853283882141113e+00,1.242774248123168945e+00,1.242695212364196777e+00,1.242616057395935059e+00
1.162436127662658691e+00,1.162366986274719238e+00,1.162297725677490234e+00,1.162228584289550781e+00,1.162159442901611328e+00,1.162090301513671875e+00,1.162021279335021973e+00,1.161952137947082520e+00,1.161882996559143066e+00,1.161813855171203613e+00,1.161744832992553711e+00,1.161675691604614258e+00,1.161606669425964355e+00,1.161537528038024902e+00,1.161468505859375000e+00,1.161399483680725098e+00,1.161330342292785645e+00,1.161261320114135742e+00,1.161192297935485840e+00,1.161123394966125488e+00,1.161054372787475586e+00,1.160985350608825684e+00,1.160916328430175781e+00,1.160847306251525879e+00,1.160778284072875977e+00,1.160709261894226074e+00,1.160640358924865723e+00,1.160571455955505371e+00,1.160502433776855469e+00,1.160433530807495117e+00,1.160364627838134766e+00,1.160295605659484863e+00,1.160226702690124512e+00,1.160157918930053711e+00,1.160089015960693359e+00,1.160020112991333008e+00,1.159951210021972656e+00,1.159882307052612305e+00,1.159813404083251953e+00,1.159744501113891602e+00,1.159675717353820801e+00,1.159606933593750000e+00,1.159538030624389648e+00,1.159469246864318848e+00,1.159400343894958496e+00,1.159331560134887695e+00,1.159262776374816895e+00,1.159193992614746094e+00,1.159125208854675293e+00,1.159056425094604492e+00,1.158987641334533691e+00,1.158918857574462891e+00,1.158850073814392090e+00,1.158781409263610840e+00,1.158712744712829590e+00,1.158643960952758789e+00,1.158575177192687988e+00,1.158506512641906738e+00,1.158437848091125488e+00,1.158369064331054688e+00,1.158300518989562988e+00,1.076589345932006836e+00,1.048790812492370605e+00,1.034502387046813965e+00,1.028619408607482910e+00,1.024481892585754395e+00,1.025571465492248535e+00,1.006926894187927246e+00,1.008574247360229492e+00,9.960513114929199219e-01,1.157614111900329590e+00,1.157545447349548340e+00,1.157476902008056641e+00,1.157408237457275391e+00,1.157339811325073242e+00,1.157271146774291992e+00,1.157202601432800293e+00,1.157134056091308594e+00,1.157065510749816895e+00,1.156996965408325195e+00
1.087175011634826660e+00,1.087114572525024414e+00,1.087054014205932617e+00,1.086993575096130371e+00,1.086933016777038574e+00,1.086872696876525879e+00,1.086812138557434082e+00,1.086751699447631836e+00,1.086691260337829590e+00,1.086630821228027344e+00,1.086570262908935547e+00,1.086509823799133301e+00,1.086449503898620605e+00,1.086389064788818359e+00,1.086328625679016113e+00,1.086268186569213867e+00,1.086207866668701172e+00,1.086147427558898926e+00,1.086087107658386230e+00,1.086026668548583984e+00,1.085966348648071289e+00,1.085905909538269043e+00,1.085845589637756348e+00,1.085785150527954102e+00,1.085724830627441406e+00,1.085664510726928711e+00,1.085604190826416016e+00,1.085543870925903320e+00,1.085483551025390625e+00,1.085423231124877930e+00,1.085362911224365234e+00,1.085302591323852539e+00,1.085242390632629395e+00,1.085182070732116699e+00,1.085121750831604004e+00,1.085061550140380859e+00,1.085001230239868164e+00,1.084940910339355469e+00,1.084880709648132324e+00,1.084820508956909180e+00,1.084760189056396484e+00,1.084699988365173340e+00,1.084639787673950195e+00,1.084579467773437500e+00,1.084519267082214355e+00,1.084459066390991211e+00,1.084398984909057617e+00,1.084338784217834473e+00,1.084278583526611328e+00,1.084218382835388184e+00,1.084158182144165039e+00,1.084097981452941895e+00,1.084037780761718750e+00,1.083977699279785156e+00,1.083917617797851562e+00,1.083857417106628418e+00,1.083797216415405273e+00,1.083737134933471680e+00,1.083677053451538086e+00,1.083616971969604492e+00,1.083556890487670898e+00,1.083496689796447754e+00,1.083436608314514160e+00,1.027085781097412109e+00,1.011330962181091309e+00,1.003025174140930176e+00,9.943132996559143066e-01,9.868740439414978027e-01,9.849840402603149414e-01,9.885738492012023926e-01,9.908545017242431641e-01,1.082895994186401367e+00,1.082836031913757324e+00,1.082776069641113281e+00,1.082715988159179688e+00,1.082656025886535645e+00,1.082595944404602051e+00,1.082535982131958008e+00,1.082476019859313965e+00,1.082416057586669922e+00
1.021066904067993164e+00,1.021013498306274414e+00,1.020960092544555664e+00,1.020906805992126465e+00,1.020853400230407715e+00,1.020800113677978516e+00,1.020746707916259766e+00,1.020693421363830566e+00,1.020640015602111816e+00,1.020586729049682617e+00,1.020533442497253418e+00,1.020480155944824219e+00,1.020426869392395020e+00,1.020373463630676270e+00,1.020320177078247070e+00,1.020266890525817871e+00,1.020213603973388672e+00,1.020160317420959473e+00,1.020107150077819824e+00,1.020053863525390625e+00,1.020000576972961426e+00,1.019947290420532227e+00,1.019894003868103027e+00,1.019840836524963379e+00,1.019787549972534180e+00,1.019734382629394531e+00,1.019681096076965332e+00,1.019627928733825684e+00,1.019574642181396484e+00,1.019521474838256836e+00,1.019468188285827637e+00,1.019415020942687988e+00,1.019361853599548340e+00,1.019308686256408691e+00,1.019255518913269043e+00,1.019202232360839844e+00,1.019149065017700195e+00,1.019095897674560547e+00,1.019042849540710449e+00,1.018989682197570801e+00,1.018936514854431152e+00,1.018883347511291504e+00,1.018830180168151855e+00,1.018777012825012207e+00,1.018723964691162109e+00,1.018670797348022461e+00,1.018617749214172363e+00,1.018564581871032715e+00,1.018511414527893066e+00,1.018458366394042969e+00,1.018405199050903320e+00,1.018352150917053223e+00,1.018299102783203125e+00,1.018246054649353027e+00,1.018193006515502930e+00,1.018139839172363281e+00,1.018086791038513184e+00,1.018033742904663086e+00,1.017980694770812988e+00,1.017927646636962891e+00,1.017874598503112793e+00,1.017821550369262695e+00,1.017768502235412598e+00,1.017715573310852051e+00,1.017662525177001953e+00,9.967270493507385254e-01,1.017556548118591309e+00,1.017503499984741211e+00,1.017450451850891113e+00,1.017397522926330566e+00,1.017344474792480469e+00,1.017291545867919922e+00,1.017238616943359375e+00,1.017185568809509277e+00,1.017132639884948730e+00,1.017079710960388184e+00,1.017026662826538086e+00,1.016973733901977539e+00,1.016920804977416992e+00,1.016867876052856445e+00
9.625375270843505859e-01,9.624902009963989258e-01,9.624426960945129395e-01,9.623953104019165039e-01,9.623479247093200684e-01,9.623004794120788574e-01,9.622530937194824219e-01,9.622056484222412109e-01,9.621583223342895508e-01,9.621108770370483398e-01,9.620635509490966797e-01,9.620161652565002441e-01,9.619687795639038086e-01,9.619214534759521484e-01,9.618740081787109375e-01,9.618266820907592773e-01,9.617792963981628418e-01,9.617319703102111816e-01,9.616847038269042969e-01,9.616372585296630859e-01,9.615899920463562012e-01,9.615426063537597656e-01,9.614953398704528809e-01,9.614480137825012207e-01,9.614006280899047852e-01,9.613533616065979004e-01,9.613060355186462402e-01,9.612587690353393555e-01,9.612113833427429199e-01,9.611641168594360352e-01,9.611169099807739258e-01,9.610695838928222656e-01,9.610223174095153809e-01,9.609749913215637207e-01,9.609277844429016113e-01,9.608804583549499512e-01,9.608331918716430664e-01,9.607859849929809570e-01,9.607386589050292969e-01,9.606915116310119629e-01,9.606441855430603027e-01,9.605969786643981934e-01,9.605497121810913086e-01,9.605025053024291992e-01,9.604553580284118652e-01,9.604080319404602051e-01,9.603608846664428711e-01,9.603136181831359863e-01,9.602664113044738770e-01,9.602192044258117676e-01,9.601719975471496582e-01,9.601249098777770996e-01,9.600776433944702148e-01,9.600304961204528809e-01,9.599832296371459961e-01,9.599361419677734375e-01,9.598888754844665527e-01,9.598417878150939941e-01,9.597946405410766602e-01,9.597474336624145508e-01,9.597003459930419922e-01,9.596531391143798828e-01,9.596060514450073242e-01,9.595588445663452148e-01,9.595117568969726562e-01,9.594646692276000977e-01,9.594174623489379883e-01,9.593703746795654297e-01,9.593232274055480957e-01,9.592761397361755371e-01,9.592289924621582031e-01,9.591819643974304199e-01,9.591348767280578613e-01,9.590877294540405273e-01,9.590407013893127441e-01,9.589935541152954102e-01,9.589465260505676270e-01,9.588993787765502930e-01,9.588523507118225098e-01,9.588053226470947266e-01
9.103544950485229492e-01,9.103119969367980957e-01,9.102696180343627930e-01,9.102272391319274902e-01,9.101848006248474121e-01,9.101424217224121094e-01,9.100999832153320312e-01,9.100576043128967285e-01,9.100151658058166504e-01,9.099727869033813477e-01,9.099304676055908203e-01,9.098880290985107422e-01,9.098457098007202148e-01,9.098032712936401367e-01,9.097609519958496094e-01,9.097185134887695312e-01,9.096761941909790039e-01,9.096338748931884766e-01,9.095914363861083984e-01,9.095491170883178711e-01,9.095067381858825684e-01,9.094644188880920410e-01,9.094220399856567383e-01,9.093797206878662109e-01,9.093374609947204590e-01,9.092950820922851562e-01,9.092527627944946289e-01,9.092103838920593262e-01,9.091681241989135742e-01,9.091258645057678223e-01,9.090834856033325195e-01,9.090412259101867676e-01,9.089989066123962402e-01,9.089566469192504883e-01,9.089142680168151855e-01,9.088720083236694336e-01,9.088298082351684570e-01,9.087874293327331543e-01,9.087452292442321777e-01,9.087029099464416504e-01,9.086606502532958984e-01,9.086183309555053711e-01,9.085761308670043945e-01,9.085339307785034180e-01,9.084916114807128906e-01,9.084494113922119141e-01,9.084070920944213867e-01,9.083648920059204102e-01,9.083225727081298828e-01,9.082803726196289062e-01,9.082382321357727051e-01,9.081959128379821777e-01,9.081537723541259766e-01,9.081114530563354492e-01,9.080693125724792480e-01,9.080270528793334961e-01,9.079848527908325195e-01,9.079427123069763184e-01,9.079004526138305664e-01,9.078583121299743652e-01,9.078160524368286133e-01,9.077739119529724121e-01,9.077316522598266602e-01,9.076895713806152344e-01,9.076474308967590332e-01,9.076051712036132812e-01,9.075630307197570801e-01,9.075208306312561035e-01,9.074787497520446777e-01,9.074364900588989258e-01,9.073944091796875000e-01,9.073522686958312988e-01,9.073101282119750977e-01,9.072679877281188965e-01,9.072257876396179199e-01,9.071837067604064941e-01,9.071415662765502930e-01,9.070994257926940918e-01,9.070574045181274414e-01,9.070152044296264648e-01
8.635385036468505859e-01,8.635003566741943359e-01,8.634622097015380859e-01,8.634240031242370605e-01,8.633858561515808105e-01,8.633476495742797852e-01,8.633095622062683105e-01,8.632713556289672852e-01,8.632332682609558105e-01,8.631951212882995605e-01,8.631569147109985352e-01,8.631188273429870605e-01,8.630806803703308105e-01,8.630425333976745605e-01,8.630043864250183105e-01,8.629662990570068359e-01,8.629282116889953613e-01,8.628900647163391113e-01,8.628519773483276367e-01,8.628138303756713867e-01,8.627757430076599121e-01,8.627375960350036621e-01,8.626995086669921875e-01,8.626614809036254883e-01,8.626233339309692383e-01,8.625852465629577637e-01,8.625470995903015137e-01,8.625090718269348145e-01,8.624709248542785645e-01,8.624328970909118652e-01,8.623948693275451660e-01,8.623567223548889160e-01,8.623186945915222168e-01,8.622806072235107422e-01,8.622425794601440430e-01,8.622045516967773438e-01,8.621664643287658691e-01,8.621284365653991699e-01,8.620903491973876953e-01,8.620523214340209961e-01,8.620142340660095215e-01,8.619762659072875977e-01,8.619382381439208984e-01,8.619001507759094238e-01,8.618621826171875000e-01,8.618240952491760254e-01,8.617861270904541016e-01,8.617480397224426270e-01,8.617100715637207031e-01,8.616721034049987793e-01,8.616340160369873047e-01,8.615960478782653809e-01,8.615580201148986816e-01,8.615200519561767578e-01,8.614820241928100586e-01,8.614440560340881348e-01,8.614061474800109863e-01,8.613680601119995117e-01,8.613301515579223633e-01,8.612921237945556641e-01,8.612541556358337402e-01,8.612161278724670410e-01,8.611782193183898926e-01,8.611403107643127441e-01,8.611022830009460449e-01,8.610643744468688965e-01,8.610263466835021973e-01,8.609884381294250488e-01,8.609504699707031250e-01,8.609125614166259766e-01,8.608746528625488281e-01,8.608366847038269043e-01,8.607987761497497559e-01,8.607608079910278320e-01,8.607228994369506836e-01,8.606849312782287598e-01,8.606470227241516113e-01,8.606091737747192383e-01,8.605712056159973145e-01,8.605332970619201660e-01
8.213021755218505859e-01,8.212676644325256348e-01,8.212330937385559082e-01,8.211986422538757324e-01,8.211640715599060059e-01,8.211295604705810547e-01,8.210949897766113281e-01,8.210605382919311523e-01,8.210260868072509766e-01,8.209915161132812500e-01,8.209570646286010742e-01,8.209224939346313477e-01,8.208880424499511719e-01,8.208534717559814453e-01,8.208190202713012695e-01,8.207845687866210938e-01,8.207500576972961426e-01,8.207156062126159668e-01,8.206810951232910156e-01,8.206466436386108398e-01,8.206121325492858887e-01,8.205776810646057129e-01,8.205432295799255371e-01,8.205087184906005859e-01,8.204743266105651855e-01,8.204398155212402344e-01,8.204053640365600586e-01,8.203709125518798828e-01,8.203364610671997070e-01,8.203020691871643066e-01,8.202675580978393555e-01,8.202331662178039551e-01,8.201986551284790039e-01,8.201642632484436035e-01,8.201298117637634277e-01,8.200954198837280273e-01,8.200610280036926270e-01,8.200265169143676758e-01,8.199921250343322754e-01,8.199576735496520996e-01,8.199232816696166992e-01,8.198888897895812988e-01,8.198544383049011230e-01,8.198201060295104980e-01,8.197856545448303223e-01,8.197512626647949219e-01,8.197168111801147461e-01,8.196824789047241211e-01,8.196480870246887207e-01,8.196136355400085449e-01,8.195793032646179199e-01,8.195448517799377441e-01,8.195105195045471191e-01,8.194761276245117188e-01,8.194417953491210938e-01,8.194074034690856934e-01,8.193730115890502930e-01,8.193386793136596680e-01,8.193042874336242676e-01,8.192699551582336426e-01,8.192355632781982422e-01,8.192012310028076172e-01,8.191668987274169922e-01,8.191325068473815918e-01,8.190981745719909668e-01,8.190637826919555664e-01,8.190295100212097168e-01,8.189951181411743164e-01,8.189607858657836914e-01,8.189265131950378418e-01,8.188921213150024414e-01,8.188578486442565918e-01,8.188234567642211914e-01,8.187891840934753418e-01,8.187547922134399414e-01,8.187205195426940918e-01,8.186862468719482422e-01,8.186519145965576172e-01,8.186176419258117676e-01,8.185832500457763672e-01
7.830048799514770508e-01,7.829734086990356445e-01,7.829420566558837891e-01,7.829106450080871582e-01,7.828792929649353027e-01,7.828478813171386719e-01,7.828165292739868164e-01,7.827852368354797363e-01,7.827538251876831055e-01,7.827224731445312500e-01,7.826910614967346191e-01,7.826597094535827637e-01,7.826283574104309082e-01,7.825970053672790527e-01,7.825657129287719727e-01,7.825343012809753418e-01,7.825030088424682617e-01,7.824715971946716309e-01,7.824403047561645508e-01,7.824088931083679199e-01,7.823776006698608398e-01,7.823463082313537598e-01,7.823148965835571289e-01,7.822836041450500488e-01,7.822522521018981934e-01,7.822209596633911133e-01,7.821896076202392578e-01,7.821583151817321777e-01,7.821270227432250977e-01,7.820956707000732422e-01,7.820643782615661621e-01,7.820330262184143066e-01,7.820017933845520020e-01,7.819704413414001465e-01,7.819391489028930664e-01,7.819078564643859863e-01,7.818765640258789062e-01,7.818452715873718262e-01,7.818139195442199707e-01,7.817826867103576660e-01,7.817513346672058105e-01,7.817201018333435059e-01,7.816888689994812012e-01,7.816575169563293457e-01,7.816262841224670410e-01,7.815949916839599609e-01,7.815637588500976562e-01,7.815324664115905762e-01,7.815011739730834961e-01,7.814699411392211914e-01,7.814386487007141113e-01,7.814074158668518066e-01,7.813761234283447266e-01,7.813448905944824219e-01,7.813136577606201172e-01,7.812823653221130371e-01,7.812511920928955078e-01,7.812198996543884277e-01,7.811886668205261230e-01,7.811573743820190430e-01,7.811262011528015137e-01,7.810949683189392090e-01,7.810637354850769043e-01,7.810325026512145996e-01,7.810012698173522949e-01,7.809700369834899902e-01,7.809388041496276855e-01,7.809076309204101562e-01,7.808763980865478516e-01,7.808451652526855469e-01,7.808139920234680176e-01,7.807827591896057129e-01,7.807515859603881836e-01,7.807202935218811035e-01,7.806891202926635742e-01,7.806579470634460449e-01,7.806267142295837402e-01,7.805956006050109863e-01,7.805643081665039062e-01,7.805331945419311523e-01
