3.938955068588256836e+00,3.936498880386352539e+00,3.979487419128417969e+00,5.000000000000000000e+00,5.000000000000000000e+00,5.000000000000000000e+00,5.000000000000000000e+00,5.000000000000000000e+00,5.000000000000000000e+00,5.000000000000000000e+00,5.000000000000000000e+00,5.000000000000000000e+00,5.000000000000000000e+00,5.000000000000000000e+00,5.000000000000000000e+00,5.000000000000000000e+00,5.000000000000000000e+00,5.000000000000000000e+00,5.000000000000000000e+00,5.000000000000000000e+00,5.000000000000000000e+00,5.000000000000000000e+00,5.000000000000000000e+00,5.000000000000000000e+00,5.000000000000000000e+00,5.000000000000000000e+00,5.000000000000000000e+00,5.000000000000000000e+00,5.000000000000000000e+00,5.000000000000000000e+00,5.000000000000000000e+00,5.000000000000000000e+00,5.000000000000000000e+00,5.000000000000000000e+00,5.000000000000000000e+00,5.000000000000000000e+00,5.000000000000000000e+00,5.000000000000000000e+00,5.000000000000000000e+00,4.865037441253662109e+00,4.673828601837158203e+00,4.497081279754638672e+00,1.219708561897277832e+00,4.180870532989501953e+00,4.038874626159667969e+00,1.334580063819885254e+00,1.288490653038024902e+00,1.261844277381896973e+00,1.256204247474670410e+00,1.250614523887634277e+00,1.247915029525756836e+00,1.270232439041137695e+00,3.175949335098266602e+00,1.287974834442138672e+00,1.241003394126892090e+00,1.215947389602661133e+00,1.192635297775268555e+00,1.176029443740844727e+00,1.171174645423889160e+00,1.171918630599975586e+00,1.169585824012756348e+00,1.407011628150939941e+00,1.330219388008117676e+00,2.454791784286499023e+00,2.405143499374389648e+00,2.357463598251342773e+00,2.311637163162231445e+00,2.267558813095092773e+00,2.225129604339599609e+00,2.184259414672851562e+00,2.144863367080688477e+00,2.106863021850585938e+00,2.070185899734497070e+00,2.034764051437377930e+00,2.000533819198608398e+00,1.967436552047729492e+00,1.935415983200073242e+00,1.904421329498291016e+00,1.874403834342956543e+00,1.845317840576171875e+00
3.841286897659301758e+00,3.871729373931884766e+00,3.912721872329711914e+00,3.955954313278198242e+00,4.015970706939697266e+00,4.062246322631835938e+00,5.000000000000000000e+00,5.000000000000000000e+00,5.000000000000000000e+00,5.000000000000000000e+00,5.000000000000000000e+00,5.000000000000000000e+00,5.000000000000000000e+00,5.000000000000000000e+00,5.000000000000000000e+00,5.000000000000000000e+00,5.000000000000000000e+00,5.000000000000000000e+00,5.000000000000000000e+00,5.000000000000000000e+00,5.000000000000000000e+00,5.000000000000000000e+00,5.000000000000000000e+00,5.000000000000000000e+00,5.000000000000000000e+00,5.000000000000000000e+00,5.000000000000000000e+00,5.000000000000000000e+00,5.000000000000000000e+00,5.000000000000000000e+00,5.000000000000000000e+00,5.000000000000000000e+00,5.000000000000000000e+00,5.000000000000000000e+00,5.000000000000000000e+00,5.000000000000000000e+00,5.000000000000000000e+00,5.000000000000000000e+00,5.000000000000000000e+00,4.865177154541015625e+00,4.673957347869873047e+00,4.497200489044189453e+00,4.333325386047363281e+00,4.180973529815673828e+00,4.038970470428466797e+00,1.349498152732849121e+00,1.297820568084716797e+00,1.263024210929870605e+00,1.255818963050842285e+00,1.250232458114624023e+00,1.247203588485717773e+00,1.269442319869995117e+00,3.176008939743041992e+00,1.298107147216796875e+00,1.247729778289794922e+00,1.213294029235839844e+00,1.190631866455078125e+00,1.174081325531005859e+00,1.161349296569824219e+00,1.162080764770507812e+00,1.162813305854797363e+00,1.161325573921203613e+00,1.359210252761840820e+00,2.454827308654785156e+00,2.405177593231201172e+00,2.357496500015258789e+00,2.311668872833251953e+00,2.267589092254638672e+00,2.225158929824829102e+00,2.184287548065185547e+00,2.144890546798706055e+00,2.106889247894287109e+00,2.070211172103881836e+00,2.034788370132446289e+00,2.000557422637939453e+00,1.967459082603454590e+00,1.935438036918640137e+00,1.904442787170410156e+00,1.874424457550048828e+00,1.845337986946105957e+00
3.813415288925170898e+00,3.841834545135498047e+00,3.877408742904663086e+00,3.925601720809936523e+00,4.007592201232910156e+00,4.060350894927978516e+00,5.000000000000000000e+00,5.000000000000000000e+00,5.000000000000000000e+00,5.000000000000000000e+00,5.000000000000000000e+00,5.000000000000000000e+00,5.000000000000000000e+00,5.000000000000000000e+00,5.000000000000000000e+00,5.000000000000000000e+00,5.000000000000000000e+00,5.000000000000000000e+00,5.000000000000000000e+00,5.000000000000000000e+00,5.000000000000000000e+00,5.000000000000000000e+00,5.000000000000000000e+00,5.000000000000000000e+00,5.000000000000000000e+00,5.000000000000000000e+00,5.000000000000000000e+00,5.000000000000000000e+00,5.000000000000000000e+00,5.000000000000000000e+00,5.000000000000000000e+00,5.000000000000000000e+00,5.000000000000000000e+00,5.000000000000000000e+00,5.000000000000000000e+00,5.000000000000000000e+00,5.000000000000000000e+00,5.000000000000000000e+00,5.000000000000000000e+00,4.865316390991210938e+00,4.674086570739746094e+00,4.497320175170898438e+00,4.333436489105224609e+00,4.181076526641845703e+00,4.039066791534423828e+00,1.366059184074401855e+00,1.307646632194519043e+00,1.269303321838378906e+00,1.255433917045593262e+00,1.249850749969482422e+00,1.246492981910705566e+00,1.268706083297729492e+00,3.176068305969238281e+00,3.093448877334594727e+00,1.256143569946289062e+00,1.210652232170104980e+00,1.188635230064392090e+00,1.172139763832092285e+00,1.156095862388610840e+00,1.152406811714172363e+00,1.153126955032348633e+00,1.153848290443420410e+00,2.506607294082641602e+00,2.454862833023071289e+00,2.405211687088012695e+00,2.357529163360595703e+00,2.311700344085693359e+00,2.267619371414184570e+00,2.225188016891479492e+00,2.184315681457519531e+00,2.144917488098144531e+00,2.106915473937988281e+00,2.070236444473266602e+00,2.034812927246093750e+00,2.000581026077270508e+00,1.967481970787048340e+00,1.935460209846496582e+00,1.904464125633239746e+00,1.874445199966430664e+00,1.845358014106750488e+00
3.819997787475585938e+00,3.838602781295776367e+00,3.872302532196044922e+00,3.931245803833007812e+00,4.039622306823730469e+00,4.081552505493164062e+00,5.000000000000000000e+00,5.000000000000000000e+00,5.000000000000000000e+00,5.000000000000000000e+00,5.000000000000000000e+00,5.000000000000000000e+00,5.000000000000000000e+00,5.000000000000000000e+00,5.000000000000000000e+00,5.000000000000000000e+00,5.000000000000000000e+00,5.000000000000000000e+00,5.000000000000000000e+00,5.000000000000000000e+00,5.000000000000000000e+00,5.000000000000000000e+00,5.000000000000000000e+00,5.000000000000000000e+00,5.000000000000000000e+00,5.000000000000000000e+00,5.000000000000000000e+00,5.000000000000000000e+00,5.000000000000000000e+00,5.000000000000000000e+00,5.000000000000000000e+00,5.000000000000000000e+00,5.000000000000000000e+00,5.000000000000000000e+00,5.000000000000000000e+00,5.000000000000000000e+00,5.000000000000000000e+00,5.000000000000000000e+00,5.000000000000000000e+00,4.865456104278564453e+00,4.674214839935302734e+00,4.497439384460449219e+00,4.333547115325927734e+00,4.181180000305175781e+00,4.039163112640380859e+00,3.906476736068725586e+00,1.319959044456481934e+00,1.279155135154724121e+00,1.257522344589233398e+00,1.249469280242919922e+00,1.245783209800720215e+00,1.267522454261779785e+00,3.176127910614013672e+00,3.093505382537841797e+00,1.279647588729858398e+00,1.216231226921081543e+00,1.186645150184631348e+00,1.170204520225524902e+00,1.154191851615905762e+00,1.146509289741516113e+00,1.148210287094116211e+00,1.149768948554992676e+00,2.506644248962402344e+00,2.454898357391357422e+00,2.405245780944824219e+00,2.357561826705932617e+00,2.311731815338134766e+00,2.267649650573730469e+00,2.225217342376708984e+00,2.184343814849853516e+00,2.144944667816162109e+00,2.106941699981689453e+00,2.070261716842651367e+00,2.034837245941162109e+00,2.000604629516601562e+00,1.967504739761352539e+00,1.935482263565063477e+00,1.904485583305358887e+00,1.874465942382812500e+00,1.845378160476684570e+00
3.817360639572143555e+00,3.837157726287841797e+00,3.870815992355346680e+00,3.927480459213256836e+00,4.057195186614990234e+00,4.093668937683105469e+00,5.000000000000000000e+00,5.000000000000000000e+00,5.000000000000000000e+00,5.000000000000000000e+00,5.000000000000000000e+00,5.000000000000000000e+00,5.000000000000000000e+00,5.000000000000000000e+00,5.000000000000000000e+00,5.000000000000000000e+00,5.000000000000000000e+00,5.000000000000000000e+00,5.000000000000000000e+00,5.000000000000000000e+00,5.000000000000000000e+00,5.000000000000000000e+00,5.000000000000000000e+00,5.000000000000000000e+00,5.000000000000000000e+00,5.000000000000000000e+00,5.000000000000000000e+00,5.000000000000000000e+00,5.000000000000000000e+00,5.000000000000000000e+00,5.000000000000000000e+00,5.000000000000000000e+00,5.000000000000000000e+00,5.000000000000000000e+00,5.000000000000000000e+00,5.000000000000000000e+00,5.000000000000000000e+00,5.000000000000000000e+00,5.000000000000000000e+00,4.865595817565917969e+00,4.674344062805175781e+00,4.497558593750000000e+00,4.333657741546630859e+00,4.181282997131347656e+00,4.039259433746337891e+00,3.906566858291625977e+00,1.336861848831176758e+00,1.289161086082458496e+00,1.260585188865661621e+00,1.249088048934936523e+00,1.245074152946472168e+00,1.264793634414672852e+00,3.176187276840209961e+00,3.093561649322509766e+00,3.015126228332519531e+00,1.241668462753295898e+00,1.184607267379760742e+00,1.168547511100769043e+00,1.154459118843078613e+00,1.143823027610778809e+00,1.146045923233032227e+00,1.148143053054809570e+00,2.506681203842163086e+00,2.454933881759643555e+00,2.405279874801635742e+00,2.357594728469848633e+00,2.311763525009155273e+00,2.267679929733276367e+00,2.225246429443359375e+00,2.184371948242187500e+00,2.144971847534179688e+00,2.106967926025390625e+00,2.070286989212036133e+00,2.034861803054809570e+00,2.000628232955932617e+00,1.967527627944946289e+00,1.935504317283630371e+00,1.904506921768188477e+00,1.874486684799194336e+00,1.845398068428039551e+00
3.809082984924316406e+00,3.838401556015014648e+00,3.867602825164794922e+00,3.921335697174072266e+00,4.077157974243164062e+00,4.106150627136230469e+00,5.000000000000000000e+00,5.000000000000000000e+00,5.000000000000000000e+00,5.000000000000000000e+00,5.000000000000000000e+00,5.000000000000000000e+00,5.000000000000000000e+00,5.000000000000000000e+00,5.000000000000000000e+00,5.000000000000000000e+00,5.000000000000000000e+00,5.000000000000000000e+00,5.000000000000000000e+00,5.000000000000000000e+00,5.000000000000000000e+00,5.000000000000000000e+00,5.000000000000000000e+00,5.000000000000000000e+00,5.000000000000000000e+00,5.000000000000000000e+00,5.000000000000000000e+00,5.000000000000000000e+00,5.000000000000000000e+00,5.000000000000000000e+00,5.000000000000000000e+00,5.000000000000000000e+00,5.000000000000000000e+00,5.000000000000000000e+00,5.000000000000000000e+00,5.000000000000000000e+00,5.000000000000000000e+00,5.000000000000000000e+00,5.000000000000000000e+00,4.865735530853271484e+00,4.674472808837890625e+00,4.497677803039550781e+00,4.333768367767333984e+00,4.181385993957519531e+00,4.039355278015136719e+00,3.906656742095947266e+00,1.348015546798706055e+00,1.299104332923889160e+00,1.263662934303283691e+00,1.252068042755126953e+00,1.244366049766540527e+00,1.262076497077941895e+00,3.176246643066406250e+00,3.093618154525756836e+00,3.015179634094238281e+00,2.940620422363281250e+00,1.185267925262451172e+00,1.170767664909362793e+00,1.156617879867553711e+00,1.144090533256530762e+00,1.146258473396301270e+00,1.148684620857238770e+00,2.506718397140502930e+00,2.454969406127929688e+00,2.405313968658447266e+00,2.357627391815185547e+00,2.311794996261596680e+00,2.267710208892822266e+00,2.225275754928588867e+00,2.184400081634521484e+00,2.144998788833618164e+00,2.106994152069091797e+00,2.070312261581420898e+00,2.034886121749877930e+00,2.000651836395263672e+00,1.967550516128540039e+00,1.935526490211486816e+00,1.904528379440307617e+00,1.874507427215576172e+00,1.845418095588684082e+00
3.816846132278442383e+00,3.834639787673950195e+00,3.870380401611328125e+00,3.926362514495849609e+00,4.094602584838867188e+00,4.120497226715087891e+00,5.000000000000000000e+00,5.000000000000000000e+00,5.000000000000000000e+00,5.000000000000000000e+00,5.000000000000000000e+00,5.000000000000000000e+00,5.000000000000000000e+00,5.000000000000000000e+00,5.000000000000000000e+00,5.000000000000000000e+00,5.000000000000000000e+00,5.000000000000000000e+00,5.000000000000000000e+00,5.000000000000000000e+00,5.000000000000000000e+00,5.000000000000000000e+00,5.000000000000000000e+00,5.000000000000000000e+00,5.000000000000000000e+00,5.000000000000000000e+00,5.000000000000000000e+00,5.000000000000000000e+00,5.000000000000000000e+00,5.000000000000000000e+00,5.000000000000000000e+00,5.000000000000000000e+00,5.000000000000000000e+00,5.000000000000000000e+00,5.000000000000000000e+00,5.000000000000000000e+00,5.000000000000000000e+00,5.000000000000000000e+00,5.000000000000000000e+00,4.865875244140625000e+00,4.674601554870605469e+00,4.497797012329101562e+00,4.333879470825195312e+00,4.181488990783691406e+00,4.039451599121093750e+00,3.906746864318847656e+00,1.358635544776916504e+00,1.308949947357177734e+00,1.267012953758239746e+00,1.254822134971618652e+00,1.244431614875793457e+00,1.260760188102722168e+00,3.176306247711181641e+00,3.093674659729003906e+00,3.015233278274536133e+00,2.940671443939208984e+00,1.191796302795410156e+00,1.176047801971435547e+00,1.160710215568542480e+00,1.151276588439941406e+00,1.152853608131408691e+00,1.154908061027526855e+00,2.506755352020263672e+00,2.455004930496215820e+00,2.405348062515258789e+00,2.357660293579101562e+00,2.311826229095458984e+00,2.267740726470947266e+00,2.225304841995239258e+00,2.184428215026855469e+00,2.145025968551635742e+00,2.107020139694213867e+00,2.070337533950805664e+00,2.034910678863525391e+00,2.000675439834594727e+00,1.967573285102844238e+00,1.935548543930053711e+00,1.904549717903137207e+00,1.874528169631958008e+00,1.845438241958618164e+00
3.819313764572143555e+00,3.843964576721191406e+00,3.877517938613891602e+00,3.917750835418701172e+00,4.023053169250488281e+00,4.108459472656250000e+00,5.000000000000000000e+00,5.000000000000000000e+00,5.000000000000000000e+00,5.000000000000000000e+00,5.000000000000000000e+00,5.000000000000000000e+00,5.000000000000000000e+00,5.000000000000000000e+00,5.000000000000000000e+00,5.000000000000000000e+00,5.000000000000000000e+00,5.000000000000000000e+00,5.000000000000000000e+00,5.000000000000000000e+00,5.000000000000000000e+00,5.000000000000000000e+00,5.000000000000000000e+00,5.000000000000000000e+00,5.000000000000000000e+00,5.000000000000000000e+00,5.000000000000000000e+00,5.000000000000000000e+00,5.000000000000000000e+00,5.000000000000000000e+00,5.000000000000000000e+00,5.000000000000000000e+00,5.000000000000000000e+00,5.000000000000000000e+00,5.000000000000000000e+00,5.000000000000000000e+00,5.000000000000000000e+00,5.000000000000000000e+00,5.000000000000000000e+00,4.866014957427978516e+00,4.674730300903320312e+00,4.497916221618652344e+00,4.333990097045898438e+00,4.181592464447021484e+00,4.039547920227050781e+00,3.906836986541748047e+00,3.782568216323852539e+00,1.321015477180480957e+00,1.277416467666625977e+00,1.258228540420532227e+00,1.246798872947692871e+00,1.262005209922790527e+00,3.176365852355957031e+00,3.093731164932250977e+00,3.015286922454833984e+00,1.261185288429260254e+00,1.205005526542663574e+00,1.187042117118835449e+00,1.169215559959411621e+00,1.162557601928710938e+00,1.163347601890563965e+00,1.164138674736022949e+00,2.506792545318603516e+00,2.455040454864501953e+00,2.405382156372070312e+00,2.357693195343017578e+00,2.311857938766479492e+00,2.267771005630493164e+00,2.225333929061889648e+00,2.184456348419189453e+00,2.145053148269653320e+00,2.107046365737915039e+00,2.070362806320190430e+00,2.034934997558593750e+00,2.000699043273925781e+00,1.967596173286437988e+00,1.935570716857910156e+00,1.904571175575256348e+00,1.874548673629760742e+00,1.845458269119262695e+00
3.808284044265747070e+00,3.866057872772216797e+00,3.872994422912597656e+00,3.881932258605957031e+00,3.946383476257324219e+00,4.096055507659912109e+00,5.000000000000000000e+00,5.000000000000000000e+00,5.000000000000000000e+00,5.000000000000000000e+00,5.000000000000000000e+00,5.000000000000000000e+00,5.000000000000000000e+00,5.000000000000000000e+00,5.000000000000000000e+00,5.000000000000000000e+00,5.000000000000000000e+00,5.000000000000000000e+00,5.000000000000000000e+00,5.000000000000000000e+00,5.000000000000000000e+00,5.000000000000000000e+00,5.000000000000000000e+00,5.000000000000000000e+00,5.000000000000000000e+00,5.000000000000000000e+00,5.000000000000000000e+00,5.000000000000000000e+00,5.000000000000000000e+00,5.000000000000000000e+00,5.000000000000000000e+00,5.000000000000000000e+00,5.000000000000000000e+00,5.000000000000000000e+00,5.000000000000000000e+00,5.000000000000000000e+00,5.000000000000000000e+00,5.000000000000000000e+00,5.000000000000000000e+00,4.866154670715332031e+00,4.674859523773193359e+00,4.498035430908203125e+00,4.334100723266601562e+00,4.181694984436035156e+00,4.039644241333007812e+00,3.906927108764648438e+00,3.782652616500854492e+00,1.328765511512756348e+00,1.284988760948181152e+00,1.265260219573974609e+00,1.255644083023071289e+00,1.271493196487426758e+00,3.176425218582153320e+00,3.093787431716918945e+00,3.015340566635131836e+00,1.237709879875183105e+00,1.218765616416931152e+00,1.198080778121948242e+00,1.183258414268493652e+00,1.179861426353454590e+00,1.180675029754638672e+00,2.560811758041381836e+00,2.506829500198364258e+00,2.455075979232788086e+00,2.405416250228881836e+00,2.357725620269775391e+00,2.311889410018920898e+00,2.267801284790039062e+00,2.225363254547119141e+00,2.184484481811523438e+00,2.145080089569091797e+00,2.107072591781616211e+00,2.070388078689575195e+00,2.034959316253662109e+00,2.000722646713256836e+00,1.967619061470031738e+00,1.935592770576477051e+00,1.904592633247375488e+00,1.874569416046142578e+00,1.845478415489196777e+00
3.790629863739013672e+00,3.849274635314941406e+00,3.844685792922973633e+00,3.861401081085205078e+00,3.926154136657714844e+00,4.098217487335205078e+00,5.000000000000000000e+00,5.000000000000000000e+00,5.000000000000000000e+00,5.000000000000000000e+00,5.000000000000000000e+00,5.000000000000000000e+00,5.000000000000000000e+00,5.000000000000000000e+00,5.000000000000000000e+00,5.000000000000000000e+00,5.000000000000000000e+00,5.000000000000000000e+00,5.000000000000000000e+00,5.000000000000000000e+00,5.000000000000000000e+00,5.000000000000000000e+00,5.000000000000000000e+00,5.000000000000000000e+00,5.000000000000000000e+00,5.000000000000000000e+00,5.000000000000000000e+00,5.000000000000000000e+00,5.000000000000000000e+00,5.000000000000000000e+00,5.000000000000000000e+00,5.000000000000000000e+00,5.000000000000000000e+00,5.000000000000000000e+00,5.000000000000000000e+00,5.000000000000000000e+00,5.000000000000000000e+00,5.000000000000000000e+00,5.000000000000000000e+00,4.866293907165527344e+00,4.674988269805908203e+00,4.498155117034912109e+00,4.334211826324462891e+00,4.181798458099365234e+00,4.039740085601806641e+00,3.907016754150390625e+00,3.782737016677856445e+00,1.324913859367370605e+00,1.292639136314392090e+00,1.276068687438964844e+00,1.269969940185546875e+00,1.287636041641235352e+00,3.176484823226928711e+00,3.093843936920166016e+00,1.297945380210876465e+00,1.252231359481811523e+00,1.228407263755798340e+00,1.208912372589111328e+00,1.200814723968505859e+00,1.197688102722167969e+00,1.238981962203979492e+00,2.560850381851196289e+00,2.506866693496704102e+00,2.455111503601074219e+00,2.405450582504272461e+00,2.357758522033691406e+00,2.311920881271362305e+00,2.267831802368164062e+00,2.225392341613769531e+00,2.184512615203857422e+00,2.145107269287109375e+00,2.107098579406738281e+00,2.070413351058959961e+00,2.034983873367309570e+00,2.000746250152587891e+00,1.967641830444335938e+00,1.935614943504333496e+00,1.904613733291625977e+00,1.874590158462524414e+00,1.845498442649841309e+00
3.788284778594970703e+00,3.855727672576904297e+00,3.831911087036132812e+00,3.849230051040649414e+00,3.916435241699218750e+00,4.081237316131591797e+00,5.000000000000000000e+00,5.000000000000000000e+00,5.000000000000000000e+00,5.000000000000000000e+00,5.000000000000000000e+00,5.000000000000000000e+00,5.000000000000000000e+00,5.000000000000000000e+00,5.000000000000000000e+00,5.000000000000000000e+00,5.000000000000000000e+00,5.000000000000000000e+00,5.000000000000000000e+00,5.000000000000000000e+00,5.000000000000000000e+00,5.000000000000000000e+00,5.000000000000000000e+00,5.000000000000000000e+00,5.000000000000000000e+00,5.000000000000000000e+00,5.000000000000000000e+00,5.000000000000000000e+00,5.000000000000000000e+00,5.000000000000000000e+00,5.000000000000000000e+00,5.000000000000000000e+00,5.000000000000000000e+00,5.000000000000000000e+00,5.000000000000000000e+00,5.000000000000000000e+00,5.000000000000000000e+00,5.000000000000000000e+00,5.000000000000000000e+00,4.866433620452880859e+00,4.675117015838623047e+00,4.498274326324462891e+00,4.334322452545166016e+00,4.181901454925537109e+00,4.039836406707763672e+00,3.907106637954711914e+00,1.375994563102722168e+00,1.327679991722106934e+00,1.303245067596435547e+00,1.290184378623962402e+00,1.287727236747741699e+00,1.308722972869873047e+00,3.176544189453125000e+00,3.093900442123413086e+00,1.285445451736450195e+00,1.260308742523193359e+00,1.235751867294311523e+00,1.227244138717651367e+00,1.218899846076965332e+00,1.216061711311340332e+00,2.617250919342041016e+00,2.560889244079589844e+00,2.506903648376464844e+00,2.455147027969360352e+00,2.405484676361083984e+00,2.357791423797607422e+00,2.311952590942382812e+00,2.267861843109130859e+00,2.225421667098999023e+00,2.184540748596191406e+00,2.145134449005126953e+00,2.107124805450439453e+00,2.070438623428344727e+00,2.035008192062377930e+00,2.000769853591918945e+00,1.967664718627929688e+00,1.935636997222900391e+00,1.904635190963745117e+00,1.874610900878906250e+00,1.845518589019775391e+00
3.785856962203979492e+00,3.859995603561401367e+00,3.818174600601196289e+00,3.835191249847412109e+00,5.000000000000000000e+00,5.000000000000000000e+00,5.000000000000000000e+00,5.000000000000000000e+00,5.000000000000000000e+00,5.000000000000000000e+00,5.000000000000000000e+00,5.000000000000000000e+00,5.000000000000000000e+00,5.000000000000000000e+00,5.000000000000000000e+00,5.000000000000000000e+00,5.000000000000000000e+00,5.000000000000000000e+00,5.000000000000000000e+00,5.000000000000000000e+00,5.000000000000000000e+00,5.000000000000000000e+00,5.000000000000000000e+00,5.000000000000000000e+00,5.000000000000000000e+00,5.000000000000000000e+00,5.000000000000000000e+00,5.000000000000000000e+00,5.000000000000000000e+00,5.000000000000000000e+00,5.000000000000000000e+00,5.000000000000000000e+00,5.000000000000000000e+00,5.000000000000000000e+00,5.000000000000000000e+00,5.000000000000000000e+00,5.000000000000000000e+00,5.000000000000000000e+00,5.000000000000000000e+00,4.866573333740234375e+00,4.675246238708496094e+00,4.498393535614013672e+00,4.334433078765869141e+00,4.182004451751708984e+00,4.039932727813720703e+00,3.907196760177612305e+00,1.371653676033020020e+00,1.333285331726074219e+00,1.314994454383850098e+00,1.304615736007690430e+00,1.305988192558288574e+00,3.263787269592285156e+00,3.176603555679321289e+00,3.093956708908081055e+00,1.290527343750000000e+00,1.265828967094421387e+00,1.251111149787902832e+00,1.245421648025512695e+00,1.237537980079650879e+00,1.273703932762145996e+00,2.617291450500488281e+00,2.560927867889404297e+00,2.506940603256225586e+00,2.455182790756225586e+00,2.405518531799316406e+00,2.357824087142944336e+00,2.311984062194824219e+00,2.267892360687255859e+00,2.225450992584228516e+00,2.184568881988525391e+00,2.145161628723144531e+00,2.107151031494140625e+00,2.070463895797729492e+00,2.035032749176025391e+00,2.000793457031250000e+00,1.967687606811523438e+00,1.935659170150756836e+00,1.904656648635864258e+00,1.874631643295288086e+00,1.845538735389709473e+00
3.784271955490112305e+00,3.855541944503784180e+00,3.800758838653564453e+00,3.820325613021850586e+00,5.000000000000000000e+00,5.000000000000000000e+00,5.000000000000000000e+00,5.000000000000000000e+00,5.000000000000000000e+00,5.000000000000000000e+00,5.000000000000000000e+00,5.000000000000000000e+00,5.000000000000000000e+00,5.000000000000000000e+00,5.000000000000000000e+00,5.000000000000000000e+00,5.000000000000000000e+00,5.000000000000000000e+00,5.000000000000000000e+00,5.000000000000000000e+00,5.000000000000000000e+00,5.000000000000000000e+00,5.000000000000000000e+00,5.000000000000000000e+00,5.000000000000000000e+00,5.000000000000000000e+00,5.000000000000000000e+00,5.000000000000000000e+00,5.000000000000000000e+00,5.000000000000000000e+00,5.000000000000000000e+00,5.000000000000000000e+00,5.000000000000000000e+00,5.000000000000000000e+00,5.000000000000000000e+00,5.000000000000000000e+00,5.000000000000000000e+00,5.000000000000000000e+00,5.000000000000000000e+00,4.866712570190429688e+00,4.675374984741210938e+00,4.498512744903564453e+00,4.334544181823730469e+00,4.182107925415039062e+00,4.040029048919677734e+00,3.907286882400512695e+00,1.368504762649536133e+00,1.342502832412719727e+00,1.326957464218139648e+00,1.319373607635498047e+00,1.330754876136779785e+00,3.263850212097167969e+00,3.176663160324096680e+00,3.094013214111328125e+00,1.295649528503417969e+00,1.271217584609985352e+00,1.261634111404418945e+00,1.255848765373229980e+00,1.250116109848022461e+00,2.676234006881713867e+00,2.617331743240356445e+00,2.560966491699218750e+00,2.506977796554565430e+00,2.455218315124511719e+00,2.405552625656127930e+00,2.357856988906860352e+00,2.312015295028686523e+00,2.267922639846801758e+00,2.225480079650878906e+00,2.184597015380859375e+00,2.145188808441162109e+00,2.107177257537841797e+00,2.070489168167114258e+00,2.035057067871093750e+00,2.000817060470581055e+00,1.967710375785827637e+00,1.935680985450744629e+00,1.904677987098693848e+00,1.874652385711669922e+00,1.845558762550354004e+00
3.779864072799682617e+00,3.851995468139648438e+00,3.791434764862060547e+00,3.812314987182617188e+00,5.000000000000000000e+00,5.000000000000000000e+00,5.000000000000000000e+00,5.000000000000000000e+00,5.000000000000000000e+00,5.000000000000000000e+00,5.000000000000000000e+00,5.000000000000000000e+00,5.000000000000000000e+00,5.000000000000000000e+00,5.000000000000000000e+00,5.000000000000000000e+00,5.000000000000000000e+00,5.000000000000000000e+00,5.000000000000000000e+00,5.000000000000000000e+00,5.000000000000000000e+00,5.000000000000000000e+00,5.000000000000000000e+00,5.000000000000000000e+00,5.000000000000000000e+00,5.000000000000000000e+00,5.000000000000000000e+00,5.000000000000000000e+00,5.000000000000000000e+00,5.000000000000000000e+00,5.000000000000000000e+00,5.000000000000000000e+00,5.000000000000000000e+00,5.000000000000000000e+00,5.000000000000000000e+00,5.000000000000000000e+00,5.000000000000000000e+00,5.000000000000000000e+00,5.000000000000000000e+00,4.866852760314941406e+00,4.675503730773925781e+00,4.498631954193115234e+00,4.334654808044433594e+00,4.182210922241210938e+00,4.040125370025634766e+00,3.907377004623413086e+00,1.376436233520507812e+00,1.351776599884033203e+00,1.338869929313659668e+00,1.331425666809082031e+00,1.355010151863098145e+00,3.263912677764892578e+00,3.176722764968872070e+00,1.354148864746093750e+00,1.300812721252441406e+00,1.277206659317016602e+00,1.272094964981079102e+00,1.266451835632324219e+00,1.267571687698364258e+00,2.676276206970214844e+00,2.617372274398803711e+00,2.561005115509033203e+00,2.507014751434326172e+00,2.455253839492797852e+00,2.405586957931518555e+00,2.357889652252197266e+00,2.312047004699707031e+00,2.267952919006347656e+00,2.225509405136108398e+00,2.184625148773193359e+00,2.145215988159179688e+00,2.107203483581542969e+00,2.070514440536499023e+00,2.035081386566162109e+00,2.000840663909912109e+00,1.967733263969421387e+00,1.935703158378601074e+00,1.904699444770812988e+00,1.874673128128051758e+00,1.845578908920288086e+00
3.790688037872314453e+00,5.000000000000000000e+00,3.817920446395874023e+00,3.841856241226196289e+00,5.000000000000000000e+00,5.000000000000000000e+00,5.000000000000000000e+00,5.000000000000000000e+00,5.000000000000000000e+00,5.000000000000000000e+00,5.000000000000000000e+00,5.000000000000000000e+00,5.000000000000000000e+00,5.000000000000000000e+00,5.000000000000000000e+00,5.000000000000000000e+00,5.000000000000000000e+00,5.000000000000000000e+00,5.000000000000000000e+00,5.000000000000000000e+00,5.000000000000000000e+00,5.000000000000000000e+00,5.000000000000000000e+00,5.000000000000000000e+00,5.000000000000000000e+00,5.000000000000000000e+00,5.000000000000000000e+00,5.000000000000000000e+00,5.000000000000000000e+00,5.000000000000000000e+00,5.000000000000000000e+00,5.000000000000000000e+00,5.000000000000000000e+00,5.000000000000000000e+00,5.000000000000000000e+00,5.000000000000000000e+00,5.000000000000000000e+00,5.000000000000000000e+00,5.000000000000000000e+00,4.866990566253662109e+00,4.675632476806640625e+00,4.498751640319824219e+00,4.334765434265136719e+00,4.182313919067382812e+00,4.040221691131591797e+00,3.907467126846313477e+00,1.385407328605651855e+00,1.360427975654602051e+00,1.345086932182312012e+00,1.337573528289794922e+00,1.363244295120239258e+00,3.263975620269775391e+00,3.176782369613647461e+00,1.342652440071105957e+00,1.306894063949584961e+00,1.287185311317443848e+00,1.282675981521606445e+00,1.277235627174377441e+00,2.737936735153198242e+00,2.676318645477294922e+00,2.617412805557250977e+00,2.561043739318847656e+00,2.507051944732666016e+00,2.455289125442504883e+00,2.405621051788330078e+00,2.357922554016113281e+00,2.312078475952148438e+00,2.267983198165893555e+00,2.225538492202758789e+00,2.184653282165527344e+00,2.145243167877197266e+00,2.107229471206665039e+00,2.070539712905883789e+00,2.035105943679809570e+00,2.000864267349243164e+00,1.967756032943725586e+00,1.935725212097167969e+00,1.904720783233642578e+00,1.874693870544433594e+00,1.845598936080932617e+00
3.892131090164184570e+00,5.000000000000000000e+00,3.845539093017578125e+00,3.871970653533935547e+00,5.000000000000000000e+00,5.000000000000000000e+00,5.000000000000000000e+00,5.000000000000000000e+00,5.000000000000000000e+00,5.000000000000000000e+00,5.000000000000000000e+00,5.000000000000000000e+00,5.000000000000000000e+00,5.000000000000000000e+00,5.000000000000000000e+00,5.000000000000000000e+00,5.000000000000000000e+00,5.000000000000000000e+00,5.000000000000000000e+00,5.000000000000000000e+00,5.000000000000000000e+00,5.000000000000000000e+00,5.000000000000000000e+00,5.000000000000000000e+00,5.000000000000000000e+00,5.000000000000000000e+00,5.000000000000000000e+00,5.000000000000000000e+00,5.000000000000000000e+00,5.000000000000000000e+00,5.000000000000000000e+00,5.000000000000000000e+00,5.000000000000000000e+00,5.000000000000000000e+00,5.000000000000000000e+00,5.000000000000000000e+00,5.000000000000000000e+00,5.000000000000000000e+00,5.000000000000000000e+00,4.867129802703857422e+00,4.675760269165039062e+00,4.498870849609375000e+00,4.334876060485839844e+00,4.182416915893554688e+00,4.040317535400390625e+00,3.907557249069213867e+00,1.394495964050292969e+00,1.369337677955627441e+00,1.351361632347106934e+00,1.343778371810913086e+00,1.371102452278137207e+00,3.264038324356079102e+00,3.176841735839843750e+00,1.338125228881835938e+00,1.313224911689758301e+00,1.298020005226135254e+00,1.293434381484985352e+00,1.288204550743103027e+00,2.737981081008911133e+00,2.676360845565795898e+00,2.617452859878540039e+00,2.561082601547241211e+00,2.507088899612426758e+00,2.455324888229370117e+00,2.405655145645141602e+00,2.357955217361450195e+00,2.312109947204589844e+00,2.268013715744018555e+00,2.225567579269409180e+00,2.184681415557861328e+00,2.145270109176635742e+00,2.107255697250366211e+00,2.070564985275268555e+00,2.035130262374877930e+00,2.000887870788574219e+00,1.967778682708740234e+00,1.935747385025024414e+00,1.904742240905761719e+00,1.874714612960815430e+00,1.845619082450866699e+00
3.978314161300659180e+00,5.000000000000000000e+00,3.849290609359741211e+00,3.880482912063598633e+00,5.000000000000000000e+00,5.000000000000000000e+00,5.000000000000000000e+00,5.000000000000000000e+00,5.000000000000000000e+00,5.000000000000000000e+00,5.000000000000000000e+00,5.000000000000000000e+00,5.000000000000000000e+00,5.000000000000000000e+00,5.000000000000000000e+00,5.000000000000000000e+00,5.000000000000000000e+00,5.000000000000000000e+00,5.000000000000000000e+00,5.000000000000000000e+00,5.000000000000000000e+00,5.000000000000000000e+00,5.000000000000000000e+00,5.000000000000000000e+00,5.000000000000000000e+00,5.000000000000000000e+00,5.000000000000000000e+00,5.000000000000000000e+00,5.000000000000000000e+00,5.000000000000000000e+00,5.000000000000000000e+00,5.000000000000000000e+00,5.000000000000000000e+00,5.000000000000000000e+00,5.000000000000000000e+00,5.000000000000000000e+00,5.000000000000000000e+00,5.000000000000000000e+00,5.000000000000000000e+00,4.867269039154052734e+00,4.675888538360595703e+00,4.498990535736083984e+00,4.334987163543701172e+00,4.182520389556884766e+00,4.040413856506347656e+00,3.907646894454956055e+00,1.403704762458801270e+00,1.378403902053833008e+00,1.358887314796447754e+00,1.350040912628173828e+00,1.378399968147277832e+00,3.264101266860961914e+00,3.176901340484619141e+00,1.346927046775817871e+00,1.320438861846923828e+00,1.309038519859313965e+00,1.304374933242797852e+00,1.299363493919372559e+00,2.738025426864624023e+00,2.676403045654296875e+00,2.617493391036987305e+00,2.561121225357055664e+00,2.507125854492187500e+00,2.455360412597656250e+00,2.405689239501953125e+00,2.357987880706787109e+00,2.312141656875610352e+00,2.268043756484985352e+00,2.225596904754638672e+00,2.184709548950195312e+00,2.145297288894653320e+00,2.107281923294067383e+00,2.070590257644653320e+00,2.035154819488525391e+00,2.000911474227905273e+00,1.967801570892333984e+00,1.935769438743591309e+00,1.904763579368591309e+00,1.874735355377197266e+00,1.845639228820800781e+00
4.080562591552734375e+00,5.000000000000000000e+00,3.852829217910766602e+00,3.902278423309326172e+00,5.000000000000000000e+00,5.000000000000000000e+00,5.000000000000000000e+00,5.000000000000000000e+00,5.000000000000000000e+00,5.000000000000000000e+00,5.000000000000000000e+00,5.000000000000000000e+00,5.000000000000000000e+00,5.000000000000000000e+00,5.000000000000000000e+00,5.000000000000000000e+00,5.000000000000000000e+00,5.000000000000000000e+00,5.000000000000000000e+00,5.000000000000000000e+00,5.000000000000000000e+00,5.000000000000000000e+00,5.000000000000000000e+00,5.000000000000000000e+00,5.000000000000000000e+00,5.000000000000000000e+00,5.000000000000000000e+00,5.000000000000000000e+00,5.000000000000000000e+00,5.000000000000000000e+00,5.000000000000000000e+00,5.000000000000000000e+00,5.000000000000000000e+00,5.000000000000000000e+00,5.000000000000000000e+00,5.000000000000000000e+00,5.000000000000000000e+00,5.000000000000000000e+00,5.000000000000000000e+00,4.867407798767089844e+00,4.676016807556152344e+00,4.499108314514160156e+00,4.335097789764404297e+00,4.182623386383056641e+00,4.040510177612304688e+00,3.907737016677856445e+00,1.413036108016967773e+00,1.387591123580932617e+00,1.366720557212829590e+00,1.356362223625183105e+00,1.385775685310363770e+00,3.264164209365844727e+00,3.176960706710815430e+00,1.355845570564270020e+00,1.328851819038391113e+00,1.320991635322570801e+00,1.315973162651062012e+00,2.802598476409912109e+00,2.738069534301757812e+00,2.676445484161376953e+00,2.617533683776855469e+00,2.561159849166870117e+00,2.507163047790527344e+00,2.455395936965942383e+00,2.405723571777343750e+00,2.358020782470703125e+00,2.312173128128051758e+00,2.268074274063110352e+00,2.225626230239868164e+00,2.184737682342529297e+00,2.145324468612670898e+00,2.107308149337768555e+00,2.070615530014038086e+00,2.035179138183593750e+00,2.000935077667236328e+00,1.967824459075927734e+00,1.935791611671447754e+00,1.904785037040710449e+00,1.874756097793579102e+00,1.845659136772155762e+00
4.135498523712158203e+00,5.000000000000000000e+00,3.857827425003051758e+00,3.932688951492309570e+00,5.000000000000000000e+00,5.000000000000000000e+00,5.000000000000000000e+00,5.000000000000000000e+00,5.000000000000000000e+00,5.000000000000000000e+00,5.000000000000000000e+00,5.000000000000000000e+00,5.000000000000000000e+00,5.000000000000000000e+00,5.000000000000000000e+00,5.000000000000000000e+00,5.000000000000000000e+00,5.000000000000000000e+00,5.000000000000000000e+00,5.000000000000000000e+00,5.000000000000000000e+00,5.000000000000000000e+00,5.000000000000000000e+00,5.000000000000000000e+00,5.000000000000000000e+00,5.000000000000000000e+00,5.000000000000000000e+00,5.000000000000000000e+00,5.000000000000000000e+00,5.000000000000000000e+00,5.000000000000000000e+00,5.000000000000000000e+00,5.000000000000000000e+00,5.000000000000000000e+00,5.000000000000000000e+00,5.000000000000000000e+00,5.000000000000000000e+00,5.000000000000000000e+00,5.000000000000000000e+00,4.867547035217285156e+00,4.676145076751708984e+00,4.499227046966552734e+00,4.335207462310791016e+00,4.182726383209228516e+00,4.040606498718261719e+00,3.907827138900756836e+00,1.422492027282714844e+00,1.396901488304138184e+00,1.374644398689270020e+00,1.362742900848388672e+00,1.393567681312561035e+00,3.264226913452148438e+00,1.440089702606201172e+00,1.364883065223693848e+00,1.339645266532897949e+00,1.333212137222290039e+00,1.328100681304931641e+00,2.802644729614257812e+00,2.738113880157470703e+00,2.676487445831298828e+00,2.617574214935302734e+00,2.561198711395263672e+00,2.507200002670288086e+00,2.455431461334228516e+00,2.405757427215576172e+00,2.358053684234619141e+00,2.312204599380493164e+00,2.268104553222656250e+00,2.225655317306518555e+00,2.184765815734863281e+00,2.145351648330688477e+00,2.107334375381469727e+00,2.070640802383422852e+00,2.035203695297241211e+00,2.000958681106567383e+00,1.967847228050231934e+00,1.935813665390014648e+00,1.904806494712829590e+00,1.874776840209960938e+00,1.845679163932800293e+00
4.141149044036865234e+00,5.000000000000000000e+00,3.875236034393310547e+00,5.000000000000000000e+00,5.000000000000000000e+00,5.000000000000000000e+00,5.000000000000000000e+00,5.000000000000000000e+00,5.000000000000000000e+00,5.000000000000000000e+00,5.000000000000000000e+00,5.000000000000000000e+00,5.000000000000000000e+00,5.000000000000000000e+00,5.000000000000000000e+00,5.000000000000000000e+00,5.000000000000000000e+00,5.000000000000000000e+00,5.000000000000000000e+00,5.000000000000000000e+00,5.000000000000000000e+00,5.000000000000000000e+00,5.000000000000000000e+00,5.000000000000000000e+00,5.000000000000000000e+00,5.000000000000000000e+00,5.000000000000000000e+00,5.000000000000000000e+00,5.000000000000000000e+00,5.000000000000000000e+00,5.000000000000000000e+00,5.000000000000000000e+00,5.000000000000000000e+00,5.000000000000000000e+00,5.000000000000000000e+00,5.000000000000000000e+00,5.000000000000000000e+00,5.000000000000000000e+00,5.000000000000000000e+00,4.867686271667480469e+00,4.676273822784423828e+00,4.499345779418945312e+00,4.335317611694335938e+00,4.182828426361083984e+00,4.040702819824218750e+00,3.907917261123657227e+00,1.447572231292724609e+00,1.407129287719726562e+00,1.385317564010620117e+00,1.372593283653259277e+00,1.402851223945617676e+00,3.264289855957031250e+00,1.413259267807006836e+00,1.373808979988098145e+00,1.352000832557678223e+00,1.345660924911499023e+00,2.870339393615722656e+00,2.802691221237182617e+00,2.738158226013183594e+00,2.676529645919799805e+00,2.617614746093750000e+00,2.561237096786499023e+00,2.507237195968627930e+00,2.455467224121093750e+00,2.405791521072387695e+00,2.358086347579956055e+00,2.312236070632934570e+00,2.268134832382202148e+00,2.225684642791748047e+00,2.184793949127197266e+00,2.145378828048706055e+00,2.107360363006591797e+00,2.070666074752807617e+00,2.035228013992309570e+00,2.000982284545898438e+00,1.967870116233825684e+00,1.935835838317871094e+00,1.904827833175659180e+00,1.874797582626342773e+00,1.845699310302734375e+00
4.872091770172119141e+00,4.870870113372802734e+00,3.836111545562744141e+00,4.868428707122802734e+00,4.867208480834960938e+00,4.865989685058593750e+00,4.864770889282226562e+00,4.863553047180175781e+00,4.862335681915283203e+00,4.861118793487548828e+00,4.859902381896972656e+00,4.858687400817871094e+00,4.857472419738769531e+00,4.856257915496826172e+00,4.855044364929199219e+00,4.853831291198730469e+00,4.852618694305419922e+00,4.851407051086425781e+00,4.850195407867431641e+00,4.848985195159912109e+00,4.847774982452392578e+00,4.846565246582031250e+00,4.845356464385986328e+00,4.844148159027099609e+00,4.842940330505371094e+00,4.841733455657958984e+00,4.840527057647705078e+00,4.839321136474609375e+00,4.838115692138671875e+00,4.836911201477050781e+00,4.835707187652587891e+00,4.834503650665283203e+00,4.833300590515136719e+00,4.832098484039306641e+00,4.830896377563476562e+00,4.829695224761962891e+00,4.828495025634765625e+00,4.827295303344726562e+00,4.826096057891845703e+00,4.824897289276123047e+00,4.676402091979980469e+00,4.499464511871337891e+00,4.335428237915039062e+00,4.182931423187255859e+00,4.040799140930175781e+00,3.908007144927978516e+00,1.475179314613342285e+00,1.417831420898437500e+00,1.393723130226135254e+00,1.385263800621032715e+00,1.412502884864807129e+00,3.264352321624755859e+00,1.412423253059387207e+00,1.382785797119140625e+00,1.364586234092712402e+00,1.369029283523559570e+00,2.870388031005859375e+00,2.802737474441528320e+00,2.738202333450317383e+00,2.676572084426879883e+00,2.617655038833618164e+00,2.561275720596313477e+00,2.507274150848388672e+00,2.455502510070800781e+00,2.405825853347778320e+00,2.358119249343872070e+00,2.312267541885375977e+00,2.268165349960327148e+00,2.225713729858398438e+00,2.184822082519531250e+00,2.145406007766723633e+00,2.107386589050292969e+00,2.070691347122192383e+00,2.035252332687377930e+00,2.001005887985229492e+00,1.967893004417419434e+00,1.935857892036437988e+00,1.904849290847778320e+00,1.874818086624145508e+00,1.845719337463378906e+00
3.776937723159790039e+00,3.776203632354736328e+00,3.775469303131103516e+00,3.774735927581787109e+00,3.774002790451049805e+00,3.773269653320312500e+00,3.772536754608154297e+00,3.771804332733154297e+00,3.771072149276733398e+00,3.770339965820312500e+00,3.769608497619628906e+00,3.768877267837524414e+00,3.768146038055419922e+00,3.767415285110473633e+00,3.766685009002685547e+00,3.765954494476318359e+00,3.765224695205688477e+00,3.764495134353637695e+00,3.763765335083007812e+00,3.763036489486694336e+00,3.762307882308959961e+00,3.761579036712646484e+00,3.760850906372070312e+00,3.760123014450073242e+00,3.759395122528076172e+00,3.758667707443237305e+00,3.757940769195556641e+00,3.757214069366455078e+00,3.756487369537353516e+00,3.755761146545410156e+00,3.755035161972045898e+00,3.754309177398681641e+00,3.753583908081054688e+00,3.752858877182006836e+00,3.752133846282958984e+00,3.751409292221069336e+00,3.750685214996337891e+00,3.749960899353027344e+00,3.749237060546875000e+00,3.748513698577880859e+00,3.747790336608886719e+00,3.747067451477050781e+00,3.746345043182373047e+00,3.745622396469116211e+00,3.744900465011596680e+00,3.744178771972656250e+00,3.743457078933715820e+00,1.428697466850280762e+00,1.403609037399291992e+00,1.398170113563537598e+00,1.426675200462341309e+00,3.264415264129638672e+00,1.430975794792175293e+00,1.407226562500000000e+00,1.377408385276794434e+00,1.393061995506286621e+00,2.870436668395996094e+00,2.802783966064453125e+00,2.738246440887451172e+00,2.676614284515380859e+00,2.617695569992065430e+00,2.561314582824707031e+00,2.507311344146728516e+00,2.455538034439086914e+00,2.405859947204589844e+00,2.358152151107788086e+00,2.312299251556396484e+00,2.268195629119873047e+00,2.225742816925048828e+00,2.184850215911865234e+00,2.145432949066162109e+00,2.107412815093994141e+00,2.070716857910156250e+00,2.035276889801025391e+00,2.001029491424560547e+00,1.967915773391723633e+00,1.935879945755004883e+00,1.904870629310607910e+00,1.874838829040527344e+00,1.845739483833312988e+00
3.083765745162963867e+00,3.083276271820068359e+00,3.082786798477172852e+00,3.082297801971435547e+00,3.081808805465698242e+00,3.081320047378540039e+00,3.080831289291381836e+00,3.080342769622802734e+00,3.079854488372802734e+00,3.079365968704223633e+00,3.078878164291381836e+00,3.078390359878540039e+00,3.077902317047119141e+00,3.077414751052856445e+00,3.076927423477172852e+00,3.076439857482910156e+00,3.075953006744384766e+00,3.075465917587280273e+00,3.074979066848754883e+00,3.074492454528808594e+00,3.074006080627441406e+00,3.073519468307495117e+00,3.073033332824707031e+00,3.072547435760498047e+00,3.072061300277709961e+00,3.071575641632080078e+00,3.071089982986450195e+00,3.070604562759399414e+00,3.070119142532348633e+00,3.069634199142456055e+00,3.069149255752563477e+00,3.068664312362670898e+00,3.068179607391357422e+00,3.067695140838623047e+00,3.067210674285888672e+00,3.066726446151733398e+00,3.066242456436157227e+00,3.065758466720581055e+00,3.065274953842163086e+00,3.064791440963745117e+00,3.064307689666748047e+00,3.063824415206909180e+00,3.063341379165649414e+00,3.062858343124389648e+00,3.062375545501708984e+00,3.061892986297607422e+00,3.061410188674926758e+00,1.439936995506286621e+00,1.414472341537475586e+00,1.411319375038146973e+00,3.059481620788574219e+00,1.487008094787597656e+00,1.428458094596862793e+00,1.409038543701171875e+00,1.409361481666564941e+00,2.941487312316894531e+00,2.870485305786132812e+00,2.802830219268798828e+00,2.738290548324584961e+00,2.676656484603881836e+00,2.617735862731933594e+00,2.561353206634521484e+00,2.507348537445068359e+00,2.455573797225952148e+00,2.405894041061401367e+00,2.358184576034545898e+00,2.312330722808837891e+00,2.268225908279418945e+00,2.225772142410278320e+00,2.184878587722778320e+00,2.145460128784179688e+00,2.107439041137695312e+00,2.070742130279541016e+00,2.035301208496093750e+00,2.001053094863891602e+00,1.967938661575317383e+00,1.935902118682861328e+00,1.904891848564147949e+00,1.874859571456909180e+00,1.845759630203247070e+00
2.605571508407592773e+00,2.605221986770629883e+00,2.604872703552246094e+00,2.604523420333862305e+00,2.604174375534057617e+00,2.603825330734252930e+00,2.603476285934448242e+00,2.603127479553222656e+00,2.602778673171997070e+00,2.602429866790771484e+00,2.602081298828125000e+00,2.601732969284057617e+00,2.601384401321411133e+00,2.601036071777343750e+00,2.600687980651855469e+00,2.600339651107788086e+00,2.599991798400878906e+00,2.599643707275390625e+00,2.599295854568481445e+00,2.598948001861572266e+00,2.598600387573242188e+00,2.598252773284912109e+00,2.597905397415161133e+00,2.597558021545410156e+00,2.597210645675659180e+00,2.596863508224487305e+00,2.596516370773315430e+00,2.596169471740722656e+00,2.595822334289550781e+00,2.595475673675537109e+00,2.595129013061523438e+00,2.594782352447509766e+00,2.594435691833496094e+00,2.594089269638061523e+00,2.593742847442626953e+00,2.593396663665771484e+00,2.593050479888916016e+00,2.592704296112060547e+00,2.592358350753784180e+00,2.592012405395507812e+00,2.591666460037231445e+00,2.591320991516113281e+00,2.590975284576416016e+00,2.590629577636718750e+00,2.590284347534179688e+00,2.589939117431640625e+00,2.589593648910522461e+00,1.451372146606445312e+00,1.425505042076110840e+00,1.420945167541503906e+00,2.588213682174682617e+00,1.485638141632080078e+00,1.431101202964782715e+00,1.401436328887939453e+00,1.393942594528198242e+00,2.586490631103515625e+00,2.586146116256713867e+00,2.585802078247070312e+00,2.585457801818847656e+00,2.585113763809204102e+00,2.584769725799560547e+00,2.561392068862915039e+00,2.507385253906250000e+00,2.455609321594238281e+00,2.405928134918212891e+00,2.358217477798461914e+00,2.312362194061279297e+00,2.268256187438964844e+00,2.225801467895507812e+00,2.184906721115112305e+00,2.145487308502197266e+00,2.107465267181396484e+00,2.070767164230346680e+00,2.035325765609741211e+00,2.001076698303222656e+00,1.967961549758911133e+00,1.935924291610717773e+00,1.904913306236267090e+00,1.874880313873291016e+00,1.845779657363891602e+00
2.255717754364013672e+00,2.255458354949951172e+00,2.255198955535888672e+00,2.254939794540405273e+00,2.254680395126342773e+00,2.254421234130859375e+00,2.254162073135375977e+00,2.253903150558471680e+00,2.253644227981567383e+00,2.253385305404663086e+00,2.253126382827758789e+00,2.252867460250854492e+00,2.252608776092529297e+00,2.252350091934204102e+00,2.252091646194458008e+00,2.251832962036132812e+00,2.251574516296386719e+00,2.251316070556640625e+00,2.251057624816894531e+00,2.250799179077148438e+00,2.250540971755981445e+00,2.250282764434814453e+00,2.250024557113647461e+00,2.249764204025268555e+00,2.249503374099731445e+00,2.249243021011352539e+00,2.248982667922973633e+00,2.248722314834594727e+00,2.248461961746215820e+00,2.248201847076416016e+00,2.247941732406616211e+00,2.247681617736816406e+00,2.247421503067016602e+00,2.247161626815795898e+00,2.246901512145996094e+00,2.246641874313354492e+00,2.246381998062133789e+00,2.246122121810913086e+00,2.245862483978271484e+00,2.245602846145629883e+00,2.245343208312988281e+00,2.245083808898925781e+00,2.244824409484863281e+00,2.244565010070800781e+00,2.244305610656738281e+00,2.244046449661254883e+00,2.243787288665771484e+00,1.477634906768798828e+00,1.450508594512939453e+00,1.441717982292175293e+00,2.242751121520996094e+00,2.242492198944091797e+00,1.446582436561584473e+00,1.392513990402221680e+00,1.379488587379455566e+00,1.397225499153137207e+00,2.241198539733886719e+00,2.240940093994140625e+00,2.240681648254394531e+00,2.240422964096069336e+00,2.240164756774902344e+00,2.239906549453735352e+00,2.239648103713989258e+00,2.239389896392822266e+00,2.239131927490234375e+00,2.238873720169067383e+00,2.238615751266479492e+00,2.238357782363891602e+00,2.225830554962158203e+00,2.184934616088867188e+00,2.145514488220214844e+00,2.107491493225097656e+00,2.070792436599731445e+00,2.035350084304809570e+00,2.001100301742553711e+00,1.967984318733215332e+00,1.935946345329284668e+00,1.904934644699096680e+00,1.874901056289672852e+00,1.845799803733825684e+00
1.988582372665405273e+00,1.988380551338195801e+00,1.988179087638854980e+00,1.987977504730224609e+00,1.987776041030883789e+00,1.987574458122253418e+00,1.987373232841491699e+00,1.987171888351440430e+00,1.986970543861389160e+00,1.986769318580627441e+00,1.986567974090576172e+00,1.986366868019104004e+00,1.986165523529052734e+00,1.985964536666870117e+00,1.985763549804687500e+00,1.985562443733215332e+00,1.985361576080322266e+00,1.985160470008850098e+00,1.984959602355957031e+00,1.984758615493774414e+00,1.984557867050170898e+00,1.984357118606567383e+00,1.984156250953674316e+00,1.983955740928649902e+00,1.983754873275756836e+00,1.983554363250732422e+00,1.983353853225708008e+00,1.983153223991394043e+00,1.982952833175659180e+00,1.982752203941345215e+00,1.982551813125610352e+00,1.982351303100585938e+00,1.982151150703430176e+00,1.981950879096984863e+00,1.981750488281250000e+00,1.981550335884094238e+00,1.981350064277648926e+00,1.981150031089782715e+00,1.980949759483337402e+00,1.980749845504760742e+00,1.980549931526184082e+00,1.980349779129028320e+00,1.980149984359741211e+00,1.979949831962585449e+00,1.979750156402587891e+00,1.979550123214721680e+00,1.979350447654724121e+00,1.481554746627807617e+00,1.447752833366394043e+00,1.432839035987854004e+00,1.978551745414733887e+00,1.978352189064025879e+00,1.978152513504028320e+00,1.386801958084106445e+00,1.362362384796142578e+00,1.368359088897705078e+00,1.402858257293701172e+00,1.977155447006225586e+00,1.976956248283386230e+00,1.976756930351257324e+00,1.976557731628417969e+00,1.976358652114868164e+00,1.976159453392028809e+00,1.975960373878479004e+00,1.975761175155639648e+00,1.975562334060668945e+00,1.975363135337829590e+00,1.975164294242858887e+00,1.974965572357177734e+00,1.974766492843627930e+00,1.974567890167236328e+00,1.974368929862976074e+00,1.974170327186584473e+00,1.973971486091613770e+00,1.973772883415222168e+00,1.968007206916809082e+00,1.935968279838562012e+00,1.904956102371215820e+00,1.874921798706054688e+00,1.845819950103759766e+00
1.778018712997436523e+00,1.777857422828674316e+00,1.777696371078491211e+00,1.777535200119018555e+00,1.777374148368835449e+00,1.777213215827941895e+00,1.777052044868469238e+00,1.776891112327575684e+00,1.776730060577392578e+00,1.776569247245788574e+00,1.776408195495605469e+00,1.776247382164001465e+00,1.776086568832397461e+00,1.775925636291503906e+00,1.775764942169189453e+00,1.775604128837585449e+00,1.775443434715270996e+00,1.775282621383666992e+00,1.775122046470642090e+00,1.774961471557617188e+00,1.774800777435302734e+00,1.774640202522277832e+00,1.774479508399963379e+00,1.774319052696228027e+00,1.774158477783203125e+00,1.773998141288757324e+00,1.773837685585021973e+00,1.773677229881286621e+00,1.773516893386840820e+00,1.773356437683105469e+00,1.773196220397949219e+00,1.773036003112792969e+00,1.772875547409057617e+00,1.772715449333190918e+00,1.772555112838745117e+00,1.772395014762878418e+00,1.772234678268432617e+00,1.772074699401855469e+00,1.771914601325988770e+00,1.771754503250122070e+00,1.771594524383544922e+00,1.771434426307678223e+00,1.771274447441101074e+00,1.771114349365234375e+00,1.770954608917236328e+00,1.770794749259948730e+00,1.770634770393371582e+00,1.490371227264404297e+00,1.435480952262878418e+00,1.414321184158325195e+00,1.406754136085510254e+00,1.769835829734802246e+00,1.769676208496093750e+00,1.769516468048095703e+00,1.350196003913879395e+00,1.349327445030212402e+00,1.361509203910827637e+00,1.768877983093261719e+00,1.768718600273132324e+00,1.768559217453002930e+00,1.768399596214294434e+00,1.768240213394165039e+00,1.768080711364746094e+00,1.767921447753906250e+00,1.767761945724487305e+00,1.767602801322937012e+00,1.767443537712097168e+00,1.767284154891967773e+00,1.767125010490417480e+00,1.766965746879577637e+00,1.766806602478027344e+00,1.766647338867187500e+00,1.766488313674926758e+00,1.766329288482666016e+00,1.766170144081115723e+00,1.766011118888854980e+00,1.765852093696594238e+00,1.765693187713623047e+00,1.765534162521362305e+00,1.765375256538391113e+00
1.607777237892150879e+00,1.607645273208618164e+00,1.607513666152954102e+00,1.607381939888000488e+00,1.607250094413757324e+00,1.607118487358093262e+00,1.606986761093139648e+00,1.606855154037475586e+00,1.606723427772521973e+00,1.606591820716857910e+00,1.606460332870483398e+00,1.606328725814819336e+00,1.606197237968444824e+00,1.606065511703491211e+00,1.605934143066406250e+00,1.605802536010742188e+00,1.605671167373657227e+00,1.605539798736572266e+00,1.605408310890197754e+00,1.605276942253112793e+00,1.605145454406738281e+00,1.605014204978942871e+00,1.604882717132568359e+00,1.604751467704772949e+00,1.604620218276977539e+00,1.604488849639892578e+00,1.604357719421386719e+00,1.604226350784301758e+00,1.604095220565795898e+00,1.603963971138000488e+00,1.603832840919494629e+00,1.603701829910278320e+00,1.603570580482482910e+00,1.603439569473266602e+00,1.603308439254760742e+00,1.603177428245544434e+00,1.603046298027038574e+00,1.602915287017822266e+00,1.602784395217895508e+00,1.602653384208679199e+00,1.602522492408752441e+00,1.602391481399536133e+00,1.602260589599609375e+00,1.602129817008972168e+00,1.601998805999755859e+00,1.601868033409118652e+00,1.601737141609191895e+00,1.601606369018554688e+00,1.416598200798034668e+00,1.396015763282775879e+00,1.384029984474182129e+00,1.380083799362182617e+00,1.600952744483947754e+00,1.600821971893310547e+00,1.345476984977722168e+00,1.315914750099182129e+00,1.325068712234497070e+00,1.347245812416076660e+00,1.600168943405151367e+00,1.600038528442382812e+00,1.599907875061035156e+00,1.599777460098266602e+00,1.599646806716918945e+00,1.599516510963439941e+00,1.599386096000671387e+00,1.599255561828613281e+00,1.599125266075134277e+00,1.598994731903076172e+00,1.598864555358886719e+00,1.598734140396118164e+00,1.598603844642639160e+00,1.598473668098449707e+00,1.598343253135681152e+00,1.598213076591491699e+00,1.598082780838012695e+00,1.597952604293823242e+00,1.597822308540344238e+00,1.597692251205444336e+00,1.597562193870544434e+00,1.597432017326354980e+00
1.467287540435791016e+00,1.467177748680114746e+00,1.467067956924438477e+00,1.466958284378051758e+00,1.466848492622375488e+00,1.466738820075988770e+00,1.466629147529602051e+00,1.466519474983215332e+00,1.466409921646118164e+00,1.466300249099731445e+00,1.466190576553344727e+00,1.466080904006958008e+00,1.465971469879150391e+00,1.465861797332763672e+00,1.465752243995666504e+00,1.465642809867858887e+00,1.465533256530761719e+00,1.465423822402954102e+00,1.465314149856567383e+00,1.465204834938049316e+00,1.465095281600952148e+00,1.464985847473144531e+00,1.464876532554626465e+00,1.464766979217529297e+00,1.464657664299011230e+00,1.464548230171203613e+00,1.464438915252685547e+00,1.464329481124877930e+00,1.464220285415649414e+00,1.464110970497131348e+00,1.464001655578613281e+00,1.463892459869384766e+00,1.463783144950866699e+00,1.463673949241638184e+00,1.463564634323120117e+00,1.463455438613891602e+00,1.463346362113952637e+00,1.463237047195434570e+00,1.463127970695495605e+00,1.463018774986267090e+00,1.462909698486328125e+00,1.462800502777099609e+00,1.462691426277160645e+00,1.462582468986511230e+00,1.462473273277282715e+00,1.462364315986633301e+00,1.462255239486694336e+00,1.462146282196044922e+00,1.398696303367614746e+00,1.364197611808776855e+00,1.352651119232177734e+00,1.350224375724792480e+00,1.345938444137573242e+00,1.461492538452148438e+00,1.461383700370788574e+00,1.461274862289428711e+00,1.311287641525268555e+00,1.461057066917419434e+00,1.460948228836059570e+00,1.460839390754699707e+00,1.460730552673339844e+00,1.460621833801269531e+00,1.460513114929199219e+00,1.460404276847839355e+00,1.460295557975769043e+00,1.460186839103698730e+00,1.460078120231628418e+00,1.459969401359558105e+00,1.459860801696777344e+00,1.459752202033996582e+00,1.459643483161926270e+00,1.459534883499145508e+00,1.459426164627075195e+00,1.459317684173583984e+00,1.459208965301513672e+00,1.459100484848022461e+00,1.458992004394531250e+00,1.458883404731750488e+00,1.458774924278259277e+00,1.458666443824768066e+00
1.349377155303955078e+00,1.349284291267395020e+00,1.349191427230834961e+00,1.349098682403564453e+00,1.349005818367004395e+00,1.348913073539733887e+00,1.348820328712463379e+00,1.348727583885192871e+00,1.348634839057922363e+00,1.348542094230651855e+00,1.348449349403381348e+00,1.348356604576110840e+00,1.348263978958129883e+00,1.348171353340148926e+00,1.348078608512878418e+00,1.347985982894897461e+00,1.347893357276916504e+00,1.347800731658935547e+00,1.347708106040954590e+00,1.347615480422973633e+00,1.347522974014282227e+00,1.347430348396301270e+00,1.347337841987609863e+00,1.347245216369628906e+00,1.347152709960937500e+00,1.347060084342956543e+00,1.346967697143554688e+00,1.346875190734863281e+00,1.346782684326171875e+00,1.346690297126770020e+00,1.346597671508789062e+00,1.346505284309387207e+00,1.346412777900695801e+00,1.346320390701293945e+00,1.346228122711181641e+00,1.346135616302490234e+00,1.346043229103088379e+00,1.345950841903686523e+00,1.345858573913574219e+00,1.345766067504882812e+00,1.345673799514770508e+00,1.345581531524658203e+00,1.345489144325256348e+00,1.345396876335144043e+00,1.345304608345031738e+00,1.345212340354919434e+00,1.345120072364807129e+00,1.345027804374694824e+00,1.344935655593872070e+00,1.344843387603759766e+00,1.344211935997009277e+00,1.330679893493652344e+00,1.330322980880737305e+00,1.330115079879760742e+00,1.344382405281066895e+00,1.344290375709533691e+00,1.344198107719421387e+00,1.344106078147888184e+00,1.344013929367065430e+00,1.343921780586242676e+00,1.343829751014709473e+00,1.343737602233886719e+00,1.343645691871643066e+00,1.343553543090820312e+00,1.343461513519287109e+00,1.343369483947753906e+00,1.343277454376220703e+00,1.343185544013977051e+00,1.343093514442443848e+00,1.343001604080200195e+00,1.342909574508666992e+00,1.342817664146423340e+00,1.342725634574890137e+00,1.342633843421936035e+00,1.342541933059692383e+00,1.342450022697448730e+00,1.342358112335205078e+00,1.342266201972961426e+00,1.342174410820007324e+00,1.342082500457763672e+00
1.249007582664489746e+00,1.248928070068359375e+00,1.248848557472229004e+00,1.248769044876098633e+00,1.248689651489257812e+00,1.248610019683837891e+00,1.248530626296997070e+00,1.248451113700866699e+00,1.248371601104736328e+00,1.248292088508605957e+00,1.248212695121765137e+00,1.248133301734924316e+00,1.248053908348083496e+00,1.247974514961242676e+00,1.247895002365112305e+00,1.247815728187561035e+00,1.247736215591430664e+00,1.247656941413879395e+00,1.247577548027038574e+00,1.247498154640197754e+00,1.247418880462646484e+00,1.247339487075805664e+00,1.247260212898254395e+00,1.247180819511413574e+00,1.247101545333862305e+00,1.247022271156311035e+00,1.246942996978759766e+00,1.246863722801208496e+00,1.246784448623657227e+00,1.246705174446105957e+00,1.246625900268554688e+00,1.246546745300292969e+00,1.246467471122741699e+00,1.246388196945190430e+00,1.246309041976928711e+00,1.246229887008666992e+00,1.246150732040405273e+00,1.246071457862854004e+00,1.245992302894592285e+00,1.245913267135620117e+00,1.245833992958068848e+00,1.245754957199096680e+00,1.245675802230834961e+00,1.245596647262573242e+00,1.245517492294311523e+00,1.245438456535339355e+00,1.245359420776367188e+00,1.245280265808105469e+00,1.245201349258422852e+00,1.245122194290161133e+00,1.245043158531188965e+00,1.244964122772216797e+00,1.244885087013244629e+00,1.244806170463562012e+00,1.244727134704589844e+00,1.244648098945617676e+00,1.244569063186645508e+00,1.244490146636962891e+00,1.244411110877990723e+00,1.244332194328308105e+00,1.244253396987915039e+00,1.244174361228942871e+00,1.244095444679260254e+00,1.244016528129577637e+00,1.243937611579895020e+00,1.243858814239501953e+00,1.243779897689819336e+00,1.243700981140136719e+00,1.243622064590454102e+00,1.243543267250061035e+00,1.243464469909667969e+00,1.243385672569274902e+00,1.243306875228881836e+00,1.243227958679199219e+00,1.243149161338806152e+00,1.243070363998413086e+00,1.242991685867309570e+00,1.242912769317626953e+00,1.242834091186523438e+00,1.242755413055419922e+00
1.162535786628723145e+00,1.162466883659362793e+00,1.162397980690002441e+00,1.162329077720642090e+00,1.162260293960571289e+00,1.162191390991210938e+00,1.162122488021850586e+00,1.162053585052490234e+00,1.161984801292419434e+00,1.161916017532348633e+00,1.161847114562988281e+00,1.161778330802917480e+00,1.161709427833557129e+00,1.161640644073486328e+00,1.161571860313415527e+00,1.161503076553344727e+00,1.161434292793273926e+00,1.161365509033203125e+00,1.161296844482421875e+00,1.161227941513061523e+00,1.161159276962280273e+00,1.161090493202209473e+00,1.161021828651428223e+00,1.160953044891357422e+00,1.160884380340576172e+00,1.160815596580505371e+00,1.160746932029724121e+00,1.160678267478942871e+00,1.160609483718872070e+00,1.160540819168090820e+00,1.160472273826599121e+00,1.160403490066528320e+00,1.160334944725036621e+00,1.160266160964965820e+00,1.160197615623474121e+00,1.160128951072692871e+00,1.160060286521911621e+00,1.159991741180419922e+00,1.159923076629638672e+00,1.159854531288146973e+00,1.159785866737365723e+00,1.159717321395874023e+00,1.159648776054382324e+00,1.159580230712890625e+00,1.159511685371398926e+00,1.159443140029907227e+00,1.159374594688415527e+00,1.159306049346923828e+00,1.159237504005432129e+00,1.159168958663940430e+00,1.159100532531738281e+00,1.159031987190246582e+00,1.158963441848754883e+00,1.158895015716552734e+00,1.158826470375061035e+00,1.158758044242858887e+00,1.158689618110656738e+00,1.158621191978454590e+00,1.158552765846252441e+00,1.158484220504760742e+00,1.158415913581848145e+00,1.158347487449645996e+00,1.158279061317443848e+00,1.158210635185241699e+00,1.158142209053039551e+00,1.158073902130126953e+00,1.158005475997924805e+00,1.157937169075012207e+00,1.157868742942810059e+00,1.157800436019897461e+00,1.157732009887695312e+00,1.157663702964782715e+00,1.157595396041870117e+00,1.157527089118957520e+00,1.157458782196044922e+00,1.157390475273132324e+00,1.157322168350219727e+00,1.157253980636596680e+00,1.157185673713684082e+00,1.157117366790771484e+00
1.087261915206909180e+00,1.087201714515686035e+00,1.087141513824462891e+00,1.087081193923950195e+00,1.087020993232727051e+00,1.086960673332214355e+00,1.086900472640991211e+00,1.086840152740478516e+00,1.086779952049255371e+00,1.086719751358032227e+00,1.086659550666809082e+00,1.086599349975585938e+00,1.086539149284362793e+00,1.086478948593139648e+00,1.086418867111206055e+00,1.086358666419982910e+00,1.086298465728759766e+00,1.086238265037536621e+00,1.086178183555603027e+00,1.086117982864379883e+00,1.086057782173156738e+00,1.085997700691223145e+00,1.085937500000000000e+00,1.085877418518066406e+00,1.085817337036132812e+00,1.085757255554199219e+00,1.085697054862976074e+00,1.085636973381042480e+00,1.085577011108398438e+00,1.085516810417175293e+00,1.085456728935241699e+00,1.085396647453308105e+00,1.085336685180664062e+00,1.085276603698730469e+00,1.085216522216796875e+00,1.085156559944152832e+00,1.085096478462219238e+00,1.085036396980285645e+00,1.084976434707641602e+00,1.084916353225708008e+00,1.084856390953063965e+00,1.084796309471130371e+00,1.084736347198486328e+00,1.084676384925842285e+00,1.084616422653198242e+00,1.084556341171264648e+00,1.084496378898620605e+00,1.084436416625976562e+00,1.084376454353332520e+00,1.084316611289978027e+00,1.084256649017333984e+00,1.084196686744689941e+00,1.084136724472045898e+00,1.084076881408691406e+00,1.084016919136047363e+00,1.083956956863403320e+00,1.083897113800048828e+00,1.083837151527404785e+00,1.083777308464050293e+00,1.083717346191406250e+00,1.083657503128051758e+00,1.083597660064697266e+00,1.083537817001342773e+00,1.083477973937988281e+00,1.083418130874633789e+00,1.083358287811279297e+00,1.083298325538635254e+00,1.083238601684570312e+00,1.083178758621215820e+00,1.083118915557861328e+00,1.083059191703796387e+00,1.082999348640441895e+00,1.082939505577087402e+00,1.082879662513732910e+00,1.082819938659667969e+00,1.082760095596313477e+00,1.082700371742248535e+00,1.082640647888183594e+00,1.082580804824829102e+00,1.082521080970764160e+00
1.021143317222595215e+00,1.021090149879455566e+00,1.021036982536315918e+00,1.020983815193176270e+00,1.020930647850036621e+00,1.020877480506896973e+00,1.020824432373046875e+00,1.020771265029907227e+00,1.020718097686767578e+00,1.020665049552917480e+00,1.020611882209777832e+00,1.020558834075927734e+00,1.020505666732788086e+00,1.020452618598937988e+00,1.020399570465087891e+00,1.020346403121948242e+00,1.020293354988098145e+00,1.020240187644958496e+00,1.020187139511108398e+00,1.020134091377258301e+00,1.020081043243408203e+00,1.020027995109558105e+00,1.019974946975708008e+00,1.019921898841857910e+00,1.019868850708007812e+00,1.019815921783447266e+00,1.019762873649597168e+00,1.019709825515747070e+00,1.019656777381896973e+00,1.019603729248046875e+00,1.019550800323486328e+00,1.019497752189636230e+00,1.019444823265075684e+00,1.019391894340515137e+00,1.019338846206665039e+00,1.019285917282104492e+00,1.019232869148254395e+00,1.019179940223693848e+00,1.019126892089843750e+00,1.019073963165283203e+00,1.019021034240722656e+00,1.018968105316162109e+00,1.018915176391601562e+00,1.018862247467041016e+00,1.018809318542480469e+00,1.018756389617919922e+00,1.018703460693359375e+00,1.018650650978088379e+00,1.018597722053527832e+00,1.018544793128967285e+00,1.018491864204406738e+00,1.018439054489135742e+00,1.018386125564575195e+00,1.018333196640014648e+00,1.018280386924743652e+00,1.018227458000183105e+00,1.018174648284912109e+00,1.018121719360351562e+00,1.018068909645080566e+00,1.018016099929809570e+00,1.017963290214538574e+00,1.017910480499267578e+00,1.017857551574707031e+00,1.017804741859436035e+00,1.017751932144165039e+00,1.017699122428894043e+00,1.017646312713623047e+00,1.017593502998352051e+00,1.017540812492370605e+00,1.017488002777099609e+00,1.017435193061828613e+00,1.017382383346557617e+00,1.017329692840576172e+00,1.017276883125305176e+00,1.017224073410034180e+00,1.017171382904052734e+00,1.017118573188781738e+00,1.017065882682800293e+00,1.017013072967529297e+00,1.016960382461547852e+00
9.626052379608154297e-01,9.625579714775085449e-01,9.625108242034912109e-01,9.624635577201843262e-01,9.624162912368774414e-01,9.623691439628601074e-01,9.623218774795532227e-01,9.622746109962463379e-01,9.622274041175842285e-01,9.621802568435668945e-01,9.621330499649047852e-01,9.620857834815979004e-01,9.620386958122253418e-01,9.619914889335632324e-01,9.619442820549011230e-01,9.618970751762390137e-01,9.618499875068664551e-01,9.618027806282043457e-01,9.617555737495422363e-01,9.617084860801696777e-01,9.616612792015075684e-01,9.616141319274902344e-01,9.615669250488281250e-01,9.615198969841003418e-01,9.614727497100830078e-01,9.614255428314208984e-01,9.613785147666931152e-01,9.613313674926757812e-01,9.612842202186584473e-01,9.612370729446411133e-01,9.611900448799133301e-01,9.611428976058959961e-01,9.610957503318786621e-01,9.610487222671508789e-01,9.610016345977783203e-01,9.609544873237609863e-01,9.609073996543884277e-01,9.608603715896606445e-01,9.608132839202880859e-01,9.607661962509155273e-01,9.607192277908325195e-01,9.606721401214599609e-01,9.606250524520874023e-01,9.605779647827148438e-01,9.605309963226318359e-01,9.604839086532592773e-01,9.604368805885314941e-01,9.603899121284484863e-01,9.603428244590759277e-01,9.602957963943481445e-01,9.602487683296203613e-01,9.602017998695373535e-01,9.601547718048095703e-01,9.601077437400817871e-01,9.600608348846435547e-01,9.600138068199157715e-01,9.599667787551879883e-01,9.599197506904602051e-01,9.598728418350219727e-01,9.598258733749389648e-01,9.597788453102111816e-01,9.597319364547729492e-01,9.596849679946899414e-01,9.596379995346069336e-01,9.595909714698791504e-01,9.595441222190856934e-01,9.594971537590026855e-01,9.594501852989196777e-01,9.594033360481262207e-01,9.593563675880432129e-01,9.593093991279602051e-01,9.592624306678771973e-01,9.592155814170837402e-01,9.591686725616455078e-01,9.591217041015625000e-01,9.590749144554138184e-01,9.590279459953308105e-01,9.589810371398925781e-01,9.589341282844543457e-01,9.588873386383056641e-01
9.104148745536804199e-01,9.103725552558898926e-01,9.103302955627441406e-01,9.102880954742431641e-01,9.102458357810974121e-01,9.102035760879516602e-01,9.101613163948059082e-01,9.101191163063049316e-01,9.100768566131591797e-01,9.100345969200134277e-01,9.099924564361572266e-01,9.099501967430114746e-01,9.099079370498657227e-01,9.098657369613647461e-01,9.098235964775085449e-01,9.097813367843627930e-01,9.097391366958618164e-01,9.096969962120056152e-01,9.096547961235046387e-01,9.096125364303588867e-01,9.095703363418579102e-01,9.095282554626464844e-01,9.094860553741455078e-01,9.094437956809997559e-01,9.094017148017883301e-01,9.093595147132873535e-01,9.093173146247863770e-01,9.092751741409301758e-01,9.092330932617187500e-01,9.091908931732177734e-01,9.091487526893615723e-01,9.091066718101501465e-01,9.090644717216491699e-01,9.090223312377929688e-01,9.089801907539367676e-01,9.089381098747253418e-01,9.088959693908691406e-01,9.088538289070129395e-01,9.088117480278015137e-01,9.087696075439453125e-01,9.087274670600891113e-01,9.086853861808776855e-01,9.086433649063110352e-01,9.086012244224548340e-01,9.085590839385986328e-01,9.085170626640319824e-01,9.084749817848205566e-01,9.084328413009643555e-01,9.083907604217529297e-01,9.083487391471862793e-01,9.083066582679748535e-01,9.082645773887634277e-01,9.082225561141967773e-01,9.081804752349853516e-01,9.081383943557739258e-01,9.080963730812072754e-01,9.080543518066406250e-01,9.080123305320739746e-01,9.079702496528625488e-01,9.079282879829406738e-01,9.078862071037292480e-01,9.078441858291625977e-01,9.078021049499511719e-01,9.077601432800292969e-01,9.077181220054626465e-01,9.076761007308959961e-01,9.076341390609741211e-01,9.075921177864074707e-01,9.075500965118408203e-01,9.075080752372741699e-01,9.074661731719970703e-01,9.074241518974304199e-01,9.073821306228637695e-01,9.073402285575866699e-01,9.072982072830200195e-01,9.072562456130981445e-01,9.072142243385314941e-01,9.071723222732543945e-01,9.071303606033325195e-01,9.070883989334106445e-01
8.635926246643066406e-01,8.635546565055847168e-01,8.635166287422180176e-01,8.634786009788513184e-01,8.634405136108398438e-01,8.634026050567626953e-01,8.633645772933959961e-01,8.633265495300292969e-01,8.632885813713073730e-01,8.632505536079406738e-01,8.632125258445739746e-01,8.631744980812072754e-01,8.631365895271301270e-01,8.630986213684082031e-01,8.630605936050415039e-01,8.630226850509643555e-01,8.629846572875976562e-01,8.629466891288757324e-01,8.629086613655090332e-01,8.628707528114318848e-01,8.628327846527099609e-01,8.627948164939880371e-01,8.627569079399108887e-01,8.627189397811889648e-01,8.626809716224670410e-01,8.626430034637451172e-01,8.626051545143127441e-01,8.625671863555908203e-01,8.625292181968688965e-01,8.624913096427917480e-01,8.624534010887145996e-01,8.624154329299926758e-01,8.623774647712707520e-01,8.623396158218383789e-01,8.623017072677612305e-01,8.622637391090393066e-01,8.622258901596069336e-01,8.621879816055297852e-01,8.621500730514526367e-01,8.621121048927307129e-01,8.620743155479431152e-01,8.620364069938659668e-01,8.619984388351440430e-01,8.619606494903564453e-01,8.619227409362792969e-01,8.618848323822021484e-01,8.618469238281250000e-01,8.618091344833374023e-01,8.617712259292602539e-01,8.617333769798278809e-01,8.616955280303955078e-01,8.616576790809631348e-01,8.616197705268859863e-01,8.615819215774536133e-01,8.615441322326660156e-01,8.615062832832336426e-01,8.614683747291564941e-01,8.614306449890136719e-01,8.613927364349365234e-01,8.613548874855041504e-01,8.613170385360717773e-01,8.612793087959289551e-01,8.612414598464965820e-01,8.612036108970642090e-01,8.611658215522766113e-01,8.611280322074890137e-01,8.610901832580566406e-01,8.610523343086242676e-01,8.610146045684814453e-01,8.609768152236938477e-01,8.609389662742614746e-01,8.609012365341186523e-01,8.608634471893310547e-01,8.608255982398986816e-01,8.607878088951110840e-01,8.607500791549682617e-01,8.607122898101806641e-01,8.606745004653930664e-01,8.606367707252502441e-01,8.605989813804626465e-01
8.213509917259216309e-01,8.213165402412414551e-01,8.212821483612060547e-01,8.212478160858154297e-01,8.212134242057800293e-01,8.211789727210998535e-01,8.211447000503540039e-01,8.211103081703186035e-01,8.210758566856384277e-01,8.210414648056030273e-01,8.210071921348571777e-01,8.209728002548217773e-01,8.209384083747863770e-01,8.209040760993957520e-01,8.208697438240051270e-01,8.208353519439697266e-01,8.208009600639343262e-01,8.207666873931884766e-01,8.207322955131530762e-01,8.206979632377624512e-01,8.206636309623718262e-01,8.206292986869812012e-01,8.205949664115905762e-01,8.205605745315551758e-01,8.205263018608093262e-01,8.204919695854187012e-01,8.204576373100280762e-01,8.204233646392822266e-01,8.203890323638916016e-01,8.203547000885009766e-01,8.203203678131103516e-01,8.202860951423645020e-01,8.202517628669738770e-01,8.202174305915832520e-01,8.201832175254821777e-01,8.201488852500915527e-01,8.201145529747009277e-01,8.200802206993103027e-01,8.200460076332092285e-01,8.200116753578186035e-01,8.199774026870727539e-01,8.199431896209716797e-01,8.199088573455810547e-01,8.198745846748352051e-01,8.198402523994445801e-01,8.198060393333435059e-01,8.197717666625976562e-01,8.197374939918518066e-01,8.197032809257507324e-01,8.196690082550048828e-01,8.196347355842590332e-01,8.196004629135131836e-01,8.195662498474121094e-01,8.195319771766662598e-01,8.194977045059204102e-01,8.194635510444641113e-01,8.194292783737182617e-01,8.193950057029724121e-01,8.193607926368713379e-01,8.193265795707702637e-01,8.192923665046691895e-01,8.192580938339233398e-01,8.192239403724670410e-01,8.191896677017211914e-01,8.191554546356201172e-01,8.191212415695190430e-01,8.190870881080627441e-01,8.190528154373168945e-01,8.190186023712158203e-01,8.189844489097595215e-01,8.189502358436584473e-01,8.189160227775573730e-01,8.188818097114562988e-01,8.188476562500000000e-01,8.188135027885437012e-01,8.187792897224426270e-01,8.187451362609863281e-01,8.187109231948852539e-01,8.186767697334289551e-01,8.186425566673278809e-01
7.830489873886108398e-01,7.830178141593933105e-01,7.829865217208862305e-01,7.829552292823791504e-01,7.829239964485168457e-01,7.828927636146545410e-01,7.828614711761474609e-01,7.828302383422851562e-01,7.827990055084228516e-01,7.827677726745605469e-01,7.827364802360534668e-01,7.827053070068359375e-01,7.826740741729736328e-01,7.826427817344665527e-01,7.826115489006042480e-01,7.825803756713867188e-01,7.825491428375244141e-01,7.825178503990173340e-01,7.824867367744445801e-01,7.824554443359375000e-01,7.824242115020751953e-01,7.823929786682128906e-01,7.823618650436401367e-01,7.823306322097778320e-01,7.822993993759155273e-01,7.822682261466979980e-01,7.822369933128356934e-01,7.822058200836181641e-01,7.821745872497558594e-01,7.821434140205383301e-01,7.821122407913208008e-01,7.820810079574584961e-01,7.820498943328857422e-01,7.820186614990234375e-01,7.819874882698059082e-01,7.819562554359436035e-01,7.819251418113708496e-01,7.818939685821533203e-01,7.818627953529357910e-01,7.818316221237182617e-01,7.818004488945007324e-01,7.817692756652832031e-01,7.817381024360656738e-01,7.817069888114929199e-01,7.816758155822753906e-01,7.816446423530578613e-01,7.816135287284851074e-01,7.815823554992675781e-01,7.815511822700500488e-01,7.815200686454772949e-01,7.814889550209045410e-01,7.814577817916870117e-01,7.814266085624694824e-01,7.813955545425415039e-01,7.813643813133239746e-01,7.813332676887512207e-01,7.813020944595336914e-01,7.812710404396057129e-01,7.812398672103881836e-01,7.812087535858154297e-01,7.811776995658874512e-01,7.811465859413146973e-01,7.811154127120971680e-01,7.810842990875244141e-01,7.810532450675964355e-01,7.810221314430236816e-01,7.809910178184509277e-01,7.809599637985229492e-01,7.809288501739501953e-01,7.808977365493774414e-01,7.808666229248046875e-01,7.808355689048767090e-01,7.808044552803039551e-01,7.807733416557312012e-01,7.807423472404479980e-01,7.807112336158752441e-01,7.806801199913024902e-01,7.806490659713745117e-01,7.806180119514465332e-01,7.805868983268737793e-01
7.481601834297180176e-01,7.481315732002258301e-01,7.481030225753784180e-01,7.480745315551757812e-01,7.480459809303283691e-01,7.480174303054809570e-01,7.479889988899230957e-01,7.479604482650756836e-01,7.479318976402282715e-01,7.479034066200256348e-01,7.478748559951782227e-01,7.478463649749755859e-01,7.478178143501281738e-01,7.477893233299255371e-01,7.477608323097229004e-01,7.477322816848754883e-01,7.477038502693176270e-01,7.476752996444702148e-01,7.476468086242675781e-01,7.476182579994201660e-01,7.475898265838623047e-01,7.475612759590148926e-01,7.475327849388122559e-01,7.475043535232543945e-01,7.474758625030517578e-01,7.474473118782043457e-01,7.474188208580017090e-01,7.473903894424438477e-01,7.473618984222412109e-01,7.473334074020385742e-01,7.473049759864807129e-01,7.472764849662780762e-01,7.472479939460754395e-01,7.472195029258728027e-01,7.471910715103149414e-01,7.471625804901123047e-01,7.471340894699096680e-01,7.471057176589965820e-01,7.470772266387939453e-01,7.470487356185913086e-01,7.470202445983886719e-01,7.469918727874755859e-01,7.469633817672729492e-01,7.469349503517150879e-01,7.469065189361572266e-01,7.468780875205993652e-01,7.468495965003967285e-01,7.468211650848388672e-01,7.467927336692810059e-01,7.467643022537231445e-01,7.467358708381652832e-01,7.467074394226074219e-01,7.466790080070495605e-01,7.466505765914916992e-01,7.466221451759338379e-01,7.465937733650207520e-01,7.465653419494628906e-01,7.465369105339050293e-01,7.465085387229919434e-01,7.464801073074340820e-01,7.464516758918762207e-01,7.464232444763183594e-01,7.463948726654052734e-01,7.463664412498474121e-01,7.463380098342895508e-01,7.463096976280212402e-01,7.462812662124633789e-01,7.462528347969055176e-01,7.462244033813476562e-01,7.461960911750793457e-01,7.461676597595214844e-01,7.461392879486083984e-01,7.461109161376953125e-01,7.460825443267822266e-01,7.460541129112243652e-01,7.460257411003112793e-01,7.459973692893981934e-01,7.459689974784851074e-01,7.459406256675720215e-01,7.459123134613037109e-01
7.162476181983947754e-01,7.162215113639831543e-01,7.161952853202819824e-01,7.161691188812255859e-01,7.161430120468139648e-01,7.161168456077575684e-01,7.160906791687011719e-01,7.160645723342895508e-01,7.160384654998779297e-01,7.160122990608215332e-01,7.159861326217651367e-01,7.159600257873535156e-01,7.159338593482971191e-01,7.159077525138854980e-01,7.158816456794738770e-01,7.158554792404174805e-01,7.158293724060058594e-01,7.158032059669494629e-01,7.157771587371826172e-01,7.157509922981262207e-01,7.157248258590698242e-01,7.156987786293029785e-01,7.156726717948913574e-01,7.156465053558349609e-01,7.156203985214233398e-01,7.155942916870117188e-01,7.155681848526000977e-01,7.155420780181884766e-01,7.155160307884216309e-01,7.154898643493652344e-01,7.154637575149536133e-01,7.154376506805419922e-01,7.154116034507751465e-01,7.153854966163635254e-01,7.153593897819519043e-01,7.153333425521850586e-01,7.153072357177734375e-01,7.152811288833618164e-01,7.152550220489501953e-01,7.152289748191833496e-01,7.152028679847717285e-01,7.151767611503601074e-01,7.151507735252380371e-01,7.151246666908264160e-01,7.150985598564147949e-01,7.150724530220031738e-01,7.150464653968811035e-01,7.150203585624694824e-01,7.149942517280578613e-01,7.149682641029357910e-01,7.149421572685241699e-01,7.149161100387573242e-01,7.148900032043457031e-01,7.148640155792236328e-01,7.148379087448120117e-01,7.148118615150451660e-01,7.147858738899230957e-01,7.147597670555114746e-01,7.147337198257446289e-01,7.147076725959777832e-01,7.146816849708557129e-01,7.146555781364440918e-01,7.146295309066772461e-01,7.146035432815551758e-01,7.145774960517883301e-01,7.145514488220214844e-01,7.145254015922546387e-01,7.144994139671325684e-01,7.144733667373657227e-01,7.144473195075988770e-01,7.144213318824768066e-01,7.143952846527099609e-01,7.143692374229431152e-01,7.143432497978210449e-01,7.143172621726989746e-01,7.142912149429321289e-01,7.142651677131652832e-01,7.142392396926879883e-01,7.142131924629211426e-01,7.141871452331542969e-01
6.869461536407470703e-01,6.869220733642578125e-01,6.868980526924133301e-01,6.868740320205688477e-01,6.868499517440795898e-01,6.868258714675903320e-01,6.868018507957458496e-01,6.867777705192565918e-01,6.867537498474121094e-01,6.867297291755676270e-01,6.867056488990783691e-01,6.866815686225891113e-01,6.866575479507446289e-01,6.866335272789001465e-01,6.866095066070556641e-01,6.865854263305664062e-01,6.865614652633666992e-01,6.865373849868774414e-01,6.865133643150329590e-01,6.864892840385437012e-01,6.864653229713439941e-01,6.864412426948547363e-01,6.864172220230102539e-01,6.863932609558105469e-01,6.863691806793212891e-01,6.863451600074768066e-01,6.863211989402770996e-01,6.862971782684326172e-01,6.862731575965881348e-01,6.862490773200988770e-01,6.862251162528991699e-01,6.862010955810546875e-01,6.861770749092102051e-01,6.861531138420104980e-01,6.861290931701660156e-01,6.861050724983215332e-01,6.860810518264770508e-01,6.860570907592773438e-01,6.860330700874328613e-01,6.860090494155883789e-01,6.859850883483886719e-01,6.859611272811889648e-01,6.859371066093444824e-01,6.859130859375000000e-01,6.858891248703002930e-01,6.858651638031005859e-01,6.858411431312561035e-01,6.858171820640563965e-01,6.857932209968566895e-01,6.857692003250122070e-01,6.857452392578125000e-01,6.857212781906127930e-01,6.856973171234130859e-01,6.856732964515686035e-01,6.856493949890136719e-01,6.856253743171691895e-01,6.856014132499694824e-01,6.855773925781250000e-01,6.855534911155700684e-01,6.855295300483703613e-01,6.855055689811706543e-01,6.854816079139709473e-01,6.854576468467712402e-01,6.854336857795715332e-01,6.854097247123718262e-01,6.853858232498168945e-01,6.853618025779724121e-01,6.853378415107727051e-01,6.853139400482177734e-01,6.852899789810180664e-01,6.852660179138183594e-01,6.852420568466186523e-01,6.852181553840637207e-01,6.851941943168640137e-01,6.851702928543090820e-01,6.851463913917541504e-01,6.851224303245544434e-01,6.850984692573547363e-01,6.850745081901550293e-01,6.850506663322448730e-01
6.599479317665100098e-01,6.599256992340087891e-01,6.599034667015075684e-01,6.598812937736511230e-01,6.598591208457946777e-01,6.598368883132934570e-01,6.598147153854370117e-01,6.597925424575805664e-01,6.597703099250793457e-01,6.597481369972229004e-01,6.597259044647216797e-01,6.597037315368652344e-01,6.596815586090087891e-01,6.596593260765075684e-01,6.596372127532958984e-01,6.596149802207946777e-01,6.595928072929382324e-01,6.595705747604370117e-01,6.595484614372253418e-01,6.595262885093688965e-01,6.595040559768676758e-01,6.594819426536560059e-01,6.594597697257995605e-01,6.594375371932983398e-01,6.594153642654418945e-01,6.593932509422302246e-01,6.593710780143737793e-01,6.593488454818725586e-01,6.593267321586608887e-01,6.593045592308044434e-01,6.592823863029479980e-01,6.592602729797363281e-01,6.592381000518798828e-01,6.592159271240234375e-01,6.591937541961669922e-01,6.591716408729553223e-01,6.591494679450988770e-01,6.591272950172424316e-01,6.591051816940307617e-01,6.590830087661743164e-01,6.590608358383178711e-01,6.590387225151062012e-01,6.590166091918945312e-01,6.589944362640380859e-01,6.589722633361816406e-01,6.589501500129699707e-01,6.589280366897583008e-01,6.589058637619018555e-01,6.588836908340454102e-01,6.588616371154785156e-01,6.588394641876220703e-01,6.588172912597656250e-01,6.587952375411987305e-01,6.587730646133422852e-01,6.587509512901306152e-01,6.587287783622741699e-01,6.587067246437072754e-01,6.586845517158508301e-01,6.586624383926391602e-01,6.586403846740722656e-01,6.586182117462158203e-01,6.585960984230041504e-01,6.585739850997924805e-01,6.585518717765808105e-01,6.585297584533691406e-01,6.585076451301574707e-01,6.584855914115905762e-01,6.584634184837341309e-01,6.584413051605224609e-01,6.584191918373107910e-01,6.583971381187438965e-01,6.583750247955322266e-01,6.583529114723205566e-01,6.583308577537536621e-01,6.583087444305419922e-01,6.582866311073303223e-01,6.582645177841186523e-01,6.582424640655517578e-01,6.582203507423400879e-01,6.581982374191284180e-01
6.349915266036987305e-01,6.349709630012512207e-01,6.349504590034484863e-01,6.349298954010009766e-01,6.349093317985534668e-01,6.348888278007507324e-01,6.348682045936584473e-01,6.348477005958557129e-01,6.348271369934082031e-01,6.348065733909606934e-01,6.347860097885131836e-01,6.347655057907104492e-01,6.347449421882629395e-01,6.347244381904602051e-01,6.347038745880126953e-01,6.346833109855651855e-01,6.346628069877624512e-01,6.346422433853149414e-01,6.346216797828674316e-01,6.346011757850646973e-01,6.345806717872619629e-01,6.345601081848144531e-01,6.345395445823669434e-01,6.345190405845642090e-01,6.344985365867614746e-01,6.344779729843139648e-01,6.344574689865112305e-01,6.344369649887084961e-01,6.344164013862609863e-01,6.343958973884582520e-01,6.343753933906555176e-01,6.343548893928527832e-01,6.343343257904052734e-01,6.343138813972473145e-01,6.342933177947998047e-01,6.342728137969970703e-01,6.342522501945495605e-01,6.342318058013916016e-01,6.342113018035888672e-01,6.341907382011413574e-01,6.341702938079833984e-01,6.341497898101806641e-01,6.341292262077331543e-01,6.341087818145751953e-01,6.340882778167724609e-01,6.340677738189697266e-01,6.340472698211669922e-01,6.340267658233642578e-01,6.340062618255615234e-01,6.339857578277587891e-01,6.339653134346008301e-01,6.339448094367980957e-01,6.339243054389953613e-01,6.339038014411926270e-01,6.338833570480346680e-01,6.338628530502319336e-01,6.338423490524291992e-01,6.338219046592712402e-01,6.338014006614685059e-01,6.337808966636657715e-01,6.337603926658630371e-01,6.337399482727050781e-01,6.337195038795471191e-01,6.336989998817443848e-01,6.336785554885864258e-01,6.336580514907836914e-01,6.336375474929809570e-01,6.336171030998229980e-01,6.335966587066650391e-01,6.335761547088623047e-01,6.335557103157043457e-01,6.335352659225463867e-01,6.335147619247436523e-01,6.334943175315856934e-01,6.334738135337829590e-01,6.334533691406250000e-01,6.334329247474670410e-01,6.334124803543090820e-01,6.333920359611511230e-01,6.333715915679931641e-01
6.118539571762084961e-01,6.118348240852355957e-01,6.118157505989074707e-01,6.117966771125793457e-01,6.117776036262512207e-01,6.117585301399230957e-01,6.117393970489501953e-01,6.117203831672668457e-01,6.117012500762939453e-01,6.116821765899658203e-01,6.116631627082824707e-01,6.116440296173095703e-01,6.116249561309814453e-01,6.116058826446533203e-01,6.115868091583251953e-01,6.115677356719970703e-01,6.115486621856689453e-01,6.115296483039855957e-01,6.115105748176574707e-01,6.114915013313293457e-01,6.114723682403564453e-01,6.114533543586730957e-01,6.114342808723449707e-01,6.114152073860168457e-01,6.113961935043334961e-01,6.113771200180053711e-01,6.113580465316772461e-01,6.113389730453491211e-01,6.113199591636657715e-01,6.113008856773376465e-01,6.112818121910095215e-01,6.112627983093261719e-01,6.112437248229980469e-01,6.112246513366699219e-01,6.112056374549865723e-01,6.111866235733032227e-01,6.111675500869750977e-01,6.111484766006469727e-01,6.111294627189636230e-01,6.111103892326354980e-01,6.110913753509521484e-01,6.110723018646240234e-01,6.110532879829406738e-01,6.110342741012573242e-01,6.110152006149291992e-01,6.109961867332458496e-01,6.109771728515625000e-01,6.109580993652343750e-01,6.109390854835510254e-01,6.109200716018676758e-01,6.109009981155395508e-01,6.108819842338562012e-01,6.108629703521728516e-01,6.108439564704895020e-01,6.108248829841613770e-01,6.108059287071228027e-01,6.107868552207946777e-01,6.107678413391113281e-01,6.107488274574279785e-01,6.107298135757446289e-01,6.107107996940612793e-01,6.106917858123779297e-01,6.106727719306945801e-01,6.106537580490112305e-01,6.106347441673278809e-01,6.106157302856445312e-01,6.105967164039611816e-01,6.105777025222778320e-01,6.105586886405944824e-01,6.105397343635559082e-01,6.105207204818725586e-01,6.105017066001892090e-01,6.104826331138610840e-01,6.104636788368225098e-01,6.104446649551391602e-01,6.104256510734558105e-01,6.104066967964172363e-01,6.103876829147338867e-01,6.103686690330505371e-01,6.103496551513671875e-01
5.903431773185729980e-01,5.903254151344299316e-01,5.903076529502868652e-01,5.902898311614990234e-01,5.902720689773559570e-01,5.902543663978576660e-01,5.902365446090698242e-01,5.902187824249267578e-01,5.902010798454284668e-01,5.901833176612854004e-01,5.901654958724975586e-01,5.901477336883544922e-01,5.901300311088562012e-01,5.901122689247131348e-01,5.900945067405700684e-01,5.900767445564270020e-01,5.900589823722839355e-01,5.900412201881408691e-01,5.900234580039978027e-01,5.900057554244995117e-01,5.899879932403564453e-01,5.899702310562133789e-01,5.899525284767150879e-01,5.899347662925720215e-01,5.899170041084289551e-01,5.898992419242858887e-01,5.898815393447875977e-01,5.898637771606445312e-01,5.898460745811462402e-01,5.898283123970031738e-01,5.898106098175048828e-01,5.897928476333618164e-01,5.897750854492187500e-01,5.897573828697204590e-01,5.897396206855773926e-01,5.897219181060791016e-01,5.897042155265808105e-01,5.896864533424377441e-01,5.896686911582946777e-01,5.896509885787963867e-01,5.896332859992980957e-01,5.896155238151550293e-01,5.895978212356567383e-01,5.895801186561584473e-01,5.895623564720153809e-01,5.895446538925170898e-01,5.895268917083740234e-01,5.895092487335205078e-01,5.894914865493774414e-01,5.894737839698791504e-01,5.894560813903808594e-01,5.894383192062377930e-01,5.894206166267395020e-01,5.894029140472412109e-01,5.893852114677429199e-01,5.893675088882446289e-01,5.893497467041015625e-01,5.893321037292480469e-01,5.893143415451049805e-01,5.892966389656066895e-01,5.892789959907531738e-01,5.892612338066101074e-01,5.892435312271118164e-01,5.892258286476135254e-01,5.892081260681152344e-01,5.891904234886169434e-01,5.891727209091186523e-01,5.891550779342651367e-01,5.891373753547668457e-01,5.891196131706237793e-01,5.891019105911254883e-01,5.890842676162719727e-01,5.890665650367736816e-01,5.890488624572753906e-01,5.890312194824218750e-01,5.890135169029235840e-01,5.889958143234252930e-01,5.889781117439270020e-01,5.889604687690734863e-01,5.889427661895751953e-01
5.702935457229614258e-01,5.702769756317138672e-01,5.702603459358215332e-01,5.702438354492187500e-01,5.702272057533264160e-01,5.702106356620788574e-01,5.701940655708312988e-01,5.701774954795837402e-01,5.701609253883361816e-01,5.701442956924438477e-01,5.701277852058410645e-01,5.701112151145935059e-01,5.700945854187011719e-01,5.700780749320983887e-01,5.700615048408508301e-01,5.700448751449584961e-01,5.700283050537109375e-01,5.700117945671081543e-01,5.699952244758605957e-01,5.699786543846130371e-01,5.699620842933654785e-01,5.699455142021179199e-01,5.699289441108703613e-01,5.699123740196228027e-01,5.698958635330200195e-01,5.698792934417724609e-01,5.698627233505249023e-01,5.698461532592773438e-01,5.698295831680297852e-01,5.698130130767822266e-01,5.697964429855346680e-01,5.697799324989318848e-01,5.697633624076843262e-01,5.697467923164367676e-01,5.697302818298339844e-01,5.697137117385864258e-01,5.696972012519836426e-01,5.696806311607360840e-01,5.696641206741333008e-01,5.696475505828857422e-01,5.696309804916381836e-01,5.696144700050354004e-01,5.695978999137878418e-01,5.695813298225402832e-01,5.695648193359375000e-01,5.695483088493347168e-01,5.695317387580871582e-01,5.695151686668395996e-01,5.694986581802368164e-01,5.694821476936340332e-01,5.694655776023864746e-01,5.694490671157836914e-01,5.694325566291809082e-01,5.694159865379333496e-01,5.693994760513305664e-01,5.693829655647277832e-01,5.693663954734802246e-01,5.693498849868774414e-01,5.693333148956298828e-01,5.693168044090270996e-01,5.693002939224243164e-01,5.692837834358215332e-01,5.692672729492187500e-01,5.692507028579711914e-01,5.692341923713684082e-01,5.692176818847656250e-01,5.692011713981628418e-01,5.691846609115600586e-01,5.691680908203125000e-01,5.691516399383544922e-01,5.691350698471069336e-01,5.691185593605041504e-01,5.691020488739013672e-01,5.690855383872985840e-01,5.690690279006958008e-01,5.690525174140930176e-01,5.690360069274902344e-01,5.690194964408874512e-01,5.690029859542846680e-01,5.689864754676818848e-01
